ply
format ascii 1.0
comment PCL generated
element vertex 1524
property float x
property float y
property float z
element camera 0
property float view_px
property float view_py
property float view_pz
property float x_axisx
property float x_axisy
property float x_axisz
property float y_axisx
property float y_axisy
property float y_axisz
property float z_axisx
property float z_axisy
property float z_axisz
property float focal
property float scalex
property float scaley
property float centerx
property float centery
property int viewportx
property int viewporty
property float k1
property float k2
end_header
1.4199427 2.2215798 2.9335315
1.462311 2.2187631 2.9112041
-1.3291847 2.2750175 2.9215679
-1.2510691 2.2997854 2.9443882
1.3935344 2.2716098 2.9438477
1.4280473 2.2698908 2.9269316
1.4595902 2.2636232 2.9037745
-1.315609 2.3217854 2.9221787
-1.2738585 2.3237925 2.9396908
-1.2297038 2.3365774 2.9302573
1.3863456 2.3340342 2.9437504
1.4230827 2.3168871 2.9250519
1.455373 2.3296754 2.9082241
-1.2789302 2.358027 2.9204154
-1.2152557 2.3608394 2.9139216
-1.1797665 2.3605378 2.9259493
-1.1234559 2.3712494 2.9229643
-1.0698117 2.3600125 2.9282162
-1.0232776 2.3638098 2.9258771
-0.97369939 2.3674924 2.9273586
-0.92029095 2.3737361 2.9326007
-0.87398565 2.3750186 2.9287488
-0.83313799 2.3744857 2.9293432
-0.78046858 2.381418 2.933311
-0.72495198 2.3753898 2.9323008
-0.67771846 2.37427 2.9266808
-0.62533712 2.3815098 2.9389563
-0.58043426 2.3741486 2.9372072
-0.51863647 2.3669472 2.9376576
1.3794531 2.3817327 2.93241
1.4225124 2.3719659 2.9115534
1.4578196 2.351557 2.9005797
0.97899127 2.4461982 2.9416325
1.0305315 2.4423952 2.9215147
1.0946358 2.449393 2.9474223
1.1082693 2.4489512 2.9241028
1.1886809 2.4411812 2.9420888
1.2238284 2.4396489 2.9275284
1.2767067 2.4375966 2.9240813
1.3330259 2.4321525 2.9330974
1.3695514 2.4206214 2.9213948
0.99923563 2.4524052 2.9440012
1.0206798 2.4612896 2.9494455
1.074932 2.4630842 2.9352291
1.1300292 2.4575906 2.9284964
1.1681083 2.453635 2.9287956
0.389902 -0.51493704 2.9533103
0.42611933 -0.52554423 2.9690878
0.48476666 -0.53927702 2.9991593
1.1948032 -0.47709945 2.9791954
1.2128599 -0.46072945 2.9842594
1.2165762 -0.42487928 2.9852314
0.29195791 -0.38192099 2.9968042
1.233508 -0.3801226 2.9895184
1.2395442 -0.3266592 2.9894969
1.2527351 -0.30823028 2.9716668
1.2439517 -0.27198839 2.9936554
1.2633624 -0.27126876 2.9792986
0.27629367 -0.24389194 2.993413
1.2448776 -0.23436642 2.998096
1.2750883 -0.2248109 2.9851446
1.3134608 -0.2105106 2.9605706
0.21692862 -0.15638278 2.9732425
1.2729579 -0.17352666 2.9868841
1.316828 -0.17359096 2.9638212
0.21266612 -0.1310183 2.9640944
1.1640692 -0.11879691 2.9679163
1.275938 -0.12063947 2.9877012
1.3235288 -0.1202308 2.9621065
0.21714772 -0.080606394 2.977895
1.1644349 -0.081625231 2.9696994
1.2820833 -0.075410388 2.9910948
1.3206651 -0.073761038 2.9672418
0.21373686 -0.024891132 2.9806991
1.2822516 -0.030037748 2.9920104
1.322224 -0.029900171 2.9659746
0.21067105 0.024383638 2.9733107
1.2788063 0.023735993 2.9905937
1.3213629 0.022826232 2.9640272
0.20912187 0.07090316 2.9652817
1.2817842 0.075846352 2.9902751
1.3204671 0.075591542 2.9666464
0.21003284 0.12095483 2.9769564
1.278837 0.12340348 2.9907863
1.3144214 0.12075537 2.9659953
0.20271319 0.17068167 2.9732399
1.2779303 0.17121646 2.9903812
1.315272 0.17359829 2.9660184
0.18737291 0.21209565 2.9543967
0.20272624 0.2204805 2.971257
1.2777389 0.22926854 2.9901977
1.3159117 0.22646421 2.9649174
0.1886099 0.29178208 2.9695158
0.20237164 0.26983058 2.9633677
1.2774023 0.27314046 2.9918208
1.3170291 0.27195254 2.9647284
0.18863179 0.32738772 2.967411
0.20506941 0.32375789 2.9995408
1.2778836 0.32632554 2.9891462
1.3173711 0.32315138 2.9653902
0.18840429 0.37676805 2.959929
0.20420319 0.37250671 2.9830685
1.2499151 0.3953236 2.9980264
1.2778776 0.37941828 2.9847326
1.3145056 0.38029036 2.9616413
0.18913609 0.43527949 2.9663024
0.20452103 0.4233335 2.9832616
1.24026 0.42500868 2.9923189
1.2775303 0.42481267 2.9795315
1.3193659 0.42237222 2.9623489
0.18966755 0.47234881 2.9710085
0.20511226 0.47495991 2.9869146
1.2346107 0.45606872 2.9960787
1.2747606 0.47208902 2.988246
1.3228503 0.47026131 2.9602103
0.19043311 0.52451235 2.9774346
1.2856809 0.52408403 2.983938
1.3232614 0.52197015 2.9585221
0.19011652 0.57380098 2.9663591
1.2791089 0.5767408 2.9885311
1.3015668 0.57278925 2.9780531
0.19226174 0.61657172 2.9950464
1.2796471 0.62673372 2.9797792
-1.2299523 0.66634989 2.9565239
-1.1759412 0.68524915 2.9661078
-0.2334668 0.68270063 2.954639
0.17555068 0.6590721 2.9513307
1.2779375 0.67568678 2.98873
1.3160585 0.67951757 2.9961448
-1.1707971 0.72398108 2.9680879
-1.134603 0.73643482 2.9809153
-0.23100677 0.72263736 2.9566734
-0.1978685 0.74143815 2.9520922
1.2746962 0.7244671 2.9879432
-1.175086 0.77044284 2.9543433
-1.1306236 0.77524406 2.9783967
-0.25920126 0.78152776 2.9874439
-0.22652179 0.77224809 2.9613266
-0.1982881 0.77907544 2.952111
0.17811432 0.75592411 2.9805634
1.2743376 0.77027875 2.9846225
1.3029305 0.78899133 2.9871655
-0.25896409 0.82462776 2.9767401
-0.23057568 0.82653725 2.9685891
-0.19180229 0.83270282 2.9542544
1.2712998 0.81948441 2.9890773
1.3011945 0.82398391 2.9760771
-0.31606299 0.87220067 2.9511669
-0.2601341 0.87967235 2.9802849
-0.22678629 0.87679166 2.9671035
-0.19453217 0.86065102 2.9538252
1.2747446 0.87287563 2.9827471
1.3070394 0.879381 2.9575889
-0.31852955 0.92298681 2.9651325
-0.2610364 0.92685276 2.9815514
-0.22297959 0.92142659 2.966078
-0.18566954 0.93242961 2.9532385
1.2470853 0.90159309 2.9984946
1.2744141 0.92800224 2.9781322
1.3086336 0.92478627 2.9555349
-0.32540572 0.97292411 2.9638772
-0.26198041 0.97449112 2.9827204
-0.22230063 0.97187924 2.969367
-0.18659484 0.98100877 2.9582727
1.2733376 0.97772795 2.9814031
1.3069509 0.97763562 2.9560277
-0.32897863 1.0255609 2.9722033
-0.26167658 1.0249859 2.9673758
-0.22522448 1.0230745 2.9754601
-0.18354113 1.0282724 2.9578729
1.2751453 1.025853 2.9801743
1.3088816 1.0326637 2.9578066
-0.32962587 1.07449 2.9666443
-0.2637223 1.0775461 2.9797797
-0.22615145 1.0717596 2.9768717
-0.17308688 1.0757705 2.9569418
1.2746696 1.0749843 2.9825268
1.3101057 1.0797237 2.9592993
-0.32731527 1.1237118 2.9680462
-0.25761384 1.1205218 2.9861126
-0.22459686 1.1221842 2.9777956
-0.17586309 1.1278297 2.9608033
1.24865 1.1032261 2.9988174
1.2732816 1.1237462 2.9822135
1.3152033 1.1310514 2.9577227
-1.1739738 1.186098 2.9616213
-1.1499611 1.1854539 2.966783
-0.3310737 1.1754638 2.9648335
-0.25425005 1.1671613 2.9790382
-0.22089544 1.1760428 2.9824107
-0.17668554 1.1776762 2.9624314
1.2739269 1.1712179 2.9828641
1.3191437 1.1738281 2.9551322
-1.1675304 1.2069991 2.9614744
-0.32263887 1.2309206 2.9670663
-0.25184771 1.2183799 2.9822617
-0.22173515 1.2232158 2.9820251
-0.17749164 1.2259974 2.9636571
1.275074 1.2238246 2.9870946
1.312929 1.2166901 2.9618876
-0.32308969 1.2827698 2.9695237
-0.25373819 1.272998 2.9913599
-0.2248857 1.2723018 2.9863153
-0.17620677 1.275196 2.9605062
-0.14194849 1.2707769 2.9515872
1.2770965 1.2783293 2.9848237
1.314514 1.2712427 2.9584572
-0.33204097 1.3241509 2.9653459
-0.25491902 1.3246012 2.9913034
-0.22401541 1.3217775 2.9866369
-0.17557327 1.3277106 2.9682896
-0.14655058 1.3234395 2.9550672
1.280912 1.3233612 2.982553
1.3189909 1.3291587 2.960675
-0.32558939 1.3738419 2.9668086
-0.25631094 1.3777623 2.9929311
-0.22508819 1.3738915 2.9862337
-0.17817874 1.375424 2.9664733
-0.14723979 1.3750091 2.9542496
1.283398 1.3732512 2.9891067
1.3218923 1.3799287 2.9639251
-0.33065921 1.4207891 2.9708452
-0.25742102 1.4221534 2.9930911
-0.2244029 1.4255515 2.9879842
-0.17906405 1.4255029 2.9667895
-0.14810561 1.4287003 2.9561741
1.2880374 1.4278992 2.9878201
1.3197407 1.421111 2.9673221
-0.33014199 1.4794072 2.9708524
-0.25869977 1.4678537 2.99457
-0.22757363 1.4739707 2.9903719
-0.18176624 1.4718536 2.9654307
-0.14850479 1.4629986 2.95347
1.2867377 1.4826581 2.9905429
1.3260266 1.473335 2.9643881
-0.32369179 1.5270494 2.9696085
-0.260151 1.5227156 2.9945648
-0.2305925 1.5217154 2.9898009
-0.18104663 1.5258236 2.9687698
-0.14926653 1.5164533 2.9518745
1.2919955 1.5230417 2.9936488
1.3229419 1.5221049 2.9686806
-0.32953468 1.574609 2.9642918
-0.26217771 1.589366 2.9972124
-0.22810848 1.5759069 2.9914284
-0.17650656 1.5774736 2.9615939
1.2897522 1.5828118 2.9977915
1.3244547 1.5718725 2.9705424
1.3506639 1.5934173 2.9571238
-0.2631807 1.6190223 2.9994559
-0.22585881 1.6246867 2.9885767
-0.17498645 1.6257235 2.9638486
1.2940536 1.6212076 2.993953
1.3224859 1.6231571 2.9763029
1.3552624 1.6235812 2.9565742
-0.22623901 1.6749903 2.9914074
-0.17588195 1.6734936 2.9635806
-0.13655978 1.6865042 2.9540222
1.2901611 1.6599079 2.9927335
1.3286706 1.6739072 2.9770093
1.361401 1.6816263 2.9602981
-0.21309267 1.7279749 2.9838612
-0.16663487 1.7241609 2.9600639
1.3235608 1.7256244 2.9854825
1.3603382 1.7236217 2.9597199
-0.21830316 1.7628975 2.9801769
-0.17321458 1.7662318 2.9676824
1.3298219 1.7737396 2.9850817
1.3649468 1.7772071 2.9647608
1.332925 1.8229578 2.9811673
1.3685607 1.8205122 2.9603546
1.3268073 1.8726857 2.9878948
1.3671701 1.8802729 2.9629848
1.3349198 1.9310166 2.9846957
1.3708895 1.9225594 2.9626954
-1.3018028 1.994334 2.976444
-1.27352 1.9771231 2.956753
-1.2299869 1.9925802 2.9598401
1.330233 1.9724283 2.9871652
1.370126 1.9679126 2.9643297
-1.3020188 2.029074 2.9576771
-1.2737169 2.0250473 2.9610524
-1.2299274 2.0321469 2.9689224
1.3300393 2.0196493 2.9903219
1.371168 2.0251303 2.9644651
-1.2794249 2.0835571 2.9681835
-1.2264674 2.0821404 2.9799685
1.3408048 2.0735176 2.9872093
1.3776659 2.0852039 2.9612141
-1.3047924 2.1391912 2.9640546
-1.270718 2.1279104 2.9646816
-1.2281274 2.1279278 2.9813478
1.3266888 2.1247404 2.990958
1.3714856 2.1304224 2.9637039
-1.3080906 2.1708736 2.955523
-1.2758186 2.1762252 2.9647348
-1.2297937 2.180429 2.9794195
1.3294511 2.1694937 2.9941115
1.3802232 2.1792841 2.960923
-1.3017772 2.2426813 2.9543116
-1.2747645 2.2218795 2.955256
-1.2252979 2.2239761 2.9803402
1.329497 2.2241499 2.9928343
1.3686131 2.2247052 2.9675395
-1.3052874 2.2664433 2.9508011
-1.2843821 2.2830322 2.9580243
-1.2277381 2.2734537 2.9676082
-1.1927103 2.2800322 2.9921484
1.3369882 2.2814307 2.9811735
1.3705274 2.2777593 2.9625349
-1.2136024 2.3188622 2.9604065
-1.1811192 2.3365216 2.9771523
1.3223764 2.3342986 2.984766
1.365427 2.3243322 2.9609673
-1.1530831 2.3516815 2.9782865
-1.1259998 2.3578703 2.9734924
-1.0781752 2.3614466 2.9787533
-1.0247803 2.3610239 2.9940331
-0.98273134 2.3586686 2.9754815
-0.93089294 2.3672385 2.9707563
-0.87658858 2.3632464 2.9738994
-0.82288712 2.3741021 2.9783902
-0.7765131 2.3697321 2.9707465
-0.73252797 2.368469 2.9784124
-0.67160368 2.37725 2.9794929
-0.62195843 2.375591 2.9828672
-0.56673932 2.3717418 2.9700089
-0.53150249 2.3747311 2.9680147
-0.47883019 2.3735316 2.9683254
-0.42764744 2.376749 2.9788685
-0.37922853 2.3753834 2.9742126
-0.32307044 2.3788538 2.9757712
-0.27092969 2.37482 2.9749672
-0.22804767 2.3767548 2.9803805
-0.18511102 2.3774619 2.9837279
-0.081661277 2.3738792 2.9829953
-0.030067749 2.3762071 2.9867172
0.024977062 2.3668303 2.9880903
0.073099948 2.3650138 2.9884331
0.12064017 2.3739898 2.9902596
1.2898517 2.3815627 2.9928837
1.3231488 2.3763812 2.9727762
1.3645501 2.3608437 2.9533067
0.83828837 2.4491949 2.9821851
0.86393452 2.4464743 2.9724383
0.90830284 2.4466684 2.961477
1.0284486 2.4439991 2.9970512
1.0823764 2.4442198 2.9811351
1.1323427 2.4425461 2.9754345
1.1724147 2.4413285 2.970387
1.2105978 2.4312098 2.9582829
1.2822005 2.432224 2.9783466
1.3225112 2.4151039 2.9612241
0.78597498 2.4520116 2.997812
0.82284123 2.4560344 2.9946849
0.93656892 2.4529257 2.9741704
0.97103095 2.4575326 2.985884
1.0239781 2.4513311 2.9716046
1.0687439 2.4514775 2.9583311
0.39046299 -0.51069868 3.0149579
0.42149591 -0.50887245 3.0371232
0.45882881 -0.52105546 3.0259335
0.3905232 -0.4601835 3.0404651
0.41957077 -0.46390885 3.0248237
0.45957881 -0.45575753 3.0378861
0.2931571 -0.40520194 3.0072696
0.30938935 -0.40751725 3.0235069
0.39248475 -0.42537144 3.0397336
0.42694157 -0.42314875 3.0207281
0.46396756 -0.42363164 3.0205498
1.0845505 -0.40509126 3.0011964
1.1066549 -0.40770096 3.0167704
1.1874032 -0.4246366 3.0086095
1.2014728 -0.41667452 3.0023956
0.29293239 -0.36150652 3.0085552
0.30993935 -0.37908474 3.0313282
0.39947382 -0.39567485 3.0389533
0.42439732 -0.37351677 3.0371082
0.46466613 -0.37305 3.0296149
1.133217 -0.39150295 3.0454638
1.1767137 -0.3729558 3.0291541
1.2089168 -0.37617183 3.0078564
0.29309458 -0.32555199 3.0128651
0.43840486 -0.3259286 3.0466304
0.46590054 -0.32272145 3.0415075
1.1778523 -0.32261091 3.0317075
1.2131238 -0.32530531 3.0112088
0.29359064 -0.27534032 3.0212457
0.39873821 -0.26328245 3.0426238
0.43004414 -0.27623558 3.0406308
0.46144876 -0.28189996 3.039258
1.1766304 -0.27395523 3.0361693
1.2176523 -0.27289343 3.0120699
0.27800369 -0.23096371 3.0126743
0.39880112 -0.24869215 3.0438995
0.42775425 -0.2485075 3.0390542
1.1832217 -0.22806585 3.0340471
1.2208613 -0.22590259 3.0143218
0.22245285 -0.17494757 3.0484469
1.1830409 -0.17479774 3.0359864
1.2252954 -0.17429161 3.0150836
0.23465885 -0.12027607 3.0187757
0.25096661 -0.10903121 3.0410156
1.1694953 -0.12848003 3.0242147
1.2248502 -0.12113073 3.0157235
0.23485215 -0.072267838 3.0222402
1.1776141 -0.072013006 3.035708
1.2275295 -0.075797088 3.0233567
1.2611653 -0.075523339 3.0020268
0.23446608 -0.028838908 3.0177224
1.1871092 -0.033350673 3.0453506
1.227549 -0.030200331 3.0239189
1.2610422 -0.030075016 3.0022564
0.23571661 0.021765163 3.0338118
1.2276062 0.023011385 3.0240963
1.2606012 0.020399371 3.0012016
0.23616014 0.072687276 3.0389807
1.195997 0.091897152 3.0499117
1.2302589 0.074860796 3.0243347
1.2609851 0.075950228 3.0014772
0.23050064 0.12795357 3.0270367
1.1960657 0.12247748 3.0492959
1.2292396 0.1219896 3.026433
1.2623459 0.11393636 3.003864
0.22878921 0.17429854 3.0348933
1.1967127 0.1760702 3.0490894
1.2306234 0.17372499 3.0238481
1.2625458 0.18978509 3.0016091
0.22159977 0.22763175 3.0341699
1.1978288 0.22981024 3.0494347
1.2327552 0.2302158 3.0249686
1.2626052 0.21254219 3.0006766
0.22099894 0.27534828 3.02332
1.1991608 0.29136157 3.049181
1.2288479 0.27363932 3.0310884
1.2501683 0.28140163 3.0076942
0.21561682 0.32226071 3.0259988
1.1988981 0.32194152 3.046335
1.2309598 0.32226676 3.0260811
1.2502046 0.32701313 3.0044699
0.22189775 0.3855215 3.0277891
1.1944178 0.38088191 3.0445716
1.2254976 0.37433922 3.0235393
1.2514586 0.37298954 3.0037844
0.21235178 0.4269824 3.0262766
1.1913986 0.42924476 3.0395708
1.2152311 0.42686209 3.0142033
0.22023845 0.47693944 3.036449
1.1911403 0.47267905 3.0387945
1.2196699 0.47674498 3.0129881
0.21163478 0.52159309 3.0238233
1.1888279 0.5234459 3.0445843
1.2231702 0.52170748 3.0237067
1.2573541 0.51998472 3.002655
0.21189937 0.57473069 3.0324607
1.1917936 0.57103813 3.0463314
1.2276646 0.5731802 3.0222838
1.2601681 0.57478344 3.0024178
0.19309299 0.64109576 3.0049605
0.20937504 0.63169479 3.0311515
1.1906185 0.62450421 3.044791
1.2254919 0.62699884 3.0216019
1.3148632 0.60177201 3.0052354
-1.1653253 0.67928797 3.013057
-1.1323187 0.68010557 3.0207181
0.1934337 0.67141253 3.0060108
0.21068205 0.67259097 3.0448132
1.1900135 0.67845947 3.044076
1.2276483 0.67733139 3.0191286
1.2505623 0.69285929 3.0034459
-1.1353271 0.71127772 3.0101261
0.19531377 0.72218877 3.0284207
1.190488 0.72925878 3.0415657
1.2242329 0.72629064 3.0182154
1.2505742 0.70825976 3.0009081
-1.1130233 0.78819919 3.0044031
1.1917951 0.77666384 3.0367022
1.2267544 0.77423203 3.0161932
1.2538173 0.75639868 3.000603
1.1885358 0.82637548 3.0416157
1.2221352 0.82279402 3.0173607
1.1858219 0.87261379 3.0436776
1.2252769 0.87159854 3.0157127
1.1897138 0.92883033 3.0423689
1.2215304 0.92130977 3.0179095
1.2507544 0.92762959 3.0021453
1.1920589 0.97781336 3.0377171
1.2249331 0.97085053 3.0156641
1.1841365 1.0228738 3.0398414
1.2253289 1.0223513 3.0136182
1.1875281 1.0730298 3.0427623
1.2262394 1.0728079 3.0173118
1.1905696 1.1328241 3.0428672
1.2235548 1.1249084 3.0198588
1.1920402 1.1756341 3.0350862
1.2278638 1.1765618 3.0170863
1.1897881 1.2181615 3.0463867
1.2276963 1.228439 3.0190008
1.1905119 1.2753385 3.0438914
1.2259033 1.2739369 3.0203803
1.2511609 1.27951 3.0010707
1.1912644 1.3208721 3.0445147
1.2226907 1.3246505 3.0228457
1.2578969 1.3346431 3.0014546
1.1902183 1.3815241 3.047457
1.2218736 1.3753375 3.0272622
1.2590121 1.3783137 3.0094609
1.1952579 1.428182 3.0462461
1.2257706 1.4257356 3.0312128
1.2611086 1.4264017 3.008333
1.2254643 1.4732757 3.0321777
1.2643962 1.4726361 3.0039217
1.2243127 1.5199474 3.0344176
1.2673868 1.5307918 3.0137062
-0.26192102 1.5643402 3.003284
-0.24654159 1.5816561 3.0014496
1.2311195 1.5750858 3.0370994
1.2704544 1.5735191 3.0094762
-0.26428407 1.6415952 3.0057364
-0.2482748 1.6400878 3.0039647
1.2342261 1.6212085 3.0345268
1.2701442 1.6292452 3.0129187
-0.26521409 1.6711435 3.0066509
-0.24918053 1.6698241 3.0052743
1.2324572 1.671659 3.0357246
1.2679989 1.6778691 3.0121231
-0.25889608 1.7213806 3.0091503
-0.23457652 1.7262824 3.0019407
1.2405831 1.7247517 3.0373855
1.2809643 1.7260109 3.0111973
-0.25151578 1.7573578 3.0030005
1.2356844 1.7779326 3.0413241
1.2679858 1.7749337 3.0198753
1.3027666 1.779788 3.0022995
1.2343482 1.8223214 3.045788
1.2742559 1.8291844 3.0225854
1.3091755 1.8224615 3.0008097
1.2366979 1.8749286 3.0428672
1.2735069 1.8703641 3.0250969
1.3026242 1.8883982 3.0054364
1.2435982 1.9198294 3.0426602
1.2763308 1.9259305 3.0227215
1.3158699 1.9308199 3.0045478
1.2433584 1.9762729 3.0437739
1.272499 1.9808714 3.0252042
1.3014758 1.9896747 3.0080101
1.2423062 2.0319858 3.0421119
1.2747955 2.0282423 3.0246799
1.3065196 2.0234654 3.0054009
-1.2069232 2.0599401 3.0036945
-1.1923786 2.0864429 3.0263584
1.246848 2.065675 3.0388119
1.2740072 2.0760045 3.0271652
1.3106824 2.0768836 3.0091989
-1.193131 2.1249278 3.0182695
1.2401819 2.1280479 3.0465012
1.2722521 2.1226895 3.026768
1.3039844 2.1170294 3.0063004
-1.2051656 2.1658099 3.0029421
-1.1871879 2.1811056 3.0328679
1.2385879 2.1679544 3.0401189
1.2799488 2.1710007 3.0242212
-1.1913817 2.2242827 3.0221813
1.2712696 2.2222822 3.030544
1.3035121 2.2253249 3.0042799
-1.2018329 2.2538168 3.006685
-1.1793569 2.2687409 3.0289743
1.2362428 2.2845478 3.0417666
1.2795055 2.2725995 3.0277784
1.3132776 2.2778583 3.0041878
-1.1666192 2.3252616 3.0183797
-1.140437 2.3357189 3.0344634
-1.0865521 2.3439746 3.0255449
-1.0096083 2.3492844 3.0185308
-0.9648124 2.3484912 3.0296388
-0.012980405 2.3432374 3.0440934
0.021634037 2.3424704 3.0264041
0.073291324 2.3368909 3.018507
0.10816152 2.3362904 3.0335379
1.2424843 2.3232541 3.0398474
1.2764708 2.3193827 3.0220611
1.3119636 2.3183165 3.0075932
-1.1190014 2.35551 3.0196202
-1.0748266 2.356334 3.0219052
-1.0385046 2.3543167 3.0173731
-0.97227049 2.356827 3.0150261
-0.91950101 2.3589854 3.0300767
-0.87118435 2.3624206 3.0185165
-0.83179408 2.3679144 3.0263374
-0.77665842 2.3688972 3.0309396
-0.72613746 2.3685265 3.0233133
-0.67534453 2.3647053 3.0192146
-0.62753415 2.3705909 3.0268548
-0.57537472 2.3673015 3.0212653
-0.52046424 2.3714173 3.0275033
-0.46677926 2.3684168 3.0251141
-0.4316088 2.3682237 3.026325
-0.37516505 2.3754334 3.0198798
-0.32587996 2.3734405 3.0186431
-0.27364233 2.372524 3.0217152
-0.22129135 2.370209 3.0222433
-0.16930611 2.3714347 3.0265474
-0.12411054 2.375885 3.0240345
-0.082273118 2.3655193 3.0219419
-0.030251749 2.3618376 3.0180347
0.0043383781 2.3609736 3.0005448
0.12916861 2.3647971 3.0230312
0.17338765 2.3840611 3.0258336
0.22487225 2.3913288 3.0211995
1.2262924 2.3763838 3.0368717
1.2674388 2.3715405 3.0111938
-0.2056763 2.4167421 3.0320897
0.1961228 2.4061801 3.01934
0.23693298 2.4014637 3.022125
0.27300766 2.4124346 3.0335045
0.31977358 2.4184175 3.0260763
0.37434411 2.4315701 3.0375545
0.42739594 2.432934 3.0335019
0.481078 2.4370556 3.0320833
0.52594388 2.4402928 3.0300438
0.56183374 2.4426403 3.0276847
0.61965221 2.4438457 3.0313938
0.68199563 2.443469 3.0430474
0.71781778 2.4484794 3.0338867
0.76680708 2.4426394 3.0368526
0.83109295 2.4448791 3.0279717
0.99978632 2.4438057 3.0417717
1.0245938 2.4382908 3.0272634
1.0768178 2.4395142 3.0228426
1.1269035 2.4418221 3.0235953
1.1797816 2.4241543 3.0272117
1.2249488 2.4235582 3.0186019
1.2605373 2.4219635 3.0038648
0.59064221 2.4521286 3.0352502
0.64370722 2.4512935 3.0251794
0.68053907 2.4561439 3.0246353
0.73509759 2.4600475 3.0189879
0.77066183 2.453747 3.0151405
0.80733109 2.4629846 3.0072434
0.8835699 2.4542246 3.0224106
0.9230631 2.4548156 3.0313432
0.97752935 2.4514961 3.0215275
0.43634439 -0.50704455 3.0797565
0.48130396 -0.53710616 3.073375
0.38139507 -0.47383583 3.0650835
0.42667979 -0.48228541 3.0674078
0.47994253 -0.46119428 3.0726242
0.3314448 -0.40949032 3.0931177
0.37224138 -0.42738438 3.055886
0.32661864 -0.36731082 3.0859444
0.37449235 -0.37471959 3.0681205
0.4004924 -0.35260314 3.0502298
0.49529299 -0.3722631 3.081898
0.95256478 -0.38238087 3.0969963
1.0228713 -0.38290721 3.0863707
1.0761098 -0.36847743 3.0836074
1.121507 -0.36724198 3.0612388
1.1517055 -0.35945272 3.0529108
0.32041228 -0.32543793 3.0796542
0.37370431 -0.32552227 3.0766201
0.41131276 -0.32137293 3.0539975
1.0854826 -0.32517809 3.0905795
1.1225654 -0.32162929 3.0676711
1.1511325 -0.32104069 3.0542929
0.31307855 -0.27247417 3.0696626
0.38164237 -0.27649224 3.0746274
0.40514934 -0.28875887 3.0523078
0.46607217 -0.25344014 3.096581
1.0882286 -0.27668133 3.091418
1.1224887 -0.27563152 3.0704911
1.1509771 -0.27510995 3.0569334
0.29682213 -0.2417351 3.0565197
1.0898212 -0.23362228 3.0935905
1.1235659 -0.2298959 3.076014
1.1575122 -0.22901255 3.0545883
0.23730519 -0.1751458 3.0511982
0.25363594 -0.16164955 3.0719197
1.0963045 -0.17676744 3.0955551
1.123696 -0.17622294 3.0787442
1.1581793 -0.1756345 3.0587392
0.26307207 -0.132551 3.0791945
1.0969759 -0.13069117 3.0990095
1.1252971 -0.12270404 3.0848856
1.1610315 -0.11989725 3.0585916
0.2587305 -0.076171979 3.0640912
1.1254727 -0.076653913 3.0863702
1.1581887 -0.076259874 3.0615251
0.25736818 -0.029358035 3.0746515
1.1240187 -0.030511698 3.0829012
1.1618975 -0.028217461 3.0623212
0.25973424 0.025246212 3.0713818
1.1251123 0.023218466 3.0858834
1.1745892 0.023147168 3.0609
0.23722014 0.073015854 3.0526431
0.25932923 0.073761962 3.0828755
1.1260401 0.077042043 3.0878115
1.1722459 0.075294264 3.0601854
1.2132989 0.092054717 3.0508173
0.25530934 0.12584692 3.093071
1.127692 0.12333495 3.0912733
1.1707789 0.1227036 3.0625021
0.25562379 0.16301335 3.0957856
1.1274623 0.1694839 3.0891066
1.1683513 0.17640521 3.0631115
1.2144159 0.19940519 3.0500009
0.23489688 0.22020084 3.0652387
1.1282113 0.22350346 3.0887654
1.1691689 0.23018162 3.0627589
1.2074356 0.22251727 3.0527034
0.24013811 0.27338311 3.0827389
0.25615776 0.25243354 3.098309
1.1292768 0.27767619 3.0886614
1.175518 0.27498361 3.0607285
0.23971146 0.32447717 3.0739775
1.129898 0.32410905 3.0872078
1.1716061 0.32286474 3.0633628
0.23401959 0.36609322 3.0735397
1.1310414 0.37075797 3.0867152
1.1700658 0.36716184 3.0613799
0.23452151 0.42600641 3.0749779
1.1324196 0.42533556 3.0856199
1.1663871 0.42363045 3.0633192
0.24217249 0.46193495 3.0942965
1.1304352 0.47990817 3.0839133
1.1667346 0.47766593 3.0587008
0.2296984 0.52567798 3.0536354
1.1283199 0.52752936 3.0867438
1.1659409 0.52723372 3.0606213
0.22638547 0.58627039 3.0687561
1.1275065 0.5761264 3.0848885
1.1678619 0.57004589 3.0603633
0.22590661 0.62209958 3.0574062
0.31810862 0.61372918 3.0866735
1.1239368 0.62244487 3.0858371
1.1633286 0.61962563 3.060205
-1.160356 0.66776419 3.0625703
-1.1428999 0.66663289 3.0614848
0.22801189 0.6727069 3.0796187
1.0966325 0.6558187 3.0998635
1.1254754 0.67003882 3.0832047
1.1661549 0.67275167 3.0592842
0.2288423 0.71270299 3.0852275
1.0998932 0.72040355 3.0993555
1.1304929 0.72209644 3.0843174
1.1635271 0.72804874 3.0646374
0.21276683 0.77629352 3.0595875
1.1307911 0.77495277 3.080965
1.1663646 0.78041011 3.059948
0.22513939 0.82996899 3.0843098
1.126671 0.82462412 3.084553
1.1683544 0.82864016 3.0564098
0.21476819 0.87401891 3.0720348
1.1226968 0.87475014 3.0880134
1.1607476 0.88131493 3.0622666
0.21541347 0.93711025 3.0692275
1.1251361 0.92666978 3.0843458
1.1633565 0.92600554 3.0601585
0.20010485 0.96639544 3.0605588
1.0993899 0.98452085 3.0972831
1.1265843 0.97878921 3.0821278
1.1667193 0.97600883 3.0584435
1.124742 1.0271651 3.0834785
1.1594378 1.0291201 3.0603211
1.1247119 1.0715945 3.085165
1.1664379 1.0859753 3.057853
1.1258657 1.1201656 3.085238
1.1625754 1.1293064 3.0580201
1.1275767 1.1720371 3.0829725
1.1629667 1.1752702 3.0574069
1.1339593 1.2269496 3.0801136
1.1677089 1.2201988 3.0583222
1.1288083 1.2748069 3.0836301
1.1648152 1.2740129 3.0596306
1.1266223 1.3235408 3.0889864
1.1673733 1.322461 3.0625257
1.1305279 1.3717045 3.0856743
1.168514 1.3683847 3.0669415
1.1364068 1.4234105 3.086756
1.1706126 1.4264275 3.0651295
1.1437953 1.4786502 3.0905898
1.1750746 1.4770559 3.0685589
1.2029463 1.4784311 3.0510657
1.135381 1.5243946 3.0948765
1.1735986 1.5266442 3.0722075
1.2103444 1.5371166 3.0511935
1.1321162 1.5784435 3.0931063
1.1750692 1.5749903 3.0676517
1.2070782 1.5767612 3.0534158
1.1437253 1.6259648 3.0925391
1.1735104 1.6289171 3.0781562
1.2065396 1.6286842 3.058862
1.1477102 1.6652641 3.0896356
1.1763904 1.6747304 3.0769203
1.211606 1.6774839 3.0541356
1.1758242 1.720407 3.0782392
1.210247 1.7294537 3.056293
1.1487107 1.7940369 3.0988736
1.1762708 1.7755955 3.0841453
1.2129517 1.7684509 3.0572288
1.1787788 1.8222001 3.0800748
1.2140574 1.8237933 3.0550175
1.1765515 1.8740501 3.0849633
1.2132784 1.8759035 3.0641084
1.1474402 1.9230791 3.0982044
1.1767375 1.9274627 3.0858634
1.2206072 1.924279 3.0580878
1.1756116 1.976957 3.092824
1.218788 1.9698159 3.0603015
1.1758561 2.0201721 3.0823457
1.2172608 2.0163703 3.0628397
1.1798551 2.0665524 3.0852511
1.2195323 2.0772445 3.0621572
-1.1689413 2.1246433 3.0574315
1.1782049 2.1213279 3.0905347
1.2174537 2.1346388 3.0647182
-1.1607589 2.1686349 3.0726559
-1.1372044 2.1860671 3.0946035
1.1807421 2.1662223 3.0884333
1.2175368 2.1905699 3.0669019
-1.1617206 2.2175446 3.0594563
-1.1360676 2.2282465 3.0902736
1.185499 2.2280993 3.0877006
1.2231625 2.2321036 3.0623124
-1.1622643 2.2715931 3.0654848
-1.1389319 2.2788141 3.0835853
1.1829741 2.2782111 3.0882506
1.2252674 2.275763 3.061054
-1.1567886 2.305553 3.0608468
-1.1184579 2.3282332 3.0744603
-1.0801061 2.3449078 3.0787613
-1.0154382 2.3477278 3.0886257
-0.99229503 2.3447375 3.0720525
-0.91828448 2.3481188 3.0775347
-0.11098212 2.3399529 3.0784914
-0.074327037 2.3364968 3.0849528
-0.034075968 2.3363817 3.0819726
0.013076381 2.3319006 3.062747
0.12618126 2.3496857 3.0503883
1.1778344 2.3220353 3.0864666
1.2149702 2.3275633 3.0594678
-1.0679972 2.353168 3.062922
-1.0335112 2.3529022 3.0662057
-0.97373581 2.3522711 3.0692217
-0.94706267 2.3528662 3.0770025
-0.87277102 2.355159 3.0801437
-0.81964767 2.3626521 3.0701127
-0.7712509 2.3576019 3.0640171
-0.72091877 2.3728237 3.0740845
-0.6831097 2.3717937 3.0768607
-0.63302571 2.373786 3.0649288
-0.57014394 2.3697748 3.0697184
-0.52979499 2.3641858 3.082078
-0.47499958 2.3697398 3.0691116
-0.41486526 2.368576 3.0746768
-0.37473977 2.3728302 3.0810575
-0.32952595 2.3645611 3.0744097
-0.27333409 2.3670332 3.0787082
-0.22768882 2.3675511 3.0823884
-0.17100112 2.3599243 3.0788
-0.12387354 2.3554828 3.0692017
-0.073948875 2.3507714 3.0531635
-0.039132364 2.350601 3.0534673
0.14471829 2.3594885 3.07937
0.18042514 2.3761797 3.0825696
0.21593845 2.3888872 3.080374
0.26966965 2.3877444 3.0924008
0.32330462 2.3920269 3.0938063
1.1395229 2.3989196 3.0882285
1.1722972 2.3781164 3.0751307
1.2142258 2.3656912 3.0543239
0.23441961 2.4065449 3.0850182
0.27339619 2.4038916 3.070461
0.32175002 2.4069858 3.0621035
0.37617573 2.4168541 3.069706
0.42655349 2.4232883 3.0691662
0.47169709 2.4330876 3.0832725
0.51897508 2.4410267 3.0803285
0.57694489 2.4426417 3.0774095
0.62585151 2.4414928 3.067975
0.65820456 2.4455638 3.0676804
0.72163624 2.4390688 3.0649574
0.76797634 2.4413548 3.0824974
0.82263356 2.4430568 3.0729706
0.88307214 2.4462862 3.0753129
0.92658931 2.4454553 3.0879223
0.97615063 2.4389687 3.0785306
1.030992 2.4369249 3.079303
1.0713416 2.4353135 3.0654721
1.122695 2.4256766 3.0823669
1.1620412 2.4194431 3.0593903
0.68081635 2.4534793 3.091614
0.79715055 2.450804 3.0648613
0.86413372 2.4530303 3.0707002
0.93005323 2.4507556 3.0696707
0.96678948 2.4518878 3.0616958
1.0098292 2.4500549 3.0846307
0.47128272 -0.52014571 3.1098366
0.43980813 -0.49603704 3.105804
0.35811612 -0.41455701 3.1295371
0.34942275 -0.39061219 3.1214786
0.35179266 -0.37056187 3.1444359
0.93731475 -0.38557255 3.1275668
0.98434448 -0.37161851 3.1325872
1.024408 -0.3631916 3.1180964
1.0521866 -0.35439232 3.1023006
0.33334941 -0.32947779 3.1172624
0.36483997 -0.3007828 3.1301794
0.49953493 -0.3454212 3.1105812
0.99473774 -0.33010978 3.1443887
1.0267457 -0.32528844 3.1280336
1.059222 -0.32074118 3.1059051
0.33408234 -0.28514037 3.1269693
0.37151596 -0.27020824 3.1246181
0.4841738 -0.28513989 3.1139195
0.99974203 -0.29547209 3.149426
1.0268393 -0.27881393 3.1313286
1.0608205 -0.2775594 3.1085141
0.31731561 -0.23881544 3.1132271
0.41784286 -0.24081394 3.1318502
1.0304663 -0.22468643 3.1351461
1.0658441 -0.22055849 3.1116652
0.2895284 -0.18039352 3.1401296
0.3050735 -0.18069278 3.144465
1.0277795 -0.17048858 3.1394026
1.0690761 -0.16964331 3.1135213
0.28505862 -0.1255818 3.1258314
0.30505788 -0.12044002 3.146142
1.0319195 -0.12391495 3.1389637
1.0720414 -0.12178004 3.1139379
0.28502536 -0.071235172 3.1346333
0.30469826 -0.090211548 3.1430695
1.035792 -0.077431381 3.1408641
1.0766796 -0.077016547 3.1138344
0.28190953 -0.029818252 3.1256104
1.0318937 -0.030861665 3.1403575
1.0769714 -0.030720143 3.1152079
0.28514448 0.011324361 3.1364188
1.0358574 0.023436682 3.1415496
1.0772332 0.023330059 3.1159365
0.26487613 0.06721507 3.1189544
1.0370018 0.077827238 3.1444061
1.077849 0.077429555 3.1171091
0.26553839 0.11969014 3.1260195
1.0448771 0.12445811 3.1419213
1.07881 0.12390029 3.1188288
0.27138883 0.1755524 3.1297381
1.0416969 0.17505631 3.1432569
1.0750123 0.16888101 3.1208897
1.1004088 0.17777032 3.106904
0.26372448 0.22709103 3.1181221
1.0384109 0.22572409 3.143724
1.0731125 0.22486375 3.1226237
1.100908 0.2242144 3.1062045
0.26627374 0.27742866 3.1277649
1.039435 0.28044903 3.143815
1.0737545 0.27925974 3.1214769
1.1021322 0.27859667 3.1066377
0.26724005 0.32366088 3.1365278
1.040439 0.32747659 3.1437476
1.0755007 0.32631013 3.1234267
1.1027273 0.32518491 3.1051893
0.25943741 0.36842078 3.1305766
1.0415491 0.37464392 3.1435032
1.0755143 0.37290207 3.119868
1.1032566 0.37178525 3.1030695
0.24229163 0.41743878 3.1000044
0.26248068 0.43010861 3.125483
1.0423847 0.42179331 3.1419356
1.0773798 0.42023242 3.121192
1.1049026 0.41888091 3.1035912
0.2442908 0.48853606 3.1190791
0.26025698 0.4827964 3.1303098
1.0361934 0.46936893 3.1440201
1.0731009 0.47399083 3.1230948
1.1063846 0.47119269 3.1025822
0.24413653 0.53327978 3.1122289
0.26090878 0.53689438 3.1324699
1.0346565 0.52022398 3.1441092
1.0712483 0.52844614 3.1223271
1.1072664 0.51301116 3.1005323
0.24444576 0.57158107 3.1117418
0.26248413 0.57817841 3.1468945
1.0395286 0.5807364 3.1414788
1.0747112 0.5785858 3.1206677
0.24491052 0.61787575 3.1119328
0.26222974 0.62326372 3.138068
0.31032145 0.60805851 3.1106803
1.0413789 0.6289255 3.1407864
1.0756958 0.62604946 3.1172409
0.24658127 0.65241176 3.1290822
0.26295087 0.65540195 3.1426015
1.037457 0.6776368 3.142596
1.0758675 0.67586643 3.1173868
0.23845518 0.72655708 3.1110439
1.0381163 0.72646767 3.1423886
1.0748899 0.72099233 3.1157236
1.1010728 0.73685187 3.1000965
0.24007902 0.79240555 3.1219602
1.0406377 0.77571875 3.1421063
1.0750033 0.77200073 3.1177301
1.1039616 0.77022249 3.1028459
0.2442721 0.82044053 3.122251
1.0378237 0.82517475 3.1423366
1.0741273 0.82259148 3.1163561
0.24098043 0.86821604 3.1211381
0.25121412 0.89654601 3.1496551
1.0299877 0.87509543 3.144088
1.0728661 0.87119454 3.1188364
0.21912031 0.92248309 3.1282806
1.0325941 0.92515469 3.1424134
1.0757681 0.9212082 3.1176183
1.0379786 0.97977829 3.1426127
1.0763233 0.96984774 3.116065
0.23069079 1.0307943 3.1236413
1.0411866 1.0309855 3.141391
1.0736893 1.0220615 3.1154387
0.22143421 1.0876184 3.1273978
1.0408854 1.0757456 3.1409698
1.0748897 1.075969 3.1170506
0.23267764 1.1175476 3.1319532
1.0388223 1.1320337 3.1427591
1.0739378 1.1265213 3.1176693
1.1114829 1.123783 3.100008
0.23872454 1.1582974 3.134361
1.0431012 1.1772937 3.1450167
1.0758336 1.1762221 3.1197026
1.1007582 1.1857073 3.1040068
1.0372299 1.2205445 3.1425846
1.0731188 1.2224146 3.1248174
1.1088227 1.2264841 3.1039937
1.0412891 1.2661673 3.1432254
1.0765771 1.2733161 3.1245139
1.1096027 1.2846783 3.1030068
1.0381986 1.3298371 3.1433606
1.0755359 1.3253602 3.1225717
1.1147051 1.323262 3.1071999
1.0435443 1.3779478 3.1465406
1.0759327 1.3777114 3.1280174
1.1026379 1.3776218 3.1077626
1.0462418 1.4146113 3.1438727
1.0726099 1.4250205 3.1295481
1.1078393 1.4253054 3.1086769
1.0847692 1.4750938 3.1257195
1.1207319 1.4726381 3.1050384
1.0735258 1.525653 3.137907
1.1079345 1.5201831 3.1146147
1.0815862 1.5744942 3.1386781
1.1146662 1.5691502 3.1146529
1.0795962 1.6207386 3.1409841
1.1194133 1.6284461 3.1115081
1.0829234 1.6761204 3.1378555
1.1184235 1.6770533 3.1166921
1.0856503 1.7265984 3.1395972
1.1250669 1.7241884 3.1118231
1.0868406 1.7750953 3.1363001
1.128724 1.7736371 3.1107843
0.28834638 1.8388455 3.1406279
0.32522553 1.8328098 3.1419656
0.35526145 1.8308034 3.1397271
1.0832037 1.8239498 3.1415172
1.1199071 1.8287793 3.1210077
1.1523809 1.8169148 3.1009798
0.23948891 1.899178 3.1381941
0.27624041 1.8910593 3.1366203
0.32056648 1.8754181 3.1330676
0.3560642 1.8768965 3.1281958
1.0851324 1.8746202 3.1390333
1.1269369 1.8744774 3.1152546
0.2230572 1.9192916 3.1367481
0.2730583 1.9241296 3.1240132
0.32577977 1.9199902 3.1210163
0.3576234 1.9271818 3.1225843
1.0849857 1.9265084 3.141674
1.1204308 1.9178374 3.119103
0.28220814 1.9545851 3.1199718
0.32868293 1.959637 3.1157866
0.35848868 1.9656312 3.1141036
1.0836989 1.9666876 3.1407678
1.1245769 1.9690858 3.1184964
1.1561842 1.9726622 3.1043832
0.36268723 2.0228202 3.1338859
1.0917565 2.0224969 3.1434288
1.1281759 2.0261154 3.1212933
1.0854516 2.0652046 3.1456766
1.1182393 2.0789375 3.1286588
1.153051 2.0770507 3.1070378
1.0926956 2.1236343 3.1427805
1.1266035 2.1292446 3.1228449
1.1574751 2.1116378 3.1044502
1.0917113 2.1841612 3.1434793
1.127825 2.1783988 3.121146
-1.123945 2.2039666 3.1074309
1.0827359 2.2355025 3.1427794
1.1211089 2.2249622 3.1218097
1.1610204 2.2179642 3.1053393
-1.120699 2.2739794 3.1104684
1.0915804 2.2902148 3.1469319
1.128657 2.2762799 3.1213684
1.1608522 2.2592533 3.104955
-1.1055963 2.3212771 3.1189704
-1.0768728 2.339972 3.1230297
-1.025561 2.3436756 3.1364183
-0.92309099 2.3472741 3.1490126
-0.87103206 2.3477283 3.1248765
-0.84477514 2.3499978 3.1340096
-0.20884307 2.3472674 3.1456597
-0.16826859 2.343375 3.1337614
-0.12590383 2.3252084 3.1195416
-0.083362058 2.3182952 3.1114316
0.17333511 2.3469272 3.1469483
0.21787108 2.3479745 3.1461217
0.42593786 2.3276131 3.1477768
0.45980752 2.3397281 3.1488891
1.0836735 2.3327966 3.1424589
1.1253682 2.324538 3.1179726
1.1535375 2.3352687 3.1061802
-1.0516825 2.3501399 3.1196821
-1.0352638 2.3542099 3.1301398
-0.97343314 2.3530874 3.1299133
-0.93316108 2.3541479 3.1316063
-0.89910746 2.3503261 3.122025
-0.82203799 2.3578556 3.1280789
-0.77373356 2.3625453 3.1210899
-0.72808552 2.3638158 3.119278
-0.67659456 2.3636413 3.1201961
-0.62267655 2.3750789 3.1212304
-0.57137442 2.3686781 3.1240985
-0.51831263 2.3592746 3.1212502
-0.48189721 2.3719559 3.1337285
-0.42350301 2.36356 3.1327608
-0.36892819 2.3656857 3.1237984
-0.3248961 2.3687339 3.131835
-0.28420115 2.3679893 3.125411
-0.22138156 2.3607283 3.1198754
-0.18117808 2.3520031 3.1189508
0.13694064 2.3586521 3.1125231
0.18523514 2.3648853 3.1221499
0.22768807 2.3711925 3.114471
0.270037 2.3643107 3.1129446
0.32448447 2.3738766 3.1214397
0.38622606 2.3924224 3.1345885
0.42686978 2.3845811 3.1361303
0.45215392 2.373271 3.142601
1.0733291 2.3807561 3.1352108
1.1207277 2.3704083 3.110137
1.1558549 2.3582532 3.1008704
0.3794173 2.406472 3.1161764
0.42406696 2.4110453 3.108788
0.47199789 2.4188159 3.130801
0.53234303 2.4412451 3.1259942
0.57414538 2.4419584 3.1297159
0.60725617 2.4357641 3.1282322
0.67620301 2.4421544 3.1310596
0.73072761 2.4426084 3.121515
0.77686018 2.4357817 3.1211967
0.83085114 2.4430375 3.1286054
0.87671411 2.4384546 3.1174483
0.92068607 2.4377105 3.1280451
0.97514105 2.4344783 3.132267
1.0313678 2.4319274 3.1286941
1.0703725 2.4172618 3.1159599
1.1057503 2.4050732 3.1073279
0.64061844 2.4541459 3.1352019
0.6942929 2.451184 3.1218309
0.80342543 2.4519186 3.1010222
0.53294247 -0.55976647 3.1769218
0.51068926 -0.5374037 3.1630781
0.49944296 -0.49541602 3.1959171
0.89862537 -0.37655222 3.193645
0.92745847 -0.37100825 3.1791766
0.9602952 -0.36368164 3.1601818
0.35319605 -0.3264873 3.1602216
0.93734622 -0.32928631 3.187768
0.96905452 -0.32545197 3.1622641
0.33638903 -0.25690812 3.150259
0.36043611 -0.27115279 3.1733887
0.93657988 -0.27415264 3.1885958
0.97075909 -0.27786008 3.1695001
1.0008813 -0.27244556 3.1544185
0.33734593 -0.24248098 3.1599929
0.3555367 -0.2445657 3.1860857
0.4009102 -0.24426162 3.1786144
0.94508243 -0.21944343 3.1921062
0.97453362 -0.22437912 3.1743073
1.0060931 -0.22571851 3.1558173
0.31733695 -0.17410401 3.1805308
0.94561356 -0.17249297 3.1958106
0.97777498 -0.17304654 3.1723242
1.0003445 -0.15553966 3.1580081
0.31536269 -0.12532705 3.1729734
0.94508499 -0.12534592 3.1954663
0.97943681 -0.12472854 3.1718512
1.0143409 -0.12420826 3.1506488
0.31375796 -0.065978713 3.1840057
0.94536209 -0.078316584 3.1973791
0.97282207 -0.077996589 3.1782691
1.0079165 -0.077683479 3.1575482
0.31219187 -0.034238376 3.1813016
0.94521397 -0.03124007 3.1973875
0.97311103 -0.031124797 3.1797411
1.0061275 -0.030978549 3.1576638
0.29264507 0.045645401 3.1770027
0.31384316 0.017856056 3.1852713
0.97390169 0.023606211 3.1823063
1.0084282 0.023512498 3.1596637
0.28793147 0.079574175 3.1665378
0.30965027 0.076514244 3.194289
0.94576585 0.086464196 3.1985025
0.97445583 0.078402467 3.1834991
1.0091548 0.078069262 3.1613181
0.28836197 0.12520412 3.1701951
0.94579971 0.11785915 3.1979208
0.97462726 0.12538964 3.1830099
1.0165725 0.12478182 3.1574168
0.29410478 0.17828007 3.1897039
0.30991974 0.18366954 3.1941788
0.97508442 0.1724353 3.1829944
1.0156298 0.16973694 3.1595187
0.28824797 0.2237832 3.1655531
0.31046849 0.21465294 3.198571
0.94746548 0.23600551 3.1990917
0.97551292 0.2195304 3.1824071
1.0118113 0.22313234 3.1611269
0.29307115 0.27406451 3.1739874
0.30915657 0.25953928 3.1828072
0.94848728 0.29136038 3.1994371
0.97658587 0.27468082 3.1829615
1.0107238 0.27695858 3.1622827
0.28945071 0.32748663 3.1727498
0.94880539 0.33083072 3.1978891
0.97778296 0.32999346 3.1832943
1.0132241 0.32876167 3.1630001
0.28302729 0.37726113 3.1765208
0.94961101 0.3705107 3.1976705
0.97860503 0.37743431 3.1824045
1.0140023 0.37598518 3.1618376
0.28378752 0.41734147 3.1737778
0.98062092 0.42547429 3.184907
1.0147133 0.42328 3.159977
0.28373998 0.47156778 3.1828985
0.97342777 0.47306547 3.1842287
1.016108 0.47092485 3.1597452
0.27995518 0.52147162 3.1783869
0.97426939 0.52082527 3.1819398
1.0168413 0.52623326 3.1560419
0.28041574 0.58118719 3.1769125
0.97636294 0.56937581 3.1831973
1.0176618 0.57782686 3.1562309
0.28606793 0.62584049 3.1657796
0.31138945 0.62264001 3.1726391
0.97981536 0.62208778 3.1798766
1.0210199 0.63090688 3.1560624
0.24885136 0.6814006 3.1546402
0.27923438 0.67673945 3.1806383
0.94218647 0.66006207 3.1979008
0.97199523 0.67459512 3.1825473
1.0116642 0.68026119 3.1615064
0.27639207 0.73071629 3.1819072
0.94462991 0.70960969 3.1991491
0.97289342 0.72884303 3.1830552
1.0104067 0.72924775 3.1615818
0.27352247 0.77778834 3.1771245
0.97675967 0.78159058 3.1817803
1.0124844 0.77840042 3.1601856
0.27130303 0.81758797 3.1719792
0.9488945 0.80090427 3.1992424
0.98058468 0.82898003 3.1792386
1.0124152 0.82411253 3.1574147
0.26830807 0.87091261 3.1739941
0.97463566 0.87737274 3.1813774
1.0087034 0.87732095 3.1575241
0.27799332 0.91604376 3.1877596
0.97643119 0.92841536 3.1822908
1.0127168 0.92886114 3.1604536
0.23808393 0.99125111 3.164175
0.97314078 0.97134823 3.1841552
1.013276 0.98004454 3.1609528
0.23758732 1.0125556 3.1525481
0.26638398 1.0338409 3.1824567
0.97426003 1.0189457 3.185055
1.0161279 1.0257524 3.1601961
0.26125154 1.0605618 3.1782668
0.97743374 1.0709561 3.1841598
1.0134953 1.074283 3.1591616
0.24001579 1.1488223 3.1552875
0.25586015 1.1335689 3.1597044
0.98105937 1.1237917 3.1840408
1.0157654 1.1222055 3.1608386
0.2580162 1.1669514 3.1803765
0.97980255 1.1776839 3.1862288
1.0179595 1.174634 3.1614799
0.98275346 1.2284863 3.1871319
1.0106457 1.22777 3.1688497
0.9765507 1.2740815 3.1897283
1.0185616 1.2799748 3.1611717
0.97997451 1.323473 3.1877203
1.0203214 1.3213634 3.1651812
0.98946017 1.3730818 3.1857045
1.0238508 1.3693962 3.1596923
0.98562491 1.4244635 3.1931014
1.0205109 1.4251488 3.1655867
0.99022532 1.4815042 3.1911972
1.0217062 1.4733534 3.1706085
1.0540181 1.475136 3.1502724
0.99207777 1.5214258 3.1898191
1.0297896 1.5251315 3.1655002
1.0582882 1.5062119 3.1542292
0.9858759 1.5743563 3.1925104
1.0217702 1.5731537 3.1727824
0.99201673 1.6182382 3.1997125
1.0273963 1.6200527 3.1768701
1.0530255 1.6328008 3.1521568
0.99789882 1.6878253 3.1953998
1.0275108 1.6717392 3.1762483
1.0583802 1.6751189 3.1546855
1.0232987 1.7216953 3.1745327
1.0601968 1.7318583 3.1545873
0.98780161 1.7603385 3.1977167
1.0233486 1.7735494 3.1790385
1.0589932 1.7774111 3.158926
0.29093719 1.8384925 3.1761677
0.32340282 1.8199748 3.1659305
0.35649797 1.8120134 3.16151
0.99378198 1.8144257 3.1985598
1.0250999 1.8264771 3.1819212
1.0583825 1.823503 3.1593006
0.26384914 1.879196 3.1750977
0.37718961 1.8649483 3.1785221
1.0326637 1.8741506 3.1797907
1.0634991 1.8757495 3.1548278
0.98757964 1.9317596 3.1956913
1.0208856 1.919643 3.1856346
1.0586388 1.924062 3.1561608
1.0259166 1.9731573 3.1802375
1.0665298 1.9839969 3.162441
0.99929398 2.0257807 3.199229
1.0243903 2.031671 3.1833487
1.0654314 2.0253966 3.1620145
1.0287883 2.0760219 3.1787543
1.0617555 2.0708389 3.1614909
1.0282682 2.1290472 3.1882956
1.0691177 2.1210213 3.1644652
0.99761093 2.1673825 3.1997728
1.0324515 2.1738222 3.1817558
1.0737683 2.1661921 3.1585708
-1.124921 2.2415979 3.165839
0.75941008 2.247366 3.1867831
1.0224551 2.2273991 3.1913776
1.0634044 2.2180281 3.1659479
-1.1252637 2.2605169 3.1561623
0.34175435 2.2817278 3.1682746
0.37500703 2.287921 3.1775064
0.42879182 2.2932854 3.1725605
0.7633996 2.277257 3.1932485
0.99259716 2.2877922 3.1955178
1.0278304 2.2756493 3.1871679
1.0651288 2.2673633 3.1581209
-1.1103835 2.323127 3.1781492
-1.0758209 2.3410625 3.1664052
-1.0223155 2.3447678 3.1864676
-0.98144346 2.3381014 3.1587749
-0.92375803 2.3467894 3.17623
-0.86899751 2.3470569 3.1892283
-0.83066571 2.3430834 3.1640463
-0.28322661 2.3387511 3.1992843
-0.22836047 2.3427835 3.1819732
-0.17376776 2.331356 3.1691401
0.34220913 2.3114548 3.1570895
0.38492429 2.3219638 3.1617372
0.43181264 2.3153999 3.1537023
0.46795511 2.3090928 3.1584487
1.0299487 2.3270714 3.1806614
1.065645 2.3150072 3.1594589
-1.0251437 2.3546047 3.1714697
-0.96955836 2.3535705 3.1843207
-0.8792817 2.3517051 3.1656127
-0.81841803 2.360121 3.1909251
-0.77713013 2.3549914 3.1736362
-0.72260004 2.3641989 3.1787422
-0.67278856 2.3654187 3.1772749
-0.62674952 2.3700604 3.1816716
-0.56998396 2.3602917 3.1768131
-0.51905435 2.3660805 3.1775227
-0.46951783 2.364907 3.1703522
-0.42848957 2.3645127 3.1862509
-0.37300286 2.3647902 3.1746285
-0.32219422 2.3595014 3.1754479
-0.27848074 2.3578236 3.1694784
-0.23659466 2.357914 3.1583948
0.3459155 2.3634586 3.1753366
0.37555179 2.3735411 3.1627848
0.41638863 2.3645408 3.1524103
0.4720214 2.3831658 3.1535933
0.97872907 2.3805542 3.1959321
1.0214226 2.3779922 3.1731772
1.0531003 2.3645215 3.1593988
0.49342805 2.4088888 3.1678669
0.52049369 2.4204907 3.1727951
0.56853563 2.4386332 3.1617012
0.62952077 2.4384053 3.1735191
0.66928262 2.4399023 3.1712859
0.72001219 2.4405558 3.1751328
0.77734178 2.4385135 3.1795797
0.82261157 2.4363818 3.1672966
0.87318343 2.430831 3.1855929
0.93136156 2.4271808 3.1748965
0.97594136 2.415204 3.1766031
1.0086961 2.4155388 3.1622326
0.57675081 -0.55692697 3.2249093
0.60395765 -0.55247295 3.2427192
0.51890385 -0.53561991 3.2149203
0.55319124 -0.54910105 3.2284849
0.61616236 -0.54927671 3.2219999
0.84682536 -0.37355778 3.247787
0.87481642 -0.3719413 3.2281227
0.90338832 -0.36277068 3.2117867
0.84636158 -0.34157628 3.2483294
0.87319273 -0.32653558 3.2309303
0.90959007 -0.33060679 3.20661
0.87624586 -0.27214199 3.23385
0.90962034 -0.27548367 3.2101867
0.3716248 -0.21741559 3.238018
0.87523377 -0.2216453 3.2388
0.91747749 -0.2203657 3.2114573
0.34292778 -0.17712077 3.2151859
0.36163908 -0.17103337 3.2439795
0.8750695 -0.17408885 3.2400956
0.91751546 -0.17313033 3.2135036
0.33873862 -0.11924241 3.2139494
0.36480144 -0.12024172 3.238611
0.87906611 -0.12876369 3.2386825
0.91735131 -0.12585767 3.2143946
0.3362543 -0.079936184 3.2130466
0.36038637 -0.077412397 3.2350132
0.88223726 -0.07899908 3.2382948
0.91702354 -0.078586236 3.214215
0.3373459 -0.027755883 3.223948
0.36082792 -0.030986227 3.2394552
0.88255078 -0.031539932 3.2399549
0.91723561 -0.031359073 3.2154703
0.33889338 0.028359838 3.2286272
0.36118853 0.020758467 3.2426918
0.8826077 0.023864971 3.240144
0.92484182 0.023738801 3.213047
0.33500892 0.074307248 3.2309639
0.36101329 0.077683724 3.2405407
0.88316005 0.079322308 3.2415621
0.92114496 0.077354506 3.2169328
0.32639843 0.12167399 3.225343
0.88362306 0.12691164 3.2422168
0.92159545 0.12783121 3.2173741
0.33121359 0.16852957 3.2331271
0.36170855 0.18671034 3.2438369
0.88360929 0.17445929 3.2406693
0.92604083 0.1735117 3.2140272
0.32732642 0.22193533 3.2289762
0.8845225 0.22223412 3.2420275
0.92508322 0.21965837 3.2166948
0.32915911 0.27873948 3.2268598
0.88495779 0.26996419 3.2411613
0.92684561 0.27001742 3.217128
0.32196125 0.32579634 3.2301166
0.88702053 0.32245857 3.2411015
0.92020893 0.32663009 3.2199385
0.32256845 0.37305441 3.2330668
0.88827515 0.37865025 3.2398467
0.92224097 0.38011301 3.2177668
0.95160764 0.39498091 3.2024689
0.29700717 0.42686653 3.205807
0.32192275 0.42087355 3.2386403
0.88821608 0.43028238 3.2414417
0.92355847 0.42821053 3.2183013
0.95229799 0.42687821 3.2020073
0.29764509 0.48703194 3.2071517
0.32243818 0.47218841 3.2344959
0.88909155 0.47855422 3.2400732
0.92446327 0.47625637 3.2169054
0.29859433 0.54285687 3.2116294
0.31935897 0.52132386 3.2401972
0.88988853 0.5268684 3.2379286
0.92512119 0.52423692 3.2141244
0.29831949 0.5733481 3.2050874
0.3206079 0.58249474 3.2327003
0.88834542 0.57826436 3.2395861
0.92725933 0.57320732 3.2159989
0.33311692 0.61133438 3.2363389
0.89069015 0.62113905 3.2357545
0.92504942 0.62323362 3.2137592
0.29932442 0.66856879 3.2039046
0.31696799 0.67695403 3.2237089
0.88851815 0.67555666 3.2453721
0.91891778 0.67354614 3.2210262
0.30938014 0.72045994 3.2201796
0.88210517 0.72515005 3.2457378
0.92009038 0.72246182 3.2180169
0.28519759 0.76566917 3.2068894
0.31126681 0.772147 3.23246
0.88512868 0.77795804 3.2424369
0.9264009 0.77017134 3.2148612
0.28655356 0.83997101 3.2102904
0.31176037 0.82072967 3.2298157
0.88511461 0.82463497 3.2409067
0.92113686 0.82074052 3.2177894
0.95115459 0.82689679 3.2026107
0.28850323 0.87730658 3.226465
0.31183985 0.87592953 3.2383671
0.88883048 0.87521678 3.2394733
0.92346638 0.87121695 3.2171412
0.9519251 0.85166752 3.2008295
0.28874767 0.90177202 3.2248023
0.31406558 0.92222041 3.2364414
0.8894847 0.92620844 3.2386925
0.92509133 0.92124146 3.2134223
0.30693579 0.9726423 3.2363648
0.89133406 0.97551173 3.242373
0.92570227 0.97541791 3.2171757
0.31911874 1.0253552 3.2412117
0.88814521 1.0315673 3.2444923
0.92452121 1.0265689 3.2207401
0.29106414 1.0605242 3.2194052
0.31480828 1.0662524 3.2441652
0.89033085 1.0751376 3.2431631
0.9236244 1.0784926 3.2248168
0.95028681 1.0850716 3.206965
