ply
format ascii 1.0
comment PCL generated
element vertex 1501
property float x
property float y
property float z
element camera 0
property float view_px
property float view_py
property float view_pz
property float x_axisx
property float x_axisy
property float x_axisz
property float y_axisx
property float y_axisy
property float y_axisz
property float z_axisx
property float z_axisy
property float z_axisz
property float focal
property float scalex
property float scaley
property float centerx
property float centery
property int viewportx
property int viewporty
property float k1
property float k2
end_header
-1.8112599 -0.494836 1.699001
-1.7323414 -0.47927126 1.6653538
-1.6695125 -0.46933031 1.6545577
-1.61945 -0.46269718 1.6538221
-1.5724527 -0.45825985 1.6639925
-1.5292929 -0.45477474 1.6761309
-1.4868945 -0.45137486 1.6871973
-0.055772968 -0.47945902 1.6885079
-0.024897497 -0.47527477 1.6786042
0.0061529838 -0.47020829 1.671747
0.93384695 -0.4655343 1.6636057
1.0928417 -0.47098485 1.6575955
1.1140208 -0.47608009 1.6706671
1.1928686 -0.46257263 1.6573863
1.211374 -0.45474544 1.6571147
1.3824555 -0.46274376 1.6642555
1.4274387 -0.45993674 1.6559553
1.4815893 -0.46182698 1.6646039
1.5305631 -0.46478364 1.6712124
1.5751137 -0.4657822 1.675772
1.6160256 -0.46274456 1.6812857
1.7405157 -0.48154375 1.6736932
-1.6060076 -0.41188407 1.6509466
-1.5756887 -0.42669868 1.6571141
-1.5290896 -0.42225435 1.6730714
-1.4837546 -0.42481706 1.6892334
0.94130319 -0.44393441 1.6614615
0.97396821 -0.4153161 1.6590835
1.0269723 -0.42441741 1.6622654
1.2333262 -0.43217942 1.6721069
1.2639288 -0.42772809 1.6735649
-1.6027505 -0.39020771 1.6519729
-1.5763521 -0.37074336 1.6602373
-1.5231435 -0.37612146 1.6773612
-1.4825506 -0.38029447 1.6918019
0.93474174 -0.36629596 1.6544719
0.97548336 -0.37180156 1.6595997
1.0256858 -0.3749232 1.6735467
1.0763522 -0.36377931 1.6522056
1.1200314 -0.38677892 1.6914989
1.1687219 -0.38053703 1.6767068
1.2422917 -0.37300649 1.6789744
1.275185 -0.38414827 1.6856061
-1.6087604 -0.31637958 1.6520544
-1.5737519 -0.3232286 1.6608442
-1.5250235 -0.32903457 1.6788187
-1.4866341 -0.32582822 1.6914548
0.89334476 -0.33177689 1.6516271
0.92627227 -0.32276183 1.6574005
0.97449189 -0.32430527 1.6658599
1.0269827 -0.32682541 1.6779287
1.0752382 -0.32705 1.6563286
1.2441084 -0.32475397 1.6919025
1.2582659 -0.32397413 1.6934115
-1.6117527 -0.27232403 1.6534787
-1.5712329 -0.27660918 1.6653394
-1.5242751 -0.27564564 1.6790454
-1.488414 -0.27423105 1.6915023
0.92648476 -0.27493888 1.6588812
0.97332692 -0.27647066 1.6647276
1.0238476 -0.27531487 1.6741216
1.107617 -0.25047833 1.6982911
1.1651853 -0.25807187 1.6522671
1.2434524 -0.27847734 1.6927881
1.2605953 -0.27817237 1.6904644
-1.6182467 -0.22766934 1.6519579
-1.5774186 -0.22483414 1.6623909
-1.5256114 -0.22430332 1.6818526
-1.4865012 -0.22307234 1.6955824
0.89783299 -0.2389212 1.6519115
0.92747122 -0.22342747 1.6588224
0.97617263 -0.22651319 1.6619054
1.0195205 -0.22656465 1.6667221
1.1067065 -0.24099337 1.6979196
1.1646338 -0.24872653 1.6525913
1.2391901 -0.22516876 1.6814405
1.2700466 -0.23013215 1.6902332
-1.6116979 -0.1752481 1.6534898
-1.5764477 -0.1742321 1.6649679
-1.5226612 -0.17285699 1.6836777
-1.4903193 -0.1721044 1.6953306
0.92638779 -0.17486139 1.6596066
0.96855354 -0.17322671 1.6613338
1.0097342 -0.16568404 1.6564366
1.1684196 -0.17551136 1.6653132
1.2314759 -0.17656505 1.680007
1.2631999 -0.17566271 1.6769003
-1.6180841 -0.12354726 1.6531804
-1.5738704 -0.12261166 1.6661146
-1.520938 -0.12171259 1.6855018
-1.4881248 -0.12114377 1.6964724
0.085624665 -0.13926962 1.6634328
0.12706341 -0.14104979 1.6830287
0.1741406 -0.14027476 1.6931416
0.23573446 -0.13042951 1.6824522
0.25419718 -0.11663696 1.671834
0.89325851 -0.12524113 1.6524535
0.92499661 -0.12662029 1.6617705
0.97609192 -0.12707481 1.6683089
1.0210987 -0.12325183 1.6763781
1.0972419 -0.10551983 1.6937
1.2400316 -0.12638947 1.6922461
1.2569702 -0.12867628 1.6950519
-1.615271 -0.071688652 1.6539862
-1.5749906 -0.07127136 1.6682895
-1.5235705 -0.071829878 1.68336
-1.4918669 -0.067906186 1.6960059
0.24539545 -0.081055686 1.687434
0.25374612 -0.075307637 1.6668425
0.89224178 -0.051659007 1.6533967
0.92360729 -0.073802039 1.6603101
0.97411603 -0.075197808 1.6736525
1.0200002 -0.078746073 1.6843698
1.0601532 -0.058254167 1.665522
1.1006161 -0.092012212 1.6995156
1.2513119 -0.094967343 1.6938139
-1.6205518 -0.027278915 1.6546471
-1.573682 -0.02504731 1.6695195
-1.5224277 -0.024173027 1.6865534
-1.4934453 -0.027346065 1.6963285
0.24561973 -0.028387016 1.6900486
0.25247329 -0.030012526 1.6673793
0.73320174 -0.016675623 1.6554377
0.77614343 -0.025231883 1.6541162
0.81452465 -0.029007282 1.6701549
0.87586731 -0.034362797 1.657033
0.93124831 -0.03055886 1.6687367
0.97350067 -0.01946656 1.6599514
1.0273148 -0.021216875 1.6686924
1.0723298 -0.023619577 1.6828586
-1.6223894 0.021400686 1.6556216
-1.5730587 0.021153573 1.6688178
-1.5211123 0.022014683 1.6876177
-1.499373 0.00054957112 1.6937231
0.24782954 0.008024157 1.6775181
0.25408196 0.028609058 1.6734895
0.94361061 0.043794338 1.6501637
0.97692126 0.021616846 1.6565288
1.0258306 0.020714512 1.6708444
1.0695448 0.025866587 1.6842145
-1.6166691 0.073103957 1.6551489
-1.5743787 0.072553627 1.6689055
-1.5216681 0.07083974 1.6870179
-1.4924207 0.088484369 1.696472
0.25677145 0.075078785 1.6751231
0.93600345 0.075786166 1.6532243
0.97473413 0.074734583 1.6634359
1.0233448 0.077517912 1.6774409
1.0686094 0.071159072 1.6904809
-1.6194494 0.12506524 1.6552254
-1.5772923 0.12414797 1.6693075
-1.523103 0.12304945 1.6874893
-1.4900891 0.10208242 1.6995398
0.26024404 0.125745 1.667771
0.92906964 0.13241738 1.6545277
0.97021794 0.12532724 1.6659082
1.0268183 0.12525639 1.6823894
1.0651851 0.12448861 1.6910884
-1.6218668 0.18112072 1.6572628
-1.5773551 0.17411417 1.6706247
-1.5271318 0.17453042 1.6880515
-1.495602 0.18400165 1.6999232
0.25906682 0.17543915 1.6713493
0.92703903 0.17501862 1.6559387
0.97580212 0.17446932 1.6695874
1.0259449 0.17468427 1.6815648
1.0700027 0.17449148 1.6945055
-1.6206654 0.22312552 1.6589367
-1.5727497 0.22833528 1.6727202
-1.5245523 0.22667791 1.6895037
-1.4991714 0.22531442 1.6997393
0.26120207 0.22202028 1.6713122
0.89699692 0.20869681 1.6529806
0.92935073 0.22365488 1.6576383
0.97488129 0.22474112 1.6679186
1.0281049 0.2243956 1.6835843
1.0696052 0.22806647 1.6936637
-1.5595953 0.27182302 1.6753706
-1.523003 0.27704895 1.6925591
0.25953192 0.27382848 1.6780431
0.92827696 0.27662593 1.6581185
0.97613525 0.27506721 1.669839
1.0234751 0.27484211 1.6838614
1.0647081 0.2743209 1.6950669
-1.6148682 0.34177175 1.686572
-1.5705297 0.32969302 1.6848398
-1.5370907 0.31993341 1.6907021
0.24830604 0.31600207 1.6891239
0.25667009 0.31288788 1.6713451
0.75272828 0.34986031 1.6512487
0.88211304 0.33250365 1.6571165
0.92355138 0.32171416 1.6618891
0.97202837 0.3203412 1.6737955
1.025677 0.31479201 1.6871687
1.0633515 0.31397364 1.6962117
-1.783116 0.38554388 1.6623174
-1.7229562 0.37866107 1.6699119
-1.6731874 0.37780163 1.6828257
-1.6288332 0.38138282 1.6851406
-1.5798392 0.3936466 1.6852732
-1.5329123 0.39487401 1.6921495
0.81724524 0.36826333 1.6803783
0.88922977 0.37545997 1.6797916
0.92207319 0.37891838 1.6724961
0.96819627 0.38263893 1.6888092
-1.6580015 0.42974025 1.6523569
-1.6258416 0.42221665 1.6623511
-1.577162 0.42523751 1.678627
-1.5300487 0.4273122 1.6920053
-1.6572123 0.46895835 1.6504146
-1.6238221 0.47730032 1.6619112
-1.5758812 0.47228774 1.6786333
-1.5348203 0.47589198 1.6924959
-1.6281302 0.52435887 1.660504
-1.5729665 0.52571493 1.6788684
-1.531443 0.52474403 1.693177
-1.6210879 0.57449746 1.6594622
-1.5753142 0.57616448 1.6765929
-1.5328044 0.57251745 1.693149
-1.6237849 0.62796658 1.6572675
-1.5744518 0.62393129 1.6777133
-1.5346713 0.62643868 1.6919087
-1.6235486 0.67395973 1.6566219
-1.5753598 0.67478681 1.675205
-1.5328223 0.67796975 1.6934541
-1.7519803 0.74340171 1.6659743
-1.6712596 0.72935736 1.6641122
-1.620487 0.71551102 1.6680684
-1.5725791 0.71611291 1.683504
-1.5353628 0.71443796 1.6953448
-1.9079708 0.78803498 1.6899228
-1.8682537 0.77538657 1.6880735
-1.8266456 0.76530313 1.6937674
-1.7858915 0.7529788 1.6770033
-1.9570826 0.84304148 1.6838349
-1.9225788 0.82840317 1.6942384
-1.8945726 0.81950778 1.6986507
-2.0210264 0.8898195 1.6649466
-1.9691383 0.87861085 1.6790345
-1.9311067 0.87221086 1.6920638
-2.0255318 0.9282313 1.66263
-1.9741873 0.92381066 1.6756924
-1.9275646 0.92324346 1.6925231
-2.0560706 0.99394393 1.6503888
-2.0197179 0.97771317 1.6609868
-1.9802965 0.97338706 1.6737123
-1.9296606 0.97800982 1.6849377
-2.0221119 1.0218894 1.6565818
-1.9732604 1.0264189 1.6660651
-1.9234424 1.0229291 1.6825737
-1.89389 1.0409815 1.6958723
-2.0231111 1.0734713 1.6572745
-1.9798263 1.0804218 1.6717641
-1.9263109 1.0753474 1.6864048
-2.0753689 1.1400517 1.6885469
-2.020474 1.1070371 1.6574056
-1.9741454 1.1131499 1.6835706
-1.9389453 1.118256 1.6971703
-1.4151801 -0.55307817 1.735065
-1.382843 -0.55562955 1.7256051
-1.9170719 -0.51093155 1.7107425
-1.8701754 -0.50737584 1.7031223
-1.821847 -0.51420629 1.7090145
-1.771139 -0.50995398 1.7193257
-1.7245394 -0.51222628 1.7301829
-1.6746601 -0.51904839 1.7305607
-1.6226715 -0.5194028 1.7267543
-1.5770235 -0.5199005 1.7229415
-1.5228634 -0.52408814 1.7206923
-1.4701055 -0.53152144 1.7256993
-1.4321179 -0.54154807 1.7146661
-1.8391845 -0.49933606 1.7039548
-1.6942186 -0.49834237 1.7483144
-1.600684 -0.48355415 1.7315924
-1.5276837 -0.47266591 1.7211185
-1.4707267 -0.46098042 1.7201512
-0.0062498651 -0.47754321 1.7134531
1.4302409 -0.45816225 1.7367499
1.4505439 -0.4512895 1.713395
1.5115772 -0.45314044 1.7475832
1.6081598 -0.45800757 1.7046463
-1.4564023 -0.42698127 1.7138234
1.2350999 -0.43057391 1.7195717
1.2636993 -0.42176446 1.7258351
1.4631242 -0.43965009 1.7316167
1.5115051 -0.44257092 1.7497805
-1.4594542 -0.37748423 1.7071378
-1.448892 -0.36744341 1.7178868
1.1335027 -0.36782405 1.7185361
1.1723582 -0.37470981 1.7256062
1.2203875 -0.36866838 1.7278302
1.2623417 -0.37466291 1.7264302
1.3099346 -0.36610752 1.7253773
-1.4607053 -0.32646424 1.7154927
1.1313512 -0.32227546 1.7261347
1.1609352 -0.33068925 1.7478632
1.2102416 -0.32593948 1.7473251
1.2777103 -0.33058837 1.706481
1.3133768 -0.32737684 1.7362932
-1.4627798 -0.27422157 1.7099165
1.1334821 -0.27535233 1.725818
1.1667606 -0.27734926 1.7474834
1.2435256 -0.26465681 1.7257538
1.2766603 -0.27104947 1.7196771
1.6640779 -0.27621502 1.7476364
-1.4621524 -0.22324647 1.715337
1.1363481 -0.22653539 1.7260554
1.1621459 -0.22973379 1.7457863
1.2291135 -0.22181985 1.729091
1.473032 -0.21249026 1.745885
1.6494057 -0.20919952 1.7399236
1.6584172 -0.23740274 1.7464644
-1.4674852 -0.17242827 1.7168547
1.135177 -0.16889037 1.7195629
1.1967651 -0.17305091 1.7443527
1.2217168 -0.16555658 1.7171978
1.2957337 -0.16490912 1.7119188
1.3092669 -0.18488462 1.7093476
1.4759264 -0.18028226 1.7379961
1.6543889 -0.18824159 1.7472719
-1.4679021 -0.12256847 1.7136394
0.1860788 -0.13624372 1.7039934
0.22593187 -0.1283778 1.7216692
1.0317087 -0.10451131 1.7028348
1.1326145 -0.12214994 1.7283252
1.174896 -0.12623726 1.7476265
1.2366781 -0.13010174 1.7246891
1.2782352 -0.11769913 1.7141018
-1.4674326 -0.070444986 1.7130744
0.2389448 -0.077042975 1.7234021
1.0257605 -0.07255248 1.7037072
1.0537744 -0.05508874 1.7216057
1.1320962 -0.077077836 1.7332398
1.1710969 -0.085824363 1.7472831
1.241344 -0.089742064 1.7303329
1.2730972 -0.089686252 1.7110177
1.3070517 -0.068528727 1.7415688
-1.469559 -0.02481517 1.7110827
0.23945785 -0.03309704 1.7247168
0.91071081 -0.035435468 1.7079222
0.98133123 -0.04510662 1.7162149
1.1253597 -0.027804935 1.7201673
1.1756219 -0.028305253 1.7386324
1.212201 -0.022814933 1.7463396
-1.4729486 0.020808082 1.7108958
0.24406049 0.027721686 1.7164315
1.1262625 0.023430541 1.7204094
1.1743888 0.024415417 1.7379175
1.2053567 0.016397672 1.7440988
-1.4727243 0.069891363 1.7126918
0.24580795 0.080048658 1.7224849
0.25007054 0.062025081 1.7200775
1.0938067 0.088145569 1.7078152
1.128824 0.076236308 1.7271791
1.1727916 0.073607348 1.74448
-1.4764884 0.1236539 1.7127714
0.24596682 0.11779892 1.7315348
0.25332439 0.12863772 1.7154353
1.0904624 0.1239142 1.7055273
1.12729 0.1226595 1.7294232
1.1654831 0.12521628 1.7424496
-1.4769721 0.17482649 1.7158948
0.24598433 0.16540089 1.7291228
0.25122157 0.18271722 1.7223086
1.0864712 0.17582059 1.7036352
1.1287256 0.17491102 1.7313186
1.1648774 0.17049585 1.7461277
-1.474725 0.22429948 1.7175002
0.24744496 0.22019856 1.7376391
0.25364497 0.22659518 1.7190124
1.1281374 0.22416903 1.732428
1.1653702 0.22630773 1.7461914
-1.4779818 0.27720368 1.7171087
0.24636553 0.27370504 1.7397981
0.25134715 0.27418885 1.7150637
1.0898969 0.2826359 1.7076679
1.1283029 0.27367964 1.7320628
1.1623378 0.27746776 1.7466998
-1.6844379 0.34905699 1.7257084
-1.6164517 0.32449543 1.708153
-1.5147284 0.33091572 1.7028345
-1.4814591 0.32465506 1.7191362
0.24530181 0.31449488 1.7275732
0.25225455 0.32106602 1.7160075
1.0330591 0.34229285 1.7105193
1.0859294 0.32722086 1.7114036
1.1256238 0.32225356 1.7317649
1.1575751 0.313182 1.7479081
-1.701345 0.35895294 1.7000806
-1.6644667 0.36643708 1.7012972
-1.6151987 0.37017122 1.7087822
-1.5701276 0.3724879 1.7152729
-1.5201833 0.37326559 1.7185656
-1.4833182 0.37782893 1.7247498
0.87553734 0.38632622 1.727373
0.99526834 0.37720361 1.7098701
1.0010803 0.39791137 1.7166963
-1.5065128 0.42193255 1.7025155
-1.4815018 0.42522174 1.7194555
0.91249603 0.40071025 1.718418
0.97262967 0.40491048 1.7155735
-1.5101967 0.47424361 1.7018317
-1.4802666 0.47659266 1.7204334
-1.5094366 0.52808362 1.7028867
-1.4785829 0.52529633 1.722476
-1.5084245 0.57650644 1.7042061
-1.4804443 0.57301378 1.7211107
-1.5106351 0.6194613 1.7028675
-1.4815192 0.62600386 1.7240367
-1.5086263 0.67317373 1.7050751
-1.4808251 0.67644536 1.7249321
-1.5611383 0.74700749 1.7425342
-1.516296 0.72001964 1.7168256
-1.4840877 0.71441042 1.7293546
-1.8229444 0.78788894 1.7182853
-1.7709999 0.78264248 1.7241066
-1.7294374 0.7775113 1.731964
-1.6750019 0.77175432 1.7495517
-1.869566 0.825073 1.7089038
-1.8262509 0.82611471 1.7219639
-1.7779374 0.82418764 1.7374852
-1.7242692 0.80692708 1.7482347
-1.9072331 0.87242246 1.7063471
-1.8721325 0.87734544 1.7146323
-1.8227241 0.87553823 1.727223
-1.7781774 0.87179977 1.740376
-1.9106983 0.94600725 1.7103866
-1.8771509 0.92328322 1.712209
-1.8269101 0.92479384 1.7318535
-1.7884909 0.90660721 1.7424723
-1.9084859 0.97522849 1.7026343
-1.8771352 0.97421956 1.7130039
-1.8248644 0.97370368 1.7268928
-1.7949144 0.97762078 1.7421612
-1.8752296 1.0241214 1.7122974
-1.8249264 1.02693 1.7303519
-1.7916065 1.0306629 1.7458549
-1.9046048 1.0967356 1.705815
-1.875277 1.0769812 1.7147162
-1.8221345 1.071597 1.7368923
-1.7847958 1.082303 1.7451165
-1.9162885 1.1158633 1.7099386
-1.8752016 1.1166512 1.7297329
-1.8397888 1.1131217 1.7470707
-1.7898427 1.1035548 1.7404394
-1.9412998 1.150394 1.7480667
-1.4118401 -0.55478674 1.7722169
-1.3803798 -0.5589 1.7597818
-1.6712108 -0.50751686 1.7527661
-1.6292485 -0.51031011 1.7686807
-1.5750188 -0.51072687 1.7794566
-1.5225754 -0.51535583 1.780205
-1.4733275 -0.52842993 1.7650191
-1.4385114 -0.54494148 1.7788137
-1.6671178 -0.49525574 1.7511938
-1.6381048 -0.49153861 1.7514319
-1.5065727 -0.4917998 1.7846646
-1.4762089 -0.47124177 1.7822617
1.4348418 -0.45612371 1.7534089
1.4624807 -0.4510614 1.7693697
-1.4683267 -0.42350554 1.77605
1.4292526 -0.4317311 1.7762362
1.4803014 -0.43296894 1.7729572
1.5148048 -0.41861904 1.7689974
-1.4784609 -0.37894028 1.7827179
1.1923972 -0.36053503 1.7550069
1.2045127 -0.35634696 1.7540015
1.2675825 -0.36060286 1.7594169
1.3303128 -0.37174329 1.7522537
1.3766905 -0.38109508 1.7763762
1.4177723 -0.38262379 1.7915905
1.4884052 -0.37879169 1.7748837
1.5182943 -0.37261701 1.7774361
1.6821359 -0.36073509 1.7665255
-1.4793137 -0.32329181 1.7878004
1.1841447 -0.32262531 1.757004
1.2066979 -0.32056293 1.7551496
1.264957 -0.32638043 1.7575836
1.48821 -0.32393229 1.7760006
1.5187474 -0.32708058 1.7864079
1.6809547 -0.31999046 1.7635949
-1.4822315 -0.27230549 1.7832266
1.1916131 -0.27027193 1.7564344
1.2069703 -0.27527162 1.752504
1.2619563 -0.28784904 1.756683
1.3633804 -0.27589098 1.7910199
1.4439133 -0.25017503 1.7987131
1.476958 -0.27561665 1.7665179
1.5164497 -0.27476469 1.7842312
1.663215 -0.26151159 1.7692822
-1.4835845 -0.2276946 1.7914366
1.1872113 -0.2221324 1.7550385
1.2071702 -0.23769364 1.753839
1.3437889 -0.23156276 1.7699175
1.3777705 -0.21457832 1.7903548
1.4339119 -0.21414632 1.7931365
1.4670336 -0.228111 1.7713096
1.516145 -0.20821032 1.751433
1.5610753 -0.20759209 1.7836883
1.6587224 -0.22266015 1.7689279
-1.4720787 -0.17730038 1.790604
1.1825548 -0.17308643 1.752327
1.3370353 -0.15009983 1.7679257
1.4274142 -0.18354562 1.7882872
1.4677234 -0.16330172 1.7706738
1.522471 -0.18314475 1.766085
1.5549051 -0.19080089 1.7781323
1.6492684 -0.19432507 1.7615944
1.6622992 -0.17323317 1.7637912
-1.4753824 -0.12452121 1.7804611
0.22947945 -0.11646521 1.7748183
1.1832675 -0.12287843 1.7527373
1.2405689 -0.11176312 1.7536558
1.2520165 -0.11190756 1.750579
1.3424364 -0.13054495 1.7763122
1.3503382 -0.10599467 1.7880979
1.4758902 -0.12438016 1.779218
1.5094347 -0.13118866 1.7893203
-1.4804946 -0.072061755 1.7672285
0.2314308 -0.067789182 1.7693222
1.1811 -0.079759091 1.7519754
1.2424909 -0.058237009 1.7583631
1.272651 -0.063777775 1.7667052
1.3285751 -0.056657553 1.7867537
1.3599997 -0.068374142 1.7973542
1.4200304 -0.081116781 1.7617216
-1.4839139 -0.02558334 1.7822378
0.23210542 -0.038299102 1.7750909
1.2320087 -0.031771503 1.7572781
1.2787205 -0.02931544 1.7708983
1.3226941 -0.026683535 1.7806324
1.3600807 -0.026055038 1.7953727
-1.4845479 0.016860858 1.7787741
0.23941644 3.2609289e-05 1.7657112
1.1972009 0.019591922 1.7514149
1.2311631 0.024677595 1.7591556
1.2766885 0.024213212 1.7726194
1.326098 0.02136147 1.7871495
1.358037 0.018220525 1.795626
-1.4843051 0.073262468 1.7715642
0.24019635 0.06231441 1.7706867
1.1931267 0.083178006 1.751564
1.2320646 0.077068336 1.7633436
1.2762183 0.079653151 1.7758106
1.3239673 0.071700513 1.7915448
1.3540227 0.06137611 1.7944833
-1.4767271 0.12464027 1.7600422
0.24324396 0.14385252 1.7585068
1.1907319 0.12570249 1.7537525
1.2255858 0.12665454 1.7667264
1.2743543 0.12952337 1.7805672
1.3251634 0.12403691 1.7952659
-1.4762471 0.17162538 1.779967
0.23880444 0.17538245 1.7769636
1.1915907 0.17781961 1.7585893
1.2256427 0.17648473 1.7664084
1.2756182 0.17547536 1.7825079
1.3212522 0.17472203 1.7933626
-1.4813831 0.21628386 1.7980254
0.24215837 0.22899678 1.7634579
1.1888008 0.22428638 1.7567164
1.2282742 0.22591273 1.7657704
1.2725375 0.22449037 1.7803398
1.3170323 0.22406764 1.7966683
-1.5019382 0.27602193 1.7961131
-1.4943581 0.29043055 1.7849326
0.23993072 0.27765334 1.7794013
1.1788887 0.27819923 1.7540098
1.2211174 0.27524701 1.766964
1.2733741 0.27501774 1.7842242
1.3141466 0.27386492 1.7934793
-1.4780926 0.31853795 1.7609413
0.24044569 0.30699724 1.771853
1.1485509 0.33741552 1.7502598
1.181105 0.32416451 1.7585528
1.2243571 0.32406193 1.7738868
1.2751317 0.32082927 1.7871653
1.314481 0.32176727 1.7976015
-1.4876519 0.36788136 1.7645899
1.2211927 0.38007343 1.7853293
-1.5043622 0.4067103 1.7987251
-1.4836237 0.42740339 1.7686822
1.224196 0.40090919 1.7957904
-1.500614 0.4945195 1.7963899
-1.5038761 0.50635958 1.7977471
-1.4805765 0.5196774 1.7646841
-1.5026495 0.59083289 1.7957628
-1.4855253 0.60551161 1.7691472
-1.4844908 0.67417014 1.7683932
-1.705529 0.7920292 1.7552752
-1.6759539 0.78216493 1.760615
-1.6233702 0.7800675 1.7753773
-1.5926254 0.77874285 1.7947974
-1.5096188 0.75134063 1.7985179
-1.7533367 0.82092726 1.7534506
-1.7179614 0.8305015 1.7627184
-1.6745408 0.82276517 1.7810637
-1.6379585 0.81264555 1.7932498
-1.757964 0.87414628 1.754687
-1.7274948 0.87447077 1.7700405
-1.6786369 0.87329257 1.789678
-1.6458399 0.85979021 1.7962853
-1.771157 0.93026108 1.7549105
-1.7277522 0.92287183 1.7718073
-1.6834614 0.92608279 1.7918847
-1.7665937 0.9712733 1.7550939
-1.7216786 0.97469497 1.7756988
-1.6799282 0.97415078 1.7932311
-1.7680317 1.0243201 1.7560468
-1.7239907 1.0241014 1.7748988
-1.6849675 1.0274162 1.7901267
-1.7686467 1.0750028 1.7583404
-1.728557 1.0757899 1.7735316
-1.6803745 1.0769705 1.79105
-1.8181616 1.1292306 1.7635573
-1.7688878 1.1119586 1.7663164
-1.7259642 1.1198324 1.7837566
-1.6806579 1.109483 1.7875283
-1.8728964 1.1596323 1.7913418
-1.4525136 -0.55126667 1.8391507
-1.4132172 -0.55814475 1.820369
-1.3769852 -0.56949735 1.8381455
-1.3361851 -0.56880772 1.8334568
-1.5090013 -0.51856309 1.8199227
-1.4849204 -0.53596008 1.8264867
-1.5380012 -0.49850479 1.8012357
-1.4770914 -0.48199722 1.8127018
-1.4724296 -0.40273535 1.8018268
1.4481106 -0.40041983 1.8022591
1.4854851 -0.41794196 1.8131123
1.5036895 -0.41758069 1.8074834
1.6661749 -0.41796127 1.810535
1.920843 -0.41148654 1.8465036
-1.4829842 -0.38422656 1.8185706
1.3844957 -0.36318433 1.8069452
1.4311076 -0.36451465 1.8137074
1.4782839 -0.37413111 1.8143924
1.5012946 -0.35805792 1.8150597
1.5925052 -0.38027787 1.8386859
1.6169981 -0.38344219 1.8458951
1.6620823 -0.37833944 1.8168572
1.9157727 -0.37568033 1.8404385
1.387216 -0.32668045 1.8093761
1.4278979 -0.32297778 1.8193427
1.4708151 -0.32773709 1.8184599
1.5013939 -0.3259697 1.8201461
1.5884849 -0.30774859 1.8452444
1.672724 -0.32433549 1.8341376
1.9088093 -0.3266767 1.841598
-1.4783018 -0.27449578 1.8084561
1.3890958 -0.27425212 1.8104084
1.4300807 -0.27362901 1.8173162
1.4761001 -0.27583566 1.814133
1.500406 -0.29901952 1.822763
1.5771009 -0.28015378 1.8353572
1.6814029 -0.27442104 1.8401005
1.9053798 -0.27853724 1.8450247
-1.50264 -0.20619062 1.8053467
-1.4941983 -0.22933203 1.8333743
1.3912443 -0.24309205 1.8118527
1.4210902 -0.2309135 1.8117591
1.4708345 -0.24156579 1.8032126
1.5894209 -0.22921413 1.8349723
1.632493 -0.21003339 1.8449154
1.6690968 -0.22058126 1.831051
1.9110323 -0.22916335 1.8488687
-1.5018767 -0.1796032 1.8067365
-1.4998684 -0.15820487 1.8059543
1.3800097 -0.15889236 1.8045101
1.4209906 -0.16920856 1.8109069
1.4595001 -0.16196188 1.8063999
1.5387849 -0.15946594 1.802175
1.5921712 -0.16932547 1.8435571
1.6723273 -0.18383862 1.8248081
-1.5003145 -0.11591844 1.8091018
-1.4979316 -0.12277462 1.8058119
0.22031464 -0.1220995 1.8174437
1.3815321 -0.12306754 1.8086838
1.4247183 -0.12646407 1.8179109
1.4721123 -0.12348714 1.8194307
1.5425241 -0.13313839 1.808272
1.5519285 -0.1339345 1.8193512
-1.4873642 -0.073213577 1.8051306
1.3845801 -0.064685471 1.8051399
1.4214152 -0.067112923 1.8128906
1.4770579 -0.0642571 1.8284942
1.5250698 -0.067150071 1.8425609
-1.4787675 -0.02577759 1.8056934
0.22767639 -0.038980223 1.8082658
1.3869123 -0.025258482 1.8056303
1.4239415 -0.027283637 1.8136126
1.4751071 -0.024545098 1.8294678
1.5173421 -0.026345931 1.8427668
-1.4860773 0.025521722 1.8070377
1.3848655 0.023043076 1.8081623
1.4267256 0.021327607 1.8205242
1.4733665 0.020850124 1.8321812
1.5129113 0.020192171 1.8441353
-1.5015843 0.090554282 1.8115797
-1.4895635 0.070423685 1.8102412
1.3790222 0.071517214 1.8089732
1.4241047 0.07519298 1.8209213
1.4740226 0.072821692 1.8361487
1.5086987 0.072957605 1.8462938
-1.5030336 0.13041374 1.8112196
-1.4858691 0.1252621 1.807392
0.23697633 0.1478515 1.808558
1.3480388 0.10743166 1.8044091
1.3751347 0.12380894 1.8098309
1.422941 0.12509041 1.8235376
1.4734412 0.12702532 1.839771
1.5034373 0.11306673 1.8432928
-1.5071838 0.17597762 1.8130186
-1.4802384 0.15825336 1.8017244
1.34955 0.15857658 1.8033671
1.376283 0.17737494 1.8126403
1.4166753 0.17561054 1.8218142
1.4716269 0.17522347 1.8402276
1.5124098 0.19461468 1.8486487
-1.510345 0.22425418 1.8123442
-1.4903973 0.24406347 1.8061625
1.330678 0.22177225 1.802048
1.3726627 0.22651631 1.8114128
1.4270484 0.22396244 1.8268217
1.4815664 0.22602119 1.843039
1.5164201 0.23838551 1.8493108
-1.5055088 0.27265108 1.8255291
-1.4941683 0.28043208 1.8097306
0.23552555 0.27745235 1.8219099
1.3433583 0.27166924 1.8039823
1.3754787 0.27621293 1.8115135
1.4298396 0.27557275 1.8303691
1.4785247 0.27192482 1.8410912
1.5019032 0.29172534 1.8455818
-1.5080098 0.32737821 1.8168174
-1.490483 0.32580847 1.8159016
1.2951441 0.3464396 1.8071953
1.3330692 0.32601899 1.8077605
1.3719428 0.32203579 1.8158653
1.4242432 0.31870428 1.8267559
1.4758147 0.31441015 1.8420228
-1.5138505 0.37692446 1.8159274
-1.4909432 0.37399849 1.8086412
1.1961671 0.38652736 1.8172457
1.2053349 0.38624823 1.8107716
1.2722311 0.37620774 1.8101615
-1.5070624 0.42393789 1.8267788
-1.494647 0.43682116 1.822538
0.93220758 0.42636067 1.8432956
0.97101235 0.44291696 1.8486165
1.0047581 0.44028926 1.8346176
1.0753044 0.43734959 1.8422056
1.2350173 0.41456589 1.8099152
-1.5183079 0.47318196 1.8236967
-1.4883846 0.47255033 1.8069118
0.95671564 0.47491068 1.8492095
-1.5085347 0.5326997 1.8274946
-1.4971545 0.52589715 1.8165517
0.92682892 0.51107395 1.8399389
0.95887327 0.51031959 1.8465667
-1.5136842 0.56787354 1.8164111
-1.4961237 0.57621604 1.8130476
-1.5089567 0.63277668 1.8251122
-1.5086142 0.68016034 1.8175963
-1.4946473 0.65640479 1.8100215
-1.5141468 0.72586632 1.8136547
-1.4972148 0.7175408 1.8163229
-1.5696481 0.78840023 1.8195429
-1.533723 0.76617247 1.8378603
-1.6202161 0.82825512 1.8077286
-1.5768615 0.82736158 1.8314463
-1.6599348 0.89043689 1.8017155
-1.6227933 0.87477171 1.8151999
-1.5866034 0.8763296 1.8390263
-1.6573256 0.9229387 1.8024704
-1.6245179 0.92738026 1.81618
-1.5878394 0.92390805 1.8381885
-1.6643475 0.97380972 1.8031927
-1.6242188 0.9736498 1.8201977
-1.590781 0.96875632 1.8412517
-1.6612024 1.0255084 1.8037821
-1.6261789 1.0212171 1.8215975
-1.5908945 1.0241482 1.8400882
-1.6640188 1.0751384 1.8042756
-1.6226641 1.0756485 1.8210541
-1.5872746 1.0729373 1.8406323
-1.661813 1.1210048 1.8150167
-1.6322112 1.1198362 1.8286053
-1.5904996 1.116948 1.8399369
-1.7165229 1.159784 1.8387697
-1.6926715 1.1560917 1.847804
-1.4611661 -0.55741239 1.8936939
-1.4280003 -0.56234425 1.8720818
-1.3816626 -0.56828427 1.85619
-1.5255408 -0.51748139 1.8750259
-1.4815791 -0.54367667 1.8693211
-1.5194601 -0.48834786 1.8882802
2.206322 -0.49409273 1.8786843
-1.5166394 -0.43981993 1.8726724
1.8934479 -0.40592167 1.8580607
1.9166291 -0.42032176 1.8559128
1.6286043 -0.36416182 1.8663778
1.6748931 -0.36736047 1.8754488
1.7033778 -0.35551146 1.8857716
1.8947604 -0.37629172 1.8647412
1.9044311 -0.3758204 1.8518246
1.977664 -0.36081022 1.8811651
1.6240355 -0.32615787 1.8724668
1.6754199 -0.32127979 1.8952436
1.7133007 -0.34602866 1.8985728
1.8919538 -0.3244758 1.8605925
1.9005592 -0.34521511 1.853122
1.6252277 -0.26983613 1.8680174
1.681109 -0.26989099 1.8868192
1.7082663 -0.29893115 1.899611
1.8923016 -0.27604923 1.8672987
1.9720982 -0.26813725 1.8890646
1.6212182 -0.24011761 1.8568567
1.6766708 -0.22840293 1.8720821
1.8900801 -0.22264947 1.8686888
1.9137613 -0.21374559 1.8550445
1.9699554 -0.2373168 1.8905158
1.6320918 -0.17125289 1.8686892
1.6829494 -0.17333311 1.8822823
1.7086775 -0.1585515 1.8711036
1.7709768 -0.16683301 1.8732939
1.8947214 -0.19012617 1.8777065
1.9102176 -0.18228866 1.8675761
-1.5372381 -0.10949346 1.8955858
1.6247135 -0.13324621 1.8753716
1.6758003 -0.12840983 1.8896191
1.7112365 -0.13077645 1.8863372
1.7628933 -0.14982621 1.8875948
1.5446446 -0.086342648 1.8539016
1.5796453 -0.070892915 1.8650994
1.6266936 -0.071952291 1.8782768
1.6785302 -0.077411518 1.8923421
1.7302219 -0.091463514 1.8985193
1.54361 -0.021162212 1.8541274
1.5760407 -0.02871782 1.8651472
1.6252943 -0.027288446 1.8775884
1.674083 -0.027710153 1.8910995
1.5424758 0.025828166 1.8560137
1.5835177 0.022592945 1.8705248
1.6301349 0.022957508 1.8831574
1.6774255 0.018469725 1.896412
1.5335084 0.079933323 1.8540685
1.5796808 0.075369082 1.8689276
1.6284529 0.073297031 1.8836082
1.6619806 0.079899848 1.8972336
1.5262394 0.12866308 1.8566561
1.5702057 0.12383065 1.8686246
1.6225656 0.12540166 1.8831023
1.6509572 0.12477256 1.8932009
1.4958161 0.161622 1.8512865
1.5258756 0.1715377 1.8555628
1.5708166 0.17318025 1.8674132
1.6208904 0.1748769 1.8851354
1.6618226 0.17282102 1.8937848
1.530205 0.22096264 1.8561783
1.5774784 0.2239279 1.8717872
1.6246246 0.22508767 1.8864803
1.6589893 0.22370608 1.8946406
-1.5174291 0.25567985 1.8588451
1.5365515 0.27346939 1.8595867
1.5811087 0.2751087 1.8727226
1.6305312 0.27095708 1.8883656
1.6660728 0.25693703 1.8992684
1.4713631 0.3460494 1.861444
1.5235457 0.32044706 1.8593167
1.5705321 0.32485771 1.8716938
1.6167816 0.3152996 1.8855505
1.6538608 0.31943327 1.8986317
1.1333867 0.39761132 1.8843262
-1.5247808 0.40715781 1.8666922
0.93309993 0.44008535 1.8665947
0.9834795 0.44169372 1.8503696
1.0421352 0.44795042 1.8582327
1.0971456 0.41704106 1.8623636
1.1252004 0.42612985 1.8913096
1.249877 0.416116 1.8750237
0.92995578 0.47403875 1.867116
0.97748536 0.47472563 1.8572304
1.0235622 0.47490764 1.8682065
1.0758265 0.47618839 1.880851
1.1212078 0.47751316 1.8937914
1.1515168 0.49197096 1.8985909
-1.518954 0.518839 1.8575175
0.93520713 0.52361673 1.8707839
0.98195654 0.52770925 1.8617055
1.0284402 0.52437687 1.8732779
1.07364 0.52289879 1.8869592
1.1095359 0.52218401 1.8967885
0.94072503 0.55585766 1.8844122
0.97598493 0.56710875 1.8751945
1.0197493 0.56372237 1.8852171
1.0626072 0.55408531 1.8866752
-1.5233375 0.61328149 1.8612034
-1.525861 0.69752878 1.8622215
-1.5473087 0.78716385 1.8610581
-1.5605277 0.82858086 1.8720999
-1.5658337 0.87483633 1.8653367
-1.5702645 0.92753875 1.8705194
-1.5737371 0.97797436 1.8670386
-1.5716798 1.0214933 1.8651825
-1.5700637 1.0733181 1.8603848
-1.5794615 1.1232988 1.8772713
-1.4622231 -0.55586839 1.9294591
-1.4285232 -0.57090408 1.9231673
-1.5383406 -0.53091782 1.9196666
-1.4876682 -0.5465306 1.9104359
-1.5520625 -0.45344108 1.9380282
-1.5351412 -0.47911677 1.9196689
2.1707556 -0.49498767 1.9198768
2.219233 -0.49333283 1.9152421
2.274065 -0.49435073 1.9268997
-1.5603448 -0.42337286 1.9394728
-1.5644239 -0.37803149 1.944981
-1.5563757 -0.30794561 1.92313
1.6967329 -0.33350366 1.903537
1.7125111 -0.32911891 1.9056865
-1.5546718 -0.28520226 1.9238498
1.6952761 -0.29868644 1.9067309
1.7083818 -0.2874302 1.9012394
-1.563085 -0.22100334 1.941204
-1.5642592 -0.1798684 1.9461733
1.7795126 -0.15814194 1.9269519
1.8229964 -0.15879571 1.9069896
1.8544908 -0.16048691 1.9175062
1.6767081 -0.14741015 1.9003255
1.7689142 -0.10492319 1.9294022
1.8282473 -0.11126775 1.9331026
1.8553709 -0.10679103 1.9215858
1.6936198 -0.056493737 1.9020079
1.7259833 -0.070872791 1.9074581
1.7811204 -0.076645128 1.9295604
1.821161 -0.074053928 1.927042
1.8682232 -0.071461163 1.9362649
1.7284229 -0.02942352 1.9153836
1.7763433 -0.025772734 1.9341053
1.8217206 -0.030578675 1.9309964
1.8640072 -0.029258335 1.932761
1.6888542 0.034900922 1.9040467
1.7284886 0.023774456 1.9197958
1.7691785 0.025200535 1.9287333
1.8235277 0.023646841 1.9333284
1.8671738 0.018819284 1.9360862
1.6897008 0.066911034 1.9056747
1.7282228 0.07947199 1.9224873
1.7713957 0.077071697 1.9329273
1.8278084 0.076684818 1.9402665
1.8668505 0.082642622 1.9386857
1.6841962 0.12646379 1.9097078
1.719074 0.12198979 1.9168066
1.7788275 0.12459146 1.9388984
1.8329569 0.12309262 1.9440905
1.8701752 0.12953724 1.9428519
1.6898454 0.178509 1.9125841
1.7273576 0.17612547 1.9212308
1.7799854 0.16944484 1.9387981
1.8289868 0.18039405 1.9462569
1.8596008 0.17169955 1.9394588
1.6817688 0.22250485 1.9036875
1.7279361 0.22354038 1.9225225
1.7671194 0.22962448 1.9351027
1.825562 0.22438234 1.945682
1.8563592 0.2234078 1.9359909
1.6354899 0.29538155 1.9019701
1.6781508 0.28330374 1.9062878
1.7183713 0.27364495 1.9208182
1.768944 0.27592331 1.9382811
1.8371315 0.27137443 1.9441218
1.8640082 0.2727167 1.9385302
1.6338782 0.34158415 1.9043288
1.6758516 0.32236606 1.9107689
1.7209332 0.32098213 1.9210833
1.7790872 0.32148021 1.9419178
1.8365663 0.31842652 1.948795
1.8611749 0.32158962 1.9403749
1.3827357 0.38855249 1.9046172
0.89170092 0.43475911 1.9354997
0.91275758 0.43678689 1.9186643
1.144837 0.43605903 1.9031549
1.1775742 0.42541623 1.9117864
1.2279949 0.43344784 1.9250565
1.2682811 0.43642786 1.922189
1.3274779 0.43844086 1.902428
1.3750648 0.42335919 1.9369211
-1.5828007 0.49467042 1.9459305
0.91799361 0.47638524 1.9268651
1.1378932 0.47511321 1.9008412
1.1759297 0.4709101 1.9130133
1.2252362 0.47731552 1.9236701
1.2788174 0.47355467 1.9350646
1.3264377 0.47342741 1.941011
0.91902632 0.52395862 1.9200085
1.1329737 0.52803349 1.9044012
1.1741812 0.52551305 1.911111
1.2250805 0.52653462 1.9248134
1.2736684 0.52368677 1.9382125
1.3139815 0.53199607 1.9469118
1.37549 0.54954398 1.9288166
-1.5803665 0.5899955 1.9432882
0.94079775 0.56453782 1.9335397
0.98564941 0.58876604 1.9129797
1.0331481 0.58742505 1.9087007
1.0837288 0.58191764 1.9234518
1.1225519 0.5754084 1.9251856
1.1644619 0.56719691 1.9283279
1.2221925 0.55777681 1.9315631
1.2775028 0.55369389 1.9473859
0.99378538 0.62367976 1.9338957
1.024298 0.625018 1.924897
1.0721171 0.62571388 1.9346026
1.1098722 0.63343585 1.9452515
0.99565774 0.6519708 1.9270564
1.0231566 0.67249608 1.9304482
1.0724025 0.67345744 1.938297
1.1064558 0.66367137 1.9434581
1.0359385 0.70316267 1.9325694
1.0597758 0.70858836 1.9409013
-1.5800847 0.83325613 1.914251
-1.582029 0.91152036 1.9113411
-1.6030972 0.99102592 1.9340646
-1.5795633 1.1001995 1.9004184
-1.5213372 -0.55613679 1.9812828
-1.4592366 -0.56243861 1.969503
-1.4307716 -0.57295692 1.9604173
-1.559285 -0.52495521 1.9725024
-1.5385251 -0.54582578 1.9686639
-0.010413842 -0.50353891 1.9759127
-1.567777 -0.47603336 1.9844059
2.2545824 -0.47586852 1.9637311
2.3229203 -0.48587054 1.9851875
-1.5762693 -0.42014423 1.9756293
2.2933278 -0.41447875 1.9977727
2.3184497 -0.41715345 1.9771112
2.3634353 -0.42646798 1.9808037
-1.5781476 -0.37692785 1.976313
2.3255627 -0.37431991 1.9819422
2.3585119 -0.36834165 1.9606146
-1.581097 -0.32660499 1.9739248
2.3342254 -0.32678834 1.9838082
2.3521187 -0.32638171 1.9612409
-1.5851403 -0.27561378 1.9853741
2.3353705 -0.27910048 1.9908227
2.3529599 -0.27868485 1.9679623
-1.593628 -0.24242705 1.9997184
2.3233159 -0.23289327 1.9879059
1.9315447 -0.17224877 1.9735311
-1.5693156 -0.13144514 1.9555902
1.8880308 -0.12083104 1.9548115
1.9210469 -0.10984579 1.9665287
1.9533638 -0.1241941 1.9989902
-1.5771496 -0.073370129 1.9678057
1.8875091 -0.096483953 1.9554049
1.9366723 -0.079751231 1.9837263
-1.5815967 -0.027958253 1.974262
1.9323057 -0.030082133 1.9803675
1.9688985 -0.030475726 1.9943392
-1.5836618 0.023350488 1.9768091
1.8860928 0.049370524 1.9552402
1.9370613 0.019379823 1.9852839
1.9661903 0.013355437 1.9917461
-1.5839131 0.074710324 1.9760408
1.9344853 0.062752604 1.981819
1.9612558 0.088411495 1.996639
-1.5867552 0.12630898 1.9773632
1.8229789 0.14440461 1.9522004
1.9490142 0.13179569 1.9937065
-1.5857575 0.17765737 1.9728336
1.8291194 0.16291319 1.9575257
1.8971325 0.18408924 1.9595321
1.9358261 0.16804557 1.9777243
1.9572372 0.18872485 1.9981127
-1.5823698 0.22293037 1.9647477
1.8214474 0.2165672 1.952154
1.9196293 0.21993935 1.9738435
1.9567893 0.22005877 1.9947383
-1.5889829 0.26966763 1.9681801
1.7938423 0.29918873 1.9501959
1.8252368 0.27134943 1.9540886
1.9284978 0.26790887 1.983766
1.9670914 0.29040864 1.9975208
-1.5831378 0.34285083 1.9513034
1.8253405 0.32135886 1.9544569
1.940931 0.31339204 1.9909509
1.9505105 0.34006342 1.9971823
-1.5843735 0.3545399 1.9511209
1.774775 0.38768929 1.9954913
1.8125186 0.35056835 1.9635476
1.8875386 0.39132786 1.992867
1.9057323 0.38631132 1.989748
1.9570768 0.37903672 1.9979222
-1.6025349 0.43102139 1.9839603
-1.5976399 0.42969877 1.9779316
1.3982675 0.44344449 1.961714
1.4174502 0.42763484 1.9586234
1.4674259 0.43025848 1.984095
1.8949777 0.42399609 1.9951452
1.9219223 0.41584656 1.9939381
-1.5933137 0.4690012 1.9648101
0.90956366 0.4727079 1.9791591
1.3386341 0.49315274 1.9533783
1.376909 0.48056501 1.9606756
1.4255672 0.47638479 1.9750655
1.4649583 0.47500604 1.9882799
1.9147505 0.47092974 1.9954891
-1.6042792 0.53437793 1.9882495
0.91791439 0.52874798 1.9787593
1.2971462 0.52250785 1.9511207
1.3345975 0.52025867 1.9557281
1.3788416 0.5239529 1.9668553
1.4243541 0.52523774 1.9811088
1.4664443 0.51650131 1.995764
1.9227002 0.504336 1.9970706
-1.6065255 0.56450695 1.9841818
-1.597108 0.58456206 1.9668401
0.93167967 0.56322128 1.9751488
0.9768123 0.59384292 1.9792365
1.1770256 0.59015024 1.9571018
1.2234805 0.58724451 1.9631215
1.2785861 0.58190298 1.9711186
1.3266486 0.57373351 1.9766986
1.3697821 0.56399852 1.9743681
1.4148929 0.55178356 1.9754753
-1.6100992 0.62331283 1.9978729
0.98706639 0.62266719 1.9735119
1.1303582 0.62421286 1.9535121
1.1759366 0.62551564 1.9624913
1.2255069 0.62268966 1.9741371
1.2748083 0.62536353 1.9850196
1.3159485 0.61470741 1.9937912
1.9153743 0.6213972 1.9969858
-1.6077974 0.6520403 1.9870101
0.9910509 0.67753911 1.9826337
1.0032012 0.6743589 1.9633458
1.1255906 0.67782593 1.9604387
1.1690068 0.67216313 1.9725423
1.2224476 0.65963304 1.9838412
1.2585876 0.65319049 1.9870269
1.9275736 0.67637163 1.9951215
0.99617201 0.70533514 1.9939569
1.0332936 0.71217686 1.9638265
1.0900139 0.70389885 1.9511698
1.1331998 0.71052837 1.9820906
1.1736783 0.70951855 1.9950099
1.9476668 0.8176474 1.9977602
1.9262418 0.9266687 1.9967713
1.9619412 0.93438065 1.9966397
1.9147288 0.97077304 1.9931962
1.9155095 1.0175649 1.9965544
1.9158638 1.0803897 1.9962631
1.9167246 1.1267912 1.9921125
1.9633187 1.128863 1.9947349
1.9291381 1.1718502 1.9957775
1.9561554 1.1593947 1.9992177
1.9260989 1.2207617 1.9894795
1.9161378 1.2719175 1.9891857
1.920599 1.3267021 1.9922206
1.9222568 1.373556 1.9912585
1.9277388 1.4300611 1.9919027
1.9510224 1.4481759 1.9835758
1.9232824 1.476066 1.9890766
1.8989668 1.513624 1.9932207
1.918489 1.5204496 1.9864165
1.9217175 1.5741647 1.9899577
1.8862652 1.6173259 1.9720182
1.9142001 1.6149937 1.9848167
1.8912799 1.6689075 1.9880464
1.9072955 1.6638259 1.9750026
1.8916981 1.7037781 1.9908875
1.9059365 1.7037507 1.9799783
-1.3755864 -0.6083914 2.0459175
-1.5342623 -0.55882591 2.0300798
-1.4726088 -0.56830609 2.0166779
-1.4342413 -0.58013141 2.0226336
-1.5773085 -0.53204 2.0243282
-0.022192551 -0.50849926 2.0287709
-1.6002225 -0.45072833 2.0477467
-1.5802468 -0.47619772 2.0280323
-0.012280684 -0.47773215 2.0287666
0.0025131111 -0.48436695 2.0352292
2.3138313 -0.46354711 2.0137382
-1.6016561 -0.41240892 2.0329649
-1.5923842 -0.43933684 2.0161676
2.2830861 -0.42025846 2.0234141
2.3016751 -0.43649817 2.0013814
2.3724592 -0.44457307 2.0113218
-1.6066923 -0.37820193 2.0449677
-1.5890197 -0.35968426 2.0018945
2.2877774 -0.37723568 2.0194502
-1.6039423 -0.32788152 2.0255678
-1.593225 -0.3256622 2.011941
2.2930012 -0.32097507 2.0375352
2.3087878 -0.32027054 2.0133224
-1.6086212 -0.270053 2.0384924
-1.5993086 -0.29185501 2.0240929
2.2952785 -0.28700644 2.0439465
2.3100252 -0.27256134 2.0203598
-1.6086109 -0.23431192 2.0364423
-1.5947359 -0.21365726 2.003768
2.1595051 -0.2304132 2.0253887
2.2963595 -0.21717912 2.0266461
2.3065639 -0.23375435 2.0188501
2.3858168 -0.22159456 2.0275152
2.4042497 -0.24988717 2.0147147
-1.6016068 -0.15644974 2.0167112
-1.5940351 -0.18463813 2.0051937
2.1427958 -0.19709833 2.037323
-1.6071573 -0.12095793 2.0301373
1.9863876 -0.11284027 2.0096872
2.0253284 -0.1173459 2.0188818
2.0767484 -0.11284966 2.0399058
-1.6045959 -0.075211838 2.0241699
1.9814024 -0.074775577 2.006119
2.0256126 -0.065559506 2.0223079
2.0694327 -0.06903962 2.0367742
-1.6059154 -0.028636172 2.026756
1.9766393 -0.030593161 2.0022488
2.02897 -0.027923681 2.0251861
2.0536056 -0.0184329 2.0317845
-1.6059862 0.023861319 2.0268013
-1.5963544 0.023686832 2.0147142
1.9792242 0.03859942 2.0046504
2.0240731 0.02386944 2.0214489
2.0669923 0.020399667 2.0387821
-1.605078 0.076259889 2.0245731
1.9868402 0.063998826 2.0117426
2.0239706 0.071259394 2.0251174
2.0678678 0.072295219 2.0446758
-1.6119968 0.12339287 2.0313678
1.9748561 0.11923926 2.0066574
2.02563 0.11879985 2.0295208
2.0777748 0.11489846 2.0466051
-1.603892 0.17125909 2.0182059
-1.5944792 0.16257024 2.0069344
1.9822189 0.15666236 2.0103297
2.0264647 0.17836295 2.029649
2.0723679 0.18310772 2.042943
-1.608674 0.2223604 2.0201168
1.9910876 0.21960184 2.0121868
2.0275872 0.22337586 2.0268171
2.0603476 0.2347362 2.0425005
-1.6161366 0.27625921 2.024101
1.9697409 0.26557931 2.0032761
2.0129077 0.27614874 2.0223451
2.0611448 0.27443919 2.0471585
-1.6218359 0.324321 2.0254388
1.9861789 0.32504645 2.0125585
2.0235262 0.32901937 2.0262337
2.0618567 0.31360659 2.0428889
-1.6134408 0.36950961 2.0082445
1.8494972 0.39995033 2.044153
1.8718246 0.39142829 2.0182519
1.9392636 0.38429287 2.0021658
1.9743804 0.37271568 2.0049691
2.0278201 0.37873051 2.0291207
-1.6254952 0.42479107 2.0320473
1.8727448 0.42234573 2.0210109
1.9700347 0.42430493 2.0075557
2.020288 0.43408477 2.0300746
2.0554008 0.41921154 2.0444105
-1.6160929 0.4732461 2.0165558
0.88478464 0.45957693 2.0280151
0.90881258 0.48182485 2.0307565
1.511673 0.4763836 2.0262289
1.8805215 0.46926507 2.0251927
1.9764955 0.4717896 2.0150068
2.0293627 0.47947055 2.035496
-1.618499 0.52605999 2.0229397
0.91145879 0.50743651 2.0403652
1.4749275 0.53194946 2.0015957
1.5012468 0.54640836 2.0204821
1.8898329 0.52187431 2.0256937
1.9216847 0.52982736 2.0053871
1.9766212 0.52631998 2.0139542
2.0207143 0.52350003 2.0318356
-1.6210241 0.57975662 2.0234361
0.97162378 0.59651482 2.0209787
1.3727957 0.59291065 2.0076129
1.4187142 0.59902132 2.0293937
1.4660009 0.55704606 2.0026572
1.5051539 0.55947936 2.0231307
1.891956 0.57761401 2.0313854
1.9207699 0.57772148 2.0082114
1.9729778 0.57197487 2.0114231
2.0295384 0.57620102 2.033848
2.0655375 0.56943589 2.0483544
-1.6184112 0.61808252 2.0183592
0.9826473 0.62227631 2.0293431
1.3357006 0.63120168 2.0034583
1.3726168 0.62835568 2.0174365
1.4162351 0.62924814 2.0302019
1.894305 0.62398058 2.0292485
1.9154387 0.62739366 2.0095773
1.9674007 0.62806028 2.0139532
2.0280709 0.62345511 2.0326841
2.0506887 0.64824176 2.0376053
-1.6326202 0.6730637 2.039145
0.98130941 0.67274922 2.0295019
1.2261114 0.69400305 2.0229671
1.2791997 0.67800796 2.0183244
1.3246877 0.66702563 2.0185394
1.3725324 0.66236854 2.0262868
1.4132817 0.65674746 2.0186675
1.892536 0.67108893 2.0320363
1.9122841 0.67289644 2.0038612
1.9723723 0.67641121 2.0093453
2.0228448 0.6764335 2.0249925
2.0646715 0.6726312 2.0458081
-1.6248325 0.72281849 2.0189495
0.97738904 0.7042107 2.0361848
1.2697806 0.70487434 2.0427098
1.8949082 0.72311628 2.0338426
1.9200252 0.72410089 2.0063605
1.9795822 0.72648031 2.0131383
2.0123596 0.72978306 2.0231025
-1.6346484 0.77674401 2.0357547
1.8930763 0.78046399 2.032789
1.9210837 0.77632737 2.0094821
1.9682776 0.77033836 2.0066812
2.0283463 0.78141767 2.0329151
1.8919669 0.82457572 2.0336852
1.9235783 0.82526779 2.0084133
1.9802265 0.83043987 2.0113964
2.0275369 0.82675171 2.0341356
2.0610552 0.82818973 2.0449228
-1.6687208 0.89904779 2.0408473
1.8921595 0.87723565 2.0278406
1.918232 0.87171274 2.0052402
1.9691288 0.87620246 2.0120265
2.0209851 0.87819731 2.0278924
1.8925582 0.9252646 2.0265117
1.9176816 0.91911864 2.0027018
1.9707861 0.91009873 2.0079863
2.0310545 0.93071741 2.0398009
1.8926401 0.97518456 2.0231309
1.901045 0.9957183 2.00441
1.9653034 0.97380966 2.004761
2.025466 0.97839469 2.0367782
2.0690379 0.97082865 2.0476077
2.7300591 0.96017075 2.0485063
1.8929697 1.0249103 2.0247912
1.9393556 1.0354073 2.0079556
1.9784633 1.0388827 2.0135272
2.0341818 1.0233858 2.0470107
2.0543659 1.0129672 2.0476937
-1.6835009 1.0614028 2.0499094
1.8944212 1.0759958 2.0297754
1.9251748 1.0613692 2.0058329
1.9693453 1.0820339 2.0077071
2.0082741 1.0713472 2.0219913
1.8923895 1.1222112 2.026649
1.9006546 1.1156142 2.0049539
1.9699808 1.1258547 2.0046833
2.0363128 1.1069151 2.040616
1.8928244 1.1729698 2.0357828
1.9169754 1.1798115 2.0144069
1.9746161 1.1839463 2.0112023
2.0535979 1.1509944 2.0413637
1.896718 1.2273209 2.0310974
1.9126878 1.2155654 2.014622
2.0288186 1.2401417 2.0389874
2.0587797 1.2176987 2.0445867
1.8951874 1.2737157 2.0343268
1.9031044 1.276732 2.0135434
1.9778508 1.2853328 2.0221558
2.0186639 1.2778633 2.0328197
2.0708561 1.2530037 2.0420563
1.8931037 1.3253947 2.0257554
1.904668 1.3049664 2.0001216
1.971774 1.3204055 2.0095983
2.0083983 1.3473021 2.0300674
-2.5023029 1.3858029 2.0156715
-2.4636099 1.3727658 2.0099614
-2.4294391 1.3901336 2.0387409
-2.3898742 1.3804542 2.0444324
-2.2268436 1.3516223 2.049536
1.8902761 1.3790065 2.0259697
1.9112618 1.3600935 2.0091133
-2.5054159 1.4193316 2.032732
-2.4744711 1.4104853 2.0333774
1.8906354 1.4245106 2.027386
1.9051057 1.4258678 2.0084357
1.9711436 1.4108521 2.0035043
-2.4870596 1.4676294 2.0391176
1.8902422 1.474146 2.0230606
1.9045569 1.4583992 2.0038288
-2.4886279 1.5101109 2.0448542
1.8898655 1.5245451 2.0325718
1.9211396 1.5453568 2.0074067
1.986148 1.5026177 2.0019574
1.8907026 1.5689127 2.0311866
1.9102821 1.5825793 2.0109742
1.8933252 1.6273961 2.027786
1.9120573 1.6116663 2.0060196
1.8895302 1.6744806 2.0303948
1.8958693 1.7205132 2.0213971
1.8903774 1.7859786 2.0381229
1.9033862 1.7771697 2.0306325
1.8913419 1.8085337 2.0421565
1.9005059 1.8250173 2.0283241
-1.4245987 -0.60462135 2.0871625
-1.390299 -0.60838079 2.0941195
-1.5844043 -0.55266511 2.0774927
-1.5348693 -0.56577104 2.077389
-1.4886279 -0.58190262 2.0915673
-1.4352918 -0.5899986 2.0702171
-1.1776062 -0.58566999 2.0786695
-1.5853794 -0.52546418 2.0741951
-0.027660355 -0.50836623 2.0700145
2.5446839 -0.51252413 2.0679283
2.5721056 -0.50320828 2.0931072
2.6208529 -0.50827932 2.0920739
-1.606639 -0.46971059 2.0884049
-1.5778301 -0.49273634 2.0568032
-0.017491776 -0.49540055 2.059742
2.4932184 -0.49354407 2.0814795
2.5335343 -0.49857697 2.0882862
-1.611791 -0.42917815 2.0747459
2.3116653 -0.44372636 2.0612354
-1.6179042 -0.3770054 2.0773454
2.280328 -0.3645196 2.0714707
-1.6181816 -0.33208394 2.0741987
2.2484181 -0.31373453 2.074621
2.2857125 -0.32626334 2.0766859
-1.6244255 -0.27466121 2.081316
2.2467742 -0.29982963 2.0748394
2.2808456 -0.27663863 2.0834568
2.3020442 -0.26721081 2.0523334
-1.6190724 -0.21566677 2.0723729
2.2327719 -0.22603254 2.078088
2.2529619 -0.21837282 2.0893261
2.3066039 -0.23659384 2.069973
-1.6206036 -0.17518771 2.0667388
-1.6193851 -0.12406841 2.0692675
2.1323733 -0.12173995 2.0693598
2.1689947 -0.12765856 2.0770302
-1.6193721 -0.072958231 2.0700178
2.1281788 -0.081039116 2.0644541
2.1785028 -0.068912186 2.0834424
2.2137315 -0.093881235 2.0859017
-1.6242857 -0.030471629 2.0771134
2.1151922 -0.022109985 2.0616913
2.1730275 -0.028516859 2.0839779
-1.6279198 0.022359909 2.0809884
2.1187885 0.01147948 2.0615077
2.1703835 0.027857417 2.083847
-1.6250457 0.07775709 2.0723774
2.1226265 0.069223702 2.0657938
2.158905 0.08802291 2.0838561
-1.6207497 0.12498739 2.0649548
2.0832503 0.14481913 2.0564971
2.1125624 0.13275932 2.0614717
2.1688609 0.12726788 2.0865309
-1.6287714 0.1732035 2.0723298
2.0808697 0.15772191 2.0532877
2.1134148 0.17901811 2.0591545
2.1691039 0.16916487 2.0892253
-1.6284931 0.21993332 2.0729229
2.0844729 0.2365431 2.050133
2.1293321 0.22388078 2.0771058
2.1671057 0.22276808 2.0827613
2.2061958 0.20499702 2.0967402
-1.6279403 0.27786392 2.0720911
2.0945821 0.27058822 2.0564294
2.1365216 0.27654549 2.0723059
2.1719606 0.27094424 2.090842
-1.6340265 0.32762438 2.0735996
2.0823555 0.3299709 2.0613644
2.1188934 0.32253933 2.0690274
2.1778736 0.33102745 2.0975325
-1.6405536 0.37532759 2.0753729
2.0907667 0.37086427 2.0637708
2.1234255 0.38156369 2.0760736
2.1675601 0.37299311 2.0896773
-1.6445407 0.42203358 2.0826573
1.8417833 0.42754182 2.0883031
1.8574643 0.42818308 2.0603683
2.0867829 0.43016151 2.0557723
2.1338789 0.42090082 2.0735559
2.170495 0.42629346 2.0921602
-1.636881 0.48100418 2.0761614
0.88333702 0.47785369 2.0755923
0.90427279 0.49100325 2.0689521
1.8499845 0.45610711 2.0830121
1.8608193 0.47993878 2.0692635
2.0798171 0.47712612 2.0585108
2.1277065 0.47800097 2.0709558
2.1520376 0.4740071 2.081861
-1.6396042 0.52656168 2.0762746
0.89412057 0.5103358 2.0847523
0.90776658 0.52690202 2.0748594
1.8676687 0.52571392 2.0736957
2.0783451 0.52856624 2.0543416
2.133836 0.52689594 2.0779788
2.1686199 0.53218907 2.0862844
-1.6394398 0.58059156 2.0770054
0.91658062 0.56093562 2.0781589
0.96224314 0.59320056 2.0561399
