ply
format ascii 1.0
comment PCL generated
element vertex 1468
property float x
property float y
property float z
element camera 0
property float view_px
property float view_py
property float view_pz
property float x_axisx
property float x_axisy
property float x_axisz
property float y_axisx
property float y_axisy
property float y_axisz
property float z_axisx
property float z_axisy
property float z_axisz
property float focal
property float scalex
property float scaley
property float centerx
property float centery
property int viewportx
property int viewporty
property float k1
property float k2
end_header
-1.174745 1.3705525 2.4311039
-1.1325145 1.3691596 2.4441304
1.6268564 1.3715314 2.4095793
1.6763953 1.3694159 2.4244645
1.7517087 1.3743188 2.406816
-1.2738962 1.4235958 2.4088092
-1.2267455 1.4289593 2.4230008
-1.1749192 1.4211715 2.4345126
-1.133881 1.4160424 2.4435019
1.5875645 1.4295785 2.4040916
1.6203793 1.4218025 2.4083045
1.674988 1.4229202 2.4210935
-1.3085939 1.476263 2.405283
-1.2741737 1.4726546 2.4144464
-1.2269037 1.476324 2.4273736
-1.1782086 1.4791265 2.439254
-1.1325864 1.4552882 2.4474146
1.5803393 1.4617888 2.4009027
1.6286869 1.470204 2.405669
1.6721125 1.4757377 2.4145362
1.7538457 1.4618399 2.401659
-1.3137692 1.523955 2.4038761
-1.2774377 1.5259835 2.416322
-1.2243997 1.520731 2.4326096
-1.177716 1.5213487 2.4428177
-1.1430513 1.5107082 2.4494996
1.5893652 1.5207726 2.4065425
1.6241233 1.5330889 2.4053569
1.6713796 1.5205525 2.4121826
1.7578101 1.5376467 2.4045887
-1.3895488 1.5950015 2.4000347
-1.3145034 1.5687844 2.4064095
-1.2733644 1.5805557 2.4227939
-1.224525 1.5735992 2.4340801
-1.1843191 1.5703667 2.4444919
1.6239066 1.5718578 2.4036877
1.6737179 1.5764531 2.4109259
1.7463033 1.563255 2.4062672
1.7575177 1.5741098 2.4022803
-1.3165951 1.6219069 2.4105856
-1.2691301 1.623807 2.4225581
-1.2236472 1.6203403 2.4357226
-1.1794722 1.6171747 2.4396722
-1.1286806 1.6140867 2.4457769
1.5832124 1.6099316 2.4019363
1.6307631 1.6056558 2.4048219
1.6616083 1.6140108 2.4040422
1.7588513 1.6123632 2.40172
-1.3771616 1.6820173 2.4036098
-1.3239756 1.6737818 2.4172642
-1.2709168 1.6671904 2.4343567
-1.2311794 1.667963 2.4448259
1.7579179 1.671284 2.4036403
-1.4016149 1.7135496 2.4016991
-1.3704816 1.7185031 2.4083071
-1.3243759 1.7234676 2.4259863
-1.2773106 1.7238648 2.4403043
-1.249215 1.7198211 2.4491432
1.7755319 1.7266146 2.4037943
-1.4128757 1.7883644 2.4047687
-1.3757368 1.773147 2.4099805
-1.3286741 1.7712176 2.4249742
-1.2750547 1.7719561 2.442235
-1.249249 1.7991655 2.4485228
1.7776095 1.774856 2.4178951
-1.413501 1.824754 2.4052732
-1.3730779 1.8242774 2.4159729
-1.3224832 1.8267925 2.4314585
-1.276185 1.8216351 2.4440994
-1.4161298 1.8716402 2.4037189
-1.373987 1.873576 2.4149597
-1.3295641 1.8748277 2.4243779
-1.285388 1.8792814 2.4414201
-1.4156212 1.9300177 2.4047205
-1.3768089 1.9260908 2.4150388
-1.324994 1.9261631 2.432966
-1.2833794 1.9203761 2.4431484
-1.4151214 1.9796394 2.4069819
-1.3711672 1.9766243 2.4174724
-1.3234651 1.9734584 2.4317358
-1.287299 1.9718826 2.444926
-1.413413 2.026906 2.407794
-1.3724309 2.0232143 2.422847
-1.3246895 2.0199151 2.4375911
-1.2888538 2.0244122 2.4473917
-1.415159 2.0715537 2.4047003
-1.3747448 2.0690596 2.4214633
-1.3244817 2.0719671 2.4372749
-1.2895297 2.0828726 2.4426949
-1.4253142 2.1332915 2.4122384
-1.3786744 2.1179814 2.4222643
-1.3350613 2.1266854 2.4320254
-1.2860801 2.1147692 2.4449811
-1.4630806 2.1820436 2.4015598
-1.426247 2.1742079 2.4095545
-1.379622 2.1663432 2.4255478
-1.3265663 2.1637049 2.4355922
-1.2617909 2.1574855 2.4485195
1.9425585 2.3921092 2.4313703
1.9615464 2.3853829 2.4289737
1.9273314 2.4034657 2.4382427
-0.86280721 -0.55650371 2.4532826
-0.82632744 -0.5618912 2.4632854
-0.77685356 -0.56051821 2.4693387
-0.72821307 -0.56387639 2.4876912
-0.67726159 -0.56334531 2.4774334
-0.6288532 -0.56839365 2.4781179
-0.57602257 -0.56851149 2.4736707
-0.52521545 -0.57082546 2.4788146
-0.48120284 -0.56936878 2.4781368
-0.43223554 -0.56889874 2.4820726
-0.37740192 -0.56458378 2.4800324
-0.3236354 -0.56657618 2.4810295
-0.26869595 -0.56756037 2.4803534
-0.21885012 -0.56350338 2.4657505
-0.17123953 -0.56505603 2.4750624
-0.12702303 -0.56845587 2.4808757
-0.081039764 -0.55657977 2.4773443
-0.020912135 -0.55095148 2.4713836
-1.0747102 -0.51534712 2.4605286
-1.0244693 -0.51676691 2.4692881
-0.97621852 -0.52255648 2.4794085
-0.92665821 -0.52407116 2.4825289
-0.87466127 -0.53768694 2.4711957
-0.82413763 -0.54099554 2.4803655
-0.77274108 -0.54191977 2.4857602
-0.72401446 -0.53949177 2.4897559
-0.056584463 -0.54839325 2.4595363
-0.021007707 -0.5418337 2.4862282
-1.0582796 -0.46416965 2.4533756
-1.0218683 -0.4684191 2.4621696
-0.97770119 -0.47144929 2.4710326
-0.93042547 -0.46976605 2.4844368
-0.88772392 -0.47096843 2.4948316
-1.1040164 -0.42755765 2.4507804
-1.071678 -0.41918576 2.4562294
-1.0254145 -0.42270589 2.4668136
-0.97922933 -0.41833657 2.4775164
-0.92901498 -0.42094058 2.4921405
-0.89849889 -0.40684634 2.4984083
-1.1066839 -0.36624148 2.4529707
-1.0713773 -0.37137005 2.4609218
-1.0263333 -0.3680453 2.4698846
-0.98029101 -0.36941457 2.4820678
-0.92973948 -0.3692472 2.4942491
-1.1103661 -0.32213512 2.4548333
-1.0750791 -0.31951538 2.4614313
-1.0299209 -0.31913209 2.4715295
-0.97877926 -0.32505998 2.4824591
-0.93440205 -0.32486239 2.4925885
-1.1145415 -0.26667744 2.4535923
-1.0786747 -0.26859292 2.4608498
-1.0304624 -0.27314276 2.4727399
-0.97786182 -0.28101468 2.4837933
-0.93520218 -0.28158531 2.4949739
-1.1131046 -0.21503977 2.4521329
-1.0805317 -0.22136526 2.46048
-1.0263574 -0.22971585 2.4731381
-0.97657996 -0.23073341 2.484091
-0.92779607 -0.23113649 2.4966245
-1.1131375 -0.17803213 2.4526963
-1.0763457 -0.17839117 2.4625895
-1.0261716 -0.18073909 2.4720902
-0.97567934 -0.18064186 2.4846263
-0.92457557 -0.18042697 2.4944322
-1.1147646 -0.1283756 2.4527888
-1.0769254 -0.13092484 2.4613333
-1.0257484 -0.13077749 2.4732146
-0.97430158 -0.13058501 2.4832401
-0.92658347 -0.13051991 2.4940782
-1.1150978 -0.081012674 2.4526517
-1.0763171 -0.080926962 2.4614086
-1.0247195 -0.080813825 2.4721999
-0.97387028 -0.080750562 2.4835455
-0.92440945 -0.080265127 2.4938228
-0.89115793 -0.080606692 2.4993
-1.1138471 -0.033705022 2.4528966
-1.0751315 -0.030972492 2.4594574
-1.0235021 -0.030940372 2.4700143
-0.97296751 -0.030925766 2.4819846
-0.92258841 -0.030919032 2.493305
-0.89101774 -0.049539316 2.4994843
-1.108023 0.018921457 2.4536424
-1.0757881 0.018893158 2.4609823
-1.0221729 0.02229551 2.4705677
-0.97300053 0.025029574 2.4820671
-0.92352724 0.02368547 2.4929595
-1.1125776 0.068893649 2.4525089
-1.0755351 0.075013526 2.4596109
-1.0256237 0.077662051 2.470587
-0.97326124 0.081014112 2.4818909
-0.92304164 0.080958404 2.4936776
-1.1147677 0.12164946 2.4528406
-1.0752789 0.12864469 2.4620697
-1.0254389 0.13108988 2.4722834
-0.97444099 0.13092534 2.4833641
-0.92368573 0.13077827 2.4939244
-0.89167035 0.11820711 2.4996166
-1.1510513 0.15077023 2.4500234
-1.112516 0.16781232 2.4531446
-1.0776854 0.17653848 2.4598718
-1.025749 0.17984642 2.471966
-0.97461128 0.18077473 2.4816151
-0.92730677 0.18161945 2.4936175
-1.1187851 0.22059806 2.4512908
-1.0799267 0.22336514 2.4595349
-1.0267659 0.22665092 2.4717271
-0.97485965 0.22970937 2.4829526
-0.93395388 0.22933765 2.4949362
-1.1121917 0.27348265 2.4555097
-1.0731943 0.26846114 2.4652932
-1.0272608 0.27239266 2.4741755
-0.97980154 0.27333054 2.4848866
-0.93284446 0.27259356 2.4959528
-1.1118019 0.31559464 2.4545867
-1.0728087 0.32211706 2.4648454
-1.0278267 0.31791639 2.4733734
-0.97950584 0.31939167 2.4843633
-0.93817598 0.31687698 2.495594
-1.1192578 0.37212387 2.4534335
-1.0724473 0.37133828 2.4661968
-1.0212877 0.37102541 2.4791441
-0.97015798 0.37146574 2.4873798
-0.93411672 0.36756808 2.4977913
-1.1147145 0.4205001 2.4534187
-1.0749317 0.42264956 2.4661131
-1.02245 0.42178145 2.4762547
-0.97182447 0.42164934 2.489723
-0.9378649 0.42290336 2.4986806
-1.1208351 0.47134653 2.4537284
-1.0764787 0.47376892 2.4630842
-1.0250231 0.47332287 2.4760318
-0.97329295 0.47269464 2.4870908
-0.93757218 0.47267392 2.4966486
-1.1156555 0.52379787 2.4521253
-1.0792103 0.52564251 2.4619966
-1.0270344 0.52482069 2.4736342
-0.97680813 0.52498758 2.4889348
-0.94069952 0.52903372 2.4972613
-1.1104968 0.58253932 2.4528573
-1.0793191 0.57597047 2.461431
-1.030453 0.5773108 2.4738331
-0.97965819 0.57726336 2.4882326
-0.94186968 0.57413131 2.4970696
-1.1120644 0.62483215 2.4545133
-1.0729047 0.6242826 2.4645851
-1.0192351 0.62735265 2.4777217
-0.97240222 0.63156313 2.4888637
-0.94162804 0.62517881 2.4969039
-1.1106837 0.66709888 2.4533455
-1.0752289 0.67031407 2.4614363
-1.0253561 0.67261022 2.4744205
-0.9729147 0.67651993 2.4899342
-0.94047099 0.67611313 2.4972105
-1.109899 0.72872108 2.4523759
-1.0772837 0.72234195 2.4592135
-1.0268655 0.7232433 2.4731345
-0.97597647 0.72346729 2.4887521
-0.93696594 0.72297335 2.4976487
-1.1083618 0.76968133 2.4534183
-1.0734053 0.78022093 2.4611297
-1.026984 0.77479047 2.470036
-0.9796319 0.77758867 2.4869385
-0.93820465 0.77481163 2.496634
-1.1231667 0.84190899 2.4500749
-1.0747937 0.82659835 2.4611776
-1.0207969 0.82467681 2.471477
-0.97191721 0.82659703 2.4879873
-0.94098425 0.82204509 2.4971197
-1.1051058 0.87539333 2.4511571
-1.0749704 0.87235361 2.4577556
-1.0253595 0.87368256 2.4711511
-0.97387111 0.87389547 2.4870276
-0.93695992 0.88352126 2.4968438
-1.1037458 0.92504567 2.4523304
-1.0735813 0.9250285 2.4578896
-1.0283061 0.92201191 2.4712574
-0.97772217 0.92283726 2.4849069
-0.93912596 0.92320102 2.4968529
-1.1101977 0.98285902 2.4514189
-1.0700136 0.972179 2.459455
-1.0237635 0.97513276 2.4736714
-0.97486752 0.97197217 2.4833143
-0.93600452 0.97092259 2.4953864
-1.0729709 1.0241466 2.4571459
-1.0266012 1.0236934 2.4706802
-0.97255397 1.0220429 2.4823987
-0.93407464 1.0229297 2.4957023
-1.0733991 1.0771236 2.4565725
-1.0250876 1.0749598 2.4703205
-0.97641927 1.0722755 2.4819491
-0.93307662 1.0732639 2.4947622
-1.102308 1.1460409 2.4536755
-1.0742347 1.1270919 2.4575224
-1.0238849 1.1270192 2.4698477
-0.97185904 1.1272734 2.4828873
-0.93005335 1.1224184 2.4955211
-1.1035568 1.1606812 2.451642
-1.0718369 1.1733594 2.4558964
-1.0270489 1.1712795 2.4687917
-0.97521973 1.172012 2.4831131
-0.92710805 1.1734297 2.4963059
-1.0695386 1.2242315 2.4577086
-1.0229678 1.2203501 2.4697189
-0.97594243 1.2217768 2.4817576
-0.93190819 1.2221787 2.4925313
-1.1085262 1.2886966 2.4555786
-1.0737261 1.2726661 2.4578032
-1.0256213 1.2732595 2.4719732
-0.97509104 1.2798489 2.4850392
-0.92800754 1.2792246 2.4959955
-1.1094617 1.3033625 2.4520371
-1.0731783 1.3248227 2.4596522
-1.0242732 1.3332841 2.4721298
-0.97675306 1.3295424 2.4856746
-0.93429196 1.3298526 2.4954715
-1.1057377 1.3767356 2.4523797
-1.0734391 1.3764137 2.4605525
-1.0228521 1.3775084 2.4726362
-0.9758997 1.3825082 2.4869959
-0.9379732 1.3757588 2.4944572
-1.1125581 1.4272285 2.4556153
-1.0731103 1.417155 2.4640958
-1.0248456 1.4236374 2.4785841
-0.97379971 1.425087 2.4920504
-0.94221056 1.4121076 2.4926693
-1.1534886 1.4712193 2.4538617
-1.1223633 1.4779421 2.4572973
-1.0763856 1.4732684 2.465548
-1.0274765 1.468861 2.4800265
-0.98338032 1.4704295 2.4941132
-0.9493956 1.4505099 2.4993191
-1.1655437 1.5359201 2.455009
-1.1239197 1.5319536 2.4594464
-1.0773611 1.525321 2.4708452
-1.0236441 1.5238451 2.483093
-0.98324788 1.5268221 2.4951234
-1.1589741 1.566017 2.4547803
-1.1264703 1.5755857 2.4597263
-1.0783389 1.5804384 2.4695168
-1.0263261 1.5751729 2.4851787
-0.97858411 1.5841813 2.4987981
-1.1710469 1.6325998 2.4556348
-1.1254339 1.6204343 2.462276
-1.0756384 1.6301844 2.4812577
-1.0288432 1.6192156 2.4903595
-0.96095026 1.6459467 2.4945047
-1.2083187 1.6708351 2.4565048
-1.1721565 1.6814524 2.4646513
-1.1318973 1.6782404 2.4817307
-1.080513 1.6711293 2.4867847
-1.0382997 1.6820595 2.4985857
-1.2245663 1.7193151 2.458626
-1.1736066 1.7291868 2.4724503
-1.1261605 1.7266024 2.4864063
-1.0836127 1.7222353 2.4935598
-1.2281784 1.776098 2.4568429
-1.1766304 1.774927 2.4720058
-1.1286304 1.7724624 2.4866378
-1.0894709 1.7739116 2.4954681
-1.2782868 1.8493679 2.4506354
-1.2237567 1.8272179 2.4622655
-1.1767761 1.8241875 2.4738145
-1.1261892 1.824875 2.4906662
-1.2594489 1.8769991 2.4528043
-1.2271763 1.8733673 2.4609804
-1.1735041 1.8725512 2.4727137
-1.1254658 1.879379 2.4917064
-1.2604439 1.9198214 2.4526155
-1.2259697 1.9229444 2.4652364
-1.1783009 1.9287752 2.4798687
-1.1279848 1.9362789 2.4962955
-1.2620407 1.9710853 2.4534602
-1.2269211 1.9750606 2.4639783
-1.1768275 1.9806657 2.4851248
-1.1255865 1.9780664 2.4942658
-1.264984 2.037277 2.4548509
-1.2246412 2.0273366 2.4658928
-1.1734549 2.0267625 2.4842472
-1.1271652 2.0189786 2.4946682
-1.2677103 2.0757344 2.453614
-1.2260561 2.0773346 2.4662917
-1.1733603 2.0707467 2.4815011
-1.1332595 2.0677409 2.4933958
-1.3089998 2.1267681 2.4515793
-1.2630895 2.1248856 2.4585025
-1.2261494 2.1263826 2.4713249
-1.1785687 2.1241312 2.4811413
-1.1368474 2.127305 2.493062
-1.0814252 2.1405897 2.4999676
-1.3033197 2.1746571 2.4535172
-1.2790576 2.1590466 2.4598458
-1.2255123 2.1623673 2.4714236
-1.176375 2.15838 2.4867697
-1.1489896 2.1510103 2.4878461
1.9337116 2.3851748 2.4671564
1.8756775 2.4041049 2.4720209
1.9143028 2.4111357 2.4787736
-0.62172198 -0.55668837 2.5035021
-0.57533896 -0.55855906 2.5077982
-0.52370721 -0.55771446 2.5233126
-0.47581834 -0.56191474 2.5239027
-0.42276791 -0.5615592 2.5243576
-0.37199876 -0.55735177 2.5200808
-0.31413859 -0.56306565 2.5243752
-0.27303421 -0.56447703 2.5223453
-0.22407353 -0.56488198 2.5273561
-0.1746043 -0.56366664 2.5244722
-0.12987913 -0.560534 2.5312154
-0.082762234 -0.55613416 2.5317333
-0.90934831 -0.50866336 2.5033641
-0.86989653 -0.51386255 2.5085392
-0.82203037 -0.51639205 2.5193431
-0.7731778 -0.51981795 2.5285859
-0.72338659 -0.51700443 2.5370886
-0.67819172 -0.5350951 2.5227826
-0.62547827 -0.54136544 2.5213573
-0.57513475 -0.54084599 2.5269208
-0.52667129 -0.54218823 2.5404003
-0.48282138 -0.54508495 2.5447001
-0.41325909 -0.54684317 2.5459905
-0.37785777 -0.54658288 2.5483818
-0.057960242 -0.54338431 2.5219851
-0.031155577 -0.54140377 2.5306115
-0.86902529 -0.46838459 2.5040398
-0.82937717 -0.4715082 2.5123885
-0.77679414 -0.46964714 2.5260916
-0.72402602 -0.47139326 2.5380876
-0.69085264 -0.46467146 2.5448232
-0.87592691 -0.42012298 2.5041099
-0.83061582 -0.41989559 2.5163159
-0.77878124 -0.42109585 2.5280526
-0.72369242 -0.41949126 2.5424364
-0.88100243 -0.37055692 2.5066154
-0.82962447 -0.36930788 2.5186574
-0.7788164 -0.37022194 2.53356
-0.73254341 -0.37161526 2.5450122
-0.91026598 -0.32518318 2.5013571
-0.87908888 -0.32522514 2.5092824
-0.82922357 -0.31905887 2.5220475
-0.77941364 -0.31917879 2.5337341
-0.73852628 -0.32063189 2.5435207
-0.91192281 -0.27988201 2.5021126
-0.87620902 -0.27966353 2.5086367
-0.82795507 -0.27483961 2.5217161
-0.77860588 -0.27149266 2.5348108
-0.73535633 -0.27110779 2.5455446
-0.90798002 -0.22451915 2.5025592
-0.87649071 -0.2306971 2.5089176
-0.82685119 -0.23078309 2.5212667
-0.77746397 -0.22827908 2.5339348
-0.73827243 -0.23176718 2.5429611
-0.87513852 -0.1805134 2.5077994
-0.82570624 -0.18061459 2.5205207
-0.7763536 -0.18074326 2.5328822
-0.73386484 -0.18103461 2.5456538
-0.90570432 -0.13058509 2.5007567
-0.87451315 -0.13058899 2.5080853
-0.8244006 -0.13054952 2.5185547
-0.77570838 -0.13074434 2.5327837
-0.73077786 -0.13038483 2.5440092
-0.69524235 -0.14956293 2.5498784
-0.90499032 -0.086941756 2.500056
-0.87097728 -0.080715008 2.5076277
-0.82421046 -0.080748923 2.5193715
-0.7746405 -0.080787167 2.5306714
-0.72542411 -0.080856532 2.5425467
-0.69456255 -0.074662276 2.5495336
-0.87204963 -0.029699 2.5069976
-0.82396668 -0.030974269 2.5193429
-0.77431238 -0.030986378 2.530297
-0.72951537 -0.032465957 2.5416641
-0.90521407 0.049914185 2.5012708
-0.87293911 0.024983229 2.5056489
-0.82335293 0.024975587 2.5174499
-0.77376777 0.02496415 2.5285153
-0.72514015 0.024999347 2.5422454
-0.69455081 0.037472416 2.5499411
-0.87319934 0.080934241 2.5055759
-0.82359713 0.080941133 2.5173745
-0.77440447 0.080978215 2.5297914
-0.726762 0.079822324 2.542556
-0.69462681 0.062397152 2.5498974
-0.87142295 0.13256599 2.5072429
-0.82395309 0.13072273 2.5170021
-0.77497756 0.13084838 2.5302186
-0.72743058 0.13226144 2.5433769
-0.6952306 0.14975381 2.5496252
-0.90724921 0.1747586 2.5029502
-0.87557715 0.1808752 2.5087736
-0.82537103 0.18079484 2.5192165
-0.77590823 0.18086451 2.5311527
-0.73225665 0.17902084 2.5437229
-0.90774375 0.2247632 2.5015523
-0.87561715 0.22982922 2.5100319
-0.82604522 0.2299159 2.5226314
-0.77915949 0.22848903 2.5329521
-0.72920305 0.22201039 2.5461004
-0.90900481 0.26880538 2.5020194
-0.87955308 0.27323595 2.5099592
-0.83002537 0.275186 2.5217328
-0.77630913 0.27155605 2.5331628
-0.73527998 0.26921895 2.5450335
-0.91532689 0.32372892 2.5024014
-0.87965131 0.31947446 2.5109804
-0.82762206 0.32197711 2.5241702
-0.77741843 0.31990856 2.537663
-0.73767966 0.31764284 2.544486
-0.91274846 0.3696095 2.5034645
-0.87411624 0.37268245 2.5147989
-0.82402968 0.37019226 2.5264535
-0.77181023 0.36989725 2.5410759
-0.73895997 0.37120777 2.549159
-0.9141342 0.42109516 2.5051565
-0.87151968 0.4217858 2.5164003
-0.82206917 0.42224014 2.5307832
-0.77165169 0.42221117 2.5415094
-0.74046499 0.42448354 2.5487487
-0.91427553 0.47278339 2.5032969
-0.87285721 0.47286877 2.5140674
-0.82285261 0.47309014 2.5270276
-0.77362657 0.47383302 2.5419192
-0.74216592 0.47390148 2.5487704
-0.91712236 0.52229875 2.5044236
-0.87586248 0.52509683 2.5157323
-0.82528961 0.52510166 2.5275974
-0.77527207 0.52547878 2.5404854
-0.7442534 0.52592432 2.5490983
-0.91797131 0.57911015 2.5032282
-0.87792057 0.57705212 2.5138845
-0.82819843 0.57773328 2.528806
-0.7773146 0.57764256 2.539562
-0.73140949 0.55744392 2.5464261
-0.91433251 0.63076901 2.5059993
-0.8774963 0.62759489 2.5128808
-0.83179867 0.62899655 2.5273774
-0.77991563 0.62414306 2.5407622
-0.74843955 0.62443042 2.5486157
-0.91639662 0.67368186 2.5044675
-0.87117523 0.67675394 2.5174446
-0.81800234 0.67286807 2.5296514
-0.77224916 0.67075741 2.542696
-0.73717618 0.6716513 2.5481892
-0.92056137 0.72348315 2.5038574
-0.87347722 0.72334766 2.5153027
-0.82258129 0.72360545 2.5283282
-0.77363664 0.72580755 2.5423357
-0.74124777 0.74468189 2.5489013
-0.91458559 0.78041011 2.504328
-0.87673455 0.77745116 2.5137918
-0.82592887 0.77798492 2.5278673
-0.77490038 0.77837443 2.5405793
-0.74240762 0.76514113 2.548892
-0.91597468 0.82738906 2.5035079
-0.8778975 0.82398051 2.512671
-0.8279593 0.82501459 2.5239649
-0.7775175 0.8261748 2.5391202
-0.74598217 0.82697433 2.548418
-0.91562861 0.86975539 2.5040035
-0.87130547 0.87484354 2.5129704
-0.8238343 0.87486768 2.527339
-0.77700007 0.87203687 2.5367782
-0.74872243 0.8754071 2.5470672
-0.91315907 0.92322582 2.503926
-0.87418741 0.92324084 2.513974
-0.82224441 0.92328882 2.5266955
-0.77094263 0.92412943 2.5406911
-0.73928714 0.93171799 2.5489066
-0.91312045 0.97155458 2.5033691
-0.87839335 0.9734298 2.513581
-0.82577485 0.97297096 2.5252094
-0.77430838 0.97391754 2.5395296
-0.73735219 0.97400379 2.5476692
-0.90918016 1.0255597 2.5016971
-0.87522262 1.0230848 2.511692
-0.82738632 1.0216836 2.5232787
-0.77729803 1.02361 2.5363619
-0.74559492 1.025107 2.5471952
-0.90877402 1.0758772 2.5026066
-0.87275445 1.0740343 2.5110576
-0.82223433 1.0764543 2.5259275
-0.77513087 1.0756524 2.5384452
-0.74283803 1.0654805 2.5459676
-0.90845513 1.1378942 2.5054941
-0.87505412 1.1242024 2.5087874
-0.82483697 1.1266328 2.5238583
-0.77244192 1.1275464 2.5381792
-0.74019241 1.1289049 2.5484688
-0.90826315 1.1715201 2.5009875
-0.8753168 1.1719579 2.5107253
-0.8266173 1.1702932 2.522342
-0.77670884 1.1738027 2.5389092
-0.73595476 1.1800442 2.5481174
-0.90730071 1.2280444 2.5008538
-0.8738814 1.2258784 2.5107691
-0.82403594 1.2244978 2.5242891
-0.77695453 1.2191372 2.5402384
-0.74431831 1.2315949 2.5486519
-0.90626377 1.2806838 2.5014219
-0.87774009 1.279834 2.510361
-0.82518095 1.2735608 2.524214
-0.77359444 1.2738048 2.5402887
-0.73892927 1.275876 2.5489106
-0.90964305 1.3310022 2.5048575
-0.87222463 1.3308746 2.5146849
-0.82194501 1.328499 2.5309145
-0.77733713 1.3242836 2.5412531
-0.74589598 1.3491781 2.5494611
-0.91777593 1.3809372 2.503963
-0.87617892 1.376863 2.5182917
-0.82442611 1.3825165 2.531873
-0.77489591 1.3782142 2.5433815
-0.74819863 1.373857 2.5490727
-0.92201459 1.4286429 2.507628
-0.87875342 1.419247 2.5202732
-0.82869935 1.4240819 2.5304432
-0.78319836 1.4224656 2.5416684
-0.96951419 1.4767177 2.5037794
-0.92058045 1.4759207 2.5110247
-0.87434363 1.4677651 2.5236099
-0.82385617 1.4723178 2.5394018
-0.78614569 1.4619743 2.5482295
-0.95982766 1.5260743 2.5074182
-0.92208689 1.5232085 2.5165267
-0.87530708 1.5272865 2.5306411
-0.82641047 1.5231098 2.5419936
-0.79320705 1.5240383 2.5490975
-0.97162092 1.5741242 2.507565
-0.92634946 1.5798064 2.5215034
-0.87663013 1.5750332 2.5295417
-0.84245694 1.572685 2.5441036
-1.0089087 1.6334388 2.5056636
-0.97583407 1.6270339 2.5090916
-0.92516541 1.6227211 2.5254424
-0.87223858 1.6186712 2.5279942
-0.83597088 1.6087657 2.5454094
-1.0646949 1.6897578 2.5025718
-1.018967 1.672226 2.5098078
-0.97127992 1.6722132 2.5165501
-0.92658693 1.6761892 2.5377209
-0.88262224 1.6697953 2.5450139
-1.1045313 1.735895 2.5007753
-1.0618372 1.725202 2.5046632
-1.0235535 1.7286739 2.5137331
-0.97332269 1.7252232 2.5304308
-0.9221164 1.723555 2.5443354
-0.8916223 1.7044636 2.5495987
-1.0628927 1.7793281 2.5089521
-1.0197769 1.777105 2.5169332
-0.97530955 1.7760085 2.529665
-0.93736249 1.7754952 2.5458438
-1.1025695 1.8150339 2.500212
-1.0731212 1.8224869 2.5064859
-1.0227535 1.8201792 2.5180588
-0.9725405 1.818561 2.5364993
-0.93298841 1.8151917 2.5465195
-1.0753667 1.8762465 2.5087752
-1.0247359 1.8719728 2.5231545
-0.97442293 1.8753138 2.5385022
-0.94059157 1.8646369 2.5466874
-1.1080121 1.9239031 2.5048301
-1.0734979 1.9322046 2.5114422
-1.0229243 1.9267789 2.5234673
-0.97477949 1.9257572 2.5401988
-0.94173223 1.9367794 2.5488679
-1.1154158 1.9670357 2.5015099
-1.0743405 1.9734869 2.5123429
-1.0236412 1.9725823 2.5266864
-0.97765142 1.9712447 2.5401185
-1.1112636 2.0325131 2.5008183
-1.0794468 2.0224922 2.5145624
-1.0241053 2.02249 2.5262139
-0.97333336 2.0236645 2.5401115
-0.94325048 2.0477552 2.5487225
-1.1070887 2.0641153 2.5038841
-1.0713817 2.0726817 2.51159
-1.0256546 2.0753322 2.5276458
-0.97628647 2.0864437 2.5414257
-1.1167214 2.1130981 2.5032704
-1.0806409 2.1196504 2.5123777
-1.0260751 2.1267307 2.5255117
-0.97282499 2.132618 2.5435672
-1.11059 2.1520488 2.5044219
-1.0650067 2.1544147 2.5247898
1.9369476 2.395277 2.5433431
1.7933506 2.4103024 2.5321393
1.8347096 2.4188747 2.5198443
1.8715428 2.4193771 2.5284827
1.9225619 2.4049978 2.5155144
-0.32226774 -0.55695128 2.5720389
-0.27691343 -0.55590898 2.5607305
-0.22651295 -0.55543131 2.5674841
-0.17776018 -0.55518162 2.5731428
-0.11501433 -0.55964124 2.5663085
-0.09633293 -0.55332839 2.5674529
-0.70424229 -0.51782393 2.5509148
-0.66791439 -0.51307976 2.5581248
-0.62248641 -0.51811802 2.5668113
-0.57283127 -0.5189544 2.5788095
-0.52446312 -0.52066302 2.5883737
-0.47103044 -0.53424561 2.5754783
-0.42703879 -0.53735542 2.5676668
-0.37475911 -0.53401542 2.5654597
-0.33043128 -0.53468162 2.5695336
-0.27834794 -0.53546727 2.5773518
-0.23093511 -0.53733718 2.5926747
-0.17291766 -0.54085469 2.5969727
-0.078031003 -0.54966205 2.5805306
-0.66679817 -0.47403827 2.5572972
-0.62123942 -0.47297859 2.5673656
-0.57173967 -0.47378278 2.5796378
-0.5225572 -0.47501785 2.5934746
-0.49054176 -0.47467631 2.5958276
-0.67017478 -0.42154914 2.5589049
-0.62075067 -0.42216995 2.5712118
-0.57149965 -0.42305756 2.5843823
-0.52853072 -0.42807558 2.5962424
-0.70516926 -0.36914235 2.5521545
-0.67126185 -0.36967045 2.5609503
-0.62049341 -0.37161517 2.5753624
-0.57126808 -0.37238342 2.5884657
-0.5363459 -0.37718892 2.59725
-0.71622699 -0.31777599 2.5521772
-0.67514747 -0.3202371 2.5625246
-0.61961627 -0.32075551 2.5761683
-0.57063079 -0.32152927 2.5900354
-0.53674138 -0.31884587 2.5989993
-0.71365488 -0.27310342 2.5526834
-0.67681104 -0.27023444 2.5615475
-0.62359613 -0.27044317 2.5757608
-0.57133973 -0.26943225 2.5884705
-0.53932059 -0.27119225 2.5993199
-0.71527588 -0.22269514 2.5523226
-0.67952317 -0.21912448 2.5612068
-0.62712109 -0.21955082 2.5752087
-0.57254678 -0.22003217 2.5893085
-0.53864342 -0.21835025 2.5993102
-0.70905411 -0.18108161 2.5510402
-0.676965 -0.17306709 2.559577
-0.62948847 -0.16905372 2.5725398
-0.57718313 -0.16943263 2.5866594
-0.54175788 -0.16970448 2.5958922
-0.70861793 -0.13311233 2.5514078
-0.67760885 -0.1283956 2.5580351
-0.62692636 -0.12147001 2.5714288
-0.57805872 -0.11868666 2.5848455
-0.54342246 -0.11930507 2.5953596
-0.67570382 -0.081446551 2.5570252
-0.62872666 -0.076610781 2.5705366
-0.57969105 -0.068868592 2.5847578
-0.543293 -0.069030732 2.5959148
-0.70776266 -0.024848906 2.5505135
-0.67672515 -0.031096185 2.5566373
-0.62918025 -0.029912403 2.5694602
-0.57916087 -0.024976052 2.5829201
-0.54288095 -0.025040334 2.594461
-0.67538828 0.022100469 2.5559652
-0.62819982 0.018836442 2.5708048
-0.57902932 0.018857829 2.5823073
-0.53912234 0.021413047 2.59501
-0.70847458 0.099977784 2.551779
-0.67604226 0.077640124 2.5568688
-0.62809539 0.068843 2.5697672
-0.57944381 0.068993792 2.5835762
-0.53691477 0.069157071 2.5962217
-0.7082988 0.11243527 2.5507891
-0.67581773 0.1249634 2.5573742
-0.62853628 0.11892576 2.570302
-0.57971233 0.11916903 2.583545
-0.54348648 0.11946227 2.5955174
-0.70882761 0.17498046 2.5502717
-0.67661202 0.17317203 2.5579782
-0.62914008 0.16912788 2.5709083
-0.5759306 0.17065452 2.5875947
-0.54081428 0.16360366 2.5965791
-0.70989716 0.21904531 2.5517941
-0.67886227 0.21910895 2.5584164
-0.6253171 0.22060989 2.5737381
-0.57337117 0.21881695 2.587544
-0.53786975 0.21713628 2.5953732
-0.71070021 0.26938111 2.5514464
-0.67820573 0.27075031 2.5598967
-0.62384629 0.2693091 2.5758789
-0.57005161 0.27096945 2.5908179
-0.53937531 0.27137655 2.5992348
-0.7110846 0.32237571 2.5539844
-0.67356384 0.32091585 2.5626602
-0.62337059 0.31969637 2.5763927
-0.57097691 0.32189834 2.5911729
-0.54021382 0.32445887 2.5992281
-0.71406102 0.37133667 2.5549223
-0.67103767 0.37189704 2.5668736
-0.62182844 0.37260988 2.5803444
-0.57258433 0.37341753 2.5938816
-0.717843 0.42227986 2.5558431
-0.67255926 0.42327774 2.5673821
-0.62324023 0.4240773 2.5809004
-0.57349807 0.42473018 2.5927782
-0.5417558 0.41199109 2.5984492
-0.71803761 0.47465661 2.5577557
-0.67454278 0.47520196 2.5689147
-0.62475097 0.4758575 2.5811889
-0.5762161 0.4762131 2.5932219
-0.54335707 0.47041664 2.5996075
-0.72338241 0.52652371 2.5563598
-0.67598367 0.52699852 2.5676224
-0.62631828 0.52794743 2.5809813
-0.57659793 0.52898741 2.5941176
-0.51807815 0.50869304 2.5989711
-0.72782367 0.58024544 2.5556939
-0.67752659 0.5791077 2.5659831
-0.62924564 0.57574373 2.579927
-0.57913035 0.57554811 2.5908628
-0.72352171 0.62491941 2.5556562
-0.67909068 0.62508553 2.5647633
-0.62784392 0.62100953 2.5789664
-0.58064216 0.62246037 2.5926917
-0.75268716 0.69204503 2.551631
-0.71772218 0.67004085 2.5538924
-0.67630631 0.67221159 2.5657742
-0.62648839 0.6726355 2.5795059
-0.57793754 0.67449504 2.5928667
-0.54958904 0.68155491 2.5985661
-0.75312138 0.70526636 2.5506594
-0.72028774 0.72373796 2.5555496
-0.67099977 0.72581774 2.5675814
-0.62068468 0.72703189 2.5807896
-0.57473743 0.72689474 2.5933385
-0.72147191 0.77644593 2.5556908
-0.67365605 0.77523476 2.5662
-0.62266338 0.77453804 2.5799952
-0.57408053 0.77743471 2.5934927
-0.54057586 0.79004622 2.5989368
-0.72162324 0.82098216 2.5562744
-0.67544472 0.82294977 2.567004
-0.62466425 0.82235438 2.5785222
-0.57402486 0.82400942 2.5920503
-0.5424552 0.84478009 2.5966859
-0.72358888 0.87636995 2.5551434
-0.67871928 0.87709033 2.5659957
-0.62977362 0.87589502 2.5802789
-0.57808465 0.87528694 2.5925245
-0.54049236 0.86959887 2.5980875
0.97566247 0.89877927 2.5881791
-0.71784306 0.92556977 2.5559397
-0.67489314 0.92625123 2.5661554
-0.62669218 0.92261887 2.5800619
-0.57714403 0.92319179 2.5904338
-0.54636514 0.92289048 2.5983472
0.96207619 0.90965825 2.5956585
-0.71370947 0.97504663 2.5553136
-0.67170781 0.97673756 2.568073
-0.62105435 0.97878319 2.5787418
-0.57995778 0.97237015 2.5916324
-0.54844493 0.95923269 2.5999649
-0.71994263 1.0259873 2.5548053
-0.67409736 1.0262697 2.5644572
-0.62303311 1.0288192 2.5802965
-0.57247835 1.0269862 2.5926018
-0.72184414 1.0756654 2.554486
-0.67709512 1.0704843 2.564255
-0.62546629 1.0725716 2.5788641
-0.57339758 1.0742217 2.5916121
-0.54130447 1.0829314 2.5997663
-0.71612281 1.1246597 2.5540769
-0.67759639 1.1203729 2.5637512
-0.62896234 1.1251802 2.5790184
-0.57647169 1.1266577 2.5913208
-0.71502221 1.1703246 2.5542624
-0.67114663 1.1757129 2.5652361
-0.62597317 1.1786739 2.5802875
-0.57944685 1.1793741 2.5897086
-0.54357564 1.1773561 2.5976727
-0.72265476 1.2183716 2.5545588
-0.67522746 1.2231957 2.5670774
-0.62227863 1.2247676 2.5803015
-0.57505935 1.2292039 2.5941668
-0.54695231 1.2083583 2.5908115
-0.72145802 1.2730128 2.556042
-0.67741674 1.2698741 2.5687964
-0.62615925 1.2730459 2.5820003
-0.57942694 1.2744838 2.5930462
-0.75617778 1.3025337 2.551106
-0.72241241 1.3218461 2.556601
-0.67409223 1.3214142 2.5705121
-0.62794435 1.3200845 2.5827298
-0.58355737 1.3245214 2.5964406
0.90863657 1.3093178 2.5975752
-0.76116276 1.3520989 2.5519462
-0.72016096 1.3706493 2.5609591
-0.67411494 1.3692182 2.5715535
-0.620233 1.3711591 2.5854843
-0.58171874 1.3740517 2.5978038
-0.75934511 1.4295594 2.5521517
-0.72380942 1.4205902 2.5609853
-0.67721933 1.4195116 2.5746775
-0.62687689 1.4218425 2.588691
-0.58328253 1.4155216 2.597409
-0.76979703 1.4752798 2.5555441
-0.72674197 1.4748559 2.5696528
-0.67383975 1.4780126 2.5835273
-0.6332072 1.4748601 2.5929527
-0.77183193 1.527028 2.5594015
-0.72607648 1.5298599 2.5748141
-0.6746105 1.5275654 2.5842974
-0.63400507 1.5311121 2.5956423
-0.81561178 1.5752949 2.5555058
-0.77213979 1.5730618 2.5621321
-0.72250909 1.5751871 2.5822067
-0.67492586 1.576551 2.5893707
-0.64750755 1.5856878 2.5950453
-0.85365182 1.6436048 2.5530136
-0.81925124 1.6238297 2.5551665
-0.77391917 1.624157 2.5684721
-0.72596735 1.6235149 2.5842233
-0.68185729 1.6236439 2.5907063
-0.64316386 1.6138077 2.5973442
-0.85769832 1.6729583 2.5539608
-0.82161248 1.6725757 2.5627377
-0.77169448 1.6731781 2.576015
-0.72267818 1.6760682 2.5919282
-0.8719129 1.7279979 2.5590229
-0.82296604 1.7263469 2.5721903
-0.77433783 1.7280256 2.5840819
-0.73517334 1.7186878 2.5933886
-0.90901667 1.777236 2.5570352
-0.8744604 1.7788516 2.5641098
-0.82285923 1.7780449 2.5765989
-0.77452922 1.7764353 2.5892184
-0.74221945 1.7775974 2.5955548
-0.9145205 1.8223839 2.5526731
-0.8794378 1.8275713 2.5637388
-0.82572538 1.8195113 2.5802569
-0.78032428 1.8258436 2.5925086
-0.74933791 1.8315676 2.5998609
-0.9180398 1.876161 2.5558078
-0.87160391 1.8758913 2.5693588
-0.82312602 1.8747097 2.5817375
-0.76892143 1.8728776 2.5954454
-0.74088359 1.8920089 2.5997076
-0.92298537 1.9262359 2.5579615
-0.87581575 1.9268036 2.5671766
-0.8243643 1.9244756 2.5822868
-0.78658152 1.9315888 2.5949552
-0.95017534 1.9844536 2.5521636
-0.92138952 1.9697472 2.5578589
-0.8722899 1.9719299 2.5731273
-0.82580894 1.9691473 2.5819066
-0.78879344 1.9708902 2.5939806
-0.92289817 2.0236421 2.5567966
-0.8791346 2.0255256 2.5684767
-0.82552183 2.0216646 2.5842505
-0.78708416 2.0160465 2.5958581
-0.92215776 2.0810988 2.5558889
-0.87029588 2.0808055 2.575351
-0.82378119 2.0797772 2.5868628
-0.78691369 2.0737116 2.597209
-0.92633909 2.132652 2.5584874
-0.87975973 2.1324987 2.5723095
-0.82449466 2.1299067 2.5844188
-0.78540075 2.1288109 2.5933597
1.6708318 2.3971114 2.5840795
1.9351031 2.3971608 2.589853
1.7277994 2.4161592 2.579591
1.7801561 2.4191093 2.5735996
1.8230499 2.4206598 2.5704982
1.8861974 2.417712 2.5825288
1.9171644 2.4134147 2.5704527
-0.12928054 -0.55510545 2.6047385
-0.5058912 -0.50902849 2.6040766
-0.47506613 -0.51456499 2.6076546
-0.42464343 -0.51848906 2.6176577
-0.3746303 -0.51482439 2.6353636
-0.32785353 -0.51653206 2.6364191
-0.27063155 -0.52218944 2.6277122
-0.22068553 -0.52414787 2.6275799
-0.17905219 -0.53153217 2.6145837
-0.13008595 -0.53313088 2.6243145
-0.088031195 -0.53970563 2.6193728
-0.47058231 -0.47648343 2.608144
-0.42361513 -0.47778574 2.6207647
-0.37478012 -0.47640291 2.6376586
-0.33562529 -0.47306165 2.6394715
-0.50849003 -0.41536528 2.6014421
-0.47271571 -0.42508966 2.6103809
-0.42317566 -0.42635339 2.6238172
-0.37385258 -0.42817119 2.6401367
-0.34249148 -0.42891365 2.6475611
-0.51329136 -0.37085015 2.6038549
-0.47266817 -0.37430462 2.6152205
-0.42288011 -0.37516659 2.6270199
-0.37351495 -0.37672535 2.6429386
-0.51646048 -0.32353956 2.6054003
-0.47216812 -0.3232114 2.6169493
-0.42224589 -0.32382017 2.627533
-0.37550297 -0.32680526 2.6416843
-0.51820225 -0.2714676 2.6048048
-0.47139922 -0.27206251 2.6164522
-0.42199445 -0.27285337 2.6297817
-0.37522227 -0.27197191 2.6436622
-0.51570541 -0.22107127 2.6039386
-0.4709312 -0.22120877 2.6169844
-0.42179918 -0.2219784 2.6316493
-0.37213749 -0.2226291 2.6443517
-0.51346511 -0.17006116 2.6051667
-0.47039148 -0.17043759 2.6163788
-0.42128173 -0.17102474 2.6309364
-0.37933806 -0.1710076 2.6439478
-0.5149852 -0.12004073 2.6045978
-0.47024897 -0.11988526 2.6174347
-0.42103308 -0.12025677 2.6311545
-0.37789452 -0.12064767 2.6438015
-0.51274365 -0.069149099 2.6044943
-0.46999425 -0.069347419 2.6171789
-0.42070371 -0.069546856 2.6302423
-0.37771925 -0.06978976 2.6437905
-0.51402271 -0.023513855 2.603312
-0.47211927 -0.026129793 2.6157675
-0.42092171 -0.025267331 2.6320951
-0.37734586 -0.025329811 2.641633
-0.51009405 0.016420674 2.6046557
-0.46966046 0.01897965 2.6158526
-0.4207429 0.019032827 2.6309862
-0.38133112 0.016936619 2.63958
-0.5064826 0.069285803 2.6053674
-0.46998507 0.069469072 2.6170523
-0.42057493 0.06964682 2.6292856
-0.38415506 0.067045249 2.6374226
-0.51291257 0.11965981 2.604013
-0.47017816 0.11999514 2.6168964
-0.42131391 0.12045305 2.6327612
-0.38077751 0.12340245 2.6456966
-0.51535326 0.17066564 2.6044133
-0.47048751 0.17060435 2.6167483
-0.42153591 0.17124741 2.6322811
-0.38252226 0.17386611 2.643996
-0.51156282 0.2233973 2.6057229
-0.4709031 0.22133276 2.6165006
-0.42197007 0.22219408 2.6324058
-0.38493866 0.22279167 2.643399
-0.5146746 0.27165809 2.6053441
-0.47179699 0.27243009 2.6182876
-0.42240888 0.2732507 2.6319692
-0.38651499 0.27142808 2.6448801
-0.51731789 0.32213873 2.6048074
-0.47260165 0.32364824 2.6188977
-0.42317599 0.32467628 2.6329639
-0.38837352 0.32996961 2.6447656
-0.52322805 0.37432981 2.60729
-0.4735336 0.37514901 2.6195254
-0.42372292 0.37606224 2.6317623
-0.38397187 0.37451932 2.6402538
-0.52180701 0.42794052 2.608701
-0.474848 0.42719075 2.6215525
-0.42471623 0.42807582 2.6327853
-0.38744906 0.43564996 2.6431968
-0.55694062 0.48388901 2.600306
-0.52418649 0.47828135 2.6073668
-0.4756346 0.47899455 2.6200135
-0.42686599 0.47886506 2.6322987
-0.39197174 0.47244301 2.6477005
-0.52739608 0.5316087 2.6078341
-0.47685882 0.52503991 2.6210182
-0.42527503 0.52443498 2.634244
-0.38788301 0.52485168 2.646724
-0.55914706 0.56250608 2.6001844
-0.52787852 0.57604825 2.6061685
-0.4776313 0.57077801 2.6189139
-0.42725539 0.57201463 2.6305227
-0.38608754 0.57514822 2.6432371
-0.56059045 0.60240775 2.6010582
-0.52923101 0.62244123 2.6058085
-0.47872168 0.62351441 2.6170127
-0.43029335 0.62469393 2.6334968
-0.38508663 0.61966324 2.6479092
-0.52472866 0.6762687 2.6076052
-0.47786894 0.67577797 2.6194129
-0.4321501 0.67687243 2.6329691
-0.39360386 0.67198956 2.6437712
-0.55195951 0.72970021 2.6013818
-0.51980484 0.72342181 2.6077521
-0.47296086 0.72617376 2.6189523
-0.42439699 0.72399002 2.6349761
-0.55312085 0.75711757 2.6017835
-0.52015108 0.76978493 2.6075747
-0.47093293 0.77321869 2.6210909
-0.41991448 0.77499807 2.6331697
-0.38944766 0.78568166 2.6493833
-0.522138 0.82476348 2.6065927
-0.47382081 0.82667023 2.6191041
-0.42138854 0.82345754 2.632915
-0.38650692 0.82898933 2.6431785
-0.51760042 0.87709033 2.6081522
-0.473014 0.87530357 2.6205034
-0.42318889 0.87292886 2.6340032
-0.38480958 0.87076789 2.6459024
0.93641168 0.88984621 2.6350727
0.9641816 0.8865819 2.6220789
-0.52114248 0.92459196 2.6068773
-0.47621629 0.92646396 2.6182559
-0.4263463 0.9281531 2.6332436
-0.39408532 0.94079083 2.6483755
0.94272125 0.90578973 2.6191473
-0.55714309 0.98929954 2.6020272
-0.52622861 0.97503603 2.6070006
-0.47837666 0.97688466 2.6185074
-0.4249849 0.97692657 2.6311259
-0.39001718 0.9792459 2.6417754
0.87578541 0.99526572 2.6387146
0.97843105 0.96836466 2.6432812
-0.55141455 1.0106721 2.6017342
-0.52239907 1.0281142 2.6077979
-0.47842377 1.0192081 2.6185732
-0.42850307 1.0234458 2.6322358
-0.38842195 1.0263588 2.6442058
0.87176496 1.0214946 2.6376011
-0.51762068 1.0754565 2.6067147
-0.47265941 1.0751646 2.6214802
-0.42768455 1.0731875 2.6325965
-0.39324427 1.0653299 2.6425385
0.87465829 1.0693371 2.6434741
-0.52412426 1.1220642 2.6063263
-0.47208357 1.1253512 2.6212227
-0.42182091 1.1306103 2.6365108
-0.38946623 1.1196964 2.6461527
0.87192392 1.1168696 2.6399021
-0.5186438 1.1724505 2.6053915
-0.47448432 1.1714817 2.6219592
-0.42205402 1.1754494 2.6374197
-0.38910595 1.1778589 2.6465538
0.87137365 1.1702139 2.6466217
-0.55720276 1.2295928 2.6017265
-0.523022 1.2286621 2.6047583
-0.47696042 1.2249643 2.6200328
-0.42422795 1.2222365 2.637743
-0.3846381 1.2394385 2.6454906
0.85890895 1.2117671 2.6325533
-0.55333209 1.2768043 2.6021225
-0.52166784 1.2791582 2.6087389
-0.47616735 1.2797726 2.6227372
-0.43114212 1.2768193 2.6342261
-0.39253736 1.2633669 2.6451192
0.88657004 1.2898591 2.6323037
0.92148495 1.2660489 2.6064057
-0.55631876 1.3246723 2.6011693
-0.52324885 1.3273901 2.6116536
-0.47415829 1.3330593 2.6266882
-0.42911124 1.3221116 2.6381152
0.88887864 1.3072772 2.6339684
0.92376083 1.3452752 2.6353889
-0.56372023 1.3753717 2.6033707
-0.52703089 1.3783516 2.614826
-0.47483033 1.3800889 2.6285
-0.43184876 1.3685728 2.6408374
-0.60793555 1.445614 2.6022394
-0.56973773 1.4357952 2.6060877
-0.52786994 1.4258021 2.6126206
-0.47282618 1.4238101 2.6296773
-0.43415412 1.4175726 2.6387465
-0.61066222 1.4800477 2.6020541
-0.57628042 1.4813453 2.610306
-0.52335894 1.4753631 2.6212406
-0.47795349 1.4701214 2.6360679
-0.43976617 1.4609156 2.6451781
-0.6144399 1.5220178 2.6039014
-0.57615757 1.5229408 2.6091845
-0.52492821 1.5225071 2.6298828
-0.47824755 1.5235341 2.6423225
-0.6226877 1.5731829 2.6090732
-0.57271016 1.5759629 2.6197772
-0.52531964 1.5772766 2.6354668
-0.49141109 1.5816107 2.6448698
-0.66269255 1.6281728 2.6022346
-0.62448889 1.625797 2.6099231
-0.57275832 1.627048 2.6195526
-0.52555126 1.6237183 2.6341965
-0.49264136 1.6180331 2.6448436
-0.67271155 1.673894 2.6054835
-0.62492806 1.6772939 2.6175485
-0.58057749 1.6775811 2.6297612
-0.52063328 1.6671239 2.6453707
-0.71291971 1.7319994 2.6073101
-0.67413962 1.7268505 2.6149116
-0.62641054 1.7237219 2.6230638
-0.57469654 1.7273149 2.6396768
-0.54911828 1.709774 2.6487687
-0.76161116 1.7961426 2.6044645
-0.72034115 1.7813848 2.6114292
-0.6750015 1.7704601 2.6142998
-0.62204099 1.7768041 2.6311123
-0.5797531 1.7655617 2.643034
-0.72279245 1.8200518 2.6059277
-0.67683059 1.8277497 2.6252875
-0.62230003 1.8244424 2.6360843
-0.58164412 1.8308027 2.6480167
-0.72268891 1.8715547 2.6081238
-0.67003882 1.8684592 2.6212492
-0.62455148 1.874897 2.6383183
-0.58604062 1.8820131 2.6471672
-0.76764852 1.9292793 2.6065669
-0.72490901 1.931304 2.6143084
-0.67677474 1.9222819 2.6270857
-0.62547922 1.9260081 2.6389184
-0.59992355 1.947644 2.648062
-0.75905722 1.9720564 2.6029539
-0.72210336 1.974268 2.6146946
-0.67741972 1.9762369 2.6272686
-0.62829274 1.9770945 2.6406021
-0.7647962 2.0174344 2.6033096
-0.72734946 2.0191107 2.614495
-0.67602336 2.0231967 2.6237979
-0.62885755 2.0182407 2.6393855
-0.59066671 2.0128388 2.6494296
-0.76113379 2.0805554 2.6051161
-0.7252512 2.0653062 2.6163487
-0.66988748 2.073266 2.6290407
-0.6289624 2.065089 2.6397784
-0.76361156 2.1327794 2.6040361
-0.72452313 2.1240919 2.6174753
-0.68084997 2.1287298 2.6295457
-0.62613535 2.1216369 2.6431444
-0.58630711 2.1364064 2.647063
-0.65197515 2.1558886 2.6440208
1.6319718 2.4166424 2.6340926
1.6873384 2.4245484 2.6351976
1.7320209 2.4122424 2.6218531
1.7777386 2.4177058 2.6239362
1.8333268 2.4183199 2.6159408
1.8707939 2.4225295 2.6135337
1.9250402 2.4083347 2.6283226
-0.31485611 -0.50441986 2.651305
-0.27362442 -0.50867879 2.659404
-0.22280745 -0.51030731 2.6711087
-0.1718325 -0.51236987 2.6844132
-0.1290608 -0.5137313 2.6861951
-0.09944474 -0.5263164 2.6565003
-0.36973298 -0.48868304 2.6504381
-0.31140733 -0.4751507 2.6531014
-0.27202612 -0.47078928 2.6609712
-0.22279994 -0.47149378 2.675508
-0.17186075 -0.47356468 2.6896431
-0.13632032 -0.47724354 2.6931393
-0.31758252 -0.42987776 2.6555912
-0.27489439 -0.42661327 2.6666133
-0.22285989 -0.41995546 2.6818767
-0.17624204 -0.42290002 2.6932375
-0.074296556 -0.40080449 2.6907845
-0.32371351 -0.37823144 2.6579165
-0.27354759 -0.37978408 2.6726656
-0.22275525 -0.37455618 2.6850293
-0.18148614 -0.374385 2.6976237
-0.35445672 -0.31293225 2.6507359
-0.32337642 -0.32659099 2.6595521
-0.27324855 -0.3279286 2.6741717
-0.22269809 -0.32926172 2.6881557
-0.18541194 -0.32741764 2.6978233
-0.35420102 -0.28717732 2.6507044
-0.32323512 -0.27523637 2.6621568
-0.27307254 -0.27631131 2.6762388
-0.22247973 -0.27733696 2.6892447
-0.18641593 -0.28236228 2.6977499
-0.32293358 -0.223821 2.6628113
-0.27277493 -0.22465165 2.6763921
-0.22215472 -0.2254127 2.6885653
-0.19048975 -0.21311368 2.6982481
-0.35642296 -0.17340663 2.654386
-0.32279107 -0.17257001 2.6640449
-0.27255082 -0.17314957 2.6766717
-0.22196493 -0.17373021 2.6886964
-0.18718982 -0.18075117 2.6988783
-0.3534112 -0.12095777 2.6530099
-0.32239783 -0.12127274 2.662565
-0.27243116 -0.12178621 2.6773262
-0.22179757 -0.1221512 2.6884408
-0.18767233 -0.11866753 2.6986866
-0.35341436 -0.07001061 2.6541991
-0.32237631 -0.070194349 2.6636043
-0.27244085 -0.070492342 2.6785796
-0.22195153 -0.070745446 2.6914589
-0.18586892 -0.07519225 2.6985731
-0.35323635 -0.025413005 2.6533687
-0.32220966 -0.025483595 2.6626976
-0.27216533 -0.025585918 2.6764593
-0.22165458 -0.025667019 2.6883748
-0.19012216 -0.032194499 2.6982632
-0.35878989 0.021885751 2.6536105
-0.32249489 0.019214371 2.6650627
-0.27234215 0.019277714 2.6781273
-0.22199184 0.019344077 2.6924226
-0.19017847 0.025830811 2.6990623
-0.3620699 0.072255127 2.654547
-0.32266036 0.070344195 2.6658549
-0.27240294 0.070565283 2.6781025
-0.22191653 0.070827112 2.6909406
-0.19018751 0.073132433 2.6985791
-0.35781014 0.11686795 2.6537602
-0.32285443 0.12155253 2.6662266
-0.27260417 0.12194829 2.6788399
-0.22191897 0.12229436 2.6897652
-0.19026887 0.12262241 2.6985617
-0.35942149 0.16954842 2.6547074
-0.32308573 0.17282791 2.6662471
-0.27268595 0.17333482 2.6777842
-0.22214624 0.17395295 2.690598
-0.36062911 0.22348872 2.6541553
-0.32328272 0.22416772 2.6653845
-0.27288833 0.22484079 2.6772187
-0.22233307 0.22567779 2.6903152
-0.19060288 0.23271555 2.6985102
-0.36324048 0.27706397 2.6541817
-0.3238079 0.27584031 2.6665182
-0.27337867 0.27672592 2.6788237
-0.22268692 0.27768007 2.6912918
-0.19058698 0.26500961 2.6963282
-0.36545452 0.32397297 2.6542528
-0.32419527 0.32753786 2.6658146
-0.27375564 0.3286531 2.6787281
-0.22309098 0.32995525 2.6924493
-0.18590285 0.33957508 2.6981802
-0.36144799 0.38128489 2.6551871
-0.32491311 0.37975895 2.6672552
-0.27413011 0.37426886 2.6784618
-0.22337985 0.37571725 2.6920526
-0.19125706 0.36322513 2.6983454
-0.36832884 0.42694217 2.6560464
-0.32518819 0.42516145 2.6649957
-0.27469477 0.42029515 2.6795161
-0.22502109 0.42128581 2.6917253
-0.19160207 0.40286481 2.6995604
-0.36846685 0.47803923 2.6537378
-0.32596236 0.4713822 2.6663136
-0.27524251 0.47295901 2.6790926
-0.22423755 0.4747127 2.6922197
-0.19227402 0.4955613 2.6989782
-0.36590728 0.51921749 2.653774
-0.32675958 0.52430904 2.6663008
-0.27596635 0.52618212 2.6797674
-0.22476886 0.52796358 2.6920862
-0.18818682 0.53325629 2.6982234
-0.36314705 0.57347727 2.6541965
-0.32754752 0.57748288 2.665633
-0.2766861 0.57964528 2.6795413
-0.22530274 0.57496816 2.692322
-0.41240644 0.64964879 2.6500182
-0.37448177 0.63598228 2.6529627
-0.32856187 0.62483972 2.667043
-0.27747682 0.62702495 2.6803625
-0.22877049 0.62439078 2.6929376
-0.19359092 0.63025594 2.6992512
-0.37051493 0.67894202 2.6552162
-0.32943279 0.67216468 2.6666238
-0.27804059 0.67412311 2.6783624
-0.23118621 0.67847455 2.6924193
-0.1941423 0.68472123 2.6983519
-0.40113729 0.71116924 2.6526015
-0.37525144 0.72462183 2.6541798
-0.33023107 0.72613162 2.6638236
-0.28088948 0.72620744 2.6788545
-0.22728454 0.72501779 2.6925449
-0.36609268 0.77173555 2.6560905
-0.32502958 0.77510232 2.666595
-0.27817354 0.77413225 2.6806118
-0.22954056 0.77563465 2.6945205
-0.36374548 0.82042527 2.6578665
-0.32112262 0.82587826 2.6685932
-0.27662116 0.8258906 2.6819053
-0.23050465 0.8253969 2.6939447
-0.36620143 0.87857848 2.6547921
-0.32105562 0.87412596 2.6693361
-0.27545357 0.87647998 2.6800795
-0.22974393 0.87563765 2.6929824
0.92176211 0.8774457 2.6746972
-0.37108925 0.92472488 2.6560612
-0.32234409 0.92417973 2.6692708
-0.27354458 0.92536765 2.6813314
-0.22655801 0.92135447 2.6930778
-0.19742525 0.91724527 2.6996241
0.92862207 0.91169369 2.6646938
-0.36737451 0.96948439 2.6554499
-0.32373467 0.97491127 2.6693494
-0.26933181 0.97439569 2.6836286
-0.22955006 0.97687805 2.6949661
0.84879196 0.99102765 2.6977932
0.86794585 0.98586541 2.6740024
0.98296362 0.95215464 2.6609628
-0.36412531 1.0225775 2.655977
-0.32645655 1.0246862 2.6687944
-0.27240482 1.0227929 2.6836178
-0.22589654 1.0254126 2.6935546
-0.1994746 1.0417655 2.6989222
0.8490715 1.0260172 2.6893713
0.86093163 1.0251013 2.6627443
-0.37094828 1.0762693 2.6550703
-0.32501668 1.0757076 2.6682856
-0.27364615 1.0747536 2.6829135
-0.22990343 1.072083 2.6937962
0.84557295 1.0720377 2.6902299
0.85709637 1.0783756 2.6717362
-0.36837319 1.1233188 2.6538997
-0.32811093 1.1234585 2.6683559
-0.2751092 1.1281193 2.6837349
-0.22830358 1.1276795 2.6967292
0.84481347 1.1289842 2.6971631
0.85897386 1.1243628 2.673399
-0.36467025 1.1800729 2.6579282
-0.32764706 1.1677539 2.6678286
-0.27624229 1.1737121 2.6824312
-0.22943524 1.1784939 2.6965511
0.84699029 1.167058 2.6932027
0.86388493 1.1800574 2.6656101
-0.36910006 1.2258469 2.658463
-0.32618263 1.2203947 2.6712108
-0.27781451 1.2216066 2.6847346
-0.2411135 1.2302006 2.6975589
0.86398631 1.2236137 2.6822934
-0.37061232 1.2807349 2.6638589
-0.32482213 1.2759801 2.6768456
-0.27756733 1.2689325 2.6873281
-0.23863782 1.2732707 2.6961803
0.87966567 1.268419 2.6776206
0.90021574 1.2669965 2.6881149
-0.37466553 1.3258271 2.6629152
-0.32231352 1.3243976 2.6785152
-0.27460957 1.32147 2.6930492
-0.24212666 1.3119141 2.6980324
0.92362785 1.3371491 2.6905103
-0.41252133 1.3593386 2.65749
-0.37517649 1.3787701 2.6671457
-0.32386014 1.3734139 2.6822751
-0.28083134 1.3685449 2.6935396
0.91684848 1.3559846 2.6601155
-0.40230468 1.4207968 2.6646366
-0.37636647 1.4272385 2.6675835
-0.32493281 1.4217277 2.6872644
-0.28664994 1.4203942 2.6973329
-0.43746743 1.4876423 2.6523879
-0.3745316 1.4775515 2.671541
-0.32910699 1.4698629 2.6903958
-0.29391995 1.4666094 2.6970272
0.88100564 1.491863 2.6994052
-0.45784593 1.5479646 2.6531711
-0.43539348 1.5227038 2.6581573
-0.3703576 1.524727 2.6784339
-0.32420242 1.5253904 2.6903815
-0.2960791 1.5273423 2.6963518
-0.46373358 1.5734104 2.6531208
-0.43264797 1.5738811 2.6702623
-0.37760684 1.5735183 2.6787579
-0.33576313 1.5794489 2.6965804
-0.46906701 1.627018 2.6593022
-0.43609491 1.621381 2.6641624
-0.3758094 1.6214947 2.6871085
-0.32788679 1.6003884 2.6959901
-0.53160089 1.671329 2.6506195
-0.47332498 1.6698788 2.6567349
-0.42142496 1.671898 2.6717544
-0.37498707 1.6753442 2.692843
-0.34717974 1.6963259 2.6991651
-0.52124316 1.7210932 2.6558244
-0.48005396 1.7219152 2.6669478
-0.42737985 1.7232522 2.6823506
-0.38211301 1.7312034 2.6977074
-0.55475193 1.7714256 2.6533399
-0.52565366 1.7724227 2.6594889
-0.47266906 1.7733685 2.6777744
-0.42454022 1.7745507 2.6881487
-0.38952717 1.7776136 2.6947274
-0.56731462 1.8143202 2.6529369
