ply
format ascii 1.0
comment PCL generated
element vertex 1526
property float x
property float y
property float z
element camera 0
property float view_px
property float view_py
property float view_pz
property float x_axisx
property float x_axisy
property float x_axisz
property float y_axisx
property float y_axisy
property float y_axisz
property float z_axisx
property float z_axisy
property float z_axisz
property float focal
property float scalex
property float scaley
property float centerx
property float centery
property int viewportx
property int viewporty
property float k1
property float k2
end_header
1.0748128 0.58245724 1.9183739
1.1288602 0.57859117 1.9299997
1.17743 0.56027681 1.9243939
1.2156183 0.55751216 1.9310989
1.2702856 0.55832434 1.9461766
0.99273121 0.62354922 1.9331617
1.0250562 0.62840503 1.9244272
1.0701789 0.62303877 1.933376
1.1120949 0.6278674 1.9446713
1.0244088 0.67106932 1.9303752
1.0763199 0.67357624 1.9401448
1.114839 0.66017222 1.9478751
1.032159 0.70416957 1.9374794
1.0843971 0.70027167 1.9411156
-1.5903906 0.83869088 1.9267364
-1.5856414 0.91950864 1.9132391
-1.5812714 1.0329838 1.9087807
-1.5849013 1.1039176 1.9068408
-1.5199827 -0.55114341 1.976685
-1.4789554 -0.55944967 1.9705899
-1.4287356 -0.57176322 1.9725454
-1.3854353 -0.58489931 1.9595244
-1.561223 -0.52279526 1.9698602
-1.5632348 -0.4746708 1.9786836
2.2746897 -0.48397663 1.9549035
2.3170445 -0.47641075 1.9689643
-1.5743454 -0.41957968 1.973227
2.295892 -0.42176116 1.9988151
2.3195128 -0.41422415 1.9700618
-1.5786102 -0.38484156 1.9734423
2.3235745 -0.37566537 1.9776797
2.3652086 -0.3694123 1.9661776
-1.5777134 -0.32018253 1.9704832
2.1082385 -0.3498095 1.9862018
2.338213 -0.32049191 1.9881043
2.3554807 -0.31998283 1.9649481
-1.5836318 -0.27532512 1.9834878
2.085412 -0.26250005 1.9757938
2.3437254 -0.27242661 1.9861321
2.3561933 -0.2722418 1.9714738
-1.5927681 -0.24229622 1.9986392
2.3243232 -0.23300874 1.9887651
-1.5887132 -0.19555146 1.9976352
1.9276882 -0.17190486 1.9695909
-1.5709742 -0.12403382 1.9580405
1.9360752 -0.11070511 1.9819127
1.9598054 -0.11990086 1.9901595
-1.5757097 -0.056273125 1.9664822
1.9238937 -0.079191521 1.9706384
1.9681867 -0.080544889 1.9925166
-1.5854895 -0.028025242 1.9791213
1.8186769 -0.023165789 1.9522496
1.9362779 -0.03014233 1.9844385
1.9605817 -0.042787306 1.9858029
-1.5796049 0.020455852 1.9717689
1.8173162 0.04845861 1.9503213
1.8817927 0.025015235 1.9512177
1.9357919 0.021396674 1.9839511
-1.5808707 0.074562609 1.9722455
1.8214455 0.078477874 1.9538684
1.9398383 0.069080874 1.9870965
-1.5844748 0.12609556 1.9745232
1.8159413 0.12423936 1.9532795
1.8881434 0.13454823 1.953741
1.9321377 0.11845416 1.9827988
1.9616544 0.13224992 1.9948575
-1.5872169 0.17784645 1.9746473
1.7891463 0.19121696 1.9567658
1.813525 0.17995137 1.9505813
1.9254165 0.19237369 1.976547
1.9768763 0.15170577 1.9974195
-1.5833538 0.22304119 1.9659718
1.7885971 0.23878188 1.9516147
1.8245307 0.21869047 1.9514779
1.9214818 0.2232379 1.9765736
1.9571786 0.22004309 1.9952102
-1.584288 0.27459756 1.9616826
1.7946097 0.27942073 1.953496
1.8135295 0.27051216 1.9528027
1.9292732 0.27425084 1.9838346
1.9662268 0.26510787 1.9997255
-1.6030276 0.34966737 1.9979296
-1.5867789 0.33791938 1.9566162
1.8294611 0.32678872 1.9569945
1.8882116 0.33745652 1.9553286
1.9340698 0.3247712 1.9821497
1.9750265 0.34215337 1.9985296
1.6932375 0.38799721 1.9567552
1.7630799 0.38383693 1.9710923
1.8268695 0.35102424 1.9563459
1.8849007 0.38365784 1.9817603
1.9328581 0.36987689 1.9916959
1.9535158 0.37205857 1.9953175
-1.6046 0.42574292 1.9875618
0.90823257 0.44794461 1.9618284
1.3945171 0.44225508 1.9564523
1.4237021 0.42629394 1.9610752
1.4750726 0.43448639 1.9884154
1.8929266 0.42355013 1.9929832
1.9119425 0.42503968 1.9895173
-1.6010846 0.45387796 1.9778485
-1.5934972 0.4690651 1.9650657
0.91297185 0.47699967 1.9781458
1.3336873 0.48902774 1.954162
1.3752764 0.48093948 1.9600432
1.4242533 0.4746407 1.975467
1.4661281 0.47502655 1.9910817
1.9188858 0.46682304 1.9977984
-1.6001782 0.53886294 1.9818457
0.91721505 0.53024793 1.9730628
1.2972256 0.52253985 1.9512401
1.322839 0.52100712 1.9527426
1.3745233 0.5261541 1.9667107
1.421629 0.52741045 1.9791441
1.4699894 0.52253705 1.9965125
1.9211751 0.51711893 1.9965578
-1.6035058 0.55758989 1.9818615
-1.5934649 0.58320636 1.9623371
0.92761874 0.5607478 1.9665551
1.1722201 0.58909202 1.9548448
1.2271116 0.59004277 1.9675809
1.2769383 0.58795661 1.978472
1.3172337 0.5739736 1.975072
1.3692014 0.56309795 1.9760376
1.4231648 0.55282086 1.9759229
1.9281976 0.57714552 1.9981396
-1.5963713 0.60034901 1.9854193
0.98640674 0.62376499 1.9812156
1.1321907 0.62235314 1.9529023
1.1748111 0.62640041 1.959965
1.2267692 0.62780601 1.9772892
1.2756263 0.62474447 1.9887555
1.3147167 0.61909485 1.9964886
1.9112756 0.64747953 1.9975078
-1.6078708 0.66984284 1.9820387
-1.5909588 0.69211125 1.9526085
0.99108833 0.67219323 1.9824415
1.0052727 0.68276423 1.960277
1.1268175 0.67817962 1.9604397
1.1705745 0.67501497 1.9732727
1.2325112 0.66213864 1.9886448
1.2652304 0.66219449 1.996057
1.407513 0.651411 1.9990121
1.9348769 0.65753651 1.9962904
-1.6085796 0.72086781 1.992189
0.99892378 0.70353162 1.986845
1.0649593 0.71205413 1.9503944
1.1284001 0.70748496 1.9736305
1.165441 0.71332771 1.9913055
1.9283047 0.72283345 1.99687
-1.6050622 0.75108445 1.9778475
1.9122001 0.78249675 1.9943546
1.9223827 0.83575463 1.9962071
1.9508336 0.84496361 1.9914954
1.9234976 0.87172949 1.9963602
1.9244179 0.92579126 1.9948851
1.9147304 0.96655953 1.9930742
1.9225757 1.0132904 1.9964763
1.9289564 1.0699271 1.9974366
1.9508615 1.0949606 1.9950556
1.9197216 1.1273624 1.9957764
1.9219313 1.164337 1.994797
1.9264393 1.2351991 1.9984335
1.9285785 1.2771646 1.9936471
1.9548532 1.284052 1.9911568
1.918951 1.3247361 1.9971002
1.9152156 1.3676929 1.988085
1.9782689 1.385148 1.9973497
1.9241488 1.4246161 1.9898361
1.8968492 1.459426 1.991442
1.9109029 1.4701287 1.9847928
1.9208267 1.5291296 1.9909779
1.9188288 1.5788412 1.9824101
1.9113891 1.6186366 1.9947338
1.8967819 1.6599144 1.9945562
1.9079412 1.6643891 1.9756713
1.9131523 1.710201 1.9874746
-1.5682712 -0.55261719 2.0193925
-1.5236561 -0.55805224 2.0270991
-1.4812077 -0.56764364 2.0235066
-1.4296314 -0.58399487 2.0147846
-1.578758 -0.5251388 2.0231259
-0.017334539 -0.51624531 2.039149
-1.583123 -0.4742164 2.0305488
-0.010686823 -0.48154005 2.0377016
0.0025246909 -0.48659879 2.0446069
2.3067274 -0.45252371 2.0159175
2.3844733 -0.46357942 2.0447023
-1.6031818 -0.42066869 2.0335588
-1.5931406 -0.42784926 2.0191216
2.2920859 -0.41992566 2.0300534
2.3127456 -0.43859765 2.0109835
2.3867271 -0.44591856 2.0105622
-1.6049259 -0.36198661 2.0312686
-1.5982599 -0.38311899 2.0255821
2.2897139 -0.37782076 2.0291395
2.3057125 -0.3680239 2.0079262
-1.607623 -0.3227616 2.0309646
2.2918432 -0.32309219 2.0362122
2.3100483 -0.31932658 2.0127413
-1.6054733 -0.27537662 2.0338521
2.1542895 -0.26948613 2.0163288
2.2978401 -0.27359527 2.0477858
2.3194652 -0.27284312 2.0158784
-1.6100535 -0.22906028 2.0443602
-1.5938039 -0.21932037 2.00208
2.1622205 -0.23730654 2.027292
2.2961061 -0.24593371 2.0492349
2.308362 -0.23133494 2.0232227
2.3762097 -0.23393403 2.0051808
-1.5978262 -0.16766143 2.0111752
1.981205 -0.17553496 2.0006244
2.1540573 -0.19813415 2.0480299
-1.6041533 -0.1042956 2.0226259
-1.5977068 -0.12707488 2.0134208
2.0257704 -0.11147831 2.0160184
2.0801477 -0.11616382 2.0391185
-1.6100295 -0.075478628 2.0310237
2.0285013 -0.073761724 2.0217564
2.0799565 -0.069362104 2.0422738
2.1224465 -0.051687028 2.0499263
-1.6065122 -0.028638296 2.0275092
1.9875425 -0.018107368 2.0134072
2.0206888 -0.024684889 2.0229609
2.058234 -0.024942756 2.036299
-1.6119928 0.0239258 2.0343959
1.975441 0.018446069 2.005729
2.0258794 0.020098586 2.0281119
2.0729496 0.023194997 2.040287
-1.6093147 0.076436371 2.0299177
1.9829463 0.070178084 2.0075872
2.0240498 0.071258068 2.0251968
2.0674336 0.068280064 2.0394733
-1.6065769 0.12492587 2.0244296
-1.5986898 0.1165723 2.0149209
1.9801316 0.12059817 2.0084221
2.0294931 0.12273385 2.0284266
2.0684855 0.12215591 2.0431287
-1.6078835 0.17384954 2.0268147
1.9779224 0.17488265 2.0061719
2.037339 0.17463587 2.0329084
2.0758889 0.19645604 2.045361
-1.6061703 0.22790021 2.016449
1.9892709 0.22256854 2.010031
2.0358558 0.23015483 2.031291
2.081775 0.23623696 2.0474796
-1.6080992 0.27411056 2.0186493
1.9763225 0.27492276 2.0089345
2.0158014 0.27648216 2.02526
2.0624545 0.26534864 2.0413072
-1.6140797 0.32276314 2.0157533
1.9735106 0.31398445 2.0069606
2.0318558 0.32870001 2.0298991
2.0644729 0.31836286 2.0448649
-1.615821 0.38177976 2.0093799
1.8446989 0.39139682 2.0282202
1.8665279 0.39281034 2.0121143
1.9845803 0.37672138 2.0149903
2.0145423 0.37398815 2.026376
2.0588992 0.3754698 2.0471444
-1.6291561 0.43541282 2.0406961
1.8718369 0.42368537 2.0221424
1.9490297 0.42414224 2.0055385
1.9687099 0.4266175 2.0097678
2.020129 0.41669092 2.0280981
2.0609338 0.43345699 2.0475054
-1.6168473 0.47347888 2.0174947
0.88353431 0.46422103 2.0380628
0.90684944 0.47853544 2.0254321
1.4792236 0.4811531 2.0027707
1.5026306 0.47926611 2.012984
1.8844279 0.47114196 2.0223198
1.9360404 0.49355522 2.0018802
1.9817263 0.48107886 2.0169361
2.0322986 0.47573596 2.0344071
2.0664105 0.46747017 2.0465918
-1.6188567 0.52544028 2.0153155
0.91661793 0.52015877 2.0222101
1.4841805 0.52346766 2.0103819
1.8906776 0.52211934 2.0266049
1.9242898 0.53011012 2.0051184
1.977403 0.52654308 2.0147476
2.0201416 0.52795786 2.0352883
2.0584104 0.5204885 2.0458851
-1.6209822 0.57375062 2.0247924
0.93092966 0.56984419 2.0175569
0.97294605 0.5940764 2.0108204
1.3383971 0.59525752 2.0005682
1.3605442 0.59090441 2.0048833
1.4069438 0.59184796 2.021044
1.4702382 0.55469173 2.0034146
1.894455 0.57867569 2.0312512
1.9157639 0.57653421 2.0049267
1.9793491 0.57470453 2.015208
2.0213418 0.58126342 2.0300636
2.0571575 0.56053245 2.0416641
-1.6177316 0.63224274 2.0057468
0.9803111 0.62530518 2.0200694
1.3378053 0.62914836 2.0062971
1.3786348 0.62140995 2.0159342
1.411864 0.62939888 2.0217097
1.8897179 0.62967891 2.0235574
1.9239652 0.62419671 2.0058169
1.9733015 0.62496704 2.015573
2.0102351 0.6265381 2.025315
2.0616696 0.63264579 2.0450459
-1.6325376 0.67302257 2.0390441
0.97805083 0.67801195 2.0255365
1.2490594 0.68525833 2.024188
1.2809347 0.67894053 2.0186501
1.3234757 0.66808802 2.0205033
1.3704362 0.66701585 2.0340788
1.4079504 0.65964091 2.034091
1.8886914 0.67301935 2.0364792
1.9158894 0.68037599 2.0057759
1.9719274 0.67778933 2.009141
2.0240707 0.67790234 2.0323887
-1.6350842 0.73051029 2.0340526
0.97224873 0.70439863 2.0386724
1.0007924 0.71628273 2.0289617
1.2023852 0.70013428 2.0123773
1.264647 0.70517588 2.046344
1.8948836 0.7254864 2.0312135
1.9085701 0.71861488 2.0059557
1.9751393 0.73191303 2.0128813
2.0137923 0.72372299 2.0266016
2.0537775 0.7333377 2.0417984
-1.6344303 0.77053446 2.0374413
1.8945342 0.77289069 2.0284505
1.9250811 0.77826709 2.0065706
1.9710511 0.77639592 2.0131187
2.0226281 0.77564746 2.0327928
2.0565717 0.76101899 2.0360162
1.8946296 0.8253842 2.0300446
1.9122725 0.81680006 2.0084658
1.9723345 0.8231619 2.0140562
2.0299027 0.82299995 2.0314443
2.0539756 0.80522984 2.044956
1.8938174 0.87167388 2.0253491
1.9162053 0.87961805 2.0030274
1.9696199 0.88406861 2.0055494
2.0144162 0.86827451 2.0252585
2.0672419 0.86628842 2.0471847
1.8942014 0.92690039 2.0245175
1.9024771 0.91156107 2.0139802
1.9817722 0.92571121 2.0172682
2.0312433 0.94429767 2.0345709
2.0621142 0.93194675 2.0482368
-1.6761923 0.98567033 2.0441051
1.8919077 0.97483855 2.0292239
1.9072702 0.98251474 2.0042195
1.9795278 0.98027658 2.017143
2.0328567 0.97529745 2.0377157
2.0635571 0.97666216 2.0457859
2.7334497 0.98477501 2.0432708
1.8954948 1.0263206 2.0301421
1.9180444 1.0320926 2.0053906
1.9749315 1.0192977 2.0118139
2.0037484 1.0214798 2.0105388
-1.6816107 1.0602112 2.0476079
1.8939739 1.0757414 2.0292988
1.9187247 1.0740278 2.0029118
1.9837127 1.0703244 2.0128956
2.014787 1.0723685 2.0200303
-1.6753305 1.1220171 2.0378206
1.8904358 1.1156114 2.0296295
1.9158198 1.1263591 2.0102723
1.9839565 1.1245666 2.0138819
2.0178478 1.1037052 2.0189009
1.8952583 1.1712465 2.0380766
1.910408 1.1729352 2.0187213
1.9731781 1.1762682 2.0130894
2.0198638 1.1698285 2.028219
1.8936949 1.2306832 2.0370564
1.9165767 1.221413 2.0169253
1.9793291 1.2168522 2.0103149
2.0275459 1.2212771 2.0320954
1.8928146 1.2725761 2.019387
1.9055974 1.2738924 2.0034704
1.9757433 1.2657278 2.0146029
2.0089593 1.25993 2.0173104
-2.2205336 1.3477925 2.0437286
1.8944696 1.3203186 2.0321643
1.9139267 1.3326681 2.0079319
1.9679145 1.326333 2.0061018
-2.5000474 1.3845538 2.0138545
-2.4652131 1.3736591 2.0112693
-2.4297986 1.3903427 2.039053
-2.3752031 1.3719796 2.0318818
-2.3292263 1.3539673 2.0182304
1.8928585 1.3744518 2.0285292
1.9754639 1.3623098 2.0065875
2.0187976 1.3825042 2.0245562
-2.5217416 1.4363879 2.0421581
-2.4788189 1.4129782 2.0369477
-2.438086 1.4225538 2.0475478
1.8908777 1.4222901 2.0233152
1.9039016 1.4060025 2.0026524
-2.5049119 1.4590447 2.0429034
-2.4845622 1.4639956 2.0483739
-2.4464321 1.4505656 2.0428245
1.890746 1.47777 2.0192926
1.9765615 1.4718531 2.0065939
-2.4908051 1.5114235 2.0466371
1.8890495 1.5193676 2.0267692
1.9164532 1.5215154 2.0043027
-2.4695656 1.5519263 2.0478325
1.892673 1.5751154 2.0354233
1.9022304 1.5703596 2.0172837
1.891641 1.6259661 2.0259891
1.9031479 1.6105033 2.0037508
1.8933185 1.6721405 2.0325089
1.9019464 1.6985985 2.0114894
1.8952298 1.7126982 2.0256655
1.9034759 1.7143859 2.0032828
1.9044244 1.777918 2.0409336
-1.5780489 -0.55253625 2.0807481
-1.5265013 -0.56487751 2.0776112
-1.4752896 -0.58183229 2.0739934
-1.4367573 -0.59405935 2.0593226
-1.1925688 -0.58610171 2.0871468
-1.5854053 -0.52343154 2.0699284
-0.017479574 -0.5101763 2.0563381
2.5761857 -0.50400651 2.0964277
2.6048419 -0.50964952 2.0739689
-1.6066487 -0.45593295 2.0789955
-1.5924617 -0.47540307 2.0740814
-0.017424535 -0.49146369 2.0540636
2.6261473 -0.49286088 2.0857337
-1.6128578 -0.42657092 2.0788338
-1.6203756 -0.38244051 2.0903444
2.2815146 -0.36378363 2.0778854
-1.6194669 -0.33036077 2.0761156
2.2798083 -0.32261142 2.0791876
-1.6204468 -0.27402911 2.0762134
2.2434924 -0.27208927 2.0750082
2.2954876 -0.27497134 2.0713165
2.3003697 -0.27389234 2.0500803
-1.6271476 -0.22120668 2.0899782
2.1890802 -0.20009828 2.0561991
2.2462931 -0.23823339 2.0812111
2.2769551 -0.22552767 2.0721834
2.3117986 -0.23478122 2.0817909
2.3606153 -0.20859316 2.0715537
-1.6227534 -0.17497632 2.0734932
2.1664429 -0.16023217 2.0878141
-1.618578 -0.12756856 2.0669279
2.1227901 -0.13815847 2.0716338
2.1739445 -0.12667109 2.0843029
2.2244513 -0.12837963 2.0944324
-1.6188269 -0.07662148 2.072253
2.1316636 -0.069784492 2.0664852
2.1804335 -0.076364785 2.0863142
2.2151697 -0.053236943 2.0884402
-1.6196754 -0.032724518 2.0711942
2.1235108 -0.022810359 2.0660565
2.1782169 -0.029234013 2.0851846
-1.6230819 0.027704464 2.0774772
2.1343939 0.014276593 2.0679634
2.1598616 0.027768139 2.0863497
2.2255826 0.0010437294 2.0987597
-1.6192632 0.077508271 2.0650024
2.0981927 0.066403024 2.050344
2.1190319 0.08691977 2.0700221
2.1709144 0.076322548 2.0907741
-1.6239892 0.12518886 2.0690846
2.0813 0.13161275 2.0553594
2.1207514 0.12661913 2.0698168
2.1771269 0.12451354 2.0913131
-1.6276443 0.17485678 2.0799778
2.0823481 0.1709127 2.0537882
2.1180892 0.17280309 2.064234
2.1698375 0.1759285 2.0894463
-1.6297705 0.22181793 2.0813017
2.0881157 0.21729042 2.055635
2.134007 0.22065745 2.0757871
-1.6336421 0.27099484 2.0798268
2.0870008 0.27657554 2.054302
2.1438642 0.26184297 2.0812762
2.1672959 0.28438893 2.0931828
-1.6356174 0.32792285 2.0756326
2.0973146 0.30386436 2.0550883
2.1244657 0.33733889 2.0712452
2.1700568 0.32249495 2.0892832
-1.6505059 0.38962784 2.0996749
-1.6349463 0.37003064 2.0666411
2.0864789 0.38331428 2.0574052
2.1322424 0.37593508 2.0795598
2.1642888 0.37922749 2.0854647
-1.6421779 0.42135143 2.0769
1.8399987 0.42478919 2.0810339
1.8573604 0.4344475 2.0591249
2.087774 0.40994489 2.0542164
2.125834 0.4227705 2.0778232
2.166738 0.42934126 2.0895772
-1.6327028 0.47803503 2.0712056
0.88698292 0.47967482 2.0727005
0.90215951 0.4898622 2.0641477
1.8497562 0.45605084 2.0827551
1.8635424 0.47680104 2.0681198
2.0893486 0.48440093 2.0541422
2.1138222 0.47445214 2.0620933
2.1786199 0.47157434 2.0960701
-1.6363772 0.52458209 2.0701036
0.89666659 0.52207917 2.0741937
0.90419042 0.51719439 2.067049
1.5390112 0.53222454 2.0533471
1.867263 0.52806723 2.0709527
2.0967634 0.53437328 2.0637538
2.1401587 0.52849799 2.0841265
2.1786351 0.527771 2.0974698
-1.6346437 0.58128291 2.0759664
0.93214083 0.56941605 2.0771806
0.96817833 0.59685946 2.0688224
1.8740909 0.57548892 2.0734012
2.0891266 0.57409632 2.0592244
2.132894 0.57660687 2.0757234
2.1909461 0.59268981 2.0947764
-1.6403552 0.62692934 2.0725944
0.9754827 0.62507421 2.0793393
1.8752422 0.62269324 2.0755064
2.081444 0.61477143 2.0601895
2.1244721 0.62929761 2.0692453
2.1661439 0.61700803 2.0896034
2.2457361 0.62789917 2.0876858
2.2523668 0.61577713 2.0974786
-1.6534603 0.69292897 2.0872028
-1.6373593 0.66167253 2.0735655
0.94935131 0.6936723 2.0902076
0.96816003 0.67279613 2.0783095
1.3997849 0.67561376 2.0540466
1.8785827 0.67751837 2.0773201
2.0779712 0.66918445 2.0545917
2.1095121 0.66259217 2.070684
2.1929028 0.68706787 2.0983891
-1.6514711 0.70444798 2.0812018
-1.644991 0.72902203 2.0777628
0.95799452 0.70662385 2.0777814
1.3126385 0.70125294 2.0543301
1.878484 0.72298515 2.0793555
2.0817957 0.7087757 2.0625105
2.1263697 0.72957462 2.0796437
-1.650586 0.7757017 2.0840743
-1.6454513 0.78155982 2.0750258
1.8787622 0.77316028 2.0744109
2.0870051 0.78581995 2.0616601
2.1217 0.76477212 2.0707285
2.1544566 0.78020108 2.0832758
2.7202387 0.78579104 2.0933273
-1.681581 0.83679616 2.0815845
1.8795967 0.8243925 2.0714281
2.0879908 0.81328291 2.0534015
2.1262062 0.82503712 2.0761542
2.1747181 0.80841708 2.095937
2.7314053 0.82800657 2.090749
-1.708997 0.89517689 2.0996461
1.8794756 0.87735385 2.0791698
2.1178877 0.88270909 2.0758095
2.7257011 0.87548476 2.0857778
1.8849428 0.92421424 2.0714049
2.0781147 0.91760105 2.0679176
2.1280591 0.92953366 2.0742495
2.7321935 0.92191476 2.0796802
2.7530236 0.94464439 2.0734475
-1.7033722 0.95670933 2.0954888
-1.6961532 0.98283958 2.0837486
1.881942 0.97176087 2.0800025
2.0926909 0.95643365 2.0602603
2.1306317 0.99480355 2.0890136
2.1625712 0.9890309 2.0997851
2.2045546 0.9668743 2.0989566
2.7325559 0.97309202 2.0781691
-1.7079694 1.0379103 2.0968363
-1.6997914 1.0458515 2.0812054
1.8825476 1.0249391 2.0763662
2.0734897 1.0361778 2.0607421
2.1174288 1.0337694 2.0712676
2.1625991 1.0314183 2.0820892
2.7330081 1.0245566 2.07164
-1.6967 1.066552 2.0865014
1.8821119 1.0703688 2.0714982
2.0867531 1.0706432 2.0616019
2.1229546 1.0767937 2.0807743
2.1620498 1.073442 2.0924101
2.730088 1.0767865 2.079056
-1.704639 1.122076 2.0827923
1.8828526 1.1225742 2.076874
2.0851283 1.1328915 2.0601306
2.1242177 1.1085421 2.0703733
2.1567862 1.1421123 2.0844867
2.727627 1.1297567 2.08605
-1.6926556 1.1684384 2.0713739
1.8840425 1.174813 2.0700705
2.0894208 1.1741707 2.0604486
2.1100922 1.188917 2.0642717
2.7291036 1.1655403 2.0882616
1.8893493 1.2273059 2.0760899
2.0721474 1.2256052 2.0578623
2.1044633 1.2363522 2.0636139
2.727365 1.2197165 2.0945697
1.8873973 1.2742829 2.0766056
2.1213002 1.2677417 2.069062
2.7161274 1.2539603 2.0994959
1.8852346 1.321358 2.0732954
-2.3654051 1.3945308 2.0549538
-2.3148243 1.3823322 2.0632405
-2.2689428 1.3872153 2.0830142
-2.2207403 1.3927562 2.0984063
-2.1719968 1.3640175 2.082834
-2.071455 1.3558972 2.0959427
1.880623 1.3743271 2.0818481
-2.4770651 1.4440471 2.0500121
-2.4165587 1.4332583 2.0605881
-2.3707156 1.4295866 2.0741625
-2.3200049 1.4306101 2.0848861
-2.2940633 1.4105115 2.0858576
1.8794565 1.4282113 2.0716257
-2.4760151 1.4915183 2.0555055
-2.4274118 1.4769638 2.0693049
-2.3732896 1.4768525 2.0770302
-2.3255122 1.4757276 2.0896742
1.8830482 1.4752314 2.067605
-2.464113 1.5250404 2.055624
-2.4281185 1.5246873 2.0701098
-2.3747993 1.5299382 2.07933
-2.3305876 1.5239404 2.0909817
1.8800174 1.5237614 2.0732305
-2.4571736 1.5730219 2.0640409
-2.4294651 1.5730429 2.0775638
-2.3701463 1.5742449 2.0813365
-2.3197694 1.5746003 2.095423
-2.2937896 1.5901053 2.0988846
1.8806056 1.5747554 2.0733244
-2.4720373 1.6210386 2.0770712
-2.424778 1.6247066 2.0767601
-2.3741229 1.6212075 2.0860052
-2.3400707 1.6234621 2.0959418
1.8812245 1.627285 2.0772703
-2.4204621 1.6738262 2.081883
-2.3869698 1.6767234 2.0926752
1.8880978 1.6827604 2.0753877
-2.4120007 1.7243867 2.0917521
-2.3794136 1.7260507 2.0987391
1.8848314 1.7258214 2.0748575
-2.4071476 1.7864094 2.0995681
1.8895265 1.7795758 2.0715883
1.8817179 1.8130915 2.0772872
2.2780995 1.8404299 2.0970626
2.3128705 1.849309 2.0886676
2.2873001 1.8653432 2.0772531
-1.4263418 -0.60449475 2.1148143
-1.3847325 -0.6105209 2.1298842
-1.3093624 -0.60890913 2.136641
-1.2920237 -0.60627836 2.1328685
-1.573298 -0.55823833 2.1290746
-1.515179 -0.5741421 2.1327996
-1.4685793 -0.58852482 2.1257484
-1.4334002 -0.59805983 2.1400278
-1.2252332 -0.59067827 2.1291029
-1.172537 -0.58856833 2.1275046
-1.1301105 -0.59182066 2.137989
-1.6031839 -0.51852024 2.1227117
-1.5949658 -0.52925152 2.1319304
-0.038298082 -0.51114523 2.1029377
-1.6170813 -0.47007185 2.1339293
-1.5941428 -0.49556336 2.1025538
2.5778713 -0.49089789 2.1140947
2.6221583 -0.47553816 2.1296239
2.6719189 -0.47161829 2.1343594
-1.6202106 -0.42607036 2.1222527
2.5985732 -0.40343863 2.1327753
2.6236632 -0.43760973 2.1485622
2.6743433 -0.43005139 2.143255
-1.6274104 -0.37153235 2.1282389
2.6815865 -0.38090512 2.1496506
-1.6295649 -0.32044664 2.1196814
2.6745999 -0.34939992 2.1481609
-1.6333658 -0.2757059 2.126369
2.3084953 -0.27125964 2.1097534
2.5868731 -0.28220809 2.1387291
-1.6323284 -0.22010072 2.1279421
2.2988887 -0.20883048 2.1331267
2.3253553 -0.22820474 2.1209259
2.3556535 -0.21071222 2.1194694
2.5114741 -0.21860297 2.135586
-1.6333688 -0.17728423 2.1246927
2.2262559 -0.16310211 2.1068964
2.3232477 -0.15398902 2.1465559
-1.6353806 -0.1239437 2.1202946
2.2910974 -0.12445351 2.1314223
2.3298066 -0.12574084 2.1410356
2.3546436 -0.11213748 2.1380472
-1.6358027 -0.07818789 2.1248
2.2229834 -0.076325238 2.103627
2.2787299 -0.076706037 2.1269023
2.3139832 -0.054886892 2.1289737
2.3613071 -0.091144636 2.1449289
-1.6384062 -0.027217334 2.1269259
2.2445626 -0.01958332 2.1166043
2.2723689 -0.040554963 2.1295466
2.3174984 -0.024191948 2.143065
2.3581541 -0.027202785 2.1434917
-1.6377723 0.021781826 2.1273232
2.2214458 0.024464058 2.1091297
2.2936568 0.0080765532 2.1367488
2.324753 0.024616906 2.1478889
2.3636324 0.0011685585 2.1485703
-1.6384566 0.079251513 2.1241643
2.2224579 0.069322571 2.1098807
2.2713401 0.079708666 2.1316979
2.303071 0.092243746 2.1436558
-1.6344655 0.1274123 2.1170058
2.2071886 0.13706157 2.1026382
2.2800534 0.12638696 2.1335258
2.3202553 0.12750217 2.1317227
-1.6402731 0.17659158 2.125561
2.1861777 0.17727572 2.1051412
2.2214487 0.17061737 2.1088665
2.2667251 0.17437086 2.1244159
2.3164284 0.19856514 2.1496725
-1.6513799 0.23336941 2.1434078
-1.6430534 0.21997172 2.1336632
2.1933389 0.22546005 2.1079738
2.2276521 0.22598009 2.1101887
2.2731509 0.22397462 2.1329572
2.316896 0.23317975 2.1337743
-1.6444346 0.27833772 2.1251616
2.1921225 0.27293319 2.1018112
2.2411699 0.27734968 2.1229436
2.2772105 0.28005648 2.1309397
-1.6444432 0.31981078 2.1203647
2.2168489 0.31653014 2.111737
2.2747664 0.33395147 2.1374717
2.3312335 0.32761648 2.1495295
-1.6526191 0.37794998 2.1042016
-1.6462107 0.37170869 2.1307523
2.2240889 0.37356308 2.1193929
2.2830777 0.3716647 2.1399958
2.3096898 0.38314459 2.1478081
-1.6545208 0.43351355 2.1460998
-1.6412495 0.42384723 2.1138496
1.8294998 0.44134477 2.1279099
2.2366247 0.42413104 2.1232755
2.2779856 0.42930028 2.1361902
2.3408039 0.41448459 2.145366
-1.6443992 0.47069156 2.1178923
0.87280214 0.49177766 2.1252062
1.8415309 0.47218609 2.1261611
1.852461 0.48536465 2.1048322
2.1895828 0.47392476 2.106688
2.2208602 0.47035393 2.1078677
2.2754023 0.46957946 2.1351469
2.3050232 0.49839512 2.1494608
2.7013807 0.48725688 2.1469383
-1.645908 0.52553284 2.1296823
0.88196826 0.52417552 2.1314881
0.90349448 0.53740358 2.1026998
1.840839 0.52118284 2.1333528
1.8537536 0.52584267 2.1104703
2.180166 0.50759423 2.1034131
2.2209706 0.52077866 2.1152503
2.2812791 0.53079921 2.1395502
2.3365681 0.51646829 2.1491272
2.7046959 0.52645236 2.1422603
-1.6532515 0.58592236 2.1391428
-1.6463935 0.56941342 2.1234679
0.88751757 0.5650233 2.1432137
0.91478616 0.56668061 2.1126144
0.95876366 0.59360391 2.1053617
1.8430159 0.57526529 2.1367335
1.858101 0.56835461 2.1103661
2.1979671 0.56696129 2.1081481
2.2312939 0.5692187 2.1146247
2.2654083 0.57717323 2.1200652
2.7066834 0.57323807 2.1343725
-1.6501161 0.6345495 2.1232417
-1.644677 0.62447876 2.1307886
0.96123123 0.62433308 2.134279
1.846553 0.61733925 2.1438599
1.857693 0.62899953 2.1204917
2.1893041 0.62364584 2.1119769
2.2274964 0.62436205 2.108654
2.2728467 0.62842029 2.1146364
2.7094765 0.62497818 2.132365
-1.6518855 0.68260032 2.1217203
-1.6467215 0.6685096 2.1249793
0.94612664 0.69035894 2.1210792
0.96205288 0.66470748 2.1273203
1.8592552 0.67356819 2.1217794
2.1709018 0.6844734 2.1030545
2.2202678 0.67145741 2.1108639
2.2880392 0.67943311 2.1439106
2.7150042 0.67403811 2.1304035
-1.6455071 0.71644074 2.1153102
0.94499004 0.71248233 2.1359963
0.96925241 0.72696096 2.1292973
1.8498042 0.70794272 2.1499176
1.8598019 0.72775787 2.1281352
2.179806 0.70808274 2.1056502
2.2166142 0.73182178 2.1238084
2.2742317 0.71371549 2.1384852
2.6996999 0.73417842 2.1467335
2.7133803 0.72749412 2.1194682
-1.6536279 0.78177989 2.1256664
-1.6485748 0.75767469 2.1127448
1.0173957 0.75262594 2.1443126
1.8616155 0.77199864 2.1226311
2.1938393 0.76848233 2.1020436
2.2190104 0.76625705 2.1202717
2.2659924 0.77278394 2.139993
2.3412776 0.75631279 2.147644
2.709316 0.7751199 2.1259525
-1.6876336 0.82703394 2.1199374
1.861755 0.8247059 2.1265912
2.2183521 0.82116485 2.1202991
2.2688425 0.82691681 2.1419024
2.7111034 0.8299107 2.1214602
-1.7082405 0.87141591 2.1250896
1.863023 0.87126559 2.1223361
2.1778641 0.88680315 2.1090753
2.2291038 0.8719843 2.1237392
2.2750313 0.87038058 2.1358836
2.7114575 0.87675041 2.1321714
-1.7128744 0.92567539 2.130338
1.8659939 0.92317182 2.1242726
2.2187309 0.92508709 2.123771
2.2578776 0.92318022 2.1317675
2.3230038 0.92424542 2.1486104
2.7138317 0.93281192 2.1251874
-1.7141458 0.97003692 2.1337461
1.8676521 0.9731735 2.1255395
2.1920815 0.98896545 2.1048105
2.2268851 0.99102509 2.1144574
2.2605402 0.98511332 2.1253543
2.3350766 0.9900288 2.1464682
2.7099342 0.98024201 2.1239238
-1.7114577 1.025714 2.1261799
1.868633 1.0231197 2.1217225
2.2046525 1.023221 2.1050825
2.2766249 1.0282636 2.1355617
2.7181458 1.0320276 2.1195955
-1.7122303 1.0801874 2.132906
1.8708901 1.0801843 2.1258132
2.2247579 1.0793383 2.1190059
2.2685788 1.0680867 2.1296957
2.330965 1.0869991 2.1469908
2.7132215 1.074623 2.1226609
-1.7134902 1.1259663 2.1198201
1.8715963 1.1290849 2.1266613
2.1827393 1.105237 2.102829
2.2260637 1.1307791 2.1277256
2.2690935 1.1341116 2.1313367
2.3307438 1.1276824 2.1441805
2.7126675 1.1192873 2.1286497
-1.7105263 1.1766845 2.1253846
1.8770719 1.1765883 2.1231406
2.1875708 1.1873736 2.1004899
2.2084012 1.1690692 2.104075
2.2580385 1.1802061 2.1276379
2.3317032 1.1617112 2.1453724
2.7141733 1.1739382 2.1263828
-1.7204795 1.2216773 2.1343002
1.8743339 1.2248081 2.1257432
2.2224855 1.2243152 2.1097422
2.3456578 1.2329552 2.1439614
2.7135167 1.2242661 2.1242082
1.8756272 1.2753848 2.1235654
2.2820888 1.278873 2.1242025
2.3349371 1.2807288 2.1396093
2.7117693 1.2792636 2.129771
-1.9178886 1.3383911 2.1257048
1.8727946 1.3269093 2.1245854
2.2681439 1.3287027 2.1292176
2.3007517 1.316291 2.1439507
2.6985219 1.3169299 2.1462376
2.7089577 1.3276238 2.1315958
-2.1837001 1.3954968 2.1129112
-2.1274109 1.378176 2.1117377
-2.0726447 1.3855019 2.1293623
-2.0174742 1.3678232 2.1260462
-1.9818742 1.3630782 2.1420155
1.8696994 1.3745302 2.1241567
2.337878 1.3990402 2.1468496
2.7107379 1.3746343 2.1433604
-2.2681885 1.4282079 2.1077206
-2.2265222 1.4358575 2.1144557
-2.1728933 1.427768 2.1227603
-2.1266685 1.4216805 2.1352289
-2.0837247 1.430654 2.1469812
1.8658119 1.4210504 2.1201596
2.3109505 1.4073344 2.141396
2.7032604 1.4090991 2.1408339
-2.3027744 1.4834323 2.1052616
-2.2751317 1.4754179 2.1068082
-2.2271125 1.4771107 2.1193702
-2.1773927 1.4773111 2.1292965
-2.12763 1.4762602 2.1440532
1.8694779 1.4762077 2.127825
-2.3067627 1.5013264 2.1004231
-2.277652 1.5277859 2.1067657
-2.2303314 1.5239836 2.1189334
-2.1755812 1.5292847 2.1316204
-2.1275897 1.5211792 2.1457376
1.8662987 1.5249615 2.125648
-2.2791805 1.5698872 2.1078105
-2.2277417 1.5760196 2.1185238
-2.1807461 1.57722 2.1370411
-2.145592 1.5681844 2.1435962
0.91583854 1.5851065 2.1446292
1.8675182 1.5771196 2.1263988
-2.3136678 1.6272726 2.1035099
-2.2740912 1.6289076 2.116668
-2.2210517 1.6261156 2.1302359
-2.1761277 1.6213295 2.1415496
-2.1467106 1.6182897 2.1492107
1.8632691 1.6287988 2.1300015
-2.3692722 1.6753453 2.1038716
-2.3248863 1.6801703 2.1141841
-2.2725468 1.6779741 2.1192307
-2.2231231 1.665011 2.1335857
-2.1794291 1.6757934 2.1440225
1.8686856 1.6743927 2.1195827
-2.3580496 1.7220118 2.1066446
-2.3244891 1.7226341 2.1121888
-2.2712204 1.7250593 2.128103
-2.2329848 1.7255044 2.1469958
-2.1915483 1.7300669 2.145457
1.868516 1.7278545 2.1281528
-2.3728912 1.7714239 2.1083314
-2.3272705 1.7815266 2.1250439
-2.2697754 1.776006 2.1314852
-2.2260516 1.7753078 2.1439645
-2.1998599 1.7522843 2.1436858
1.8723221 1.7769233 2.1233203
-2.3702741 1.8180044 2.1082363
-2.3319056 1.8242271 2.1297331
-2.2707019 1.8242203 2.1378675
-2.2241786 1.8223903 2.143971
-2.1872907 1.8304853 2.1463401
1.8605251 1.8086792 2.1300168
2.2988641 1.8348368 2.1126654
2.3240664 1.8422247 2.1086843
-2.3547997 1.8682008 2.1170323
-2.3244038 1.8763665 2.1295121
-2.2733479 1.8703825 2.1410642
-2.2302825 1.8771567 2.1449151
2.3574212 1.8541663 2.1303761
2.4327321 1.8565838 2.1441951
-2.3266361 1.9263015 2.1351812
-2.2830498 1.9236307 2.1429267
2.2796493 1.940134 2.1066892
-2.3114543 1.9799379 2.1389883
-2.2812912 1.9780649 2.1439731
-2.2808361 2.0250313 2.1432557
-2.2589483 2.0520208 2.1476099
-1.4023809 -0.60018027 2.1662252
-1.3717355 -0.60552597 2.1711349
-1.3209232 -0.60791707 2.1831281
-1.2878104 -0.60753018 2.1775415
-1.1247679 -0.60425574 2.1941183
-1.564078 -0.56095642 2.170186
-1.5326439 -0.57436007 2.1798465
-1.4744304 -0.59171242 2.1804602
-1.420843 -0.59385055 2.1719141
-1.3786432 -0.59629267 2.1794565
-1.3270745 -0.5987668 2.1958406
-1.2647299 -0.59204727 2.1924706
-1.2249557 -0.58139521 2.179184
-1.1753198 -0.59172571 2.1726761
-1.1087642 -0.59567511 2.1629405
-1.078095 -0.59198487 2.1843898
-1.5827025 -0.52516598 2.1791947
-1.6148846 -0.48192599 2.1736548
2.6667504 -0.45750237 2.1534958
-1.6285279 -0.42999738 2.1718018
2.6334434 -0.42404678 2.1590264
2.6605408 -0.4182747 2.1546583
-1.6337215 -0.3799569 2.1724153
2.6719298 -0.38087544 2.1584229
-1.6399894 -0.32811591 2.1789677
2.6704071 -0.32381651 2.1637814
-1.6440444 -0.27613613 2.1780612
2.6151619 -0.26263759 2.1644411
2.6755736 -0.2740255 2.171551
-1.6433403 -0.23445089 2.1775577
2.3467722 -0.21186326 2.1509771
2.4894457 -0.20585334 2.1995554
2.5066895 -0.20602296 2.187211
2.5796189 -0.20947365 2.1947622
2.6117566 -0.22554262 2.1835027
2.6758099 -0.22811516 2.1760092
-1.6502544 -0.16111039 2.195482
-1.6403891 -0.18275015 2.174134
2.3310254 -0.16865191 2.152854
2.3932803 -0.15715997 2.1708667
2.4293947 -0.16627958 2.1894741
2.4745696 -0.17548618 2.1953473
2.5124378 -0.16938564 2.1948726
2.5810261 -0.1945188 2.1971045
2.6495693 -0.19730715 2.1988294
2.6798668 -0.17477235 2.183229
-1.6518046 -0.1114924 2.1999631
-1.6427735 -0.13152781 2.1733732
2.3822885 -0.13494581 2.1621056
2.444026 -0.12296849 2.1915081
2.4740808 -0.1236892 2.1910079
2.5244641 -0.13260213 2.1963623
2.6792746 -0.12108485 2.1856534
-1.6554853 -0.098518193 2.1813483
-1.6449229 -0.077158913 2.1816995
2.3421433 -0.083892703 2.1541059
2.3770916 -0.063141465 2.1601076
2.4404595 -0.071746796 2.1902072
2.4768345 -0.087054864 2.194957
2.5102212 -0.058014363 2.1976829
2.6824324 -0.075199999 2.1898363
-1.6508895 -0.048873354 2.1765788
-1.6435633 -0.026632074 2.1767259
2.3680267 -0.013073053 2.1525557
2.427748 -0.031473126 2.1862578
2.4700625 -0.028098186 2.1901493
2.5089278 -0.013514061 2.1970894
2.6784017 -0.029100643 2.1873436
-1.650677 0.012841929 2.1766136
-1.6453618 0.025159959 2.1831031
2.330595 0.029374884 2.1532767
2.3742714 0.029748186 2.157985
2.4284687 0.022953562 2.1801584
2.4707754 0.020827951 2.1907234
2.6773453 0.024537843 2.1864109
-1.6554729 0.099523529 2.1810784
-1.6457148 0.080814689 2.1807687
2.3295326 0.064724095 2.1559443
2.3730106 0.07556729 2.1664054
2.4304054 0.07387083 2.1808503
2.4662728 0.07457564 2.1856563
2.6818221 0.078300826 2.1889365
-1.6536205 0.13442992 2.1866462
-1.6492264 0.11805958 2.1840267
2.377126 0.12204415 2.1689527
2.4488087 0.12569715 2.1952634
2.4793639 0.12657301 2.1950495
2.5138178 0.10528683 2.1990178
2.6802604 0.12427226 2.185816
-1.6521012 0.18681753 2.1898916
-1.6450233 0.17267853 2.1634896
2.3252213 0.17098126 2.1599603
2.3723421 0.16955945 2.1703806
2.4164765 0.18497454 2.1803691
2.4716711 0.18282504 2.1938579
2.6806736 0.17029862 2.1835058
-1.6525965 0.22642627 2.1838894
-1.6485645 0.23525964 2.1713572
2.333627 0.22133771 2.1637783
2.3559926 0.21981865 2.1579754
2.4190195 0.2191582 2.1821105
2.4785051 0.22266389 2.1967022
2.6851463 0.22438857 2.1830263
-1.6545296 0.28093046 2.1909823
-1.6440439 0.27711016 2.1532784
2.2945642 0.25410217 2.1503127
2.3310282 0.27081025 2.156327
2.3779829 0.27453521 2.1728337
2.431021 0.27904585 2.1939452
2.4680815 0.27543676 2.1949344
2.6881611 0.27849787 2.1802902
-1.6523846 0.32458186 2.1670339
-1.6468742 0.34168428 2.1736584
2.3326299 0.31420457 2.1614654
2.3846304 0.32592735 2.1727138
2.4362175 0.32364231 2.1933031
2.4849062 0.31238002 2.1975002
2.6867368 0.32707405 2.1795478
-1.6545364 0.38481531 2.1781099
2.3354375 0.37629366 2.1553586
2.3886833 0.37815645 2.1826825
2.4315732 0.3765634 2.1925969
2.451864 0.39947847 2.1967921
2.6815748 0.37095982 2.1775239
-1.6547413 0.42564711 2.1820474
-1.6457651 0.41973048 2.1670802
1.7411031 0.44784695 2.1966484
1.8048731 0.43187523 2.1642094
2.2929881 0.42510316 2.1515853
2.3213243 0.43198237 2.1575103
2.4328985 0.4275707 2.195389
2.4711139 0.42736664 2.1958275
2.6824479 0.42618737 2.1840274
2.7042665 0.42603815 2.159754
-1.6523387 0.47245747 2.1708348
-1.6461672 0.47827557 2.1679296
1.8221329 0.47360802 2.1721363
2.3428276 0.46760482 2.1649222
2.3761759 0.47633466 2.1731873
2.4344804 0.4727256 2.1957676
2.4755235 0.47370619 2.1944969
2.5118375 0.4730207 2.1968589
2.6868379 0.48103222 2.1783819
2.7056267 0.4648549 2.1544487
-1.6540391 0.53413117 2.1764221
-1.6478721 0.5071187 2.173228
0.86327392 0.52971262 2.156744
1.8247964 0.52579463 2.1756537
2.2947106 0.51345187 2.1634061
2.3271298 0.53905952 2.1624904
2.3675423 0.51739812 2.169543
2.4321804 0.52972132 2.1915042
2.4750922 0.52243251 2.1958315
2.5146434 0.54266411 2.1998749
2.6833892 0.52826142 2.1807683
-1.6522049 0.57920301 2.1744869
-1.648064 0.5621841 2.1791523
0.87092948 0.57556576 2.1657743
0.92086905 0.58848035 2.1536918
1.8278797 0.57635856 2.17887
2.3359296 0.57711625 2.1625097
2.3675878 0.57414752 2.1663835
2.4285388 0.57359087 2.1859736
2.4770324 0.57364178 2.1959851
2.5120928 0.5571413 2.1944127
2.6870861 0.57427549 2.1826615
2.7007129 0.58293808 2.1556168
-1.6530845 0.62170517 2.1762106
-1.6481843 0.62937295 2.1983943
0.88038021 0.62446177 2.1645896
0.92527264 0.62309349 2.1571021
1.8321308 0.62341499 2.1781466
2.331636 0.61083895 2.1593611
2.3686595 0.61792338 2.1569567
2.4272094 0.61460483 2.1863918
2.4757683 0.64560479 2.196703
2.6869857 0.62386894 2.1776679
2.7043316 0.61478412 2.1516242
-1.6531582 0.67887384 2.182893
-1.6416949 0.66606224 2.1543381
0.87982374 0.67438287 2.1662476
0.92693663 0.67683089 2.157886
0.95907009 0.66397756 2.1506789
1.8395916 0.67625946 2.171829
2.3321748 0.68827069 2.1582475
2.3699801 0.68781435 2.1680357
2.439887 0.67608804 2.1923845
2.4721818 0.69164902 2.1955619
2.6868427 0.67245573 2.1803439
2.7005374 0.68760824 2.1595697
-1.6542298 0.72453046 2.1695359
0.88977611 0.73120511 2.1732435
0.92371768 0.7290287 2.1578622
0.96473658 0.74015212 2.1616445
1.8428346 0.72602767 2.1754649
2.2875872 0.74819076 2.1514819
2.3190119 0.72329706 2.15363
2.3635974 0.72460341 2.1653543
2.4218593 0.73312676 2.1852396
2.4759774 0.71527165 2.1927171
2.6876764 0.71807104 2.1730204
-1.6576052 0.7714501 2.1742537
-1.6491605 0.75671059 2.1751297
0.88823032 0.7755633 2.1775479
0.92461008 0.77809423 2.1594026
0.97704214 0.77657902 2.171072
1.0199831 0.77884662 2.1827681
1.0998228 0.79052263 2.1982505
1.8421466 0.77339798 2.176367
1.852379 0.79325211 2.1541798
2.2967329 0.78004599 2.1511517
2.3272896 0.771043 2.1571958
2.3768127 0.77599782 2.1680288
2.4328015 0.78240919 2.1886604
2.4829478 0.77244639 2.1975138
2.5407734 0.76565647 2.1968238
2.6485088 0.79975331 2.1992121
2.6838987 0.77238011 2.1773944
-1.7061327 0.83596045 2.1702302
-1.6975563 0.81861711 2.190624
0.88493258 0.82504362 2.1809175
0.92046648 0.82568681 2.1612635
0.97437859 0.82433408 2.1736531
1.02687 0.82463783 2.1894877
1.0589693 0.83648181 2.1963794
1.1443884 0.80882889 2.1989813
1.1543392 0.80747885 2.1905639
1.8463869 0.82402289 2.1839128
1.8531712 0.82837945 2.1618729
2.3264117 0.82125843 2.1630704
2.373354 0.82809693 2.1719496
2.4215508 0.82230824 2.179414
2.4539895 0.82069176 2.183269
2.6492646 0.81564724 2.1951668
2.6847794 0.81838214 2.1761453
-1.7094753 0.87332958 2.1762249
0.88948613 0.87639147 2.1817999
0.92498988 0.8755663 2.166023
0.97418338 0.87661964 2.1765068
1.0257738 0.87617618 2.1915095
1.0617871 0.85838985 2.1964815
1.8476166 0.87829357 2.1833763
1.8540915 0.87295955 2.156965
2.3342679 0.88584518 2.162375
2.3636835 0.87164122 2.1618633
2.428915 0.86990941 2.1887114
2.471925 0.87776899 2.1882355
2.6865642 0.87196457 2.1824203
2.7010944 0.86933827 2.1669183
-1.7115937 0.92365152 2.1755116
0.88623506 0.92746627 2.1854753
0.92304683 0.92814201 2.1673346
0.97268051 0.92327881 2.1776581
1.0177675 0.92069876 2.1909821
1.8415754 0.91993684 2.1829832
1.8529893 0.93236637 2.1618156
2.2995303 0.93721664 2.1575499
2.3322616 0.92690563 2.1527052
2.3746891 0.92204577 2.165226
2.4326186 0.91416013 2.1890612
2.4734335 0.93047291 2.1902742
2.6847272 0.92326993 2.1768544
2.7026343 0.90932953 2.1555834
-1.7169547 0.97622526 2.1778769
0.88892102 0.97336388 2.185436
0.92677253 0.97617269 2.1697078
0.97579861 0.97510219 2.1798599
1.0172281 0.96307868 2.198118
1.8475929 0.96580213 2.1890323
1.8571167 0.97981846 2.1654401
2.2847581 0.9810313 2.1539142
2.3193598 0.96941745 2.1550908
2.3795111 0.98013949 2.1684499
2.4190633 0.97512913 2.1824002
2.4741192 0.97802228 2.196677
2.5209007 0.97446454 2.197566
2.6850026 0.97409815 2.1769481
-1.7145568 1.0275259 2.1780179
0.89050567 1.0254551 2.1843565
0.92334926 1.0236865 2.173945
0.97416061 1.0228523 2.1820669
1.0128317 1.0152969 2.1949747
1.8471293 1.0388098 2.1980278
1.857578 1.0230273 2.1733167
2.3260388 1.0220731 2.1535189
2.3739364 1.0249109 2.1627445
2.4186001 1.029951 2.1706622
2.485672 1.0343776 2.1993845
2.6891398 1.0182208 2.1738257
2.7053957 1.0189552 2.1503708
-1.7168121 1.071474 2.1729367
0.88906765 1.073151 2.1885958
0.92509359 1.0743488 2.1772215
0.97470927 1.0694959 2.1869442
1.0113695 1.086951 2.1933663
1.8489596 1.0603626 2.1916544
1.8591453 1.0761373 2.1740887
2.3299193 1.0641916 2.1554523
2.3925483 1.0900657 2.1684887
2.4262598 1.0717932 2.1821795
2.480397 1.0778389 2.1917219
2.6884637 1.0725439 2.174783
2.7007751 1.0870821 2.1508996
-1.7132235 1.1267593 2.1743798
0.89071012 1.1264125 2.1878591
0.92353636 1.1242431 2.1769595
0.97340059 1.1239773 2.1864994
1.0145347 1.1209464 2.1972377
1.8487356 1.1163465 2.1969576
1.858682 1.1285448 2.1720483
2.3284557 1.1042122 2.1519542
2.3870196 1.1212696 2.1643028
2.4295063 1.1302269 2.1765156
2.469115 1.1299075 2.1889062
2.6844902 1.1266894 2.1767371
-1.7128782 1.1719345 2.176928
0.89267826 1.1716502 2.1852107
0.92396331 1.1791306 2.1805055
0.97216195 1.1697698 2.1880901
1.0017357 1.1756845 2.1957471
1.8591105 1.1775777 2.1753733
2.3337021 1.189039 2.150651
2.3684685 1.1838883 2.1619589
2.4243612 1.177243 2.1812844
2.4699047 1.1700236 2.1879492
2.5283453 1.1748987 2.1970279
2.6837268 1.1806985 2.1801467
2.7016551 1.1581624 2.1544003
-1.7258461 1.2167479 2.1607568
0.89183354 1.2277988 2.1888206
0.9246403 1.2247876 2.184242
0.97307909 1.2229999 2.19103
1.0002178 1.2437724 2.1997528
1.8616287 1.2219499 2.1753132
2.3208778 1.2202653 2.1521585
2.3737779 1.2208302 2.1665201
2.4204063 1.217622 2.1742578
2.4720523 1.2175545 2.1901453
2.6876767 1.2226123 2.1756716
-1.7707967 1.2938209 2.1621356
0.88680619 1.2803496 2.1911101
0.92469436 1.2768064 2.1830866
0.97648031 1.2759137 2.1926603
1.8632995 1.2741066 2.1700237
2.3767755 1.2876284 2.154011
2.4175003 1.2573473 2.1734598
2.4748907 1.2711452 2.1898005
2.6903567 1.2720931 2.1795413
0.89009809 1.3275038 2.1884315
0.92474055 1.3276211 2.1813133
0.96532828 1.325269 2.1921916
1.8491796 1.3112998 2.1970038
1.8572633 1.3211997 2.1720493
2.3641005 1.3197222 2.1549811
2.4296346 1.3210188 2.1780698
2.4814799 1.3273665 2.1919899
2.6815083 1.325523 2.1834579
2.7010331 1.3018842 2.1553113
-2.0134268 1.3943344 2.1543491
-1.9769239 1.3890167 2.1693246
-1.9180832 1.385071 2.1816568
-1.8809061 1.3664393 2.1838369
0.88816905 1.3745095 2.1933062
0.92444873 1.3745875 2.1839623
0.97720754 1.3766979 2.1958706
1.8609438 1.3755111 2.1715019
2.3608971 1.3727778 2.156338
2.4436538 1.3711456 2.1913168
2.4702358 1.3637819 2.1828115
2.5044503 1.3874674 2.1890116
2.6783845 1.380236 2.1819978
2.701973 1.3674848 2.1583607
-2.0670941 1.4310079 2.1617303
-2.0301917 1.4255731 2.1677418
-1.9769014 1.4259993 2.1817515
-1.9435861 1.4127345 2.1887126
0.89296341 1.4188031 2.1907697
0.92498815 1.4257596 2.1836188
0.96852189 1.4224974 2.1942849
1.8482578 1.438247 2.1919651
1.8603508 1.4250538 2.1719162
2.4583085 1.4269421 2.1804242
2.5259533 1.4154676 2.1998472
2.6829765 1.4238073 2.1758006
2.7018723 1.4498538 2.1518517
-2.1127024 1.4769681 2.1504896
-2.0742192 1.4782004 2.161576
-2.0191045 1.4726976 2.1779449
-1.9773431 1.4711318 2.1901743
0.89073694 1.4810512 2.1877773
0.92442524 1.4717938 2.1836247
0.97195554 1.4806716 2.1934247
1.8482909 1.4855428 2.198662
1.8558943 1.4727496 2.1706989
2.4775913 1.4828048 2.1908686
2.6860259 1.4741338 2.1818616
2.7003427 1.4909972 2.1624548
-2.1127071 1.5325283 2.1516147
-2.0765254 1.526117 2.164993
-2.0295746 1.5198232 2.1813257
-1.9833088 1.5221262 2.1950788
0.88856381 1.5341033 2.1933699
0.92682111 1.5275993 2.1857574
0.97721452 1.5278164 2.1943107
1.8458227 1.520012 2.1877406
1.8549728 1.5264683 2.1619473
2.6822264 1.5183729 2.1832199
-2.1181438 1.576781 2.1573622
-2.0701022 1.5718892 2.1680303
-2.0254509 1.5738378 2.1856894
-1.9850469 1.5655106 2.1976862
0.88947749 1.5800204 2.1857851
0.92325264 1.5723433 2.1775053
0.96978527 1.5771482 2.1872306
1.0226858 1.583177 2.1929011
1.0737375 1.5893234 2.1936464
1.1217165 1.5839968 2.1964509
1.8471016 1.5801121 2.1809125
1.8551618 1.5707366 2.1580076
2.679261 1.5706664 2.1865904
-2.1576955 1.641924 2.1507368
-2.115375 1.6274906 2.1598907
-2.0746849 1.624841 2.1773107
-2.028168 1.6254692 2.1933091
0.8686142 1.6032003 2.188966
0.91217911 1.6009232 2.1705773
0.97343558 1.6047018 2.1824379
1.8474528 1.628553 2.1794312
2.6697357 1.6200886 2.1947327
-2.1510301 1.6793647 2.152637
-2.1256182 1.6734915 2.1594269
-2.0727911 1.6734934 2.1792924
-2.0305431 1.6795031 2.1951463
1.8472944 1.6753161 2.1851335
1.8585938 1.6796147 2.1653519
-2.228327 1.7467254 2.1535122
-2.1702347 1.7216111 2.1546142
-2.1239443 1.7218014 2.1630008
-2.0786357 1.7278445 2.1793308
-2.0308571 1.7187376 2.1920805
1.8460162 1.7320285 2.1916008
1.8574209 1.71823 2.1651256
-2.1824348 1.7801791 2.1594706
-2.1260328 1.7735307 2.1689382
-2.0736544 1.776816 2.1864488
-2.025528 1.7541581 2.1970229
1.8488231 1.7789832 2.1931956
1.8560718 1.7718292 2.1635807
2.4940755 1.794981 2.1917145
2.5647936 1.7905464 2.1975389
-2.2208767 1.8453288 2.1513572
-2.1692853 1.8206646 2.1614811
-2.1206946 1.8250816 2.1780982
-2.0692723 1.8250325 2.1918845
-2.0335145 1.8368251 2.1923161
1.8580912 1.8181177 2.1830378
2.4116721 1.8345356 2.1816244
2.4710641 1.8068798 2.1896536
2.520009 1.8244383 2.1906772
-2.2103388 1.8737245 2.1533294
-2.1731565 1.8743953 2.1689692
-2.128624 1.8717222 2.1820328
-2.0932717 1.8702881 2.1933928
-2.0476 1.8652354 2.1967332
2.4222813 1.8611158 2.1623867
2.4757946 1.8580475 2.1831479
-2.2606027 1.9350836 2.1530132
-2.2255938 1.9257274 2.1609864
-2.1767108 1.9287128 2.1757233
-2.1166413 1.9286898 2.1857989
-2.0850599 1.9215631 2.1956522
-2.2624369 1.9832454 2.1612062
-2.2237773 1.9768988 2.1652389
-2.172657 1.9770793 2.1744685
-2.1291211 1.9692696 2.1850719
-2.0529261 1.9949166 2.1932878
-2.0471966 1.9734188 2.1984632
-2.2610016 2.0216043 2.158536
-2.2160928 2.0296152 2.1706338
-2.1691465 2.0210998 2.1769919
-2.1324635 2.0211134 2.1936603
-2.2300355 2.0720201 2.1642616
-2.1768241 2.0748699 2.1836522
-2.1228061 2.0678029 2.193727
-2.2267714 2.1213248 2.1735294
-2.1800482 2.120331 2.1850328
-2.2015383 2.1580999 2.1750379
-2.1749589 2.1712728 2.1923997
-2.1120715 2.1676681 2.1944976
-2.1737819 2.2135165 2.1887484
-2.1427937 2.2325528 2.1955988
-2.1213875 2.2784202 2.1929805
-2.0943182 2.3189595 2.1976411
-1.3264788 -0.60213488 2.2118311
-1.1649432 -0.601358 2.2197576
-1.124449 -0.60180789 2.2370629
-0.98180908 -0.6021986 2.2347662
-0.92153436 -0.60068828 2.246691
-1.5565417 -0.56099463 2.2098727
-1.5269939 -0.56585258 2.2256269
-1.4766802 -0.58523506 2.2274866
-1.4328984 -0.58940387 2.2380924
-1.3806612 -0.59399194 2.2200537
-1.329057 -0.59270841 2.2407579
-1.2765089 -0.58430922 2.2208405
-1.211766 -0.58336085 2.2174857
-1.1740676 -0.59118569 2.2258682
-1.1405864 -0.59787464 2.2136538
-1.0817952 -0.59283954 2.2309906
-1.0263623 -0.59379923 2.2214375
-0.98684901 -0.59637159 2.2290912
-0.89403212 -0.59776032 2.2423389
-0.82207179 -0.59152281 2.2358377
-0.79191166 -0.59024101 2.2381613
-1.6093709 -0.50539356 2.2340307
-1.5602744 -0.5268755 2.2156661
-1.5416411 -0.52781188 2.2350402
-1.6195759 -0.47200015 2.2255948
-1.6301475 -0.42075768 2.2227542
-1.6349381 -0.37123799 2.2281389
-1.6355388 -0.32254976 2.2243104
-1.6409127 -0.27936012 2.22226
-1.6422552 -0.22521861 2.2234714
2.5571747 -0.2089048 2.2033482
2.6550503 -0.22069758 2.2015944
-1.6445309 -0.17142548 2.2252758
2.4339018 -0.18968949 2.2194335
2.4685781 -0.19062133 2.2096057
2.5253773 -0.19264035 2.2046499
2.576936 -0.17212389 2.2090008
2.6345513 -0.16898346 2.2068362
2.6501391 -0.18205543 2.2003706
-1.6467314 -0.12494441 2.2289462
2.5336676 -0.10314147 2.2029567
2.5812235 -0.12313299 2.2084205
2.6323981 -0.12042612 2.2029138
-1.6510881 -0.08123564 2.2364144
-1.6470685 -0.074752606 2.2270992
2.4839644 -0.065162599 2.2018864
2.5161633 -0.080452666 2.2023132
2.5721619 -0.073941521 2.2093668
2.6274734 -0.074690774 2.2074325
2.6520514 -0.075052485 2.2069206
-1.6528217 -0.030797774 2.2194078
-1.6455514 -0.030998874 2.2420349
2.5347514 -0.028517134 2.2056623
2.5779104 -0.032502744 2.2081132
2.6305854 -0.028988117 2.2038147
-1.6534127 0.025691548 2.2363918
-1.6469548 0.015529876 2.2343116
2.4856052 0.030821249 2.2038209
2.5234935 0.023667403 2.2096472
2.571506 0.023981497 2.2095432
2.6252165 0.024283433 2.203892
2.652072 0.024457991 2.2077255
-1.6514578 0.068142571 2.2200985
-1.6474196 0.065789007 2.2341313
2.5301011 0.076039977 2.2143469
2.5761228 0.076815523 2.2124162
2.6317759 0.07395073 2.2107863
2.6562095 0.085826375 2.2097657
-1.6525633 0.11940624 2.2185221
-1.647871 0.1262496 2.2362564
2.4739933 0.126634 2.2039704
2.5248787 0.12812999 2.2076211
2.575309 0.12205928 2.2098992
2.6259186 0.1234164 2.2109382
2.6543455 0.12406319 2.2065966
-1.6529728 0.16641051 2.2166181
-1.647258 0.17406443 2.2340412
2.4733965 0.16345693 2.2013302
