ply
format ascii 1.0
comment PCL generated
element vertex 1408
property float x
property float y
property float z
element camera 0
property float view_px
property float view_py
property float view_pz
property float x_axisx
property float x_axisy
property float x_axisz
property float y_axisx
property float y_axisy
property float y_axisz
property float z_axisx
property float z_axisy
property float z_axisz
property float focal
property float scalex
property float scaley
property float centerx
property float centery
property int viewportx
property int viewporty
property float k1
property float k2
end_header
0.42436904 -0.51139575 0.57459307
0.47461724 -0.51486164 0.57448971
0.52427942 -0.51729536 0.57317317
0.57402211 -0.51862246 0.57545447
0.61983842 -0.51766664 0.58238214
0.66236895 -0.51675528 0.59448379
-0.66733199 -0.48615384 0.58901781
-0.622078 -0.48479506 0.57684797
-0.57562691 -0.48445773 0.57457513
-0.52498114 -0.48339567 0.57561433
-0.47516912 -0.48216385 0.57472926
-0.42391655 -0.48046789 0.57467026
-0.37446398 -0.47892183 0.57477558
-0.32415891 -0.47810736 0.57391322
-0.27530202 -0.47721803 0.57500434
-0.22471324 -0.47706804 0.57550371
-0.17528388 -0.47702178 0.57418215
-0.12456895 -0.4744252 0.57630658
-0.074849896 -0.47535002 0.57421613
-0.025420386 -0.47739476 0.57405782
0.024407636 -0.47918758 0.57444739
0.074383862 -0.4808684 0.57340962
0.12477626 -0.48365 0.57527632
0.17482367 -0.48676038 0.57460296
0.22484975 -0.4912419 0.57373703
0.27469903 -0.49600476 0.57271171
0.3112838 -0.4989118 0.57255977
-0.13005078 -0.42801294 0.583947
-0.22975981 -0.0071657351 0.59257972
-0.19463119 -0.014773331 0.59987599
0.0016766069 -0.011399363 0.5981347
-0.25366664 0.017908087 0.59659779
-0.24498522 0.015893238 0.59139264
0.0087228632 0.022983355 0.59112024
-0.12309369 0.092769429 0.58293837
-0.015791498 0.073124282 0.56644207
0.0063419826 0.083943233 0.58655351
-0.13207996 0.12439795 0.56144392
-0.0079271682 0.12211391 0.55651677
0.011436225 0.12666479 0.57998258
-0.52594137 0.18816733 0.58336687
-0.4844003 0.19138515 0.59016693
-0.15766419 0.17599998 0.57041067
-0.14540358 0.16122821 0.56747615
-0.0065712109 0.17570758 0.55419677
0.013720547 0.17393199 0.57901776
-0.51549947 0.22954452 0.56497437
-0.47921315 0.2321832 0.57929289
-0.4260512 0.2456667 0.57503599
-0.3753607 0.24316178 0.5739885
-0.32493871 0.24183208 0.57446259
-0.27809626 0.24193442 0.57939291
-0.21583404 0.23639551 0.56779122
-0.1816414 0.22832018 0.57691288
-0.0057847779 0.20811726 0.55539227
0.016263233 0.22608863 0.57321525
0.034983072 0.27239633 0.56968564
0.055630498 0.29265931 0.58741587
0.045874435 0.3064431 0.55696183
0.064141452 0.32542765 0.57226616
0.081078336 0.37438729 0.57357174
0.09068495 0.41700917 0.5654546
0.10509349 0.42647579 0.58811659
0.096641786 0.45608222 0.56654286
0.10657839 0.46234742 0.58349329
0.29889923 -0.50015986 0.62410486
0.32990563 -0.50210327 0.62407869
0.37406167 -0.50636065 0.62352169
0.42455706 -0.5108785 0.62464857
0.47490382 -0.51424742 0.62303686
0.52556688 -0.51669192 0.62458634
0.57511955 -0.51701123 0.62479311
0.62418807 -0.51398414 0.62372768
0.67453241 -0.51023805 0.62554246
0.71366715 -0.50359899 0.62837332
-0.76164865 -0.48571941 0.64140826
-0.72392976 -0.48583493 0.6303817
-0.67702305 -0.48543483 0.62456602
-0.62505066 -0.4843193 0.62579626
-0.57490289 -0.48304123 0.6244297
-0.52365243 -0.4811936 0.6249572
-0.47356743 -0.47903273 0.62688321
-0.42474279 -0.47754177 0.62436199
-0.37430462 -0.47653121 0.6253168
-0.32490283 -0.47591963 0.62436396
-0.27425569 -0.4754726 0.62481362
-0.22530359 -0.47575843 0.62470824
-0.17587331 -0.4757362 0.62361771
-0.11524718 -0.47591022 0.62479508
-0.075399414 -0.47486812 0.62471098
-0.0250946 -0.47655135 0.62439722
0.02414684 -0.47862667 0.62427324
0.074699193 -0.48048899 0.62503159
0.12515523 -0.48315191 0.62476397
0.17456441 -0.48614973 0.62427557
0.22495662 -0.49118969 0.62378711
0.27467343 -0.49630052 0.62450075
0.31270555 -0.49870118 0.62026471
0.73305261 -0.49135754 0.637348
0.77905589 -0.47633198 0.64546293
-0.4515698 -0.42628789 0.64596778
-0.44676036 -0.42552492 0.64720118
-0.13247932 -0.415741 0.61737692
0.79733539 -0.4440977 0.64824563
0.8070178 -0.4202764 0.64453495
-0.12913358 -0.39622298 0.62905699
0.81359094 -0.3719126 0.64110482
0.81755292 -0.32293031 0.63730276
0.81671953 -0.27675769 0.63681543
0.81072778 -0.22685194 0.64057928
0.79892159 -0.16091408 0.64923173
0.80680692 -0.17756034 0.64271432
-0.28895581 -0.1304478 0.6446777
-0.20674063 -0.12064021 0.63564634
-0.19469115 -0.11976043 0.64323324
0.798051 -0.10944998 0.6486119
0.80438632 -0.12776612 0.64566183
-0.0039465749 -0.075334609 0.6279335
0.00075876538 -0.062691681 0.62318605
0.79673058 -0.07205727 0.64709562
0.80120003 -0.084105313 0.64579904
-0.25938103 -0.0096235983 0.63685542
-0.22024404 -0.021536803 0.63191432
-0.18681349 -0.027179224 0.63656467
-0.1323595 -0.018495236 0.63763434
-0.0022578437 -0.034095615 0.63411731
0.0049021132 -0.029943062 0.61588269
0.79768652 -0.026396956 0.64679348
0.80075246 -0.031515133 0.64924955
-0.30414826 0.031382974 0.64571673
-0.27534288 0.025837233 0.61851132
-0.21204293 0.048803538 0.61375207
-0.18337627 0.044080831 0.61802435
-0.14260177 0.039553899 0.63881135
0.015573835 0.030513911 0.61930287
0.79741788 0.023223054 0.64658368
-0.30095777 0.058095574 0.64775574
-0.27490568 0.058557354 0.63216531
-0.23643494 0.054116007 0.61788714
-0.11831623 0.081929423 0.62598974
-0.099489592 0.072096586 0.64934039
0.020587467 0.076095775 0.62381858
0.79579747 0.072448328 0.64675003
0.80080831 0.082742751 0.64524782
0.03375043 0.12518905 0.62136018
0.7970202 0.11056719 0.64433932
0.8037709 0.12091436 0.64281154
-0.46242914 0.1915824 0.61267239
-0.43869439 0.19359772 0.63878006
0.038422979 0.17507724 0.62121731
0.051482864 0.17558986 0.64689934
-0.46500519 0.22530666 0.61753184
-0.43046287 0.23058969 0.62981296
-0.37477413 0.24453102 0.62524182
-0.32480296 0.24425294 0.62428576
-0.27457261 0.24367934 0.62475216
-0.22919182 0.24279471 0.62608445
-0.17707324 0.22275686 0.60447419
0.039326217 0.22253092 0.62173313
0.052229058 0.22074498 0.6474852
0.04540338 0.2587046 0.61459637
0.059137762 0.27953365 0.62742966
0.079903774 0.32305488 0.62264389
0.093185998 0.36267206 0.61492497
0.10442801 0.38746676 0.62718117
0.11336466 0.41992921 0.62026221
0.12484284 0.46076092 0.6129809
0.29402125 -0.50093812 0.68702781
0.32749882 -0.50293243 0.67391455
0.37553382 -0.50708246 0.67535436
0.42425698 -0.51074654 0.67427647
0.47356075 -0.51365083 0.67566395
0.52550566 -0.51576144 0.6737262
0.57605839 -0.51642376 0.67546827
0.62542248 -0.51235306 0.67445862
0.67354858 -0.50517893 0.67397535
0.70430958 -0.50099695 0.66017729
-0.85406673 -0.49032629 0.69210535
-0.82242817 -0.48844248 0.68488568
-0.77677733 -0.48749247 0.676893
-0.72492534 -0.48558769 0.67621303
-0.67467439 -0.48400822 0.67468643
-0.62439722 -0.48253554 0.67353886
-0.57549989 -0.48131427 0.67425013
-0.5252862 -0.47800449 0.67491633
-0.47339875 -0.46884841 0.66461575
-0.42597497 -0.46908638 0.67195672
-0.37492022 -0.4735288 0.67360538
-0.32420596 -0.47334912 0.67469847
-0.27459273 -0.47314191 0.67419392
-0.22473176 -0.47427288 0.67427683
-0.1795934 -0.4742451 0.6733405
-0.11903799 -0.47550192 0.675313
-0.075094268 -0.47429475 0.67528498
-0.025753867 -0.47561902 0.67451429
0.025419859 -0.47792807 0.67433423
0.075626105 -0.47922832 0.67536581
0.12535088 -0.48092681 0.67505878
0.17455496 -0.48473173 0.67547065
0.22468354 -0.49019691 0.67463845
0.27270332 -0.49541223 0.67359352
0.30929354 -0.49922815 0.67878032
0.69435608 -0.49678373 0.69065243
0.72505665 -0.48233733 0.6784575
0.76851767 -0.46896547 0.66741055
-0.46259382 -0.43259239 0.67165101
-0.43723476 -0.43327159 0.67105114
-0.15091848 -0.4091624 0.68581784
-0.14457572 -0.40629822 0.66890371
0.74677724 -0.4372099 0.69670993
0.77458656 -0.42546383 0.6732673
0.80177164 -0.41353059 0.65131968
-0.13676082 -0.38539782 0.67145151
0.77567589 -0.37464607 0.67663044
0.80229193 -0.37999144 0.65171725
0.77562714 -0.3242856 0.67685145
0.80205357 -0.32698449 0.65208101
0.74950367 -0.27474734 0.69942039
0.77567798 -0.27565438 0.6763919
0.8021329 -0.28086323 0.65165555
0.74846578 -0.22234495 0.69838458
0.77480304 -0.22613013 0.6750353
0.80122256 -0.2334224 0.65108782
0.74773341 -0.17160286 0.69785917
0.77412355 -0.17540878 0.67348522
0.80034614 -0.1992957 0.65057886
-0.31645584 -0.11743601 0.68779773
-0.27373129 -0.12874311 0.67663056
-0.22393578 -0.11730173 0.67963886
-0.17437592 -0.11628105 0.67131156
-0.13954179 -0.11654914 0.68811846
-0.016294902 -0.11144983 0.6910398
0.74602538 -0.12392055 0.69648588
0.77380699 -0.12373263 0.67146236
-0.11596691 -0.065205306 0.67611206
-0.071485087 -0.059375841 0.69609356
-0.0264563 -0.069266483 0.68472725
0.74575716 -0.074806124 0.69551456
0.77279693 -0.074753411 0.67086577
-0.2827 -0.007721208 0.66378063
-0.23358931 -0.029180702 0.66231871
-0.16664267 -0.030719882 0.6683057
-0.12194023 -0.03409072 0.68068892
-0.078973234 -0.034974914 0.69025838
-0.019929059 -0.02539512 0.67392153
0.74393761 -0.024443259 0.69486237
0.77239311 -0.027472584 0.67003292
-0.32702753 0.034342252 0.67190355
-0.11449782 0.037610509 0.6606344
-0.076718397 0.033805415 0.68022627
-0.014828843 0.020724388 0.6776697
0.007936025 0.030899331 0.66701478
0.74408919 0.022307795 0.69297242
0.77282959 0.023346208 0.66809267
-0.32564908 0.063877001 0.67592204
-0.29298276 0.070018269 0.65886027
-0.15428607 0.093729943 0.66132426
-0.12069276 0.077250361 0.66769671
-0.094180107 0.068118148 0.65740687
-0.005712755 0.052033782 0.68023318
0.038250845 0.07499551 0.66657954
0.052110348 0.085184447 0.69017446
0.74244213 0.073197104 0.694965
0.77026486 0.073538147 0.66999257
0.047398761 0.11865835 0.66092229
0.055385634 0.12222731 0.68209654
0.7438941 0.11316637 0.69414121
0.77232438 0.11497437 0.66883308
0.80453062 0.12976907 0.65049344
-0.88193971 0.18928254 0.69461745
-0.41450006 0.1929141 0.66804516
-0.3913466 0.19439107 0.69264942
0.049125377 0.19969964 0.65389866
0.059910059 0.17375922 0.67300189
-0.90643805 0.23786563 0.69898474
-0.88418269 0.21920784 0.69365138
-0.45407096 0.23280442 0.65239006
-0.41798633 0.22579387 0.66842216
-0.38233018 0.23022313 0.68167508
-0.3246243 0.24500409 0.67544848
-0.27372673 0.24450384 0.67609835
-0.23392878 0.2437012 0.67194158
0.049472958 0.20597497 0.6575045
0.059880953 0.2238318 0.67407084
-0.9069044 0.25348064 0.6952399
-0.88488203 0.25204363 0.6863246
0.067531906 0.27249137 0.67285007
0.088843659 0.32109818 0.67388451
0.10196269 0.34485587 0.68581039
0.11365648 0.38542628 0.67600584
0.12630668 0.41619092 0.67071396
0.29679111 -0.50038862 0.72367358
0.32762605 -0.50270671 0.72429967
0.37417263 -0.50601536 0.72500235
0.42489943 -0.50944936 0.72371417
0.47425693 -0.51190501 0.72433668
0.52490807 -0.51439053 0.72536492
0.57579517 -0.51512361 0.72523487
0.62469971 -0.51295972 0.72455108
0.66380477 -0.50537169 0.72395617
-0.91662025 -0.48668435 0.73972291
-0.87377453 -0.48874271 0.72842866
-0.82514673 -0.48858133 0.72428858
-0.77522236 -0.48727831 0.72671545
-0.7234019 -0.48495042 0.72593957
-0.6736868 -0.48297122 0.72467935
-0.62513703 -0.48130277 0.72289121
-0.57375664 -0.47823319 0.72448617
-0.53142381 -0.47474101 0.72125655
-0.45225117 -0.46930763 0.73815149
-0.42246789 -0.47051787 0.72638547
-0.37516499 -0.47128889 0.72517228
-0.32516325 -0.47130269 0.72422135
-0.27432343 -0.47165084 0.72377312
-0.22480176 -0.47253388 0.72444582
-0.18401057 -0.47277778 0.72389519
-0.12076572 -0.47424784 0.72479194
-0.073891804 -0.4733766 0.72599
-0.02548692 -0.47435677 0.72386575
0.024268845 -0.47631463 0.72432554
0.074813642 -0.47722235 0.72285116
0.12548052 -0.47520497 0.72265863
0.17729503 -0.47245371 0.72187012
0.22261921 -0.48407924 0.72636044
0.27374369 -0.49568412 0.72564304
0.30674371 -0.49897981 0.72798604
0.68933296 -0.48103607 0.72967792
0.71700883 -0.46776527 0.71434158
-0.47171807 -0.41995889 0.71772766
-0.44780216 -0.42765498 0.70114487
0.19387196 -0.43931141 0.73847115
0.20305388 -0.44433418 0.74192327
0.69669753 -0.43481636 0.7464686
0.72249687 -0.42390242 0.72316486
-0.46442708 -0.38762882 0.72722405
-0.42514667 -0.37871978 0.73755127
-0.38039419 -0.36799803 0.74547511
-0.1545407 -0.37905064 0.73914313
-0.14245535 -0.37065265 0.72935736
0.69932359 -0.39016825 0.74863166
0.72523713 -0.3735728 0.72478098
0.75083899 -0.37801552 0.70049214
-0.15268123 -0.32644799 0.74877912
-0.14545812 -0.34673452 0.74606448
0.69804734 -0.33606711 0.74935627
0.72483623 -0.32504281 0.725582
0.75097847 -0.3353126 0.70083112
0.6990667 -0.27017981 0.74838459
0.72451985 -0.27628869 0.72419393
0.69696015 -0.22543354 0.74796796
0.72370285 -0.2264069 0.72343439
0.69663465 -0.17393814 0.74656272
0.72285903 -0.17560382 0.7213515
-0.31418058 -0.11458286 0.71315342
-0.2712383 -0.11222863 0.72695273
-0.24349009 -0.10896266 0.73138094
-0.16089337 -0.11796518 0.7095657
-0.12213623 -0.1135805 0.71595836
-0.074632145 -0.11655571 0.72741008
-0.033543698 -0.11696545 0.71563107
0.69579917 -0.12474006 0.74487978
0.72076291 -0.12329824 0.72051883
-0.20069657 -0.058627028 0.74952376
-0.15767452 -0.06621924 0.72244215
-0.11918768 -0.086343385 0.71671557
-0.076802231 -0.077249773 0.71404725
-0.037192903 -0.08601781 0.7072655
0.69445455 -0.073281631 0.74336129
0.72004151 -0.075372539 0.71867192
-0.2721602 -0.025107805 0.71933311
-0.16704829 -0.047571003 0.72803426
-0.13548781 -0.042402294 0.71075565
-0.068915941 -0.03343692 0.70664281
-0.043393627 -0.034955494 0.71418911
0.0066469274 -0.020015793 0.72181273
0.691392 -0.024230907 0.74018389
0.71892935 -0.027599256 0.71649569
-0.36536607 0.043776739 0.7142306
-0.020810222 0.037396967 0.70596778
0.024708677 0.022543874 0.73870838
0.68925548 0.021955013 0.73847365
0.71861029 0.022955008 0.71459275
-0.37096408 0.069898121 0.72600436
-0.3433421 0.083457492 0.71341473
-0.080954276 0.069891244 0.70935857
-0.016435152 0.05356859 0.72275972
0.03765136 0.062099386 0.73081863
0.059261885 0.081645407 0.72633171
0.69343734 0.071947627 0.74019665
0.71718121 0.073042348 0.7171315
0.067855388 0.12481551 0.72278523
0.69359434 0.11428028 0.74241787
0.72171777 0.12473118 0.72180313
0.76246279 0.14138442 0.71542931
0.89617395 0.14885587 0.71448481
-0.86619568 0.18834242 0.71722364
-0.83570272 0.18930541 0.73809165
-0.36950141 0.19377701 0.71749121
-0.34310296 0.19482903 0.74227065
0.072977602 0.16646732 0.72083086
0.72122395 0.16826606 0.73105949
0.75660658 0.15098034 0.7213788
0.94235986 0.17539883 0.74789929
-0.90333843 0.23631728 0.7061609
-0.86741883 0.22879548 0.71721834
-0.83396745 0.22329521 0.73606646
-0.40115789 0.23373586 0.70191169
-0.36785647 0.22501221 0.71638072
-0.33115149 0.22963716 0.73238862
-0.27653632 0.24222416 0.72574234
-0.23998225 0.24180056 0.71934092
0.077695109 0.22602862 0.73033726
0.94623488 0.22354579 0.74585634
0.95106572 0.23580325 0.74207765
-0.95102072 0.27122679 0.72757274
-0.87885797 0.25058216 0.70478797
0.080632336 0.27633151 0.72357529
0.94622296 0.27293587 0.74490285
0.95348519 0.2787154 0.7360366
0.09398412 0.31706995 0.71509027
0.10386372 0.33144131 0.71881849
0.94703841 0.32594728 0.74717933
0.9594385 0.32787859 0.73546487
0.1195121 0.37497395 0.72724223
0.89648253 0.37494543 0.74941707
0.92492121 0.3769379 0.73149931
0.95726347 0.35938656 0.73348784
0.13793801 0.42143652 0.72432142
0.15188049 0.44083521 0.73500359
0.92690641 0.42206001 0.73605758
0.15656859 0.46362832 0.73391134
0.92299187 0.47312525 0.74089587
0.91727507 0.52226883 0.74577123
0.29697034 -0.50065178 0.76245785
0.32727525 -0.50241345 0.77372909
0.37483826 -0.50605887 0.77589834
0.42476699 -0.50960726 0.7745558
0.47578865 -0.51186734 0.77450413
0.523974 -0.51309735 0.77516204
0.57444978 -0.51478034 0.77511173
0.62475735 -0.51389694 0.77557212
0.66906852 -0.50822866 0.77805072
-1.0104805 -0.48465842 0.79209393
-0.97297645 -0.48671213 0.78355283
-0.92601144 -0.48478726 0.78116792
-0.87463301 -0.48476261 0.77506769
-0.82576394 -0.488056 0.77313536
-0.77679414 -0.48659241 0.77514523
-0.72675377 -0.48514959 0.7762804
-0.67355716 -0.48277396 0.7755968
-0.62476385 -0.48092282 0.77514327
-0.57695484 -0.47648969 0.77547997
-0.53654176 -0.4707174 0.77394909
-0.46550292 -0.47187781 0.77817619
-0.42495117 -0.47069886 0.774194
-0.37330338 -0.46869346 0.7747761
-0.32449406 -0.46918252 0.77299374
-0.27439046 -0.46972936 0.77484632
-0.22464308 -0.47066984 0.77551132
-0.1869732 -0.47028923 0.7750259
-0.12379321 -0.47411278 0.77547145
-0.075853117 -0.47378761 0.77565593
-0.024918571 -0.47546285 0.77597523
0.023876196 -0.47725323 0.77431118
0.074369378 -0.47881043 0.77371716
0.12360302 -0.47948453 0.77518469
0.17503841 -0.46957555 0.77356052
0.23043025 -0.47236672 0.76814598
0.27329791 -0.49521086 0.7768141
0.3031323 -0.49879852 0.78357708
0.68502575 -0.47789192 0.7674275
-0.1623257 -0.40226147 0.75362271
0.19174226 -0.4314979 0.77865034
0.21666242 -0.44395721 0.76806122
0.69103551 -0.42366198 0.76102811
-0.40549839 -0.37252155 0.75657505
-0.36910942 -0.36237568 0.75666797
-0.32750085 -0.3602868 0.76575392
-0.27769777 -0.35792631 0.78332311
-0.24444924 -0.35801405 0.79722703
-0.15218301 -0.35341135 0.75985765
-0.14058776 -0.35704041 0.76728797
0.13234624 -0.38135377 0.79823893
0.16320875 -0.3898356 0.79838026
0.69443536 -0.37394446 0.76221651
0.70099199 -0.35201976 0.78764129
-0.35799894 -0.34853423 0.76311034
-0.32205692 -0.34528142 0.77271551
-0.27187553 -0.33870381 0.78636318
-0.23464103 -0.3324458 0.79540765
-0.15733267 -0.32999533 0.78250223
-0.14103831 -0.33140835 0.7743566
0.69478226 -0.32260466 0.76276618
0.70058477 -0.32472605 0.78698862
0.69415194 -0.27531463 0.76259148
0.69207126 -0.22542942 0.76222181
-0.23686235 -0.16664323 0.79477876
-0.018289348 -0.15028161 0.79862553
0.69095904 -0.17460625 0.76113492
-0.25161016 -0.11537524 0.7605629
-0.23156209 -0.10800773 0.77229673
-0.15453888 -0.11424452 0.76986063
-0.12971209 -0.11591135 0.77618927
-0.082346767 -0.12234845 0.75804502
0.68934065 -0.12365035 0.7595126
-0.22017564 -0.075541839 0.77640891
-0.18043181 -0.075299092 0.76996678
-0.12137629 -0.094903186 0.75514257
0.0097976746 -0.07073649 0.79218072
0.6885038 -0.076656096 0.76061821
0.024246108 -0.019267675 0.7785207
0.6838758 -0.028944323 0.75531501
0.03552397 0.022386966 0.77250624
0.68067169 0.02663341 0.75369793
-0.40978429 0.06228688 0.76819104
-0.39503759 0.06870649 0.75191522
-0.32515728 0.09296006 0.77476126
-0.28110617 0.088923864 0.77330041
0.047972068 0.061540749 0.75603306
0.068346687 0.08184576 0.76199406
0.68609959 0.073587283 0.75454807
-0.40374389 0.10508438 0.79729301
-0.38298538 0.10312553 0.77852738
0.080756433 0.11221766 0.77584267
0.69227374 0.11939866 0.76238996
0.70775425 0.14466144 0.76101458
-0.85770988 0.1718934 0.75759631
-0.81690913 0.18211167 0.76957542
-0.78488815 0.18773793 0.78798217
-0.31940666 0.19443122 0.76792359
-0.29302236 0.19543239 0.79317832
0.089698814 0.1844411 0.78517598
0.71853513 0.17008755 0.76009709
0.88748163 0.1740312 0.79605466
0.92105156 0.17854416 0.77165562
0.95041704 0.19584849 0.75060505
-0.81302494 0.22586195 0.76092434
-0.77890199 0.22475408 0.78370982
-0.31493506 0.21999349 0.76356977
-0.28190133 0.22813 0.78107285
-0.24466528 0.24083228 0.76354772
0.084512874 0.21265396 0.75923836
0.89875716 0.23437253 0.7974174
0.92167062 0.22229832 0.7732138
-0.81809843 0.25648126 0.7673589
-0.77526218 0.25330818 0.78749394
0.091946185 0.28194523 0.76502556
0.1020949 0.2994889 0.77269828
0.89749664 0.27837855 0.79685867
0.920807 0.27306512 0.77211744
0.095825434 0.31657207 0.75864655
0.10684001 0.32045004 0.77295882
0.8982808 0.32055375 0.79709488
0.9225257 0.32369015 0.7726832
0.12885065 0.38045949 0.76803398
0.87698215 0.378957 0.77956456
0.91936064 0.36338437 0.77131921
0.14006233 0.41116416 0.76349646
0.15336585 0.4322899 0.77349186
0.88197368 0.42387259 0.78144705
0.90705585 0.4291524 0.75691926
0.15846398 0.45165333 0.77059126
0.88325816 0.47621 0.78256631
0.90746236 0.47498685 0.75777185
0.88292587 0.52602673 0.78292704
0.90688694 0.52510083 0.75776082
0.88183516 0.57440251 0.78265482
0.90506345 0.57248521 0.75925243
0.8789739 0.62253803 0.78265584
0.87138098 0.67080975 0.78774482
0.86296588 0.71551168 0.79479903
0.33140466 -0.50244892 0.82509917
0.3745811 -0.50605768 0.82576114
0.42509487 -0.5099861 0.82478625
0.47444081 -0.51153141 0.82300711
0.52459997 -0.51243603 0.82594359
0.57462776 -0.51306671 0.82173955
0.62491983 -0.51403445 0.82529354
0.67323071 -0.50952917 0.82669276
0.73054177 -0.50755322 0.84364772
-1.0710744 -0.47881836 0.83377808
-1.0242314 -0.48124295 0.82407242
-0.9714691 -0.48113158 0.81555897
-0.92338157 -0.47904122 0.81561995
-0.86711359 -0.47725847 0.81237251
-0.82738316 -0.48273051 0.82633555
-0.77780819 -0.48741126 0.82676619
-0.72469032 -0.48387527 0.8255437
-0.67438847 -0.48293984 0.82399666
-0.62391859 -0.47784197 0.82676846
-0.57827044 -0.47338882 0.81958014
-0.51438069 -0.47236472 0.82652438
-0.47548482 -0.47217315 0.82415277
-0.42508438 -0.47167066 0.82466513
-0.37524819 -0.46991572 0.8248142
-0.32450581 -0.46832624 0.82196081
-0.27485999 -0.46762937 0.8247695
-0.22479072 -0.4679713 0.82236153
-0.18279786 -0.4681522 0.82307696
-0.12489471 -0.4736357 0.82513726
-0.074571304 -0.47490469 0.8239333
-0.024951769 -0.47695228 0.82629389
0.024359252 -0.47897604 0.82266098
0.075490214 -0.48109263 0.82308048
0.1249274 -0.48345119 0.82356369
0.17055303 -0.48031667 0.82363051
0.23400368 -0.47007227 0.83287722
0.27742416 -0.49404114 0.82232237
0.30736569 -0.49846795 0.82057065
0.67438239 -0.48940563 0.82677984
0.13921314 -0.40370893 0.81841284
0.18397938 -0.41055912 0.80737746
0.20266443 -0.41806245 0.81234688
-0.26696473 -0.37219757 0.80701411
-0.22008671 -0.35891083 0.8109113
-0.18675795 -0.36035633 0.82941115
-0.11945003 -0.35871443 0.83691657
-0.073882036 -0.36103582 0.83454776
-0.024912357 -0.36055782 0.82462049
0.025191557 -0.36333287 0.81618935
0.074486658 -0.36873886 0.8096
0.12284978 -0.37909865 0.80539662
0.17269757 -0.39055014 0.80611306
-0.26369768 -0.32950947 0.80916625
-0.21595064 -0.32986638 0.80716479
-0.17933649 -0.32447359 0.81948757
-0.12514713 -0.32375148 0.82422823
-0.077480674 -0.33555055 0.83257377
-0.028874097 -0.34243119 0.82859975
0.016011888 -0.34552491 0.81931275
-0.15943548 -0.27625754 0.83251613
-0.14468874 -0.27623934 0.83113527
-0.15999757 -0.22353257 0.82835597
-0.14404403 -0.22545832 0.82285035
-0.26148024 -0.17940369 0.81983995
-0.21976514 -0.17069885 0.82465458
-0.16354305 -0.1848264 0.82268554
-0.1429325 -0.18399437 0.81700629
-0.018628543 -0.15773602 0.81324357
-0.24125838 -0.11083405 0.81822795
-0.11783331 -0.12334684 0.80495816
-0.0029790227 -0.13182166 0.83074683
0.0091667334 -0.11573882 0.8462407
-0.23844886 -0.08992511 0.80571491
0.016334089 -0.069844581 0.81603074
0.028720684 -0.032657821 0.8177858
0.088053718 -0.0040338635 0.84544563
-0.45904979 0.04434542 0.84509236
0.046520356 0.014700214 0.8168366
0.067518026 0.024993403 0.8335169
-0.45604953 0.083147794 0.8322646
-0.44041866 0.093513682 0.81721818
-0.30778262 0.090879798 0.80433136
-0.2816785 0.090583801 0.84193748
0.09063483 0.085542805 0.84771729
-0.42256066 0.10335859 0.80670589
-0.8119303 0.16343856 0.81554192
-0.76994956 0.17393328 0.8231678
-0.73355991 0.18960258 0.83251739
-0.30138141 0.19213998 0.80468106
-0.27191395 0.19497734 0.82040572
-0.24921197 0.19565836 0.84281373
0.84628642 0.1878684 0.80821347
0.88210273 0.18222216 0.8109805
0.90032297 0.17377606 0.80195773
-0.75831509 0.22172493 0.80780798
-0.73142153 0.22540885 0.82894486
-0.26479995 0.21882331 0.81546277
-0.24802627 0.20309246 0.83739483
0.09984085 0.2372452 0.80167192
0.10106018 0.20812178 0.81741416
0.84066713 0.21965294 0.8344816
0.87753189 0.2270609 0.81986439
-0.75314623 0.25349703 0.80733019
-0.72821027 0.25384867 0.83532262
0.096336715 0.25424847 0.80244702
0.10715393 0.29799807 0.81525272
0.87376922 0.27445212 0.82426316
0.12034701 0.33583185 0.82707715
0.87547749 0.32444048 0.82515383
0.13506857 0.36859444 0.8158471
0.83073092 0.37878096 0.82865322
0.87086368 0.36307442 0.81966919
0.14856009 0.40672415 0.80702227
0.15834166 0.41936859 0.82002878
0.83520335 0.42418316 0.83132559
0.85812688 0.42908803 0.80851537
0.17655237 0.46943074 0.81834394
0.83353317 0.47415057 0.83400452
0.85916781 0.47580397 0.80894589
0.83375067 0.5240255 0.83227056
0.85823911 0.52444357 0.80693716
0.83170629 0.57660836 0.83293694
0.85655689 0.57463199 0.80750877
0.8317638 0.62647313 0.83136922
0.8562386 0.62381244 0.80706924
0.8313328 0.67662096 0.83027846
0.85513943 0.67640072 0.80564791
0.82933718 0.72572559 0.82949024
0.85424978 0.72839034 0.80478543
0.82909739 0.77519327 0.8282454
0.8520056 0.76231265 0.8040781
0.82107788 0.82254726 0.83521336
0.81167084 0.87057942 0.84264404
0.33764198 -0.50251907 0.87415904
0.37524807 -0.50646198 0.87413663
0.42495623 -0.50973886 0.87361366
0.47448492 -0.51155102 0.87214249
0.52410632 -0.51254803 0.87355876
0.57572001 -0.51323128 0.87353861
0.62569565 -0.51346058 0.87605053
0.65974653 -0.50671387 0.87447149
0.73045427 -0.51063502 0.88335723
0.76073897 -0.50885308 0.88332313
-1.1649823 -0.47588271 0.88909268
-1.1216005 -0.47624016 0.87830693
-1.0712934 -0.4807944 0.87426794
-1.0225825 -0.48475271 0.87206978
-0.97555459 -0.48538473 0.87254655
-0.92730963 -0.48571667 0.87257814
-0.880404 -0.48186347 0.8780306
-0.81965446 -0.47570533 0.87099844
-0.77870244 -0.48342723 0.87688273
-0.72292858 -0.48494145 0.87802792
-0.67459005 -0.48076007 0.87442023
-0.62476975 -0.47522709 0.87383676
-0.59363151 -0.47062978 0.86703712
-0.5118348 -0.47009087 0.85830939
-0.47266075 -0.47049665 0.87029314
-0.42457792 -0.47026873 0.87414688
-0.37507808 -0.46992081 0.8724066
-0.32474118 -0.47004858 0.8738004
-0.27385819 -0.46934104 0.87315291
-0.22455244 -0.46988317 0.87430102
-0.17375852 -0.46494177 0.8743884
-0.12778498 -0.47088787 0.87250024
-0.074715763 -0.47578356 0.87420785
-0.027057288 -0.4780046 0.87564451
0.02442402 -0.4805629 0.87402165
0.07431493 -0.48275408 0.87481475
0.12500824 -0.48503649 0.87455612
0.17145291 -0.48687279 0.87532133
0.22010744 -0.47809684 0.87440711
0.28275546 -0.49459445 0.8762877
0.31340092 -0.498312 0.87547064
0.66418767 -0.49279773 0.8678115
0.78147125 -0.4741427 0.89124823
-0.15028735 -0.40837359 0.89302588
-0.14299071 -0.41867399 0.88728952
-0.18379164 -0.3785381 0.85547948
-0.1328868 -0.38249508 0.86156821
-0.20405059 -0.3201133 0.89283967
-0.19129817 -0.3173568 0.86860853
-0.12877065 -0.33595237 0.85883635
-0.083967179 -0.32717201 0.85530615
-0.17628489 -0.2714929 0.8674711
-0.14087489 -0.27116555 0.85740489
-0.17876185 -0.21823207 0.85604519
-0.14117643 -0.2300806 0.86555994
-0.20017575 -0.17604759 0.8517952
-0.173948 -0.17764352 0.8747381
-0.14312184 -0.1726062 0.87405729
-0.034850448 -0.18378884 0.87280631
0.011813385 -0.12646918 0.87500292
0.029520469 -0.075513944 0.87386739
0.04614481 -0.029500449 0.87732285
0.081510276 -0.011543141 0.8683551
0.10670497 -0.0059507829 0.88834441
-0.46906531 0.046009749 0.85341775
0.087902568 0.021502288 0.86437833
0.10608679 0.012503818 0.88127995
-0.26712885 0.089472428 0.8625443
-0.24495134 0.087789543 0.87517369
0.076966763 0.050610263 0.88067275
0.11303563 0.11626688 0.89286965
-0.89020538 0.16285761 0.87711215
-0.75585985 0.1734536 0.85319865
-0.72592384 0.174686 0.86891443
-0.68582493 0.19392967 0.88048095
-0.25132498 0.19423316 0.86646509
-0.24821837 0.19777791 0.86285496
0.81554472 0.19020262 0.89050186
-0.71078485 0.22700541 0.86256254
-0.68240392 0.22427551 0.88230413
0.82742673 0.23265678 0.87988085
0.85065532 0.2442323 0.85178548
-0.70818275 0.25460187 0.85998791
-0.69113803 0.25518805 0.88142937
0.83124954 0.2752496 0.87612027
0.85178769 0.27842015 0.85135752
0.83107722 0.3245514 0.87766778
0.85322422 0.33354774 0.85295993
0.14234826 0.37064481 0.86496645
0.15887225 0.38407755 0.89487648
0.78013921 0.3786025 0.8818388
0.82175732 0.3673161 0.87120908
0.85291612 0.35618079 0.85266471
0.17645742 0.43334958 0.88162851
0.78559071 0.42410558 0.8847481
0.81033689 0.42408061 0.85862607
0.19785839 0.48007685 0.88099015
0.7847389 0.47502437 0.88375622
0.80939037 0.47410366 0.85964084
0.78345686 0.52535576 0.88396233
0.80822569 0.52501142 0.85793805
0.22784388 0.55949855 0.8732847
0.78258759 0.57387632 0.88376945
0.80629534 0.57560831 0.8597126
0.78284752 0.62463874 0.88195646
0.80650955 0.62351334 0.85676301
0.78255612 0.67518538 0.88084072
0.80557197 0.6719048 0.85551459
0.78002375 0.72346723 0.8803615
0.80446929 0.72589773 0.85516149
0.77890712 0.77472824 0.87987137
0.80423129 0.77181733 0.85404664
0.77739131 0.82495779 0.87883329
0.80382001 0.82347161 0.85403311
0.74947631 0.89167577 0.89734846
0.77794307 0.87654835 0.87721127
0.80229163 0.87232071 0.85403764
0.75927752 0.90211201 0.89186943
0.33700335 -0.50157779 0.92387974
0.37542984 -0.50661212 0.92481411
0.42504668 -0.51100475 0.92497152
0.47251767 -0.51303637 0.92232156
0.52413654 -0.51412421 0.92541331
0.57487082 -0.51451451 0.92559701
0.62970632 -0.51140827 0.9251225
0.6690737 -0.50437832 0.92183739
0.72595292 -0.50712419 0.92979193
0.76414436 -0.50351745 0.91628152
-1.2596762 -0.46756154 0.94515342
-1.2205319 -0.47240177 0.93448609
-1.1755669 -0.47338787 0.9274255
-1.1229531 -0.47661465 0.92464852
-1.0753376 -0.47925621 0.92419332
-1.0253348 -0.48197731 0.92458779
-0.975335 -0.48321208 0.92416048
-0.92641872 -0.48355335 0.92591637
-0.88127387 -0.4815031 0.92582232
-0.83443922 -0.47631457 0.9276489
-0.77623039 -0.47901598 0.92408931
-0.72648764 -0.48263675 0.92526793
-0.67233491 -0.47683254 0.92396563
-0.626903 -0.4748821 0.92638147
-0.59217113 -0.47349668 0.94197637
-0.45445594 -0.46731052 0.90371585
-0.41981003 -0.46944618 0.91709703
-0.37445784 -0.47021919 0.9240514
-0.32509673 -0.47104621 0.92521268
-0.27591589 -0.47091496 0.92161959
-0.22558498 -0.4708032 0.92450589
-0.16069721 -0.45775554 0.91454768
-0.12506522 -0.47266704 0.92431378
-0.075710051 -0.47627383 0.92441618
-0.025236374 -0.47862378 0.92404097
0.023651324 -0.48079816 0.92316991
0.074774705 -0.48372847 0.925883
0.12465199 -0.48621076 0.92466146
0.17561166 -0.48835421 0.92367285
0.2247394 -0.49076194 0.92638218
0.27479833 -0.49428573 0.92666847
0.31345218 -0.49826646 0.92758644
0.64785963 -0.49246323 0.93369406
0.65935796 -0.49641848 0.925937
0.74816102 -0.48195708 0.94621342
0.77647364 -0.47513622 0.92817003
-0.15538105 -0.44074592 0.91714942
-0.14628127 -0.42214182 0.90432692
0.7878781 -0.42706564 0.93354362
0.80108368 -0.40520191 0.92289114
0.79124963 -0.37677294 0.93636352
0.80105364 -0.37210888 0.9245407
-0.22137244 -0.33301207 0.92220324
-0.12099497 -0.32605216 0.91014874
0.79378772 -0.32350922 0.93971395
0.80193573 -0.3262727 0.92893153
0.79416257 -0.27380693 0.93988299
0.80206925 -0.2738643 0.92895669
0.79530978 -0.22651683 0.93890309
0.80266184 -0.21906959 0.9290393
-0.16198011 -0.17629278 0.90351593
-0.0057672863 -0.1685935 0.91991764
0.010209097 -0.16426423 0.93912023
0.7949146 -0.17006242 0.93863976
0.80246401 -0.17853422 0.93077266
0.022759208 -0.13455136 0.91918606
0.79440343 -0.12593332 0.94283307
0.80178243 -0.12740381 0.92888683
0.044796031 -0.074295752 0.91314089
0.057168141 -0.060478415 0.93706131
0.79443723 -0.076734006 0.94006699
0.80180591 -0.076993451 0.92890954
0.087087624 -0.0045085284 0.94550526
0.11721093 -0.007239528 0.90767068
0.7935912 -0.026180357 0.93306667
0.80121863 -0.038336106 0.93023318
0.078745455 0.022070905 0.92116863
0.11876494 0.00219584 0.90841043
0.79293704 0.024900964 0.93142694
0.79060435 0.076394208 0.93709069
0.12276831 0.13285547 0.91527653
0.78863943 0.12667668 0.93576026
0.80273527 0.14349765 0.91786295
-0.71694499 0.16659743 0.91245443
-0.66252571 0.19013086 0.91709948
-0.63735753 0.19098732 0.93361074
0.13465369 0.19795579 0.94502068
0.78613687 0.17590174 0.93511987
0.80534613 0.17817293 0.91116953
-0.66280901 0.22841047 0.91471446
-0.63424438 0.22419298 0.93279541
0.78417069 0.22453906 0.93354607
0.80620247 0.2253558 0.90810853
-0.67789477 0.25624403 0.90481144
-0.63082391 0.25201753 0.93820786
0.78254408 0.27476788 0.93145651
0.80578846 0.27364853 0.90656567
0.14186355 0.32989392 0.92090493
0.78216928 0.32500753 0.93115562
0.80674762 0.32456011 0.9060505
0.16296934 0.38839173 0.90470386
0.74550182 0.39475766 0.920376
0.77223206 0.37068847 0.92506009
0.80567026 0.35879514 0.90774834
0.17954692 0.43188781 0.90435117
0.74595135 0.42597654 0.92237568
0.75956726 0.42435879 0.9099791
0.19638309 0.45870107 0.93524379
0.74778658 0.47550982 0.92419893
0.75864196 0.47538978 0.91222847
0.22993803 0.54422975 0.9255507
0.74783063 0.52365983 0.92296767
0.75691891 0.52376729 0.91392624
0.24289937 0.56600773 0.93232578
0.25466684 0.58962566 0.93943018
0.7492277 0.57164997 0.92242604
0.75590426 0.57502007 0.91854787
0.75616127 0.6258595 0.92130089
0.28337398 0.67813122 0.94987601
0.74911433 0.67905831 0.92180568
0.75558877 0.67474818 0.92118013
0.74934417 0.72362292 0.91880924
0.75546306 0.72396773 0.92305404
0.74879074 0.7863065 0.94877219
0.75553989 0.7734046 0.92645806
0.7481783 0.82301003 0.94717032
0.75505358 0.82474285 0.92471266
0.74789858 0.87722796 0.94820231
0.75425416 0.87302095 0.92513543
0.74661732 0.91279918 0.93992656
0.75279403 0.91634697 0.93157792
0.17755684 -0.50270259 0.9933666
0.33812359 -0.50162047 0.97570366
0.3758938 -0.50695348 0.97607243
0.42571822 -0.51180989 0.97679222
0.47687146 -0.51356244 0.97206372
0.52663082 -0.51374286 0.97394365
0.57523704 -0.51308537 0.97517836
0.62459552 -0.50919372 0.97533333
0.68585807 -0.50359809 0.97598577
0.71629304 -0.50243336 0.96225464
-1.311987 -0.46193326 0.98936266
-1.2687011 -0.46307781 0.96769989
-1.2184981 -0.46483126 0.96746963
-1.1820251 -0.47279558 0.97983068
-1.1275098 -0.47365338 0.97399247
-1.0767365 -0.47575873 0.97677445
-1.0232314 -0.47703096 0.97420877
-0.97489077 -0.47817037 0.97192031
-0.92697233 -0.47783059 0.97646332
-0.87666708 -0.47850204 0.97490966
-0.82884228 -0.4765107 0.97310394
-0.77412194 -0.47705555 0.97532308
-0.72382593 -0.47756627 0.97217566
-0.6748175 -0.4755553 0.97473443
-0.62330437 -0.47317007 0.97573656
-0.58575529 -0.47347507 0.97867286
-0.36834005 -0.46970347 0.95869833
-0.32403839 -0.47129178 0.97317493
-0.27366671 -0.47112945 0.973728
-0.22996822 -0.47044075 0.97434056
-0.15285212 -0.46479216 0.97039157
-0.12534949 -0.47329584 0.97422326
-0.0751919 -0.476704 0.97606301
-0.02534325 -0.47905946 0.97358042
0.024088921 -0.48145789 0.97502214
0.074645631 -0.48475695 0.97324246
0.12232433 -0.48745671 0.96739739
0.16850966 -0.48890483 0.95681947
0.27469382 -0.49460074 0.97260529
0.31669137 -0.497951 0.9767465
0.6411469 -0.49128553 0.97612208
0.67935902 -0.49228594 0.9833014
0.72591048 -0.47658122 0.97838277
0.75539112 -0.46512482 0.95794255
0.73729271 -0.42516628 0.98771846
0.76217681 -0.42359492 0.96326339
-0.25947598 -0.36447108 0.99597722
-0.23925313 -0.35759908 0.96086991
0.74130577 -0.37592569 0.99089867
0.76625514 -0.37309378 0.96651298
-0.25931641 -0.34069347 0.99028099
0.74310535 -0.32586035 0.99307919
0.76849926 -0.32438353 0.96812218
-1.2199101 -0.26885772 0.97874516
-1.1951047 -0.26176456 0.9987334
0.74371582 -0.27369788 0.99351901
0.76928777 -0.27566811 0.969441
-1.2161157 -0.22259554 0.97914082
-1.1960558 -0.22493976 0.99545038
0.74441928 -0.22598998 0.99516487
0.76998925 -0.22495793 0.96952862
-1.2134737 -0.17289568 0.97854942
-1.1935395 -0.17255415 0.99380344
-0.0034515497 -0.18744348 0.95843047
0.017042033 -0.17508939 0.96916252
0.74454343 -0.17790066 0.99396515
0.76963466 -0.174235 0.96951866
-1.2087669 -0.1237876 0.98061407
-1.1935062 -0.1263551 0.99465972
0.043294236 -0.13558193 0.97339058
0.057084478 -0.11527945 0.98049116
0.7442733 -0.12145097 0.99496639
0.7690599 -0.12334192 0.96968788
-1.2084303 -0.077390648 0.98019683
-1.1942331 -0.072321512 0.99280024
0.064578883 -0.078824669 0.98103273
0.7430858 -0.072831534 0.9939847
0.76841217 -0.07400573 0.96875602
-1.2066196 -0.026846463 0.97847193
-1.1912323 -0.02683815 0.99103832
0.080955245 -0.018545242 0.96291524
0.74178284 -0.025024051 0.99408388
0.76765603 -0.026630605 0.96740228
-1.2050412 0.024457563 0.97425157
-1.1885078 0.025572674 0.98936731
0.086670652 1.4643781e-05 0.96603251
0.7418099 0.022068691 0.99129927
0.76690578 0.02240881 0.96598244
-1.2047237 0.074722826 0.97420895
-1.1871032 0.077153698 0.99032611
0.74016458 0.072867177 0.9904694
0.76505029 0.073541686 0.96575511
-1.2057986 0.12447438 0.96958637
-1.1855193 0.12420265 0.98604631
0.73902804 0.12406156 0.98837978
0.7630794 0.12240505 0.96374649
-1.2047402 0.16383147 0.96656495
-1.1840439 0.16179889 0.98587078
-0.61607146 0.19148856 0.96806109
-0.58713794 0.19438738 0.98686987
0.73592484 0.17554173 0.98732096
0.76056999 0.17331198 0.96299905
-0.65423173 0.23471639 0.95035517
-0.61563551 0.22722194 0.96792644
-0.58407766 0.2255794 0.98483604
0.14619631 0.22822329 0.97160912
0.73552775 0.22598276 0.98450804
0.76028156 0.2229739 0.95976764
-0.62793577 0.2603277 0.96398765
-0.56687033 0.25091955 0.99111974
0.14486602 0.26340032 0.97334927
0.73433876 0.27539086 0.98339969
0.75742519 0.27482119 0.95800424
0.159495 0.3387444 0.99017876
0.73377556 0.32496431 0.9811002
0.75722218 0.3252469 0.95750308
0.17421997 0.37932509 0.97751307
0.73197931 0.37467059 0.98176193
0.75762022 0.37582818 0.95670533
0.18749683 0.42277598 0.95935458
0.73158562 0.42470643 0.98068482
0.75258362 0.42597869 0.95634979
0.21628909 0.47632045 0.97275102
0.72929716 0.47437599 0.98009151
0.75285584 0.47402683 0.95548046
0.23900057 0.53312737 0.97024661
0.25102669 0.54465759 0.99472302
0.7301504 0.52473181 0.97736418
0.75356805 0.53149259 0.95360988
0.24645184 0.55300164 0.96889842
0.26013923 0.58025324 0.97506535
0.7279281 0.57566667 0.97826076
0.75247163 0.5731076 0.95308506
0.27884576 0.62665021 0.98262852
0.72708094 0.62565482 0.97735584
0.75153512 0.62072712 0.95154738
0.29251027 0.66823709 0.97485173
0.30524296 0.6766448 0.99005187
0.69967526 0.67358488 0.99951917
0.72559536 0.67350405 0.97669673
0.7518546 0.68059868 0.95166534
0.31462476 0.72352582 0.98617744
0.72655016 0.72521645 0.97520393
0.75174379 0.72138137 0.95177168
0.72363645 0.77555817 0.97599459
0.72485268 0.82612479 0.97403473
0.69890714 0.87135911 0.99919641
0.72286558 0.87548357 0.97391468
0.69668478 0.92554438 0.9986847
0.72003078 0.92258257 0.97464025
0.14734711 -0.50055474 1.0049893
0.26605493 -0.50194812 1.0430954
0.34263059 -0.50143343 1.0239109
0.37474337 -0.5047881 1.0255055
0.42584535 -0.5111354 1.0263633
0.47556731 -0.5127818 1.0235999
0.52436095 -0.51202041 1.0232078
0.57672733 -0.50875044 1.025954
0.61720878 -0.50413978 1.0220084
0.67131078 -0.50135207 1.010157
-1.3696122 -0.46393803 1.0351126
-1.3228918 -0.46197331 1.0281899
-1.2714585 -0.46486044 1.0218529
-1.2248884 -0.46775228 1.028179
-1.1693532 -0.46809 1.0209814
-1.1273993 -0.47089174 1.0275698
-1.0743943 -0.47181326 1.0278623
-1.0262718 -0.47436237 1.023454
-0.97815907 -0.47627068 1.0297391
-0.91887558 -0.47428653 1.0248982
-0.8774597 -0.47800553 1.0232182
-0.81721795 -0.47626108 1.0130134
-0.76877397 -0.47034305 1.0265543
-0.72628355 -0.47596154 1.025049
-0.67692018 -0.47401926 1.0265286
-0.62353683 -0.4724372 1.0261172
-0.57502222 -0.47183654 1.0220641
-0.53159493 -0.47015747 1.0353805
-0.49035588 -0.46335003 1.0421162
-0.30386531 -0.47228101 1.0108652
-0.270374 -0.4708012 1.01149
-0.23075181 -0.46878573 1.0107528
-0.12454163 -0.47279006 1.0210191
-0.075551905 -0.47612211 1.0218276
-0.02695938 -0.47928652 1.016475
0.024829891 -0.48362428 1.0166967
0.066249348 -0.48770761 1.0097247
0.11057204 -0.49399716 1.0074379
0.24067931 -0.49476781 1.0456415
0.28035778 -0.49697202 1.0251887
0.31970328 -0.49844307 1.0271962
0.63120192 -0.4862549 1.0308976
0.67746592 -0.47477421 1.0251468
0.70598227 -0.46174437 1.0052249
-0.36228514 -0.40857258 1.03993
-0.34565148 -0.4087801 1.037791
0.68602479 -0.42592508 1.0367203
0.71240205 -0.42436001 1.0120196
-0.34754914 -0.39711413 1.0377334
-0.26909167 -0.36723316 1.0021081
-0.11260057 -0.37139395 1.0379925
0.69067079 -0.37384248 1.0408387
0.7168656 -0.37477228 1.0157777
0.69220197 -0.32710019 1.0430814
0.71789604 -0.32343286 1.0182607
-1.2090322 -0.28604329 1.0056438
-1.173746 -0.27025837 1.0250566
-1.1462283 -0.2594983 1.0442359
0.6932708 -0.27595237 1.0439919
0.71916127 -0.27430603 1.0188091
-1.1712557 -0.22171892 1.0188495
-1.1424313 -0.22199771 1.0439844
-0.0184271 -0.21151042 1.0169609
0.69415349 -0.22430594 1.043394
0.71945071 -0.22540003 1.0194397
-1.1702348 -0.17275475 1.0186092
-1.1431775 -0.17509255 1.042678
0.039071213 -0.18039842 1.0258656
0.052575525 -0.16964455 1.0309503
0.69363099 -0.17633142 1.0443081
0.71932524 -0.17487212 1.0189859
-1.1694134 -0.12329517 1.0182323
-1.141592 -0.12378988 1.0440608
0.06365034 -0.13463244 1.0151701
0.69429338 -0.12663761 1.0434963
0.71990299 -0.12477088 1.0188165
-1.1692778 -0.075194649 1.0159162
-1.1416017 -0.07523156 1.0421813
0.072627328 -0.085870698 1.0106072
0.69204742 -0.073123761 1.043987
0.71755391 -0.07340537 1.0193354
-1.1680901 -0.026914712 1.0158126
-1.1398962 -0.02695708 1.0419496
0.69203264 -0.023822803 1.0428483
0.71713954 -0.025977166 1.0179303
-1.1633459 0.024034858 1.0161391
-1.1371435 0.024570176 1.0393629
0.69239289 0.022930143 1.040886
0.71739256 0.022747871 1.0153172
-1.1623681 0.074792735 1.0135009
-1.1338335 0.077814676 1.0374868
0.69025493 0.075796768 1.0402991
0.71560359 0.072365001 1.0151292
-1.1632437 0.12596354 1.0093688
-1.1350279 0.12359303 1.0337317
0.14671978 0.11641313 1.0051637
0.15567872 0.11458843 1.0323049
0.6903547 0.12498114 1.0383916
0.71481043 0.12423055 1.0131432
-1.1586186 0.16175479 1.0104269
-1.1300491 0.16111529 1.0334721
-0.56696206 0.19364981 1.0177902
-0.5383659 0.19319144 1.0425462
0.16377461 0.16415535 1.036611
0.68759978 0.1744003 1.0375803
0.71159816 0.1752065 1.0131948
-0.6042707 0.23771274 1.00218
-0.56701714 0.22708447 1.0203774
-0.53425366 0.22768663 1.0346761
-0.49216169 0.24552101 1.048594
0.68640172 0.22428052 1.0368695
0.71037006 0.22340213 1.0109366
-0.56052661 0.25823867 1.0186002
-0.52987725 0.25415877 1.0259165
-0.48164347 0.25518847 1.0443864
0.16053499 0.28562629 1.0253401
0.68516397 0.27468485 1.0351487
0.70941234 0.2740998 1.0097811
0.17008805 0.3384296 1.0319723
0.6830411 0.32462648 1.0340099
0.70823407 0.3247174 1.0085648
0.18249314 0.37268516 1.0300633
0.68323505 0.37475497 1.0323222
0.70716637 0.37453881 1.0077707
0.19882658 0.41069144 1.0227766
0.21249299 0.43603539 1.0401012
0.68152916 0.42449677 1.0318773
0.70707589 0.42404038 1.0060792
0.22940667 0.47417787 1.0292628
0.6813693 0.47446454 1.0294664
0.7054646 0.47405493 1.0043368
0.24082915 0.50708103 1.0201741
0.25563487 0.5313552 1.0334704
0.67957431 0.52454031 1.0290021
0.70498121 0.52200663 1.0035539
0.27485967 0.57397193 1.0314813
0.67920768 0.57492733 1.026991
0.70322549 0.5746637 1.0034465
0.29169402 0.61666065 1.0237494
0.30616838 0.63287985 1.0319264
0.67779022 0.62488478 1.027679
0.70277917 0.6229316 1.0023594
0.29869652 0.65365493 1.0070877
0.31762761 0.67265767 1.0239624
0.67797434 0.67501128 1.0252759
0.32663122 0.7086401 1.0211476
0.67637318 0.72519326 1.0263604
0.70188743 0.71980274 1.0008008
0.32985631 0.7508536 1.0106002
0.67571622 0.77477741 1.0254399
0.70100033 0.7576108 1.0005175
0.64917803 0.8307054 1.0479283
0.67559743 0.82463199 1.0240203
0.70156389 0.81164652 1.0009966
0.64883775 0.89969736 1.0497013
0.67416281 0.87552953 1.0241838
0.67223215 0.92506635 1.024821
0.64928746 0.96146286 1.0479881
0.66479415 0.95430708 1.0315052
0.33549535 -0.50062633 1.0746043
0.37633082 -0.5029943 1.0746953
0.42504561 -0.50905913 1.0742835
0.47557098 -0.50978196 1.0769272
0.52488935 -0.50720847 1.0743191
0.5678373 -0.50371009 1.0659761
-1.4151571 -0.45947114 1.0771744
-1.3860369 -0.46300673 1.0784888
-1.3284537 -0.46139252 1.0710026
-1.2731766 -0.46094838 1.071498
-1.2225791 -0.46423885 1.0740154
-1.1717143 -0.46480435 1.0792671
-1.1209948 -0.46731949 1.0744747
-1.0757693 -0.46876076 1.0753927
-1.0256412 -0.46870315 1.0723548
-0.97661781 -0.47044122 1.0768771
-0.92741936 -0.47305238 1.0762782
-0.87332648 -0.4798829 1.0752959
-0.82542211 -0.47501037 1.0805916
-0.76787221 -0.46857265 1.0763789
-0.72845161 -0.47181216 1.0786315
-0.67297304 -0.47206146 1.0738864
-0.62354213 -0.47113162 1.0761669
-0.57447755 -0.47099736 1.0744581
-0.52747357 -0.47021127 1.074777
-0.48566431 -0.46620661 1.0855188
-0.10147677 -0.48167613 1.0604013
-0.066675059 -0.481547 1.0529821
0.044376988 -0.49456787 1.0507737
0.18201764 -0.48559117 1.0957558
0.23501439 -0.48923671 1.0835613
0.27065957 -0.48544872 1.0821432
0.31875122 -0.49688491 1.0752946
0.366402 -0.48614329 1.0925658
0.54365599 -0.47627896 1.0970414
0.57836998 -0.48587862 1.0816569
0.62403393 -0.47259057 1.0747947
0.65563345 -0.46379119 1.0551927
-0.38056579 -0.41909033 1.0572622
-0.34668773 -0.41390586 1.0745155
-0.077537462 -0.40277719 1.091152
0.028322274 -0.41944233 1.0856405
0.050728619 -0.4412092 1.0904388
0.2386795 -0.42825443 1.089721
0.2597312 -0.42568889 1.0902274
0.63556486 -0.42610839 1.085153
0.66117877 -0.4232727 1.0612072
-0.3677302 -0.39908746 1.0553148
-0.34799919 -0.3984102 1.0581603
-0.10928374 -0.38562718 1.0655835
-0.086320631 -0.39206934 1.0800499
0.02043654 -0.39752364 1.0947864
0.2430591 -0.35968193 1.0954757
0.26351753 -0.38449594 1.0934991
0.63902986 -0.37593955 1.0905463
0.66521847 -0.37501213 1.0654138
0.64173645 -0.32491696 1.0913359
0.66766316 -0.32476515 1.067006
-1.1588196 -0.28952742 1.0523441
-1.1240158 -0.26965761 1.0713542
-1.0924648 -0.2603218 1.0942174
0.27306217 -0.25532559 1.0977288
0.64133859 -0.27353171 1.0932782
0.66863364 -0.27478012 1.0683517
-1.1185234 -0.22283666 1.0679945
-1.0913652 -0.2230151 1.0917722
-0.0038931631 -0.22445364 1.0793054
0.024904341 -0.21756691 1.0889225
0.24940194 -0.21563387 1.0982252
0.26344508 -0.21241644 1.0964434
0.64229923 -0.22618936 1.0935706
0.66892588 -0.22412632 1.0680454
-1.1172785 -0.17258972 1.0680155
-1.0913815 -0.17066978 1.0915831
0.046956427 -0.19278739 1.0515846
0.26876017 -0.1714859 1.0975841
0.64393258 -0.17397048 1.0927179
0.66935414 -0.1750087 1.0684192
-1.1165923 -0.12374643 1.0657847
-1.0900609 -0.12392514 1.0915719
0.27344248 -0.14315508 1.097524
0.64263457 -0.1251768 1.0934922
0.66918552 -0.1247975 1.0678575
-1.1149729 -0.07630837 1.0664734
-1.0880915 -0.073824584 1.0911916
0.64207608 -0.07326857 1.0931998
0.6674639 -0.075604066 1.068711
-1.1155722 -0.026988726 1.0641983
-1.0872085 -0.027016461 1.0879065
0.64231372 -0.025954867 1.0917306
0.66777879 -0.025690934 1.066943
-1.1134387 0.024536256 1.0621089
-1.0854348 0.025206169 1.08702
0.6424042 0.024524489 1.0907624
0.66724157 0.023122398 1.0660653
-1.1103096 0.074964575 1.0615717
-1.0825092 0.075919241 1.0863426
0.1724692 0.095363185 1.0836146
0.64174861 0.076150201 1.0897505
0.66554284 0.073895372 1.0653135
-1.1084305 0.12205586 1.0577151
-1.081995 0.12486181 1.0828665
0.1746797 0.12913896 1.0806092
0.64002597 0.12465823 1.0894847
0.66542804 0.12552181 1.0633956
-1.1075511 0.16178824 1.05651
-1.0819646 0.15763979 1.0812582
-0.51562256 0.19349085 1.0666921
-0.48980242 0.19371161 1.0906527
0.17852366 0.16856892 1.073836
0.63802236 0.1749004 1.0878836
0.66207635 0.17516649 1.0640262
-0.55011898 0.23968589 1.0559416
-0.51707625 0.22606567 1.0666925
-0.48518488 0.22650941 1.0838315
-0.44722739 0.2468517 1.0977277
0.18761989 0.21909013 1.083937
0.63674831 0.22620028 1.0869263
0.66119725 0.22528838 1.061763
-0.50526702 0.25761995 1.0613728
-0.47695988 0.25400499 1.0751297
-0.44446161 0.25528243 1.0972478
0.18892756 0.26799744 1.0911329
0.63616955 0.27436337 1.0847254
0.66011959 0.27609691 1.0604374
0.18967411 0.32421947 1.0813053
0.63608992 0.32561123 1.0835986
0.65884215 0.32346633 1.0595803
0.19173835 0.36641753 1.0716158
0.204317 0.38610592 1.0834962
0.63417214 0.37521347 1.0838516
0.65826052 0.37368846 1.0586748
0.21954353 0.42380023 1.0782243
0.63138437 0.4250479 1.0835062
0.65640688 0.42405403 1.0579072
0.24219833 0.46731332 1.0757529
0.25781554 0.49509791 1.0890744
0.63176948 0.47499266 1.0807927
0.65604889 0.47391081 1.0556082
0.24923891 0.50131184 1.0571611
0.2746866 0.52978069 1.083235
0.63019067 0.52473229 1.0794677
0.65477574 0.52300256 1.0542639
0.29013225 0.57033467 1.0704458
0.30700377 0.57874763 1.0813981
0.62889677 0.57468909 1.0786928
