ply
format ascii 1.0
comment PCL generated
element vertex 1447
property float x
property float y
property float z
element camera 0
property float view_px
property float view_py
property float view_pz
property float x_axisx
property float x_axisy
property float x_axisz
property float y_axisx
property float y_axisy
property float y_axisz
property float z_axisx
property float z_axisy
property float z_axisz
property float focal
property float scalex
property float scaley
property float centerx
property float centery
property int viewportx
property int viewporty
property float k1
property float k2
end_header
-1.2122476 -0.17440203 0.97953117
-1.1924523 -0.16960193 0.99437577
-0.0034310117 -0.18861306 0.95242947
0.025706058 -0.1692622 0.9773525
0.74461371 -0.17740737 0.99413437
0.76970279 -0.17425001 0.96960068
-1.210301 -0.1239597 0.98186231
-1.1932187 -0.12765157 0.99552464
0.045287769 -0.14001746 0.98240525
0.055222675 -0.11979335 0.97874403
0.74426669 -0.12150702 0.99431133
0.76907158 -0.12350129 0.96969551
-1.2098801 -0.075228907 0.97915119
-1.1928786 -0.07465481 0.99172294
0.056887839 -0.081270806 0.97011805
0.74314362 -0.072831795 0.99406177
0.76867008 -0.074387111 0.96848243
-1.2072166 -0.026853049 0.97895318
-1.1937968 -0.026898207 0.99317551
0.080964081 -0.020049086 0.96282762
0.74206179 -0.024462914 0.99359643
0.76793998 -0.026867129 0.96719337
-1.2042443 0.024966752 0.976035
-1.1884518 0.02650352 0.99129796
0.086581051 0.0059238411 0.9613629
0.74008149 0.023411924 0.99252802
0.76544696 0.022341177 0.96799052
-1.2055827 0.075707592 0.97358823
-1.1879166 0.076493658 0.98905486
0.74066377 0.073632367 0.98950213
0.76599205 0.072540782 0.96444517
-1.2056147 0.12308097 0.97002077
-1.1851777 0.12578768 0.98601645
0.73974651 0.12382694 0.98710418
0.76415056 0.12234185 0.96260136
-1.2044431 0.16354738 0.96755397
-1.1829231 0.16148062 0.98693943
-0.61833489 0.19135305 0.96777099
-0.58667785 0.19439347 0.98870927
0.73672503 0.17499667 0.98714209
0.7605316 0.17375524 0.96239126
-0.61592925 0.22857794 0.96783584
-0.58383453 0.22539482 0.9851324
0.14731584 0.24042721 0.96097684
0.7359699 0.22633009 0.98386836
0.75934982 0.22272733 0.95995021
-0.62648994 0.25901565 0.9601714
-0.56797886 0.25140661 0.99305701
0.14343688 0.29873917 0.95623076
0.73461115 0.27499381 0.9830907
0.75775856 0.27558506 0.95777518
0.7328229 0.32541287 0.98259664
0.75633281 0.32502362 0.95774364
0.16872762 0.37389773 0.96288711
0.7322982 0.37547225 0.98139495
0.75710958 0.37557885 0.95662481
0.73109698 0.4248482 0.98070586
0.75270456 0.42672876 0.9564057
0.22080372 0.48587549 0.97379303
0.73049694 0.47447997 0.97944683
0.75275397 0.47396475 0.95534623
0.23959419 0.53023583 0.97637784
0.25144863 0.54824036 0.99529934
0.72914177 0.52462679 0.97895104
0.7519421 0.52443951 0.95438421
0.2434845 0.55665535 0.9527089
0.26154876 0.57772243 0.9796105
0.72776711 0.5736711 0.97871417
0.75219852 0.57978314 0.95350212
0.27885118 0.6179446 0.97876298
0.72694665 0.62420934 0.97765422
0.7514509 0.62727368 0.95256251
0.29424652 0.66953719 0.97825003
0.30256647 0.68058157 0.98354506
0.69978434 0.67368984 0.99967498
0.72643745 0.67443866 0.97609758
0.75123978 0.69109583 0.9517951
0.30956686 0.7062034 0.97383994
0.72610426 0.72522259 0.97541827
0.7521562 0.70731217 0.95103014
0.7241962 0.7752465 0.97583079
0.75223708 0.75755852 0.95028865
0.69973767 0.83693236 0.99752843
0.72523975 0.82504368 0.97327268
0.75059354 0.80122477 0.95040131
0.69833034 0.87065077 0.99837124
0.72296262 0.87575245 0.97432303
0.69861269 0.92540264 0.99727589
0.72221828 0.92161405 0.97225404
0.14770357 -0.50176567 1.0074205
0.2630893 -0.50148845 1.0426447
0.33521423 -0.50139463 1.0232314
0.37361333 -0.5050593 1.0254678
0.42419451 -0.51120359 1.0230546
0.474756 -0.51268947 1.0249208
0.52541345 -0.51248604 1.0250783
0.575688 -0.50898153 1.0255147
0.61757725 -0.50478739 1.0184995
0.67914915 -0.50059539 1.0037442
-1.3701701 -0.46500477 1.0329252
-1.3269572 -0.46476501 1.0357261
-1.2774942 -0.46528599 1.0234383
-1.2269744 -0.46637464 1.02364
-1.1733903 -0.46851018 1.0238101
-1.1268141 -0.47101286 1.03272
-1.069365 -0.47297314 1.0249449
-1.0217841 -0.4738645 1.0253397
-0.98009598 -0.4752022 1.0275052
-0.91977262 -0.47488186 1.0220417
-0.87930131 -0.4773283 1.0261685
-0.81882161 -0.47632068 1.0162454
-0.76991838 -0.47170663 1.0268893
-0.72566116 -0.47520611 1.026208
-0.67478514 -0.47364661 1.0258875
-0.62259728 -0.47329026 1.0278356
-0.57402128 -0.47190648 1.0234218
-0.53544265 -0.47074565 1.0309991
-0.32817611 -0.47661942 1.015087
-0.27114949 -0.47093225 1.0145451
-0.23158887 -0.47013742 1.011477
-0.12398595 -0.47304863 1.0210031
-0.07388182 -0.47646061 1.0198941
-0.026704233 -0.4792172 1.0146769
0.02093493 -0.48318413 1.0162082
0.068392016 -0.48486122 1.003733
0.11059639 -0.49409661 1.0076406
0.23482177 -0.49116015 1.0455006
0.27875596 -0.49700814 1.0280957
0.3174139 -0.4983668 1.0247988
0.62904471 -0.48586106 1.0307374
0.67708915 -0.47519928 1.0245011
0.70887196 -0.4620536 1.0051925
-0.36528528 -0.41152194 1.0367742
-0.33991501 -0.40363812 1.0219843
0.6864866 -0.4256556 1.0365801
0.7122044 -0.42387122 1.0126007
-0.3587698 -0.39495212 1.0372399
-0.34966463 -0.39345288 1.0268776
0.69061553 -0.37381941 1.0407529
0.71621138 -0.37519479 1.0163629
-0.099973261 -0.34928706 1.0193441
0.69203198 -0.32701436 1.0428244
0.71842343 -0.32369283 1.0176437
-1.2067016 -0.28724033 1.0077505
-1.1733177 -0.26987159 1.0234016
-1.1470578 -0.25967306 1.0449941
0.69383198 -0.27754954 1.0434338
0.71976846 -0.274176 1.0182852
-1.170912 -0.22162765 1.0185308
-1.1429614 -0.2221093 1.0444677
0.69432414 -0.22391649 1.0442671
0.71872109 -0.22530353 1.0197657
-1.1693103 -0.17372039 1.0197567
-1.1454461 -0.16992848 1.0431826
0.036948223 -0.18153015 1.0209409
0.051404759 -0.17794959 1.0402216
0.69439286 -0.17521231 1.0445855
0.7195375 -0.17507879 1.0192614
-1.1698885 -0.12349928 1.018685
-1.1420929 -0.12237988 1.0433619
0.061688341 -0.12826392 1.0075642
0.69420701 -0.12578629 1.0438875
0.71992779 -0.12476993 1.01886
-1.16877 -0.075356305 1.0151579
-1.1412699 -0.075185083 1.0412408
0.07602264 -0.072546713 1.008158
0.69211584 -0.074034959 1.0444843
0.71753651 -0.073406592 1.0193132
-1.1679723 -0.027511166 1.0149289
-1.1394128 -0.025995972 1.0403591
0.69254196 -0.024307432 1.0423
0.71765471 -0.025801565 1.0172315
-1.1643625 0.023557667 1.014715
-1.1379488 0.024586627 1.0400994
0.69250804 0.022934407 1.0410545
0.7173174 0.022393016 1.0157582
-1.1626147 0.077509597 1.010842
-1.1381674 0.076002963 1.0353073
0.6917057 0.075171709 1.0394092
0.71557653 0.073026732 1.0150135
-1.1610276 0.12452222 1.0105119
-1.1357895 0.1227674 1.0342822
0.6903674 0.12498412 1.0384119
0.71467376 0.12410048 1.0129609
-1.1597652 0.16213883 1.0102216
-1.1316384 0.16135478 1.0349163
-0.56844628 0.19357909 1.0185423
-0.54026049 0.19177702 1.0410634
0.16085544 0.19951847 1.0244391
0.68814361 0.17493968 1.0377369
0.71184283 0.17532188 1.0129309
-0.6008203 0.23778467 1.0041628
-0.56640267 0.22699517 1.0197028
-0.53362769 0.22713804 1.0328861
-0.49439278 0.24527733 1.0466141
0.16842978 0.20263162 1.0398836
0.68627793 0.22460495 1.0360684
0.71048367 0.22343646 1.0104015
-0.56103528 0.25697389 1.0122807
-0.50601846 0.25109154 1.0433826
-0.49557194 0.25132331 1.0481704
0.68552428 0.27478701 1.0343355
0.70954275 0.27433538 1.0093362
0.16917752 0.34600842 1.0187439
0.68341869 0.32466805 1.03391
0.70769095 0.32462403 1.0091895
0.19080837 0.39622748 1.0211204
0.68313026 0.37500224 1.0328581
0.70753509 0.37521583 1.0082768
0.19846863 0.40476203 1.0223923
0.2117483 0.43492898 1.0344743
0.68240023 0.42490834 1.0313489
0.70659935 0.42501128 1.0068353
0.22502589 0.46699014 1.0245148
0.6801883 0.47563112 1.031052
0.70563078 0.47370243 1.0047613
0.24421369 0.51396662 1.0175658
0.25959393 0.54186511 1.0249896
0.67979127 0.52567112 1.028815
0.7042405 0.52213794 1.0043514
0.27471757 0.57847476 1.0248908
0.6789549 0.57572287 1.0273665
0.70293176 0.57695001 1.0025696
0.29284465 0.61653006 1.022893
0.30518872 0.62873983 1.0329919
0.67817307 0.62491071 1.0272827
0.70147574 0.62650442 1.001811
0.31832704 0.67566532 1.0277435
0.67688996 0.67526782 1.0265297
0.70149839 0.67551005 1.0019281
0.32454291 0.71215421 1.0189427
0.67701381 0.72607875 1.025596
0.70187092 0.73255605 1.0012475
0.67605054 0.77511358 1.0256555
0.70071518 0.75730264 1.0001105
0.67539555 0.82494944 1.0249704
0.70098108 0.81097227 1.0001651
0.64785659 0.89833695 1.0481139
0.67483586 0.87560874 1.0238351
0.64729655 0.92428076 1.048911
0.67279464 0.92562664 1.024328
0.66843224 0.95407844 1.0264955
0.29120821 -0.50067139 1.0780845
0.33841974 -0.50110567 1.0675933
0.37822121 -0.50367099 1.0726759
0.42487329 -0.50879818 1.0732098
0.47595343 -0.51004875 1.0746368
0.52531147 -0.50730294 1.0744067
0.56849438 -0.5031274 1.0660397
-1.4182315 -0.45928347 1.0808347
-1.3776797 -0.46240848 1.073759
-1.3243577 -0.46200028 1.0763905
-1.2790742 -0.46426323 1.0780498
-1.2268171 -0.46513042 1.0742977
-1.1692723 -0.46481967 1.0734301
-1.1241785 -0.46726176 1.074428
-1.0788072 -0.46915719 1.0779799
-1.0235721 -0.4698213 1.073947
-0.97320503 -0.47209892 1.0773115
-0.92388856 -0.47391272 1.0769526
-0.87194759 -0.48079744 1.0780516
-0.82315809 -0.47393683 1.083002
-0.76590556 -0.468366 1.0742395
-0.72630262 -0.47199526 1.0772189
-0.67628086 -0.47235999 1.0745308
-0.62716001 -0.47151935 1.0779788
-0.57489115 -0.47130281 1.0731256
-0.52624017 -0.47020209 1.0727943
-0.48430592 -0.46556726 1.0785518
-0.10860985 -0.47465479 1.0511345
-0.025663499 -0.48920932 1.0597737
0.18318804 -0.48494798 1.0919075
0.23196547 -0.48761606 1.0833697
0.27146879 -0.48687997 1.0827948
0.32185498 -0.49319473 1.0821532
0.36564821 -0.48912391 1.0888426
0.54534203 -0.47709987 1.09609
0.57938194 -0.48670813 1.0819726
0.62484455 -0.47239876 1.0746585
0.65756959 -0.46207502 1.0540855
-0.3699477 -0.41020676 1.0599597
-0.34613794 -0.41239247 1.0737455
-0.080318913 -0.40844053 1.0902219
0.029893393 -0.42041311 1.08319
0.050653785 -0.43783608 1.0895905
0.23393746 -0.42831773 1.0920721
0.26042479 -0.42448208 1.09479
0.63560796 -0.42553556 1.0854167
0.66219109 -0.42504439 1.0602413
-0.37103623 -0.39716637 1.0663085
-0.11276831 -0.38549569 1.0683812
-0.088426463 -0.39491862 1.0724941
0.020344753 -0.39281243 1.0899078
0.24589086 -0.39997917 1.0996037
0.26536876 -0.37853163 1.0963228
0.63861465 -0.37529355 1.0911514
0.66464108 -0.37499541 1.0657812
-0.1571357 -0.32218412 1.0683854
0.26312876 -0.34431064 1.0995815
0.64191633 -0.32538736 1.091705
0.66789538 -0.32439166 1.06662
-1.1567777 -0.28901726 1.0504898
-1.1245173 -0.27071968 1.0716243
-1.0932125 -0.2570273 1.0918444
0.64164895 -0.27431014 1.0930183
0.66870785 -0.27494824 1.0682553
-1.118562 -0.22214256 1.0670608
-1.0906192 -0.22217143 1.0918608
-0.013962817 -0.21863823 1.0512846
0.032602519 -0.21217544 1.0842358
0.2635417 -0.21618652 1.0987961
0.64283937 -0.22718799 1.0938092
0.66915596 -0.22452748 1.0679133
-1.1188372 -0.17380506 1.065938
-1.0915375 -0.17033646 1.0907758
0.044637352 -0.19635533 1.056823
0.057146508 -0.17261991 1.0543287
0.26196846 -0.1762774 1.0968649
0.64433157 -0.17318524 1.0931273
0.66947037 -0.17586496 1.0687196
-1.1164016 -0.12371885 1.0656024
-1.0894235 -0.12485682 1.0920097
0.64277858 -0.12520228 1.0937368
0.66896522 -0.12550603 1.0681536
-1.1144841 -0.075287275 1.0676285
-1.0863935 -0.075296819 1.0916542
0.64203042 -0.072616637 1.0931594
0.66717857 -0.075296544 1.0690171
-1.115245 -0.026990553 1.0638832
-1.0875425 -0.027018074 1.0882471
0.64256823 -0.02586926 1.0928998
0.66665745 -0.025901956 1.0683266
-1.1130534 0.024420466 1.0623589
-1.0867779 0.024492159 1.0874262
0.64185351 0.023326259 1.0909362
0.66717255 0.023120113 1.0659596
-1.1132376 0.074719638 1.0612872
-1.083815 0.077246606 1.0862392
0.16848323 0.093021937 1.0793242
0.64199424 0.075509019 1.0893664
0.6668396 0.074147582 1.0647854
-1.1094387 0.1239764 1.0584834
-1.0820837 0.12458466 1.0840669
0.17702754 0.13069636 1.0860928
0.64008868 0.12498214 1.0889195
0.66522151 0.12583812 1.0631467
-1.1109216 0.16357043 1.0570501
-1.0813912 0.15810689 1.0825239
-1.03102 0.18386725 1.0995862
-0.51901031 0.19295956 1.0657095
-0.48927599 0.19443332 1.0888618
0.18051712 0.1672601 1.0769697
0.63859344 0.17448625 1.0874919
0.66290605 0.17545941 1.0632374
-0.51916015 0.22740167 1.0665076
-0.48446912 0.22474977 1.0856394
-0.44322026 0.24618706 1.0955789
0.18474647 0.22089633 1.0808439
0.63650835 0.2261553 1.0872942
0.66142869 0.22473355 1.0614238
-0.50513053 0.25756091 1.0611221
-0.4733265 0.25278759 1.0762417
-0.44360426 0.25518179 1.0923877
0.18887863 0.28667444 1.0875793
0.63727587 0.27380401 1.084182
0.66011834 0.27576262 1.0603437
0.18809269 0.33764926 1.0725027
0.63585526 0.32528096 1.0838773
0.65866739 0.32360128 1.0600088
0.19287281 0.37123424 1.0656475
0.20717925 0.38627136 1.0881757
0.63366425 0.37502238 1.0838004
0.65832752 0.37332475 1.0589013
0.21966177 0.42344287 1.0809393
0.63235074 0.42494294 1.082606
0.65753347 0.42532822 1.0573678
0.24168587 0.46645242 1.0799905
0.25592223 0.48840711 1.089451
0.63161361 0.47504804 1.0804763
0.65583873 0.47396633 1.0560882
0.24989545 0.50263244 1.0599458
0.27200076 0.52852726 1.0790936
0.63023674 0.52477252 1.079541
0.65502465 0.52114189 1.0548621
0.28896898 0.57051444 1.0705941
0.30668196 0.58532828 1.0807937
0.62899822 0.57445198 1.0789062
0.6533376 0.56947631 1.054029
0.29849911 0.60570496 1.0554047
0.31848603 0.62302351 1.0709368
0.62873125 0.6251266 1.0781448
0.65301907 0.62377357 1.0529436
0.32716113 0.65884525 1.055988
0.62800324 0.67611605 1.0770688
0.65205741 0.66875958 1.0525111
0.62785625 0.7254861 1.0760313
0.65197563 0.72141248 1.0517311
0.62619054 0.77562052 1.0769929
0.65135688 0.77430457 1.0516324
0.62721127 0.82510382 1.0746459
0.62649596 0.87431526 1.0743499
0.6520288 0.86656797 1.0503891
0.62355143 0.92458218 1.0765241
0.59975713 0.95730507 1.0986274
0.62259477 0.96348667 1.0765604
0.65082818 0.96374434 1.0504749
0.3829633 -0.50074708 1.1033459
0.42765871 -0.50378013 1.1112403
0.47450387 -0.50472611 1.1155515
0.51808 -0.501894 1.1102458
-1.4687239 -0.45602223 1.1327866
-1.4220589 -0.45585266 1.1199199
-1.3757597 -0.46020287 1.1269505
-1.3270146 -0.4620316 1.1216204
-1.2790467 -0.46065643 1.1242391
-1.2272025 -0.46398163 1.1206748
-1.1788743 -0.46409002 1.1259421
-1.124591 -0.46472597 1.1273286
-1.073191 -0.46499938 1.1288497
-1.0233642 -0.46627653 1.1220894
-0.97354084 -0.4675903 1.1242732
-0.92543894 -0.47195897 1.1252191
-0.87746131 -0.47262588 1.1255772
-0.82342368 -0.46827707 1.128293
-0.77617002 -0.46831134 1.1256303
-0.71992612 -0.46552357 1.117627
-0.67694598 -0.46581104 1.1200538
-0.62361038 -0.46725833 1.1253411
-0.57637769 -0.46743667 1.1282279
-0.52437657 -0.46868959 1.1244572
-0.47577274 -0.46997422 1.1273769
-0.43772891 -0.46897516 1.1343009
0.083141752 -0.47125444 1.1357404
0.128512 -0.47632381 1.1290836
0.17668785 -0.47743958 1.1211584
0.22284523 -0.47467297 1.1153487
0.27723268 -0.48148063 1.1144987
0.32268628 -0.49082333 1.1190928
0.37214816 -0.49182943 1.1151277
0.42352536 -0.49203771 1.1251006
0.47583044 -0.4869501 1.1371973
0.52458805 -0.48524711 1.123153
0.57591343 -0.47004196 1.1238482
0.60666454 -0.46049517 1.1058114
-0.070673652 -0.40777263 1.1132871
-0.046419479 -0.40793383 1.1313286
0.039196081 -0.41908145 1.1100845
0.056180302 -0.43309689 1.1142892
0.13044982 -0.41554421 1.1480927
0.18408458 -0.42003009 1.1325508
0.21878217 -0.41968325 1.1139883
0.27595225 -0.43064821 1.1161779
0.37037021 -0.41674575 1.1472156
0.58651626 -0.42612618 1.1345619
0.61081868 -0.42343774 1.110929
-0.068706229 -0.39153913 1.111684
-0.042952444 -0.39363793 1.1168896
0.18364714 -0.38001961 1.1382928
0.22530963 -0.37563077 1.1197523
0.26296932 -0.37278542 1.1078098
0.36834139 -0.38433984 1.1448493
0.58919924 -0.37682611 1.1399022
0.61431903 -0.37469977 1.1149838
0.18946794 -0.32699701 1.142826
0.22545964 -0.32684892 1.1245419
0.26556396 -0.32542023 1.111589
0.59173149 -0.32491016 1.1414087
0.6168887 -0.32491127 1.116383
-1.1079444 -0.28815791 1.1058162
-1.0723474 -0.27231997 1.1215621
-1.0430298 -0.26043627 1.1401854
0.19252147 -0.26654509 1.1449736
0.22699983 -0.27530679 1.12771
0.26603264 -0.2751523 1.1123466
0.59216875 -0.27517644 1.1423942
0.61711985 -0.27439249 1.1179873
-1.0660092 -0.22392482 1.1161518
-1.0398332 -0.22193791 1.1393508
0.022800345 -0.22420764 1.1096733
0.19423325 -0.22571702 1.1431201
0.2259654 -0.22458677 1.1294618
0.26672989 -0.2248241 1.11046
0.59313667 -0.22395833 1.143187
0.61807442 -0.22460666 1.1180669
-1.066745 -0.17301112 1.1139486
-1.0392994 -0.17513581 1.1397496
0.19562222 -0.17121278 1.1482394
0.22871053 -0.17624089 1.1312892
0.26444548 -0.17193191 1.1087508
0.59328121 -0.1762206 1.1435057
0.61931777 -0.17461421 1.1175011
-1.0633497 -0.12301982 1.1160293
-1.0354089 -0.12638763 1.1405845
0.19024912 -0.14853767 1.1478481
0.23143961 -0.12576808 1.1370649
0.26475853 -0.12460039 1.1149647
0.59331989 -0.12557483 1.1435072
0.6168682 -0.12506835 1.1201341
-1.0639558 -0.075446464 1.1137837
-1.0382835 -0.075624011 1.1380191
0.23722197 -0.095299877 1.1400555
0.26518667 -0.092954487 1.1280304
0.59372318 -0.072509453 1.1432359
0.61796719 -0.075965263 1.1191543
-1.0621213 -0.027122086 1.113699
-1.0336747 -0.026021531 1.1369188
0.59469944 -0.026579484 1.1419675
0.61861545 -0.026120782 1.1173867
-1.0622058 0.02257525 1.1102144
-1.0352277 0.025793739 1.1338865
0.593907 0.024255669 1.1414002
0.61709988 0.023586322 1.1172727
-1.0597006 0.076044075 1.1099876
-1.0316125 0.074971698 1.1338701
0.18704723 0.096888021 1.1150241
0.2002548 0.099453598 1.1436102
0.5939272 0.075439267 1.140918
0.61772186 0.07560581 1.1155977
-1.0581334 0.12207593 1.1056544
-1.0298282 0.124383 1.1319436
0.19195294 0.12366245 1.11858
0.20640704 0.13160533 1.1442671
0.59223318 0.12554613 1.1397359
0.6148141 0.12472972 1.115628
-1.0540076 0.16149613 1.1093386
-1.0294811 0.15875223 1.1298287
-0.46639347 0.19370843 1.1167594
-0.44328013 0.19357602 1.1438562
0.19572549 0.17484696 1.1192467
0.20705298 0.17970559 1.1371212
0.58892065 0.17553228 1.1398885
0.61394894 0.17460883 1.1141151
-0.50050783 0.23967822 1.1043059
-0.4674404 0.22647694 1.1187073
-0.43574545 0.22877617 1.1350623
0.19401422 0.22097643 1.1100529
0.20655781 0.22187604 1.1357559
0.58712751 0.22450721 1.1381754
0.61122972 0.22397786 1.1138672
-0.45738566 0.26066473 1.1052465
-0.42559072 0.25351462 1.1221485
0.19631989 0.27627122 1.1106473
0.20896628 0.27483389 1.1357394
0.58710253 0.273895 1.13603
0.61206448 0.27617389 1.1109115
0.19910106 0.31310168 1.1106133
0.2124293 0.33012578 1.1321739
0.58606845 0.32508075 1.1360985
0.61054683 0.32538947 1.1108391
0.22096819 0.37384185 1.1276977
0.58556557 0.37487537 1.1336845
0.60955441 0.37592146 1.1092122
0.23707047 0.42628351 1.1225485
0.25415131 0.4444527 1.1423584
0.58466351 0.42577022 1.1320286
0.60833228 0.42377278 1.1078051
0.24566406 0.45445243 1.1118385
0.26745969 0.47799149 1.1295602
0.58189416 0.4762851 1.1320827
0.60620755 0.47239843 1.106761
0.28654921 0.51922315 1.1189981
0.30672556 0.53906512 1.1372123
0.58126765 0.52528733 1.1295657
0.60544354 0.52337235 1.1049935
0.31676203 0.56954807 1.1254498
0.58040762 0.57457149 1.1285381
0.60467339 0.57780182 1.1036829
0.32852259 0.60961431 1.1034744
0.57836884 0.62477642 1.1290174
0.60308045 0.62718844 1.1049607
0.57854456 0.67500579 1.1280872
0.60383284 0.67129499 1.1032814
0.57761401 0.72518748 1.1268518
0.60299325 0.72221416 1.1018592
0.57628256 0.77534813 1.1280441
0.60115933 0.77547276 1.1028321
0.5780102 0.82478613 1.125602
0.60259628 0.82335633 1.1012293
0.57563406 0.87394923 1.1274278
0.60133791 0.87768978 1.1018796
0.57880831 0.92626101 1.1246276
0.57581681 0.97279441 1.1270031
0.55994272 1.0007787 1.1470608
-1.5218898 -0.45472336 1.1731077
-1.4860045 -0.45488492 1.1766845
-1.4212598 -0.45672178 1.1732867
-1.3696002 -0.45909423 1.1729503
-1.3276212 -0.45868587 1.1778152
-1.2724607 -0.45819482 1.1689761
-1.2305704 -0.46132231 1.1795683
-1.1696687 -0.46148035 1.1682369
-1.1188302 -0.46163437 1.1828737
-1.0684097 -0.46253505 1.1756364
-1.0221843 -0.46233031 1.1754178
-0.97351879 -0.46405175 1.1759266
-0.92354995 -0.46788704 1.1741952
-0.87732804 -0.46571982 1.1718483
-0.82716537 -0.46179065 1.1795371
-0.77527022 -0.4630875 1.1720473
-0.73132461 -0.46630332 1.1800026
-0.67476261 -0.46660614 1.1711171
-0.62874997 -0.46871519 1.1836196
-0.57126099 -0.46329671 1.1756577
-0.52325386 -0.46742696 1.1746638
-0.47712466 -0.47152844 1.1760967
-0.44067824 -0.46857658 1.1657335
-0.0073924074 -0.46843511 1.1829817
0.083576739 -0.4694998 1.1714121
0.12700114 -0.46985039 1.1775585
0.1711536 -0.46518561 1.1661743
0.3273806 -0.47412437 1.1690257
0.37429798 -0.48082495 1.1807567
0.42219818 -0.48227468 1.179585
0.47071496 -0.4852314 1.1684799
0.52627808 -0.46906048 1.1767713
0.5569613 -0.46117273 1.1537021
-0.81621671 -0.44501343 1.1914171
-0.027406242 -0.41569802 1.1620731
0.0825959 -0.41025239 1.1935723
0.12678066 -0.41869256 1.1771594
0.16012053 -0.42624208 1.1578962
0.29421374 -0.41561872 1.1541828
0.32487881 -0.42235801 1.1646667
0.36582804 -0.42435509 1.1630664
0.41557288 -0.42835853 1.1841501
0.53416234 -0.42586324 1.1844243
0.56149918 -0.42381513 1.1598713
0.089009345 -0.39371246 1.1952622
0.12878361 -0.37402415 1.180486
0.16594291 -0.36819136 1.1586242
0.29469049 -0.39279792 1.1617826
0.31962419 -0.37725854 1.1811893
0.36552128 -0.37867197 1.1787707
0.41420335 -0.37352505 1.1927192
0.53712511 -0.37650716 1.1882932
0.5639894 -0.37383509 1.1633472
0.13102011 -0.32931367 1.1878771
0.16936325 -0.32281348 1.1654654
0.20610265 -0.31072733 1.1526076
0.33508772 -0.33428767 1.1936871
0.36305451 -0.32758504 1.1820461
0.41496357 -0.32821146 1.1984378
0.53905433 -0.32595673 1.191102
0.56575251 -0.32537693 1.1662298
-1.0515401 -0.29136461 1.1573416
-1.0211533 -0.27321863 1.1701421
-0.98806262 -0.26216668 1.191395
0.1360417 -0.27662677 1.1833715
0.17175275 -0.2754156 1.1666591
0.20411202 -0.28347924 1.1540991
0.36838964 -0.2755349 1.1833544
0.41616982 -0.26797801 1.1928427
0.54202545 -0.27587414 1.1911262
0.56830382 -0.2751863 1.1666183
-1.0145364 -0.22404478 1.1627731
-0.98588413 -0.223702 1.1876603
0.13862231 -0.22776093 1.1943465
0.17331885 -0.22490494 1.169953
0.37647793 -0.23453632 1.1837184
0.41203469 -0.205198 1.1705532
0.54188019 -0.2240141 1.1930264
0.56833571 -0.22482513 1.1682545
-1.0144439 -0.17302246 1.1621071
-0.98563516 -0.17289783 1.1856359
0.074834898 -0.17500357 1.1736246
0.13731235 -0.1737071 1.1948529
0.17192639 -0.17689167 1.1720408
0.21039777 -0.17070729 1.1539124
0.37947959 -0.1829761 1.1894035
0.41210717 -0.17172979 1.1710268
0.54247594 -0.17459735 1.1932956
0.56867003 -0.17487884 1.1686262
-1.0109818 -0.12406999 1.1633788
-0.98621941 -0.12478694 1.1875695
0.096085384 -0.10893874 1.1964782
0.14168838 -0.13284525 1.1931328
0.17505465 -0.1247993 1.1780082
0.21049841 -0.12343661 1.1555843
0.30471328 -0.13990727 1.1918019
0.3874779 -0.13343379 1.1799643
0.41090947 -0.12320225 1.1742307
0.54454017 -0.12553284 1.1935087
0.57026863 -0.12409341 1.1674963
-1.0124477 -0.075789288 1.1610085
-0.98419899 -0.076051094 1.1866378
0.098482877 -0.079888478 1.1921232
0.13947673 -0.093125731 1.1977556
0.17487407 -0.090739682 1.1873279
0.22235121 -0.089083739 1.1649758
0.26551783 -0.086101651 1.1558233
0.39982116 -0.09952113 1.181199
0.41328087 -0.075487174 1.1783804
0.54400927 -0.075127482 1.1946228
0.56954807 -0.075035751 1.1677388
-1.011394 -0.029574828 1.1587296
-0.98395377 -0.027007902 1.1831126
0.12190889 -0.040130455 1.1978843
0.41544873 -0.027742865 1.1792954
0.54449505 -0.026576564 1.1926624
0.56923723 -0.026929975 1.1685629
-1.0105098 0.025553267 1.156262
-0.98320544 0.024022581 1.1812522
0.41849995 0.02078432 1.1787032
0.54328042 0.024206001 1.1944927
0.56866616 0.023959817 1.1680936
-1.0068713 0.07609868 1.1544119
-0.9803496 0.076810963 1.1809028
0.41869101 0.074811473 1.1782115
0.54344857 0.076212667 1.1938914
0.56865299 0.074750043 1.1674244
-1.0042304 0.1243933 1.1542785
-0.97738081 0.12549949 1.17853
-0.94493997 0.1315968 1.1998065
0.21757086 0.1286242 1.1741382
0.42461777 0.11597473 1.1896232
0.5437308 0.12499922 1.1915616
0.56751466 0.12437724 1.1663491
-1.0096701 0.16249342 1.1566098
-0.97917891 0.15878274 1.1759489
-0.42272016 0.19566622 1.1717058
0.22279559 0.17444457 1.1799538
0.42173818 0.18029518 1.1947831
0.54169637 0.17551048 1.1900018
0.56497186 0.17423432 1.1664543
-0.45467985 0.24481773 1.155655
-0.42005467 0.22501446 1.1716384
-0.38695496 0.23287936 1.1865677
0.22834188 0.22724128 1.1775612
0.33240417 0.22517037 1.1978253
0.42213297 0.21263497 1.1939381
0.53891838 0.22432701 1.1883547
0.5633139 0.22615609 1.1631042
-0.40582073 0.25671521 1.1573603
-0.37021124 0.25613165 1.1825367
-0.34984913 0.25018767 1.1978483
0.2313603 0.27620265 1.1739976
0.25000745 0.29589498 1.199363
0.53638476 0.27371311 1.1886826
0.56140125 0.27517581 1.1635323
0.23574646 0.32255059 1.1752096
0.25141186 0.33326435 1.1997195
0.53677905 0.32541704 1.1865369
0.56193429 0.32412791 1.1610318
0.24186587 0.37110034 1.1647718
0.25721776 0.38324597 1.1839221
0.53592771 0.37571207 1.1853201
0.559816 0.37341985 1.1609657
0.24720138 0.41250262 1.1610936
0.26518366 0.42614502 1.1740549
0.53388298 0.42590961 1.1837374
0.55920959 0.42400587 1.1581726
0.28523266 0.47070289 1.1694628
0.30416563 0.48956433 1.1852741
0.53295511 0.47552431 1.1814189
0.55734831 0.47231403 1.1575114
0.29312617 0.50003177 1.1518193
0.30737382 0.51507246 1.1656121
0.53040916 0.52601147 1.1812248
0.55604649 0.5231685 1.1558175
0.53148007 0.57495791 1.1775267
0.55599189 0.57377678 1.1538672
0.52880019 0.62445307 1.1789011
0.55421948 0.62503475 1.1538116
0.52813578 0.67440438 1.17883
0.55376399 0.67675287 1.1538697
0.52794564 0.72489852 1.1784366
0.55315751 0.71925056 1.1535673
0.52769446 0.7746858 1.177898
0.55130816 0.77186871 1.1532223
0.52778864 0.82469106 1.1772753
0.55168468 0.82368374 1.1525546
0.52870101 0.87487888 1.1771051
0.55147958 0.88066185 1.1520491
0.52956694 0.92571002 1.1771848
0.55357867 0.92253238 1.1521986
0.52945179 0.97431779 1.1784812
0.5514347 0.9774003 1.1540626
0.52566165 1.0103 1.1818231
0.55512768 1.0051788 1.1551912
-1.6081799 -0.45638102 1.2330505
-1.5860893 -0.45785198 1.2249146
-1.5235816 -0.45478964 1.223863
-1.4784715 -0.4584662 1.2267333
-1.4168174 -0.45502266 1.2228755
-1.3707447 -0.4571209 1.2258915
-1.3200837 -0.45654759 1.2334274
-1.272367 -0.45687836 1.2280469
-1.2181482 -0.46050283 1.2258009
-1.168928 -0.45822078 1.2223761
-1.1232151 -0.45964161 1.2264973
-1.0767314 -0.45841518 1.2256004
-1.0269737 -0.45638865 1.2200779
-0.97536433 -0.45844027 1.2235526
-0.92613673 -0.46137667 1.2250817
-0.87702978 -0.45950088 1.2202953
-0.81096542 -0.45869526 1.2291192
-0.77526331 -0.46269137 1.2270793
-0.72618508 -0.4647432 1.2242525
-0.6761508 -0.46534514 1.2236217
-0.62195253 -0.46496817 1.2251705
-0.57471573 -0.46788397 1.2291888
-0.52627891 -0.46647325 1.2292727
-0.4735986 -0.46523097 1.2157637
-0.42940798 -0.45707759 1.2206699
-0.060088266 -0.4716368 1.2331554
-0.023645815 -0.46812689 1.2283797
0.088479899 -0.46548074 1.2206557
0.11604267 -0.46215636 1.216018
0.38624701 -0.47867242 1.2044777
0.43171394 -0.47184044 1.2132874
0.47688675 -0.4687638 1.2174107
0.50367862 -0.46176147 1.2026609
-1.0144645 -0.44190058 1.240923
-0.98231369 -0.43442559 1.2244369
-0.86664969 -0.44456488 1.2422595
-0.041343816 -0.44731298 1.2315797
0.041705921 -0.43213612 1.245255
0.081474036 -0.42882594 1.2153432
0.11006337 -0.43998978 1.2083219
0.36215118 -0.40472922 1.2491606
0.43840882 -0.42169851 1.2196345
0.47639272 -0.42437741 1.2288254
0.5093435 -0.42300737 1.2067463
0.044249255 -0.35984465 1.2445499
0.080178469 -0.37393165 1.2161838
0.10827602 -0.38496569 1.2054832
0.32839721 -0.36318934 1.2064371
0.36170694 -0.37611189 1.2218033
0.43230656 -0.37612942 1.2180363
0.47626328 -0.37515411 1.2358136
0.51111829 -0.3738454 1.2114975
-0.98800588 -0.30694363 1.2087812
0.046996742 -0.33336067 1.2411065
0.080355249 -0.32312769 1.2316269
0.11024554 -0.32007697 1.2091298
0.32642862 -0.33252537 1.220488
0.35552812 -0.31179589 1.2168083
0.42853492 -0.3256079 1.2206211
0.47962648 -0.32626292 1.2362856
0.51526469 -0.32455558 1.2126315
-1.0058482 -0.29367319 1.20609
-0.97407484 -0.27416161 1.2115018
0.086323716 -0.27601302 1.2376266
0.11131151 -0.27179259 1.2092851
0.15742974 -0.25921309 1.2011032
0.34297588 -0.29499221 1.2418209
0.36189824 -0.27521631 1.2248583
0.42305011 -0.29312888 1.2092502
0.47994119 -0.27339208 1.237425
0.5173161 -0.27527425 1.2134856
-0.96320301 -0.22327366 1.2102175
0.091388814 -0.22877212 1.2298144
0.11888432 -0.22405384 1.2165167
0.37698993 -0.22382416 1.2317938
0.47926944 -0.22542952 1.2393695
0.5167259 -0.22647037 1.2157259
-0.96230966 -0.17556545 1.2117876
0.090483405 -0.16927025 1.2134013
0.12000294 -0.17565972 1.217896
0.15244637 -0.16546252 1.2036208
0.38196912 -0.17927258 1.2299939
0.48291451 -0.17347018 1.2412407
0.51722652 -0.17621012 1.2165109
-0.96461177 -0.12566715 1.21112
-0.94728106 -0.13577691 1.2161345
0.095344469 -0.13489297 1.22241
0.12359187 -0.12428668 1.2134641
0.15765828 -0.12338399 1.2017964
0.32253465 -0.12018143 1.2302536
0.3928659 -0.1144534 1.2242178
0.44259247 -0.14081311 1.22684
0.4811883 -0.12785751 1.2391362
0.51983249 -0.12592535 1.2155526
-0.96107119 -0.076465979 1.211074
0.099780478 -0.092514306 1.2072908
0.1275972 -0.085887842 1.2188407
0.16771926 -0.087031566 1.2071507
0.20405842 -0.086794533 1.2000802
0.32490289 -0.097570151 1.2490102
0.39473003 -0.092589431 1.2274197
0.40686199 -0.081047349 1.2291886
0.48064038 -0.078097925 1.2385049
0.51904666 -0.077236883 1.216499
-0.95897168 -0.028580714 1.2093989
0.11643739 -0.04411988 1.2130196
0.41451788 -0.016388007 1.2083027
0.48150805 -0.02814175 1.2383895
0.52038246 -0.02777642 1.2159475
-0.95972657 0.026048437 1.2055073
-0.94732302 0.041863795 1.2082217
0.42572233 0.024498433 1.2263622
0.47965211 0.025388399 1.2377095
0.51860917 0.02479291 1.2170576
-0.95579439 0.073952794 1.2026938
-0.9475528 0.076510288 1.2070303
0.42003411 0.066307448 1.2137988
0.48114368 0.078290954 1.2369758
0.51866186 0.077055104 1.2166306
-0.95448685 0.11118012 1.2003795
-0.94714028 0.12383058 1.2032356
0.2392803 0.12645659 1.2228017
0.25524989 0.14499253 1.243672
0.42577815 0.12554331 1.2152091
0.48257506 0.12788786 1.2363305
0.51920003 0.12644039 1.2149881
-0.94889259 0.15643984 1.2024136
-0.40117094 0.19841348 1.2056046
-0.37438139 0.19623968 1.2214372
0.2403814 0.17545046 1.2115244
0.25584146 0.18127379 1.2280865
0.4265559 0.17413454 1.2101802
0.48034284 0.17691448 1.2351578
0.51788694 0.17521115 1.2142906
-0.40614024 0.24468474 1.2049977
-0.37259498 0.22480235 1.2223946
-0.34834838 0.21965224 1.2460955
0.24901836 0.22693692 1.2045527
0.27385363 0.22219777 1.2325261
0.31832775 0.21546777 1.224182
0.4217827 0.21827841 1.2095546
0.48309106 0.22281164 1.2351767
0.51499742 0.22447243 1.2118734
-0.36425218 0.2500315 1.2259248
0.24983963 0.27204818 1.202281
0.27005768 0.27980715 1.2256284
0.32270113 0.28970826 1.2470481
0.36665845 0.28421271 1.2478747
0.43613145 0.26524413 1.2464834
0.47528306 0.27347043 1.2334534
0.51212811 0.27685791 1.2119023
0.27046302 0.32208556 1.2248091
0.30392772 0.30242515 1.2452185
0.47926873 0.3243728 1.2352662
0.51199675 0.32421315 1.2108967
0.27050397 0.37104562 1.219183
0.4805001 0.37469628 1.2350603
0.51064104 0.37524235 1.2094762
0.2844983 0.41931522 1.2170236
0.48218521 0.42510542 1.2321569
0.51005816 0.42278934 1.2077215
0.30434924 0.47590643 1.2087238
0.4804492 0.47432521 1.2321986
0.5073306 0.47460669 1.2064803
0.48071161 0.52527881 1.2299714
0.50594741 0.52153653 1.205219
0.47939229 0.57557422 1.2290128
0.50587291 0.57277191 1.2044336
0.47806531 0.62547207 1.2286608
0.50402826 0.62163025 1.2041177
0.47895029 0.67551225 1.2269858
0.50288707 0.67707545 1.2033387
0.47697091 0.72487813 1.228726
0.50303638 0.7269606 1.2033896
0.47857618 0.77391523 1.2274485
0.50352651 0.77497751 1.2037733
0.47928375 0.82260883 1.2272055
0.50323063 0.82824659 1.2037004
0.48007536 0.87433976 1.2286066
0.50359684 0.88124752 1.2043861
0.48081475 0.92372513 1.2298306
0.50490928 0.92837059 1.2058282
0.4823072 0.97595447 1.2318439
0.50472867 0.97786552 1.2083321
0.48098412 1.0226576 1.2326744
0.50494307 1.0165623 1.2059633
-1.6100093 -0.45870519 1.2846256
-1.5665691 -0.45504159 1.2644525
-1.5232968 -0.45420429 1.2722468
-1.4686279 -0.45400167 1.2714514
-1.418499 -0.45387673 1.2740387
-1.3699565 -0.45279345 1.2658143
-1.3291982 -0.45435211 1.2842865
-1.2740544 -0.45649147 1.2755599
-1.221508 -0.4559446 1.2704773
-1.1754091 -0.45674878 1.2790375
-1.1257341 -0.45793566 1.2709596
-1.077099 -0.45626757 1.2769656
-1.0036117 -0.45668626 1.2887552
-0.96653748 -0.46001723 1.2742554
-0.92188108 -0.45703959 1.2749183
-0.8639378 -0.45724189 1.2677325
-0.8254227 -0.45879588 1.2808123
-0.77019393 -0.4559603 1.2715625
-0.72581917 -0.45743772 1.2712213
-0.67327857 -0.45949352 1.2737631
-0.62334108 -0.46061862 1.2778734
-0.57483757 -0.46694884 1.2791064
-0.52838326 -0.46696654 1.2770786
-0.48341262 -0.46742421 1.2795298
-0.055641219 -0.4738574 1.2757275
-0.025716512 -0.46701774 1.2703992
0.017247027 -0.46395811 1.2863011
0.074967906 -0.4590458 1.2590719
-1.519619 -0.44931313 1.2745448
-1.4979011 -0.44824818 1.2887965
-1.377246 -0.44755745 1.2889401
-1.0681493 -0.43541589 1.2967112
-1.021331 -0.42562175 1.261269
-0.99464583 -0.43837473 1.2504807
-0.90980214 -0.44080168 1.2798773
-0.8780598 -0.44689217 1.2699851
-0.17966308 -0.44671646 1.2995042
-0.10612223 -0.42133379 1.280671
0.045757625 -0.44779897 1.2706463
0.36998057 -0.40445971 1.261578
-1.0196729 -0.36258453 1.2667222
0.038773529 -0.3595331 1.2662338
0.36690065 -0.39431891 1.2618513
0.44908646 -0.37704054 1.2504363
0.4558306 -0.35814226 1.2537369
-1.0255526 -0.33587399 1.2656515
0.038306497 -0.32861316 1.2556076
0.064506024 -0.31819844 1.2620436
0.33686453 -0.31738958 1.2589976
0.35394827 -0.30850562 1.2541004
0.45963639 -0.3213723 1.2544844
0.072315894 -0.27759701 1.2567251
0.34083834 -0.27841485 1.2733028
0.35844302 -0.26373702 1.2723676
0.46008718 -0.27812052 1.2535887
0.33936301 -0.22398573 1.2782722
0.36352259 -0.22630343 1.2765971
0.46485287 -0.21457727 1.2554935
0.34038001 -0.17367309 1.2741088
0.36991134 -0.17619286 1.2731775
0.46779209 -0.17797145 1.2542998
0.34254977 -0.13021073 1.2741488
0.37336537 -0.12334824 1.2757729
0.40213501 -0.13136654 1.2659916
0.46451938 -0.11966553 1.2548409
0.33723378 -0.099405438 1.2714272
0.38306507 -0.093363523 1.2732655
0.42160383 -0.068367586 1.2940087
0.46223694 -0.064377539 1.2554516
0.42583007 -0.031456381 1.2968465
0.46191075 -0.024924817 1.2548172
0.43172687 0.012902311 1.2988741
0.46357468 0.019986944 1.2559695
0.46582073 0.067740142 1.2556909
0.2581009 0.13134873 1.2586949
0.4650276 0.12220782 1.252496
-0.35055047 0.19773941 1.2526996
-0.3463864 0.19889437 1.2611891
0.27017841 0.19540963 1.2507471
0.4297483 0.18586341 1.2878422
0.46436083 0.19212441 1.2540165
-0.35455412 0.2308865 1.268306
-0.34705946 0.21893132 1.2736722
0.28436092 0.21829039 1.2604849
0.30475384 0.22860172 1.2706407
0.37515199 0.22859366 1.2815878
0.42119709 0.24188012 1.2824577
0.47211039 0.24081603 1.2689786
-0.35933051 0.25441226 1.2779719
0.28968325 0.27832332 1.2670165
0.32789484 0.27497765 1.2717024
0.37517822 0.27490285 1.269966
0.42581892 0.27698576 1.2693319
0.45730877 0.26582482 1.2661996
0.29145873 0.31798983 1.2583797
0.32377091 0.3071869 1.262161
0.39140844 0.30286196 1.2882397
0.42724228 0.32493284 1.2772392
0.45343962 0.32467371 1.2526504
0.42599222 0.37481412 1.2788123
0.45559892 0.37391305 1.2542815
0.42606384 0.42410985 1.2800815
0.45648533 0.42837632 1.255376
0.42647827 0.47546226 1.2797961
0.45560256 0.47697404 1.25542
0.42695367 0.52490133 1.2796226
0.45500275 0.52744645 1.2545081
0.42740172 0.57537496 1.2785641
0.45387745 0.57544029 1.2531337
0.42652443 0.62458915 1.2785907
0.45317709 0.62185258 1.2524457
0.38380623 0.67829257 1.2878655
0.42632639 0.6745019 1.278091
0.45329693 0.67549616 1.2523965
0.39587918 0.74699992 1.263388
0.42594874 0.72587228 1.2775213
0.4527069 0.7284857 1.2522429
0.4309465 0.7747314 1.2738055
0.45373067 0.77337039 1.2520168
0.43241236 0.82377619 1.2724421
0.45348865 0.82575762 1.2532519
0.43504885 0.87248784 1.2723466
0.45508781 0.87097687 1.2553968
0.4386847 0.92275226 1.2741334
0.45686176 0.92378694 1.2563299
0.43816099 0.97226918 1.2722572
0.45695135 0.97555691 1.2562703
0.44009849 1.0248873 1.2706944
0.45633978 1.029794 1.2573336
0.43659511 1.0528468 1.2616497
0.46292871 1.052014 1.2524781
-1.6757448 -0.45697519 1.324904
-1.6262159 -0.45476824 1.3261902
-1.5749834 -0.45910063 1.3406188
-1.5216665 -0.45419502 1.3314873
-1.4750468 -0.45542353 1.3253328
-1.4200212 -0.45353091 1.3371053
-1.3532565 -0.45112887 1.3305569
-1.3249189 -0.45352048 1.3256171
-1.2743326 -0.45342988 1.3265755
-1.2307799 -0.45565394 1.3276079
-1.1759216 -0.45608562 1.3263901
-1.1304673 -0.4562526 1.324191
-1.0546855 -0.45246312 1.3457534
-1.0244731 -0.45623267 1.3264321
-0.97834092 -0.45708203 1.3234729
-0.92505598 -0.45615351 1.3284031
-0.87023157 -0.4555397 1.3264085
-0.82189065 -0.45530254 1.3216461
-0.78112221 -0.45610031 1.3261924
-0.72614002 -0.45628536 1.3266876
-0.67343962 -0.45684454 1.3307114
-0.62486291 -0.45948747 1.3259851
-0.57392126 -0.46342486 1.3201612
-0.52692902 -0.46666643 1.3254626
-0.48574448 -0.46268278 1.3221594
-0.16179413 -0.45081565 1.3289191
-0.014560345 -0.46842819 1.3047326
-1.4268475 -0.44909886 1.3051008
-1.3580785 -0.44839895 1.3109949
-1.2693928 -0.44868124 1.339138
-1.1147246 -0.44945776 1.3302008
-1.0755081 -0.4194217 1.3088828
-0.88794017 -0.4464922 1.3311745
-0.17250116 -0.44863605 1.3304257
-0.1148515 -0.43306929 1.322142
-0.081403166 -0.43868974 1.3456391
0.37887695 -0.073122203 1.3313861
0.40861842 -0.065387964 1.3068134
0.38402694 -0.026090667 1.3341619
0.41224155 -0.023049552 1.3083068
0.38629848 0.021794515 1.3365606
0.41766393 0.022884123 1.3096696
0.38824585 0.073077343 1.3403732
0.41682047 0.075035803 1.3142955
0.39075789 0.12537262 1.3414502
0.41795373 0.12590046 1.3143476
0.39176178 0.17529951 1.3411082
0.41610485 0.17400107 1.3147851
-0.35314178 0.23016107 1.3077539
-0.34572041 0.21232688 1.3072412
0.39090011 0.20671976 1.3349015
0.41456509 0.20327611 1.3213764
0.29903051 0.26831484 1.3150505
0.31392512 0.26407111 1.3077635
0.39468944 0.26318178 1.3054832
0.42133623 0.25832468 1.3121068
0.34162688 0.33783165 1.3409981
0.37768117 0.33397841 1.3228235
0.40145397 0.33434761 1.305414
0.30966803 0.37276983 1.3462793
0.37736055 0.37576249 1.327004
0.40190679 0.36753708 1.3007272
0.31986111 0.4468469 1.3454124
0.37642905 0.42533723 1.3266878
0.40055627 0.43554929 1.3056259
0.33163381 0.46325019 1.3414292
0.37595505 0.47558185 1.3253263
0.40185761 0.46699464 1.3024756
0.34344873 0.51610643 1.3445755
0.37451193 0.5243271 1.3257152
0.40279758 0.52936351 1.3014868
0.37920001 0.5736329 1.3199741
0.40254033 0.56741899 1.3020244
0.38590994 0.62060392 1.3137103
0.40155259 0.63781041 1.3015573
0.39353418 0.67189556 1.3070304
0.40022579 0.6992445 1.3013781
0.40187982 0.71619064 1.3009491
-1.6582841 -0.4608539 1.3990059
-1.6253889 -0.46133706 1.3686404
-1.5747896 -0.45354334 1.3780961
-1.5345693 -0.45552045 1.3568509
-1.4697376 -0.45327711 1.3645811
-1.4269598 -0.45336008 1.3737204
-1.3744898 -0.4508391 1.3621944
-1.3155122 -0.45116711 1.3629751
-1.2755523 -0.45405817 1.3786665
-1.2212051 -0.45397702 1.3677248
-1.1765229 -0.45343775 1.367538
-1.1488541 -0.45167744 1.3575602
-1.0692052 -0.45209122 1.3798403
-1.0291171 -0.45657927 1.3719305
-0.97497386 -0.45606151 1.3784668
-0.92689818 -0.45502719 1.378389
-0.86640072 -0.45192677 1.3639584
-0.82462335 -0.45297509 1.363821
-0.77393973 -0.4549816 1.3761061
-0.72530192 -0.45671248 1.3776016
-0.67641765 -0.45798758 1.379568
-0.62194151 -0.46153504 1.3770361
-0.5737288 -0.46224815 1.3748116
-0.52282828 -0.46212351 1.3726609
-0.49644253 -0.46300131 1.3605355
-0.36846843 -0.46535957 1.3963056
-0.31730834 -0.46560895 1.3710588
-0.16984162 -0.45097274 1.3696496
-0.13963227 -0.45086971 1.3576908
-1.3817906 -0.44723797 1.3887432
-1.3246926 -0.44746757 1.372931
-1.2160497 -0.44940811 1.3846384
-1.1720099 -0.44676757 1.3887042
-1.1280614 -0.44665703 1.375738
-0.98058712 -0.44414288 1.3547817
-0.87034231 -0.44287705 1.3772379
-0.82904732 -0.44683233 1.381272
-0.79051065 -0.44878134 1.3870058
-0.17366865 -0.44673428 1.3827097
-0.12028275 -0.43571264 1.3770716
-0.075955488 -0.43622845 1.3841889
-0.11368412 -0.39485216 1.3549029
-0.025389923 -0.34564269 1.3930489
0.33109438 -0.074766576 1.3771725
0.35680175 -0.070015877 1.3579252
0.33546141 -0.027704492 1.3833966
0.35984981 -0.026480269 1.3592439
0.33717316 0.023717858 1.385224
0.36165398 0.025475923 1.3606211
0.33753261 0.072630271 1.3883835
0.36433914 0.076284647 1.3641617
0.34083432 0.12439931 1.3895816
0.36575967 0.12487756 1.3670347
0.3419311 0.17535722 1.3916624
0.36731097 0.17452128 1.3669163
0.34551466 0.20951323 1.3935131
0.37070492 0.20660575 1.3767618
0.31676883 0.34865555 1.3514994
0.33554104 0.37498757 1.3657502
0.3531085 0.37851959 1.3516276
0.33678329 0.42407277 1.3629185
0.33928692 0.47077018 1.3567884
0.35072768 0.47227511 1.3504602
0.34207398 0.50201476 1.3517406
-1.637012 -0.45715514 1.4175991
-1.5753067 -0.45486411 1.4260998
-1.5222825 -0.45715076 1.4238876
-1.4762623 -0.45461407 1.4288936
-1.4288594 -0.45173493 1.4298687
-1.3671315 -0.45131218 1.4243205
-1.3242564 -0.4519676 1.4279379
-1.2722328 -0.45334905 1.4093897
-1.2423158 -0.45202968 1.4252044
-1.101983 -0.45126787 1.4289546
-1.0810874 -0.45382613 1.4294186
-1.0258836 -0.45515016 1.4198178
-0.97393042 -0.45537359 1.4252487
-0.93544436 -0.45245871 1.4224174
-0.76943493 -0.4529292 1.4273492
-0.7270062 -0.45578134 1.4201912
-0.6770463 -0.45818979 1.4244704
-0.6213451 -0.45940524 1.4273485
-0.57271701 -0.45984599 1.4218999
-0.52320087 -0.45937061 1.4263536
-0.47849301 -0.45984855 1.4215641
-0.42143917 -0.46674067 1.4347171
-0.37392309 -0.46842986 1.4331404
-0.33258018 -0.47025338 1.4252001
-0.14366552 -0.45005232 1.4000002
-0.05420953 -0.45482898 1.4191852
-1.5386568 -0.44905999 1.4358274
-1.4099587 -0.44867989 1.4281151
-1.3770838 -0.44402421 1.428696
-1.2769333 -0.44936398 1.4336644
-1.2183213 -0.44447073 1.4272987
-1.1812363 -0.44063252 1.4107831
-1.1234046 -0.44304374 1.432377
-1.0986677 -0.44651306 1.408597
-1.0342797 -0.44666791 1.4090641
-0.91901982 -0.44822925 1.4343189
-0.88487971 -0.44234753 1.4402902
-0.82474947 -0.44124061 1.4240607
-0.78254002 -0.44809154 1.4257305
-0.17057674 -0.4424291 1.4282278
-0.13178535 -0.44346032 1.4313372
-0.054372203 -0.44917676 1.4249492
-0.0735614 -0.36699283 1.4439577
-0.037171766 -0.36111233 1.4260941
-0.080228873 -0.34435531 1.4453725
-0.040149849 -0.34581509 1.4374808
0.23581445 -0.088580459 1.4370599
0.27940822 -0.074624367 1.4286952
0.30778825 -0.06861414 1.4070199
0.28525478 -0.027488831 1.4339907
0.31031057 -0.025800286 1.4096068
0.28608525 0.024325781 1.4351549
0.31194371 0.02351699 1.4097755
0.28894636 0.072950952 1.4355894
0.3143962 0.076280668 1.4111146
0.2976304 0.13766152 1.4176655
0.31561562 0.12305571 1.4159247
0.32046431 0.17251807 1.4138347
0.32512555 0.20855416 1.4150505
-1.6247089 -0.45692709 1.4722643
-1.5915015 -0.45458806 1.4877739
-1.5188025 -0.45319828 1.4796358
-1.4611999 -0.4525342 1.4648621
-1.4266638 -0.45061374 1.4826018
-1.3762513 -0.45274517 1.4793465
-1.3266734 -0.45225114 1.475338
-1.285464 -0.45419884 1.4782963
-1.114485 -0.45136261 1.4637516
-1.0821533 -0.45281047 1.4693331
-1.0229979 -0.45244008 1.4731982
-0.98535269 -0.4527286 1.4791119
-0.94921875 -0.45074588 1.4737278
-0.75522953 -0.45358959 1.4564718
-0.72642106 -0.45490298 1.4738684
-0.67637998 -0.46050021 1.4760891
-0.62801504 -0.45905426 1.4765785
-0.571621 -0.45834169 1.4718269
-0.52160847 -0.45717114 1.4774117
-0.46897733 -0.45781538 1.468606
-0.42189226 -0.46004325 1.472412
-0.37998319 -0.46720821 1.4788668
-0.33652815 -0.46485072 1.4649248
-1.5592287 -0.44817671 1.4757351
-1.4495091 -0.44890878 1.453162
-1.3668174 -0.44964334 1.4693406
-1.3100433 -0.44446605 1.4841828
-1.2745122 -0.44744167 1.4750808
-1.2406046 -0.44621009 1.4682913
-1.1628543 -0.44298434 1.4807335
-1.1239392 -0.44801733 1.4779607
-1.0679016 -0.44796354 1.4757159
-0.95936286 -0.44755745 1.4735886
-0.91961646 -0.44222012 1.4763064
-0.88024372 -0.44087926 1.47369
-0.82466918 -0.43887141 1.4720321
-0.78080791 -0.44413394 1.4702376
-0.740493 -0.44764724 1.4818044
-0.45462739 -0.44893017 1.479018
-0.16259183 -0.42330232 1.4767028
-0.13526998 -0.42261669 1.4775048
-0.15106246 -0.39310592 1.4878352
-0.12298794 -0.37585756 1.465246
-0.083878048 -0.35897869 1.4542235
-0.10493127 -0.34505451 1.4629805
-0.074321546 -0.34749019 1.4692601
-0.0482581 -0.34333777 1.4732915
0.23123264 -0.06907317 1.4788396
0.2602846 -0.065296486 1.456519
0.23527153 -0.027716843 1.4820441
0.26149452 -0.028430726 1.4579949
0.23529772 0.025158735 1.4818367
0.26200527 0.024658995 1.4588517
0.23402071 0.061992534 1.4891341
0.26552394 0.074758008 1.4651897
0.29826564 0.10592302 1.4572868
-1.5746974 -0.45692694 1.5179989
-1.5211693 -0.45468247 1.5292419
-1.4654462 -0.45320842 1.5253847
-1.4241964 -0.45587093 1.5155725
-1.3778691 -0.45217347 1.530454
-1.3102256 -0.45239598 1.5277623
-1.1692766 -0.45220983 1.5229259
-1.0745573 -0.4514952 1.5203339
-1.039517 -0.45306945 1.5293802
-0.9735989 -0.45167851 1.5234013
-0.71165007 -0.45496702 1.5075743
-0.67258507 -0.45520258 1.515978
-0.62245363 -0.45735431 1.5297526
-0.57348442 -0.46006304 1.5228028
-0.53114915 -0.4554058 1.5205909
-0.47930241 -0.4597134 1.5332813
-0.43290296 -0.45762739 1.5139519
-0.36855894 -0.46176055 1.5122463
-0.34605232 -0.46131429 1.5144104
-0.1014878 -0.45030376 1.5017761
-0.077923134 -0.45446959 1.5353472
-0.040171843 -0.4777295 1.5261775
-1.4730748 -0.44807032 1.5289282
-1.4166827 -0.44851786 1.5367932
-1.3844234 -0.44804916 1.5208683
-1.3119236 -0.44679376 1.5312858
-1.2723054 -0.44149971 1.512854
-1.1763445 -0.44783092 1.5277854
-1.1237581 -0.44509181 1.5245885
-1.0836316 -0.44875401 1.5347097
-1.015234 -0.44754905 1.5238233
-0.98415822 -0.44708148 1.5253463
-0.91614109 -0.43862009 1.5235316
-0.87653011 -0.44165534 1.5298904
-0.82633132 -0.44519728 1.5286368
-0.77802318 -0.44665888 1.5314857
-0.73240203 -0.44777748 1.5230582
-0.17775404 -0.43418962 1.5228238
-0.11575834 -0.43307737 1.5267185
-0.071298808 -0.44176474 1.5457239
-0.037152011 -0.42807287 1.5292764
-0.064326219 -0.35299826 1.5143796
0.18787877 -0.072235182 1.5270129
0.20798211 -0.062519506 1.5086633
0.20796438 -0.038791351 1.5156194
0.22272062 0.071000963 1.5089171
0.26723635 0.090922333 1.5070627
-1.5538468 -0.45111391 1.5655608
-1.5318195 -0.4535585 1.5996132
-1.4655885 -0.4510684 1.5737901
-1.3679464 -0.453044 1.5713868
-1.3482823 -0.45282242 1.5565361
-1.2154921 -0.45162678 1.5874285
-1.138821 -0.45064345 1.5801351
-1.0776445 -0.45315441 1.5735168
-1.032487 -0.45371741 1.5640099
-0.76084882 -0.45099604 1.5552483
-0.7218461 -0.45497656 1.5731722
-0.67554563 -0.45343995 1.5762513
-0.6187222 -0.45432219 1.5795189
-0.57618368 -0.45770636 1.569602
-0.52343434 -0.45740226 1.5743768
-0.46899691 -0.464394 1.5758721
-0.44201288 -0.46784744 1.5872403
-0.36553323 -0.46175498 1.5765561
-0.055375867 -0.45083445 1.5592384
-1.4699179 -0.447878 1.5508207
-1.4141725 -0.44727367 1.5909042
-1.3835936 -0.44868001 1.563213
-1.3483868 -0.44973862 1.5950323
-1.2488031 -0.44772539 1.596873
-1.1787752 -0.44476327 1.5745732
-1.1096327 -0.44617468 1.574666
-1.0534222 -0.44831699 1.5708053
-1.0207871 -0.44752631 1.5838197
-0.97289306 -0.44458872 1.5726404
-0.88084847 -0.43878558 1.5734452
-0.8265413 -0.44308862 1.577058
-0.77843934 -0.44672984 1.581514
-0.74739689 -0.44951633 1.5893577
-0.64057213 -0.44967028 1.5553366
-0.53525227 -0.4489508 1.5804703
-0.080270343 -0.43805808 1.5664982
-0.041208845 -0.44400239 1.5544119
0.18007232 -0.057624433 1.5706797
-1.4672225 -0.45617637 1.6034478
-1.4007683 -0.4508321 1.6218596
-1.2383666 -0.45074525 1.6195333
-1.15768 -0.45253825 1.6265893
-1.1149837 -0.4529494 1.6284913
-1.08391 -0.45413679 1.6274257
-1.0083816 -0.45089781 1.6493646
-0.76544183 -0.45300213 1.622014
-0.73018509 -0.45276061 1.6265841
