ply
format ascii 1.0
comment PCL generated
element vertex 1453
property float x
property float y
property float z
element camera 0
property float view_px
property float view_py
property float view_pz
property float x_axisx
property float x_axisy
property float x_axisz
property float y_axisx
property float y_axisy
property float y_axisz
property float z_axisx
property float z_axisy
property float z_axisz
property float focal
property float scalex
property float scaley
property float centerx
property float centery
property int viewportx
property int viewporty
property float k1
property float k2
end_header
0.3726806 -0.49283484 1.1163776
0.42217764 -0.4917345 1.1239097
0.47611639 -0.48654982 1.136994
0.52363741 -0.48621964 1.1228648
0.57521808 -0.46979868 1.1248918
0.605474 -0.46112952 1.1061945
-0.35163108 -0.43402722 1.1228462
-0.063790306 -0.40846455 1.110821
-0.046305075 -0.40996701 1.128539
0.03552372 -0.41779965 1.1103508
0.057055321 -0.43436262 1.1178596
0.18368907 -0.41972443 1.134894
0.22138557 -0.42177644 1.1134239
0.2784346 -0.4199242 1.1166017
0.32683557 -0.42840365 1.1480207
0.37994349 -0.41970712 1.1485307
0.5853374 -0.42637199 1.1353339
0.61021376 -0.42350245 1.1116832
-0.060500942 -0.39277822 1.1188171
0.18617997 -0.38017014 1.1402937
0.22490939 -0.37401396 1.1216371
0.26668191 -0.36806512 1.1126534
0.37345073 -0.38928971 1.1349196
0.58887458 -0.37723953 1.1395411
0.61466587 -0.37424466 1.1146771
0.18977338 -0.32417461 1.1430924
0.22527748 -0.32371855 1.1283729
0.26568279 -0.32495335 1.1147915
0.59094667 -0.3236241 1.1419003
0.61657989 -0.32532093 1.116539
-1.1064163 -0.28776044 1.1042951
-1.0703425 -0.27170694 1.1226399
-1.0414363 -0.26155862 1.1426522
0.19409184 -0.2861602 1.1445893
0.22675078 -0.2746968 1.1281961
0.26577085 -0.2739588 1.1107109
0.59249693 -0.27425298 1.1420612
0.61724693 -0.27445689 1.118224
-1.0658373 -0.22264232 1.1167673
-1.0392241 -0.22208454 1.1414762
0.19177765 -0.22765726 1.1485387
0.22661516 -0.22601828 1.1299993
0.26605469 -0.2237317 1.1085043
0.59262919 -0.22493182 1.1430578
0.61848199 -0.22454746 1.1180066
-1.0668105 -0.17268595 1.1148278
-1.0382754 -0.17472813 1.1404258
0.19379377 -0.18679635 1.1427207
0.22710791 -0.17685921 1.1363351
0.26468614 -0.17518699 1.1098955
0.594037 -0.17790832 1.1435319
0.61915541 -0.17443146 1.1179482
-1.064449 -0.1251381 1.1154037
-1.0376034 -0.12311462 1.1392258
0.23141173 -0.1293994 1.137272
0.26570988 -0.12423719 1.1160852
0.59328169 -0.12618357 1.1442821
0.61699426 -0.12546185 1.1202623
-1.0635235 -0.075420566 1.113328
-1.0381951 -0.075623274 1.1379225
0.24525854 -0.095468879 1.1383287
0.26676014 -0.09357626 1.127455
0.59358191 -0.072169915 1.1429766
0.61721128 -0.075883076 1.1195731
-1.0620558 -0.027119031 1.1136357
-1.0352769 -0.026470292 1.1376376
0.5942468 -0.02485878 1.1428305
0.61763084 -0.026789352 1.1182444
-1.0616117 0.022872504 1.1087066
-1.0343733 0.026751487 1.133865
0.59363055 0.024867771 1.1417636
0.61738122 0.023217004 1.1169751
-1.0608137 0.073633038 1.1060891
-1.0330263 0.076025382 1.1319602
0.18793936 0.096022002 1.1258947
0.59332609 0.076020397 1.1415446
0.61757171 0.074787535 1.1157756
-1.0585675 0.12162309 1.106138
-1.0303708 0.12509838 1.130838
0.19224231 0.1270403 1.1225426
0.20502163 0.12427475 1.1440661
0.5921182 0.12556086 1.1399047
0.61468792 0.12536509 1.1163533
-1.0560555 0.15842004 1.1040983
-1.0304346 0.15899888 1.1280885
-0.46699294 0.19428797 1.1132708
-0.44316453 0.19241881 1.1389959
0.19375746 0.16878416 1.1164166
0.20460939 0.17911856 1.1457838
0.58924574 0.1753666 1.1396292
0.61325341 0.17428373 1.1152724
-0.50306314 0.24090189 1.1099439
-0.46845451 0.22598334 1.1186638
-0.43584263 0.22824782 1.1337219
-0.39305076 0.24772835 1.1456232
0.19613506 0.21858606 1.1165506
0.2071248 0.22646627 1.1383475
0.58747357 0.22479767 1.1388313
0.61132973 0.22401442 1.1140501
-0.45486805 0.26247883 1.1146115
-0.42347655 0.25249362 1.1239187
0.19630711 0.27420044 1.1120802
0.20866016 0.27546462 1.1380175
0.58692759 0.2738525 1.1361229
0.61145073 0.27595532 1.1121475
0.19724102 0.31016478 1.1002657
0.20969811 0.32434213 1.1240878
0.58581173 0.32497567 1.1368115
0.61042804 0.32494792 1.1114204
0.21811844 0.37465152 1.1218407
0.58578622 0.375018 1.1341182
0.61015666 0.3749454 1.1086684
0.23537129 0.4194878 1.1211176
0.25248599 0.44372901 1.1492805
0.5849759 0.42589271 1.131675
0.60799193 0.42271844 1.1081239
0.24556266 0.45711422 1.1105554
0.26558596 0.47873971 1.1242734
0.58195794 0.47565973 1.1321115
0.60690397 0.47291011 1.1072423
0.28633505 0.51567191 1.1207976
0.30623093 0.53817302 1.1354017
0.57977998 0.524306 1.1316862
0.60546583 0.52601987 1.1062082
0.29995081 0.55025834 1.1105927
0.3162246 0.56710494 1.1229154
0.580248 0.57336438 1.128933
0.60426527 0.57681614 1.1046914
0.32840246 0.60344434 1.1055444
0.57925242 0.62505919 1.1289877
0.60403895 0.6238808 1.1032519
0.57857668 0.67517066 1.1280844
0.60238171 0.6750192 1.103395
0.57740855 0.72522235 1.1277026
0.60384476 0.72246677 1.1025717
0.57741743 0.77470863 1.127713
0.6014185 0.77580464 1.103308
0.57766777 0.82449001 1.1263083
0.60131466 0.81710792 1.1018023
0.57737064 0.87517142 1.1261714
0.60046643 0.85773909 1.1018223
0.57750618 0.92513818 1.1254647
0.60390222 0.92294574 1.1002989
0.57637072 0.9727096 1.1260087
0.60093278 0.95918155 1.100781
0.55671573 1.0014806 1.1494008
-1.5200769 -0.45456001 1.1774284
-1.4728994 -0.45503113 1.1730396
-1.4236753 -0.45669252 1.1743739
-1.3710662 -0.45714727 1.1777782
-1.3198678 -0.45646414 1.1734362
-1.2729508 -0.45746687 1.1705852
-1.2320875 -0.46196991 1.1830447
-1.1762842 -0.46037543 1.1751646
-1.1304795 -0.46192613 1.1745687
-1.0736524 -0.4628962 1.1762927
-1.021978 -0.46277681 1.1701419
-0.97479546 -0.46361497 1.1732546
-0.92687708 -0.46757889 1.1740761
-0.87599498 -0.46551806 1.1716388
-0.82835025 -0.46311045 1.1800643
-0.77417076 -0.46339825 1.1752868
-0.73334128 -0.46700975 1.176893
-0.67909962 -0.46733111 1.1746339
-0.62917179 -0.4680616 1.1808264
-0.57457453 -0.46437576 1.1764929
-0.52285212 -0.46844393 1.1738479
-0.47749233 -0.47175688 1.1739298
-0.4435243 -0.46820325 1.1690042
-0.36171293 -0.46782985 1.1953673
-0.0074170474 -0.47021604 1.1874793
0.085100248 -0.47059309 1.173664
0.12480145 -0.47062767 1.1730773
0.16957463 -0.46517631 1.171231
0.29632717 -0.45688477 1.1523199
0.32645878 -0.47486788 1.1684616
0.37349376 -0.48102745 1.1800952
0.42136472 -0.48099494 1.1798918
0.4722923 -0.48641938 1.1677207
0.52605748 -0.46993384 1.1752647
0.5552873 -0.45948288 1.1550916
-0.80746734 -0.44325113 1.185185
0.091561936 -0.42055044 1.1914457
0.12722075 -0.4197765 1.1730859
0.16216458 -0.42756405 1.1589569
0.29515409 -0.42087016 1.156782
0.32397705 -0.41966519 1.1624721
0.36698496 -0.42286697 1.1644901
0.41253144 -0.42450365 1.1780983
0.53278267 -0.42634967 1.1855443
0.56038499 -0.42427295 1.1607428
0.084348246 -0.38163346 1.1992168
0.12791725 -0.37784934 1.1782491
0.16601156 -0.37110171 1.1596551
0.32070035 -0.37649211 1.1854217
0.36633813 -0.37344161 1.1781259
0.41846183 -0.37388623 1.1997275
0.53804731 -0.37682894 1.1873668
0.5644753 -0.37306005 1.1639891
0.13479848 -0.32580143 1.1848227
0.16795592 -0.32289886 1.165603
0.32729807 -0.33805281 1.1949978
0.36568332 -0.33032754 1.1857671
0.53975463 -0.32569602 1.1906629
0.56603491 -0.32523769 1.1659808
-1.0502912 -0.29101855 1.155967
-1.0205836 -0.27339619 1.1706749
-0.98864043 -0.26568866 1.19245
0.13694115 -0.27813345 1.186913
0.17230335 -0.27351511 1.1666032
0.20374678 -0.27303612 1.1536901
0.34914312 -0.29960024 1.1990329
0.3728624 -0.27794513 1.1883694
0.41686469 -0.26930732 1.1947113
0.5412721 -0.27473196 1.1913075
0.56851083 -0.27554435 1.1661623
-1.0146377 -0.22489475 1.1639109
-0.98624176 -0.22377232 1.1880836
0.13839538 -0.22769544 1.1913645
0.17380592 -0.22504833 1.1713706
0.20977825 -0.22801208 1.1533422
0.37385169 -0.22972415 1.1828042
0.54186505 -0.22400399 1.1929908
0.56790233 -0.22441094 1.1682564
-1.0128723 -0.17249699 1.1631052
-0.98698562 -0.17424192 1.1870689
0.087896489 -0.15555203 1.1993064
0.13730042 -0.16639522 1.1934006
0.17624106 -0.17497745 1.1747155
0.20407471 -0.17730512 1.1630014
0.38190854 -0.17739403 1.1911565
0.40992844 -0.17005901 1.1637027
0.54326016 -0.17436662 1.192884
0.56871557 -0.17408316 1.1686271
-1.0141628 -0.12425102 1.1602579
-0.98677957 -0.12497482 1.1863925
0.087046474 -0.14550686 1.1884038
0.13527413 -0.12292371 1.1949369
0.17731452 -0.12459615 1.1765655
0.21473238 -0.11624627 1.1560698
0.30355957 -0.13554229 1.1875688
0.38661727 -0.13819303 1.1961615
0.41129351 -0.12133313 1.1755239
0.54444921 -0.1249522 1.1933473
0.57039666 -0.12374255 1.1675807
-1.0121547 -0.075766258 1.1606693
-0.98468637 -0.076261185 1.1864506
0.136871 -0.085806169 1.1921054
0.17707509 -0.09066923 1.1864352
0.22301273 -0.089592561 1.1641417
0.27878943 -0.08863648 1.1625
0.41319299 -0.077634841 1.1789103
0.54355127 -0.076031074 1.194237
0.56977236 -0.075065993 1.1681986
-1.0105989 -0.028884498 1.1606216
-0.98289001 -0.026818829 1.1856644
0.11038879 -0.040113449 1.1980789
0.4172394 -0.026280589 1.1791813
0.54362273 -0.02895187 1.1944302
0.5689882 -0.027269809 1.1688395
-1.0101159 0.021072669 1.1592757
-0.98220128 0.024686979 1.1824478
0.41855928 0.022477085 1.1798005
0.5436089 0.022730796 1.1946056
0.56857204 0.023711393 1.1686321
-1.0072455 0.076117583 1.1548414
-0.97951442 0.076743975 1.17989
0.19710039 0.0950718 1.1584733
0.204907 0.096111782 1.170496
0.4188579 0.070978925 1.1788172
0.54348016 0.077110045 1.1932493
0.56829262 0.074480243 1.1684343
-1.0058548 0.12211338 1.1534723
-0.97855651 0.1250128 1.1781173
0.21892127 0.12575004 1.1769395
0.42397639 0.12167387 1.1860894
0.54379183 0.1250159 1.1917005
0.56757015 0.12311722 1.1667985
-1.0070623 0.1620665 1.1536181
-0.97862935 0.1585913 1.1777992
-0.42170274 0.19558479 1.169055
0.22133473 0.17812277 1.1743058
0.42294616 0.17739561 1.1904069
0.54154783 0.17401673 1.1900764
0.56571329 0.1741354 1.1649034
-0.45439652 0.24270767 1.1552371
-0.42030716 0.22602233 1.1705495
-0.39292756 0.22884096 1.1921902
0.22801425 0.22791405 1.1790334
0.33241621 0.2272511 1.1981522
0.42259237 0.21808034 1.189882
0.53937179 0.22403729 1.1874406
0.56367481 0.22561105 1.1628859
-0.408631 0.25982141 1.1620747
-0.37128854 0.25554791 1.1865225
0.23315676 0.27427867 1.1766644
0.53690201 0.27489892 1.1880758
0.56122816 0.27538508 1.1631273
0.23463622 0.32688928 1.1719853
0.2507982 0.33246273 1.1967437
0.53712368 0.32563406 1.1863439
0.56194973 0.32492715 1.1611067
0.24125259 0.37297136 1.165073
0.25798386 0.37939054 1.1863095
0.53600699 0.37620181 1.1853921
0.5599677 0.37415531 1.1605492
0.24797153 0.41086936 1.1654382
0.26689956 0.42747954 1.1750312
0.53333837 0.42494348 1.1844722
0.55913991 0.42522019 1.1588148
0.28286794 0.46755537 1.1684577
0.30420399 0.4902238 1.1926488
0.5329268 0.47550288 1.1813574
0.55718791 0.47399759 1.1574513
0.29514599 0.50347728 1.1597561
0.30939153 0.51491481 1.1751996
0.5302304 0.52618855 1.182152
0.55515152 0.52152336 1.1573856
0.53055286 0.57492316 1.1790932
0.55553019 0.57528996 1.154948
0.52849787 0.62509024 1.1796349
0.554241 0.62448502 1.1541038
0.52897584 0.67495948 1.1778964
0.55351418 0.67562962 1.1537384
0.52890885 0.72520572 1.177134
0.55315065 0.72405636 1.1518404
0.52788645 0.77471995 1.1774484
0.55281025 0.78204036 1.1536965
0.52900398 0.82485753 1.1765904
0.55196697 0.82241136 1.1518358
0.52867329 0.87415707 1.1774884
0.55289274 0.87088287 1.1530095
0.52859771 0.92297953 1.1781976
0.55260563 0.92203593 1.1530335
0.53051043 0.97384888 1.1772776
0.55241162 0.96724784 1.1534034
0.52496797 1.0106267 1.1843225
-1.6144413 -0.45815793 1.2378513
-1.565217 -0.45382965 1.2300714
-1.4814371 -0.45430374 1.2212595
-1.4300053 -0.45563814 1.226827
-1.3810847 -0.45501265 1.2333957
-1.3365583 -0.45745263 1.2247447
-1.2787235 -0.45877784 1.2256414
-1.226593 -0.45762488 1.2291206
-1.1790508 -0.45736885 1.2313315
-1.128027 -0.46103969 1.2215328
-1.0792544 -0.46014699 1.2334206
-1.0275981 -0.45737791 1.2206652
-0.97482336 -0.45932257 1.2226425
-0.92094737 -0.46188891 1.2250379
-0.87785655 -0.46126762 1.2220247
-0.81712884 -0.45831117 1.2268112
-0.77534682 -0.46239454 1.2261839
-0.72325915 -0.46356416 1.2234342
-0.67180824 -0.46410459 1.223297
-0.62434345 -0.46519697 1.2242028
-0.57254481 -0.46798435 1.2264513
-0.52451909 -0.46685565 1.2298102
-0.47505382 -0.46579376 1.2154711
-0.43990767 -0.45937848 1.2205153
-0.059987854 -0.47083983 1.2310903
-0.024253795 -0.4682686 1.2300662
0.0015489697 -0.4606207 1.222898
0.089126222 -0.46511286 1.218765
0.11966272 -0.46239725 1.2147403
0.38496512 -0.47987357 1.2042978
0.43597743 -0.46881762 1.2088732
0.4768852 -0.46890023 1.2188779
0.50482863 -0.46396574 1.2019694
-1.0177982 -0.44213718 1.2443466
-0.98112386 -0.44155627 1.2199403
-0.83130431 -0.44720173 1.2002937
0.038038105 -0.42569464 1.2267619
0.080476925 -0.42393884 1.2213643
0.1106518 -0.43299863 1.2069706
0.43665347 -0.42237699 1.216327
0.47619671 -0.42420033 1.2282957
0.50866449 -0.42396009 1.2074413
0.079628013 -0.37257555 1.218917
0.11076997 -0.36862591 1.2095357
0.33015475 -0.36079669 1.2031552
0.36597079 -0.3854405 1.2240474
0.42952618 -0.37849542 1.2199172
0.4778671 -0.37589607 1.2341715
0.51193017 -0.37406376 1.2112345
-1.0062473 -0.31374565 1.2380416
0.049793199 -0.34983918 1.2318072
0.08162161 -0.32716879 1.2302564
0.11235771 -0.32370439 1.2137434
0.33201918 -0.32783544 1.2259457
0.35849681 -0.32017928 1.2094764
0.42963442 -0.32796359 1.2269921
0.47960231 -0.32547414 1.2358085
0.51607758 -0.32387242 1.2122184
-0.97206336 -0.2739763 1.2099807
-0.93825048 -0.25035086 1.2030749
0.084735066 -0.27416474 1.2370142
0.11821907 -0.2708804 1.2110538
0.32926875 -0.29669768 1.2447969
0.3631798 -0.27722025 1.2215596
0.42291421 -0.28692472 1.2098665
0.47735032 -0.27432376 1.2379107
0.5166648 -0.27595511 1.2141056
-0.96348405 -0.22333679 1.2105824
0.090481006 -0.23211147 1.2340953
0.12024714 -0.2250378 1.2167859
0.15892218 -0.23320767 1.2009275
0.37681445 -0.22234401 1.2263482
0.44846407 -0.24196893 1.2325199
0.47956541 -0.22590642 1.239718
0.51669997 -0.2264581 1.2156669
-0.96386629 -0.17525646 1.2130657
0.092621453 -0.17934042 1.2212602
0.1237013 -0.1772401 1.2167895
0.15439412 -0.17120688 1.205188
0.3159188 -0.17360187 1.2207036
0.38322547 -0.18207288 1.2327033
0.48125321 -0.17285526 1.2419244
0.51859546 -0.17647335 1.2157459
-0.96139574 -0.12670615 1.2104114
-0.94942349 -0.13957651 1.218572
0.09471041 -0.12822434 1.2146833
0.12499107 -0.12567663 1.21289
0.15751295 -0.12441286 1.2055612
0.31479332 -0.13791819 1.2073702
0.38982001 -0.12450884 1.2326703
0.41157994 -0.12250069 1.2147142
0.47867149 -0.12682681 1.2395713
0.51929277 -0.12627403 1.2154026
-0.96252942 -0.076477587 1.2110127
-0.9499141 -0.069163524 1.2106383
0.1289596 -0.090355307 1.217361
0.16139458 -0.089693189 1.2043426
0.39392188 -0.094222285 1.2319386
0.41396269 -0.074352503 1.2215561
0.47935206 -0.077222474 1.238937
0.51869476 -0.076872222 1.2168359
-0.95977092 -0.028658202 1.2096753
0.11489254 -0.046504907 1.2149777
0.42546427 -0.030751484 1.2143097
0.47814628 -0.027920423 1.2384566
0.51889616 -0.026951663 1.2165197
-0.95805138 0.027321953 1.2058939
-0.94979894 0.0037714923 1.2120039
0.42180547 0.020698156 1.2179381
0.47995737 0.024972729 1.2381563
0.51903093 0.02535414 1.2170461
-0.95503122 0.071764611 1.2048281
-0.94852459 0.08214654 1.2079817
0.42392698 0.096614204 1.2141203
0.4823384 0.076484248 1.2362572
0.51908958 0.076680638 1.2165188
-0.955966 0.12245844 1.2012966
-0.94795436 0.12508936 1.2041792
0.23997089 0.12693118 1.2236303
0.25407976 0.14134124 1.2382052
0.42887482 0.13429278 1.2258748
0.4818719 0.12727667 1.2361065
0.51924932 0.12645413 1.2151006
-0.94763315 0.15622976 1.2008178
-0.40055788 0.19811027 1.2037622
-0.37488365 0.19651487 1.2231882
0.24148917 0.17115094 1.2133441
0.25782144 0.1778384 1.2330453
0.42289773 0.18229797 1.2096831
0.4822188 0.1788795 1.2351621
0.51735139 0.17616002 1.214432
-0.40612504 0.24467385 1.2049527
-0.37401286 0.22443175 1.2221954
-0.34974304 0.22810398 1.2462324
0.24523091 0.21888994 1.2067516
0.27227357 0.22347681 1.2308869
0.31765765 0.21622093 1.2221923
0.4230234 0.2142805 1.2118776
0.48590234 0.22524306 1.2330604
0.5147959 0.22496882 1.2117113
-0.35926458 0.25556305 1.2128592
-0.34942544 0.2542108 1.2183132
0.24934982 0.26266789 1.2013001
0.27097604 0.27712947 1.2277324
0.31258515 0.29254073 1.244862
0.43856663 0.26283166 1.2461878
0.47440013 0.27309698 1.2336605
0.51246434 0.2744832 1.2108781
0.24456728 0.30833074 1.2005023
0.26855335 0.32158658 1.2215952
0.47918785 0.32432213 1.2350676
0.51199561 0.32250097 1.2110524
0.27175885 0.3740806 1.2188257
0.48035365 0.37387702 1.2356246
0.51112372 0.37370804 1.2088839
0.28201783 0.41878688 1.2088145
0.4814181 0.42478374 1.2334046
0.50909382 0.42289862 1.2078699
0.30627 0.47890988 1.216352
0.47998068 0.47434029 1.23229
0.50713265 0.47329599 1.2070522
0.48013011 0.52447593 1.2310177
0.5054971 0.52599221 1.205614
0.47937924 0.57555848 1.2289759
0.50529677 0.57272536 1.2045472
0.47736531 0.62496507 1.2297418
0.50374377 0.62144333 1.2047126
0.47829783 0.67452133 1.228212
0.50398809 0.67446047 1.2040957
0.47768113 0.72477865 1.2277709
0.50288397 0.72674114 1.2030276
0.47769406 0.77483469 1.2279303
0.50374097 0.7727564 1.2023979
0.47828615 0.82490337 1.2292646
0.50319481 0.82327574 1.2035451
0.47968742 0.87424248 1.2296754
0.50486159 0.8757816 1.2031134
0.48169282 0.92468256 1.229912
0.50405151 0.92585456 1.2048168
0.48199877 0.97642481 1.2313712
0.50411141 0.97666937 1.2068602
0.41869152 1.0126815 1.2440058
0.48170531 1.0222055 1.231566
0.50404805 1.019712 1.2074883
-1.626487 -0.46026734 1.2986025
-1.561337 -0.45938104 1.2670511
-1.5328186 -0.45754051 1.2774259
-1.4675363 -0.45364252 1.2720143
-1.4222569 -0.45361868 1.2820406
-1.3717148 -0.45489097 1.2742738
-1.3226526 -0.45524582 1.2752528
-1.2790402 -0.45645672 1.2787718
-1.2232262 -0.4553431 1.2754304
-1.1758108 -0.45535597 1.2786776
-1.1252005 -0.45823294 1.2713771
-1.0773066 -0.45508268 1.272604
-1.0077235 -0.45368636 1.2849264
-0.9719761 -0.45897222 1.2791106
-0.92515689 -0.45863158 1.2687314
-0.8706972 -0.45684108 1.2749127
-0.82388026 -0.45892081 1.278313
-0.77120954 -0.45656329 1.2672831
-0.72592413 -0.45692906 1.2727281
-0.67623526 -0.45882863 1.2753137
-0.62443054 -0.46092999 1.2790538
-0.57410181 -0.46632558 1.2742639
-0.52645004 -0.46648285 1.2761648
-0.48057249 -0.46623152 1.2792655
-0.059360743 -0.47114637 1.2651855
-0.023655962 -0.46830034 1.2742009
0.019203058 -0.46389627 1.2847694
0.076305203 -0.46191874 1.2587022
-1.0667813 -0.44486082 1.2843567
-1.0288746 -0.42117843 1.2683076
-0.99679887 -0.43932363 1.2531875
-0.91598034 -0.44747898 1.2875302
-0.88579345 -0.44348234 1.257349
-0.10605213 -0.4210574 1.2798245
0.045862984 -0.44883004 1.273572
0.06379123 -0.44475257 1.2518656
0.36921114 -0.40584406 1.2625673
-1.0193624 -0.36247879 1.2663325
0.032217711 -0.36786574 1.2501426
0.36843526 -0.390053 1.2590626
0.44935313 -0.36875308 1.252928
0.45783237 -0.37338695 1.2563876
-1.0203217 -0.33085686 1.2623931
0.024661969 -0.31424299 1.2726533
0.070292883 -0.3045406 1.262296
0.34228191 -0.31204903 1.2590743
0.35468644 -0.30594695 1.2592832
0.45822722 -0.32891902 1.2547549
0.055494159 -0.28811964 1.2632716
0.34071034 -0.27736911 1.2775916
0.35880229 -0.26819167 1.2727221
0.46378648 -0.26898649 1.2524657
0.34065625 -0.22627805 1.2853349
0.36478305 -0.22650847 1.2777646
0.46502584 -0.21228725 1.2562354
0.11315905 -0.16892827 1.2542775
0.34304637 -0.17363869 1.2814217
0.37094951 -0.1762841 1.2780749
0.46897593 -0.18073775 1.2548465
0.34280029 -0.12397175 1.2793958
0.37134048 -0.12493242 1.2793285
0.46253473 -0.11139838 1.253998
0.38493362 -0.093550675 1.2745477
0.42212626 -0.070429333 1.2975118
0.46215257 -0.077060819 1.2535025
0.42519355 -0.042719405 1.2995436
0.4661535 -0.015578513 1.2550546
0.43335137 0.037609871 1.2628841
0.46402094 0.023661822 1.2551401
0.46536386 0.075369351 1.2572128
0.25856307 0.12854096 1.2611612
0.46662021 0.12395509 1.2566907
-0.35042676 0.19766963 1.2522576
-0.34505031 0.19812718 1.2563243
0.27011782 0.18926136 1.2510968
0.42908627 0.18537177 1.290696
0.46644101 0.17368375 1.2562661
-0.35510063 0.22829019 1.2591958
-0.34551722 0.21544787 1.2724649
0.28429815 0.21671866 1.2592736
0.31324264 0.2246038 1.2686551
0.37820578 0.22961862 1.287062
0.42372245 0.24306761 1.279415
0.47022834 0.23334426 1.2602141
-0.35622784 0.25583717 1.2712004
0.29061633 0.28455865 1.2661701
0.32762551 0.27473512 1.2726885
0.3731406 0.27627301 1.2683861
0.42663327 0.27636719 1.2672217
0.45916995 0.27183464 1.2677447
0.29083896 0.31421199 1.2562287
0.32424733 0.30812183 1.2614185
0.37628216 0.30417866 1.2823646
0.42730081 0.32497424 1.2773992
0.45373064 0.32488874 1.2534534
0.42710903 0.3739492 1.2783544
0.45508438 0.37735841 1.2545888
0.42647663 0.42348617 1.279689
0.45588386 0.4285191 1.2549812
0.42710873 0.47456911 1.2795714
0.45600888 0.47542173 1.2549311
0.42689544 0.52543402 1.2794079
0.45420262 0.52569568 1.2546278
0.42745659 0.57544464 1.2787359
0.45370844 0.57263863 1.2535298
0.42651069 0.62507761 1.2785819
0.45330814 0.6234144 1.2546072
0.38724485 0.69547802 1.280324
0.42687625 0.67493987 1.2778977
0.45414785 0.6822958 1.2535037
0.39943042 0.74322712 1.2794491
0.42646596 0.72449321 1.2777768
0.45298687 0.72893304 1.2530169
0.39766687 0.75037324 1.2690933
0.43035021 0.77373326 1.2741621
0.45274013 0.77643543 1.2537572
0.43252829 0.82319272 1.2728624
0.45368245 0.8261078 1.2537832
0.43439728 0.87150508 1.2729803
0.4537648 0.87782377 1.2563226
0.43868989 0.92409629 1.273928
0.45591196 0.92565727 1.2571169
0.43887407 0.9745661 1.272019
0.4587639 0.97238141 1.2568213
0.43895599 1.0273191 1.2679951
0.45680806 1.0257586 1.2592403
0.4403432 1.0526834 1.2603285
0.46287093 1.0518863 1.2523265
-1.6605141 -0.46164078 1.3369179
-1.6209923 -0.45779276 1.3296685
-1.5777148 -0.45711306 1.3259284
-1.5258075 -0.45630577 1.3304485
-1.4734387 -0.45342907 1.3242526
-1.4194211 -0.45144939 1.3255812
-1.3795481 -0.4525528 1.3238958
-1.3341677 -0.45334801 1.3193579
-1.270044 -0.45431799 1.3214778
-1.2265769 -0.45407584 1.3230517
-1.1756765 -0.45484558 1.3279064
-1.1313251 -0.45480675 1.3211687
-1.0545954 -0.45242447 1.3456385
-1.0235258 -0.45599157 1.328575
-0.9751218 -0.45615789 1.323429
-0.92756546 -0.45564097 1.3270706
-0.86922747 -0.45382985 1.3198028
-0.82150912 -0.45401424 1.3229824
-0.77875763 -0.4550707 1.3274709
-0.72421795 -0.45623747 1.3260852
-0.67052603 -0.45626312 1.3258865
-0.6276046 -0.45896325 1.3248818
-0.57538688 -0.46388984 1.3188145
-0.52628142 -0.46600205 1.3274139
-0.48462903 -0.46263087 1.3230536
-0.16616896 -0.4508301 1.3233631
-0.0080529656 -0.46536249 1.3011366
0.0016413815 -0.46538642 1.3012228
-1.5044725 -0.44934517 1.3472209
-1.427875 -0.44917709 1.3320956
-1.3810561 -0.44863799 1.3439448
-1.3081114 -0.44615233 1.3418386
-1.2824352 -0.44927606 1.3314655
-1.1218306 -0.44422302 1.3408527
-1.0764759 -0.41588148 1.3111154
-0.96482164 -0.43873495 1.340512
-0.93839872 -0.44147193 1.3156836
-0.87481683 -0.44744304 1.3364004
-0.17506723 -0.44834802 1.322767
-0.11852367 -0.43827885 1.333727
-0.084564276 -0.43781531 1.3428211
-1.0705924 -0.3926816 1.3139514
-0.11074753 -0.39674526 1.3455292
0.34697199 -0.096778691 1.3212743
0.3794702 -0.0731484 1.3305918
0.40841502 -0.063202806 1.3072486
0.38437828 -0.02656623 1.3339151
0.41630417 -0.024378642 1.3067766
0.38664681 0.022295492 1.3362477
0.4180001 0.022666737 1.3096006
0.3887943 0.07471288 1.3409299
0.41674009 0.074670486 1.3152558
0.39088511 0.12530988 1.3406883
0.41809982 0.12593976 1.3147888
0.39199266 0.17426969 1.3409346
0.41572562 0.17413983 1.3151723
-0.35380897 0.23007259 1.3259418
-0.34403715 0.21129608 1.3008832
0.38332912 0.20864812 1.3257903
0.41094577 0.20309423 1.3209001
0.29767537 0.27034169 1.3086337
0.30737111 0.26188883 1.3099414
0.39396447 0.26118615 1.3055992
0.42290846 0.25805598 1.3119003
0.45336848 0.25539851 1.304426
0.33191115 0.3436695 1.3476509
0.37779695 0.33406943 1.3231996
0.4010562 0.33401483 1.3041208
0.30931967 0.37057859 1.3451064
0.37730882 0.37594643 1.3270681
0.40263477 0.37478465 1.3017441
0.32006094 0.44712606 1.3462528
0.37724572 0.42551267 1.3257691
0.40041819 0.43208086 1.3059306
0.32574475 0.47939989 1.3324649
0.37565887 0.475824 1.3262416
0.40212429 0.47510585 1.3013139
0.34322155 0.51576483 1.3436825
0.3744261 0.5245834 1.3257501
0.40268055 0.52584702 1.3020893
0.34994489 0.55317438 1.3251581
0.37967393 0.57513195 1.3200761
0.40236717 0.56717181 1.3014652
0.38624206 0.62172693 1.3136146
0.4017472 0.6381132 1.3021903
0.39324069 0.67301536 1.3063154
0.40159619 0.71216917 1.3015051
-1.6702517 -0.45778582 1.367627
-1.6244705 -0.45281756 1.3792949
-1.5719018 -0.45456901 1.3613775
-1.5310063 -0.46010005 1.3883233
-1.4778054 -0.45263138 1.3803061
-1.4296829 -0.45338428 1.3824983
-1.3732967 -0.4533903 1.3776655
-1.3261214 -0.45383447 1.3812963
-1.2769126 -0.45251814 1.3694624
-1.2212781 -0.45201311 1.3746383
-1.1874418 -0.45508879 1.3894347
-1.0656815 -0.45603997 1.3932652
-1.0270498 -0.45588604 1.3709426
-0.97327119 -0.45413813 1.3805698
-0.93188685 -0.4549036 1.3753133
-0.85702711 -0.45198768 1.3688622
-0.81894976 -0.45158392 1.3694322
-0.77186602 -0.45492789 1.3749702
-0.72312766 -0.45713943 1.3820845
-0.67438143 -0.4570432 1.3720602
-0.62394768 -0.46157146 1.3756846
-0.57272017 -0.46144786 1.3724467
-0.52399743 -0.46229011 1.3768814
-0.49157503 -0.45953786 1.3814795
-0.37837225 -0.46453318 1.3918622
-0.16694659 -0.45194346 1.3588396
-0.13392708 -0.45141068 1.3707829
-1.5475117 -0.44998658 1.3710093
-1.4984444 -0.44664004 1.3957671
-1.4072381 -0.44817096 1.3719912
-1.3223263 -0.44823921 1.3917571
-1.2752504 -0.44826856 1.3799459
-1.2295368 -0.44809556 1.3676283
-1.168586 -0.44578147 1.3677973
-1.1405182 -0.44342515 1.3655825
-1.0788838 -0.44539645 1.3758053
-0.94574541 -0.44986287 1.3988639
-0.87166905 -0.44359338 1.3792635
-0.83008528 -0.44613233 1.3836362
-0.78992826 -0.44721165 1.3863655
-0.17189454 -0.44752052 1.3817354
-0.1213547 -0.43409052 1.3767151
-0.077804752 -0.4361636 1.3799633
-0.11432496 -0.39261246 1.3634372
-0.025356524 -0.34518799 1.3912163
0.33095968 -0.074386634 1.3785987
0.35797933 -0.07037545 1.3576977
0.33583313 -0.027195884 1.3829756
0.36043498 -0.025578808 1.3590747
0.33741322 0.02265596 1.3847139
0.36251605 0.0243295 1.3602558
0.33659387 0.074480452 1.3903561
0.36470455 0.075674392 1.3635238
0.34070337 0.12549336 1.3902436
0.36600628 0.12539101 1.3662136
0.3427231 0.17522757 1.3918651
0.36743179 0.1745827 1.367382
-0.35171181 0.22677249 1.3555489
0.34120283 0.20863426 1.3913293
0.37162834 0.20639724 1.3704438
0.33549455 0.37493384 1.3655593
0.35247257 0.37109065 1.3504859
0.33675629 0.42404413 1.3628144
0.3544766 0.41050893 1.350713
0.33945671 0.47099763 1.3574622
0.35042533 0.46502721 1.3509622
0.34216481 0.50214708 1.3520968
-1.6261953 -0.45371908 1.4232764
-1.576282 -0.45820197 1.4336109
-1.5047865 -0.45278609 1.4279586
-1.4736856 -0.45169902 1.4294871
-1.4221718 -0.45264485 1.4249163
-1.372465 -0.45008457 1.4129565
-1.3309715 -0.45121327 1.4272115
-1.273012 -0.4523015 1.4279079
-1.2226865 -0.45226833 1.417608
-1.1030525 -0.45170584 1.4303415
-1.0793222 -0.45370153 1.4239248
-1.0248895 -0.45423526 1.425433
-0.97497016 -0.45430309 1.4236929
-0.94108903 -0.45438296 1.4347579
-0.76788622 -0.452068 1.4207878
-0.72430491 -0.4560627 1.4260687
-0.67334735 -0.45681018 1.4106126
-0.62521309 -0.459611 1.4256438
-0.57460612 -0.46163091 1.4263505
-0.52633625 -0.45975706 1.4324683
-0.47558507 -0.46166477 1.4295362
-0.42417428 -0.46460655 1.4253798
-0.37429318 -0.46793273 1.4259635
-0.33660138 -0.47158253 1.4334903
-0.12981595 -0.45005473 1.4009225
-0.054473296 -0.45349988 1.4268503
-1.3716737 -0.44823089 1.4302841
-1.3166116 -0.44642672 1.4248865
-1.2669423 -0.44819474 1.4252335
-1.216851 -0.44558176 1.4293627
-1.1824087 -0.44159102 1.4148965
-1.1109625 -0.44481465 1.4204537
-1.0335715 -0.4463619 1.4080983
-0.90992987 -0.44580376 1.4179723
-0.88158965 -0.44416741 1.4365535
-0.81723428 -0.44061267 1.4275186
-0.78320837 -0.44696894 1.4302469
-0.17135729 -0.44163531 1.4291018
-0.12891953 -0.44257012 1.4245435
-0.060423099 -0.43863425 1.4030073
-0.10400395 -0.38786489 1.4423631
-0.072354682 -0.36714309 1.4443725
-0.037196018 -0.36152393 1.4277433
-0.075395562 -0.34345472 1.4417332
-0.037947118 -0.34412602 1.4283594
0.23745875 -0.090086065 1.4386314
0.27981195 -0.074781321 1.4285831
0.30736467 -0.069651783 1.4076577
0.28518325 -0.027283676 1.4336555
0.31077108 -0.026709167 1.4092355
0.2864494 0.024411632 1.4351474
0.31213114 0.025337789 1.4106083
0.28888792 0.072942726 1.4353026
0.31351429 0.075436167 1.4124639
0.29835534 0.12068604 1.4221027
0.31596389 0.12351611 1.4152952
0.32099178 0.17411065 1.4130583
0.32495895 0.20882988 1.4156486
-1.6073004 -0.45341885 1.4655994
-1.5632707 -0.45277318 1.4692323
-1.5319612 -0.45277011 1.4652479
-1.4699854 -0.4535352 1.4834002
-1.4222569 -0.45220652 1.495626
-1.3784965 -0.45195925 1.4731281
-1.155333 -0.45214304 1.4857146
-1.1272391 -0.45247927 1.4757261
-1.0613075 -0.45178989 1.4562274
-1.0227221 -0.45349383 1.4759984
-0.98197299 -0.45452404 1.4696425
-0.76408768 -0.45162955 1.4560424
-0.7219277 -0.45430484 1.4723706
-0.67588943 -0.46095276 1.4740353
-0.62514848 -0.45857126 1.4772681
-0.5721916 -0.45855936 1.4689872
-0.52038854 -0.45792615 1.4768215
-0.47519523 -0.45848498 1.4717102
-0.42347234 -0.46137914 1.4725548
-0.37585759 -0.46705845 1.4768703
-0.33927161 -0.46673751 1.4771821
-1.5845102 -0.44977337 1.4629558
-1.5029894 -0.44991592 1.4732209
-1.4918773 -0.44947365 1.4801947
-1.3766633 -0.44664744 1.4998199
-1.3196898 -0.44909319 1.4676472
-1.2739604 -0.44727236 1.4746208
-1.2421515 -0.44283581 1.474089
-1.1561761 -0.4404403 1.4722297
-1.125692 -0.4464488 1.4763917
-1.0775964 -0.44810575 1.4706376
-1.0324616 -0.44726485 1.4925544
-0.96424991 -0.44955555 1.499037
-0.92832571 -0.4459897 1.4775306
-0.8701207 -0.44069684 1.4726111
-0.81945342 -0.44002095 1.4806534
-0.77623981 -0.44550374 1.4746913
-0.7322371 -0.44743007 1.4839338
-0.15218934 -0.42029765 1.4758482
-0.14184207 -0.42656732 1.4690459
-0.15138406 -0.39395922 1.4909997
-0.12369477 -0.37631461 1.4650744
-0.086070053 -0.36451733 1.4558927
-0.10828537 -0.34794414 1.4593428
-0.076325238 -0.34792477 1.4605794
0.2307831 -0.070476748 1.4794179
0.26104295 -0.06573768 1.4563644
0.2349465 -0.027717078 1.4808037
0.26136711 -0.028766852 1.4572859
0.23490453 0.024553485 1.4818424
0.26204985 0.025481153 1.459111
0.23500976 0.062254369 1.4884021
0.26611933 0.075310238 1.4672514
0.29913619 0.10623218 1.4615402
-1.5702883 -0.45566547 1.5138633
-1.416887 -0.45178169 1.5268776
-1.3613086 -0.45397592 1.5349947
-1.3325676 -0.45368361 1.5184132
-1.2001783 -0.45161799 1.5478231
-1.0740805 -0.45281133 1.5373814
-1.0374429 -0.4515776 1.5264132
-0.97935528 -0.45268139 1.5052142
-0.77028108 -0.45118108 1.5410136
-0.72367322 -0.4534663 1.5272083
-0.67467922 -0.45492265 1.5165111
-0.62561285 -0.45731515 1.5308311
-0.57607913 -0.46100548 1.5273803
-0.52658355 -0.45687017 1.5254364
-0.48037538 -0.45905921 1.5213945
-0.43493223 -0.45781621 1.5141861
-0.37115216 -0.46216995 1.5211114
-0.34731919 -0.46303856 1.5199569
-0.19342646 -0.45070153 1.5237603
-0.074901804 -0.45410997 1.5299112
-0.040337946 -0.47977179 1.5327045
-1.5666605 -0.44899672 1.5408018
-1.5190666 -0.44791704 1.5097106
-1.4649202 -0.44672504 1.5170853
-1.4295468 -0.44654042 1.514726
-1.3699358 -0.4490453 1.5188389
-1.3218256 -0.44549644 1.5347292
-1.2832372 -0.44166517 1.5145963
-1.1670374 -0.44845757 1.5243204
-1.1293279 -0.44811609 1.5270969
-1.0663414 -0.44651842 1.5120134
-1.0113792 -0.44822064 1.5220886
-0.97533846 -0.44770631 1.5325302
-0.92368442 -0.44330311 1.5249219
-0.87574553 -0.44226623 1.5229803
-0.81892759 -0.44282445 1.5217102
-0.77007467 -0.44556153 1.5183777
-0.72430021 -0.44901091 1.5264466
-0.16345128 -0.41601205 1.5148606
-0.11602894 -0.43524066 1.5269969
-0.078707002 -0.44060579 1.5413719
-0.039725192 -0.42823881 1.5279734
-0.056733705 -0.35152751 1.5082642
0.18748115 -0.073200837 1.5264244
0.20672686 -0.06221664 1.5077308
0.19889207 -0.043757871 1.5209129
0.21083947 -0.037430979 1.5097221
0.22249736 0.071413301 1.5114777
0.25831309 0.087960511 1.5199637
-1.4285212 -0.4515692 1.5656085
-1.3500166 -0.45028222 1.5969602
-1.1104025 -0.45183453 1.5715508
-1.0820637 -0.45292419 1.577343
-1.0338053 -0.45162022 1.5822806
-0.98114443 -0.45222163 1.5826986
-0.78232253 -0.45393121 1.559262
-0.72622216 -0.45422149 1.5803188
-0.67311776 -0.45441815 1.5761861
-0.62096924 -0.45521829 1.5769682
-0.57434124 -0.45649752 1.5699973
-0.52620751 -0.45763418 1.5812721
-0.47286764 -0.46440554 1.5767661
-0.43964767 -0.46851 1.580129
-0.36939144 -0.46183881 1.5786484
-0.19814683 -0.45400596 1.5624655
-0.07184086 -0.45027652 1.5568405
-1.452503 -0.44554132 1.550616
-1.4279743 -0.44598874 1.572601
-1.3786669 -0.44863275 1.5665987
-1.2145374 -0.44475469 1.5646205
-1.1778811 -0.44627151 1.566749
-1.1238694 -0.44829896 1.5770595
-1.0937964 -0.44885793 1.59656
-1.0151854 -0.44814414 1.5725738
-0.96602935 -0.4429425 1.5682236
-0.93096149 -0.44120136 1.5737034
-0.87197196 -0.44226068 1.5672197
-0.81835008 -0.44566369 1.5780648
-0.77792126 -0.44723094 1.5812637
-0.73931563 -0.44789749 1.550325
-0.68439412 -0.44930363 1.5740894
-0.5338642 -0.44778657 1.5763718
-0.10570767 -0.43058649 1.5716068
-0.073184721 -0.43715608 1.5622649
-0.041170582 -0.44362569 1.5530847
0.18419898 -0.059300832 1.5751625
-1.4222934 -0.45141092 1.6093645
-1.378983 -0.4566876 1.6127015
-1.2742269 -0.45069543 1.6499981
-1.0789094 -0.45015693 1.61078
-1.0114498 -0.45151436 1.6216892
-0.77658904 -0.45089066 1.6215825
-0.72454625 -0.45425618 1.6243869
-0.67363524 -0.45414078 1.6272236
-0.630279 -0.45507434 1.6186186
-0.5826354 -0.45572916 1.6195495
-0.51274359 -0.45420465 1.6186457
-0.48031119 -0.4602567 1.6229354
-0.43468744 -0.47156543 1.6278992
-0.38382921 -0.46433759 1.630916
-1.4677651 -0.44947043 1.6252145
-1.4010217 -0.44776511 1.6036487
-1.3967613 -0.44954246 1.6172202
-1.2580452 -0.44835827 1.6474388
-1.2241579 -0.44725606 1.6098583
-1.1640565 -0.44620591 1.6202319
-1.1236881 -0.44605938 1.6210437
-1.0758835 -0.44720969 1.6257147
-1.0291789 -0.4471741 1.6217105
-0.92720544 -0.44251785 1.621383
-0.87488675 -0.44369689 1.6216862
-0.82418036 -0.44406581 1.6230998
-0.77752346 -0.44831726 1.6293832
-0.7229324 -0.44928357 1.632695
-0.67695773 -0.44975165 1.6487854
-0.51198679 -0.4486734 1.6172451
-0.47589126 -0.43499666 1.6383958
-0.44997671 -0.42730677 1.6470109
-0.096095234 -0.43938285 1.6042094
-1.2731822 -0.4523325 1.6871393
-1.212126 -0.45383799 1.6777792
-1.1303614 -0.45274985 1.6916599
-1.0693212 -0.45366439 1.6789069
-1.0268365 -0.45264462 1.6942288
-0.98338908 -0.45186904 1.6653627
-0.94668621 -0.45163551 1.6802629
-0.78053749 -0.45113099 1.6692079
-0.72606128 -0.45354307 1.6746259
-0.67539853 -0.45345414 1.6768359
-0.62272918 -0.45605728 1.6727467
-0.57005507 -0.45936093 1.6748114
-0.53623778 -0.45768732 1.6809652
-0.47063988 -0.4559328 1.6705282
-0.42426854 -0.46490663 1.6646997
-0.38788325 -0.45955405 1.6689939
-1.3094865 -0.44990706 1.6788839
-1.2910657 -0.44862449 1.6833642
-1.2177045 -0.44760308 1.6677474
-1.140227 -0.4473432 1.6590247
-1.0754689 -0.44871083 1.683401
-1.0075448 -0.4495666 1.6884348
-0.97679526 -0.44844526 1.6745329
-0.91944176 -0.44560364 1.6783239
-0.86590582 -0.4456346 1.6713648
-0.82003385 -0.44548926 1.6807499
-0.77333701 -0.44693771 1.6751295
-0.74454546 -0.44872218 1.6610749
-0.51504737 -0.44714454 1.6672578
-0.46469221 -0.44449791 1.6667978
-0.43160897 -0.42918974 1.6813228
-0.39966816 -0.40986297 1.6544193
0.3261064 0.12801534 1.6886892
-1.3276415 -0.45129669 1.733158
-1.252797 -0.45069867 1.7179028
-1.2297856 -0.45430809 1.7234275
-1.1755891 -0.45221505 1.7155851
-1.1115527 -0.45191118 1.7220896
-1.0762696 -0.45187092 1.7144866
-1.0368217 -0.45317245 1.7392974
-0.97343755 -0.45079833 1.7093087
-0.87226236 -0.45057541 1.7051325
-0.75745016 -0.45119059 1.7268238
-0.72274238 -0.45250705 1.7230743
-0.67363173 -0.45334205 1.7210828
-0.62644833 -0.45347598 1.7213575
-0.58121616 -0.45552015 1.7113173
-0.54514825 -0.45670709 1.7106336
-0.40515846 -0.4581331 1.7077115
-0.39815953 -0.45985183 1.715477
-1.2575337 -0.44256175 1.7264487
-1.2135737 -0.44891047 1.7306068
-1.1707742 -0.44860679 1.7257906
-1.1312954 -0.44931772 1.7239949
-1.0549192 -0.44880968 1.7095972
-1.0365219 -0.4489634 1.7188898
-0.96616912 -0.44696435 1.7247387
-0.91103655 -0.44272047 1.7194767
-0.87580752 -0.44564405 1.7242626
-0.8204971 -0.44649962 1.7267004
-0.78384101 -0.44901976 1.7291629
-0.72500193 -0.44777369 1.7217762
-0.69399285 -0.44930527 1.7176447
-0.61905307 -0.44822159 1.7330475
-0.563743 -0.44916555 1.7124469
-0.50707144 -0.44010082 1.7243987
-0.44590849 -0.42259836 1.7000391
0.29269353 0.1201574 1.7380835
0.31865701 0.12294556 1.7243274
-1.3631812 -0.45136175 1.7718332
-1.2589601 -0.45012677 1.7674986
-1.2103934 -0.45321986 1.7553817
-1.1607467 -0.45120579 1.77087
-1.1096365 -0.46021089 1.7899666
-1.0597919 -0.45150447 1.7695115
-1.0247024 -0.45833391 1.7697654
-0.90514147 -0.45119214 1.7839587
-0.80789423 -0.45095935 1.77231
-0.77655154 -0.45183381 1.7720819
-0.7351864 -0.4519206 1.7780252
-0.67571282 -0.45362395 1.7731539
-0.64211023 -0.45179284 1.7621208
-1.3401246 -0.44710475 1.7614617
-1.2619793 -0.44763839 1.7520323
-1.2394049 -0.44849038 1.7694569
-1.180187 -0.44802135 1.7712824
-0.99062979 -0.44636878 1.7742534
-0.91787732 -0.44594035 1.7543925
-0.87036449 -0.44545174 1.7697355
-0.82724714 -0.44866624 1.7847773
-0.78173786 -0.44814783 1.7789176
-0.74675518 -0.4474467 1.7756796
-0.68014205 -0.44879192 1.7590711
-0.63619757 -0.4494949 1.7736547
0.28524324 0.11385003 1.7722902
0.30964273 0.12135132 1.7534839
-1.3245834 -0.45470202 1.8349203
-1.2794633 -0.45270032 1.8287014
-1.22572 -0.454822 1.8256658
-1.170284 -0.45829263 1.8249333
-1.1244123 -0.45843452 1.8261399
-1.042007 -0.45636594 1.8015554
-0.96935678 -0.45650914 1.8322268
-0.94767243 -0.45082113 1.8131199
-0.85856587 -0.45281199 1.8197328
-0.77180272 -0.45119038 1.828518
-0.72692519 -0.45485666 1.8288902
-0.6849075 -0.45489424 1.8260472
-0.21162526 -0.46467519 1.8213748
-1.239656 -0.44763824 1.8221509
-0.92958575 -0.44674563 1.8003634
-0.87322015 -0.44712591 1.8226076
-0.82817835 -0.44649601 1.8194847
-0.77644086 -0.44753706 1.8104331
0.26664281 0.11367834 1.8175895
-1.3202871 -0.4510603 1.8577558
-1.2118256 -0.45056435 1.8527343
-1.0212686 -0.45695245 1.863776
-0.76165563 -0.45350602 1.8647342
-0.72371501 -0.45625904 1.880415
-0.69159091 -0.45773911 1.880636
-0.20531502 -0.4614079 1.8911351
-0.18494292 -0.45737398 1.8891066
-1.2826583 -0.44710785 1.8558941
-0.90595621 -0.44911695 1.8688569
-0.87883252 -0.44775009 1.8715616
-0.16927671 -0.44428143 1.8885189
-1.3214592 -0.45547459 1.9464751
-1.2822726 -0.46008039 1.9296559
-0.95563984 -0.45868295 1.9233801
-0.71754748 -0.45718136 1.916687
-0.25371942 -0.45527273 1.943363
-0.22289199 -0.45632944 1.9242871
-0.19250543 -0.45461664 1.9037859
-0.2117894 -0.43765014 1.9337788
-0.1842927 -0.43424845 1.9186939
-1.3126137 -0.46387875 1.9996456
-0.24498455 -0.45667437 1.9501561
-0.25664318 -0.44131458 1.9686704
-0.23184381 -0.42882818 1.9679191
-0.19664782 -0.4170129 1.9518491
-1.3484782 -0.46130762 2.0333312
-1.2991748 -0.46303603 2.0015895
-0.55108356 1.8669865 2.2924697
-2.1627603 2.394743 2.26946
-2.1340625 2.3820243 2.2688816
-2.2082572 2.4081123 2.2999721
-2.1349816 2.4024277 2.2998731
-1.4194916 -0.50321859 2.3188429
-1.371191 -0.5039987 2.3451662
-1.4766856 -0.48865223 2.3213565
-0.5803135 -0.3374218 2.3442121
-0.58366191 1.8438605 2.336242
-0.58126271 1.8785998 2.3417687
-0.58435309 1.9093838 2.3402503
-2.109055 2.39271 2.3020654
-2.0978556 2.3996797 2.3202817
-2.2248726 2.4084899 2.3302183
-2.1619787 2.4151542 2.3421171
-2.096386 2.417989 2.3495655
-1.4228046 -0.5029459 2.3938284
-1.3997654 -0.50163805 2.3961585
-1.3121219 -0.505575 2.3792763
-1.4796821 -0.49177152 2.3805015
-1.4295096 -0.4985227 2.3641093
-0.63052607 -0.35184658 2.388366
-0.61725205 -0.32357383 2.3763146
-0.58758861 -0.32221532 2.3712013
-0.61573368 -0.29174608 2.3838465
-0.63355696 1.7746308 2.3814402
-0.61470276 1.8242089 2.3646328
-0.59769416 1.8176885 2.3525605
-0.61718684 1.8835721 2.3821123
-0.62068939 1.9296827 2.3864493
-0.6366424 1.9640646 2.3995771
-2.0674813 2.3973322 2.3772845
-2.0450606 2.3987887 2.3538222
-2.3640954 2.4256904 2.3894064
-2.3333778 2.4217916 2.3827248
-2.2749004 2.4072933 2.3778377
-2.2268629 2.4120378 2.3761911
-2.1750402 2.412009 2.3695424
-2.1321311 2.4112196 2.3559263
-2.0914471 2.4136043 2.3663199
-2.0460174 2.4204347 2.3865833
-1.3856668 -0.50592148 2.4278164
-1.3293871 -0.5018425 2.4268632
-1.5184493 -0.48305884 2.4263647
-1.4731475 -0.49175602 2.4339797
-1.4344753 -0.49632195 2.429436
-1.3158363 -0.49913672 2.4164307
-0.63398778 -0.36456847 2.4098511
-0.65343875 -0.33008435 2.4304109
-0.63979673 -0.31245691 2.4038615
-0.62039155 -0.28988528 2.4182496
-0.6849553 1.6690813 2.4254153
-0.67135072 1.7220452 2.4232523
-0.66972536 1.7703172 2.4235823
-0.66225469 1.8297095 2.4248476
-0.67046142 1.8807864 2.4370329
-0.64321399 1.8776646 2.4104497
-0.65950006 1.9256942 2.4290893
-0.64902622 1.9159112 2.4183497
-0.65698576 1.9753625 2.4237919
-0.63997924 1.9600455 2.4219429
-2.376524 2.4200854 2.4150088
-2.3018408 2.4175954 2.4191988
-2.2739332 2.4168353 2.4372828
-2.2145805 2.4098835 2.4235449
-2.1802986 2.415204 2.4236522
-2.1341026 2.426522 2.4342697
-2.0793214 2.4231288 2.4375486
-2.0246241 2.4179351 2.4241374
-1.9771037 2.4111223 2.4173062
-1.9267168 2.4025941 2.4367483
-1.4207392 -0.50070369 2.4624279
-1.3880357 -0.50081253 2.4768956
-1.2530173 -0.50482076 2.4738135
-1.5827634 -0.46727091 2.4825125
-1.5224991 -0.4747166 2.468226
-1.4716107 -0.48382148 2.4764693
-1.425596 -0.49360585 2.4794631
-1.36525 -0.49972564 2.4796429
-1.3247236 -0.49686596 2.4784477
-1.2638963 -0.49614203 2.4972007
-0.67735094 -0.36436346 2.4692657
-0.66471285 -0.30344281 2.475163
-0.64051712 -0.27920398 2.4816914
-0.76546156 1.4167471 2.4842279
-0.72015852 1.636777 2.4731789
-0.71515852 1.683637 2.4701607
-0.72031134 1.7222286 2.484875
-0.69338822 1.7288769 2.4573011
-0.7227124 1.7755182 2.4840212
-0.69876021 1.7703995 2.4601164
-0.71180648 1.8199197 2.4714274
-0.69200593 1.8389542 2.4598632
-0.72647697 1.8691522 2.4898996
-0.69763303 1.8825629 2.4620252
-0.70768559 1.9387391 2.4788704
-0.68175501 1.9413714 2.4594333
-0.72305 1.9754286 2.4955931
-0.68649173 1.9767274 2.462003
-0.71256626 2.0240502 2.4890115
-0.68416876 2.0203943 2.4616923
-1.8377481 2.3998861 2.4888299
-2.3233259 2.4221041 2.4779501
-2.2676392 2.4202933 2.469358
-2.2243693 2.412647 2.47928
-2.1761146 2.4175494 2.4768913
-2.1266978 2.4204841 2.4721057
-2.0697162 2.41483 2.4728613
-2.0199633 2.42136 2.4775114
-1.9661217 2.4220529 2.4719584
-1.9264474 2.4065461 2.4838874
-1.8806167 2.4103222 2.4778354
-1.5688847 -0.46446717 2.5178919
-1.527393 -0.47165552 2.5292017
-1.475345 -0.48047271 2.5277264
-1.4262044 -0.48852783 2.5335851
-1.3796059 -0.49089184 2.5198605
-1.3364995 -0.49544865 2.547986
-1.2863221 -0.49977368 2.5106139
-0.81745702 1.3412073 2.5499003
-0.80394554 1.3962518 2.5313685
-0.78918016 1.4148586 2.5224695
-0.8009975 1.4776592 2.5420055
-0.78230578 1.4800216 2.5243905
-0.77437335 1.5192963 2.5138395
-0.77033669 1.5760722 2.5212231
-0.77397144 1.6278139 2.524498
-0.74869871 1.6094003 2.5064206
-0.76715046 1.6790937 2.5304186
-0.74167746 1.6808094 2.5040252
-0.76601225 1.7250144 2.5229802
-0.74166274 1.732383 2.5102594
-0.75661445 1.7720951 2.5228126
-0.73949665 1.7797251 2.5086803
-0.76501215 1.8208033 2.5340908
-0.73068118 1.843598 2.5013843
-0.7650001 1.8747959 2.5382373
-0.76706159 1.9350917 2.548727
-0.73174119 1.9195687 2.5105317
-0.76300758 1.980854 2.5379739
-0.73950762 1.9506156 2.517159
-0.76417637 2.0335977 2.5489984
-0.73857647 2.0124021 2.5118232
-0.77128768 2.098156 2.5414803
-0.74127144 2.0658054 2.5169084
-1.7489786 2.3971965 2.5386338
-2.3014073 2.4188433 2.5101583
-2.2766273 2.4120986 2.5160363
-2.2265542 2.416522 2.5285614
-2.1708219 2.413614 2.5177329
-2.1261475 2.4227233 2.5265892
-2.076937 2.4166565 2.5280738
-2.0244503 2.4150829 2.5173821
-1.9760411 2.4168129 2.5263462
-1.9194084 2.4153605 2.5296955
-1.8754669 2.4086137 2.5193241
-1.8226616 2.4055853 2.52707
-1.7915914 2.4078498 2.5290761
-1.563194 -0.45712817 2.5680821
-1.5200473 -0.46306768 2.5632849
-1.470098 -0.47246838 2.5787966
-1.4195932 -0.4785625 2.5840886
-1.374797 -0.48528752 2.5733802
-1.3157998 -0.49225718 2.5787902
-0.85824275 1.3208073 2.5998576
-0.83268714 1.3234173 2.5771968
-0.83295006 1.3729671 2.5771198
-0.85114008 1.4015214 2.5965071
-0.83242089 1.4309685 2.5838795
-0.83055145 1.4719788 2.5790553
-1.0024247 1.5383358 2.5834823
-0.98619103 1.5425706 2.5795934
-0.82432294 1.5288172 2.5820992
-0.79860228 1.5484848 2.5598621
-1.0084794 1.5620943 2.5922441
-0.82425767 1.573567 2.5789254
-0.79996824 1.5652379 2.5575576
-0.81624836 1.6115954 2.571115
-0.81992322 1.6765423 2.5854526
-0.81584895 1.7267244 2.5809121
-0.78593713 1.708864 2.5534711
-0.82199651 1.7741064 2.5862401
-0.79129487 1.7747641 2.5639894
-0.81687558 1.8247544 2.5852671
-0.78767622 1.8251748 2.565536
-0.81429899 1.8821611 2.5825665
-0.79329342 1.8751259 2.5620728
-0.80347353 1.9290819 2.5768106
-0.78705108 1.9404044 2.5665262
-0.80794847 1.9624012 2.577049
-0.78854668 1.966557 2.557189
-0.80053848 2.0344102 2.5713902
-0.78549081 2.0217354 2.5578995
-0.81064314 2.0754697 2.593569
-0.77655387 2.073282 2.5582762
-0.81881952 2.1430135 2.5876396
-0.79560959 2.1148329 2.5723076
-1.6419032 2.3928239 2.5935388
-2.3666167 2.4110649 2.5888317
-2.3259418 2.4259477 2.5506399
-2.2631838 2.418551 2.5820315
-2.2232263 2.414427 2.5723765
-2.1824992 2.4187346 2.5702128
-2.0688975 2.4198217 2.5675313
-2.0230627 2.4168677 2.5640392
-1.9764436 2.4135301 2.574733
-1.927688 2.4168704 2.5827439
-1.878686 2.4177611 2.5728185
-1.819846 2.4083819 2.5807767
-1.7820534 2.4276857 2.5847683
-1.7193723 2.4165058 2.5846057
-1.5205722 -0.46104249 2.6149504
-1.4667097 -0.46660075 2.6104851
-1.4227463 -0.47047153 2.6225836
-1.3753176 -0.47845006 2.6316543
-1.3303806 -0.48967528 2.6004345
-1.667405 -0.36036459 2.6216624
-1.6412331 -0.35984167 2.6291468
-1.6636567 -0.32591429 2.6141543
-1.6319621 -0.32812625 2.6333508
-1.6659598 -0.27666879 2.6220636
-1.6354275 -0.27908534 2.6369891
-1.6596049 -0.22606951 2.6156754
-1.637414 -0.22691864 2.6390154
-1.6593494 -0.17649178 2.6181076
-1.6369886 -0.1771614 2.6411359
-1.6653681 -0.1271809 2.6234283
-1.6348618 -0.1272762 2.6398442
-1.7034246 -0.099984758 2.6463671
-1.6586404 -0.077394649 2.6205387
-1.6337225 -0.077575475 2.6393917
-1.6574646 -0.027859882 2.6194103
-1.6345557 -0.027975447 2.6414616
-1.7047569 0.014784722 2.6497376
-1.6643587 0.024500536 2.6214547
-1.6337084 0.02165631 2.6400692
-1.6641243 0.074741565 2.6217556
-1.6315372 0.081081934 2.6356263
-1.6577206 0.1276623 2.6174152
-1.6336888 0.12798534 2.6376884
-1.6617316 0.17759641 2.6214774
-1.6347951 0.17771132 2.6372426
-1.6606892 0.22704001 2.6168911
-1.6349024 0.22738917 2.6345003
-1.6611923 0.26701993 2.6177068
-1.6305362 0.26600501 2.6352525
-0.97988337 1.1945257 2.6488941
-0.88499469 1.1726552 2.6332242
-0.88008875 1.2248704 2.6329257
-0.87358773 1.27932 2.6301606
-0.87608051 1.3268009 2.6292927
-0.86732024 1.3758417 2.6202378
-0.87359083 1.4338582 2.6213825
-0.87748021 1.4764923 2.629107
-1.0161443 1.5338159 2.6047187
-0.99488348 1.5344867 2.6124458
-0.8674919 1.516167 2.6200237
-1.0349145 1.5657519 2.6250074
-0.87385607 1.5741774 2.6357379
-0.8421734 1.5773842 2.6005352
-0.86283946 1.6315168 2.6258671
-0.86408281 1.6677324 2.6232078
-0.84008956 1.6735742 2.6069369
-0.87945879 1.7224699 2.6401992
-0.84851778 1.7270601 2.6141484
-0.86551911 1.7688118 2.6297481
-0.84104806 1.7939104 2.6126254
-0.87380123 1.808256 2.6426668
-0.83688968 1.830683 2.6079803
-0.85681939 1.8804412 2.6315665
-0.83722532 1.885415 2.612663
-0.86568856 1.9304538 2.6407375
-0.83712578 1.9325416 2.6198151
-0.85244048 1.9655862 2.6324606
-0.83157825 1.9677091 2.6095371
