ply
format ascii 1.0
comment PCL generated
element vertex 1455
property float x
property float y
property float z
element camera 0
property float view_px
property float view_py
property float view_pz
property float x_axisx
property float x_axisy
property float x_axisz
property float y_axisx
property float y_axisy
property float y_axisz
property float z_axisx
property float z_axisy
property float z_axisz
property float focal
property float scalex
property float scaley
property float centerx
property float centery
property int viewportx
property int viewporty
property float k1
property float k2
end_header
-1.340704 0.22765705 1.0779623
-1.3410701 0.27448571 1.0722426
-1.3740181 0.31165725 1.0761747
-1.3485522 0.30268905 1.0733801
-1.3313694 -0.51585811 1.1226631
-1.2640777 -0.52148074 1.145454
-1.2147186 -0.51122987 1.130559
-1.1768942 -0.50399119 1.1383431
-1.1288629 -0.51250899 1.1256167
-1.0809606 -0.52096975 1.1277215
-1.023398 -0.51693654 1.1203848
-0.9748525 -0.51276141 1.1287607
-0.92402142 -0.5098418 1.1210706
-0.87586862 -0.50832957 1.1290228
-0.83501035 -0.5038771 1.1278908
-0.79583806 -0.50058633 1.1248802
-1.3147112 -0.49884817 1.112345
-1.1480471 -0.49802595 1.1118265
-0.80620873 -0.49732691 1.1320515
-0.7713415 -0.49594396 1.125834
-0.72128773 -0.49078473 1.1256984
-0.67232949 -0.48688149 1.1221843
-0.62337208 -0.4852263 1.1252803
-0.57407415 -0.48335013 1.1217432
-0.5252288 -0.48307374 1.1220495
-0.47538263 -0.4832921 1.1271291
-0.42629853 -0.4830558 1.1291834
-0.37494919 -0.48204577 1.1231087
-0.32391262 -0.48144558 1.1250875
-0.27425048 -0.48017251 1.1220587
-0.22424635 -0.47919542 1.1237152
-0.17425044 -0.47890806 1.1231142
-0.12343517 -0.47772911 1.1260413
-0.074510753 -0.47693697 1.1252518
-0.025101364 -0.47637376 1.125726
0.024516113 -0.47536144 1.1247888
0.074253015 -0.47396132 1.123648
0.12358478 -0.47281575 1.1226423
0.17267109 -0.47256052 1.1273764
0.22565915 -0.47173321 1.1260426
0.27407801 -0.47094402 1.1260961
0.32507908 -0.4708508 1.1252698
0.37543914 -0.47042271 1.1298832
0.42576399 -0.46868676 1.1266651
0.47762281 -0.46756202 1.1225514
0.52876544 -0.4662835 1.1230206
0.57782513 -0.46652189 1.1273547
0.62334412 -0.4644565 1.1204594
0.6748358 -0.46366262 1.1244552
0.72451705 -0.45932287 1.1239605
0.77470803 -0.45774192 1.1240828
0.82481879 -0.45728865 1.1289036
0.87282223 -0.45461562 1.1243951
0.92681861 -0.4545863 1.1253695
0.97443771 -0.45326191 1.1223428
1.0242947 -0.45392832 1.1285454
1.0775005 -0.45727468 1.1194248
1.1189879 -0.45659992 1.1313759
1.1690384 -0.45785815 1.1268389
1.2175566 -0.45626596 1.1253581
1.2779387 -0.45764315 1.1218382
1.3301007 -0.45641032 1.1193032
1.3761994 -0.45713162 1.1242985
1.416016 -0.45526287 1.1228623
1.4672126 -0.45651573 1.1294136
-1.3170245 -0.41863477 1.1259308
1.4286088 -0.44992152 1.1054337
-1.3263562 -0.37408945 1.1220263
-1.3288687 -0.3254267 1.1248022
-1.3330537 -0.27611721 1.1249634
-1.3341905 -0.22460842 1.127051
-1.3351387 -0.1743467 1.1274412
-1.3421903 -0.12343332 1.1284726
-1.3403939 -0.074822135 1.1239308
-1.3630451 -0.046151064 1.1193368
-1.315117 -0.014649305 1.1226281
-1.3232371 0.023002161 1.1254486
-1.3308482 0.074350253 1.1266509
-1.3347377 0.1239918 1.1248546
-1.337045 0.17641416 1.1263051
-1.3394134 0.22370639 1.1243522
-1.3402182 0.27420852 1.1259776
-1.3652568 0.31049281 1.1193323
-1.3441441 0.30168229 1.1353084
-1.3279637 -0.50778162 1.1693634
-1.2729703 -0.51543814 1.1822175
-1.2244349 -0.51361436 1.1842617
-1.1510478 -0.50000751 1.1526712
-1.1334316 -0.51471633 1.178229
-1.0732304 -0.52135348 1.1731415
-1.0265251 -0.5145852 1.1802614
-0.97505659 -0.51392293 1.1799299
-0.92287958 -0.51098907 1.1709892
-0.87180936 -0.50481713 1.1747334
-0.83598596 -0.50295579 1.1632465
-1.3052539 -0.4782964 1.1882418
-1.2722197 -0.47928944 1.186137
-1.2235813 -0.48798022 1.1980654
-1.1559024 -0.49670532 1.1790265
-1.1496749 -0.49407661 1.1999531
-0.80993247 -0.49774399 1.1715125
-0.77115637 -0.49576423 1.1797333
-0.72432411 -0.49114501 1.1725962
-0.67673683 -0.48844185 1.1738386
-0.62273556 -0.4859499 1.174641
-0.57468641 -0.4854981 1.1751443
-0.52431053 -0.48363313 1.17475
-0.47603384 -0.48302856 1.1738126
-0.42616177 -0.4825964 1.1747942
-0.3758668 -0.48198497 1.1749769
-0.32500711 -0.48054296 1.1729348
-0.27582893 -0.48048601 1.1742821
-0.2266522 -0.47943747 1.1757932
-0.17691359 -0.47901896 1.1743476
-0.12632845 -0.47746259 1.1744031
-0.075615659 -0.47673163 1.1718277
-0.027096787 -0.47568452 1.1728607
0.025298884 -0.47471154 1.17308
0.078363165 -0.47335538 1.1757694
0.12492104 -0.47376829 1.1747323
0.17662835 -0.47270632 1.1778932
0.22158204 -0.47113433 1.1729096
0.27284783 -0.47063828 1.1765536
0.32538918 -0.47068039 1.1738098
0.37465617 -0.46924213 1.1743214
0.42601323 -0.46808898 1.1767961
0.47265095 -0.46761736 1.1766036
0.51962882 -0.46724582 1.1740497
0.5724147 -0.46756318 1.1760662
0.62625915 -0.46917528 1.1791639
0.67372751 -0.46563423 1.1738453
0.72586167 -0.46248361 1.173555
0.77659822 -0.45971233 1.1755232
0.8253997 -0.45779371 1.177834
0.8745935 -0.45393986 1.1723971
0.9295013 -0.45325801 1.1715438
0.97704601 -0.45160654 1.1700363
1.0178263 -0.45204711 1.1647575
1.0748166 -0.45338249 1.1727612
1.1280155 -0.45546407 1.1739042
1.1760275 -0.4555189 1.1758095
1.2298692 -0.45623678 1.1809601
1.2708549 -0.45551178 1.1730309
1.3202568 -0.45614678 1.1717016
1.3756561 -0.45559534 1.1747395
1.4256195 -0.45329461 1.1752784
1.4724646 -0.4549408 1.1700809
1.5113952 -0.46030638 1.1584009
-1.3119407 -0.41766128 1.1781806
-1.2969416 -0.41884482 1.1987836
0.91198128 -0.44947928 1.1897156
0.95280713 -0.4490943 1.181759
1.0153017 -0.44838697 1.1775147
1.0905658 -0.44999203 1.1975112
-1.3218552 -0.37434185 1.176087
-1.326479 -0.32375956 1.1769183
-1.3254066 -0.27435851 1.179028
-1.3246545 -0.22571622 1.1781734
-1.3283263 -0.1750574 1.1777591
-1.2866001 -0.1906803 1.1779615
-1.3352629 -0.12438122 1.1770536
-1.3538495 -0.055112388 1.1768001
-1.3338042 -0.076439708 1.1754235
-1.3142387 -0.018960012 1.1758647
-1.2912608 -0.030627325 1.1876763
-1.3212688 0.02524348 1.1759121
-1.3303872 0.075833566 1.1770846
-1.3330175 0.12351913 1.1758559
-1.3360561 0.17388952 1.1748234
-1.3358223 0.22523013 1.1718614
-1.3401822 0.27356872 1.1786591
-1.3567364 0.30653352 1.1797234
-1.3463959 0.3012802 1.1982208
-1.2657979 -0.50679636 1.2046211
-1.2256774 -0.50864071 1.2251595
-1.1829767 -0.50213718 1.2450192
-1.1276343 -0.51272082 1.2257417
-1.0788264 -0.51634198 1.224849
-1.0268507 -0.51556069 1.2283531
-0.98026639 -0.5164662 1.2200899
-0.92974955 -0.51163918 1.2228093
-0.87504464 -0.5045622 1.224063
-0.83000821 -0.50136274 1.2201884
-1.3108431 -0.45591447 1.201526
-1.2734015 -0.46640572 1.2184945
-1.2245293 -0.47848892 1.2195477
-1.1530424 -0.49444994 1.2355947
-1.1474779 -0.49727014 1.2278383
-0.8133142 -0.49851403 1.2179974
-0.77481806 -0.49657756 1.2304899
-0.72079051 -0.49089193 1.2176015
-0.67329526 -0.48752195 1.2234919
-0.62563145 -0.48602131 1.2255721
-0.57293999 -0.48464072 1.2264214
-0.52518827 -0.48386937 1.2275957
-0.47450113 -0.48397481 1.2251413
-0.4244749 -0.48313299 1.2226864
-0.37599874 -0.48123926 1.2258439
-0.32382238 -0.48072264 1.2210311
-0.27495578 -0.47985506 1.2255
-0.22457115 -0.47819778 1.2254555
-0.17322354 -0.47807506 1.2237315
-0.12519453 -0.47696072 1.2249876
-0.076085113 -0.4761098 1.2213663
-0.026413873 -0.4749372 1.2184693
0.023245696 -0.47466847 1.2243931
0.074448466 -0.47393262 1.2246791
0.12539844 -0.47288582 1.2242471
0.17371926 -0.47141978 1.2194892
0.22593535 -0.47103596 1.2264962
0.27462 -0.46982473 1.2249663
0.32444042 -0.47007266 1.2254093
0.37523985 -0.46892071 1.2251991
0.42410371 -0.46736383 1.2276413
0.47261655 -0.46678096 1.2253152
0.52687985 -0.46600547 1.2245322
0.57585263 -0.46789613 1.2230184
0.62553281 -0.46920642 1.2251742
0.6785537 -0.46799791 1.2199719
0.72533685 -0.4663128 1.2217718
0.77140838 -0.46178424 1.22036
0.82941967 -0.45859501 1.222207
0.87731254 -0.45347425 1.2218988
0.92867893 -0.45249775 1.2286823
0.98427701 -0.45132431 1.2284821
1.0350235 -0.45268446 1.224526
1.0824667 -0.45049065 1.2208179
1.1305887 -0.45331791 1.2230744
1.1768003 -0.45675632 1.237115
1.2203122 -0.45438385 1.2146436
1.2761925 -0.45377213 1.2222241
1.3170135 -0.45290804 1.2171326
1.3773835 -0.45548353 1.2268056
1.4322002 -0.45433673 1.2250406
1.4787802 -0.45253754 1.2362456
1.5172019 -0.45352933 1.2462729
1.5784968 -0.45826623 1.2161721
-1.3098612 -0.44743046 1.2032305
-1.2799007 -0.42196551 1.2196264
-1.2325128 -0.42132217 1.2383747
0.97213775 -0.44891331 1.2210599
1.0187443 -0.44763693 1.2169966
1.0555776 -0.4479275 1.2148752
1.1238627 -0.44981769 1.2463001
1.1743404 -0.44974989 1.2052008
1.2239244 -0.44663334 1.2310894
1.3116757 -0.44946331 1.2128166
1.4720533 -0.44831598 1.2313938
-1.3102916 -0.3678067 1.2063349
-1.283857 -0.37709442 1.2219597
-1.2402003 -0.37239441 1.2296829
-1.3107175 -0.32463738 1.2084736
-1.2848575 -0.32387552 1.2254648
-1.2445471 -0.32739633 1.2271829
-1.3066895 -0.27337405 1.2064437
-1.2776771 -0.27457684 1.2189122
-1.2410117 -0.27273592 1.2287235
-1.304113 -0.2263297 1.203966
-1.2796263 -0.22606607 1.2120579
-1.2382146 -0.22171773 1.2232779
-1.3103826 -0.16140018 1.2088418
-1.2758521 -0.16965555 1.2162274
-1.2355925 -0.17672405 1.2235016
-1.3147756 -0.12341228 1.2192205
-1.2669541 -0.12263554 1.2301991
-1.2442846 -0.13658284 1.2317688
-1.3650386 -0.05644276 1.2242475
-1.3139821 -0.079207458 1.2169731
-1.2769001 -0.082652673 1.2336329
-1.308303 -0.018272916 1.2272613
-1.3194792 0.023972608 1.2245326
-1.3270781 0.077177115 1.2261881
-1.3300644 0.12609926 1.2269337
-1.3319366 0.17653528 1.2259252
-1.3343903 0.22411096 1.2246479
-1.3363483 0.27285805 1.2239176
-1.3541274 0.30800742 1.2118118
-1.348362 0.30630261 1.2381141
-1.2465769 -0.51205903 1.2757082
-1.1270212 -0.50830829 1.2788041
-1.077788 -0.51496977 1.2726535
-1.0241033 -0.51988703 1.2757053
-0.97282559 -0.51625144 1.2673862
-0.92803288 -0.51166534 1.2801526
-0.87806481 -0.50684297 1.2776792
-0.83646005 -0.503708 1.273656
-1.2800306 -0.46253228 1.2638226
-1.2323138 -0.48006216 1.2615627
-1.1718211 -0.49861655 1.2764966
-1.1474789 -0.49663427 1.2682269
-0.81048763 -0.49819294 1.2703687
-0.77327597 -0.49504277 1.2751083
-0.72496808 -0.49183762 1.2737964
-0.67614996 -0.48763007 1.273532
-0.62472963 -0.48405072 1.2760655
-0.57811248 -0.48421451 1.2765355
-0.52781016 -0.48324367 1.2735733
-0.47421032 -0.48328441 1.2725258
-0.42302099 -0.4825024 1.2760524
-0.37235776 -0.48120314 1.2734767
-0.32417682 -0.47969407 1.2744826
-0.27522814 -0.4788174 1.2775401
-0.22303696 -0.47823837 1.2744064
-0.17411596 -0.47781715 1.2734377
-0.12444632 -0.47629747 1.2735522
-0.07575988 -0.47515374 1.2732713
-0.026118822 -0.47413453 1.2701451
0.025244756 -0.47395819 1.27534
0.074515373 -0.47310868 1.276492
0.12632516 -0.471863 1.2755126
0.17712893 -0.47103229 1.2722328
0.22718196 -0.46994221 1.2763017
0.27514219 -0.46858943 1.2721778
0.32641193 -0.46947673 1.2762979
0.37372878 -0.46928468 1.2736578
0.42503357 -0.46732211 1.278495
0.47613347 -0.46634561 1.2754817
0.52565891 -0.46621028 1.2803371
0.57807016 -0.46773943 1.2733039
0.62325484 -0.47005364 1.2767884
0.67559063 -0.47142911 1.2713631
0.72730631 -0.46998772 1.2755164
0.77554935 -0.46622559 1.2784407
0.82507241 -0.46170869 1.2703626
0.87060136 -0.45676574 1.2748489
0.92177176 -0.45263344 1.2749468
0.97108895 -0.45178509 1.2776281
1.0327202 -0.45303476 1.2714748
1.0671896 -0.45207322 1.2672013
1.169206 -0.4517529 1.2666456
1.2210511 -0.45295203 1.265789
1.2757987 -0.45531383 1.2666471
1.326696 -0.45207876 1.2814595
1.3666154 -0.45359948 1.265345
1.4338019 -0.4536252 1.271939
1.4522594 -0.45337561 1.2528198
1.542626 -0.4520807 1.2697736
1.5742692 -0.45267999 1.2724702
1.6225091 -0.45735157 1.2649883
-1.2729303 -0.43061408 1.2656428
-1.233022 -0.42722896 1.2548687
0.94237173 -0.4494431 1.2802197
0.97769344 -0.44816512 1.2730286
1.020777 -0.44814157 1.2760389
1.0784904 -0.44745919 1.2755263
1.1137561 -0.44757828 1.2713814
1.1811277 -0.44864908 1.2765995
1.2137698 -0.44822651 1.2912202
1.3782622 -0.44743022 1.2875834
1.4227145 -0.44795215 1.2759737
1.46426 -0.44832227 1.2657728
1.5090384 -0.44753337 1.2742513
-1.2597014 -0.36572447 1.2691797
-1.2551599 -0.32234833 1.2627077
-1.2572708 -0.27790943 1.2701641
-1.2564274 -0.15926494 1.2641352
-1.2648627 -0.12366033 1.2684909
-1.3176107 -0.064561024 1.26355
-1.2701598 -0.084341213 1.2701943
-1.3071985 -0.024653586 1.2757677
-1.3173479 0.025785234 1.2729554
-1.3237609 0.077473596 1.2772517
-1.3271714 0.12706229 1.2760959
-1.327774 0.17493698 1.2739606
-1.329946 0.22538024 1.2745315
-1.332725 0.2750228 1.2758931
-1.3551809 0.31067839 1.2676938
-1.3407778 0.30092892 1.2715218
-1.1233666 -0.50702244 1.3264495
-1.0766892 -0.51885718 1.3264129
-1.0263407 -0.51922047 1.3244197
-0.97375482 -0.51312876 1.3226889
-0.93170345 -0.51393992 1.3307877
-0.87447566 -0.50595218 1.3211306
-0.83328658 -0.5011121 1.32046
-1.279758 -0.48503837 1.3175985
-1.1678717 -0.49498364 1.3315091
-1.1425649 -0.496454 1.3276324
-0.81933326 -0.49833074 1.3204798
-0.77748436 -0.49529254 1.326135
-0.72702682 -0.49019659 1.3243479
-0.67903453 -0.48810634 1.3212379
-0.62514609 -0.48444679 1.3258446
-0.57605183 -0.4844085 1.3255049
-0.52250987 -0.48342586 1.3232307
-0.47639218 -0.48266277 1.3263419
-0.42565128 -0.48129833 1.3246269
-0.37389609 -0.47941694 1.3239807
-0.32180151 -0.47807667 1.3283495
-0.27476102 -0.47728848 1.3271554
-0.22625624 -0.47745943 1.3218566
-0.17529671 -0.47655645 1.3236265
-0.12590095 -0.47499204 1.3232222
-0.073528111 -0.47372589 1.3250644
-0.023072448 -0.47274965 1.3206257
0.022928309 -0.47302246 1.3243467
0.07413324 -0.47213611 1.3304187
0.12492117 -0.47051457 1.325976
0.17304724 -0.46971613 1.3258547
0.22348864 -0.46901703 1.3258644
0.27844894 -0.46867836 1.3238776
0.32572475 -0.46835828 1.3240076
0.37624761 -0.46841615 1.3246148
0.42328686 -0.465891 1.3234643
0.47365248 -0.46566221 1.3264157
0.52027607 -0.46521801 1.3236686
0.57390797 -0.46617392 1.3225895
0.62480611 -0.46976539 1.3285638
0.67560619 -0.47463784 1.3301256
0.72704244 -0.47402287 1.3245109
0.7766912 -0.46933684 1.3239368
0.83600324 -0.46788013 1.3322495
0.87047309 -0.46397462 1.3303056
0.92661911 -0.45717952 1.3282382
0.96267986 -0.45224157 1.3297462
1.0318592 -0.45214331 1.3220087
1.075472 -0.45282647 1.3336589
1.1305429 -0.45094064 1.326111
1.1768004 -0.4520312 1.3221135
1.2249938 -0.45522293 1.3325769
1.2855237 -0.45312324 1.3213265
1.3212932 -0.4523555 1.3239549
1.3698186 -0.45226857 1.3224511
1.4946485 -0.45694536 1.3446739
1.527962 -0.45310193 1.3250581
1.5607439 -0.45089522 1.3037815
-1.3098693 -0.40671676 1.3462355
-1.2893853 -0.42210573 1.3234861
0.98443455 -0.44849133 1.3270203
1.0316429 -0.4498297 1.3305137
1.094961 -0.44960469 1.344794
1.1266431 -0.44839811 1.3248764
1.1693956 -0.44591391 1.3359816
1.2258229 -0.44898665 1.3297805
1.2615732 -0.44981351 1.3051076
1.3420562 -0.44595873 1.3118168
1.3806207 -0.44764757 1.3285344
1.4174666 -0.44744059 1.3179059
1.4612206 -0.44672871 1.3145916
-1.3131777 -0.36238417 1.3441732
-1.2939454 -0.37809253 1.3194131
-1.3093276 -0.32172301 1.3379594
-1.3147339 -0.27639514 1.3470109
-1.2928189 -0.23183556 1.3153257
-1.3099633 -0.17606498 1.3405632
-1.2944307 -0.19122815 1.330476
-1.316676 -0.12120355 1.3367939
-1.327509 -0.092595316 1.3498644
-1.3030394 -0.025562977 1.3262337
-1.2975351 -0.034842603 1.3371294
-1.3116109 0.019708216 1.3235945
-1.320133 0.071713418 1.3274258
-1.3227708 0.12216667 1.3267932
-1.3239355 0.17054138 1.3232191
-1.3261515 0.2254487 1.3240467
-1.3292661 0.27358526 1.3268076
-1.415494 0.34412634 1.336633
-1.3557173 0.30809107 1.3174647
-1.3344967 0.30379775 1.3373854
-1.1243181 -0.50948673 1.3777037
-1.0702028 -0.51676625 1.3758372
-1.0247456 -0.51631784 1.3694822
-0.97902793 -0.51441431 1.3773419
-0.9246099 -0.51224124 1.3705416
-0.87741834 -0.50714529 1.38045
-0.82965314 -0.50170439 1.3754697
-1.3050761 -0.49177158 1.3676522
-1.2838696 -0.48934713 1.395676
-1.2263548 -0.49345988 1.3933353
-1.1687644 -0.48740482 1.3799585
-1.1482422 -0.49688938 1.3770618
-0.82129335 -0.49672294 1.3791989
-0.77513677 -0.4947066 1.372683
-0.72335786 -0.4906694 1.3757055
-0.67624849 -0.48739851 1.3757864
-0.6241715 -0.48433295 1.3751986
-0.57325888 -0.48391992 1.3745089
-0.52497059 -0.48276466 1.3759805
-0.47312272 -0.48184624 1.3752114
-0.42685419 -0.479963 1.3751185
-0.37570995 -0.47875175 1.3779784
-0.32658401 -0.4772251 1.3770938
-0.27530497 -0.47681189 1.3787013
-0.22660139 -0.4752048 1.372712
-0.17405145 -0.47451478 1.3757896
-0.1249518 -0.47316831 1.3794571
-0.077124484 -0.47252268 1.3761066
-0.027105544 -0.47157669 1.3745337
0.02751511 -0.47092468 1.3730392
0.074014157 -0.4707486 1.3736993
0.12320858 -0.46905798 1.3737106
0.1723769 -0.46823153 1.3720744
0.2271439 -0.46744463 1.3752886
0.27385506 -0.46799207 1.3747095
0.32429296 -0.46604389 1.3740968
0.37436858 -0.46689001 1.3751248
0.4265556 -0.46583039 1.3743638
0.47450918 -0.46497414 1.3777446
0.52497292 -0.46474349 1.3734212
0.57103473 -0.46492845 1.3725971
0.62476689 -0.46826124 1.3748624
0.67526078 -0.47265038 1.3663098
0.72383004 -0.47857985 1.3773826
0.77534848 -0.47854498 1.3827674
0.82350945 -0.47075346 1.3714179
0.87469435 -0.46471581 1.3621941
0.91991383 -0.46424469 1.3767081
0.97643101 -0.4553906 1.373901
1.0313921 -0.45220077 1.3783919
1.077489 -0.45156071 1.3654094
1.1256739 -0.45228958 1.3767805
1.1558046 -0.45277947 1.3580983
1.2246681 -0.45330372 1.3831745
1.28172 -0.45319808 1.3693615
1.3230855 -0.45204434 1.3744463
1.3700767 -0.45085877 1.3664746
1.4132041 -0.45152196 1.3865732
1.4718256 -0.453235 1.3821975
-1.3049297 -0.41274083 1.3728899
-1.296454 -0.42217973 1.3777841
0.99422938 -0.44852272 1.3659519
1.0283262 -0.4496313 1.3500952
1.075958 -0.44860932 1.3793129
1.1678337 -0.44757649 1.3666544
1.2333481 -0.44794667 1.3642406
1.2666876 -0.44982505 1.3953999
1.3389934 -0.44789824 1.3763309
1.3758659 -0.44682431 1.3649004
-1.311201 -0.37623012 1.3738586
-1.3165203 -0.32490301 1.375331
-1.3191655 -0.27587292 1.3807679
-1.3176464 -0.22749566 1.3753095
-1.3222163 -0.17341521 1.3795094
-1.3266586 -0.12378316 1.3788384
-1.3276865 -0.08488024 1.3717754
-1.2885923 -0.053528227 1.3775384
-1.3033721 -0.022998201 1.3748658
-1.2961028 -0.030130373 1.3750811
-1.3102387 0.023327356 1.3762609
-1.3145372 0.072274283 1.3736275
-1.3176199 0.12492532 1.3759083
-1.320565 0.17706552 1.3760884
-1.3214316 0.2250178 1.3736348
-1.324602 0.27478033 1.3744279
-1.4087903 0.34678778 1.3633052
-1.3667207 0.34066117 1.3718305
-1.3365945 0.32491484 1.3822888
-1.4508806 0.36400715 1.3849007
-1.4218788 0.35670578 1.3801476
-1.3731686 0.35441571 1.3840593
-1.3314468 0.35154057 1.3991584
-1.118602 -0.50854981 1.4257125
-1.0779043 -0.51177448 1.4293907
-1.0276622 -0.51485723 1.4200083
-0.97265786 -0.51474845 1.4193472
-0.92911381 -0.5107106 1.4242691
-0.88266653 -0.50748801 1.4319285
-0.84270668 -0.50497675 1.4346368
-1.3128691 -0.47456408 1.4205124
-1.2706752 -0.46876281 1.4288181
-1.2268592 -0.47628105 1.4260648
-1.1813852 -0.48259339 1.4250635
-1.1423974 -0.49475887 1.4278982
-0.81954068 -0.49850804 1.4293994
-0.77182716 -0.49388713 1.425808
-0.72324932 -0.48983589 1.4307687
-0.67114502 -0.48538879 1.4248618
-0.62541002 -0.48471999 1.4277856
-0.57639897 -0.48497993 1.4275117
-0.52334815 -0.48350635 1.4286549
-0.47414768 -0.48092413 1.4273801
-0.42455965 -0.47972572 1.4250959
-0.3761282 -0.47825179 1.4267861
-0.3271639 -0.47603846 1.4228705
-0.27274504 -0.47415191 1.4268663
-0.22412723 -0.47502661 1.4250321
-0.17965072 -0.47425777 1.4318604
-0.12599553 -0.47249332 1.4277284
-0.073200904 -0.47067839 1.4239382
-0.026374513 -0.47008741 1.4266455
0.022455359 -0.47089091 1.4216244
0.075744361 -0.47133559 1.4254348
0.12386274 -0.4690325 1.4229863
0.17565644 -0.46684492 1.4224489
0.22517616 -0.46546277 1.4206694
0.2752001 -0.46505237 1.4220001
0.3252123 -0.46621761 1.4241236
0.3763873 -0.46651796 1.4261625
0.42560759 -0.46541905 1.4238318
0.47332314 -0.46353373 1.4270756
0.52360475 -0.46468681 1.4231902
0.57640201 -0.46427369 1.4217244
0.62742937 -0.46801963 1.4305274
0.67427248 -0.47564021 1.4227761
0.72618932 -0.48004165 1.4182926
0.77737868 -0.48040348 1.4234545
0.82295972 -0.47827345 1.4293834
0.88850319 -0.4725568 1.4182401
0.93022949 -0.46950069 1.4285268
0.97407001 -0.4634735 1.4233462
1.0255783 -0.45817471 1.4272778
1.0697958 -0.45696574 1.4345689
1.1311882 -0.45525694 1.4290898
1.1740886 -0.454882 1.4295889
1.2229539 -0.45402503 1.4265105
1.2735745 -0.45856369 1.4360867
1.3244851 -0.45353046 1.4192984
1.3646243 -0.45048562 1.4220504
1.4220999 -0.45341277 1.4178687
1.4674659 -0.45653391 1.42494
-1.3024119 -0.40602911 1.4115815
-1.2834347 -0.42401555 1.4346281
1.0581926 -0.44990924 1.409542
1.2366536 -0.44838881 1.4107207
1.3522022 -0.44936889 1.4259499
1.5023384 -0.44921207 1.4084826
-1.3052989 -0.37227446 1.418263
-1.2905431 -0.37457338 1.4402422
-1.3101387 -0.32652214 1.4173259
-1.2875516 -0.32344744 1.4407169
-1.2379005 -0.3290624 1.4480499
-1.3104879 -0.27503139 1.4194844
-1.2875674 -0.27098867 1.4397756
-1.2395252 -0.27612892 1.4480605
-1.3117763 -0.22572276 1.4172562
-1.2811013 -0.22974367 1.4365252
-1.2379971 -0.22522555 1.4439448
-1.3140616 -0.17698497 1.4256144
-1.2883712 -0.18492553 1.443206
-1.2444584 -0.17456047 1.4478669
-1.3156873 -0.12564217 1.4238118
-1.238964 -0.12797612 1.4427483
-1.3188915 -0.087079726 1.4202043
-1.2910261 -0.055540267 1.4249681
-1.3019419 -0.015536726 1.4215528
-1.2967379 -0.03325247 1.4318345
-1.3059647 0.023249011 1.4237137
-1.2990526 0.0091670817 1.4400381
-1.3120335 0.074975453 1.4261434
-1.3134212 0.12609802 1.4274462
-1.3169738 0.17524582 1.4285653
-1.3159856 0.22399205 1.4232588
-1.3210931 0.27449194 1.4222932
-1.3316553 0.32922968 1.4238615
-1.6149976 0.39298004 1.4487567
-1.5512996 0.38442412 1.4446942
-1.5376182 0.38338608 1.4497579
-1.3683076 0.3690778 1.4273715
-1.3439131 0.35483915 1.412258
-1.8191068 0.45137098 1.4473711
-1.1125846 -0.50098968 1.4742873
-1.0734792 -0.50720412 1.4707459
-1.0195488 -0.51358187 1.4640622
-0.97968161 -0.5138734 1.4755642
-0.92857087 -0.51011449 1.4702852
-0.87345773 -0.50568038 1.4728371
-1.2527416 -0.45463008 1.4550281
-1.2160758 -0.46502417 1.4633452
-1.1950783 -0.46974117 1.4556768
-1.1335142 -0.49161339 1.4784323
-0.82098925 -0.49605879 1.4738939
-0.77456737 -0.49104816 1.4743516
-0.72180933 -0.48870516 1.4722728
-0.67461431 -0.48514986 1.4748766
-0.62362182 -0.4834657 1.4659295
-0.57348639 -0.48378131 1.4729033
-0.5228864 -0.48165548 1.4791379
-0.47242212 -0.48051581 1.4760691
-0.42485791 -0.47947723 1.4767169
-0.37200227 -0.47654328 1.4737128
-0.32270315 -0.4760533 1.4755099
-0.27293676 -0.47351703 1.4776719
-0.22610031 -0.47209257 1.4733893
-0.1728553 -0.47269869 1.478686
-0.12487571 -0.47218785 1.4767294
-0.076868825 -0.47172666 1.4800346
-0.027228992 -0.46872112 1.4752799
0.02226142 -0.46980143 1.4711469
0.074526183 -0.46873304 1.4741858
0.12554865 -0.46917215 1.4732403
0.17487748 -0.46699947 1.4769052
0.22343126 -0.46487501 1.4698399
0.27539086 -0.46457806 1.4733381
0.3285712 -0.46656829 1.4720688
0.37419561 -0.46539 1.4745129
0.42688486 -0.46527082 1.4729531
0.47923088 -0.46512976 1.4801108
0.52545637 -0.46438411 1.4723806
0.57773405 -0.4656944 1.4771752
0.62308031 -0.46505943 1.4752609
0.67487109 -0.47421885 1.4742494
0.7270537 -0.48487779 1.483752
0.77145201 -0.48706916 1.4818643
0.82297063 -0.48481774 1.4735197
0.87735385 -0.48243576 1.4745286
0.92423767 -0.47924104 1.4842762
0.96984494 -0.4725346 1.4777532
1.0193766 -0.46239087 1.4712973
1.075802 -0.45494914 1.4623541
1.1256503 -0.4584012 1.4690529
1.1592056 -0.45659563 1.4754032
1.2201091 -0.46067047 1.4853615
1.2953349 -0.457423 1.4630486
1.3197594 -0.45464048 1.4634255
1.3770911 -0.45535085 1.4799348
1.4296744 -0.45794603 1.4659008
-1.2587404 -0.42423397 1.4549093
-1.2222475 -0.42273724 1.4606812
-1.1982377 -0.43447721 1.460286
-1.2696693 -0.37491381 1.4601914
-1.2331213 -0.3784695 1.4701496
-1.2707818 -0.32437384 1.460896
-1.2342433 -0.32474235 1.4633162
-1.2717891 -0.27858925 1.458238
-1.2319299 -0.2740804 1.4651456
-1.2637284 -0.23444092 1.4525285
-1.2284168 -0.22922254 1.4691521
-1.3078675 -0.16216689 1.4533668
-1.2785355 -0.17072047 1.4588928
-1.2335008 -0.16804105 1.4655813
-1.3043606 -0.12841228 1.4577314
-1.2832509 -0.12444129 1.4666711
-1.2421485 -0.12527375 1.4711642
-1.3066758 -0.093128763 1.4703579
-1.2804689 -0.069652095 1.4737169
-1.243636 -0.09043584 1.466898
-1.3036494 -0.0082791504 1.4561086
-1.2934983 -0.026530789 1.4795583
-1.3038067 0.025308527 1.4725801
-1.2986513 0.0049200333 1.4918928
-1.3084621 0.075760014 1.4762897
-1.3088856 0.12451406 1.4739208
-1.3107857 0.17350385 1.4717818
-1.3136958 0.22530037 1.4747307
-1.3173711 0.27278835 1.4774213
-1.3592056 0.33864817 1.4850318
-1.3285589 0.30523306 1.4650555
-1.6082332 0.39370367 1.4608871
-1.5759029 0.3969833 1.4659667
-1.5236864 0.39302608 1.461
-1.4782223 0.38734737 1.461236
-1.3566186 0.36416271 1.4680233
-1.8031567 0.43953052 1.4558396
-1.7725452 0.44174021 1.4710898
-1.72778 0.43414831 1.4753906
-1.6747149 0.42987633 1.4703702
-1.6246991 0.427075 1.4720412
-1.5752269 0.42805734 1.4717613
-1.5213923 0.42275053 1.4717329
-1.4896917 0.41800338 1.4862719
-1.8196657 0.47708359 1.4665493
-1.7801013 0.47673261 1.4773796
-1.727056 0.4726361 1.4786115
-1.6754133 0.47577599 1.4765774
-1.624413 0.47390106 1.4768544
-1.5784146 0.4778536 1.4778404
-1.5235485 0.47589704 1.4821965
-1.8223875 0.52802444 1.4765235
-1.7726829 0.51101291 1.4843223
-1.7248526 0.51283455 1.492757
-1.6600885 0.51446778 1.4890295
-1.6224122 0.51300317 1.4845734
-1.5686964 0.51302695 1.4845713
-1.5259978 0.51626176 1.4930817
-1.8283142 0.57409114 1.4805375
-1.8555954 0.62439454 1.4792988
-1.8374949 0.61978 1.485975
-1.8668808 0.67640656 1.490514
-1.8401337 0.66487235 1.494257
-1.8651856 0.72316515 1.4949578
-1.8696302 0.77564156 1.4940155
-1.8472974 0.75012577 1.4990985
-1.8659468 0.80781901 1.494616
-1.8767171 0.88492882 1.4945498
-1.8746433 0.96869928 1.4985641
-1.8659408 1.0244932 1.4962329
-1.1082268 -0.50314713 1.526245
-1.073169 -0.5090555 1.5172875
-1.0300915 -0.51336795 1.5235678
-0.96826327 -0.51120931 1.5235914
-0.92319423 -0.50921118 1.5246408
-0.87491339 -0.50223023 1.5198985
-1.1569972 -0.45619714 1.527293
-1.1339637 -0.4832812 1.5239565
-0.87549138 -0.49884024 1.525934
-0.82600653 -0.49469274 1.5276028
-0.7754786 -0.49236941 1.5196241
-0.72870392 -0.48828119 1.528003
-0.6772989 -0.48468038 1.5286181
-0.62742221 -0.48217741 1.51924
-0.57319289 -0.48087057 1.5257019
-0.52824086 -0.4813408 1.5254411
-0.47346777 -0.47827727 1.5270481
-0.42046517 -0.47713861 1.5236501
-0.37927726 -0.47610718 1.5294546
-0.32518962 -0.47247973 1.5212259
-0.27972123 -0.47302836 1.5237622
-0.22547303 -0.47261527 1.5273287
-0.17709982 -0.47168466 1.5273423
-0.12470306 -0.47057927 1.5262431
-0.074707679 -0.4683753 1.5260518
-0.025103588 -0.4694325 1.5279466
0.024943462 -0.47019306 1.5278569
0.075394951 -0.47026998 1.5285677
0.12872644 -0.46770054 1.5206977
0.17723778 -0.46606711 1.5198758
0.22233891 -0.46548417 1.5249604
0.27046579 -0.46264881 1.527684
0.32536256 -0.46447933 1.5234935
0.37331074 -0.46475771 1.5216914
0.42556357 -0.46472767 1.5243845
0.47885439 -0.46341145 1.5221816
0.52431089 -0.46386811 1.525643
0.57602656 -0.4631525 1.5233448
0.62932587 -0.46373552 1.5270392
0.6753183 -0.46982363 1.5165368
0.72081488 -0.48208401 1.5185738
0.7752201 -0.49064445 1.5357336
0.82798266 -0.49036801 1.5250471
0.88150841 -0.48836675 1.5247673
0.92059612 -0.47992161 1.5273893
0.976924 -0.47857374 1.5223522
1.0152963 -0.47005913 1.5141442
1.0804276 -0.46797013 1.5299574
1.1343722 -0.46392113 1.5338001
1.1818192 -0.46601367 1.537154
1.222188 -0.46317965 1.5204117
1.2570629 -0.46323511 1.5211574
-1.2333914 -0.41142148 1.5116432
-1.2413986 -0.36949769 1.5044631
-1.2517378 -0.32647634 1.5171043
-1.2481219 -0.3433935 1.509439
-1.2592553 -0.18745215 1.5285336
-1.2570516 -0.14145997 1.5129291
-1.2495838 -0.14943404 1.5032462
-1.2843958 -0.058583282 1.5197637
-1.2929938 -0.027209265 1.5272237
-1.3036404 0.028986929 1.5226692
-1.2979654 0.011232652 1.5196512
-1.3048241 0.075312324 1.5205147
-1.3070564 0.1252443 1.5235227
-1.3090947 0.1764039 1.5214579
-1.3113812 0.22342005 1.528739
-1.3150903 0.27570629 1.5274527
-1.3194447 0.3023507 1.5246046
-1.4881328 0.42797461 1.5211431
-1.5016556 0.48586151 1.5124902
-1.4958436 0.46601304 1.5240022
-1.8066883 0.54179966 1.5108447
-1.7728016 0.53959078 1.5307496
-1.7139188 0.54168695 1.5341994
-1.6179876 0.53933942 1.5181234
-1.5605608 0.53841859 1.5073104
-1.5130415 0.51531082 1.5211964
-1.8110996 0.57848918 1.527264
-1.7993509 0.55140483 1.5421427
-1.743838 0.55476791 1.54949
-1.6717725 0.56425595 1.5458667
-1.6199019 0.5536173 1.5357747
-1.5877031 0.56148225 1.5493211
-1.8171842 0.62591064 1.5231061
-1.76292 0.64163828 1.5399933
-1.7227566 0.64369553 1.5457373
-1.6922239 0.64714438 1.5496085
-1.8195431 0.67464751 1.5238734
-1.7761816 0.66632175 1.5444385
-1.7231756 0.66100621 1.5431043
-1.6961478 0.65927094 1.5493627
-1.8282832 0.72305757 1.5218138
-1.8588154 0.77144527 1.5020305
-1.8279196 0.77558732 1.5230311
-1.8666381 0.82907277 1.5047979
-1.8271214 0.82252961 1.5282389
-1.905086 0.86455339 1.5097767
-1.863637 0.86729127 1.5031914
-1.8317997 0.87487251 1.5247185
-1.8655826 0.92434132 1.5067608
-1.8309947 0.9245646 1.5290636
-1.8675063 0.97576183 1.5096996
-1.8333335 0.97351903 1.5298991
-1.8698716 1.014305 1.5089602
-1.8381907 1.0249263 1.5217613
-1.8617857 1.0604758 1.5077122
-1.8383076 1.076422 1.526037
-1.8380107 1.1247071 1.5313287
-1.8315437 1.1691866 1.5371758
-1.8300861 1.2098416 1.5442796
-1.1040215 -0.50355059 1.5678296
-1.0780597 -0.51050943 1.5776832
-1.0230336 -0.50905859 1.5755348
-0.97410238 -0.50847256 1.5716027
-0.93471259 -0.5070343 1.5764658
-0.88504779 -0.50064355 1.5631987
-1.2668192 -0.48123401 1.5568199
-1.2030877 -0.46528605 1.5669632
-1.1896825 -0.45279157 1.5604026
-1.1301745 -0.49078706 1.5754308
-0.90279728 -0.49916995 1.5674969
-0.87540317 -0.49555278 1.5783091
-0.82560664 -0.49386612 1.5788389
-0.77355343 -0.48938692 1.5705246
-0.72420573 -0.48261747 1.5727429
-0.67445123 -0.47953674 1.5699586
-0.62359375 -0.47688705 1.5757045
-0.5778659 -0.47743431 1.570012
-0.52167463 -0.47830057 1.5761454
-0.47432983 -0.47486293 1.578282
-0.42858449 -0.47602642 1.576645
-0.37479439 -0.47338319 1.5735615
-0.3249532 -0.4704479 1.5637474
-0.27573714 -0.46971399 1.5711261
-0.22587378 -0.47024971 1.5720876
-0.1747997 -0.47211143 1.574747
-0.12580511 -0.47033527 1.5783
-0.074144825 -0.46779266 1.5750523
-0.024017973 -0.46817422 1.5774592
0.024645589 -0.46839741 1.5770637
0.075693831 -0.46947575 1.5806813
0.12063982 -0.46980101 1.5767894
0.17548503 -0.46672764 1.5726095
0.22251076 -0.46431303 1.5786592
0.27512088 -0.46037695 1.5769361
0.32482323 -0.46166584 1.575071
0.37858614 -0.46300927 1.5750651
0.42849123 -0.46312508 1.5680442
0.47598693 -0.4629693 1.5749096
0.52320135 -0.45955783 1.5712696
0.57301134 -0.4599911 1.5694129
0.62554777 -0.46249983 1.5691571
0.67643744 -0.4672941 1.579565
0.72445846 -0.47920281 1.5800884
0.77536935 -0.49024269 1.5744662
0.8243022 -0.49222851 1.5731434
0.8773815 -0.49002093 1.5763763
0.92628402 -0.48504329 1.584494
0.98357093 -0.48343915 1.5740379
1.0201406 -0.47845945 1.5811785
1.0836514 -0.47280589 1.5734963
1.1246208 -0.46836707 1.5827134
1.1666421 -0.46713325 1.5520363
1.2209457 -0.46859664 1.5723145
-1.2861867 -0.41654322 1.5884004
-1.1892083 -0.43902743 1.5629737
-1.3068442 -0.37156951 1.5965223
-1.2140021 -0.38827521 1.580721
-1.1911622 -0.37632245 1.5653515
-1.2107162 -0.30853122 1.5814686
-1.3077027 -0.27558529 1.5954281
-1.2017016 -0.29610425 1.5624391
-1.3037063 -0.23277688 1.596049
-1.223297 -0.22922641 1.5868063
-1.3141426 -0.16761607 1.5977632
-1.2756758 -0.19126445 1.5657331
-1.2229736 -0.11718825 1.5830574
-1.3057235 -0.062652037 1.5819386
-1.2992545 -0.072888076 1.5678865
-1.3096734 -0.028629353 1.5865867
-1.2991171 -0.0086573921 1.5517511
-1.3119669 0.025359074 1.5773569
-1.2989116 0.014093474 1.551439
-1.3151033 0.076162249 1.5745
-1.3148688 0.12524416 1.5750197
-1.3141096 0.17400427 1.5711622
-1.3178791 0.22634403 1.5740452
-1.3180475 0.27359992 1.566698
-1.3292794 0.3005695 1.5814711
-1.4425417 0.35206521 1.5962913
-1.4909655 0.43092957 1.5774053
-1.5025706 0.49572405 1.5738597
-1.496925 0.47036442 1.5742415
-1.5180185 0.52671778 1.5711367
-1.7807193 0.57655197 1.5561385
-1.7278358 0.57832366 1.5616754
-1.6683476 0.58721989 1.5533471
-1.6169333 0.58195347 1.5539494
-1.5687156 0.5783506 1.5615932
-1.5446417 0.57546043 1.5847358
-1.8040568 0.63494217 1.5548989
-1.7750019 0.62206024 1.5612776
-1.7281196 0.61625201 1.5607337
-1.6746659 0.62506986 1.5596805
-1.6213982 0.62781841 1.5597355
-1.5725496 0.62072098 1.5712368
-1.546267 0.63019121 1.5903044
-1.7870642 0.68488616 1.5666221
-1.6749796 0.66884273 1.5691109
-1.6288821 0.66443074 1.5716759
-1.5733209 0.65918398 1.5820735
-1.5468987 0.65155935 1.5960324
-1.8092083 0.73219711 1.5730108
-1.7965069 0.70974886 1.5815853
-1.8103466 0.77506828 1.5760517
-1.8171537 0.82450056 1.5772358
-1.8175542 0.87182665 1.5752325
-1.821973 0.92511374 1.5741175
-1.8212836 0.97652203 1.5720912
-1.8256063 1.0290573 1.5745656
-1.8257947 1.0761367 1.5718501
-1.8284309 1.1289195 1.5715094
-1.8269588 1.1764209 1.574211
-1.8276329 1.2219758 1.5790812
-1.8326784 1.2721696 1.5819498
-1.8270248 1.3116621 1.5855194
-1.8330293 1.3603406 1.5988092
-1.1124452 -0.50636309 1.6314793
-1.0749028 -0.50743246 1.6297692
-1.0179943 -0.51055169 1.6291609
-0.97031575 -0.5082767 1.6291839
-0.94073105 -0.50319815 1.62204
-0.88438243 -0.50011283 1.6333666
-1.2223015 -0.48001838 1.6282214
-1.1738286 -0.47191972 1.6174392
-1.1315334 -0.48964676 1.6244533
-0.91262031 -0.49455625 1.6273631
-0.87773925 -0.49507317 1.6283212
-0.82476616 -0.49157262 1.6274636
-0.77773261 -0.48483145 1.6254126
-0.72537893 -0.47860885 1.6211535
-0.67211366 -0.47542226 1.6231512
-0.6240496 -0.4733623 1.6302652
-0.57456982 -0.47457504 1.6207182
-0.5275867 -0.47378275 1.6218538
-0.47419572 -0.47201437 1.6288574
-0.4258849 -0.47082555 1.618991
-0.37577286 -0.47254542 1.6220013
-0.32454681 -0.46734643 1.6195279
-0.27780515 -0.46745899 1.6310921
-0.22424142 -0.47163102 1.627516
-0.17111441 -0.47123343 1.6290646
-0.12084874 -0.46749178 1.6262687
-0.072969452 -0.46521384 1.6231905
-0.027478054 -0.46656102 1.6287272
0.025928169 -0.46863127 1.6286945
0.071328357 -0.46898228 1.6314048
0.12884966 -0.46821913 1.626412
0.17042951 -0.4659051 1.6236149
0.22316188 -0.4617562 1.6246934
0.27585658 -0.45982322 1.6267341
0.32540596 -0.45879194 1.6245245
0.37613598 -0.46170214 1.6277033
0.42109454 -0.46428967 1.624379
0.47533262 -0.46191961 1.6222091
0.5233472 -0.45880809 1.6316381
0.57605875 -0.45964634 1.6293137
0.62774622 -0.46094632 1.6195501
0.67219931 -0.46133405 1.6221701
0.71944988 -0.47034413 1.6267027
0.78128821 -0.49155951 1.6269606
0.83071876 -0.49254116 1.624637
0.87618846 -0.49122787 1.6260055
0.93113834 -0.48991641 1.6291431
0.97472763 -0.48445794 1.6127115
1.0084748 -0.4870128 1.6416597
1.0845734 -0.48166966 1.62227
1.1092087 -0.47535554 1.6241997
1.1776854 -0.47530785 1.6318551
-1.3101126 -0.40669772 1.6311573
-1.2847464 -0.41902971 1.6328773
-1.2407429 -0.42187274 1.6481819
-1.3205779 -0.36854479 1.6279557
-1.2466385 -0.36861685 1.6477392
-1.3235546 -0.32746261 1.6287794
-1.218347 -0.30247536 1.6017215
-1.3219463 -0.27128991 1.6269275
-1.3166336 -0.23406003 1.6393352
-1.2746899 -0.22411749 1.6229603
-1.224159 -0.22843 1.6014239
-1.3227447 -0.1727099 1.6291385
-1.3256927 -0.12085699 1.6266993
-1.3056332 -0.065450698 1.6289577
-1.2937338 -0.08473701 1.6492332
-1.3124918 -0.029066157 1.6275258
-1.3175595 0.023726745 1.6255738
-1.3232052 0.075542904 1.6300144
-1.3260363 0.12174444 1.6268243
-1.3278732 0.17255248 1.6242822
-1.3281871 0.22381423 1.6270066
-1.3358854 0.27399716 1.6255616
-1.3464563 0.30660668 1.6199875
-1.4660789 0.37535453 1.6381032
-1.4832233 0.42477235 1.6264167
-1.5004166 0.4949204 1.6111162
-1.4934163 0.47497982 1.628029
-1.5139554 0.52795273 1.6176636
-1.4974744 0.51335937 1.6276822
-1.5381638 0.5774616 1.627905
-1.543493 0.62497449 1.6303083
-1.5594051 0.66568571 1.6484188
-1.5413787 0.65358281 1.6097732
-1.7828465 0.72742778 1.6201506
-1.7413754 0.70971811 1.6333625
-1.8034151 0.78429508 1.6242892
-1.7947861 0.76578277 1.6270211
-1.8093163 0.82642204 1.6223522
-1.8140199 0.87237597 1.6237274
-1.8150001 0.92488867 1.6255025
-1.8190725 0.97150528 1.6235911
-1.8239217 1.0221614 1.6262161
-1.8233103 1.0730598 1.6236089
-1.8237224 1.1251023 1.6215637
-1.8238072 1.1724102 1.620966
-1.8265703 1.2292358 1.6259806
-1.8328166 1.2755032 1.6265768
-1.8277823 1.3236341 1.6212609
-1.8275385 1.3733375 1.625469
-1.8314271 1.4128634 1.635177
-1.8370537 1.4637555 1.647673
-1.1074777 -0.50115222 1.6543165
-1.0723394 -0.5031994 1.6691676
-1.0253552 -0.50826705 1.666023
-0.97963405 -0.5050289 1.6639194
-0.91793209 -0.50004023 1.6569784
-1.2500939 -0.45240921 1.6741612
-1.2219367 -0.46305281 1.6727041
-1.1912833 -0.46626315 1.6769193
-1.1305 -0.49135354 1.6758875
-1.097134 -0.49561214 1.6788666
-0.9626708 -0.4989287 1.6860995
-0.92360032 -0.49522361 1.6816647
-0.88181859 -0.49444684 1.6719723
-0.82876688 -0.49041876 1.6717936
-0.77822006 -0.48129931 1.6715482
-0.72825217 -0.4762595 1.6722847
-0.65647513 -0.47030449 1.6653923
-0.57673651 -0.47330269 1.676405
-0.52437741 -0.47269142 1.6700126
-0.47207627 -0.4694297 1.6715026
-0.42588151 -0.46824646 1.6756172
-0.37421688 -0.46714613 1.663658
-0.3228586 -0.46354711 1.6737156
-0.27367589 -0.46737224 1.681751
-0.22334452 -0.46731934 1.677327
-0.17480937 -0.47099984 1.6761736
-0.12588041 -0.46592778 1.6775948
-0.076305442 -0.46048835 1.6717674
-0.025595967 -0.46355915 1.6751466
0.021514501 -0.46785635 1.6709416
0.077141173 -0.46852195 1.6748761
0.12442856 -0.46919698 1.6749028
0.17874797 -0.46423292 1.6748705
0.22315717 -0.46127665 1.6728063
0.27574205 -0.45642418 1.6753235
0.32397789 -0.45602572 1.661672
0.3752768 -0.45967072 1.6728505
0.42734671 -0.46120173 1.6707845
0.47314537 -0.4625001 1.6729029
0.52507555 -0.45745969 1.6739119
0.57362306 -0.4536337 1.670469
0.62322438 -0.45652688 1.6715509
0.67656779 -0.46031624 1.6799619
0.73104101 -0.46832424 1.6716722
0.7680192 -0.48119205 1.6705871
0.81766397 -0.48999262 1.6763639
0.87636709 -0.49004441 1.6792057
0.92008525 -0.4885574 1.6694802
0.97780514 -0.4897221 1.6743695
1.0290906 -0.48802915 1.678532
1.0731858 -0.48744717 1.6763804
1.103727 -0.48093373 1.6531337
1.1643803 -0.48340017 1.6785042
-1.2676144 -0.4170489 1.6703914
-1.2274721 -0.42107701 1.6852783
-1.1973583 -0.42606822 1.6879357
-1.3164928 -0.37776259 1.664149
-1.2710334 -0.37412086 1.6814086
-1.2319441 -0.3735199 1.6881309
-1.3182497 -0.32769403 1.6671127
-1.2613741 -0.32636347 1.6845195
-1.2361224 -0.3269003 1.6900138
-1.3174602 -0.27896872 1.6624397
-1.2658671 -0.28039137 1.6726871
-1.2339498 -0.27357814 1.6853487
-1.3078641 -0.22612673 1.6586374
-1.2697164 -0.22722214 1.6686969
-1.23094 -0.23680779 1.6827047
-1.3173556 -0.16962779 1.6603643
-1.2714839 -0.1799951 1.6728413
-1.2358476 -0.17477928 1.6844658
-1.3199316 -0.12893216 1.6619989
-1.2724799 -0.1281682 1.6864305
-1.2424269 -0.13254237 1.6865975
-1.3043642 -0.070412852 1.6794105
-1.2908938 -0.085182242 1.6637535
-1.3123902 -0.026194733 1.6774001
-1.3184888 0.024469227 1.6730978
-1.32182 0.075796694 1.6785476
-1.3275235 0.12652595 1.6751866
-1.3270277 0.1766737 1.6728945
-1.3309246 0.22348468 1.6767124
-1.3372829 0.27410486 1.6720843
-1.3896539 0.34479338 1.6961406
-1.3445679 0.30794382 1.6736013
-1.4764045 0.37888193 1.6744167
-1.4826556 0.42746857 1.6699351
-1.4888959 0.47604084 1.6733577
-1.5240943 0.53905433 1.672554
-1.4897693 0.50835311 1.6713911
-1.5339351 0.57157117 1.6735008
-1.5402809 0.61939985 1.6745111
-1.5575551 0.6579532 1.6920631
-1.5478221 0.65467423 1.6596916
-1.7697715 0.73866087 1.6647586
-1.8032023 0.78330451 1.6842023
-1.7893603 0.77353114 1.6727817
-1.8052628 0.82803982 1.6681614
-1.7970175 0.81084067 1.6816944
-1.8122718 0.8759827 1.6746494
-1.8129545 0.92009926 1.6748943
-1.819999 0.97465783 1.6786515
-1.8227546 1.0251769 1.6729685
-1.8258822 1.0743948 1.6793207
-1.8306139 1.125657 1.6735356
-1.8296191 1.1775587 1.6797715
-1.8288705 1.2227427 1.6730746
-1.8291272 1.2744645 1.6729358
-1.8291775 1.3300011 1.6707188
-1.8317391 1.3821684 1.6747068
-1.8300265 1.4252887 1.6752806
-1.8277413 1.4724166 1.6774534
-1.8199373 1.5156484 1.6739615
-1.8221054 1.5570872 1.6789962
-1.1163496 -0.50118452 1.739916
-1.0755129 -0.50769925 1.7269456
-1.0275218 -0.51088059 1.718981
-0.97381729 -0.50178337 1.7205641
-1.2007866 -0.45202243 1.7008169
-1.1500337 -0.49149722 1.7246391
-1.1257758 -0.49499643 1.7222897
-1.0031425 -0.49777701 1.7330475
-0.97048539 -0.4953925 1.719915
-0.9166466 -0.49241304 1.7149527
-0.87343127 -0.49706274 1.7258751
-0.81506902 -0.48297772 1.7231389
-0.77793199 -0.47953391 1.7213448
-0.57231462 -0.47171667 1.7280231
-0.52282822 -0.47032204 1.7228771
-0.47859329 -0.46879429 1.7230724
-0.42378503 -0.46614948 1.7208854
-0.38620254 -0.46649274 1.7200923
-0.31413248 -0.4658393 1.7161499
-0.2749435 -0.46388447 1.7170777
-0.2170139 -0.46937239 1.7173525
-0.17326863 -0.46921033 1.727138
-0.12066057 -0.46451795 1.7331182
-0.073803462 -0.4610312 1.7287529
-0.031568918 -0.45998055 1.7242998
0.023575271 -0.46703184 1.7218463
0.071826316 -0.46863845 1.7283766
0.12259102 -0.46673515 1.7176137
0.17248185 -0.46603593 1.7256339
0.23255046 -0.46387172 1.7300665
0.27586874 -0.45737767 1.731961
0.33080849 -0.45874941 1.7273086
0.36267507 -0.45876506 1.7282089
0.42247567 -0.45880142 1.7249504
0.46951213 -0.46294597 1.7269521
0.52338928 -0.45572346 1.7246251
0.56891531 -0.45363706 1.7203889
0.61949563 -0.45437455 1.7332726
0.67124063 -0.45758575 1.7202032
0.72482753 -0.46263543 1.7212114
0.78006071 -0.47808912 1.7147565
0.82148284 -0.48618272 1.7210684
0.87178081 -0.48825321 1.7298936
0.92957646 -0.48642957 1.7254226
0.97862792 -0.48889983 1.7287998
1.0268581 -0.48846492 1.7249368
1.09193 -0.48969835 1.722615
1.130155 -0.49122912 1.7337185
1.1709889 -0.48639581 1.7238882
1.2113475 -0.48412493 1.7299557
-1.2064764 -0.42346609 1.705151
0.29416522 -0.44852462 1.7201405
-1.2240999 -0.37996379 1.7129874
-1.2301457 -0.32835039 1.7172574
-1.2223043 -0.27712694 1.7035061
-1.2221966 -0.22923079 1.7089062
-1.2399061 -0.17326984 1.723875
-1.2377172 -0.13159418 1.7151852
-1.3055315 -0.070988566 1.7242625
-1.2742829 -0.097087473 1.7342666
-1.3128153 -0.031266473 1.7280551
-1.3194219 0.0251991 1.7218684
-1.3220241 0.080341958 1.7241234
-1.323571 0.12889458 1.7237047
-1.3254849 0.17349891 1.7232071
-1.3272237 0.22799462 1.7225187
-1.3348209 0.27783948 1.7226776
-1.3620263 0.3391245 1.710314
-1.3416172 0.33613887 1.723076
-1.4691387 0.37882745 1.7215741
-1.3747344 0.36147821 1.7254568
-1.4796165 0.42385396 1.7221357
-1.4849834 0.47218663 1.7210004
-1.5138679 0.53661555 1.7215139
-1.491336 0.51187456 1.7258106
-1.532904 0.57707465 1.7283778
-1.5384436 0.6192854 1.7195233
-1.557353 0.65385687 1.725996
-1.757035 0.74136525 1.7067877
-1.7399086 0.74131674 1.7219368
-1.7846599 0.77620745 1.7246867
-1.8050959 0.84363824 1.7206433
-1.7911593 0.81501549 1.7216347
-1.810944 0.87529558 1.7224052
-1.814032 0.92147195 1.7228699
-1.8201529 0.97247946 1.7276056
-1.8225048 1.0243642 1.7241467
-1.8200594 1.0739136 1.7264578
-1.8262925 1.1232864 1.7245784
-1.8292359 1.1757543 1.7260931
-1.8295618 1.2273003 1.7243469
-1.8274953 1.2747451 1.7212247
-1.8258421 1.3269227 1.7223507
-1.8252859 1.3769076 1.7201092
-1.8200469 1.4270055 1.7269039
-1.8209769 1.4789281 1.7273816
-1.8239384 1.5275174 1.7150708
-1.1051199 -0.50716937 1.7726477
-1.0801277 -0.50716478 1.7614998
-1.0350211 -0.50719017 1.7748104
-0.97097659 -0.50059348 1.7589823
-0.88728988 -0.50075138 1.7715373
-1.1258802 -0.49472249 1.7734809
-1.0004861 -0.49639973 1.7718064
-0.96843863 -0.49626288 1.7772355
-0.92485237 -0.49625206 1.7673848
-0.87701201 -0.49381706 1.7665352
-0.82847077 -0.48248124 1.7768055
-0.79122764 -0.4768455 1.7651755
-0.52524835 -0.46547318 1.7623034
-0.42744869 -0.4734208 1.7632655
-0.27276435 -0.465693 1.7737496
-0.23029511 -0.46919593 1.766129
-0.17517 -0.46550009 1.7734752
-0.12755124 -0.46364161 1.7705323
-0.080975093 -0.45879653 1.7638303
-0.013299164 -0.46173263 1.767107
0.020637017 -0.46707869 1.7736624
0.077815689 -0.46894416 1.7711111
0.12637044 -0.46944097 1.7739431
0.1786591 -0.4672423 1.7838198
0.21768267 -0.46458688 1.7746699
0.27017009 -0.45814109 1.7826638
0.3352311 -0.45551366 1.7784824
0.38015381 -0.45983994 1.7773871
0.42800471 -0.45585671 1.7715443
0.47890526 -0.46322057 1.777808
0.52122194 -0.45670393 1.7740307
0.55704939 -0.4526076 1.7659916
0.68934923 -0.45606136 1.7638603
0.72194064 -0.45880723 1.767658
0.77565825 -0.46952015 1.7697158
0.82805681 -0.48206833 1.7720032
0.8793804 -0.48191336 1.775353
0.92388964 -0.48023796 1.7754856
0.9640528 -0.48248109 1.7783098
1.0259309 -0.48649606 1.7821068
1.0787687 -0.48933616 1.7736647
1.1339248 -0.48816362 1.7794465
1.1776313 -0.48515081 1.769971
1.2188058 -0.48414403 1.7513816
1.2844598 -0.48791924 1.7868966
-1.2429019 -0.39497796 1.7543736
-1.3035496 -0.075272992 1.7711594
-1.298591 -0.089704126 1.7871621
-1.3125197 -0.027057966 1.7736908
-1.3179477 0.020406645 1.7762208
-1.3222997 0.073086642 1.7702862
-1.3212465 0.12214196 1.7724079
-1.3232353 0.17268345 1.7779715
-1.3271822 0.22036393 1.7736881
-1.3339289 0.27434346 1.7770807
-1.3304303 0.30222982 1.7623646
-1.4633942 0.39161813 1.7667669
-1.4388094 0.37713712 1.7678026
-1.3824564 0.38007277 1.7698404
-1.3496614 0.35363501 1.7506627
-1.4727423 0.42427972 1.780691
-1.4814421 0.47583595 1.7747821
-1.5109476 0.53733635 1.7776462
-1.4838793 0.5093329 1.7662151
-1.5248932 0.57457936 1.7723995
-1.5680447 0.6377905 1.7776176
-1.5351615 0.61219776 1.7731643
-1.579685 0.67105436 1.7592496
-1.7775472 0.78008258 1.7695163
-1.801272 0.84935021 1.7989398
-1.793646 0.82423931 1.7722386
-1.8081169 0.87323654 1.7723882
-1.8184004 0.92679495 1.7735183
-1.8191813 0.97274244 1.7767904
-1.8208356 1.0226809 1.7751688
-1.8192098 1.0770491 1.7772466
-1.8225461 1.128351 1.7736033
-1.8230203 1.1740104 1.7755334
-1.8272088 1.2267672 1.775898
-1.8224753 1.2725165 1.7742426
-1.8218492 1.3218868 1.7718502
-1.8238248 1.3753551 1.7716128
-1.820546 1.4256811 1.7748643
-1.8184626 1.4749916 1.7787867
-1.8238283 1.5234114 1.7715849
-1.1033534 -0.50781059 1.8236533
-1.0710478 -0.50826275 1.8134708
-1.042068 -0.50480932 1.8141084
-0.94446439 -0.50739181 1.8423947
-1.1273433 -0.49186826 1.8157505
-1.0236281 -0.49638155 1.8226103
-0.9763341 -0.49397215 1.8156621
-0.92277831 -0.49612471 1.8235328
-0.88276196 -0.49013886 1.8215163
-0.83436811 -0.48482037 1.827033
-0.26619259 -0.4682804 1.8246082
-0.21927767 -0.4684312 1.8206865
-0.17155799 -0.46787137 1.8246102
-0.13040705 -0.46486822 1.8113674
-0.0067045828 -0.46738806 1.8462009
0.024458069 -0.46756256 1.8239436
0.077719405 -0.47073939 1.8217211
0.12863557 -0.46885902 1.8235416
0.16881572 -0.46864104 1.8355557
0.22203036 -0.46634865 1.8331556
0.26560187 -0.45905042 1.8150604
0.34030744 -0.45459929 1.8239485
0.39275718 -0.45844901 1.8392209
0.42792374 -0.4566251 1.8197867
0.47504857 -0.45899975 1.8283542
0.52141446 -0.45812067 1.8270463
0.7247225 -0.45650095 1.8224115
0.7796737 -0.46477839 1.8215318
0.82285476 -0.46928325 1.8279591
0.87422031 -0.47576666 1.8278635
0.91944689 -0.47266769 1.8260943
0.97254354 -0.47752497 1.8191837
1.021969 -0.48244134 1.8297993
1.0762457 -0.48278227 1.8323425
1.1271752 -0.48449159 1.8256499
1.1787512 -0.47995624 1.8232929
1.2263615 -0.48125374 1.8186972
1.2772502 -0.49085689 1.8246975
-1.2848734 -0.42189419 1.8320786
-1.2957433 -0.38599908 1.8333946
-1.29798 -0.26075333 1.8333585
-1.285581 -0.22379895 1.8315427
-1.3108217 -0.16379315 1.8400332
-1.3122951 -0.1434423 1.8434446
-1.2945193 -0.10057142 1.8106258
-1.3073777 -0.068317071 1.8247889
-1.3120362 -0.025092183 1.8271672
-1.3153133 0.018424485 1.8286459
-1.3211553 0.07237681 1.8212589
-1.3218738 0.12513569 1.820474
-1.3257856 0.17481133 1.8295376
-1.3253747 0.22575082 1.8217314
