ply
format ascii 1.0
comment PCL generated
element vertex 1508
property float x
property float y
property float z
element camera 0
property float view_px
property float view_py
property float view_pz
property float x_axisx
property float x_axisy
property float x_axisz
property float y_axisx
property float y_axisy
property float y_axisz
property float z_axisx
property float z_axisy
property float z_axisz
property float focal
property float scalex
property float scaley
property float centerx
property float centery
property int viewportx
property int viewporty
property float k1
property float k2
end_header
-1.8509084 1.1950675 2.2408633
-1.84294 1.1653847 2.2218654
-1.8589394 1.221416 2.2406011
-1.8468002 1.2423164 2.2225635
-1.8556646 1.2805285 2.2225454
-1.8494918 1.2598956 2.2393374
-1.8530035 1.3251354 2.2197628
-1.8609149 1.3708556 2.2194464
-1.8645788 1.4293036 2.2232652
-1.8610338 1.4739982 2.2261631
-1.8646772 1.526897 2.2325656
-1.8616987 1.5807213 2.2303753
-2.1174054 2.3539486 2.2364752
0.013867477 -0.48641959 2.2842886
0.079466395 -0.48206863 2.2629576
0.12425379 -0.48574954 2.278913
0.17416839 -0.48743027 2.2695115
0.21631108 -0.47951078 2.285476
1.5886858 -0.47065261 2.2741857
1.6266574 -0.48072663 2.2762713
1.6862732 -0.48278156 2.2702684
1.7207245 -0.479233 2.2710364
1.7807366 -0.47211885 2.2813482
1.8298185 -0.47257805 2.2727809
1.8654952 -0.46821725 2.2773728
1.9228717 -0.46217364 2.2826123
1.9771614 -0.4585245 2.2675216
2.0281346 -0.453724 2.2665575
2.0811613 -0.45931143 2.273078
2.1218977 -0.4636085 2.2776618
2.1854417 -0.46965984 2.2785368
2.2206571 -0.46536011 2.2759814
2.2821953 -0.46338066 2.2718897
1.97247 -0.44096643 2.288959
2.0308528 -0.42406213 2.2921147
2.0753136 -0.42470434 2.2854109
2.1169021 -0.44998652 2.2879746
2.0351608 -0.3640115 2.2970231
2.0770888 -0.37872639 2.2916522
2.0393996 -0.33162332 2.2972572
2.0743413 -0.3242394 2.2938073
1.3541585 -0.26745576 2.2777221
2.078877 -0.27775794 2.2952404
2.1042011 -0.27926859 2.2969334
-1.2832336 -0.2021727 2.251138
2.040072 -0.21325079 2.2966762
2.0722687 -0.22729473 2.2925093
-1.2997732 -0.19093806 2.2548721
1.1102023 -0.18232071 2.2884719
1.3371614 -0.18161079 2.2810407
2.0494111 -0.15821108 2.2979355
2.075541 -0.17559348 2.2946928
-1.3268571 -0.12719183 2.2762175
2.0478215 -0.12356693 2.2978873
2.0759013 -0.1239674 2.2901449
-1.3346057 -0.078377657 2.2809596
2.0445573 -0.075115204 2.295908
2.0772598 -0.078442618 2.2914236
-1.3384695 -0.031571839 2.2777865
1.3254119 -0.036095824 2.291949
2.0426793 -0.033685166 2.29461
2.0755401 -0.024147348 2.289783
-1.3405763 0.019404119 2.2864017
1.3095211 0.018441046 2.2906294
1.416712 0.018787432 2.2894502
2.0332651 0.00074513181 2.2970695
2.0758998 0.021569977 2.2927139
-1.3433455 0.081425183 2.2716107
1.294425 0.072699547 2.2895541
2.0239048 0.062589929 2.2986069
2.0783339 0.077133425 2.294302
-1.3450631 0.1247763 2.2730277
1.3283381 0.12188584 2.2946873
2.0802686 0.12581676 2.2945602
-1.350754 0.19546495 2.2900314
-1.3458846 0.17303491 2.2683046
2.0949867 0.15417966 2.2962654
-1.3526834 0.22830839 2.2909861
-1.3463327 0.22988212 2.2627809
-1.3544084 0.27428061 2.2770469
-1.3588216 0.30432796 2.2685885
-1.6304958 0.4314509 2.2886226
-1.8179847 0.77934259 2.2760146
-1.8211296 0.82478923 2.2687509
-1.8257643 0.87949109 2.2769847
-1.8308871 0.92480433 2.2739968
-1.8393446 0.97397202 2.27052
-1.8380665 1.0210787 2.2755151
-1.8539886 1.0816525 2.284749
-1.8448486 1.0716754 2.2753589
-1.8507642 1.1275829 2.2812004
-1.8467121 1.1335204 2.2777381
-1.8512641 1.1671731 2.2541857
-1.8475804 1.1680043 2.271657
-1.8552166 1.2259029 2.2805278
-1.8522375 1.2775482 2.2753406
-1.8541991 1.3251039 2.2698569
-1.8615463 1.3772722 2.2723107
-1.8638462 1.4236032 2.2765779
-1.8648735 1.4723964 2.2857802
-1.8589524 1.5217929 2.2768927
-1.8627125 1.5759089 2.2787445
-1.8266946 1.5805839 2.2638495
-2.2180517 2.3461971 2.275821
-2.169642 2.3487086 2.2723897
-2.2068875 2.3527668 2.2940781
-2.1713955 2.3563268 2.2699902
-2.1257246 2.3555038 2.2727671
-2.0825431 2.3583443 2.2763963
-2.040997 2.3541031 2.2874875
0.31066301 -0.50146663 2.3414407
0.030792367 -0.49171978 2.3090684
0.075708941 -0.48695949 2.3131976
0.12647726 -0.48305765 2.3205431
0.17795804 -0.48560232 2.3305964
0.22882943 -0.48038208 2.3306677
0.28515974 -0.48538384 2.3225231
0.31683514 -0.49332753 2.3024352
1.6318061 -0.46200961 2.3259957
1.6781665 -0.46833915 2.3244359
1.7215669 -0.45916808 2.3264868
1.7721798 -0.45828804 2.3244636
1.8247272 -0.45639631 2.318409
1.8771334 -0.45931637 2.3067045
1.9317462 -0.45060772 2.3105636
2.1736574 -0.4646233 2.3075233
2.2261593 -0.46002471 2.333389
2.2610767 -0.45343459 2.3349018
2.3282158 -0.4593913 2.3340807
2.3562376 -0.46048251 2.3202512
2.4332228 -0.45293474 2.3273175
1.5806547 -0.42275262 2.3085053
1.6217152 -0.44328395 2.3404515
1.736328 -0.4393619 2.3468494
1.7759762 -0.42446941 2.3452435
1.8238331 -0.42414787 2.3353288
1.8768936 -0.42697325 2.3245451
1.9244373 -0.4244689 2.3154347
1.9646354 -0.42491379 2.3062439
2.0104711 -0.41448131 2.3051977
2.19701 -0.44938642 2.3496256
2.3276143 -0.44586626 2.349941
2.3611362 -0.44652858 2.3275542
2.4375005 -0.43995577 2.3481379
2.5249634 -0.44590449 2.3305545
2.8584199 -0.42728809 2.3485222
1.5218185 -0.35690603 2.3319147
1.7894446 -0.38886946 2.3473728
1.826122 -0.37446457 2.3425851
1.8771272 -0.37275055 2.3324714
1.9305979 -0.37517741 2.3201602
1.9765499 -0.3773956 2.3098502
2.019664 -0.37757602 2.3035574
2.0685966 -0.36198571 2.3003023
1.0982932 -0.30931249 2.3117621
1.4380726 -0.30681297 2.3441885
1.4743253 -0.33358636 2.3383896
1.820248 -0.32752231 2.3455665
1.8726853 -0.3244575 2.3327475
1.9272777 -0.32679912 2.3221309
1.9784 -0.31929407 2.3114398
2.0175996 -0.32472882 2.3028991
2.0684972 -0.33406758 2.3037128
2.1263344 -0.32470939 2.3163643
1.0945491 -0.29639468 2.3049841
1.115013 -0.26788786 2.3382831
1.3715845 -0.25857022 2.3080809
1.4210193 -0.27483559 2.3425035
1.8345425 -0.27181503 2.3467019
1.8728391 -0.27710304 2.3378718
1.9249034 -0.27869752 2.3243668
1.9793952 -0.27371562 2.3122377
2.0268066 -0.27288783 2.3049781
2.0578239 -0.27747244 2.3067265
2.1148882 -0.27370304 2.3092227
-1.2910008 -0.20824865 2.3313377
1.1173928 -0.21989889 2.3425972
1.3804567 -0.22923502 2.3253934
1.7972612 -0.22033131 2.349144
1.8263904 -0.21889666 2.3440313
1.8718716 -0.22350293 2.3348126
1.9251056 -0.22269267 2.3230479
1.9778328 -0.22725569 2.3121741
2.0249677 -0.22804901 2.3061368
2.0684714 -0.22863021 2.3012555
2.1139054 -0.2383555 2.3115232
-1.3206819 -0.16004235 2.337508
-1.2938595 -0.19547962 2.3236527
1.1221955 -0.17347196 2.3283086
1.3774678 -0.17582496 2.3289785
1.8361175 -0.17423788 2.3435843
1.8805032 -0.17339888 2.3329422
1.9232439 -0.17792414 2.3230634
1.9760629 -0.17228121 2.3139927
2.023078 -0.17158568 2.3061709
2.8999734 -0.18031685 2.3480384
-1.3127242 -0.12849092 2.3261282
1.1179184 -0.13165286 2.3358054
1.3484786 -0.14034508 2.3025398
1.3710632 -0.12353527 2.3284481
1.7935922 -0.1464081 2.3488958
1.8379927 -0.12710086 2.3428776
1.8815855 -0.12774877 2.3334084
1.9247634 -0.12834547 2.3220346
1.9720186 -0.12515596 2.3166528
2.0225379 -0.12330648 2.3081083
-1.3186458 -0.080779351 2.3297336
1.1041883 -0.095544055 2.3373828
1.3461303 -0.097367197 2.3001387
1.3687942 -0.098110229 2.3124564
1.41926 -0.074442677 2.3273478
1.4538085 -0.062718876 2.3489094
1.7915655 -0.066177815 2.3490679
1.8274056 -0.073193401 2.3439276
1.8807698 -0.073670037 2.3342345
1.9241343 -0.074002497 2.323173
1.9733896 -0.074559584 2.3174136
2.0221186 -0.075072236 2.3093171
2.0725505 -0.054768082 2.3017173
-1.3253155 -0.030452466 2.3315909
1.4354358 -0.043289654 2.3195198
1.4642173 -0.024842978 2.3399446
1.8336903 -0.028195128 2.3454051
1.8792338 -0.026390202 2.3331342
1.9237469 -0.026501745 2.3235137
1.9735985 -0.026668532 2.3185039
2.0236173 -0.024826886 2.3063085
2.0722895 -0.040876966 2.3016536
-1.3307446 0.025615171 2.3300867
1.3345939 0.035056077 2.3165696
1.4233694 0.037393648 2.3000271
1.463583 0.019247917 2.3389406
1.7908252 0.040563218 2.3484483
1.8258797 0.02067115 2.3427169
1.8778168 0.020239564 2.3336747
1.9228982 0.021775713 2.3267162
1.9706556 0.021182224 2.3150146
2.0269742 0.02553237 2.3052008
-1.3500266 0.098717913 2.3197837
-1.3354378 0.077098414 2.3319592
1.3336251 0.082673572 2.3263087
1.4416646 0.069127619 2.32899
1.4677849 0.06981533 2.3448839
1.7923503 0.067299731 2.3499255
1.8280479 0.074364789 2.3445542
1.8806392 0.074888386 2.333878
1.9267602 0.075401098 2.3261046
1.9736348 0.075942986 2.3174925
2.029073 0.079292282 2.3038611
-1.3357424 0.12850945 2.3311968
1.2964835 0.11621794 2.3184938
1.3276047 0.12352529 2.3331439
1.4418815 0.11919944 2.3277683
1.8301247 0.1214656 2.3455942
1.8778504 0.12029801 2.336189
1.9205753 0.12462 2.3264737
1.974071 0.12385101 2.316215
2.0230539 0.12480649 2.3083129
2.0518129 0.12533289 2.301966
-1.3505996 0.19721717 2.3160129
-1.3353412 0.17813092 2.3334305
1.9317952 0.1510905 2.3421035
1.9763269 0.15192118 2.3304625
2.0313067 0.15299997 2.3163209
2.0662322 0.15357077 2.3036065
-1.3530501 0.23457938 2.3175986
-1.3402698 0.2256759 2.3362586
-1.3520385 0.27507192 2.3192105
-1.3438005 0.27920029 2.3336329
-1.4278111 0.35338587 2.339478
-1.6506749 0.4271149 2.3446989
-1.6475765 0.44596964 2.3373804
-1.656273 0.477485 2.3185711
-1.6420857 0.46408179 2.3265276
-1.8058329 0.74886394 2.3094301
-1.8215202 0.78244269 2.3332686
-1.8287896 0.83041739 2.3323948
-1.8281096 0.87161899 2.3187048
-1.8300276 0.93144423 2.3259611
-1.8389814 0.97805035 2.3246541
-1.8414208 1.0189142 2.325201
-1.8505526 1.0906529 2.3168421
-1.8425 1.0739311 2.3300042
-1.8525555 1.1131005 2.3106008
-1.8424616 1.1297516 2.3194921
-1.8519664 1.1731845 2.3471551
-1.8462479 1.1842339 2.3096757
-1.8537493 1.2439947 2.3344812
-1.8471286 1.217935 2.3359952
-1.8557215 1.2742606 2.3232846
-1.848514 1.2989006 2.3497307
-1.8508284 1.3245604 2.3241816
-1.8483665 1.3227956 2.3211389
-1.858916 1.379636 2.3262951
-1.8466276 1.3666646 2.3469877
-1.8576665 1.4228302 2.3243978
-1.8479049 1.4378591 2.3466461
-1.8594706 1.4815365 2.3210552
-1.8457711 1.4510081 2.3359361
-1.8583214 1.5283973 2.3283341
-1.8581449 1.5809326 2.3283408
-1.8350375 1.5696418 2.3403282
-2.3576262 2.3465424 2.3470409
-2.3148766 2.3482823 2.3371444
-2.2898805 2.3495417 2.3143969
-2.2000785 2.3465884 2.3298948
-2.1837974 2.3478572 2.3431699
-2.0003388 2.3492272 2.3466051
-1.9503843 2.3474538 2.3368757
-2.268069 2.3571579 2.3282583
-2.2358558 2.356678 2.3217912
-2.1763632 2.3573458 2.3223181
-2.127789 2.3552279 2.3213034
-2.074147 2.3564453 2.3289645
-2.0291214 2.3614507 2.3265975
-1.9830517 2.3560257 2.3286703
2.1860843 2.4501235 2.3404052
2.2110214 2.4581707 2.3362725
0.04849676 -0.50151861 2.3548973
-1.2121193 -0.46090883 2.3820629
0.043340318 -0.49650043 2.3872161
0.077331476 -0.48638731 2.3663044
0.13554883 -0.48440373 2.3837967
0.16783936 -0.48309216 2.375952
0.23248617 -0.4820241 2.36712
0.27262741 -0.48168239 2.3744018
0.32360658 -0.49078053 2.3783457
1.6836238 -0.45110539 2.3634095
2.2248619 -0.45207441 2.351918
-1.2224638 -0.42522565 2.3691075
-1.1978958 -0.42691487 2.3727019
1.6319164 -0.4185192 2.3697364
1.6738628 -0.42674488 2.3687716
1.7222447 -0.42459533 2.3590477
1.7561722 -0.407543 2.3523936
2.1846406 -0.42077711 2.3681455
2.2148385 -0.42520148 2.3869648
2.2788346 -0.42432967 2.3771791
2.3214056 -0.42073375 2.3635418
2.3776548 -0.42095742 2.3626642
2.4293303 -0.42187864 2.3601079
2.4785178 -0.42917219 2.3612719
2.5211022 -0.42159942 2.3619683
2.5752215 -0.41744107 2.3605225
2.62326 -0.42594066 2.3669806
2.6739497 -0.42223251 2.3692563
2.7259967 -0.41552982 2.3748965
2.7767487 -0.41434783 2.3714776
2.8231735 -0.41754866 2.3655725
2.8874922 -0.41375679 2.3596506
2.9360144 -0.40029782 2.3559113
2.9693294 -0.42177746 2.3803151
-1.2573795 -0.36162141 2.3811073
-1.2195835 -0.37752274 2.3717937
-1.1989225 -0.39629394 2.3786416
1.5839672 -0.36745983 2.3634434
1.6333518 -0.37570348 2.3800895
1.6747855 -0.37756786 2.3739789
1.7226682 -0.37931618 2.3624218
1.7712816 -0.37312558 2.3544161
2.1891708 -0.37795675 2.3792672
2.2875712 -0.37100706 2.3894947
2.3255243 -0.37226343 2.3728068
2.3765676 -0.37557581 2.3681457
2.4342237 -0.3752825 2.3668063
2.4831038 -0.37102768 2.3683705
2.52315 -0.37082461 2.3691769
2.5692766 -0.37864795 2.3753066
2.6261628 -0.37891194 2.3764806
2.6735299 -0.38224044 2.374614
2.7258568 -0.37007031 2.3780458
2.771992 -0.37295732 2.373024
2.8249691 -0.37671462 2.3727202
2.8698626 -0.37934545 2.3647869
2.9237874 -0.37992218 2.3668303
2.9541726 -0.35221896 2.3768661
-1.2598703 -0.32488832 2.3897297
-1.220542 -0.32728598 2.3707495
1.0963943 -0.33025885 2.3861732
1.1084144 -0.32433075 2.3740821
1.4799141 -0.31587309 2.3546138
1.5221363 -0.32471046 2.3570168
1.5720506 -0.32655567 2.3624988
1.6303418 -0.32233065 2.3816824
1.6723264 -0.32405558 2.376611
1.7200236 -0.32553777 2.3650558
1.7716361 -0.32765207 2.3569796
2.2903833 -0.32571 2.3840864
2.3183839 -0.3264825 2.3711765
2.371506 -0.32969633 2.3688695
2.4283381 -0.32095864 2.3746703
2.4703012 -0.32489163 2.3747787
2.5209727 -0.32407627 2.3729973
2.5771174 -0.32380247 2.3748875
2.6296346 -0.32885602 2.3810771
2.6661215 -0.32539606 2.3750653
2.713393 -0.31658131 2.381022
2.7648931 -0.32732293 2.3845332
2.8183014 -0.3266041 2.3731353
2.8602512 -0.32854655 2.3628953
2.9229636 -0.32963505 2.3721614
-1.2584109 -0.28076521 2.3909509
-1.2217492 -0.27812389 2.37765
1.1190537 -0.27771375 2.3889782
1.4423299 -0.2570807 2.355685
1.4762647 -0.27057177 2.3529637
1.5264869 -0.27618441 2.3575048
1.5778511 -0.28073364 2.364387
1.6266533 -0.27558279 2.380759
1.6696181 -0.2706162 2.3778965
1.7198123 -0.27039453 2.3661749
1.7696129 -0.2753967 2.3572075
1.8122476 -0.27817041 2.3527579
2.2897186 -0.27478173 2.383239
2.3187342 -0.27125531 2.3665524
2.372227 -0.27934697 2.3704336
2.4274764 -0.27241915 2.3742633
2.4830525 -0.27516249 2.3708749
2.5339696 -0.27817145 2.3758509
2.5743632 -0.28017378 2.3726215
2.6321588 -0.27218539 2.3870182
2.6744313 -0.27404916 2.380583
2.7162755 -0.26882273 2.3780372
2.7722838 -0.27083102 2.377213
2.8224428 -0.28090626 2.378458
2.8742046 -0.28034309 2.3796265
2.9202425 -0.28236166 2.3717477
-1.2505305 -0.24798499 2.378485
-1.2268271 -0.23910856 2.3810074
1.1169245 -0.22937195 2.3819835
1.4302584 -0.22067177 2.3562024
1.4805269 -0.22250031 2.3582656
1.5272316 -0.22362556 2.3615725
1.5714196 -0.22678782 2.3654211
1.6259075 -0.22697541 2.3791609
1.6735778 -0.22427644 2.3785644
1.7227864 -0.22845875 2.3690939
1.7760391 -0.22194825 2.3584499
2.2887504 -0.22162785 2.3925266
2.3219852 -0.22191745 2.3711843
2.3852189 -0.22504441 2.3791111
2.4237945 -0.22651517 2.3747766
2.4826813 -0.22909415 2.3747213
2.5273061 -0.22678377 2.3669329
2.5749135 -0.2263855 2.372997
2.6300106 -0.22014989 2.3822582
2.6741228 -0.22181696 2.3774216
2.7283976 -0.22426899 2.3806288
2.7736824 -0.22590415 2.3747742
2.8299439 -0.22843754 2.377341
2.8738797 -0.2261195 2.3764076
2.9197826 -0.2353967 2.3724277
-1.3432995 -0.16177079 2.3593855
1.1198044 -0.17459737 2.367415
1.3948276 -0.15012366 2.3544981
1.4291525 -0.17001857 2.3574708
1.4783316 -0.17131035 2.3579352
1.5289341 -0.17341247 2.3609865
1.5716819 -0.17338294 2.3629434
1.6272727 -0.17588846 2.3780744
1.680137 -0.17848617 2.3774872
1.729804 -0.1787778 2.3647633
1.7786324 -0.17578521 2.3558221
1.8160427 -0.17398822 2.3509161
2.2884629 -0.17680869 2.3884163
2.3243277 -0.17738253 2.3732862
2.3727691 -0.17889853 2.3699529
2.4216645 -0.17639342 2.3742297
2.474086 -0.17477773 2.3703594
2.5244169 -0.17663874 2.3750854
2.5730472 -0.17055291 2.3773415
2.6300459 -0.16847697 2.3784366
2.6731188 -0.17700334 2.3767238
2.7274199 -0.17583834 2.383168
2.775605 -0.1773089 2.3798354
2.8295307 -0.17912312 2.3804464
2.8721724 -0.18019684 2.3705277
2.9228725 -0.18182459 2.3665261
1.1164579 -0.12934202 2.3722482
1.39358 -0.11241252 2.35392
1.4276932 -0.11942241 2.3573124
1.4777783 -0.12040441 2.3594048
1.5284486 -0.12138092 2.3602865
1.5775884 -0.12179058 2.3655581
1.628058 -0.12453467 2.3769417
1.6804851 -0.12500153 2.3766062
1.7277926 -0.12551601 2.3646638
1.7775245 -0.1244346 2.3566668
1.8150105 -0.12692931 2.3519483
2.291307 -0.14712447 2.386167
2.3284614 -0.1475569 2.3688383
2.3770521 -0.14917667 2.3760207
2.4032609 -0.14985062 2.3739035
2.4898632 -0.1369587 2.373358
2.5191884 -0.13769561 2.3723843
2.5646055 -0.13929608 2.3858995
2.6197298 -0.14051618 2.3779068
2.6905098 -0.14253442 2.3823442
2.7307682 -0.14333618 2.3729255
2.7858455 -0.14489292 2.3754547
2.8172183 -0.1456361 2.3719366
2.8685474 -0.1469487 2.3694015
2.9431143 -0.14941604 2.384815
-1.3086065 -0.061590198 2.3555303
0.64429194 -0.075710468 2.3870094
0.65908456 -0.058491372 2.396616
1.112849 -0.091264278 2.3857493
1.4422314 -0.088016622 2.3558588
1.4790488 -0.072018042 2.3576045
1.5283785 -0.070095174 2.3617322
1.5724999 -0.070619807 2.3638225
1.6261309 -0.071545303 2.3781312
1.6796283 -0.072126001 2.3770492
1.7275925 -0.072450906 2.366092
1.7752373 -0.073403507 2.3552992
-1.3074571 -0.030635588 2.3538489
0.64209968 -0.028953403 2.3795371
1.4916553 -0.025075609 2.3574049
1.5280423 -0.025229862 2.3618593
1.5705627 -0.025394328 2.3615916
1.6278731 -0.0257657 2.3813913
1.6782098 -0.025906764 2.3757753
1.7254264 -0.025990611 2.363857
1.7776144 -0.02614012 2.3568664
1.8116598 -0.019533668 2.3502114
-1.3114203 0.029185118 2.3563645
0.64091587 0.023286771 2.3751419
1.4860835 0.01944421 2.3572626
1.5284032 0.019605717 2.3624005
1.5719105 0.019790146 2.3635983
1.6269679 0.020076269 2.3800261
1.6792269 0.020265847 2.3771861
1.7256233 0.020366924 2.3641205
1.7744598 0.018695075 2.3550215
-1.3151225 0.085004777 2.3574522
1.4863468 0.070291251 2.3569045
1.5307063 0.070992813 2.3651726
1.5752288 0.071580596 2.3677654
1.6277924 0.072486825 2.3804154
1.6779275 0.072984733 2.3744805
1.727264 0.073426962 2.3654721
1.7753114 0.07447727 2.3552015
-1.314082 0.13424559 2.3574905
1.4839518 0.11846328 2.3578646
1.5271438 0.12231132 2.3645556
1.5714463 0.12534036 2.3646371
1.6290711 0.12500452 2.3805521
1.6791029 0.1258311 2.3743608
1.7288495 0.12489264 2.3682363
1.7769099 0.1256745 2.3602386
1.8245728 0.14950591 2.3759384
-1.3113914 0.18010503 2.3558495
1.8842616 0.15107024 2.3742886
1.9186516 0.15165481 2.3650501
2.1216865 0.17139015 2.3512409
-1.3203558 0.23302951 2.3567576
-1.3276408 0.27768993 2.3573694
-1.4170531 0.3458226 2.3901961
-1.3784277 0.32370371 2.380863
-1.3228348 0.30052954 2.3674309
-1.6108661 0.39738768 2.3965015
-1.5659001 0.38781253 2.3961344
-1.5252216 0.38823181 2.3928964
-1.4703529 0.37767407 2.3869119
-1.4242712 0.36848047 2.3953445
-1.6596416 0.43625441 2.3921883
-1.629199 0.42466298 2.3889904
-1.5968181 0.43685588 2.3967526
-1.5088884 0.40451539 2.3987408
-1.4925644 0.40361878 2.399684
-1.6705284 0.47591171 2.3931651
-1.6900237 0.52236629 2.3937516
-1.7031902 0.58296615 2.3950408
-1.6996404 0.55469698 2.3952398
-1.7504083 0.63087153 2.3986018
-1.7265193 0.61353487 2.3953853
-1.817912 0.75958228 2.3514643
-1.8188223 0.81639814 2.3581836
-1.828488 0.8677941 2.3639109
-1.8335561 0.92281955 2.3684218
-1.832563 0.98117507 2.3741429
-1.8382772 1.0248488 2.3699954
-1.8406639 1.07306 2.37081
-1.8382365 1.1260041 2.3616633
-1.8355699 1.1764933 2.3682799
-1.754164 1.163146 2.3565092
-1.8436053 1.2166747 2.3715873
-1.8519783 1.27209 2.3679132
-1.8419319 1.2767699 2.3718805
-1.8415577 1.3252462 2.3677363
-1.8527529 1.3970371 2.3761895
-1.8442149 1.3623489 2.3680763
-1.8512337 1.4181712 2.3626733
-1.846898 1.4337248 2.382386
-1.7843299 1.4195292 2.3882089
-1.85353 1.4838564 2.3668177
-1.8438355 1.4746211 2.3731842
-1.8561112 1.5145615 2.3723443
-1.8422827 1.5411062 2.3636363
-1.8376839 1.5633042 2.3673491
-1.7947646 1.631977 2.3999188
-2.4645774 2.3435154 2.3979545
-2.4149489 2.3490682 2.3985381
-2.3697038 2.3405387 2.3716762
-2.33097 2.3466768 2.3660917
-2.2362738 2.3495507 2.3942711
-2.1761711 2.3467729 2.3746221
-2.0805686 2.3475118 2.3715727
-1.9488695 2.3490553 2.380224
-2.4356792 2.3515606 2.3880591
-2.3115065 2.3541272 2.3925557
-2.2780292 2.3560226 2.3759861
-2.232688 2.3542216 2.3618946
-2.1514907 2.3507421 2.3700638
-2.1192198 2.3524745 2.3672087
-2.0589595 2.3513153 2.3717446
-2.0319512 2.3588464 2.3812437
-1.9787254 2.3540421 2.3683872
-1.9258928 2.3590291 2.3705795
-1.8973707 2.3660128 2.3996835
2.1709032 2.4635904 2.3816595
2.2201972 2.4603219 2.3746667
2.2658956 2.4622815 2.3748615
2.3323812 2.4763811 2.3874619
-1.2041268 -0.45247355 2.4120719
0.043883599 -0.49099344 2.4185224
0.071505822 -0.48744011 2.4303739
0.12026367 -0.48669794 2.4253764
0.17889476 -0.48087108 2.4239092
0.21557216 -0.48402801 2.4379253
0.27985156 -0.47958305 2.4110715
0.30925578 -0.48287633 2.4254527
-1.1988938 -0.43173313 2.4040699
2.2678177 -0.41751051 2.4182529
-1.218385 -0.35861683 2.4222412
1.1219692 -0.36432245 2.4497502
2.2639406 -0.37205997 2.4203434
-1.2269367 -0.34215218 2.4412124
1.133954 -0.31387889 2.449281
2.2691219 -0.32696235 2.4173889
1.1232026 -0.27795148 2.4226503
2.2496753 -0.25196841 2.4320111
2.2677546 -0.27652967 2.4186921
-1.2795246 -0.23465544 2.4350009
-1.2352393 -0.23240235 2.4224372
1.1211423 -0.22958441 2.4278998
2.2657845 -0.22232729 2.4238477
-1.3304007 -0.16482449 2.4193442
1.1167001 -0.1775559 2.4151282
2.2432456 -0.17711914 2.4305351
2.2684817 -0.17731106 2.4159298
-1.3416145 -0.10217594 2.4422605
0.64955533 -0.10571317 2.4058108
0.65068489 -0.12944824 2.4092286
1.1177979 -0.12981151 2.4257729
2.2425411 -0.14739458 2.4314523
2.2703829 -0.1477305 2.4196649
-1.3399174 -0.082873747 2.4396803
1.12464 -0.093248039 2.4418259
-1.3447037 -0.038224481 2.449178
0.66340494 -0.041156784 2.4125547
0.66401672 0.011939067 2.4149511
2.4792223 0.18791549 2.4463601
-1.3452712 0.23147289 2.4421766
2.4790452 0.21904711 2.443845
-1.3376257 0.27480328 2.4248128
2.4781919 0.27345079 2.4380946
-1.4071077 0.34651786 2.4007165
-1.3676853 0.33983529 2.4162073
-1.5970142 0.39722466 2.4024508
-1.4685482 0.38940233 2.4030836
-1.4165316 0.38669631 2.4053428
-1.3732153 0.37714544 2.4105539
2.4660501 0.38289517 2.442327
-1.6106609 0.42053762 2.4021094
-1.5742105 0.4245193 2.4042299
-1.5266131 0.42878446 2.4057491
-1.4719048 0.4250901 2.4077866
-1.4237561 0.42001903 2.4098299
-1.3745922 0.42739183 2.4239507
2.4712691 0.40714124 2.4441612
-1.6583978 0.48295376 2.4013479
-1.6254443 0.47444811 2.4075813
-1.5740379 0.47245905 2.40821
-1.5200014 0.4762091 2.4093742
-1.4732722 0.47735128 2.4127719
-1.4262158 0.47471857 2.4172804
-1.3755683 0.47291714 2.4279923
2.4835038 0.4562512 2.4489284
-1.6687913 0.5302211 2.4043491
-1.6251123 0.52678859 2.4095328
-1.5769886 0.52612644 2.4136314
-1.5289485 0.52219617 2.4138501
-1.4777944 0.52692318 2.418139
-1.4243191 0.52837831 2.4197946
-1.3765829 0.52429515 2.4281271
2.4619169 0.50211906 2.4487841
-1.6760248 0.57616466 2.4113555
-1.6268842 0.57667255 2.4171772
-1.5707768 0.57408553 2.4161971
-1.5214412 0.57855767 2.4171731
-1.4729902 0.57149953 2.4206202
-1.4213626 0.57547534 2.4208534
-1.3757082 0.57277369 2.4266257
-1.7604785 0.64828587 2.4094148
-1.7264618 0.63587594 2.4138577
-1.681864 0.6246525 2.4140432
-1.6286905 0.62470007 2.4189959
-1.5772427 0.62199086 2.4198859
-1.5299295 0.62709469 2.4244854
-1.4754245 0.62628752 2.4214265
-1.4279929 0.62414366 2.4234374
-1.3825163 0.62139481 2.4301095
2.4550188 0.62963581 2.4457431
-1.767095 0.67841548 2.4122303
-1.7316188 0.67532325 2.417484
-1.6762502 0.672966 2.4226665
-1.6254135 0.67375153 2.4236069
-1.575117 0.67534399 2.4231019
-1.5249982 0.67452639 2.4207039
-1.4757988 0.67432088 2.4240143
-1.4195422 0.67507285 2.4248378
-1.3792934 0.67986673 2.4362571
2.4612601 0.68639076 2.43887
-1.7661499 0.72235131 2.4146464
-1.7238992 0.72610217 2.422616
-1.6766758 0.7239365 2.4258785
-1.6242223 0.72410369 2.4271963
-1.5784569 0.72254872 2.4287169
-1.5267328 0.72526789 2.4267907
-1.4733852 0.72429413 2.4260714
-1.427745 0.72588384 2.4279466
-1.3803353 0.72518378 2.4343042
2.4473178 0.72630376 2.4445062
2.4576819 0.72708607 2.4400115
-1.7683494 0.77505594 2.4156854
-1.7271594 0.7749235 2.4248996
-1.6757563 0.7704187 2.4281738
-1.6266904 0.7757898 2.4303594
-1.5696131 0.77346063 2.4283507
-1.5236136 0.77883482 2.4321549
-1.4779377 0.77382284 2.4294467
-1.4236931 0.77699417 2.4264491
-1.3832242 0.77177304 2.4349203
-1.7700949 0.82788032 2.4217527
-1.7264522 0.82374293 2.4302683
-1.6715491 0.8242408 2.4330297
-1.622671 0.82736307 2.4341063
-1.5774792 0.8213284 2.4357069
-1.5266879 0.8264671 2.431072
-1.4722836 0.82434767 2.4293053
-1.4247768 0.82796854 2.4307327
-1.3810748 0.82644314 2.4380352
-1.8002744 0.89549732 2.4323757
-1.7694505 0.87309402 2.4224875
-1.7238842 0.87483561 2.4324911
-1.6794624 0.87251586 2.4357464
-1.6260855 0.87058604 2.4361467
-1.57403 0.87492275 2.4354234
-1.5197082 0.87500024 2.4320915
-1.4783473 0.87572753 2.4336028
-1.4255376 0.87577218 2.4315431
-1.3825847 0.87227762 2.435359
-1.7676561 0.92364424 2.4256554
-1.7302328 0.9262588 2.435894
-1.6757531 0.92498326 2.4367046
-1.6244525 0.92388821 2.4404294
-1.5729707 0.92302293 2.4378633
-1.5285642 0.92384231 2.43729
-1.4733112 0.92175919 2.4317501
-1.426394 0.92761928 2.4338756
-1.3832197 0.92486376 2.4345953
-1.7765 0.97742158 2.4276979
-1.7209004 0.97596836 2.4356878
-1.6705302 0.97555006 2.4428921
-1.6242921 0.97487384 2.4407046
-1.5739641 0.97279567 2.4426689
-1.5219965 0.9762764 2.4405649
-1.4701059 0.97696435 2.434094
-1.4220263 0.97482562 2.435591
-1.3822113 0.97816789 2.4406872
-1.7696162 1.0310723 2.4283588
-1.7253914 1.0214164 2.4364054
-1.6787109 1.0222631 2.4412317
-1.6207395 1.0227703 2.4411023
-1.571702 1.0295682 2.4449048
-1.5189298 1.0182476 2.4404695
-1.4775584 1.0290043 2.4374063
-1.4225842 1.0227811 2.4352434
-1.3849806 1.029958 2.4377382
-1.7779993 1.0783336 2.4283574
-1.7241614 1.0716176 2.4390094
-1.6756098 1.0828032 2.4458501
-1.6226652 1.0724525 2.4429681
-1.5789642 1.0749347 2.4456372
-1.5233065 1.0762572 2.4413705
-1.4730903 1.0774009 2.4408991
-1.4240046 1.0753047 2.4388685
-1.3916137 1.0749497 2.444191
-1.7725046 1.127088 2.432873
-1.720359 1.1255118 2.4405887
-1.6765534 1.1262197 2.4445107
-1.6263783 1.1256485 2.4460306
-1.5794017 1.1272831 2.4467676
-1.534624 1.1262462 2.4442885
-1.4732428 1.1173161 2.4420342
-1.4320865 1.1241841 2.4443564
-1.7771258 1.1766795 2.4314032
-1.7257011 1.1740661 2.4426503
-1.6716547 1.1721439 2.4462428
-1.6236019 1.1783917 2.440479
-1.5779127 1.1739352 2.443538
-1.5311006 1.1783992 2.4469161
-1.4688168 1.1667433 2.4439785
-1.4315745 1.1825747 2.4425845
-1.7799151 1.2288496 2.436152
-1.7249608 1.2214919 2.4425933
-1.673332 1.2285656 2.4451671
-1.6258147 1.2232646 2.4443586
-1.5739615 1.2228872 2.4460018
-1.5237679 1.2313266 2.445725
-1.4808016 1.2217419 2.4476516
-1.4266133 1.2217579 2.4461105
-1.3961766 1.2131531 2.4451971
-1.7706808 1.2766099 2.4333954
-1.7193867 1.2753015 2.4435482
-1.6758279 1.2742641 2.4453771
-1.6187363 1.2719094 2.4449174
-1.5754572 1.279186 2.4480622
-1.5238327 1.2846481 2.4425633
-1.4720523 1.2754986 2.4428766
-1.4264399 1.2763585 2.446769
-1.3948938 1.2871325 2.4478824
-1.7810783 1.328398 2.4274116
-1.7308311 1.3241748 2.4415483
-1.6758393 1.3301423 2.4448225
-1.6315708 1.3195394 2.4484622
-1.5817789 1.3200336 2.4449615
-1.5184928 1.3203887 2.4436088
-1.4722309 1.3274328 2.4474194
-1.4258027 1.3312382 2.4458246
-1.7756119 1.3772542 2.434423
-1.7249935 1.3753222 2.4421265
-1.6713119 1.3892771 2.4485743
-1.6332529 1.3751742 2.4464955
-1.5713457 1.381725 2.4481702
-1.5225724 1.380742 2.4470847
-1.4832805 1.3709766 2.4444034
-1.4324582 1.3798916 2.4456565
-1.7789503 1.4191151 2.4302778
-1.7223337 1.4279443 2.4414947
-1.680795 1.4198154 2.4441471
-1.6225448 1.4268039 2.4461975
-1.5798473 1.4312658 2.4459531
-1.5231274 1.4239551 2.4460089
-1.4781317 1.417894 2.4422243
-1.4259709 1.4302512 2.445457
-1.7792106 1.4692633 2.4249508
-1.7254792 1.476415 2.4374354
-1.6740819 1.4747139 2.4429767
-1.630652 1.4658296 2.4424427
-1.5739219 1.4759983 2.4410095
-1.5229311 1.4764438 2.4445076
-1.4770937 1.4699106 2.442225
-1.4280773 1.4706964 2.4479244
-1.7760434 1.5243763 2.4264846
-1.7224504 1.5294867 2.4360719
-1.6800269 1.5230113 2.4399297
-1.6258302 1.5265352 2.4450092
-1.5704664 1.5284041 2.4399047
-1.5318598 1.5187855 2.4414079
-1.4808332 1.5289274 2.4432237
-1.4274731 1.5234097 2.4459031
-1.7742877 1.5762789 2.4226246
-1.7281427 1.5695077 2.4311862
-1.6727136 1.5724702 2.4349794
-1.6223991 1.576736 2.4380338
-1.5826733 1.5694654 2.443032
-1.5287064 1.5774256 2.4422402
-1.4764504 1.5810499 2.4452591
-1.4274282 1.571501 2.444355
-1.7756666 1.6237084 2.4183679
-1.7247273 1.6232761 2.4308178
-1.6695054 1.626791 2.437402
-1.626411 1.6310982 2.4401217
-1.5774239 1.6268425 2.4443161
-1.5245978 1.6305536 2.4436624
-1.4848831 1.6191177 2.4430649
-1.4361995 1.6163861 2.4427004
-1.7798986 1.677304 2.4174948
-1.7221378 1.6785822 2.4274359
-1.6812081 1.673358 2.4347992
-1.6222309 1.6721706 2.4322977
-1.5724186 1.6796762 2.4382713
-1.5275928 1.6751283 2.4421017
-1.4779835 1.6755787 2.444572
-1.4324926 1.6887506 2.4485724
-1.7637271 1.7147763 2.4177971
-1.7242597 1.7291708 2.4330971
-1.671526 1.7160305 2.4307959
-1.6224844 1.724364 2.4288795
-1.5788606 1.721971 2.4337585
-1.5274993 1.7275995 2.4395871
-1.4856352 1.7300228 2.4468613
-1.4432683 1.7387834 2.4445446
-1.6092604 1.7510254 2.4337666
-1.4627216 1.75169 2.4398899
-2.5718808 2.3362877 2.4451187
-2.5331669 2.3450189 2.4427009
-2.4651654 2.34338 2.4276617
-2.4233716 2.3477852 2.435312
-2.3774564 2.3433287 2.4265766
-2.3180034 2.3391092 2.4236872
-2.2887714 2.3495831 2.4448392
-1.9105633 2.3478961 2.44384
-1.7971741 2.3469014 2.4338813
-2.5135427 2.3539567 2.4268713
-2.2752903 2.3537247 2.4173806
-2.2242575 2.3559272 2.4278641
-2.1780636 2.3578696 2.4272304
-2.1219361 2.357692 2.4228392
-2.0639009 2.3549943 2.4261963
-2.0204592 2.3626983 2.4259515
-1.9702895 2.3531549 2.423418
-1.9250805 2.3575122 2.4189801
-1.8716569 2.3573513 2.4228957
-1.830045 2.3564374 2.4278157
-1.7832322 2.3509018 2.4485302
2.0477328 2.4540639 2.4378579
2.0876532 2.4698091 2.4359388
2.1303673 2.468998 2.4273164
2.1778247 2.4641178 2.430027
2.2415018 2.4630249 2.4207394
2.2737632 2.4629908 2.4271755
2.3221793 2.4666185 2.4215355
2.3890946 2.4609528 2.4313939
-0.69310176 -0.5006488 2.4640024
0.54102927 -0.50114393 2.4920793
0.027021803 -0.49512556 2.4796159
0.062412828 -0.48695576 2.4584491
0.11075173 -0.48457205 2.4765697
0.15871339 -0.49088952 2.475503
0.24097075 -0.4877196 2.4550817
0.25379431 -0.48950544 2.4632816
0.33304143 -0.49190027 2.4692163
0.35588086 -0.48905766 2.4736979
0.54152316 -0.47713104 2.4975567
0.55364251 -0.47702828 2.4952281
1.0961618 -0.35782623 2.4569702
1.1406575 -0.30649766 2.4966664
-1.3569812 -0.10434841 2.4992654
-1.3571776 -0.091282323 2.4999895
-1.3510822 -0.012608916 2.4609697
-1.3536018 0.026134916 2.4654324
-1.3493701 0.00028923966 2.457864
-1.3567216 0.071532391 2.4704318
-1.3549328 0.18787053 2.4625893
2.0583241 0.17555989 2.4946766
2.1304975 0.17798251 2.4975288
2.1742029 0.17918055 2.4922729
2.2019432 0.19520871 2.494993
2.287601 0.18238726 2.4780045
2.3179328 0.1918287 2.4959636
2.3717999 0.18607563 2.4963155
2.4281993 0.18751001 2.4823678
2.4630296 0.18784299 2.4594097
2.0717812 0.22642747 2.4798224
2.1192436 0.20713758 2.4962544
2.3334875 0.20017213 2.4978597
2.3857703 0.20204584 2.4955134
2.4422326 0.21563704 2.4874682
2.4587991 0.22227278 2.4642601
2.4480901 0.25172499 2.4978638
2.4584022 0.2766445 2.4739151
-1.3611915 0.32512501 2.4633913
2.4492285 0.31455317 2.4927444
2.4684949 0.33005679 2.4711983
-1.3616886 0.3708387 2.4594858
2.4643021 0.37564063 2.4795918
-1.3635629 0.41687384 2.4574492
2.4411612 0.42560634 2.4995732
2.4650438 0.42665035 2.4682214
2.447197 0.4818415 2.4969344
2.4586184 0.47165799 2.4655955
-1.3665569 0.53381598 2.4758859
2.4455311 0.50933564 2.4803722
2.4635727 0.53023195 2.4692998
-1.3773987 0.57784516 2.4888139
2.4436469 0.58442944 2.4813983
2.4712644 0.57154828 2.4675844
-1.3779739 0.63121676 2.4801154
2.4424803 0.62454432 2.4791434
2.461103 0.63122237 2.4517508
2.514385 0.60879457 2.4819405
-1.372622 0.66849458 2.462611
2.4429772 0.67733318 2.4674473
2.462883 0.66744936 2.4758744
2.4339271 0.7320196 2.4716229
2.4501574 0.71135658 2.451422
-1.3757595 0.77695352 2.4755492
2.444592 0.76435494 2.477875
2.4633334 0.76280707 2.4520097
-1.3694432 0.80675924 2.4559979
-1.3707943 0.93678582 2.4551558
-1.3767041 0.9611221 2.4596546
-1.6685876 1.0492796 2.4500978
-1.5707703 1.0175838 2.4509757
-1.5393273 1.0430156 2.4500525
-1.5693942 1.0960336 2.4534659
-1.3805599 1.0761833 2.4636493
-1.6297064 1.122638 2.4531968
-1.5661104 1.1268252 2.4525576
-1.5167624 1.1291564 2.4541025
-1.4098463 1.1423783 2.4831729
-1.3980165 1.1189752 2.4673448
-1.682683 1.1969798 2.4508028
-1.6207988 1.1690612 2.4524407
-1.5166804 1.1559596 2.4550266
-1.4871031 1.1745689 2.4564071
-1.4191978 1.1696434 2.4615443
-1.391264 1.1807336 2.4564235
-1.470544 1.22198 2.4533203
-1.4206603 1.2362727 2.4514174
-1.3890232 1.2260007 2.4605968
-1.6581564 1.2851911 2.4547133
-1.5576775 1.262507 2.4503717
-1.5135959 1.2625808 2.452076
-1.4781698 1.2635924 2.4512987
-1.402114 1.2926821 2.4979639
-1.3944181 1.2657161 2.4558873
-1.57903 1.333258 2.4544983
-1.5313781 1.3395978 2.4535477
-1.4081589 1.3138193 2.4526269
-1.3932437 1.3197784 2.4670594
-1.6766324 1.3655756 2.451896
-1.6195676 1.3619348 2.4536424
-1.5719522 1.3594567 2.4525423
-1.4655393 1.362813 2.4542274
-1.4037174 1.3795567 2.4634662
-1.3993821 1.3680199 2.478157
-1.660243 1.4144179 2.4517319
-1.6280445 1.4212087 2.4522955
-1.5615364 1.4205651 2.4516025
-1.4729271 1.4412323 2.4514172
-1.4028199 1.4070599 2.4677835
-1.3924671 1.4252211 2.4552023
-1.6190283 1.4760792 2.4516563
-1.4627577 1.4864187 2.4517188
-1.415503 1.4846617 2.4585266
-1.3975582 1.473879 2.4693136
-1.6368017 1.5077448 2.4516063
-1.5254892 1.5446811 2.4531782
-1.4565818 1.5263977 2.450217
-1.4256953 1.513947 2.4546807
-1.3958597 1.5156196 2.457571
-1.5744587 1.5939398 2.4517272
-1.5091274 1.5576735 2.4502954
-1.4579893 1.5647467 2.4530194
-1.4119408 1.5792431 2.4674659
-1.4682925 1.6429597 2.4536459
-1.4147712 1.6277765 2.458215
-1.458106 1.6779189 2.4517736
-1.4301252 1.6716059 2.4600356
-1.4684441 1.7196628 2.4513655
-1.4273899 1.7226998 2.4594319
-1.4279795 1.7549493 2.463464
-2.6245477 2.3298175 2.4736242
-2.5704112 2.3337071 2.4731276
-2.5294657 2.3401256 2.4835205
-2.4835341 2.3372779 2.4766257
-2.4010363 2.3343749 2.4732649
-2.3671701 2.337255 2.4800036
-2.3299837 2.3366537 2.4827964
-2.2917008 2.3437092 2.4772921
-2.0603509 2.3489773 2.471616
-1.9536972 2.3444169 2.4928997
-1.9147637 2.3463054 2.4796309
-1.8895277 2.3472922 2.4974024
-1.8192486 2.3453534 2.4709539
-1.794645 2.3487854 2.4780321
-2.2645888 2.3525431 2.4670796
-2.225672 2.3584092 2.4749947
-2.1805835 2.3578949 2.4908307
-2.1254911 2.3541739 2.4680567
-2.0878367 2.3601289 2.4713492
-2.033 2.35625 2.4736183
-1.9780334 2.3514583 2.4743392
-1.9497571 2.357168 2.4741602
-1.8741279 2.3551183 2.4683037
-1.8439902 2.3508954 2.490921
-1.7680866 2.3551972 2.4774942
2.0143356 2.4675171 2.4802589
2.0767558 2.470804 2.4865198
2.125989 2.4670868 2.4764626
2.1692078 2.4631584 2.4697504
2.2211313 2.4651489 2.4664598
2.2881267 2.4700832 2.4722576
2.3272419 2.4637887 2.4790044
-0.84198266 -0.50442851 2.5199659
-0.79954088 -0.50155365 2.5140011
-0.74695414 -0.4999477 2.5164227
0.033709008 -0.47388765 2.5357251
0.064376555 -0.47600627 2.5390518
0.15642476 -0.4905265 2.5373378
0.24027842 -0.48645324 2.5118766
0.27862218 -0.48970512 2.5261624
0.33780968 -0.47532776 2.5230672
0.36359826 -0.47507527 2.5305786
0.52921826 -0.48645696 2.5222785
0.57596087 -0.49085674 2.5253804
0.60144734 -0.47977042 2.5371785
0.033728868 -0.42866588 2.5443428
0.056873381 -0.42517644 2.5381567
0.12572443 -0.43519318 2.5441711
0.17977123 -0.42030039 2.5275695
0.21618819 -0.4191041 2.5343926
0.34462509 -0.42756158 2.5413554
0.36522627 -0.43344402 2.5409136
0.039534636 -0.35225058 2.5306196
0.079668887 -0.35069323 2.5187862
0.11240617 -0.35219374 2.5287945
0.18255375 -0.38731074 2.5410764
0.21096605 -0.39120263 2.5379844
0.03949232 -0.33973876 2.5289826
0.071430065 -0.33977845 2.5136297
0.12408105 -0.33873749 2.5197394
0.1802901 -0.34207225 2.5424113
0.21759209 -0.34310687 2.5482364
1.1449128 -0.32046756 2.5048499
-1.3594683 -0.1569522 2.5018902
-1.3650554 -0.12824988 2.5207956
-1.3673629 -0.06557063 2.5193145
-1.3723983 -0.026146308 2.5290852
-1.3706801 0.020132996 2.5259054
-1.3720636 0.073027186 2.5276999
-1.3772395 0.1263741 2.5356655
-1.3706775 0.17202419 2.5215654
2.0324657 0.17707357 2.5462277
2.0779569 0.18606645 2.5178707
2.1206856 0.18782987 2.5038903
2.1743622 0.19472007 2.5055571
-1.3804069 0.2197935 2.5367732
2.0410864 0.22410758 2.5370576
2.069242 0.21876833 2.5130057
2.1748428 0.20968677 2.5050902
2.3320589 0.24761327 2.5215347
2.3772082 0.2314433 2.5132
2.4245121 0.21966608 2.5055091
-1.3814259 0.2732572 2.5348041
2.3701637 0.28026313 2.5159757
2.4214959 0.27485168 2.5121884
-1.3867892 0.32560456 2.5401504
2.373987 0.32734823 2.515116
2.427202 0.3304038 2.512337
-1.3881028 0.36825436 2.5382981
2.3793862 0.37636122 2.5334036
2.4288211 0.37824625 2.5144348
-1.3832103 0.4269726 2.5223286
2.3741977 0.42057547 2.5264637
2.4237781 0.42752066 2.5106659
-1.3843298 0.47398406 2.5181379
2.3764238 0.4708035 2.5275757
2.4254792 0.47140136 2.5141709
-1.3824855 0.52176291 2.5178621
1.6942238 0.54995841 2.5440471
2.3768094 0.52111638 2.5306199
2.4243948 0.52141738 2.5108378
-1.3812903 0.56942016 2.5283375
2.3778136 0.57136726 2.5297987
2.4261887 0.5703811 2.5135353
2.5774167 0.57127219 2.5237198
-1.3911035 0.62992173 2.5363095
2.3751225 0.62535143 2.5335789
2.421396 0.61930424 2.5185335
-1.4004056 0.65458786 2.5493889
-1.396489 0.6799565 2.5368555
2.3752451 0.67542875 2.5350833
2.423826 0.67513627 2.5201073
-1.4000688 0.73620808 2.5318496
-1.389016 0.72540438 2.5208926
2.3743184 0.7303856 2.5323455
2.4268148 0.71838796 2.5168462
-1.3927083 0.77001166 2.5260243
2.3808396 0.77216709 2.528995
2.4184637 0.75628853 2.5186172
-1.3956654 0.83714449 2.5317068
-1.3952986 0.8689459 2.5227032
-1.402372 0.91699243 2.5236444
-1.4034301 1.0591756 2.5162616
-2.6625943 2.3256392 2.527276
-2.6317186 2.3339357 2.5251157
-2.5766342 2.3375337 2.5240612
-2.5307879 2.3485785 2.5464935
-2.4703009 2.3459525 2.5379562
-2.4244163 2.3382292 2.5256803
-2.371058 2.3407896 2.5299366
-2.0576019 2.3482711 2.5152869
-2.0290968 2.3460855 2.5308001
-1.9832622 2.3421757 2.5262468
-1.9330833 2.3423865 2.5240793
-1.8734128 2.3411798 2.5289657
-1.8268303 2.344799 2.5328975
-1.7744137 2.3443401 2.5371325
-1.721256 2.3450997 2.5366082
-1.6728883 2.3437726 2.5298345
-1.5840992 2.3331907 2.5381851
-2.4936271 2.3503058 2.5288563
-2.3306854 2.3557467 2.5317304
-2.278903 2.3587358 2.5279942
-2.2246227 2.3583057 2.5202498
-2.1818428 2.3606641 2.5391984
-2.1241765 2.3545718 2.5132124
-2.0904188 2.3563223 2.5283179
-2.0235403 2.3574147 2.5101807
-1.879752 2.3567955 2.5185907
-1.808881 2.3501191 2.5115395
-1.772997 2.3655806 2.5167067
-1.7289903 2.3612058 2.516536
-1.6692575 2.3581414 2.5270762
-1.6327786 2.3546932 2.5427253
1.9359204 2.4698598 2.5340104
1.9692768 2.4780951 2.5253901
2.0280981 2.477272 2.5283844
2.0722001 2.4687374 2.5288408
2.1274621 2.4716697 2.5256841
2.1740131 2.4648893 2.5270126
2.2196202 2.4653919 2.5114686
2.2862206 2.4793968 2.5332487
2.3069372 2.4723563 2.5297472
2.3637609 2.4836278 2.5316892
2.4580994 2.4748335 2.5423229
2.508867 2.4683862 2.5417271
-1.2050179 -0.54416788 2.5605998
-1.1684676 -0.54573071 2.58113
-0.26087359 -0.50291902 2.5960803
-0.23516731 -0.51427639 2.5899184
0.53210169 -0.50361574 2.5722136
0.027885517 -0.48136538 2.5680125
0.070136622 -0.48073801 2.5679564
0.17651205 -0.48696312 2.5617723
0.24010403 -0.48626789 2.5772605
0.27711388 -0.48564664 2.5714669
0.33096153 -0.47423762 2.5607324
0.36908236 -0.47282878 2.5634561
0.48618555 -0.48289365 2.5881283
0.52175969 -0.48062485 2.5747948
0.5794608 -0.48119953 2.5839243
0.62942004 -0.48692405 2.5719552
0.87533551 -0.47076613 2.5879655
0.033847556 -0.40560091 2.5559797
0.070005834 -0.42563111 2.5704234
0.11603659 -0.42326275 2.5641265
0.15076728 -0.42441106 2.5534797
0.23174228 -0.42630738 2.5607457
0.33319002 -0.42609325 2.5617127
0.36859065 -0.40871942 2.5585017
0.034053169 -0.39557365 2.571949
0.068891585 -0.38263604 2.5682697
0.13012321 -0.36869037 2.557049
0.17010841 -0.37100041 2.572536
0.33125526 -0.38265854 2.5730615
0.35536742 -0.39357075 2.5705442
0.065462999 -0.32388186 2.5981748
0.11240275 -0.33017612 2.587364
0.19949441 -0.34360048 2.5528851
0.28032941 -0.34491158 2.5577359
0.31531116 -0.34531972 2.5897353
0.040024322 -0.29512277 2.5670023
0.052901417 -0.29838571 2.5952394
-1.3829142 -0.16793478 2.5748858
-1.3748398 -0.12378058 2.5690861
-1.3755285 -0.071338303 2.5743408
-1.3756908 -0.026472917 2.565089
-1.3766861 0.02037861 2.5669312
-1.3840098 0.07433632 2.5798223
-1.3826599 0.12811783 2.5757215
-1.3944212 0.18350787 2.5952287
2.0614309 0.18572158 2.5537829
-1.3969992 0.22691731 2.5974722
1.0937841 0.21697569 2.5976591
1.1029721 0.22277583 2.5841038
1.6629775 0.22354966 2.5629752
1.7347949 0.22567198 2.5581069
1.9785796 0.22904523 2.5865538
2.0237679 0.22208022 2.5651238
-1.3872092 0.27703595 2.5755513
1.9752192 0.25072688 2.5804019
-1.3793201 0.30906728 2.5580993
2.3780823 0.34914014 2.5912957
-1.4018836 0.39408973 2.5764446
-1.3970234 0.37421489 2.5849142
1.8304466 0.36298746 2.5997813
1.8508633 0.36416274 2.5999935
2.373116 0.37998679 2.5819943
-1.4010459 0.40939778 2.588536
-1.3932104 0.4193213 2.5623128
2.3597803 0.4250119 2.5610774
-1.4004557 0.4705652 2.5796275
-1.3920892 0.47006601 2.5795987
2.3664551 0.4782283 2.5679243
-1.4049472 0.51991004 2.5811098
2.3730481 0.52085239 2.5833037
-1.3966253 0.58771849 2.5702662
1.68262 0.57898808 2.5502024
1.7177973 0.57984322 2.5656221
1.7752199 0.58223128 2.579118
1.8291471 0.58960027 2.5880671
1.8838525 0.59044075 2.5991592
2.3698773 0.57264388 2.5778069
-1.4065189 0.61636913 2.5681896
-1.3946626 0.63774371 2.5733752
2.362083 0.62719685 2.5655153
2.3654494 0.67113274 2.5829101
2.3586376 0.72214174 2.5708141
-1.4029365 0.77515763 2.5718713
2.3642707 0.76379627 2.5668936
-1.4088026 0.8177827 2.5755203
-1.4082673 0.86710024 2.5821574
-2.6576722 2.3175561 2.5908864
-2.625181 2.3299441 2.576438
-2.5676498 2.3317256 2.5730829
-2.5209131 2.3427088 2.5795341
-2.4709606 2.3455441 2.5851367
-2.4050875 2.337127 2.5695271
-2.3641968 2.3430464 2.5626001
-2.2690606 2.3495522 2.5957887
-2.0722027 2.3493359 2.5950167
-2.0152614 2.3431575 2.5785728
-1.9751389 2.3363018 2.5719051
-1.9283285 2.3314049 2.5728436
-1.8760929 2.3240845 2.5771101
-1.8266379 2.3257508 2.5735681
-1.776248 2.3304496 2.5740523
-1.7248383 2.3310943 2.5730901
-1.6709358 2.3312557 2.571197
-1.6200662 2.3353119 2.5795028
-1.569535 2.3407652 2.5762691
-1.5345924 2.3393197 2.5926247
-2.4002426 2.3506398 2.5981228
-2.3306885 2.3559077 2.5787694
-2.2721946 2.3523557 2.5675611
-2.2203541 2.3550115 2.5705132
-2.1668465 2.3551738 2.570256
-2.1327531 2.3570414 2.5819542
-2.0795407 2.3560534 2.5718915
-2.0393369 2.350332 2.5745628
-1.6144384 2.3527982 2.5501556
-1.5447091 2.3503346 2.5841734
1.799818 2.4547734 2.5948198
1.8449852 2.4558363 2.569211
1.8834604 2.4713345 2.568989
1.9167569 2.4706962 2.5682154
1.9798651 2.4801316 2.5745296
2.0238764 2.4760418 2.5718975
2.0777874 2.4788201 2.584434
2.1194129 2.4708405 2.5770004
2.1728859 2.4655733 2.5656729
2.2221334 2.4673605 2.5723667
2.272294 2.4753778 2.5662775
2.3404512 2.4887576 2.556566
2.3754375 2.4741437 2.5840671
2.4276004 2.4727528 2.5603547
2.4684403 2.4756484 2.5833974
2.5166659 2.466198 2.5797653
2.5789535 2.4799519 2.5593677
2.6116245 2.4732096 2.5718932
-1.1534399 -0.55452073 2.6334267
-1.1356863 -0.55576146 2.645566
-1.2154906 -0.54147738 2.6182272
-1.1765426 -0.54227549 2.6352766
-0.36716002 -0.51719511 2.6279745
-0.2307857 -0.5058865 2.6133564
0.46596989 -0.50117099 2.6368363
0.52618372 -0.51008803 2.6070068
-0.27331406 -0.49780419 2.6365719
-0.23969665 -0.4986116 2.6430547
0.015796844 -0.49111301 2.6102893
0.091922775 -0.48145467 2.6268177
0.12395351 -0.48913667 2.6325903
0.17701252 -0.48165593 2.6331317
0.21801889 -0.48515257 2.6334326
0.28319237 -0.48356912 2.6294348
0.30853334 -0.48331705 2.6261935
0.44302016 -0.47156641 2.6204987
0.46873531 -0.48840553 2.6242318
0.66769433 -0.49009407 2.6192842
0.88150543 -0.4701466 2.6347051
0.90073287 -0.46172613 2.6401839
0.3821536 -0.40413383 2.6095669
0.5989486 -0.44016773 2.6468244
0.034598634 -0.38946664 2.6151669
0.059653994 -0.3888616 2.6108108
0.16685987 -0.36503047 2.6191974
0.24241181 -0.35246438 2.616647
0.34299862 -0.35232085 2.6082361
0.37098223 -0.39305156 2.6223469
0.028204739 -0.30022153 2.6114578
0.071427248 -0.32578164 2.6130927
0.28873733 -0.32730916 2.6169083
0.31452081 -0.31748977 2.6209133
0.034433082 -0.28742683 2.6097307
0.053547617 -0.28944466 2.6278529
-1.3842862 -0.17745516 2.6232345
-1.3865597 -0.13633019 2.6214731
-1.3853441 -0.08628241 2.6232669
-1.3885081 -0.023669839 2.6275535
-1.3937042 0.020837922 2.6295109
-1.4016504 0.09672334 2.6432498
-1.3891411 0.068574198 2.6202857
-1.3951168 0.11683764 2.6302996
-1.4042916 0.1797293 2.6449986
-1.3969777 0.1573866 2.6167617
1.1122763 0.19822058 2.6074386
-1.4051237 0.20744827 2.6450894
-1.3978243 0.22398239 2.6199176
0.83296913 0.22150755 2.6106136
0.87509918 0.2213707 2.6264098
0.9258486 0.22339825 2.6249647
0.97252995 0.22282137 2.6215231
1.0193374 0.22224894 2.6171274
1.0732434 0.22665671 2.6259873
1.1024661 0.23855726 2.6170571
-1.4004495 0.26869956 2.6321604
-1.3879814 0.286773 2.6071327
-1.4087876 0.33445024 2.6267035
-1.3937889 0.30167282 2.6169038
-1.4070448 0.36329463 2.6258197
1.8402485 0.38680679 2.6111903
1.8533282 0.38650167 2.6009288
2.3843994 0.3843275 2.6241639
2.4041367 0.35530964 2.6498206
-1.4081197 0.42473653 2.6315169
-1.3951778 0.41168383 2.6084538
1.8334314 0.41418719 2.6174536
1.867535 0.43046483 2.6274629
2.3836215 0.4321543 2.6168447
-1.411697 0.49981791 2.628607
-1.3991243 0.45410708 2.6107662
1.8400052 0.47208482 2.6172621
1.8702059 0.45795059 2.6305032
2.3750827 0.47040057 2.6015296
-1.4082242 0.53102791 2.625447
1.8394041 0.50610018 2.6330869
1.8647054 0.51752317 2.6286042
-1.4092799 0.56824011 2.6135848
1.829381 0.57245553 2.6123683
1.8773444 0.57821697 2.6218417
2.3825512 0.56339723 2.6247351
-1.4235615 0.61596829 2.6330178
1.8826354 0.60717422 2.6092749
2.3758264 0.61795759 2.6063612
-1.418499 0.67286718 2.6291516
2.3811769 0.67203069 2.6322205
-1.4230195 0.74163473 2.6074915
2.3725743 0.72776437 2.6198595
-1.4146523 0.77972949 2.6158874
2.3786538 0.77451497 2.626029
-2.6512673 2.3094101 2.6311734
-2.6371813 2.3249516 2.6212399
-2.5983698 2.3354807 2.6202328
-2.5256698 2.3409057 2.634845
-2.4693787 2.34303 2.6308544
-2.432287 2.344631 2.6120074
-2.3766155 2.3456125 2.6303463
-2.3287857 2.3478823 2.6290183
-2.2312152 2.34391 2.6242523
-2.1740575 2.3458579 2.6328139
-2.1223943 2.3474369 2.617697
-2.0725784 2.3418622 2.6267042
-2.0300558 2.3332772 2.6180816
-1.9784787 2.3194842 2.6176562
-1.9241434 2.3205724 2.6146979
-1.8664961 2.3027909 2.6074939
-1.8123215 2.3072784 2.6061561
-1.7731661 2.3133347 2.6117451
-1.7234719 2.3196321 2.6166837
-1.6782503 2.3138151 2.6133428
-1.6322857 2.3165963 2.6133602
-1.5741632 2.3227477 2.6206391
-1.5290904 2.3384173 2.6260192
-2.3823152 2.351454 2.6127305
-2.3077857 2.3516917 2.6191554
-2.2786775 2.3504717 2.6377633
-2.1891673 2.3516393 2.609364
-1.5062548 2.3554754 2.624121
-1.4803324 2.3697872 2.6448178
1.7100531 2.4533813 2.6447384
1.7779359 2.4737344 2.635869
1.833974 2.4729698 2.6293528
1.8801861 2.4726236 2.6147115
1.9115721 2.4601564 2.6184814
1.9699035 2.478246 2.6243346
2.0228226 2.4788027 2.6202214
2.0867262 2.4819872 2.6276672
2.130569 2.4713907 2.6259811
2.179111 2.4751005 2.6220195
2.2090223 2.4679573 2.6124628
2.2699285 2.4796734 2.6247268
2.3207526 2.4795523 2.6240671
2.3742826 2.4768045 2.628706
2.4197013 2.4747205 2.6165514
2.4817092 2.479295 2.6282518
2.5319664 2.4807096 2.6432676
2.5799568 2.4800718 2.607291
2.6067617 2.4870818 2.6004896
2.7190933 2.4972763 2.6365662
2.4658735 2.502167 2.6317854
-1.2263782 -0.54554057 2.6770344
