ply
format ascii 1.0
comment PCL generated
element vertex 1470
property float x
property float y
property float z
element camera 0
property float view_px
property float view_py
property float view_pz
property float x_axisx
property float x_axisy
property float x_axisz
property float y_axisx
property float y_axisy
property float y_axisz
property float z_axisx
property float z_axisy
property float z_axisz
property float focal
property float scalex
property float scaley
property float centerx
property float centery
property int viewportx
property int viewporty
property float k1
property float k2
end_header
-1.3081568 -0.32474044 1.4166329
-1.2875944 -0.32304916 1.4420516
-1.3103695 -0.27499968 1.4193586
-1.2885585 -0.27412453 1.440432
-1.2412781 -0.26291394 1.4467411
-1.3131373 -0.22595684 1.4187282
-1.2782258 -0.22857057 1.4379282
-1.2378089 -0.22568806 1.4454229
-1.3130579 -0.17621402 1.4259059
-1.2878332 -0.18484516 1.4425993
-1.2438999 -0.1744885 1.4472156
-1.3170867 -0.12576856 1.4253186
-1.238965 -0.12794562 1.4427515
-1.3197606 -0.087103575 1.4180646
-1.2849762 -0.054505132 1.4215662
-1.2209532 -0.084511153 1.4403378
-1.3030522 -0.013912478 1.4227892
-1.2966355 -0.031552397 1.4333639
-1.3063183 0.022951344 1.4251945
-1.2996448 0.0091695376 1.4352682
-1.3111812 0.07263194 1.426717
-1.3148534 0.12669814 1.4247258
-1.3158125 0.17510237 1.4273068
-1.317199 0.22334473 1.4229459
-1.3214948 0.27557805 1.4241513
-1.3293459 0.32234719 1.4266031
-1.6141038 0.39276257 1.4479549
-1.4667339 0.36798453 1.400033
-1.3680224 0.36565503 1.4249994
-1.3373243 0.35425988 1.4136622
-1.1152518 -0.50311613 1.4758425
-1.077991 -0.50765693 1.4750476
-1.0240719 -0.51695722 1.4763483
-0.9696756 -0.51287854 1.4818306
-0.92371714 -0.509 1.4799719
-0.88029742 -0.50694335 1.4757345
-0.83691281 -0.50151229 1.4806087
-1.2194483 -0.46340796 1.4612689
-1.1711487 -0.48270839 1.4638021
-1.1378165 -0.49466601 1.4752853
-0.81507427 -0.49645624 1.4776735
-0.77576923 -0.49364626 1.4697797
-0.72483128 -0.49000594 1.4744092
-0.67506742 -0.48559693 1.4714814
-0.6218912 -0.48515025 1.4750861
-0.57549042 -0.48378897 1.4746934
-0.52580887 -0.48203835 1.4796418
-0.47360045 -0.47950745 1.4674913
-0.42487082 -0.47907585 1.4793181
-0.37835762 -0.47778636 1.4766401
-0.32481822 -0.47467557 1.4735583
-0.27774641 -0.47319877 1.4760649
-0.22705498 -0.47289187 1.4758241
-0.17034167 -0.47170302 1.4734554
-0.12276337 -0.4720611 1.4743789
-0.076137155 -0.4711743 1.4789813
-0.02721696 -0.46887371 1.4757284
0.023181237 -0.46947923 1.4752866
0.074625008 -0.46913108 1.4754212
0.12797087 -0.46836129 1.4751709
0.17545927 -0.46693465 1.4751161
0.2256922 -0.46494347 1.4765596
0.27896839 -0.46459612 1.4739662
0.32677248 -0.4664146 1.4704752
0.37683436 -0.46565953 1.4729654
0.42680386 -0.46641809 1.4786823
0.47562411 -0.46452019 1.4806807
0.51858336 -0.4630444 1.4718196
0.57322752 -0.46416536 1.4736968
0.62151593 -0.46451536 1.4722183
0.68210375 -0.47538355 1.4753555
0.72682446 -0.48210695 1.4704283
0.77301997 -0.48610029 1.4725078
0.81795239 -0.48684898 1.4806143
0.88205785 -0.48390132 1.4781054
0.91758418 -0.47581175 1.473632
0.97039092 -0.47549707 1.4794526
1.0212482 -0.46323779 1.4739969
1.0847765 -0.45995942 1.4802012
1.1407926 -0.4568069 1.4733568
1.1828941 -0.45567137 1.4739715
1.2378236 -0.46175036 1.4785613
1.2869902 -0.45765957 1.4705507
1.3361111 -0.45310527 1.4596708
1.4106281 -0.45635027 1.4725184
1.471384 -0.45420733 1.4664816
-1.2633553 -0.41982698 1.4594761
-1.223863 -0.42695054 1.4618894
-1.1970851 -0.42102319 1.4620672
-1.2702837 -0.37215668 1.460453
-1.2292414 -0.37644419 1.4673897
-1.2731749 -0.32609737 1.4657723
-1.2350707 -0.32622114 1.4647822
-1.26937 -0.27634683 1.4574485
-1.2314998 -0.2759333 1.4652184
-1.262306 -0.24025722 1.4528328
-1.2280288 -0.23058358 1.4684891
-1.2794778 -0.17083515 1.4599545
-1.2327479 -0.16795075 1.4646646
-1.3059553 -0.12630343 1.4565141
-1.286405 -0.12584113 1.4677929
-1.2432475 -0.12719716 1.47425
-1.3152698 -0.091186516 1.4750994
-1.2826533 -0.073796958 1.4756373
-1.2474554 -0.090380996 1.4632287
-1.3009655 -0.008328707 1.469656
-1.29326 -0.027210189 1.4772273
-1.3043194 0.023664119 1.4741952
-1.2998428 0.013647233 1.460021
-1.3083836 0.075763106 1.4761908
-1.3102028 0.12464289 1.4753884
-1.3115743 0.17360562 1.4726648
-1.3141718 0.22560355 1.4705591
-1.316586 0.27156904 1.4782265
-1.3556331 0.34687465 1.4792982
-1.3344141 0.32249722 1.4510903
-1.6050072 0.39291391 1.4579566
-1.5756084 0.39368644 1.4665111
-1.5270524 0.39389917 1.4642628
-1.4852995 0.38919726 1.4681988
-1.3687739 0.36406791 1.4907541
-1.348484 0.35626322 1.4516609
-1.8038719 0.43970487 1.4564171
-1.7792625 0.44392392 1.4726149
-1.7265159 0.43146271 1.4726601
-1.6780165 0.43233919 1.4781321
-1.6229043 0.425697 1.4735658
-1.5791402 0.42469212 1.4754344
-1.5171928 0.42497775 1.4730999
-1.492408 0.41415238 1.4845682
-1.8618556 0.47270104 1.4787129
-1.8145126 0.47751933 1.4685111
-1.7745444 0.47672278 1.479547
-1.7197111 0.47122514 1.4765004
-1.6777369 0.47596091 1.4837497
-1.6268163 0.47641197 1.4815698
-1.5758932 0.4734965 1.478415
-1.5239035 0.47454935 1.4806681
-1.4958545 0.46470073 1.4976968
-1.8613861 0.53459615 1.4816165
-1.8182598 0.52751476 1.4802257
-1.7663023 0.50827783 1.4871879
-1.7335727 0.51044041 1.4918683
-1.6790625 0.50810659 1.4863371
-1.6251202 0.5082556 1.4854137
-1.5751326 0.51414412 1.48708
-1.533177 0.51703 1.4909502
-1.8560058 0.59560668 1.478775
-1.8321198 0.57411981 1.4857941
-1.869979 0.62924075 1.4907671
-1.833988 0.62156039 1.4857904
-1.8675877 0.67349082 1.4908
-1.8353189 0.65729666 1.4903452
-1.8790088 0.72085953 1.4984421
-1.8466082 0.74984586 1.4985392
-1.8698215 0.77572912 1.49417
-1.866851 0.82471323 1.4956897
-1.8733969 0.87027359 1.4974345
-1.875217 0.96897691 1.4990437
-1.1140598 -0.50207067 1.5214224
-1.0757779 -0.51192236 1.5261581
-1.0297133 -0.51450247 1.5258359
-0.97893542 -0.51343185 1.5289191
-0.91632152 -0.50853258 1.5218968
-0.87790447 -0.50274932 1.5230063
-0.83525062 -0.50130153 1.5357165
-0.79482585 -0.50092107 1.5339651
-1.1574743 -0.45772979 1.5230776
-1.1375728 -0.49149615 1.5295125
-0.86194271 -0.49823529 1.5294728
-0.83417195 -0.49759227 1.518802
-0.77406096 -0.49247512 1.522837
-0.72678828 -0.48708534 1.5231545
-0.67533249 -0.48565069 1.5236403
-0.61911601 -0.48170152 1.5221446
-0.57554215 -0.48161557 1.5287682
-0.52792138 -0.48052555 1.5269949
-0.47436035 -0.47891077 1.5242293
-0.42802608 -0.47776648 1.519032
-0.37256819 -0.47473165 1.5244747
-0.32737926 -0.47303686 1.5277427
-0.27110136 -0.47327533 1.5265894
-0.22182354 -0.47265294 1.5240223
-0.17564304 -0.47241586 1.5254261
-0.12483961 -0.4726457 1.5341161
-0.073672391 -0.46844262 1.5262945
-0.024380224 -0.46896151 1.5264541
0.021285461 -0.46987224 1.5272576
0.074756458 -0.46904609 1.522058
0.12430337 -0.4696503 1.5266151
0.18006954 -0.46634617 1.5335262
0.22389849 -0.46270716 1.5211931
0.2735956 -0.46340498 1.5202261
0.32578897 -0.46488041 1.5280118
0.37424165 -0.4647643 1.521574
0.42795351 -0.46550718 1.5236624
0.47771937 -0.46352768 1.5350018
0.52881682 -0.46444941 1.5258365
0.5716415 -0.46251112 1.525251
0.62412071 -0.46425429 1.5230538
0.67019171 -0.46866953 1.522489
0.72108603 -0.48184288 1.5227768
0.77913815 -0.49113196 1.5297103
0.82786673 -0.48947495 1.5239449
0.87406296 -0.48745659 1.5211631
0.92806852 -0.48264092 1.5258448
0.97662711 -0.47636595 1.5193386
1.0294129 -0.47359854 1.5321772
1.0756172 -0.46420124 1.5189557
1.1231472 -0.46414942 1.5281996
1.1715248 -0.46372122 1.5323339
1.2078594 -0.46739477 1.5272527
1.2524133 -0.46152174 1.5155309
1.4059141 -0.46094698 1.5027562
1.4695901 -0.45960656 1.500428
-1.1730922 -0.40917972 1.5381298
-1.23465 -0.38217729 1.5020292
-1.2504525 -0.32167324 1.516344
-1.2456288 -0.33379227 1.5080864
-1.2562547 -0.18700549 1.5248914
-1.2627733 -0.12425475 1.5210475
-1.2898462 -0.059863072 1.5252444
-1.3008662 -0.0085993772 1.5366905
-1.2902654 -0.02865825 1.5211612
-1.3042151 0.025696343 1.5222398
-1.2980171 0.0094539337 1.5219582
-1.3051941 0.075743072 1.5220433
-1.3079255 0.12533951 1.5245249
-1.3097941 0.17403489 1.5204866
-1.3126395 0.22420317 1.5251007
-1.3136998 0.27531078 1.5241086
-1.3139681 0.30005923 1.5096902
-1.4476889 0.39436093 1.5371749
-1.4877851 0.42542773 1.522397
-1.5044916 0.48675185 1.5173866
-1.4964885 0.4626824 1.5217962
-1.8047959 0.54408789 1.5152241
-1.7689208 0.52988076 1.5094839
-1.7203151 0.52655107 1.5144604
-1.6685052 0.52372676 1.5044093
-1.6426313 0.53906453 1.5237745
-1.5731188 0.53942537 1.5204577
-1.5129412 0.51409549 1.5239812
-1.8138257 0.57963282 1.5265356
-1.793584 0.56630069 1.5458508
-1.6138047 0.55327767 1.5395657
-1.8162885 0.62490815 1.5267617
-1.7604063 0.64265954 1.5476079
-1.7171171 0.64524049 1.544672
-1.9119451 0.69557512 1.5171587
-1.8593615 0.6878801 1.502187
-1.8207535 0.67509377 1.5248915
-1.7838234 0.65815645 1.5444815
-1.7293246 0.65854168 1.541962
-1.8675232 0.72868985 1.501363
-1.8294491 0.72351521 1.5227901
-1.8584032 0.77127612 1.5016967
-1.8308794 0.77367496 1.5267767
-1.8541062 0.80746597 1.5042944
-1.8328989 0.82292712 1.5225956
-1.8614129 0.87551421 1.5046115
-1.8303932 0.87589055 1.5269167
-1.8652071 0.92415631 1.5064574
-1.8326751 0.92542446 1.5305057
-1.9187589 0.96234196 1.5248374
-1.8657218 0.97276521 1.505592
-1.8359784 0.97341675 1.5272298
-1.8678907 1.022945 1.5100818
-1.8361282 1.0257938 1.5303471
-1.8522385 1.0698309 1.5038513
-1.8385444 1.0694696 1.527849
-1.8526168 1.1148624 1.5155778
-1.8355343 1.121114 1.5320523
-1.8347555 1.1617814 1.5323387
-1.8383409 1.2054921 1.5446227
-1.1095406 -0.50582868 1.5884041
-1.079496 -0.51077616 1.5718645
-1.0241592 -0.51006389 1.5673147
-0.9743405 -0.50976157 1.5765907
-0.92718291 -0.50751102 1.5759311
-0.87947637 -0.50107145 1.5743258
-0.8282541 -0.50048488 1.5519736
-1.1650219 -0.457526 1.5519824
-1.1326621 -0.4904339 1.5728136
-0.87627745 -0.49728 1.5772616
-0.82394463 -0.49424899 1.5752416
-0.77539873 -0.48968092 1.5782686
-0.71957636 -0.48365939 1.5763894
-0.67031008 -0.48042789 1.5685288
-0.62641454 -0.48008147 1.5803673
-0.57408792 -0.47678775 1.5797447
-0.52398026 -0.47787672 1.572384
-0.47722995 -0.47513476 1.576125
-0.42422014 -0.47394398 1.5708631
-0.37338573 -0.47388253 1.5784172
-0.32394677 -0.46852887 1.5746433
-0.27860653 -0.4710122 1.5752136
-0.22763871 -0.47074267 1.5751177
-0.17311704 -0.47102943 1.5738635
-0.12187963 -0.46973896 1.5750189
-0.076610699 -0.46730113 1.5772896
-0.025108775 -0.46789813 1.5764141
0.029988725 -0.47158626 1.5792594
0.077673182 -0.46985513 1.5736865
0.12588672 -0.46926859 1.5755194
0.17593406 -0.46709442 1.5787511
0.22567023 -0.46296889 1.5758368
0.27632987 -0.46061844 1.576098
0.32829028 -0.46250641 1.5823833
0.37887347 -0.46391144 1.5747094
0.42276585 -0.46543586 1.577422
0.47340024 -0.46396914 1.5797168
0.52565157 -0.46117267 1.5718372
0.57190526 -0.46214455 1.5748516
0.62440401 -0.46270007 1.568637
0.67375112 -0.46574619 1.5868961
0.7271989 -0.48043618 1.5801322
0.77028286 -0.48854133 1.5720323
0.82598901 -0.49262345 1.5797895
0.87653053 -0.49021465 1.5791731
0.92577231 -0.48561531 1.5712178
0.98188168 -0.48191658 1.5723896
1.0269147 -0.4789888 1.5772489
1.0712551 -0.4742412 1.5741649
1.1335474 -0.46692294 1.5797689
1.1912522 -0.46604699 1.5782468
1.239465 -0.46896294 1.5745994
1.2611573 -0.46923769 1.5993036
-1.2884146 -0.41832384 1.5878278
-1.1843357 -0.434829 1.5589536
-1.3081722 -0.36723378 1.5990543
-1.2071042 -0.37332237 1.5803199
-1.1915333 -0.36946943 1.5657045
-1.210544 -0.30584261 1.5846468
-1.3014816 -0.27893564 1.5871753
-1.2984078 -0.28756583 1.5820587
-1.208881 -0.29787329 1.5717738
-1.306388 -0.23793012 1.5987617
-1.2338659 -0.22852005 1.5964216
-1.1982139 -0.23254588 1.5664374
-1.3058128 -0.17118216 1.5872281
-1.2790915 -0.19177657 1.5699255
-1.2186496 -0.11504097 1.5792935
-1.3062429 -0.06250041 1.5872039
-1.2978598 -0.07280983 1.5662035
-1.3072685 -0.021998769 1.5812702
-1.2996161 -0.040688939 1.5606019
-1.3130114 0.026955329 1.5790284
-1.2991972 0.0095460461 1.5518055
-1.3145039 0.074383616 1.5773464
-1.3137078 0.12515655 1.5736209
-1.3139951 0.17597863 1.5698711
-1.3151257 0.22247089 1.5671998
-1.3159709 0.2736229 1.5625638
-1.3397081 0.30292761 1.5938784
-1.4564241 0.39937639 1.5646807
-1.4465001 0.36282459 1.5987751
-1.4904543 0.43330678 1.580076
-1.5009813 0.49304807 1.5597166
-1.4962636 0.47109786 1.575079
-1.7706504 0.54914755 1.55672
-1.5512226 0.54558748 1.5544325
-1.515878 0.52529526 1.5725706
-1.4981543 0.50089723 1.5870463
-1.7759967 0.57954013 1.5605187
-1.725665 0.57471627 1.5631022
-1.6748382 0.57754713 1.555019
-1.6286463 0.58084071 1.5566216
-1.5691566 0.57743883 1.5641559
-1.5418887 0.57280529 1.5919043
-1.803651 0.6415509 1.5593411
-1.7739576 0.62056893 1.5627971
-1.7234017 0.6208539 1.5596001
-1.6779872 0.62830377 1.5585951
-1.6236473 0.62622797 1.5616907
-1.5733522 0.62218422 1.5712351
-1.5472419 0.625651 1.5888431
-1.7839607 0.68874389 1.5692848
-1.7118545 0.67610049 1.5597726
-1.6803814 0.66461807 1.5622793
-1.6225535 0.66505969 1.5758117
-1.5628114 0.6569342 1.581255
-1.5468558 0.65154123 1.595988
-1.8089036 0.73252708 1.5699093
-1.7969097 0.71434474 1.5839047
-1.8160071 0.77645469 1.5721487
-1.8176827 0.82203811 1.5719689
-1.8172898 0.87215018 1.5758834
-1.821318 0.92707378 1.5725017
-1.8273368 0.97780663 1.5757149
-1.8266059 1.0216147 1.5735149
-1.8294911 1.0771219 1.5739713
-1.8307343 1.1267709 1.5804372
-1.8303404 1.1768672 1.5697805
-1.832467 1.2260878 1.5773048
-1.8337229 1.2728655 1.5828203
-1.8339946 1.3172863 1.5870225
-1.8276149 1.3563224 1.5940866
-1.1083071 -0.50375998 1.6223297
-1.0748882 -0.50914371 1.6267707
-1.0192481 -0.50818741 1.6203489
-0.9678216 -0.50360465 1.6208611
-0.93961757 -0.50364089 1.6147652
-0.89937723 -0.50253832 1.600127
-1.2525961 -0.48077485 1.6131339
-1.2193656 -0.47783965 1.6438124
-1.1856205 -0.47666049 1.6336875
-1.1343983 -0.49219784 1.6237078
-0.91855448 -0.49819198 1.6239882
-0.87878191 -0.49412215 1.628206
-0.82810611 -0.49422616 1.6320449
-0.77296323 -0.48387685 1.6273184
-0.72544628 -0.47997877 1.6251961
-0.67743748 -0.47750425 1.6250038
-0.62690061 -0.4750596 1.6262645
-0.57634288 -0.47423345 1.6335208
-0.53125292 -0.4755148 1.6247162
-0.47092992 -0.47368017 1.6293176
-0.42867193 -0.47300848 1.6287205
-0.37955481 -0.47106019 1.6177819
-0.32934919 -0.46750322 1.6247705
-0.27555916 -0.46789056 1.6259402
-0.2250073 -0.47137594 1.630457
-0.17497253 -0.47050169 1.6240969
-0.1266102 -0.46883059 1.6213673
-0.073380433 -0.46422026 1.6196438
-0.025963075 -0.46759424 1.6323858
0.022937225 -0.46823063 1.6255574
0.080437124 -0.47010863 1.6350572
0.12712404 -0.46834967 1.6240271
0.17401649 -0.46465585 1.6209666
0.22825758 -0.46121195 1.6207069
0.27465925 -0.45793581 1.6338609
0.32101092 -0.45781216 1.6215246
0.3710337 -0.46162847 1.6204605
0.42732403 -0.46379957 1.6266614
0.47752267 -0.46220177 1.627094
0.52293307 -0.46022862 1.6163721
0.57655549 -0.45845851 1.6261009
0.62276417 -0.45966434 1.6205806
0.67453927 -0.46284914 1.6209824
0.72605771 -0.47304526 1.6307122
0.7803942 -0.48994073 1.6327379
0.82082248 -0.4919008 1.6217955
0.87636286 -0.4902389 1.6249635
0.92582577 -0.4886032 1.6287512
0.96862638 -0.48645878 1.6253906
1.01783 -0.48501438 1.6284138
1.084615 -0.48231816 1.6339605
1.119406 -0.47808346 1.631603
1.1547048 -0.46978801 1.6182843
-1.3100766 -0.40518391 1.6219751
-1.2833582 -0.41789868 1.627003
-1.2434721 -0.40236065 1.6181607
-1.3216248 -0.37221971 1.631659
-1.2408161 -0.36689526 1.6400436
-1.3234229 -0.32835028 1.6323731
-1.3203367 -0.27123606 1.6232706
-1.2692968 -0.26334113 1.638819
-1.2461921 -0.29061696 1.6410923
-1.3140029 -0.2266908 1.6390879
-1.2368569 -0.22612774 1.6185582
-1.3234559 -0.17210612 1.6267607
-1.2712432 -0.15879709 1.6340077
-1.3263073 -0.12436239 1.6272935
-1.2481585 -0.12833221 1.6062853
-1.3056315 -0.06656336 1.626671
-1.2900789 -0.083875746 1.6266196
-1.3128545 -0.029139031 1.6259359
-1.319442 0.022605566 1.6247582
-1.324247 0.075984158 1.6244991
-1.3252748 0.12514639 1.6256653
-1.3267316 0.17309697 1.6279675
-1.3306031 0.2264147 1.625487
-1.3347771 0.27426416 1.6287673
-1.3398398 0.30619097 1.6211369
-1.4758385 0.3777377 1.6490592
-1.4840072 0.42496997 1.6272907
-1.502299 0.4988814 1.6322354
-1.4933169 0.47545388 1.6262581
-1.514993 0.52992564 1.6327657
-1.4955502 0.50786304 1.608561
-1.5375825 0.57379335 1.6173534
-1.542625 0.62364417 1.6248639
-1.5624299 0.66753507 1.6370834
-1.7837954 0.72669393 1.6214323
-1.7417845 0.71214038 1.6440642
-1.8065996 0.77826309 1.6126374
-1.7941964 0.76738238 1.6347511
-1.8097706 0.82664239 1.6227764
-1.8132858 0.8748855 1.6230948
-1.81787 0.92379695 1.6242296
-1.8207915 0.97383988 1.6223373
-1.8228583 1.0240449 1.6186848
-1.8245269 1.074266 1.6219825
-1.8253548 1.1235073 1.6252269
-1.827207 1.1737403 1.6216598
-1.8257266 1.2229519 1.6212547
-1.829996 1.2737452 1.6260653
-1.8309427 1.3244095 1.6201005
-1.8297694 1.3754044 1.6302606
-1.8290249 1.4194429 1.6368257
-1.8338174 1.4611768 1.6447703
-1.1080177 -0.50094277 1.6752498
-1.0744478 -0.50439191 1.6695098
-1.0319102 -0.51129097 1.6685565
-0.98147488 -0.50746202 1.6598725
-0.94936287 -0.5024758 1.6535488
-1.2528002 -0.45821562 1.6767151
-1.2233793 -0.46432328 1.6770782
-1.1899508 -0.46728897 1.6746787
-1.1267874 -0.49229032 1.6753175
-1.0888937 -0.49826279 1.6949903
-0.9630723 -0.49758878 1.6802229
-0.92725068 -0.49735811 1.6755168
-0.87605417 -0.49234611 1.6699568
-0.82610524 -0.48904473 1.6718924
-0.77570605 -0.48103511 1.6807048
-0.72665751 -0.4770461 1.6712383
-0.68158531 -0.47392297 1.6655566
-0.62157995 -0.46767679 1.6645074
-0.58001035 -0.47173551 1.6692289
-0.52385914 -0.47267091 1.6705023
-0.47974539 -0.47243875 1.6738864
-0.42423737 -0.46932015 1.6748502
-0.37529966 -0.46681139 1.6734986
-0.32311445 -0.46505946 1.6719698
-0.27341497 -0.46636692 1.6758534
-0.22431149 -0.46901357 1.6694283
-0.17642324 -0.46948573 1.6784803
-0.12446266 -0.46591938 1.6715721
-0.075639874 -0.46200958 1.6720606
-0.028471731 -0.46392459 1.6785301
0.017366583 -0.46638495 1.6822278
0.06987901 -0.46893749 1.669318
0.12335712 -0.46846652 1.6779323
0.17035508 -0.46591398 1.6737757
0.2226653 -0.4622623 1.6720928
0.27386472 -0.45831868 1.6786921
0.32117811 -0.45640737 1.6709224
0.37781247 -0.46012354 1.674951
0.4256914 -0.46022174 1.6674131
0.47598436 -0.46291798 1.674656
0.52600104 -0.45837432 1.669995
0.57652944 -0.4545891 1.6755286
0.627738 -0.45559883 1.6718363
0.67821753 -0.4605678 1.6743969
0.72017777 -0.46521574 1.669759
0.77421772 -0.48075739 1.6819012
0.82920921 -0.49128306 1.6752777
0.87406123 -0.49088618 1.675841
0.91919059 -0.48895952 1.6759386
0.97153074 -0.48751655 1.6772654
1.0179914 -0.48684362 1.6784036
1.0714563 -0.48776275 1.6755241
1.1256552 -0.48568434 1.6868398
1.1585106 -0.48691353 1.6985203
-1.3128121 -0.40571418 1.6539286
-1.2669191 -0.41668293 1.6663024
-1.227918 -0.42174229 1.6831158
-1.1978397 -0.4299913 1.6911349
0.3266027 -0.44921175 1.6848036
-1.315387 -0.37670687 1.6667136
-1.2693733 -0.37477723 1.679258
-1.2326047 -0.37530309 1.6865283
-1.3166077 -0.32705602 1.6685805
-1.2625717 -0.32667932 1.6861165
-1.2341496 -0.32253352 1.6900592
-1.3178685 -0.27905926 1.6629562
-1.2658007 -0.27932811 1.6730226
-1.2342105 -0.27363172 1.6857034
-1.3092154 -0.22639503 1.6556574
-1.2733461 -0.22756055 1.6680294
-1.2304769 -0.23672067 1.6820683
-1.319513 -0.17071311 1.6597261
-1.2711953 -0.17879689 1.6717629
-1.2368771 -0.17206451 1.682186
-1.3198522 -0.12770265 1.6636432
-1.266108 -0.129154 1.6803246
-1.2417533 -0.12844232 1.6808681
-1.3043696 -0.065562166 1.6772927
-1.2943088 -0.082875803 1.6636915
-1.310653 -0.026968906 1.6736584
-1.3194565 0.026429584 1.6759243
-1.3231579 0.077296786 1.6684887
-1.3270766 0.12438603 1.6723887
-1.3277028 0.17440124 1.6748871
-1.3300955 0.22132327 1.6694304
-1.3357836 0.27415231 1.6792535
-1.3548243 0.31522524 1.6855874
-1.3469081 0.30359328 1.6773281
-1.4706441 0.37338728 1.6763469
-1.3997971 0.35108078 1.6981353
-1.4834092 0.42331406 1.6735333
-1.4916791 0.47219923 1.6767173
-1.5232767 0.54389936 1.6650333
-1.495337 0.51253837 1.6742854
-1.5358407 0.57633793 1.6705244
-1.5402629 0.62209612 1.6720757
-1.5577356 0.65804756 1.692253
-1.5480146 0.65475565 1.659898
-1.7759588 0.73912007 1.6656938
-1.8007689 0.78873783 1.6561867
-1.7882237 0.77213264 1.6797732
-1.8035833 0.82489079 1.6637052
-1.7962877 0.81575745 1.6807775
-1.8089309 0.87681371 1.6668985
-1.8142745 0.92733967 1.6772747
-1.8195487 0.97270519 1.6749858
-1.8262486 1.0248352 1.676538
-1.824145 1.0755914 1.6727874
-1.8239931 1.1240171 1.6761485
-1.8296323 1.1754856 1.6773667
-1.830337 1.2267492 1.6726693
-1.8316507 1.2762805 1.67606
-1.8279637 1.3229167 1.673293
-1.8273683 1.3737553 1.6772693
-1.8260374 1.422205 1.6716409
-1.8250149 1.471796 1.6778316
-1.8245672 1.5223246 1.6821496
-1.8203743 1.5556078 1.6774009
-1.0632712 -0.50959975 1.7211777
-1.0202 -0.51028496 1.7125912
-0.98843074 -0.50208247 1.7156363
-0.9062835 -0.50043339 1.742411
-0.88712174 -0.50009352 1.7482723
-1.1280137 -0.49268898 1.7283001
-1.0902599 -0.49586901 1.7287152
-0.97486162 -0.49601051 1.7236038
-0.92738611 -0.49302322 1.7110472
-0.87201071 -0.49629781 1.7249413
-0.8203823 -0.48341477 1.7230573
-0.78226078 -0.48219603 1.7308645
-0.73004037 -0.47624016 1.7038679
-0.60549319 -0.46865547 1.7080241
-0.57381457 -0.47191477 1.7104969
-0.51854521 -0.47009099 1.7216097
-0.47569472 -0.46996227 1.7238219
-0.42478526 -0.46764737 1.7283262
-0.37657768 -0.46352729 1.712353
-0.32128441 -0.46329695 1.7244514
-0.27498654 -0.46590796 1.730152
-0.2252948 -0.46786112 1.7255528
-0.16965225 -0.46829844 1.719239
-0.12148783 -0.46469769 1.7246863
-0.074745528 -0.46118328 1.727929
-0.028649757 -0.46103272 1.7209117
0.029157149 -0.46705723 1.7179735
0.072294854 -0.46959704 1.7285963
0.12138098 -0.47001275 1.7206696
0.17444777 -0.46570963 1.7158569
0.22498633 -0.46392873 1.7239498
0.27524683 -0.45601806 1.7202457
0.32579526 -0.45349342 1.7219553
0.37396601 -0.4582268 1.7186633
0.42519611 -0.45816302 1.7254862
0.47650591 -0.46126783 1.7250279
0.5250684 -0.45616627 1.7180506
0.56994623 -0.455805 1.7014472
0.63261813 -0.45171782 1.7170942
0.68083823 -0.45664084 1.7330327
0.72434598 -0.46209919 1.7238936
0.78362036 -0.47636774 1.7193731
0.8333376 -0.48716795 1.727663
0.87600499 -0.4883002 1.7212167
0.9230727 -0.48470947 1.7287655
0.97617024 -0.48845801 1.729883
1.0281904 -0.48906121 1.7270069
1.0736375 -0.49117222 1.7152666
1.1256111 -0.4871878 1.7170562
1.1782345 -0.48548689 1.7295315
1.2051864 -0.48070347 1.7416909
1.2828934 -0.48780829 1.7331467
-1.2147412 -0.41572225 1.7139298
0.57181406 -0.44866979 1.7086138
0.62878436 -0.44991639 1.7378602
-1.2254759 -0.36904868 1.7137152
-1.2327278 -0.3329125 1.7226685
-1.2221018 -0.27706209 1.7032261
-1.2234229 -0.229509 1.7106158
-1.233965 -0.17917387 1.7139761
-1.2398146 -0.13393585 1.713276
-1.3051285 -0.071792476 1.7269809
-1.2870686 -0.082368389 1.7236804
-1.3095027 -0.029645622 1.7252837
-1.3195409 0.025273075 1.7246838
-1.3208522 0.078825824 1.7212917
-1.3245413 0.12820837 1.7236606
-1.3256208 0.17750458 1.7214732
-1.3295819 0.22738197 1.7218693
-1.3355342 0.27568766 1.7238821
-1.3716224 0.33715636 1.7083488
-1.344529 0.33473182 1.7271971
-1.469768 0.38103789 1.7240992
-1.4120469 0.36952844 1.7499976
-1.3700988 0.35788542 1.7263304
-1.4774244 0.42324024 1.7195876
-1.4863759 0.47423047 1.7222108
-1.5152093 0.5347544 1.724376
-1.493552 0.50983846 1.7311822
-1.5298871 0.57356423 1.7259266
-1.5626647 0.64207083 1.7473966
-1.5394799 0.61809081 1.7205834
-1.5615089 0.6556083 1.7305765
-1.7597171 0.74249804 1.709398
-1.7414527 0.74197465 1.723465
-1.785429 0.77653342 1.7254499
-1.8014524 0.84465259 1.7279938
-1.7915689 0.82097757 1.7264959
-1.8093311 0.87194848 1.7254863
-1.8144633 0.92368436 1.727404
-1.8201844 0.98147196 1.7251259
-1.8181466 1.0240229 1.7179917
-1.821191 1.0721108 1.7277312
-1.8265766 1.1247243 1.7285055
-1.8296729 1.1760205 1.7265123
-1.8252852 1.2238971 1.7239596
-1.8247075 1.2720389 1.722072
-1.8261908 1.3237389 1.7218126
-1.8227118 1.3690587 1.7252671
-1.8242933 1.4214735 1.725368
-1.8238115 1.4713283 1.7266921
-1.8234962 1.5202812 1.7239046
-1.1003135 -0.51169252 1.7955114
-1.0729271 -0.5082587 1.7731752
-1.033659 -0.50573778 1.7654061
-0.88045835 -0.50157988 1.7569233
-1.1320844 -0.49343365 1.7719357
-1.0211215 -0.49947575 1.7765741
-0.97234476 -0.49852887 1.7754467
-0.92355168 -0.49559224 1.7671674
-0.86840928 -0.49227887 1.779752
-0.82067251 -0.48339885 1.7833507
-0.50986469 -0.46784565 1.7625428
-0.4935095 -0.4690887 1.7706773
-0.42579213 -0.46572879 1.7573487
-0.31673896 -0.46311373 1.7745366
-0.27371156 -0.46749964 1.7728544
-0.22484702 -0.46712902 1.7643225
-0.17765723 -0.47030893 1.7663109
-0.12495317 -0.46340454 1.7653987
-0.084113859 -0.46052027 1.7703968
-0.024561379 -0.46137246 1.7725258
0.021715602 -0.46932337 1.7736037
0.078068756 -0.47028726 1.7762012
0.12719785 -0.4708513 1.7694401
0.17849392 -0.46666008 1.7816586
0.22556321 -0.46481428 1.7728869
0.26680556 -0.46079096 1.7769604
0.33754146 -0.45280629 1.7672303
0.37734634 -0.45916319 1.7726667
0.42373124 -0.45650306 1.7695036
0.46668237 -0.4607071 1.786656
0.52336347 -0.45879659 1.7757108
0.67387468 -0.45255026 1.7637154
0.72863054 -0.45969105 1.7792352
0.77732414 -0.46804237 1.7777362
0.82744241 -0.48198494 1.7799678
0.87585807 -0.48431078 1.7776573
0.92316562 -0.48109981 1.7794194
0.97336978 -0.48599887 1.7665993
1.0251088 -0.48696646 1.779085
1.0716945 -0.4890267 1.7780776
1.1217656 -0.48924658 1.7713314
1.1758322 -0.48732004 1.7755247
1.2108736 -0.48095617 1.7919104
1.2535806 -0.49000451 1.7614129
0.67721373 -0.44980535 1.7643996
-1.3047788 -0.078523278 1.7748469
-1.3116376 -0.031164192 1.7795448
-1.3161714 0.020378139 1.7738321
-1.3209232 0.070434712 1.7749727
-1.3236619 0.12232841 1.7775353
-1.3269429 0.17472972 1.7814375
-1.3278186 0.22425522 1.7731704
-1.3303162 0.27086249 1.7712866
-1.3383685 0.30791408 1.7623808
-1.4610263 0.38864657 1.7650313
-1.4432603 0.37498492 1.7687699
-1.3749851 0.37032974 1.7547159
-1.4716963 0.42527965 1.7763824
-1.483016 0.47636503 1.776655
-1.5084512 0.53647369 1.7747557
-1.4879684 0.5116542 1.7761748
-1.5254579 0.57565647 1.7761774
-1.5840589 0.64430416 1.7957721
-1.5331974 0.6124922 1.7851877
-1.5896288 0.67527854 1.7703236
-1.7799186 0.78316665 1.7679276
-1.8018509 0.83810544 1.7796893
-1.7921687 0.82149762 1.7912725
-1.8065525 0.88110203 1.7777201
-1.7988554 0.86015332 1.7915576
-1.8187828 0.92702979 1.773923
-1.8226609 0.97756159 1.7742623
-1.8219612 1.0281734 1.7732979
-1.826484 1.0835341 1.7784984
-1.8247029 1.1220061 1.7759968
-1.8251215 1.1765735 1.7738804
-1.8196137 1.2284473 1.7715173
-1.8216743 1.279792 1.7773399
-1.8233773 1.3273237 1.7716371
-1.8225285 1.3771247 1.7741171
-1.8208514 1.4259045 1.7751774
-1.817517 1.4758909 1.7700214
-1.8206915 1.5182294 1.7751967
-1.1113932 -0.50765443 1.828871
-1.07055 -0.50877339 1.8428338
-1.0099512 -0.5026781 1.8106769
-0.96947426 -0.50013065 1.8010309
-0.93043387 -0.50507927 1.8376455
-1.1550157 -0.48861611 1.8066757
-1.132894 -0.49287316 1.825497
-1.0200281 -0.49874756 1.8192103
-0.97492355 -0.49326158 1.8130909
-0.92664433 -0.49412307 1.8177551
-0.881378 -0.49247614 1.8270302
-0.83809233 -0.48614395 1.8101888
-0.26347405 -0.47037297 1.8307292
-0.22382556 -0.46999428 1.8273696
-0.1747309 -0.4692564 1.82976
-0.13037099 -0.46806881 1.8301154
-0.019922568 -0.46127197 1.8219597
0.02244883 -0.46653357 1.8229001
0.074445434 -0.46887326 1.8197778
0.12577245 -0.46833718 1.8242748
0.17185116 -0.46622011 1.8270693
0.2247701 -0.46262908 1.8182764
0.25842533 -0.46104598 1.8182681
0.37425748 -0.45707849 1.8167858
0.42090091 -0.45909423 1.8181806
0.48066419 -0.46196118 1.8199695
0.51683652 -0.45973653 1.823651
0.72495043 -0.45668584 1.823168
0.76645797 -0.46238202 1.8192021
0.82984453 -0.47633415 1.8241482
0.87774199 -0.4764773 1.8270439
0.92198986 -0.47128356 1.8304753
0.96836853 -0.47639036 1.82186
1.0239067 -0.48144117 1.8276222
1.0712422 -0.482593 1.8270395
1.1224245 -0.48204106 1.8311594
1.1767732 -0.48204204 1.8300132
1.2199832 -0.48048201 1.8203721
1.2680802 -0.4857249 1.8261192
1.3257641 -0.49138877 1.8184408
-1.2914814 -0.42406395 1.8415008
-1.300271 -0.3718574 1.8423275
-1.2925769 -0.38507372 1.8289114
-1.2913582 -0.22368214 1.8276114
-1.3078468 -0.15829945 1.8362153
-1.3153683 -0.13862678 1.8480608
-1.295318 -0.1010346 1.8217511
-1.306178 -0.068022154 1.8236039
-1.2988573 -0.090424642 1.8071982
-1.3105952 -0.025035769 1.820154
-1.3158939 0.020760667 1.8225191
-1.3218125 0.074372664 1.824556
-1.3222834 0.1254531 1.8229493
-1.3228494 0.1723845 1.8229133
-1.3279483 0.22350468 1.8213125
-1.3329595 0.27471548 1.8195057
-1.3500466 0.30216348 1.8397911
-1.3402076 0.30228314 1.8466424
-1.4573029 0.39195395 1.8041897
-1.4649384 0.42725402 1.8225852
-1.4368629 0.40271765 1.817173
1.0998837 0.44922119 1.8393375
1.1202399 0.44201365 1.8465358
1.1745397 0.44253036 1.8392932
-1.4757713 0.47378924 1.8289984
1.0924129 0.48385879 1.8471384
1.1258163 0.47217146 1.8339216
1.1756302 0.47386166 1.8291243
1.2016379 0.46779314 1.832213
-1.5049839 0.53698534 1.8203835
-1.4856503 0.51474845 1.8258592
1.0359633 0.51700932 1.8444808
1.0876527 0.52614945 1.842796
1.1219547 0.52104765 1.8278477
1.1676617 0.51721632 1.8258564
-1.5237784 0.57833391 1.8247666
1.0888659 0.55099726 1.8318861
-1.5779563 0.64861858 1.8204875
-1.5352938 0.61752343 1.8307753
-1.5677975 0.65133893 1.8406194
-1.7817971 0.78226137 1.8267256
-1.7938423 0.82137823 1.8309181
-1.8065321 0.88458979 1.8279424
-1.7950877 0.85806084 1.8126562
-1.8117311 0.92359662 1.817367
-1.823681 0.97577637 1.8213547
-1.8202442 1.0211042 1.8253138
-1.8234869 1.075873 1.8221461
-1.8235601 1.1272328 1.8256837
-1.8211567 1.1744395 1.8245289
-1.8184563 1.2257001 1.8272138
-1.8171953 1.2750282 1.8265139
-1.8211249 1.3231037 1.8194274
-1.8189425 1.3737699 1.8228152
-1.8193351 1.4269472 1.8165452
-1.8323512 1.473931 1.8364735
-1.8314681 1.5144508 1.8320545
-1.1129863 -0.50257778 1.8809621
-1.08164 -0.50239176 1.8666252
-1.0406361 -0.50124675 1.8690517
-0.97403699 -0.5029155 1.8796675
-0.94537538 -0.50331891 1.8691316
-1.2671777 -0.47909456 1.8911533
-1.2228783 -0.48231038 1.8795372
-1.1938248 -0.47616136 1.8843246
-1.1353239 -0.49202937 1.8737314
-1.0617666 -0.49404925 1.8754573
-1.028541 -0.49861917 1.861961
-0.98907095 -0.49305898 1.8525578
-0.91416484 -0.49412963 1.8701917
-0.88512903 -0.49262843 1.8774611
-0.27697048 -0.46794781 1.8792394
-0.22704813 -0.46789193 1.8768257
-0.1756871 -0.46853346 1.877635
-0.14468139 -0.46855065 1.8849337
-0.0067411461 -0.46090659 1.857796
0.026121054 -0.46697575 1.8744717
0.081971712 -0.47126228 1.8765234
0.12574586 -0.47325885 1.8760567
0.18626432 -0.46887159 1.8838104
0.21976101 -0.46700406 1.8738247
0.25886425 -0.46112657 1.8725824
0.38624951 -0.45697001 1.8536217
0.40721703 -0.46000075 1.8632685
0.48502845 -0.45915991 1.8830251
0.51688784 -0.46017012 1.8658839
0.77878761 -0.46369591 1.8835751
0.83270204 -0.46779498 1.8769115
0.87331933 -0.46641612 1.8759133
0.92897588 -0.46297315 1.878723
0.97603905 -0.46663079 1.878678
1.0216905 -0.4725019 1.8704025
1.0802345 -0.47394872 1.8720373
1.1222448 -0.47343063 1.8859233
1.1751808 -0.47156575 1.8744904
1.2225798 -0.46550837 1.870685
1.2805821 -0.47462657 1.8799568
1.3247778 -0.49188727 1.875721
1.3669202 -0.48982102 1.8640182
-1.3048259 -0.40390676 1.8755755
-1.2882725 -0.41943598 1.8802769
0.88749969 -0.41670433 1.8881048
0.92524046 -0.42508823 1.8748007
0.97226393 -0.41667062 1.8742498
1.0192734 -0.41504341 1.8919476
1.066466 -0.40502959 1.8999546
1.2268349 -0.41640103 1.8937054
1.2737358 -0.41419435 1.8957685
-1.3159238 -0.3740041 1.8800535
0.88846302 -0.37802351 1.8881917
0.92140806 -0.37264848 1.8715491
0.97126448 -0.37351412 1.8725863
1.0278734 -0.37345415 1.8892421
1.0671952 -0.37314057 1.8946841
1.1241391 -0.37278828 1.8974433
1.1834751 -0.37129113 1.8984063
1.2221893 -0.37331897 1.8931611
1.2701551 -0.37847 1.8932179
-1.318049 -0.32806554 1.8841629
0.93002611 -0.33542219 1.8903762
0.976318 -0.33305272 1.888146
1.0205598 -0.33724564 1.8950602
1.0606312 -0.34236202 1.8983628
1.1699829 -0.34939289 1.8990154
1.2295794 -0.34278679 1.8985248
1.2565029 -0.34446144 1.8973366
-1.3164278 -0.27602679 1.8859147
-1.3088648 -0.23213026 1.8830304
-1.2985833 -0.23575278 1.8991187
-1.322155 -0.1798905 1.8846498
-1.3185593 -0.12834631 1.8803529
-1.2911034 -0.1087528 1.8864856
-1.3057387 -0.070253633 1.8725605
-1.2992064 -0.092629246 1.8680116
-1.3123399 -0.024118645 1.8698391
-1.3163414 0.018702663 1.8705337
-1.3199142 0.074022204 1.8725066
-1.3214842 0.12393176 1.8762993
-1.3244551 0.17642118 1.8771843
-1.3270624 0.2236167 1.8799787
-1.3319367 0.27053797 1.8690144
-1.3797786 0.33812925 1.8552226
-1.4434299 0.39585233 1.8799964
-1.4620821 0.42924735 1.8729059
-1.4474956 0.40869862 1.8511683
1.0920177 0.44282961 1.8823956
1.1271698 0.43119526 1.8764646
1.1686592 0.42370835 1.8754001
1.2058748 0.43060657 1.8731605
-1.4713582 0.47597465 1.8756691
1.0463439 0.48481202 1.8845131
1.0724483 0.46982828 1.8683697
-1.5034575 0.54126596 1.8648033
-1.4819553 0.51480585 1.8691216
1.0399472 0.50397164 1.8624088
1.0652486 0.51578063 1.8534428
-1.5188688 0.57123291 1.871069
-1.5589492 0.64107716 1.854936
-1.5270528 0.61345446 1.8705838
-1.7852628 0.78928959 1.87729
-1.8052312 0.83177179 1.8855447
-1.7941502 0.8211484 1.8511734
-1.8106338 0.87375581 1.871856
-1.8175575 0.92805761 1.8721523
-1.8215392 0.97409046 1.8745466
-1.8255286 1.0249935 1.8796141
-1.8239578 1.0750445 1.8734298
-1.8195661 1.1245127 1.8766994
-1.8183836 1.1762792 1.8756424
-1.8142548 1.2234973 1.8722831
-1.8184704 1.270757 1.8744948
-1.8215744 1.3230313 1.8709896
-1.8279672 1.378891 1.8819416
-1.8300186 1.4272957 1.8748331
-1.8373432 1.4752328 1.8740318
-1.8345946 1.5202162 1.8799063
-1.8518635 1.558817 1.8737291
-1.0159595 -0.50134587 1.9281437
-0.97661847 -0.50453073 1.9189583
-1.2641675 -0.46189341 1.9081529
-1.2256154 -0.463947 1.9134202
-1.1825688 -0.46789932 1.9173812
-1.1240857 -0.49368688 1.9236622
-1.0758929 -0.49507332 1.925014
-1.0338451 -0.49490157 1.9242544
-0.91800576 -0.49546704 1.9370232
-0.26688239 -0.4723112 1.9311651
-0.22297637 -0.46927842 1.9223087
-0.18438976 -0.46684074 1.9149946
0.026398165 -0.4694764 1.9202226
0.069748826 -0.47283933 1.931459
0.12295842 -0.4717955 1.920966
0.17264512 -0.47192031 1.9266939
0.23036079 -0.46642497 1.9252231
0.41620126 -0.46074626 1.9059261
0.78826034 -0.46146774 1.9170974
0.82721901 -0.46416962 1.9263095
0.87716687 -0.45831013 1.9295779
0.90751731 -0.45602572 1.9145751
0.98232985 -0.45738369 1.9122851
1.0217333 -0.46098572 1.9167186
1.069536 -0.46209472 1.9286098
1.1258436 -0.46301097 1.9147389
1.1771561 -0.45989487 1.9310654
1.228299 -0.45593244 1.9336871
1.2721384 -0.45907131 1.929561
1.3326586 -0.48072848 1.9251343
1.3683363 -0.48752797 1.9326291
1.4152609 -0.49420798 1.9215698
-1.3092848 -0.40493831 1.9145464
-1.2679292 -0.42149433 1.9123944
-1.2218642 -0.42268768 1.9176966
-1.1996875 -0.44264066 1.9339923
0.87132025 -0.42061257 1.9160507
1.03715 -0.43085608 1.9103113
1.0749831 -0.41925338 1.9069515
1.1284143 -0.42082039 1.913675
1.1778646 -0.42005801 1.91101
1.229964 -0.44592959 1.9382228
1.2682101 -0.43202388 1.9016676
-1.3107201 -0.37184411 1.9110205
-1.2728027 -0.37540284 1.9178922
-1.2315956 -0.37416789 1.9301485
0.869551 -0.37078315 1.9149449
1.0902505 -0.37586516 1.9020965
1.1199418 -0.37901208 1.9029824
1.1724029 -0.37680566 1.9019848
1.2930375 -0.35923904 1.9080091
1.3013016 -0.3508926 1.9217359
-1.3100363 -0.32162258 1.9134878
-1.2719227 -0.32870692 1.9173994
-1.2337708 -0.3259252 1.9292896
0.88626045 -0.33387709 1.9172004
0.92353272 -0.31429994 1.9285074
0.97640413 -0.30896205 1.9230872
1.0282677 -0.31203231 1.9144573
1.0762322 -0.32356048 1.9124079
1.1253186 -0.32646096 1.9127645
1.1728894 -0.32233214 1.9150467
1.2238691 -0.32088041 1.9140282
1.2648938 -0.331487 1.9076973
-1.3105937 -0.27688697 1.907856
-1.2740277 -0.2719464 1.9132992
-1.2305346 -0.27306452 1.9209965
0.99832034 -0.29444242 1.9482294
1.0277903 -0.28847972 1.9410892
1.0717508 -0.29008359 1.9402212
1.1251638 -0.29457334 1.940594
1.1758801 -0.28987575 1.9405987
1.2094766 -0.29352343 1.9381374
-1.3095677 -0.21042752 1.9070263
-1.2735547 -0.21985915 1.9117527
-1.2281076 -0.22638161 1.9245436
-1.3121537 -0.17190874 1.9102497
-1.2733184 -0.17818189 1.9189215
-1.2373213 -0.17967573 1.9306045
-1.3115375 -0.13423435 1.9151554
-1.2793 -0.13948013 1.9304545
-1.2418784 -0.14671832 1.9369462
-1.3070352 -0.075399421 1.9233905
-1.3132173 -0.02787702 1.924594
-1.3189116 0.024197534 1.9240994
-1.3204863 0.073748462 1.9233502
-1.3244361 0.13005003 1.9311768
-1.3232822 0.17611565 1.9295131
-1.3264194 0.22457822 1.9301291
-1.3332628 0.27629438 1.9223828
-1.339048 0.30093816 1.9296817
-1.4610081 0.38861382 1.9376107
-1.4381515 0.35977122 1.932608
1.1388464 0.39412451 1.9470931
1.1583872 0.39485908 1.9428416
-1.4632585 0.42651951 1.9231796
1.0405929 0.4480342 1.9131953
1.0806262 0.43613622 1.9218167
1.1214519 0.41576332 1.9195086
1.1707577 0.41054282 1.9268867
1.2206511 0.42213553 1.9262189
-1.4716978 0.47633457 1.9238769
1.0389878 0.47384679 1.9080319
-1.5067468 0.54846632 1.9008774
-1.4725944 0.52110654 1.9166775
1.0493394 0.50312275 1.9197184
-1.5133413 0.57547069 1.9144086
-1.5187809 0.60809511 1.9249477
-1.7899697 0.79027629 1.920085
-1.8077973 0.82910609 1.9277819
-1.7984883 0.80294037 1.9385973
-1.816415 0.87035471 1.9224963
-1.8210329 0.92693871 1.9238183
-1.8169878 0.97941774 1.9277894
-1.8230065 1.0282862 1.9288552
-1.8230772 1.0735229 1.9269494
-1.8212092 1.1191484 1.9255431
-1.8200022 1.1685754 1.9293213
-1.8230247 1.2247374 1.9245132
-1.8215077 1.2765491 1.9255419
-1.8208331 1.3266671 1.9103168
-1.8337917 1.3757788 1.9245631
-1.8399585 1.4285674 1.9283625
-1.845034 1.4823619 1.9232845
-1.8456604 1.5298028 1.9310403
-1.8543799 1.5587229 1.9097538
-1.8331015 1.5638243 1.937409
-1.0172192 -0.50443065 1.9924974
-0.98147905 -0.50610012 1.975566
1.466377 -0.50064278 1.9932396
-1.1511066 -0.49112767 1.9806402
-1.1298097 -0.49084833 1.9699636
-1.0867779 -0.49445111 1.9697437
-1.0121785 -0.4967913 1.9584138
-0.27767926 -0.47574368 1.9755915
-0.23202498 -0.47216272 1.9748878
0.011959403 -0.46743658 1.9640578
0.083709083 -0.46851563 1.9674492
0.13243571 -0.47139448 1.977764
0.17941439 -0.47130838 1.982017
0.21635211 -0.46929494 1.9640113
0.27805257 -0.46409631 1.9792647
0.43041009 -0.45926633 1.9617765
0.4937478 -0.46167672 1.9849004
0.54584211 -0.46794343 1.9734894
0.56020528 -0.46571717 1.9759685
0.81876737 -0.46334556 1.9654837
0.88948905 -0.458545 1.9712014
1.0755444 -0.45803541 1.9547206
1.1280748 -0.45721889 1.9570502
1.1564033 -0.45483318 1.9611472
1.3155946 -0.46101773 1.9818041
1.397049 -0.48643792 1.9527619
1.4148962 -0.49268195 1.9778302
-1.2231754 -0.40473744 1.9566641
0.88900131 -0.44810668 1.971795
1.1003298 -0.44924709 1.9551181
-1.2232637 -0.38879091 1.9592652
-1.2293286 -0.31299466 1.9569951
-1.238395 -0.28315407 1.9750922
0.93981558 -0.29364341 1.962712
0.98203969 -0.28159997 1.9759201
1.0215223 -0.26809508 1.9621717
1.078781 -0.26748902 1.9609572
1.1262318 -0.26493374 1.9661062
1.1683804 -0.26982242 1.9637152
1.2235945 -0.29163921 1.9613392
-1.234332 -0.23136854 1.9810753
1.0293403 -0.23096541 1.9852546
1.0749477 -0.22910295 1.9804196
1.1250377 -0.22406924 1.9855459
1.1576848 -0.22700436 1.9869283
-1.2565372 -0.15036666 1.9927998
-1.2418687 -0.17517129 1.9678746
1.0375586 -0.18022054 1.9917866
1.0722477 -0.17714794 1.9936119
1.1197361 -0.18736233 1.9958565
-1.3033311 -0.1138956 1.9748236
1.0728664 -0.12656769 1.9975327
1.1153951 -0.12582818 1.9954677
-1.3065658 -0.074958071 1.9701526
-1.3144381 -0.02388493 1.9710443
-1.3186297 0.021910993 1.9718205
-1.3222103 0.076046921 1.976083
-1.3221507 0.12472039 1.9740657
-1.323388 0.17357546 1.9729944
-1.3282219 0.22601189 1.9748751
-1.3299048 0.2748937 1.9749902
-1.4574169 0.38651547 1.966187
-1.4484361 0.36884704 1.9675248
1.0325323 0.39593402 1.9965262
1.0687956 0.39212802 1.9952726
1.1346264 0.3907195 1.9823347
1.1687709 0.38073242 1.9744688
1.2103533 0.3939386 1.9762597
-1.467466 0.42301702 1.9740672
0.9436968 0.42421263 1.991731
1.0349811 0.42577806 1.9968563
1.0701814 0.42670882 1.9733205
1.1205389 0.41062972 1.9774959
1.190185 0.40321884 1.9579444
1.2340591 0.41293305 1.9702858
-1.4757024 0.47362655 1.974969
-1.486172 0.51021236 1.9950392
-1.8073483 0.79995912 1.9761446
-1.7774701 0.77097368 1.9614704
-1.8202929 0.8371352 1.9788748
-1.7983967 0.80842882 1.9619064
-1.8209267 0.87508792 1.9764298
-1.826769 0.92442662 1.9793329
-1.8211228 0.97035795 1.9704499
-1.8171873 1.017751 1.9714893
-1.818511 1.0714127 1.9685962
-1.8217075 1.1246146 1.9781011
-1.8221161 1.1752827 1.9788315
-1.8276994 1.2217649 1.971326
-1.8191538 1.2689534 1.9711963
-1.8383131 1.3289337 1.9776217
-1.8364964 1.3763618 1.9698752
-1.8414795 1.4230124 1.9682261
-1.844339 1.4721171 1.9775469
-1.843508 1.5240157 1.9671872
-1.8383429 1.5545294 1.9520429
-1.0618726 -0.5000785 2.0070751
-1.0057638 -0.50398105 2.020606
-0.98991954 -0.50662887 2.0127692
1.5748991 -0.50388104 2.0155158
1.8473562 -0.50107247 2.0479734
-1.1306632 -0.4925634 2.0306091
-1.0950247 -0.4972353 2.034651
-1.0071992 -0.49938619 2.0243361
-0.26037437 -0.47607601 2.0325837
-0.23179241 -0.4751054 2.0306749
-0.19437049 -0.48226836 2.0202267
0.035326157 -0.47935438 2.0283949
0.069959052 -0.47814465 2.0298705
0.11086039 -0.47857928 2.0261617
0.16994929 -0.47274256 2.0245674
0.23037159 -0.47046411 2.0181389
0.27033985 -0.46950182 2.0328743
0.54376465 -0.465918 2.0185249
0.57306135 -0.46438307 2.0297008
0.83516902 -0.46004149 2.0214071
0.87084293 -0.46491867 2.0083115
0.90763712 -0.45752573 2.0406909
1.4051375 -0.48979044 2.0332482
1.4926524 -0.49996784 2.0426288
1.5014727 -0.49902186 2.0319092
0.97526854 -0.26930511 2.0062711
1.2243813 -0.28078088 2.00914
-1.2640617 -0.22000711 2.0455723
-1.2394369 -0.22652155 2.0048318
0.99311846 -0.24567688 2.0076635
1.0086877 -0.22127244 2.0172863
1.1730604 -0.21889579 2.0083585
1.0213652 -0.17525998 2.0168345
1.1303064 -0.16580473 2.0016372
1.1711965 -0.16970925 2.0240951
-1.3032032 -0.11277124 2.0158889
1.0253874 -0.12414139 2.0200803
1.0747255 -0.1217927 2.0012295
1.1397097 -0.1225296 2.0046706
1.1631383 -0.13898647 2.0233514
-1.3135217 -0.074681245 2.0263588
1.0263084 -0.075450063 2.0303271
1.0740191 -0.073281042 2.0134223
1.1240482 -0.072084114 2.0165331
1.1580312 -0.079952992 2.0245872
-1.3171762 -0.028251778 2.024714
1.0384387 -0.030273966 2.0400388
1.0753136 -0.025267962 2.0321801
1.1236902 -0.026404686 2.034668
1.1552418 -0.032049313 2.0440111
-1.3226416 0.022354838 2.0218937
0.88602954 0.020668799 2.0268123
0.92603225 0.024878519 2.043817
0.95385736 0.031539246 2.0456934
1.0760071 0.0068865954 2.0451419
1.1143306 0.0078865318 2.0449009
-1.3207157 0.077229679 2.017873
0.92116177 0.054316383 2.0471151
0.95555609 0.05253502 2.0490289
-1.3245869 0.12704803 2.0218282
-1.3254234 0.17670229 2.020175
0.91676551 0.15598732 2.0389254
-1.3258908 0.22472231 2.0239928
-1.3356103 0.27253035 2.0275676
0.9184792 0.27076843 2.0341678
-1.3530475 0.30292103 2.0395679
1.0398217 0.34236947 2.0497453
-1.4744792 0.38410485 2.0243096
0.89413816 0.35263872 2.0236397
0.91833049 0.38960728 2.0471013
0.97231561 0.39300355 2.0495727
1.0175114 0.38009763 2.0305614
1.1324323 0.38992831 2.0146883
1.2135696 0.38038373 2.0126867
-1.4728189 0.41802996 2.0164928
0.93152916 0.4121542 2.0309083
0.97979945 0.41932744 2.0297973
1.0143731 0.4210985 2.0087106
1.0824112 0.42725024 2.0078192
1.1051791 0.42103702 2.0039968
-1.4879845 0.47430187 2.0279446
-1.506191 0.51524115 2.0458755
-1.8070017 0.79277444 2.00387
-1.7961651 0.77433991 2.0306995
-1.8180116 0.82256889 2.0221639
-1.8212395 0.87272549 2.0191519
-1.827474 0.92267865 2.0230861
-1.8297591 0.97892898 2.0282011
-1.82276 1.0244825 2.0287709
-1.8258623 1.0723886 2.0233605
-1.8271706 1.1213772 2.0246511
-1.8322315 1.1793854 2.0307436
-1.8312051 1.2303519 2.0220776
-1.8367974 1.2745297 2.0245938
-1.8500937 1.3231156 2.0482917
-1.8392463 1.31391 2.0215898
-1.8556696 1.3681601 2.0308475
-1.8467321 1.3922303 2.0347707
-1.8422074 1.4283494 2.0220735
-1.8501542 1.4675471 2.026762
-1.846458 1.4812078 2.0343139
-1.8526521 1.5225703 2.0292792
-1.8382624 1.524541 2.0045633
-1.8599216 1.5698322 2.0216715
-1.8302805 1.5691286 2.0297189
-1.0636091 -0.50570381 2.060914
-1.0454793 -0.50752079 2.0674419
1.4695837 -0.50005674 2.0564318
1.5595461 -0.51040506 2.0639236
1.6443968 -0.51006079 2.0834906
1.6602969 -0.50932705 2.0685511
1.7230711 -0.50306779 2.0663292
1.797105 -0.5011127 2.0856161
1.8618304 -0.50846696 2.0879107
-1.1199275 -0.49226665 2.0709484
-1.0834244 -0.49905702 2.0671322
-0.2830433 -0.48450035 2.089787
-0.23507127 -0.47529185 2.0763993
-0.19801964 -0.47629863 2.0604906
0.0025701004 -0.47509587 2.0843267
0.075548917 -0.47751793 2.0713527
0.11965277 -0.47864798 2.0673707
0.17503408 -0.47672242 2.0866315
0.22515064 -0.47544062 2.0778069
0.29375315 -0.48008826 2.0926397
0.57280499 -0.46701896 2.07464
1.4175496 -0.48139873 2.0693266
1.452178 -0.49808779 2.054882
1.5145448 -0.49939781 2.0981236
1.8873723 -0.4991132 2.0949709
-1.2797797 -0.42153352 2.0714393
-1.3019533 -0.3400504 2.0953889
-1.2964256 -0.27082741 2.0939355
-1.1737051 -0.29940543 2.0977631
1.0013642 -0.25477597 2.0576434
-1.3040193 -0.20246424 2.0884275
-1.2892509 -0.21223816 2.0756481
1.0091926 -0.21953754 2.0595326
-1.3024857 -0.18534744 2.0871377
1.0185791 -0.17083946 2.073513
-1.3068289 -0.11685992 2.0667968
1.0230504 -0.12555672 2.0935194
1.1903162 -0.13046871 2.0555468
-1.3131491 -0.076569296 2.0714681
0.98185474 -0.055285703 2.0842164
1.0055339 -0.071525365 2.0668457
1.1863472 -0.076206304 2.0622599
1.2566888 -0.066877037 2.0997827
-1.3256613 -0.026616013 2.0787935
0.93659914 -0.020929396 2.0685744
0.97498339 -0.027802566 2.0721788
1.0150636 -0.024844041 2.0639248
1.179793 -0.028921425 2.071465
1.2300224 -0.010824 2.0911176
1.2701188 -0.025244515 2.0889633
-1.3264611 0.022758996 2.0731196
0.916345 0.0053792815 2.0555587
0.98383003 0.018154742 2.0735924
1.0246707 0.021064313 2.0652344
1.0721446 0.032299161 2.057018
1.128685 0.030229539 2.0595515
1.1654691 0.020569583 2.0757563
1.2365671 0.00028501541 2.0903916
1.2659547 0.015217925 2.0921721
-1.3253806 0.071432404 2.0743904
0.92796475 0.078297958 2.0567617
0.9706192 0.074563876 2.0806623
1.0281005 0.069551565 2.0883284
1.0732706 0.076703057 2.0755031
1.1207267 0.074762046 2.0780931
1.1580272 0.063376069 2.0901937
1.2695937 0.061957799 2.0975633
-1.3261535 0.12371461 2.0698466
0.92424834 0.12802438 2.0632565
0.95308942 0.126894 2.0674765
1.0750189 0.11252332 2.0956297
1.115186 0.11388151 2.0942237
1.2481689 0.10036645 2.084384
1.2722995 0.1407336 2.0991168
-1.3281382 0.17445041 2.0701168
0.92706281 0.17424347 2.0709908
0.96289146 0.17302455 2.0796824
1.0849309 0.19375779 2.0958939
1.1179786 0.19304277 2.0951834
-1.3302116 0.22154619 2.0756931
0.92783314 0.2213463 2.0749853
0.96182799 0.22796594 2.0847573
1.0455617 0.24462211 2.0970891
1.070967 0.22102776 2.0931702
1.1224036 0.21290283 2.0899482
-1.3346124 0.27120841 2.0722251
0.8930738 0.27776483 2.0568175
0.92674208 0.27479389 2.0664952
0.97134131 0.27856442 2.0763803
1.0325211 0.27889961 2.0847254
1.0527687 0.26002163 2.0844915
0.92411697 0.32658133 2.0576763
0.97541523 0.32385403 2.0716949
1.0232439 0.32186863 2.0719645
0.93420088 0.37301987 2.0524783
0.97531873 0.37077099 2.059016
1.0172461 0.35940847 2.0586598
-1.5011464 0.44700313 2.075254
0.93297124 0.40191552 2.0513055
-1.5074056 0.48429176 2.0774682
-1.4982871 0.45788285 2.0692329
-1.5041622 0.51266325 2.0672767
-1.8071122 0.79067975 2.0739613
-1.8172299 0.82746929 2.0682518
-1.8253741 0.87627059 2.0766797
-1.8249332 0.92147452 2.0744872
-1.8245091 0.97037685 2.0730977
-1.824854 1.0270857 2.080066
-1.8293473 1.0709133 2.0745568
-1.8307198 1.1246533 2.0755191
-1.8328394 1.1737738 2.0715761
-1.851802 1.2424045 2.0946507
-1.8356199 1.219855 2.070256
-1.8388116 1.2722964 2.0749211
-1.8417828 1.3234437 2.0731671
-1.8503923 1.3726256 2.0680008
-1.845199 1.3717728 2.0829153
-1.8548194 1.4070833 2.0871172
-1.8439549 1.425007 2.0757408
