ply
format ascii 1.0
comment PCL generated
element vertex 1523
property float x
property float y
property float z
element camera 0
property float view_px
property float view_py
property float view_pz
property float x_axisx
property float x_axisy
property float x_axisz
property float y_axisx
property float y_axisy
property float y_axisz
property float z_axisx
property float z_axisy
property float z_axisz
property float focal
property float scalex
property float scaley
property float centerx
property float centery
property int viewportx
property int viewporty
property float k1
property float k2
end_header
1.2787589 0.071953811 3.6140862
0.34938559 0.12081362 3.6035233
0.37625632 0.12113629 3.6113269
0.40332142 0.12146845 3.6196544
0.34940737 0.17257451 3.6023359
0.37822539 0.17657861 3.6119428
0.40231386 0.17306806 3.609201
0.54759681 0.19280288 3.6425478
1.9643911 0.19066828 3.6375778
0.34383228 0.2244335 3.6026306
0.37607455 0.21614277 3.6066628
0.61376315 0.21771616 3.6111493
0.68393463 0.20916933 3.6060805
1.8726317 0.22678845 3.6346276
1.9365957 0.22292182 3.6271768
1.9594347 0.20916508 3.6276224
0.37805071 0.28031647 3.6059937
0.42201146 0.27847809 3.6239917
0.46944371 0.27277559 3.6377437
0.63441116 0.29757103 3.6239648
0.37114048 0.33202833 3.6161566
0.42098117 0.32680967 3.6342466
0.63405377 0.31489348 3.620939
0.33294669 0.39778572 3.6002545
0.36652637 0.3794969 3.6106827
0.42429429 0.36990285 3.6382005
0.33331788 0.43285459 3.6016362
0.37216091 0.4224332 3.6168306
0.42487708 0.42047796 3.6396153
0.46092805 0.40387329 3.6464727
0.61786491 0.43824577 3.6220844
0.33394721 0.45970166 3.6063042
0.36981571 0.46983454 3.6146114
0.42290264 0.47107032 3.637573
0.61530679 0.4887962 3.6026163
0.33410347 0.53799736 3.6008654
0.370206 0.52257216 3.6135585
0.42599022 0.5269624 3.640105
0.33454409 0.57346779 3.6020517
0.37104928 0.57614577 3.6165805
0.42445537 0.58056366 3.6406336
0.37182176 0.62982774 3.6182811
0.42340285 0.62318283 3.6385427
0.33593783 0.68055564 3.6049979
0.37244344 0.67470914 3.6192815
0.41710979 0.67018813 3.6402314
0.33055636 0.72802275 3.6040046
0.37306595 0.71972531 3.6196582
0.42357016 0.72209853 3.641196
0.33698657 0.77021509 3.6045492
0.37376201 0.77379352 3.6189864
0.42016447 0.77837151 3.6372674
0.33093205 0.82153785 3.6079421
0.37509501 0.82953799 3.6242626
0.41780683 0.82081562 3.6366081
0.33477852 0.88531977 3.6113784
0.37616488 0.87612414 3.6275485
0.4130992 0.87059259 3.6403043
0.33061072 0.92561269 3.6075506
0.37661484 0.92149574 3.6245842
0.41473755 0.92756778 3.6458826
0.33617252 0.97749472 3.6111379
0.37782946 0.97778404 3.6268222
0.41565326 0.97430164 3.6461074
0.32849032 1.0277715 3.6082218
0.37924454 1.0260645 3.6321335
0.32418838 1.0745448 3.6081636
0.3803241 1.0737423 3.6337259
0.33013901 1.1194332 3.6088912
0.36995777 1.125018 3.6280053
0.40046507 1.115875 3.6459343
0.32590592 1.1785176 3.606606
0.37306869 1.1685765 3.6322558
0.401914 1.1650789 3.6495128
0.32737124 1.2286268 3.6125557
0.37276736 1.2310609 3.634006
0.29195672 1.2934921 3.6054735
0.32636437 1.2760994 3.616334
0.37603563 1.2775495 3.6382241
0.40387106 1.2615263 3.6466441
0.28641239 1.3194666 3.6052964
0.33270454 1.3254716 3.6216202
0.3757593 1.3246886 3.6430821
0.40537509 1.3117669 3.6491926
0.28634682 1.3692656 3.6081891
0.32587662 1.3811413 3.6191928
0.36948586 1.3774413 3.6406119
0.27965081 1.4225769 3.6019387
0.32380453 1.4318652 3.6281302
0.35892066 1.4417597 3.6424532
0.28829855 1.4768925 3.605999
0.3248291 1.4730361 3.6295161
0.3600755 1.4831491 3.6437914
0.28349593 1.522311 3.6148424
0.32619908 1.5252701 3.6316795
0.35476601 1.520416 3.6430206
0.27748433 1.5752324 3.61201
0.32800826 1.5799476 3.6380453
0.35571671 1.5614514 3.641814
0.2250126 1.6346134 3.6012006
0.27210411 1.6323886 3.6172929
0.31967115 1.6213716 3.6371324
0.35741746 1.6153421 3.6449769
0.23547727 1.6804626 3.6083376
0.27357903 1.6784015 3.6249838
0.3097944 1.670799 3.6389308
0.23451979 1.7313788 3.6071944
0.27428889 1.7200236 3.6221731
0.31054294 1.7352281 3.6445456
0.22817087 1.7785155 3.6106021
0.27431232 1.7749478 3.6323464
0.30530816 1.7754645 3.645241
0.22922593 1.8241391 3.6137841
0.27716082 1.8226717 3.6305537
0.30666488 1.8211229 3.6480589
0.18299612 1.895359 3.60221
0.22385068 1.8719147 3.6130512
0.26971212 1.8877786 3.6378772
0.19294178 1.9292305 3.6016078
0.22172286 1.924544 3.6129398
0.27048901 1.9262919 3.6353695
0.16847916 1.9710503 3.602206
0.22312818 1.9747528 3.6209154
0.26712483 1.9745506 3.6397212
0.18834503 2.0257266 3.6023285
0.22408289 2.0214577 3.6211398
0.26037326 2.0253503 3.6404259
0.18649398 2.0750847 3.6131144
0.22533509 2.0710115 3.6251924
0.2615492 2.0667124 3.6438024
0.18714657 2.1207075 3.6090915
0.22886693 2.128242 3.6325965
0.25644946 2.1193471 3.6451139
0.18228339 2.1675758 3.6103985
0.22809277 2.1837549 3.6313517
0.26372615 2.1615436 3.6404791
0.18903971 2.2197373 3.61061
0.22893679 2.2308264 3.6269722
0.26493683 2.2105463 3.6396914
0.1898485 2.2682416 3.6078277
0.22993748 2.2797096 3.6243401
0.26676473 2.2715604 3.6433163
0.22054577 2.3227751 3.6118677
0.26920962 2.3233144 3.63853
0.23111755 2.3603599 3.6093347
0.27355522 2.3741457 3.6201539
0.31586897 2.3781619 3.6384547
0.33188158 2.4076376 3.6150899
0.36838642 2.4055016 3.6158218
0.41798216 2.4134467 3.6270776
0.47759786 2.4233043 3.6329365
0.52362472 2.424 3.6222765
0.57451802 2.428436 3.6230297
0.62624276 2.4252186 3.631891
0.67671978 2.4367096 3.6218395
0.72371358 2.4379771 3.6269813
0.7815299 2.4410276 3.6326363
0.81975514 2.4346051 3.6160731
0.87828863 2.4384913 3.6217785
0.92721373 2.4427812 3.6294005
0.97161776 2.4423692 3.6408899
1.0130198 2.4441135 3.6346781
1.0738953 2.4437146 3.6201015
1.1260452 2.4464152 3.6117177
1.1729081 2.4438262 3.6284893
1.2181504 2.4473152 3.6332207
1.3589926 2.4397931 3.6255066
1.4341824 2.4446347 3.6099634
1.4573433 2.4487636 3.6092789
1.548372 2.4407351 3.6113372
1.5688734 2.4401996 3.6031413
1.6726806 2.4492729 3.6282916
1.7290757 2.4438686 3.6213272
2.0147548 2.4425828 3.6225095
1.0463089 2.4505639 3.6373878
1.2278064 2.4562449 3.6228824
1.2760315 2.4598234 3.6375041
1.3125839 2.4509358 3.6124763
1.3996757 2.4567475 3.6410923
1.4169037 2.4505579 3.6253762
1.4894214 2.4675508 3.6300106
1.5230798 2.4586692 3.6192265
1.6326582 2.4577994 3.6098967
1.6572809 2.4577231 3.6488156
1.7007639 2.4593756 3.6351068
1.781426 2.4577193 3.6247051
1.8293797 2.4544201 3.6238437
1.8977839 2.4525716 3.6419756
0.48111019 -0.45888364 3.6614623
0.52453142 -0.46656075 3.6832571
0.55812299 -0.46420243 3.6973267
0.6213032 -0.46470338 3.6947837
0.98095167 -0.4717989 3.6714516
0.49187937 -0.42373481 3.6645312
0.52741003 -0.43031535 3.6874948
0.99925911 -0.4248358 3.6872425
1.0112298 -0.43126264 3.6610687
2.349314 -0.41659582 3.6543331
2.4212401 -0.42218471 3.6834989
0.48329806 -0.37230435 3.684618
0.5112707 -0.37330082 3.6921093
1.0077029 -0.38236216 3.6795998
2.3476124 -0.39644364 3.6533558
2.3877921 -0.38982141 3.6756282
2.4218774 -0.36188212 3.6893501
0.48220137 -0.31837127 3.6794827
0.51095855 -0.31978384 3.6931069
1.0140239 -0.32424 3.6785927
2.3829086 -0.33907723 3.6718681
0.48287952 -0.27454972 3.6869714
0.51087576 -0.27530384 3.6948299
0.99963516 -0.2712329 3.6982465
1.0128208 -0.26996052 3.6771097
2.3829517 -0.28913844 3.6751442
0.47803652 -0.22564328 3.6862936
0.50825614 -0.226953 3.6908984
0.99873519 -0.22580174 3.6969113
1.015299 -0.22710885 3.66524
2.4054608 -0.239418 3.671746
0.47521791 -0.17689495 3.6869698
0.5056361 -0.17287345 3.6933854
0.99881655 -0.18063258 3.6988201
1.0110966 -0.17962573 3.6744678
2.3769481 -0.18873748 3.6707442
0.47316679 -0.1237478 3.6862307
0.50536537 -0.12847239 3.6925778
0.99744904 -0.1442803 3.6948216
1.0167391 -0.14318177 3.6618924
1.2201054 -0.12681118 3.6695058
1.261063 -0.10906552 3.6751854
0.47289166 -0.070623577 3.6849682
0.50530589 -0.075283468 3.6930559
1.2695183 -0.07261245 3.6718044
0.4712829 -0.026356906 3.6726265
0.50685281 -0.023561751 3.693861
1.2749969 -0.017955665 3.6596365
0.47892055 0.019931844 3.6800742
0.51430315 0.013365626 3.6936812
1.2728459 0.018440645 3.6818295
0.47293231 0.070761502 3.6852729
0.51005548 0.071021333 3.6948893
1.272148 0.073136233 3.6793287
0.4760814 0.12111022 3.6789434
0.50745171 0.130238 3.696687
1.2814302 0.11875325 3.676722
0.48107934 0.16774724 3.6769502
0.53222477 0.19358267 3.6590145
1.9499966 0.19111356 3.6536903
0.48787355 0.2901175 3.6559153
0.52476299 0.28225809 3.6653137
0.57177383 0.28370318 3.679673
0.47985938 0.32578659 3.6605155
0.52636588 0.31851101 3.6745317
0.57293314 0.31982011 3.6852405
0.60957122 0.3115052 3.6888592
0.66516 0.30362114 3.6955345
1.0752263 0.34040761 3.6914468
1.1096722 0.32625186 3.6789463
2.3208065 0.30002955 3.6995249
0.44340163 0.36878157 3.6506011
0.47771606 0.36763591 3.6584854
0.52354866 0.37480786 3.6782222
0.57475948 0.37430376 3.6936908
0.66556418 0.3842034 3.6927874
1.0872518 0.36407161 3.6982481
0.4807646 0.42340764 3.6608293
0.52431136 0.42858905 3.6797314
0.57526857 0.41741353 3.6937935
0.62600374 0.43515408 3.670541
0.66650283 0.41158503 3.6960781
0.44450533 0.49291757 3.6500745
0.47242501 0.47683772 3.6610737
0.52018648 0.48016798 3.682663
0.4730731 0.53053766 3.6612663
0.52030784 0.52474928 3.6795502
0.55870402 0.50062603 3.6974576
0.61343008 0.5015294 3.6984715
0.4457854 0.58260554 3.6519773
0.47443005 0.57640171 3.6673591
0.52181458 0.57086158 3.6856651
0.44633102 0.63634545 3.6505759
0.47480294 0.62122393 3.6653683
0.52299547 0.62579036 3.6882977
0.44267708 0.67285335 3.6529694
0.47567812 0.67570919 3.6658535
0.5206849 0.67461902 3.6845253
0.44832546 0.73683691 3.654675
0.47628006 0.72999287 3.6637506
0.52686733 0.71962094 3.6883302
0.44934076 0.77411282 3.6580458
0.47740209 0.77632666 3.6662874
0.51592106 0.7716257 3.6844692
0.44388437 0.81945658 3.6559231
0.47486094 0.82568294 3.6694601
0.51785368 0.82855827 3.6904628
0.4325172 0.87394613 3.6528938
0.47000211 0.87727976 3.6638663
0.52788901 0.87526661 3.689698
0.43355498 0.92967153 3.6527731
0.47165295 0.92525548 3.6692293
0.52935904 0.92071962 3.6929977
0.43547997 0.97869945 3.6611223
0.47291729 0.97281414 3.6713383
0.51242661 0.97951061 3.6934633
0.42704651 1.0248765 3.6580837
0.47225419 1.0258497 3.6774738
0.51380652 1.0367244 3.6933603
0.4262476 1.0777442 3.6570148
0.47868621 1.0730304 3.6808643
0.52253234 1.0724484 3.6965504
0.42651582 1.1272563 3.6602669
0.47527215 1.1256199 3.6798739
0.51664841 1.1247704 3.6974351
0.38559911 1.1975921 3.6614473
0.42451659 1.1783704 3.6590869
0.48205155 1.1740837 3.6845772
0.51730841 1.1628315 3.6944299
0.38548782 1.2153888 3.6563058
0.42560801 1.2241243 3.662786
0.46930519 1.222175 3.6821132
0.50059223 1.2124699 3.6978681
0.42725345 1.2771297 3.6615484
0.47556376 1.2731063 3.6919155
0.50213987 1.2715075 3.696559
0.4333117 1.3289248 3.6764219
0.47035807 1.323498 3.6908119
0.38819972 1.3518323 3.6511703
0.42491367 1.3737794 3.6689286
0.47814855 1.372509 3.6890881
0.38137299 1.4243655 3.6570182
0.43178135 1.4246089 3.6735537
0.46811774 1.4183228 3.6873474
0.38796693 1.4779154 3.6628377
0.42135227 1.4724267 3.6722403
0.45848551 1.4858242 3.6942108
0.38458285 1.5290065 3.6616037
0.42139283 1.5218271 3.6766963
0.46279725 1.5239866 3.6938038
0.38675877 1.5749451 3.6712809
0.42780381 1.5764486 3.6864438
0.46364114 1.5548408 3.6922679
0.37904638 1.6257788 3.6739764
0.42383018 1.6202793 3.6835215
0.34156919 1.675095 3.6605129
0.3760317 1.6728836 3.6674411
0.4240202 1.6734428 3.6936741
0.33503729 1.7229875 3.657022
0.37290558 1.7276253 3.6783414
0.4123511 1.7252747 3.6937401
0.33493671 1.7831461 3.6591949
0.37381777 1.7697202 3.674458
0.40420425 1.7785802 3.6906986
0.33645749 1.829161 3.6623466
0.37635145 1.8293357 3.6825285
0.28953201 1.8700838 3.6573153
0.32877511 1.8772224 3.6689415
0.37545398 1.8852898 3.6890688
0.32319137 1.9232155 3.6627271
0.37403721 1.9269177 3.6869495
0.40934789 1.9071891 3.6995451
0.28257143 1.9826945 3.6539404
0.32135779 1.9761461 3.6610427
0.37461704 1.9757822 3.6878221
0.28699777 2.0265799 3.6554129
0.32312992 2.0256886 3.6658244
0.37351558 2.0275803 3.6873846
0.41354725 2.0241017 3.6996984
0.28895432 2.0857604 3.6618137
0.32517314 2.077301 3.6729145
0.36545721 2.0758371 3.6889338
0.28668159 2.1282511 3.6587803
0.32643881 2.1243827 3.6706672
0.36419415 2.1297028 3.6914501
0.29115623 2.1796539 3.6556292
0.3300375 2.1781261 3.6700428
0.36931124 2.1765909 3.6941621
0.28969944 2.2293093 3.6623802
0.31998473 2.2350898 3.6700149
0.36702347 2.2187567 3.6883066
0.28009275 2.2605088 3.652101
0.32121858 2.2731075 3.6699505
0.3730261 2.2781291 3.6952331
0.32511711 2.3255 3.6660929
0.37387052 2.3231397 3.6846411
0.41228822 2.3371055 3.696892
0.34331888 2.3686552 3.6557984
0.37431565 2.3758242 3.6645527
0.42690828 2.3808467 3.6885986
0.46881178 2.3998771 3.6937137
0.42642775 2.4083118 3.6694164
0.47751814 2.4130812 3.6719205
0.52810413 2.414746 3.6691065
0.58082426 2.424679 3.6783018
0.62143862 2.4257069 3.6747332
0.67818296 2.4246051 3.6756847
0.72749424 2.4424024 3.6854904
0.77794009 2.4359636 3.6779673
0.82048625 2.4399805 3.6805239
0.8740111 2.4375131 3.6670506
0.91619778 2.4369202 3.6865637
0.97110265 2.4463601 3.6904709
1.0166925 2.4324944 3.6586473
1.0748723 2.4487033 3.6714029
1.1868141 2.4468901 3.6854026
1.205321 2.442394 3.6732581
1.3420231 2.4446046 3.6843476
1.4376267 2.4474111 3.6597686
1.4772736 2.4401608 3.6816072
1.5020123 2.4462142 3.6838129
1.5608015 2.43929 3.6519032
1.7293386 2.4423463 3.6928236
1.7875706 2.448812 3.6814501
1.8262377 2.4454708 3.6765907
1.8670471 2.4471025 3.6966639
1.9329364 2.4483507 3.6705558
1.078015 2.4559054 3.6821535
1.1341885 2.465848 3.6847115
1.233042 2.4564061 3.688817
1.2665123 2.4607971 3.6868978
1.3191923 2.4619327 3.6738465
1.379663 2.4558487 3.6919155
1.410934 2.4555111 3.6817937
1.4835442 2.4541855 3.65627
1.5315758 2.4555578 3.6740391
1.5949873 2.4596033 3.6748366
1.6315771 2.454386 3.6687956
1.6780376 2.4513767 3.6788063
1.7099202 2.4512904 3.6665361
1.7675266 2.4507785 3.6929865
1.8670474 2.4545598 3.6588531
1.9576231 2.4521611 3.6666164
0.74519145 -0.50565815 3.7158921
0.7841441 -0.5074935 3.724448
0.82324231 -0.50923431 3.7320616
0.59184295 -0.46130791 3.7196028
0.6279726 -0.45162243 3.735888
0.66216701 -0.46438906 3.7370956
0.97951794 -0.45541811 3.7180991
0.54019344 -0.41058069 3.7027025
0.57404262 -0.42825904 3.7193112
0.61959106 -0.42947969 3.7424655
0.9806304 -0.41944432 3.7251208
2.4815569 -0.40696704 3.7147915
0.54043627 -0.37503186 3.7068117
0.57940555 -0.37711936 3.7238474
0.62385362 -0.37506437 3.7442834
0.98056608 -0.37381229 3.7280767
1.0016379 -0.36241046 3.70052
0.53950983 -0.32090065 3.7037175
0.57864612 -0.3228195 3.72223
0.62652057 -0.3289471 3.7465529
0.97860438 -0.32756895 3.723419
1.002467 -0.3264201 3.7058001
2.4698529 -0.31507331 3.724587
2.5376065 -0.34931889 3.74124
0.53892058 -0.27602208 3.7020068
0.57856405 -0.26895115 3.7244787
0.61829472 -0.26164269 3.7447772
0.97940022 -0.27316716 3.7293813
1.0006565 -0.271512 3.7019961
2.4578421 -0.26287049 3.7094674
0.53460664 -0.23601301 3.7051277
0.57889497 -0.22425568 3.72859
0.61797458 -0.22542551 3.7443547
0.97683787 -0.22702433 3.7216463
2.4752665 -0.22309175 3.7170494
2.5076706 -0.20445979 3.746105
0.53185093 -0.18161818 3.7067287
0.57943463 -0.17956111 3.733634
0.61775404 -0.18025486 3.7445796
0.97974044 -0.18141575 3.7188377
2.4723399 -0.17509949 3.7078905
2.5367298 -0.1639764 3.7495968
0.53197134 -0.12109578 3.7091498
0.57854718 -0.12547991 3.7292132
0.61784893 -0.12618108 3.7465708
0.97513902 -0.14499424 3.7178059
1.1825153 -0.12865499 3.7346296
1.2181989 -0.12236961 3.7232199
1.2505479 -0.10974506 3.7021773
0.5316726 -0.067598693 3.7078795
0.57866365 -0.071676612 3.7309718
0.61778998 -0.072068974 3.7471168
1.2459229 -0.055393204 3.7483404
1.2543588 -0.073305547 3.7140293
0.53284448 -0.029603818 3.7080262
0.57899666 -0.026851261 3.7334988
0.61786926 -0.026978269 3.7479706
1.2651851 -0.02740838 3.7172089
0.53869075 0.017863413 3.7069232
0.57877725 0.018017758 3.732024
0.61774552 0.018120358 3.7472043
1.2435489 0.018673459 3.7413919
1.2576343 0.01861503 3.724124
0.53939909 0.071414582 3.7113426
0.57813084 0.071766309 3.7274709
0.61774999 0.072227493 3.7467787
1.2464266 0.055783194 3.7497735
1.257676 0.073893487 3.7237427
0.53165495 0.1247317 3.7066994
0.5780682 0.12552784 3.7261047
0.61793166 0.12636019 3.7469063
1.2654657 0.11982989 3.7166538
0.5299679 0.16927923 3.7063975
0.57703131 0.17002083 3.7182338
0.62323052 0.18027811 3.7404251
0.6548183 0.19876722 3.7454224
2.2835979 0.21719661 3.7438397
2.3187914 0.22094186 3.7213411
2.3299029 0.27231717 3.7366161
0.68197358 0.32799321 3.7262821
0.71518087 0.32144484 3.7413282
0.83956099 0.32683584 3.7340043
1.1379925 0.32920778 3.7084792
1.171402 0.33090234 3.721694
2.3319161 0.33009651 3.7432747
0.67902088 0.35978216 3.7180581
1.0772676 0.37901476 3.7126601
2.3328798 0.3734411 3.7346911
0.57713598 0.44294935 3.7040868
1.0784117 0.40894318 3.720048
2.3261676 0.42441177 3.7407305
0.57739198 0.4744738 3.7031362
0.62424898 0.47608167 3.7108729
0.66587776 0.48019522 3.7387514
2.3328443 0.47626585 3.7468195
0.58124411 0.52292436 3.7089419
0.62574881 0.53126347 3.7148664
0.66619056 0.52574372 3.7363718
2.3205378 0.54422402 3.7196779
0.5745222 0.5725984 3.7090497
0.62249207 0.58176261 3.7317872
0.65824735 0.57205093 3.7395239
2.3219743 0.57729095 3.7394578
0.57139939 0.62990433 3.7081318
0.62107277 0.62560469 3.7323406
2.3263967 0.61893809 3.7415984
0.57255769 0.67626733 3.7103765
0.62201065 0.67197061 3.7328033
0.66080612 0.67452455 3.7428925
2.3438082 0.66155493 3.7430859
0.57423759 0.7234717 3.7154987
0.62352723 0.7282179 3.7350807
2.3251293 0.72306722 3.7467675
0.54577917 0.77584964 3.7019949
0.57490414 0.77861762 3.7125146
0.62065428 0.77285367 3.73423
0.66400474 0.76937872 3.7492044
2.2859077 0.75072968 3.7422552
0.54700363 0.82278979 3.7037797
0.57616812 0.82570273 3.7141232
0.62588429 0.8223393 3.7364562
0.54755867 0.85077304 3.7034318
0.57780224 0.87354946 3.7176638
0.62463963 0.8763299 3.7348676
0.53088164 0.94380808 3.7003512
0.57894874 0.92086005 3.7176032
0.62025374 0.9281131 3.742933
0.53189701 0.97289425 3.7026558
0.57290167 0.97003889 3.7151558
0.61884809 0.97105706 3.7384472
0.5290857 1.021701 3.7069268
0.57054245 1.0242292 3.7208722
0.6141783 1.0159817 3.748513
0.53597975 1.0994753 3.7085235
0.57785892 1.0728413 3.7273242
0.61585832 1.074344 3.7482193
0.53643161 1.1279089 3.7060163
0.57455301 1.1236985 3.7288768
0.53394336 1.1830091 3.7102635
0.58198249 1.1732057 3.7349541
0.61905348 1.182318 3.7466345
0.52497554 1.2289722 3.7097733
0.57133538 1.2263204 3.7336056
0.60131216 1.2213488 3.7459605
0.52332973 1.2755479 3.7147815
0.57069319 1.2813753 3.7385406
0.60438269 1.2931724 3.7499592
0.486303 1.3338932 3.7045529
0.52784729 1.3252863 3.7169814
0.57337886 1.3245203 3.7382832
0.60514754 1.3229688 3.7479095
0.52478796 1.3762962 3.7220378
0.57915944 1.3742896 3.7398963
0.48952052 1.4266627 3.7073958
0.5260455 1.423601 3.7230313
0.5694288 1.4212923 3.7399368
0.48081315 1.4658129 3.702776
0.52117407 1.4743454 3.7207718
0.55695212 1.4679805 3.741024
0.49419105 1.5250416 3.7192333
0.52344203 1.5185246 3.7264309
0.5540334 1.5248907 3.7391591
0.48140383 1.5809954 3.7152774
0.52653188 1.5749316 3.7345793
0.5564909 1.5697103 3.7446823
0.43897283 1.6426693 3.7008531
0.47788605 1.6181697 3.7150767
0.52855635 1.6285977 3.7344842
0.55994874 1.6464679 3.7476363
0.47408411 1.6684934 3.7142813
0.52472079 1.6746073 3.735913
0.56097007 1.678255 3.7453892
0.441948 1.7203614 3.7044516
0.47286919 1.7291319 3.7208109
0.52015817 1.7215518 3.7375877
0.56291676 1.7129472 3.7490919
0.43407813 1.7745852 3.7031484
0.47502723 1.7754242 3.7248516
0.52224571 1.777347 3.7402382
0.4296357 1.8281878 3.7087114
0.47745296 1.8230951 3.7305284
0.50878108 1.8317597 3.7455239
0.4288615 1.8792534 3.7105303
0.47958577 1.8700001 3.7333195
0.51045203 1.876694 3.7439029
0.43410617 1.9260203 3.7072253
0.48175979 1.9174112 3.7359219
0.51223022 1.9124986 3.7462165
0.42187211 1.9688518 3.7057195
0.47368041 1.972924 3.7312343
0.51419842 1.9688596 3.7420769
0.42709222 2.0137646 3.7086067
0.47620282 2.0260246 3.7344353
0.51596254 2.0050898 3.7434645
0.39655805 2.0857773 3.7043729
0.42658067 2.0692911 3.7156508
0.47419327 2.0783048 3.7321301
0.39126837 2.1283722 3.701333
0.42639214 2.1232347 3.7123444
0.47069013 2.1306636 3.7345448
0.39960548 2.1708944 3.7033279
0.42701504 2.1848302 3.7249966
0.4700633 2.179507 3.7406504
0.38226682 2.2441707 3.7015448
0.42287207 2.2288809 3.7149065
0.4659546 2.2348471 3.7425089
0.42448205 2.2773252 3.7107117
0.47488332 2.2824061 3.7428381
0.43671441 2.3193774 3.7150979
0.48008254 2.3349934 3.7363086
0.44840866 2.3582475 3.7135139
0.48034447 2.3766928 3.7187629
0.51787972 2.3764718 3.7355981
0.49070853 2.4083958 3.7048025
0.52618146 2.4095633 3.7168357
0.57472605 2.4111788 3.7208302
0.627823 2.4197893 3.7277787
0.6677705 2.4269741 3.7124424
0.72282946 2.4304733 3.7312446
0.77223855 2.4318793 3.7329667
0.82669479 2.4344544 3.7207379
0.86294276 2.4367201 3.7251418
0.92637932 2.4433677 3.7383482
0.97744483 2.4416294 3.7253063
1.0348681 2.4400184 3.7252796
1.1159668 2.444288 3.7285874
1.1613803 2.4380035 3.7222216
1.2382427 2.4458523 3.7154379
1.2894468 2.4427783 3.7423971
1.3204396 2.4416862 3.7318957
1.3560361 2.4490089 3.7340105
1.4279598 2.4426417 3.7488155
1.462651 2.4474087 3.7462003
1.5259112 2.4465296 3.7242012
1.5918616 2.4449191 3.7476652
1.6887038 2.4455099 3.7138929
1.720372 2.4385612 3.7396326
1.0770397 2.4564824 3.7276211
1.1372857 2.4518104 3.7058072
1.1693506 2.4537351 3.7010021
1.2108936 2.4539485 3.7359648
1.2747258 2.4557455 3.721951
1.3152449 2.4530859 3.7062068
1.3780346 2.4506071 3.7302337
1.423315 2.4558899 3.7254257
1.4655225 2.4556959 3.7118771
1.5000936 2.4564843 3.749881
1.5720284 2.4521456 3.7183208
1.623239 2.4544516 3.7288792
1.6601168 2.4507692 3.7337754
1.8047639 2.4506681 3.7287259
1.9332863 2.454601 3.7344844
1.9517735 2.4503231 3.7184608
0.86303586 -0.50743586 3.7834611
0.69186544 -0.46210548 3.7650058
0.72916049 -0.47672454 3.7798631
0.76409817 -0.483675 3.7815487
0.83409566 -0.49754381 3.7830765
0.63968658 -0.41723636 3.7533708
0.67931366 -0.42185441 3.767278
0.72073466 -0.42586032 3.7888589
0.76056743 -0.44235307 3.7986872
0.63950872 -0.3899104 3.7542291
0.67249709 -0.37935367 3.7668476
0.72410685 -0.37429112 3.7903557
0.63871205 -0.30790359 3.7544909
0.67896444 -0.32793754 3.7713633
0.72794002 -0.32664299 3.7936935
0.63362527 -0.27595913 3.7532444
0.67884672 -0.27323228 3.773613
0.72429579 -0.27950194 3.7918015
2.5469229 -0.26795089 3.7601681
2.5948825 -0.29166791 3.7879241
0.63872254 -0.22638464 3.7583013
0.68114161 -0.22083259 3.7756338
0.72386503 -0.21979405 3.7921252
2.5408719 -0.23638746 3.7528
2.5794828 -0.24841981 3.7677076
0.63772035 -0.18081547 3.7539718
0.67501271 -0.17659256 3.7707412
0.72834665 -0.17395464 3.7925231
2.5414031 -0.18489704 3.7557828
2.5841446 -0.16568311 3.7779806
0.63754916 -0.12650269 3.7543859
0.67788357 -0.12727341 3.7731349
0.72627461 -0.12443086 3.7927735
0.75762504 -0.14681986 3.7988369
1.1420507 -0.1303498 3.7951243
1.1694713 -0.13028292 3.7876
1.2277679 -0.11185405 3.7834325
0.63716108 -0.072219729 3.7530067
0.67766118 -0.072673582 3.7729175
0.71868074 -0.082300857 3.7930748
1.238216 -0.080603175 3.7751925
0.63745606 -0.027036995 3.7551184
0.67811078 -0.027210223 3.7757614
0.71870065 -0.027365081 3.7936668
1.2378511 -0.025891174 3.7725143
0.63335228 0.018181307 3.7580354
0.67791611 0.018280223 3.7746115
0.71919227 0.018415928 3.7962551
1.241133 0.018807659 3.7702968
0.63811582 0.07247591 3.7585351
0.67796725 0.072875321 3.7744837
0.71935648 0.073388182 3.7966497
1.235944 0.078524932 3.778295
1.2502499 0.074544512 3.7610445
0.63796133 0.12674956 3.7566459
0.6784122 0.1275536 3.7760091
0.7237187 0.12832269 3.7938972
1.2387806 0.12171748 3.7861042
1.251904 0.12118061 3.7651601
0.63776588 0.17194363 3.7542977
0.67770237 0.17678179 3.7706666
0.71830279 0.17392078 3.7888756
0.69746912 0.20064926 3.7764964
0.72686517 0.20121717 3.7837119
2.279887 0.24211596 3.7620113
2.2798531 0.26224422 3.7609241
2.3056471 0.27300435 3.7603788
0.73349714 0.33720052 3.7631679
0.75810939 0.34039545 3.7613647
0.86595798 0.32998082 3.7671368
2.2281365 0.33098975 3.755456
2.274951 0.3271085 3.7658756
2.3132777 0.31875175 3.7594845
0.6953941 0.38184384 3.7558751
0.72478056 0.37384522 3.7639437
0.77507645 0.37614051 3.7809479
1.0637509 0.37176284 3.785284
1.1432679 0.35479483 3.7891662
2.1972828 0.3826378 3.7852628
2.2213836 0.37057084 3.7755857
2.278327 0.37437052 3.7724574
2.3097696 0.37457281 3.7604513
0.69079268 0.42271179 3.7531707
0.72502071 0.41956124 3.7620518
0.77100277 0.41999269 3.7842944
1.0791742 0.42624661 3.7667396
1.1190786 0.40876991 3.7704642
2.1996489 0.40318528 3.7877679
2.2231276 0.4229005 3.7707255
2.2792728 0.4250758 3.7699463
2.3113451 0.42540395 3.7588911
0.69118851 0.46842951 3.7516963
0.72698981 0.47558162 3.767875
0.76835233 0.47856686 3.7866735
2.2205815 0.47384667 3.774188
2.2828977 0.47636366 3.7713656
2.3121667 0.47615838 3.7556078
0.69719696 0.52865118 3.7538064
0.72550118 0.52703124 3.7653089
0.77588689 0.52408344 3.791882
2.2239642 0.52500504 3.7748499
2.2827983 0.52308595 3.777297
2.3213024 0.51869863 3.7663465
2.3502169 0.53078979 3.7694974
0.68627423 0.57219577 3.7578137
0.72722244 0.57568586 3.7761667
0.76618558 0.5723877 3.7908437
2.227968 0.57646936 3.7760804
2.2880549 0.57891506 3.7691097
2.3167357 0.55048048 3.7768931
0.67177564 0.62154865 3.7584159
0.72195214 0.62542874 3.7761917
0.76161337 0.61860049 3.7868812
2.2246344 0.62769276 3.7767036
2.2735176 0.61677784 3.7762232
2.3194818 0.62113655 3.7621715
0.6833055 0.67878503 3.7642555
0.72339755 0.67273933 3.7783833
0.76445377 0.67649692 3.7946339
2.1967993 0.68036985 3.7971401
2.2243156 0.67949378 3.7788076
2.2760823 0.67270136 3.7806089
2.318002 0.67307448 3.7637625
0.67466867 0.72518355 3.7625289
0.72285503 0.7182585 3.7825484
2.227879 0.72660536 3.7739358
2.2728105 0.72257358 3.7680502
2.3049309 0.72309446 3.7565975
0.64630538 0.78844595 3.7523634
0.67782819 0.77261484 3.763438
0.72409296 0.77966833 3.7809992
2.2206364 0.76382655 3.7676017
2.2547126 0.75045049 3.7549591
0.67666572 0.82860667 3.7596023
0.7230891 0.82219189 3.7772541
0.67885745 0.87747586 3.7647078
0.72406417 0.87077123 3.7839396
0.75104928 0.87707615 3.7962079
0.64961624 0.91227949 3.7533083
0.67648309 0.92846268 3.7660675
0.72192603 0.92224127 3.7862358
0.63283134 0.99780083 3.7508912
0.67294264 0.97460896 3.768894
0.72248513 0.96837854 3.7920463
0.75426066 0.96516711 3.7985675
0.62786067 1.0305467 3.7530067
0.67430323 1.0230787 3.768172
0.7218976 1.0313478 3.79334
0.63594311 1.0770057 3.7553637
0.67373711 1.0769204 3.7706182
0.72843629 1.0715878 3.7953255
0.62818992 1.1261418 3.7562461
0.67536283 1.1230253 3.7738495
0.71108007 1.1302612 3.7942276
0.63426995 1.1706718 3.7553875
0.67178357 1.1745241 3.7799585
0.70942998 1.1704203 3.7948062
0.63252801 1.2276324 3.7620821
0.67333621 1.224314 3.7783906
0.70484835 1.2205801 3.7946208
0.58498806 1.2729982 3.7522087
0.62369376 1.2702093 3.7568338
0.67501462 1.2745845 3.7770679
0.71165854 1.2715887 3.7943292
0.6403957 1.3281635 3.7766356
0.67607772 1.323819 3.7835305
0.71817374 1.3127713 3.7941051
0.62201667 1.3731681 3.7625229
0.67808813 1.3784804 3.7899771
0.71176779 1.375917 3.7979298
0.59258223 1.4412526 3.7629743
0.62358028 1.4276145 3.7675719
0.6677826 1.4175143 3.7802234
0.58333373 1.4797652 3.7551374
0.62473822 1.478465 3.7743793
0.66095001 1.4705288 3.7906871
0.5879724 1.5286345 3.7607265
0.62765622 1.5237101 3.7813668
0.66605639 1.5216521 3.7986104
0.5876776 1.5768005 3.7585168
0.62611163 1.5687573 3.7711549
0.65980959 1.5702083 3.7865639
0.57589388 1.6175423 3.7593727
0.62529933 1.6226133 3.7760596
0.66878986 1.6116943 3.7897637
0.58195662 1.6738915 3.7580309
0.6287834 1.6749938 3.791311
0.57816547 1.7330446 3.7591751
0.62751508 1.7221123 3.786948
0.54539436 1.756989 3.7502148
0.57760102 1.7766099 3.7649322
0.61796433 1.7729982 3.7866254
0.53946614 1.8275177 3.7571933
0.5814333 1.827522 3.7765203
0.62298453 1.8249586 3.7904241
0.5318194 1.883514 3.7555346
0.57317674 1.8714677 3.7734902
0.61576891 1.8820164 3.7902923
0.52804106 1.9357749 3.7599313
0.57604837 1.9202595 3.7780764
0.61930513 1.9324719 3.7975729
0.53587639 1.9765621 3.7547381
0.56525028 1.9691811 3.7692878
0.53287441 2.0327439 3.763835
0.57079518 2.0253 3.7758794
0.6032443 2.0243597 3.7932644
0.49983066 2.0589223 3.7562017
0.53168863 2.0772686 3.7644057
0.57478732 2.0794859 3.7863073
0.60609496 2.063993 3.7992754
0.52402055 2.1261895 3.7651818
0.57631898 2.1250777 3.7797804
0.52572304 2.1731615 3.7603347
0.56857562 2.1739638 3.7791967
0.48660791 2.2176073 3.7542863
0.51855278 2.2255251 3.7646194
0.57284784 2.225728 3.7919416
0.48820159 2.2550757 3.7530632
0.5200727 2.2724504 3.7574463
0.57128602 2.2691219 3.7940631
0.49046466 2.3060043 3.7518635
0.52209175 2.3218796 3.7532749
0.5741145 2.3230169 3.7832577
0.53446871 2.3622127 3.75349
0.57465291 2.380795 3.7645702
0.61866057 2.3802111 3.7899132
0.63407564 2.412993 3.7803154
0.6772455 2.4302983 3.7805967
0.72844023 2.4252288 3.7723188
0.77331567 2.4293966 3.7866173
0.82644582 2.4330707 3.7838449
0.88390684 2.439187 3.7725744
0.93260038 2.4284179 3.7792048
0.97278196 2.4351587 3.7599955
1.0234692 2.441565 3.7748318
1.0691134 2.4433064 3.782769
1.1019558 2.4470866 3.7967162
1.1870462 2.4486301 3.7789817
1.2375811 2.4441664 3.7740576
1.2702667 2.4455485 3.7988033
1.4755827 2.4475605 3.7905371
1.5256265 2.4418147 3.7645144
1.5683661 2.4456444 3.7733538
1.6279835 2.4455678 3.7857113
1.6804893 2.4432478 3.7628474
1.7263932 2.4407055 3.7919493
1.7788684 2.4380169 3.7671402
1.8128937 2.4399135 3.7572646
1.9637311 2.4433138 3.7532678
1.0952054 2.4530721 3.7627501
1.125452 2.4523392 3.7999861
1.1667901 2.4503994 3.7869091
1.2094953 2.4513681 3.7778978
1.275677 2.4567935 3.7696352
1.3374654 2.4518595 3.7911279
1.3809491 2.4533925 3.7812586
1.4129114 2.4533708 3.7717552
1.5102119 2.4515393 3.786484
1.8916353 2.4573803 3.7573407
1.9276013 2.4533062 3.7875714
1.9951533 2.4549196 3.7613807
2.0818734 2.456917 3.7805445
0.80139709 -0.50012195 3.8079634
0.77616143 -0.47507963 3.810735
0.82272655 -0.47392705 3.8205574
0.87991911 -0.47469881 3.8185809
0.74183476 -0.41454244 3.8016155
0.77414578 -0.42160025 3.8111687
0.82232022 -0.42725411 3.8222797
0.87867808 -0.4310101 3.8271101
0.90066302 -0.41049838 3.8297074
0.77161717 -0.36947212 3.8115184
0.82293922 -0.37178069 3.828969
0.88015717 -0.37240523 3.8270612
0.74070752 -0.34950912 3.8000813
0.77062225 -0.32287756 3.8093815
0.82265115 -0.32518879 3.8304234
0.88054997 -0.3259843 3.8315983
0.74019682 -0.26652682 3.8018241
0.77102679 -0.27687749 3.8137805
0.82230878 -0.27860653 3.8311865
0.87545264 -0.27679944 3.8358932
0.90028369 -0.2890619 3.8353672
0.73973513 -0.22042689 3.8013396
0.77047294 -0.22132723 3.8133819
0.82155001 -0.22265071 3.8300161
0.87796199 -0.21820463 3.8373759
2.6625299 -0.23123917 3.805675
0.76991332 -0.17506456 3.8121157
0.82174987 -0.17629547 3.8325589
0.88095289 -0.17699033 3.8398407
0.73909843 -0.14679004 3.8003864
0.77190495 -0.1253188 3.8138912
0.82265639 -0.13001333 3.8378856
0.87683141 -0.13511905 3.8439488
1.0976287 -0.13174258 3.8464739
1.1193671 -0.1309745 3.8187504
1.1923735 -0.11293237 3.8296862
1.2069864 -0.1125332 3.8123074
0.73478991 -0.068795055 3.8037944
0.77368861 -0.076269105 3.8128142
0.8224591 -0.071582548 3.8379643
0.8909682 -0.055857241 3.843699
0.90145427 -0.074608229 3.8469698
1.2162836 -0.071298786 3.8169942
0.73977685 -0.02747678 3.8055921
0.77110374 -0.027602935 3.8205709
0.81183213 -0.027730051 3.8334436
0.90045679 -0.037204657 3.8430483
1.2211952 -0.031332217 3.8369439
0.73950642 0.018462272 3.8041942
0.77021831 0.018542001 3.8161221
0.82005644 0.016367011 3.8382802
1.2220838 0.019053703 3.8292239
0.73988932 0.073614493 3.8056896
0.77029783 0.073883794 3.8160887
0.82277226 0.074471906 3.8392639
1.2187283 0.075575747 3.8245342
0.73964167 0.1287334 3.8034043
0.77038091 0.12924454 3.815469
0.81668442 0.12745334 3.8354709
0.90190256 0.14964391 3.8472853
1.2212749 0.12277569 3.8253438
0.73994124 0.17471561 3.80373
0.76935571 0.17514153 3.8091791
0.81765282 0.17828783 3.830946
0.89617145 0.18583791 3.8217354
0.77844161 0.20274627 3.8063154
0.82846761 0.20373821 3.8183923
0.86600596 0.20386222 3.8151677
2.1992066 0.32554892 3.8365285
0.82929516 0.37998033 3.8130157
0.87416595 0.37407017 3.8425119
0.90435994 0.35621828 3.8486338
1.1790338 0.35715285 3.808454
1.2074922 0.35724235 3.8033671
2.1885915 0.37453043 3.8145285
0.79969609 0.42534831 3.8052156
0.82627547 0.42945525 3.8144755
0.87379211 0.42997515 3.8369379
1.0737667 0.42217064 3.8176122
1.1307882 0.43181565 3.8084986
1.1598021 0.41673288 3.8400471
2.196182 0.4265599 3.8237495
2.2109313 0.44573089 3.8037903
0.82215327 0.47383523 3.8171313
0.87477684 0.47723687 3.8375628
2.1960495 0.487387 3.8180859
2.2007496 0.46809822 3.8281646
0.82504433 0.52067024 3.8154733
0.87008792 0.52400887 3.8341112
2.195611 0.52789438 3.8132262
2.2013092 0.52922887 3.8231673
0.78291154 0.57452273 3.8029995
0.82269764 0.57571113 3.8215694
0.86888957 0.57309508 3.8457978
2.1931353 0.58309609 3.8177147
0.77764726 0.63084441 3.8023951
0.82988882 0.62228328 3.8262236
0.87044954 0.6023466 3.8498108
2.1939108 0.62153846 3.8220286
0.78577501 0.66960716 3.8067205
0.81910521 0.67407274 3.828042
0.85664093 0.67316592 3.8453918
2.1992965 0.66394305 3.8262978
2.2001808 0.69801414 3.845892
0.74914938 0.74456346 3.8053453
0.77878529 0.72756523 3.8123357
0.82041562 0.72202802 3.8284621
0.85903788 0.72248173 3.8428686
2.2032068 0.72642326 3.824697
0.74948841 0.76352203 3.8045847
0.78151727 0.77691633 3.8195136
0.82364959 0.77198094 3.837405
0.85428536 0.76471317 3.8454192
2.1883876 0.75549543 3.8165312
2.209008 0.77158982 3.8207691
0.77769804 0.82655746 3.8139002
0.82304239 0.82592189 3.8361535
0.77665859 0.88139087 3.8119526
0.82905501 0.87355596 3.8392441
0.85884464 0.88267338 3.849431
0.77709705 0.92531735 3.8094773
0.82401574 0.92829156 3.8391469
0.73680902 0.99500602 3.8027761
0.77798951 0.9760654 3.8195605
0.82569611 0.98064101 3.8431301
0.73802114 1.0154479 3.8056536
0.77130222 1.023453 3.81669
0.81615454 1.025854 3.8348114
0.86333758 1.0113142 3.8487961
0.74087429 1.0948849 3.8060899
0.77022171 1.0774387 3.810961
0.81494749 1.0771556 3.8400841
0.74128354 1.1238265 3.8025303
0.77404797 1.1302881 3.820457
0.80950224 1.1190923 3.8291659
0.73598301 1.1784265 3.8045444
0.77407598 1.1768901 3.8211868
0.81660408 1.1762724 3.8448303
0.73658276 1.2261579 3.8082361
0.78055578 1.2268158 3.8238461
0.81516874 1.227667 3.8347249
0.73561287 1.2711468 3.8106582
0.77627951 1.2782099 3.8311462
0.81427133 1.281786 3.8430676
0.72229791 1.3394294 3.8112149
0.77189732 1.325036 3.8308294
0.82670754 1.3248088 3.8455741
0.72693682 1.3741003 3.8106155
0.77678132 1.3735431 3.8320191
0.80016738 1.3968053 3.8450217
0.69599724 1.4401215 3.8038588
0.72976685 1.4307306 3.8197873
0.76975107 1.4234469 3.8350356
0.80250919 1.4398113 3.8462358
0.69146913 1.4760996 3.8063252
0.72983086 1.4791403 3.8186688
0.77028215 1.4727266 3.8358085
0.80343527 1.4609544 3.8455219
0.68720907 1.5258547 3.8066924
0.72736883 1.5267001 3.8256688
0.77816832 1.5272214 3.8422236
0.8083415 1.5482798 3.8474071
0.68262136 1.5784098 3.803946
0.72211528 1.57321 3.8194485
0.77572876 1.57449 3.8448219
0.68659991 1.6363184 3.8115733
0.72792864 1.6253601 3.8237331
0.77021652 1.6191221 3.8383527
0.67570531 1.6733322 3.8065937
0.72128046 1.6782465 3.8276386
0.76141489 1.6707666 3.8411686
0.68331194 1.7295196 3.8118339
0.72378808 1.723491 3.8284903
0.76330614 1.7213875 3.8438818
0.67001569 1.7789478 3.813066
0.72713071 1.7710452 3.8331931
0.76654935 1.7750254 3.8450501
0.67975563 1.8240308 3.8162637
0.73205638 1.8228798 3.8457313
0.63797373 1.8696336 3.8099396
0.66952455 1.8748696 3.8168907
0.71879947 1.8744428 3.8338401
0.64036977 1.9163916 3.8099203
0.67425853 1.9280543 3.8293614
0.72308099 1.9217647 3.8437684
0.62264961 1.9760884 3.8055162
0.67556173 1.9718599 3.8219032
0.70946181 1.982741 3.8390479
0.63611382 2.0238233 3.8112967
0.67908651 2.0224376 3.8264983
0.71211505 2.0305815 3.8378778
0.61725813 2.077908 3.8011303
0.67262799 2.0736821 3.8322027
0.62339342 2.1260791 3.8120365
0.67105579 2.1199937 3.831382
0.59219593 2.1767671 3.8036451
0.624897 2.1848972 3.8142257
0.66841263 2.1738691 3.8341689
0.70302105 2.1966512 3.8477881
0.59411925 2.2143018 3.8028541
0.62303299 2.2276247 3.8078003
0.67195314 2.2265193 3.8369181
0.59809148 2.2904842 3.8008916
0.63049948 2.2762456 3.8168395
0.67520469 2.2785034 3.8371935
0.63642955 2.3195901 3.8158691
0.67800868 2.329385 3.83426
0.6389547 2.3632929 3.8149421
0.67986614 2.3773375 3.8253851
0.72228467 2.3809242 3.8386197
0.67914009 2.4059341 3.8063765
0.72226024 2.4114323 3.8091879
0.77515918 2.4190431 3.8312383
0.82985431 2.4222217 3.8098135
0.86942625 2.4189007 3.8123963
0.92069662 2.4310598 3.8305631
0.98555434 2.4354713 3.8252251
1.0264992 2.4373407 3.827528
1.0735624 2.4333324 3.8259425
1.118633 2.439342 3.8258662
1.1755599 2.4474907 3.826081
1.2206272 2.4418845 3.8289442
1.279325 2.4415643 3.8367562
1.3229449 2.4430604 3.827579
1.3781005 2.440531 3.8197072
1.4326781 2.4465258 3.8181069
1.4780145 2.4479055 3.839107
1.5303729 2.4450665 3.8176415
1.5717456 2.4426904 3.8371825
1.6305838 2.4439673 3.8321705
1.6729927 2.4422655 3.8142478
1.7676226 2.4458339 3.8374949
1.1483804 2.4561834 3.8009484
1.306897 2.4544842 3.8040791
1.4793879 2.4501619 3.8427048
1.8855108 2.4560058 3.8101065
1.9271173 2.4555879 3.8189101
1.9663042 2.4519224 3.8223178
2.0087719 2.4630547 3.82517
2.1030498 2.459336 3.8312016
0.88411808 -0.24310869 3.8512137
0.90441775 -0.243534 3.8551106
4.7950306 -0.24343413 3.8854287
4.8032503 -0.21644646 3.8933592
0.87768596 -0.13082147 3.8548028
0.90328705 -0.11219802 3.854214
0.98907435 -0.11343721 3.8849096
1.026836 -0.13234089 3.8774292
1.074075 -0.13232972 3.8688047
1.1808698 -0.11456706 3.8908515
0.84460163 -0.074545205 3.8516936
0.8727603 -0.07845097 3.8567328
0.90349919 -0.093500957 3.8554378
1.1889411 -0.076211564 3.8845599
1.2015704 -0.075794533 3.8598073
0.84507197 -0.027908742 3.8542109
0.875018 -0.027955592 3.8585796
0.90330964 -0.018602811 3.8553016
1.1864477 -0.028431484 3.8768258
1.2011228 -0.02831663 3.8587818
0.84441495 0.03742706 3.8511252
0.87508422 0.018826788 3.8588803
0.90245229 0.018817065 3.8515968
1.1935111 0.019138232 3.8669248
1.2021703 0.009683731 3.8621819
0.87477344 0.074960567 3.857003
0.90332156 0.074998729 3.8548162
1.1917732 0.086309329 3.8935752
1.2018838 0.076186486 3.8607044
0.84583747 0.14029792 3.8559709
0.87366331 0.12745421 3.8597121
0.90365142 0.12184313 3.8554132
1.1920731 0.12463999 3.8938293
1.2048767 0.12400459 3.8694663
0.8458814 0.16833673 3.8554192
0.87740022 0.17238583 3.8579106
1.0036528 0.20744817 3.8620903
1.0804129 0.20955317 3.889071
1.1198015 0.20980766 3.8864255
2.2235034 0.34968704 3.8775644
0.92006385 0.38055897 3.8640256
0.9626534 0.37948278 3.8859813
1.1669657 0.39071882 3.865802
0.91892385 0.42421246 3.8644462
0.97027028 0.42964372 3.8892238
0.91938812 0.4715569 3.8626611
0.96517563 0.47555459 3.8891137
2.2130494 0.49572897 3.8922801
0.88851279 0.52662611 3.8510559
0.9217363 0.52951068 3.8676083
0.97123057 0.52857363 3.8888965
0.89093161 0.57519495 3.8570311
0.92445427 0.5784573 3.8744352
0.96826625 0.57249284 3.8929131
2.1936307 0.55274504 3.8519027
2.2070251 0.57670051 3.873168
0.88473046 0.6270467 3.8586514
0.92501736 0.62626189 3.8718631
0.96886265 0.6205548 3.8903701
0.88398111 0.68077385 3.8578265
0.92715967 0.67526835 3.8754532
0.96977264 0.66642225 3.8971639
2.2038326 0.65807021 3.8577147
0.89128244 0.72544318 3.8630755
0.92984062 0.72490525 3.88077
0.9638958 0.7386201 3.8970122
2.1910183 0.74288726 3.868897
0.8805728 0.78105164 3.8589172
0.92567837 0.77579111 3.8817811
0.87782437 0.82570654 3.8549707
0.9332633 0.82329196 3.8821247
0.96605384 0.8171798 3.8953092
0.87423551 0.86959052 3.8544972
0.92555541 0.8729077 3.8844116
0.96583158 0.86504674 3.8873496
0.84112775 0.91250718 3.8535452
0.8723619 0.92490357 3.8597188
0.92139065 0.91943443 3.8836765
0.84226668 0.95181459 3.8524997
0.87416023 0.97458404 3.8596191
0.91912341 0.97216249 3.8837478
0.95883846 0.97346163 3.8965824
0.84471375 1.0118545 3.8537445
0.88336855 1.0326186 3.8766518
0.92065948 1.0220089 3.8817732
0.95409328 1.026894 3.8955371
0.84994745 1.0565438 3.8705909
0.87195545 1.0791895 3.8763745
0.92455584 1.0747459 3.8893003
0.95668739 1.0685219 3.8989809
0.83116901 1.1339656 3.8605039
0.87665731 1.1257608 3.8759575
0.91602015 1.12462 3.8863173
0.83146966 1.1728442 3.8539524
0.87185395 1.1735896 3.8703067
0.93018413 1.1786957 3.893513
0.83245486 1.2127215 3.8503399
0.86784762 1.2230418 3.865226
0.9192118 1.223881 3.8928592
0.83634442 1.2764121 3.8553364
0.86566842 1.2758553 3.8620639
0.92523545 1.2729903 3.8962033
0.82825458 1.3272977 3.8528044
0.87469041 1.3301845 3.8733258
0.91772163 1.3252082 3.8960793
0.83078116 1.3702052 3.8550138
0.87539363 1.379265 3.8744781
0.91686946 1.3720287 3.8901801
0.83010584 1.4247835 3.8594708
0.87621278 1.4197078 3.8681598
0.91202176 1.4298421 3.8909998
0.82818645 1.4800674 3.8644845
0.87535906 1.4782366 3.8814385
0.91540474 1.4747512 3.8950372
0.81951439 1.5214074 3.8606021
0.87130326 1.527178 3.8849201
0.79195303 1.5939316 3.8545649
0.82321393 1.5775948 3.8640604
0.87418288 1.5719005 3.886498
0.9018079 1.5846126 3.8975708
0.79364336 1.62693 3.8540037
0.82913035 1.6287329 3.8693795
0.87135178 1.6234192 3.8881686
0.90195924 1.6147815 3.889497
0.79692888 1.6732714 3.8578873
0.82762003 1.6786381 3.874959
0.8651017 1.6704333 3.8944416
0.78016484 1.7394428 3.8569725
0.82681715 1.7237252 3.877279
0.78320134 1.7961138 3.8555441
0.8211199 1.7684281 3.8700519
0.8529442 1.7969915 3.8983092
0.77656502 1.8339233 3.8633642
0.81981915 1.8209081 3.8791995
0.85605162 1.8440757 3.8988183
0.74600232 1.8627473 3.8546922
0.77509952 1.8752065 3.8604145
0.82546723 1.8740153 3.8920419
0.85928172 1.8917249 3.8993657
0.78055429 1.9288145 3.8729401
0.82813382 1.9207327 3.8901837
0.85978621 1.9131937 3.8944085
0.73101175 1.9664497 3.8513718
0.77183914 1.9759505 3.8694668
0.82132298 1.9694473 3.8928294
0.73472643 2.0169878 3.8555698
0.77064705 2.0314989 3.8788764
0.81146699 2.0223248 3.8883853
0.73221165 2.0729282 3.8616657
0.77441287 2.0825007 3.8818243
0.80761087 2.0785198 3.8930669
0.73115343 2.1170726 3.8594341
0.77699423 2.1306291 3.8781657
0.81046087 2.1168621 3.8943973
0.72564262 2.1719978 3.868865
0.77109993 2.1739311 3.8891981
0.82551765 2.1706347 3.898222
0.71763384 2.2306938 3.8608584
0.77423823 2.2243228 3.8872564
0.72508401 2.2777438 3.866647
0.77140373 2.2728419 3.8817701
0.80100638 2.2830248 3.8951974
0.72355944 2.322011 3.8602326
0.77160752 2.3288608 3.8784511
0.8142252 2.3222656 3.8925114
0.73656905 2.3616388 3.8580327
0.77080739 2.3810201 3.8629131
0.81590599 2.3691726 3.8811328
0.86417735 2.3968577 3.8971329
0.82303888 2.4158437 3.863029
0.87811804 2.4180193 3.8731523
0.92299205 2.4217885 3.8676109
0.96635246 2.4243696 3.8636882
1.0262606 2.4252918 3.868535
1.0822232 2.4316485 3.8673859
1.1291175 2.4300485 3.8776302
1.1759918 2.4346449 3.8666847
1.223583 2.4370608 3.8670373
1.2773513 2.4368658 3.876848
1.3288385 2.4323943 3.8554273
1.3713671 2.4344454 3.8836021
1.4238144 2.4394352 3.8733261
1.474611 2.4384704 3.8728588
1.5213137 2.4326639 3.8730173
1.5776966 2.4415455 3.8961167
1.6244223 2.4457085 3.8882115
1.6685964 2.4459286 3.8734958
1.7370384 2.4427054 3.8952065
1.7781819 2.4382694 3.8718555
1.9807352 2.4474549 3.8622122
1.716099 2.4508638 3.8656764
1.7502232 2.4523039 3.8558764
1.866405 2.4523373 3.8641679
1.9172466 2.460412 3.8588853
2.0323887 2.4556592 3.8557618
2.1251361 2.4623561 3.8835802
4.8273401 -0.3001582 3.908581
4.836937 -0.27315852 3.9179475
1.0305166 -0.11488527 3.9297099
1.0739553 -0.11542658 3.9415884
1.1231158 -0.11552263 3.9361713
1.1583315 -0.11518241 3.9173644
0.99831039 -0.076280206 3.9217598
1.0303211 -0.076527268 3.9295356
1.0739026 -0.076897502 3.9420011
1.1282994 -0.080312155 3.9429684
1.1681153 -0.076750837 3.9166534
0.99928629 -0.0285489 3.9259994
1.0306165 -0.028618261 3.9310951
1.0750736 -0.028777394 3.9467161
1.1471312 -0.038560487 3.9497311
1.1693687 -0.028700326 3.9212744
0.99919385 0.019249765 3.9256287
1.0302655 0.019308997 3.9297202
1.0752676 0.019428318 3.9474277
1.1396855 0.038625296 3.9240401
1.1773479 0.021834079 3.9223604
1.0217025 0.076873906 3.9347868
1.0636183 0.077128649 3.9412553
1.1461349 0.058186743 3.9460731
1.1730738 0.074381828 3.9185355
0.99690497 0.12414199 3.9153004
1.0316805 0.12489137 3.9338217
1.0738013 0.12533236 3.940685
1.1467518 0.11627832 3.9472971
1.1696495 0.12530567 3.920846
0.9951297 0.1905748 3.9065053
1.0230238 0.17022485 3.9282568
1.0750413 0.17368896 3.9439526
1.2771659 0.15557623 3.9345508
1.0361673 0.2102246 3.9103713
1.0534304 0.20986249 3.9001622
1.1661911 0.21131577 3.9066505
1.0810519 0.34606808 3.9212787
2.1804488 0.33194172 3.9380054
2.2155104 0.33100998 3.9097126
0.99629939 0.37194014 3.9022622
1.0299007 0.37376291 3.9162416
1.0707948 0.37466991 3.9188569
2.1353359 0.37271893 3.9450912
2.15692 0.38323885 3.9377766
2.2171018 0.37434909 3.9323692
0.99693507 0.41034007 3.9021692
1.0304648 0.42188969 3.9150953
1.0736909 0.42383453 3.9261243
2.1873925 0.41613433 3.9447162
2.2201493 0.4268499 3.933836
0.99860293 0.47792396 3.9035437
1.0312176 0.47974715 3.9134779
1.0775001 0.47365683 3.93629
1.1231859 0.47225547 3.932436
2.1417441 0.49830177 3.9467933
2.2261016 0.47245669 3.9329484
0.97899771 0.51587486 3.9015508
1.0258108 0.52596438 3.9117489
1.0781693 0.52227974 3.9345748
1.1166506 0.51963258 3.9450779
2.1378772 0.51810962 3.9376912
2.1679375 0.52036482 3.946409
2.2227323 0.52568883 3.9341457
0.99991536 0.55509216 3.90185
1.0266043 0.57952362 3.9155021
1.080626 0.57195151 3.9389777
2.2227147 0.58625597 3.9462147
1.0254823 0.62598467 3.9160545
1.0790875 0.61676204 3.936229
2.2239163 0.62845367 3.9434969
0.98424238 0.6914863 3.9043787
1.022293 0.67569315 3.9205508
1.0676005 0.66758889 3.9434659
2.218967 0.67925298 3.9282451
0.97842699 0.71752089 3.9046059
1.0207083 0.72574461 3.9252415
1.0633218 0.7239278 3.9410787
2.2132349 0.71915531 3.9125271
0.97937548 0.77436578 3.9065776
1.022078 0.77515382 3.9241848
1.0650291 0.77575856 3.9408278
0.98245549 0.82982969 3.9059975
1.0239302 0.82510066 3.9245977
1.0653653 0.82640761 3.9403141
0.98725456 0.87604988 3.9118557
1.0268739 0.87614328 3.9286363
1.0610768 0.87052327 3.9435432
0.97303307 0.9295696 3.9070599
1.0305134 0.92807776 3.9349258
1.0686717 0.91685742 3.9457657
0.9912315 0.97679216 3.911902
1.03017 0.97454274 3.9339492
1.0655111 0.96255106 3.9459496
0.97597337 1.0198128 3.9040608
1.0270222 1.0250366 3.9334691
1.0697904 1.0453051 3.9479787
0.9739635 1.0763671 3.906394
1.0222286 1.0734988 3.9288239
1.070776 1.0758853 3.9461098
0.93296987 1.1229495 3.9023476
0.97189051 1.1234403 3.9099708
1.0277382 1.1213019 3.9300778
1.0525204 1.1465806 3.9418535
0.94163185 1.1515718 3.905108
0.97483081 1.1758192 3.9118106
1.0200241 1.1729463 3.9301116
1.0614219 1.1754991 3.9437895
0.97667885 1.2271371 3.908771
1.0220519 1.2230678 3.9362564
0.94897741 1.298254 3.905623
0.98060131 1.2714942 3.9156814
1.029552 1.2749538 3.9386246
1.0602664 1.2745227 3.945303
0.94980979 1.3190817 3.9044466
0.9774909 1.3254732 3.9193316
1.0295882 1.3232149 3.9361615
0.97702235 1.3722867 3.9208822
1.0167266 1.3807738 3.933697
0.93436784 1.4240074 3.9012153
0.96948272 1.4220868 3.9206858
1.012257 1.4277039 3.9397118
0.93880695 1.4804438 3.9067593
0.97177327 1.4743348 3.9264133
1.0085316 1.475392 3.9411879
0.89947844 1.5308065 3.9015882
0.93243778 1.5260041 3.9124961
0.98023951 1.5292809 3.9307384
1.0155872 1.5235829 3.9359188
0.93299007 1.576183 3.9106269
0.98585159 1.5789365 3.9354784
0.92865294 1.6266123 3.914603
0.97663993 1.6346819 3.9406903
1.0181587 1.6212057 3.9420416
0.88770229 1.6753418 3.902667
0.92393506 1.6768131 3.9166553
0.967363 1.6716007 3.9353292
1.0016465 1.6679786 3.9484212
0.88046944 1.7209225 3.9041221
0.92751324 1.7336171 3.9261937
0.96817142 1.7161632 3.9414952
