ply
format ascii 1.0
comment PCL generated
element vertex 1487
property float x
property float y
property float z
element camera 0
property float view_px
property float view_py
property float view_pz
property float x_axisx
property float x_axisy
property float x_axisz
property float y_axisx
property float y_axisy
property float y_axisz
property float z_axisx
property float z_axisy
property float z_axisz
property float focal
property float scalex
property float scaley
property float centerx
property float centery
property int viewportx
property int viewporty
property float k1
property float k2
end_header
-0.98043245 -0.12524959 2.985888
-1.0575438 -0.069613315 2.9552555
-1.0261348 -0.073407181 2.9678819
-0.97751689 -0.073634923 2.988467
-1.0602024 -0.032173209 2.9563866
-1.0267149 -0.029282425 2.970058
-0.9826104 -0.030864337 2.9899623
-1.0583014 0.027080938 2.9540462
-1.0266775 0.022234393 2.9699285
-0.98563796 0.02229712 2.9895442
-1.061841 0.073654212 2.9559212
-1.0209409 0.073878333 2.9758396
-0.98391706 0.070433557 2.9958243
-1.0649476 0.12762457 2.9558334
-1.022267 0.12564376 2.9784539
-0.98246354 0.1234332 2.9942157
-1.0669696 0.17475812 2.9576623
-1.0230542 0.17745674 2.9789479
-0.98833388 0.17784478 2.9940834
-1.0672827 0.22111274 2.9563699
-1.0227358 0.2217107 2.975981
-0.98174763 0.22244678 2.9961846
-1.0716397 0.27104267 2.9568915
-1.0242556 0.2738153 2.9773855
-0.98548412 0.26973075 2.9968135
-1.0660865 0.32481876 2.9559867
-1.0258261 0.32609281 2.9783447
-0.9871285 0.33046177 2.993623
-1.0684495 0.3773025 2.9582646
-1.0270468 0.37097573 2.9783096
-0.98638153 0.37185067 2.9953144
-1.0636525 0.43012786 2.9624708
-1.0243891 0.42220074 2.9820795
-0.99080646 0.42004269 2.9946802
-1.0652876 0.4753392 2.9622896
-1.0240089 0.47685358 2.9825988
-0.99692804 0.4781318 2.9976349
-1.0703233 0.52238441 2.9618385
-1.0254815 0.52229023 2.9817021
-0.99488825 0.52757418 2.9979663
-1.0742732 0.57653522 2.9620655
-1.0265311 0.5769726 2.985193
-0.99395245 0.55892354 2.9952905
-1.1010829 0.62731749 2.9517078
-1.073061 0.62839496 2.9644492
-1.0234758 0.62632507 2.9859021
-1.1042866 0.67407042 2.9533303
-1.075851 0.67501855 2.965234
-1.026298 0.67694521 2.9866991
-1.107131 0.73586112 2.9508333
-1.0722802 0.72264898 2.9641533
-1.0235808 0.72182447 2.9858623
-1.1099644 0.77540994 2.9514859
-1.0752147 0.77267808 2.9633586
-1.0232991 0.77059257 2.9863801
-1.1098782 0.84185123 2.9538031
-1.0734363 0.82625741 2.9676511
-1.0272073 0.81902331 2.9892528
-1.1050067 0.87448061 2.9527514
-1.0730886 0.88002908 2.9667768
-1.0303607 0.87479216 2.9877741
-1.1093812 0.92355305 2.954514
-1.0747863 0.93116605 2.9704218
-1.0252178 0.93077469 2.9922822
-1.1142151 0.98101747 2.9549856
-1.0743239 0.97909158 2.9727738
-1.0305711 0.98110133 2.9905164
-1.1167226 1.028984 2.9564362
-1.0735106 1.0270681 2.9736791
-1.0341496 1.0306581 2.9898069
-1.1112877 1.077063 2.9587002
-1.0741363 1.0783665 2.9725406
-1.0309701 1.0815341 2.9930801
-1.1155368 1.1275162 2.9574358
-1.0760949 1.1314428 2.9744411
-1.0373744 1.1294811 2.9918487
-1.1242515 1.1817375 2.9568291
-1.0769578 1.1823443 2.9781401
-1.0291859 1.170377 2.9953358
-1.1198575 1.2293565 2.9592175
-1.072772 1.2253305 2.9786766
-1.0349702 1.2189429 2.9945457
-1.152854 1.2666248 2.9502709
-1.120778 1.2727093 2.9620991
-1.0772798 1.2696748 2.9791033
-1.039771 1.2716987 2.9940979
-1.1267494 1.3195941 2.9574416
-1.0745859 1.3230422 2.9803503
-1.0332124 1.32548 2.9971919
-1.1518782 1.3938234 2.9555254
-1.1242236 1.3744518 2.9644318
-1.0759635 1.3776342 2.9868889
-1.0445873 1.3905994 2.9990175
-1.1615171 1.4255811 2.9555233
-1.125106 1.4237753 2.9690421
-1.0766022 1.4223081 2.9882143
-1.0475903 1.4184992 2.9993141
-1.1607424 1.4684081 2.9548166
-1.1258522 1.4735948 2.9727905
-1.0771194 1.4740868 2.991286
-1.1697923 1.5281352 2.9591606
-1.1247761 1.5277507 2.9767895
-1.0837826 1.5234559 2.994514
-1.1747009 1.5749121 2.9552641
-1.1253229 1.5733742 2.9754491
-1.0847949 1.5679213 2.9928341
-1.207653 1.6271288 2.9521027
-1.1770604 1.6260287 2.9594684
-1.1275254 1.6220913 2.9797039
-1.2057283 1.6763887 2.9520984
-1.1746727 1.6787227 2.9664876
-1.124036 1.6733758 2.9859533
-1.0941225 1.6725041 2.9978642
-1.2108835 1.7434539 2.9561274
-1.1758355 1.7212464 2.9674957
-1.1329391 1.7185708 2.9880495
-1.257581 1.7770725 2.9522493
-1.2217169 1.7814765 2.9528313
-1.1719326 1.7730953 2.9724982
-1.1356716 1.7818711 2.9922812
-1.2130307 1.8265022 2.9614491
-1.1759752 1.8293712 2.975776
-1.1373773 1.8271774 2.9928923
-1.2194513 1.8714148 2.9594758
-1.1703073 1.8715506 2.9794452
-1.13876 1.8748341 2.9950695
-1.2260439 1.9253347 2.9602766
-1.1814871 1.9230174 2.9818053
-1.1460006 1.9205998 2.99699
-1.252151 1.9702759 2.952527
-1.2199082 1.9815773 2.9636109
-1.1684271 1.9722451 2.983572
-1.1352636 1.9736692 2.9963295
-1.2233546 2.0286348 2.9615192
-1.1770736 2.0296628 2.9823358
-1.1458659 2.0436094 2.9963832
-1.224394 2.0716133 2.9596739
-1.1750194 2.075423 2.9823074
-1.1409793 2.0761423 2.9943092
-1.2182313 2.1144459 2.9589016
-1.1721562 2.1202629 2.9797318
-1.1380024 2.1210756 2.9919558
-1.2198308 2.1710544 2.956857
-1.1818976 2.1753471 2.9734886
-1.1470207 2.1728039 2.9949996
-1.2126074 2.2247915 2.9590244
-1.1641324 2.2243061 2.9682977
-1.1348108 2.2232506 2.9898136
-1.126876 2.2635088 2.9829304
-1.124164 2.3239865 2.9798429
-1.0970025 2.3282011 2.9997709
-1.1200509 2.3683879 2.9630413
-1.0801311 2.3745627 2.978076
-1.0274894 2.3874846 2.9715116
-0.96736854 2.3907003 2.969444
-0.94163001 2.3970923 2.9761105
-0.8597728 2.3995061 2.9823601
-0.80660141 2.398715 2.993751
1.0951396 2.3968148 2.9861465
1.129647 2.3941822 2.9715276
-0.923733 2.4053731 2.974035
-0.87800139 2.406862 2.9758511
-0.8278001 2.4093368 2.9817851
-0.76998472 2.4120843 2.9843299
-0.72860807 2.4138522 2.9745202
-0.68341959 2.414871 2.9796042
-0.62666732 2.41998 2.9879596
-0.58276796 2.4196219 2.9949188
0.59644634 2.403935 2.9727328
0.62815517 2.4255228 2.9949117
0.6830672 2.433377 2.9949448
0.73472738 2.4138415 2.9710329
0.77510202 2.4220302 2.9753633
0.8004064 2.424149 2.9935596
0.8830452 2.4325886 2.9850454
0.91863406 2.4245489 2.9724576
0.98212653 2.4185026 2.9759502
1.0166475 2.4160056 2.9627643
1.0558083 2.4065542 2.9747806
1.1271546 2.4066863 2.9525237
1.176966 2.4180336 2.9892287
1.3377199 2.4390671 2.9801219
1.3827387 2.4219506 2.9834995
1.4799047 2.4169126 2.9891059
1.5319334 2.4152455 2.9775114
1.5776314 2.4237134 2.9723008
1.622887 2.4193163 2.9693079
1.6764774 2.421566 2.9751575
1.725785 2.427732 2.9744854
1.7834259 2.4233668 2.9814515
1.8348053 2.428792 2.9627724
1.8771162 2.4277678 2.9828255
1.9351267 2.4287167 2.9516771
1.9771998 2.4356213 2.9619665
2.0266972 2.4315767 2.9962626
1.2776632 2.4563565 2.9691617
1.3218654 2.4526956 2.9861121
2.336406 2.4537439 2.9873145
-0.20142655 -0.51281226 3.0396252
-0.15709952 -0.52624124 3.0326352
0.44113407 -0.46650666 3.0123198
0.52348757 -0.46839362 3.016032
1.1236203 -0.47879726 3.0380282
1.1673267 -0.45606375 3.0187855
-0.85839981 -0.40122229 3.01949
-0.82247162 -0.40183526 3.0309854
-0.78800714 -0.40324908 3.0482814
-0.7391203 -0.40104985 3.0390899
1.1585662 -0.43283305 3.0200138
-0.90815353 -0.36819521 3.0096576
-0.87370813 -0.37464017 3.020438
-0.83393461 -0.37489486 3.0395622
-0.53378075 -0.36307552 3.0001013
-0.91586792 -0.32618177 3.007102
-0.87324899 -0.32689509 3.0225635
-0.83915907 -0.32809654 3.0407476
1.1874161 -0.31084597 3.0183504
1.2165588 -0.30679229 3.0495982
-0.9151988 -0.27407768 3.0083637
-0.87374192 -0.27502409 3.0277178
-0.8391577 -0.27588961 3.0441675
1.1975765 -0.29056635 3.0456073
1.230243 -0.27571616 3.0432112
-0.91842043 -0.22077957 3.0115662
-0.87401807 -0.2230479 3.0315166
-0.84661603 -0.22367108 3.04562
-0.71293938 -0.204662 3.0064633
-0.92329007 -0.17786638 3.0139475
-0.8746078 -0.17852947 3.0355
-0.84218431 -0.17504229 3.0458694
-0.71589994 -0.19082618 3.0195794
-0.95832682 -0.12567222 3.0013838
-0.922952 -0.1259068 3.0145338
-0.87487841 -0.12646739 3.0381622
-0.84626919 -0.1490158 3.0473952
-0.92257279 -0.073976986 3.0144331
-0.87458646 -0.0743156 3.0383012
1.2510577 -0.091045626 3.0183241
-0.95799458 -0.022052513 3.0019946
-0.92356062 -0.029542262 3.0181372
-0.87706518 -0.027810488 3.0405583
1.211984 -0.030385526 3.0484543
-0.95813823 0.022340851 3.002388
-0.92434907 0.022406494 3.0207224
-0.87557989 0.022480497 3.0422039
1.179049 0.00019197604 3.0077004
-0.96565801 0.077219091 3.0054402
-0.92376071 0.074337862 3.0181758
-0.87770677 0.074666977 3.0421884
1.148531 0.09055613 3.0137119
1.1567789 0.076036021 3.0356526
-0.96445394 0.12857918 3.0037453
-0.92474252 0.12641467 3.020195
-0.87634295 0.12692215 3.0430586
-0.96758413 0.17810059 3.0035336
-0.92544103 0.17855813 3.0207026
-0.88105303 0.17710175 3.0420763
-0.96012074 0.22258557 3.0029533
-0.92631918 0.22336762 3.0215423
-0.88204318 0.22639842 3.0432754
-0.96742612 0.28012154 3.0059252
-0.9275704 0.27583286 3.0226264
-0.8840245 0.27446234 3.044806
-0.96242452 0.32595137 3.0100107
-0.92219758 0.32872927 3.0274112
-0.88720423 0.32958439 3.042999
-0.96062672 0.37272361 3.0086644
-0.92392212 0.37423807 3.0295236
-0.88293326 0.37696517 3.0450225
-0.96561438 0.42784643 3.0095589
-0.92511505 0.42449206 3.024153
-0.88171494 0.42039672 3.0437896
-0.96841514 0.47880861 3.008563
-0.92488354 0.47727102 3.028096
-0.88834679 0.47464514 3.0430338
-0.96803653 0.52261424 3.0086775
-0.9232769 0.52799678 3.0310471
-0.88963294 0.5241785 3.0466194
-0.97066247 0.57285774 3.0106957
-0.9230144 0.57287425 3.0318987
-0.88399339 0.57820272 3.0481172
-1.0053298 0.64786178 3.0013866
-0.97434527 0.62471998 3.0088642
-0.9269132 0.62357169 3.0304031
-0.88973564 0.62113452 3.0484931
-0.97694331 0.67920423 3.0089765
-0.9255752 0.67752689 3.0333893
-0.89180684 0.67572677 3.0478001
-0.97402072 0.72639591 3.0107927
-0.925062 0.72876775 3.0320377
-0.89419794 0.73081404 3.047509
-0.9745658 0.77385873 3.0114195
-0.92437577 0.77628642 3.0325284
-0.88930684 0.77449167 3.0455434
-0.97713131 0.82153201 3.0108802
-0.92702609 0.82431108 3.0328209
-0.89821082 0.82585269 3.0449383
-1.0022975 0.86920595 3.0036614
-0.97302723 0.87029672 3.0144682
-0.92509443 0.87491053 3.0366631
-1.0035994 0.90086031 3.0012341
-0.97592902 0.91883647 3.0138776
-0.92578554 0.92225313 3.036979
-0.88752627 0.90701061 3.0487392
-1.0092505 0.98271924 3.0010262
-0.97401899 0.97110295 3.016839
-0.9214204 0.97184646 3.0394127
-0.89149326 0.98055434 3.0472815
-1.0130308 1.0326353 3.0011942
-0.97346723 1.0197394 3.0174637
-0.92494076 1.022018 3.040288
-1.000825 1.0668577 3.0067971
-0.97158837 1.0687064 3.0192332
-0.92736042 1.0712736 3.0368567
-0.89934111 1.0904381 3.0498261
-1.0087497 1.1177516 3.0058782
-0.97519469 1.119316 3.018326
-0.9281584 1.1210163 3.0387545
-1.0081968 1.1681815 3.0039327
-0.9770633 1.173507 3.021332
-0.92773277 1.1747459 3.0406654
-1.0126878 1.2203197 3.0037749
-0.97613686 1.2235299 3.0210476
-0.93208718 1.227451 3.041497
-1.0100303 1.2737721 3.0068605
-0.97266346 1.2763087 3.0222876
-0.93433255 1.2767137 3.0410993
-1.0140507 1.3282894 3.0088458
-0.97926795 1.3278934 3.0218477
-0.93865889 1.3207405 3.0433917
-1.0245517 1.3718164 3.006995
-0.97152394 1.3722128 3.0294585
-0.93568122 1.3621426 3.0440474
-1.0228734 1.4246256 3.0102437
-0.97552508 1.4233968 3.0326676
-0.94223094 1.4278512 3.0464318
-1.0539453 1.4671987 3.0030766
-1.0242839 1.478682 3.0154142
-0.97932583 1.4785392 3.0314331
-0.93718028 1.4645594 3.0466833
-1.0597582 1.5236688 3.0014915
-1.0263351 1.5299413 3.0207577
-0.98022491 1.5222723 3.0391197
-0.94961911 1.5037082 3.0472984
-1.062331 1.5866071 3.0053513
-1.0264204 1.5714452 3.0180821
-0.98450631 1.5702997 3.0450985
-1.0749636 1.6273409 3.0119712
-1.0244371 1.6251643 3.0294788
-0.98892564 1.6261137 3.0437756
-1.0782874 1.6766031 3.010231
-1.0272025 1.6709071 3.0296726
-0.98969555 1.6697429 3.0463104
-1.1096148 1.7319006 3.0041714
-1.0690281 1.7261938 3.0195045
-1.0222404 1.7222848 3.0356295
-1.1145216 1.7672781 3.004905
-1.0765013 1.7712531 3.01668
-1.0287092 1.77487 3.0363724
-0.99622321 1.7763104 3.0474761
-1.1121058 1.8277369 3.0045629
-1.0735103 1.8242778 3.022361
-1.0263736 1.8187945 3.0409577
-0.99042869 1.8059613 3.0460091
-1.1149442 1.8771785 3.0063534
-1.0751768 1.8812245 3.0249481
-1.0295184 1.8729831 3.041868
-1.1212059 1.9215838 3.0061893
-1.0805922 1.9246205 3.0232658
-1.037822 1.9238523 3.0338502
-1.1136376 1.9809622 3.0076165
-1.0761343 1.9719354 3.0250056
-1.0389358 1.9759905 3.0469904
-1.1276762 2.028904 3.0060303
-1.0739896 2.0199673 3.0315337
-1.044502 2.020997 3.0452733
-1.1148117 2.0751197 3.0131626
-1.0753133 2.0715711 3.0299749
-1.031378 2.0635655 3.043483
-1.1153293 2.1273525 3.008832
-1.0718664 2.1284072 3.0313144
-1.0361209 2.1296787 3.0447607
-1.118776 2.1807344 3.0122764
-1.0765958 2.1768212 3.0263493
-1.0485077 2.1855984 3.0442128
-1.1088482 2.2215364 3.0127656
-1.0704674 2.2299492 3.0306571
-1.0368922 2.2335048 3.0456257
-1.1086816 2.2712979 3.0063
-1.0749291 2.2746556 3.0214148
-1.0375742 2.2862699 3.043081
-1.0759414 2.3181434 3.0138774
-1.0298935 2.328263 3.038121
-0.99592006 2.3411169 3.047492
-1.0662756 2.3566322 3.0124657
-1.0254658 2.3733737 3.0171444
-0.98233563 2.3861775 3.03037
-0.9228819 2.393513 3.0241537
-0.87936103 2.3935251 3.0409858
-0.82252294 2.3928933 3.0355129
-0.76781261 2.3975701 3.0359452
1.3227483 2.3993418 3.0261984
-0.86742496 2.4030821 3.0208533
-0.77992487 2.407105 3.0195541
-0.72608733 2.4048841 3.0277987
-0.67080963 2.4120069 3.0250299
-0.63164306 2.4170682 3.0264578
-0.57434702 2.4265034 3.0308034
-0.52381796 2.4219205 3.0239618
-0.47348318 2.4182973 3.0228047
-0.42779344 2.4355502 3.0367236
-0.38077366 2.4171336 3.0185728
-0.32858929 2.4194908 3.0266049
-0.27645385 2.4231648 3.0355291
-0.23237884 2.4214253 3.0363936
-0.11861238 2.4261026 3.047647
0.039372031 2.4137013 3.0337937
0.05713411 2.4254661 3.0483537
0.18910128 2.4278338 3.0469589
0.22430649 2.4282045 3.0454669
0.27731794 2.4304149 3.0446677
0.32174015 2.4335461 3.0449944
0.37351903 2.426316 3.0309927
0.42671487 2.4289839 3.0285747
0.47998524 2.4315476 3.0252314
0.53006935 2.4279137 3.0273936
0.57734698 2.4334035 3.0134716
0.62518525 2.4304714 3.0363369
0.67863464 2.431349 3.0279179
0.72441226 2.4362521 3.0254607
0.77121115 2.4259431 3.0375698
0.8147155 2.4316368 3.0178275
0.8774156 2.4342785 3.0364444
0.96992075 2.4234612 3.0040908
1.0254416 2.4202144 3.0170963
1.0757216 2.4337664 3.0432656
1.1854857 2.4173472 3.0233243
1.2241417 2.4158399 3.0207899
1.3078346 2.4055731 3.0408607
1.4390566 2.4164858 3.0259426
1.4725207 2.4165628 3.0324767
1.525643 2.4160318 3.0226853
1.5785203 2.4181211 3.0301158
1.6331707 2.4202988 3.0295784
1.6739295 2.4153867 3.0238531
1.7269716 2.4208679 3.0282714
1.8244125 2.4338548 3.0213902
1.8798127 2.4258132 3.0350833
1.9137251 2.4212174 3.0202808
1.9696778 2.4331169 3.0321651
2.0055943 2.4295397 3.0052252
2.0810375 2.431757 3.0361814
2.1064503 2.436974 3.0054991
0.49899352 -0.45757848 3.0976801
1.1220465 -0.48120704 3.0987873
1.1560104 -0.45958874 3.0857055
-0.76657641 -0.40376559 3.0559797
-0.70272475 -0.40577957 3.081974
-0.6896956 -0.40696418 3.0932209
-0.58044404 -0.43435001 3.0851889
0.53646624 -0.435022 3.0953844
0.55973005 -0.4281106 3.0976744
1.1640329 -0.42260897 3.0804331
-0.80897129 -0.37068698 3.056479
-0.77689648 -0.3752172 3.0684955
-0.73968571 -0.3753593 3.0760467
1.1655284 -0.36791277 3.0763245
-0.81289506 -0.32956648 3.0596335
-0.77789158 -0.32310256 3.076375
-0.74294525 -0.32484952 3.088815
-0.53397995 -0.31362519 3.0912578
1.1409039 -0.33421978 3.0863554
1.1718836 -0.32207382 3.0595698
1.2073408 -0.32379025 3.0683146
-0.81194317 -0.27679053 3.0594802
-0.7768845 -0.27013701 3.0757546
-0.74132037 -0.27085653 3.0901318
-0.51705432 -0.26778558 3.0838275
-0.49805355 -0.25083223 3.0609422
0.077593163 -0.25099719 3.0884125
0.10684355 -0.27978593 3.0780244
1.1741437 -0.27695435 3.0735793
1.2203233 -0.26836333 3.0701318
1.2703168 -0.26393881 3.0791192
-0.81812358 -0.22404405 3.0561132
-0.77728301 -0.22521332 3.0797672
-0.73498082 -0.22457729 3.0767164
1.1485434 -0.20089667 3.0996017
1.1740558 -0.22797549 3.0804749
1.2279493 -0.22682929 3.0869157
1.2783039 -0.23593296 3.090858
1.3023252 -0.21877155 3.0954242
-0.81663907 -0.18116909 3.0597818
-0.77591956 -0.17468344 3.0821238
-0.73213768 -0.17262328 3.0888915
1.1741796 -0.17457834 3.0747023
1.2222766 -0.17052472 3.0928783
1.3024783 -0.15622129 3.0983837
-0.82467335 -0.12551124 3.0609
-0.77862942 -0.12304711 3.0826225
-0.73373932 -0.12750416 3.0888073
1.176146 -0.12321283 3.0855567
1.2265606 -0.12187334 3.0889494
1.2792795 -0.1242317 3.0856667
-0.82673615 -0.074713014 3.0638485
-0.77722716 -0.074996047 3.0842638
-0.74890143 -0.075172342 3.0962846
1.175158 -0.076871909 3.0839994
1.2276653 -0.077229582 3.0872552
1.2602477 -0.085126773 3.0824921
-0.86221772 -0.044675671 3.0504093
-0.82672292 -0.029820697 3.0642679
-0.77852678 -0.029981427 3.0899119
-0.74928188 -0.045088757 3.098242
1.1752924 -0.03063347 3.0848746
1.2103446 -0.034517467 3.0764897
-0.82690108 0.022561904 3.0649297
-0.77821428 0.022659229 3.08869
-0.74943936 0.022698075 3.0990047
1.1734234 0.021177532 3.0840509
-0.86245674 0.07479535 3.0507784
-0.82737404 0.074997187 3.0661094
-0.77898324 0.075378694 3.0911443
1.165972 0.073546968 3.0932565
-0.82962799 0.12422495 3.0650432
-0.7791822 0.12057226 3.0909681
1.1443527 0.13888387 3.0903563
1.159138 0.12337819 3.0851877
-0.85729361 0.18731868 3.0571218
-0.82273573 0.17393409 3.0704155
-0.77926832 0.17329305 3.0895805
-0.85660267 0.22197957 3.058712
-0.82265753 0.2255221 3.0727549
-0.78009582 0.22624633 3.0905685
-0.85811055 0.27744311 3.0553713
-0.82607901 0.26925138 3.0714221
-0.78901666 0.27195618 3.0922384
-0.85952616 0.32294983 3.0573814
-0.82429743 0.32385775 3.0729368
-0.78318602 0.32702291 3.0910673
-0.8555789 0.3716622 3.0536413
-0.8249411 0.37684861 3.0712886
-0.7868681 0.37603769 3.0897372
-0.85416251 0.42160976 3.0584078
-0.82581377 0.42250991 3.0705409
-0.78103673 0.42438716 3.092804
-0.8620863 0.47404501 3.0572617
-0.82349312 0.47646832 3.073518
-0.77289313 0.46891984 3.0938077
-0.86453587 0.52872801 3.055892
-0.82004666 0.52805328 3.074558
-0.78066081 0.52823818 3.0950224
-0.8642599 0.57183379 3.0553486
-0.82421273 0.57754588 3.0774832
-0.78531992 0.57583284 3.0966182
-0.86797911 0.6218242 3.0563505
-0.82532841 0.62398165 3.0755246
-0.78406447 0.62317872 3.0949867
-0.86962861 0.66858435 3.055557
-0.82757396 0.67144948 3.0773153
-0.78423017 0.67349958 3.0949461
-0.86600369 0.72508979 3.0627463
-0.82370967 0.72221887 3.0791848
-0.78631645 0.72133988 3.096092
-0.8636077 0.78246754 3.0610988
-0.82465535 0.77504045 3.080245
-0.79198456 0.77300465 3.0943434
-0.87043363 0.82852781 3.0609243
-0.8248474 0.8274191 3.0779066
-0.7899009 0.82483739 3.0930166
-0.90221351 0.86024582 3.0526159
-0.87321645 0.87734234 3.0617931
-0.82440686 0.88190234 3.0824661
-0.78885937 0.87807655 3.0952408
-0.87318373 0.92745423 3.0589128
-0.82510513 0.93000817 3.0841811
-0.78852755 0.94029105 3.0980158
-0.87362546 0.97285444 3.0604873
-0.82731098 0.97910333 3.0823526
-0.79089642 0.98209828 3.0989029
-0.87334752 1.0250659 3.0606334
-0.82259643 1.0295415 3.0846026
-0.79261249 1.0310892 3.0949976
-0.87473983 1.0745782 3.0624533
-0.8254059 1.0800176 3.083842
-0.79590791 1.0824522 3.0966022
-0.90316999 1.1341987 3.0526576
-0.8731401 1.1280009 3.0655591
-0.82944357 1.1324868 3.0869927
-0.79865396 1.125526 3.0974286
-0.90464479 1.1595485 3.0513487
-0.87625855 1.1792156 3.0638711
-0.82425392 1.175617 3.0880618
-0.91048145 1.2301332 3.053293
-0.87883288 1.2306788 3.0665293
-0.82508337 1.2184371 3.0911558
-0.92252171 1.2753074 3.0537064
-0.87311971 1.2724159 3.070308
-0.82310903 1.2728342 3.0903492
-0.91076249 1.3208395 3.058603
-0.87235618 1.3229115 3.0718095
-0.82732135 1.3273519 3.0916677
-0.91872597 1.3776842 3.0569084
-0.87780452 1.3793001 3.0756364
-0.84288806 1.3780031 3.094136
-0.91918302 1.4294114 3.0551958
-0.87730366 1.4299798 3.0795634
-0.84075069 1.4210196 3.0947216
-0.91985387 1.4819432 3.061373
-0.87144625 1.4758687 3.0859995
-0.83256036 1.4726485 3.0951009
-0.96099901 1.5402702 3.0550365
-0.92398113 1.5224807 3.0643346
-0.8791002 1.522434 3.0869119
-0.8434186 1.5161793 3.0972519
-0.9651351 1.5795836 3.0556622
-0.92566425 1.5719025 3.070622
-0.88596839 1.5769161 3.0890241
-0.96233422 1.6268531 3.0596573
-0.92124504 1.6187826 3.0756364
-0.87999624 1.6204854 3.0919569
-0.96108109 1.6752388 3.0575273
-0.92196107 1.6708664 3.0776451
-0.88703585 1.6751535 3.0938146
-0.97805297 1.7230284 3.0593708
-0.93115032 1.7284355 3.0808678
-0.89615697 1.717849 3.0964015
-0.9695096 1.7738262 3.0631769
-0.93068212 1.7726942 3.0822475
-1.0060067 1.8358642 3.0580866
-0.9681409 1.8275563 3.0677838
-0.92379397 1.827755 3.090694
-1.0068187 1.8542058 3.0526123
-0.97961092 1.8740895 3.0675642
-0.9285689 1.874784 3.0892775
-1.0115765 1.9261274 3.0541327
-0.97527015 1.9256953 3.0721147
-0.93271935 1.9129689 3.0888207
-1.0138669 1.9771254 3.0555973
-0.97230011 1.9738879 3.073302
-0.9314447 1.9752479 3.0917943
-1.0196314 2.0228143 3.055016
-0.97577018 2.0224771 3.0738435
-0.93914306 2.0259044 3.091722
-1.0086383 2.070045 3.0600228
-0.97552896 2.0732868 3.0737934
-0.93376821 2.0724444 3.0921087
-1.0157418 2.1194758 3.0622659
-0.97394156 2.1234062 3.0793505
-0.93194216 2.1272011 3.095726
-1.0219839 2.1763897 3.0559731
-0.9787426 2.1689928 3.0746849
-0.93589985 2.1713991 3.0891726
-1.0120512 2.215925 3.0569916
-0.97609121 2.2181313 3.0759389
-0.93964368 2.2194531 3.0933638
-1.0152884 2.2713354 3.0594671
-0.97551191 2.2741079 3.0714138
-0.93355894 2.2746801 3.0906513
-0.97280568 2.3279417 3.0655174
-0.92825609 2.3212521 3.0839524
-0.89216298 2.3321729 3.0979114
-0.9725821 2.3674059 3.0540395
-0.92325586 2.3689842 3.0689218
-0.87519938 2.3766382 3.0790884
-0.82515156 2.382201 3.0831275
-0.78111929 2.393398 3.0630362
-0.71951824 2.3963203 3.0794463
-0.65712041 2.3969493 3.091778
-0.72840816 2.4080293 3.0697176
-0.67785394 2.4050479 3.0776947
-0.61898053 2.4101093 3.0717788
-0.57982969 2.4164882 3.074213
-0.53330243 2.415391 3.0797241
-0.47097677 2.4222748 3.0745168
-0.42178306 2.425163 3.0754926
-0.37713444 2.4233882 3.0779929
-0.32850465 2.4201317 3.0749431
-0.27925631 2.4303114 3.0782773
-0.22176175 2.4359291 3.0807405
-0.17224431 2.4303381 3.0677907
-0.11968238 2.4348843 3.0840528
-0.075103216 2.4312863 3.072201
-0.030909002 2.433243 3.0753143
0.018624706 2.4323969 3.0777392
0.078892961 2.4363775 3.0819602
0.12864751 2.4398043 3.0815277
0.18216945 2.435339 3.0906599
0.2268752 2.438334 3.0920749
0.26585284 2.4328768 3.074048
0.32336736 2.4324889 3.06903
0.37750188 2.4343922 3.0749331
0.43092656 2.4352334 3.0702336
0.47598797 2.4294779 3.0746827
0.51702189 2.4296212 3.0780129
0.57581335 2.4377921 3.0712996
0.63003379 2.4315701 3.0718606
0.6850363 2.431988 3.0715027
0.7260285 2.4310346 3.0748529
0.77770257 2.4282062 3.0748227
0.86663198 2.4255905 3.0514512
0.9634794 2.4483624 3.0947328
1.0394517 2.4156661 3.0661247
1.0831157 2.4382694 3.0723112
1.1344204 2.4255147 3.0767872
1.18453 2.4157133 3.0595469
1.2245919 2.4163558 3.0728967
1.3477051 2.425936 3.0958548
1.4416776 2.4085054 3.0738771
1.4763038 2.4194021 3.0763102
1.5213932 2.4202244 3.0725336
1.5828611 2.4203124 3.0738206
1.6176864 2.4157817 3.0830381
1.6741881 2.424243 3.0810976
1.734822 2.4232321 3.0943465
1.7782105 2.4300237 3.0839264
1.826122 2.4296904 3.0587819
1.8756547 2.4246814 3.0698774
1.9458874 2.4324903 3.0915325
2.0001144 2.426985 3.05145
2.0781348 2.4300783 3.0592532
2.2455871 2.4439945 3.080919
2.2664011 2.4447007 3.0688095
2.3082399 2.4474616 3.0988193
0.91220731 2.4515498 3.0752831
-0.19275212 -0.52923018 3.1375711
-0.14582513 -0.52363682 3.1059999
-0.10087258 -0.49340609 3.1084144
0.4868958 -0.46036506 3.117867
0.52753627 -0.45957229 3.1081657
0.55883616 -0.46368074 3.1329346
1.1378762 -0.46117595 3.1214128
-0.66937876 -0.40837356 3.1072145
-0.62284142 -0.42424625 3.1345119
-0.59207934 -0.42777714 3.1484246
0.4919259 -0.43545538 3.1033216
0.5163399 -0.42576033 3.1134586
0.57898104 -0.43121624 3.1186216
1.1399554 -0.42286888 3.1309013
1.1557465 -0.4122664 3.1049037
-0.71541351 -0.37845826 3.105799
-0.67126906 -0.37784803 3.1271818
-0.63790041 -0.37427497 3.1468258
-0.5744819 -0.39562452 3.14027
1.1291785 -0.3729642 3.1289804
1.1542406 -0.38064861 3.103575
-0.71754318 -0.32444721 3.1076965
-0.67387795 -0.32510409 3.1274726
-0.63698512 -0.32796216 3.1456907
1.1396154 -0.32804713 3.1298311
1.1543415 -0.31072563 3.1091669
-0.71387339 -0.27188265 3.1064265
-0.67244416 -0.27348056 3.1313789
-0.52712971 -0.25783348 3.144752
0.078052849 -0.25248542 3.1067016
0.10816966 -0.26086193 3.1174765
1.1434256 -0.28081366 3.127753
1.1530353 -0.27932188 3.1076362
-0.7119692 -0.22945055 3.1071713
-0.67246008 -0.22789781 3.1338494
-0.51008141 -0.24177508 3.135643
-0.48136419 -0.22737856 3.1494098
-0.4043256 -0.22670004 3.1468811
0.048982583 -0.24077217 3.1489396
0.078635566 -0.23950399 3.1319501
1.1378188 -0.22083902 3.131243
1.1508714 -0.23230644 3.1044018
1.2803338 -0.21119219 3.1061471
1.3051631 -0.20357212 3.1029031
-0.70617455 -0.17361227 3.1114995
-0.67380846 -0.17616755 3.1349366
-0.63614374 -0.19801576 3.1486127
1.1400169 -0.17725037 3.1236148
1.1507854 -0.16254161 3.1071749
1.2704017 -0.17177282 3.1048346
1.3045187 -0.17997247 3.1023593
-0.71541339 -0.11475458 3.1127188
-0.67251307 -0.12152084 3.1379492
0.0784918 -0.14437945 3.1291764
0.12731846 -0.1192058 3.1213148
0.15376751 -0.11242215 3.1396117
1.1414806 -0.1244857 3.129241
1.152771 -0.1240195 3.1137238
1.2692517 -0.13255647 3.1033459
-0.72174603 -0.075486049 3.1138315
-0.67927098 -0.075812198 3.1337919
1.1448078 -0.077428877 3.1162002
-0.75029308 -0.01498472 3.1025972
-0.72466928 -0.03013679 3.1134186
-0.67427844 -0.028922351 3.1375456
1.1446928 -0.031083697 3.1395738
1.1529659 -0.030862607 3.1157715
-0.75171876 0.045431796 3.1082561
-0.72481561 0.021065345 3.1171443
-0.67736518 0.021126816 3.1366229
1.1418042 0.023569809 3.1316411
1.1519151 0.02343897 3.1129222
-0.75016856 0.075498879 3.1014197
-0.72272348 0.075776413 3.117877
-0.68004727 0.076084718 3.1373019
1.1448023 0.07416904 3.1277099
1.1531091 0.085604563 3.1153848
-0.75097412 0.12087906 3.1037676
-0.72332174 0.12128481 3.1195297
-0.68056631 0.1217688 3.1386979
1.1370189 0.12743872 3.1167262
1.1503481 0.10862639 3.1074183
-0.75153083 0.173852 3.1043501
-0.7239055 0.17447047 3.1203387
-0.6807583 0.1750565 3.1378419
-0.75301772 0.22716539 3.108196
-0.72477698 0.22780712 3.1217842
-0.67848182 0.22704425 3.1396573
-0.76066136 0.27260673 3.1048195
-0.72482377 0.27335984 3.1195273
-0.68220633 0.27453551 3.1397953
-0.75656211 0.32125217 3.1042323
-0.72625536 0.32445595 3.1162195
-0.67733359 0.31921041 3.1409073
-0.76044732 0.38226923 3.1026065
-0.72444654 0.37719372 3.117429
-0.68335247 0.37428167 3.1381645
-0.75508684 0.42512655 3.1027629
-0.72769541 0.42778328 3.1105602
-0.68357617 0.4278754 3.1346521
-0.72657859 0.4718816 3.1111586
-0.68157434 0.47444981 3.1355286
-0.76060724 0.52095479 3.102705
-0.72385252 0.52214026 3.1204259
-0.67910773 0.52197623 3.141057
-0.76629221 0.58388835 3.1055706
-0.72266233 0.57649618 3.1237175
-0.67753392 0.57167107 3.1438286
-0.76500452 0.63132727 3.1038129
-0.72539592 0.62966847 3.1218834
-0.6799413 0.62230086 3.1451387
-0.76266289 0.67472535 3.1044798
-0.72722691 0.67743415 3.1231558
-0.68307024 0.67941076 3.1394393
-0.75771922 0.7233271 3.109884
-0.72179717 0.72588444 3.1271133
-0.67855442 0.72517157 3.1394362
-0.76476043 0.76884919 3.1068318
-0.72300559 0.77351588 3.1247945
-0.67862737 0.77581429 3.1411726
-0.76022321 0.81836224 3.1044257
-0.72483253 0.82200456 3.1245697
-0.68273586 0.82497835 3.1427603
-0.76298684 0.86782646 3.1070254
-0.72619754 0.87015754 3.121768
-0.68675393 0.87584388 3.1403155
-0.7696991 0.92158478 3.1078107
-0.72617632 0.92226636 3.1260777
-0.68413478 0.92289698 3.1406498
-0.76694256 0.97087079 3.1099617
-0.72415829 0.97108793 3.1288555
-0.68339062 0.97038633 3.1468186
-0.77172512 1.0218152 3.1072242
-0.72659618 1.0214924 3.1289604
-0.68925005 1.0243341 3.1438551
-0.76534206 1.0726019 3.1170943
-0.72188139 1.0732863 3.132843
-0.69234103 1.0764138 3.1469376
-0.76901191 1.1203371 3.1124337
-0.72449929 1.1247313 3.1325951
-0.69480985 1.1279098 3.1465111
-0.77168596 1.1717511 3.1109459
-0.72754341 1.1771698 3.1334221
-0.69787061 1.1807609 3.1480472
-0.80700612 1.2406896 3.1018426
-0.77471691 1.2240471 3.1101391
-0.72689009 1.2307692 3.1314383
-0.69436979 1.2265118 3.1456947
-0.77836013 1.2777349 3.1110733
-0.72839582 1.275287 3.1329253
-0.68542588 1.2509645 3.1492965
-0.77478856 1.3252083 3.1183054
-0.72617352 1.3249444 3.1418724
-0.81500769 1.37734 3.1094952
-0.7706877 1.3723509 3.123138
-0.72918028 1.3743778 3.1413081
-0.81622416 1.4215044 3.1066799
-0.77525055 1.4292109 3.1258531
-0.73641348 1.424454 3.1430993
-0.81344569 1.4850034 3.1074035
-0.77820259 1.4754122 3.1240273
-0.74804777 1.4638536 3.1455574
-0.8647362 1.5414335 3.106034
-0.82075769 1.535404 3.119472
-0.7729761 1.5237064 3.1358728
-0.85741454 1.5756005 3.1061702
-0.81968659 1.5775194 3.1211722
-0.77216393 1.5778823 3.13954
-0.86148578 1.6325208 3.106868
-0.82267183 1.6231711 3.1173806
-0.77785361 1.6247008 3.1389582
-0.86688375 1.6794819 3.1065657
-0.8276003 1.6724138 3.1204698
-0.78001142 1.6717972 3.1415093
-0.87488747 1.7364416 3.1104457
-0.82291102 1.7249054 3.128607
-0.7834208 1.7098274 3.142926
-0.90254009 1.7720946 3.1004372
-0.86941481 1.7730322 3.1093795
-0.82261771 1.7808547 3.1335328
-0.79038894 1.7842432 3.1461029
-0.90663844 1.8054465 3.1033607
-0.87788403 1.8262221 3.113853
-0.82708806 1.82451 3.1357396
-0.87782353 1.8765799 3.111969
-0.83378482 1.8750876 3.1342156
-0.7987529 1.8715093 3.1491785
-0.90927321 1.9305558 3.1088295
-0.86899447 1.9270372 3.1180286
-0.82189488 1.9217449 3.1375716
-0.78359866 1.9018258 3.1484714
-0.91230637 1.9656782 3.1052256
-0.8753354 1.9756331 3.1240051
-0.82537127 1.9798447 3.1416423
-0.91236407 2.0243826 3.1029694
-0.87908959 2.0187411 3.1199572
-0.82897162 2.0232351 3.1380703
-0.90904522 2.0893855 3.1095378
-0.87636542 2.0739903 3.1217213
-0.83406126 2.0706952 3.1395364
-0.90746129 2.13134 3.1080403
-0.87349939 2.1281879 3.1231461
-0.82988894 2.1171999 3.1400876
-0.91193843 2.177134 3.1037073
-0.8768459 2.1799791 3.1239965
-0.83555967 2.1670589 3.1423287
-0.91299504 2.2322943 3.1067517
-0.88073432 2.2298191 3.1203876
-0.84180528 2.2195745 3.1358175
-0.91144937 2.272815 3.1055794
-0.87206769 2.281697 3.1215875
-0.83134723 2.2695496 3.143465
-0.8717705 2.3244748 3.1136286
-0.82614267 2.3262701 3.1363535
-0.78939569 2.3374929 3.1463718
-0.85909915 2.3578031 3.1052024
-0.82119149 2.3698757 3.1158748
-0.77475172 2.3851418 3.1249783
-0.72493726 2.3942127 3.1352341
-0.67942572 2.394671 3.1202698
-0.62641406 2.3984339 3.1344273
-0.77149397 2.401124 3.1114178
-0.73540938 2.4011486 3.1186469
-0.62373155 2.4061182 3.1096714
-0.57613361 2.4090116 3.1299064
-0.51625443 2.4116952 3.1244016
-0.47707754 2.4196482 3.1277189
-0.42687365 2.4183407 3.1353996
-0.36743522 2.4250851 3.1242549
-0.31872487 2.4252231 3.1374559
-0.27848881 2.4296803 3.1256316
-0.23253122 2.4291086 3.1227672
-0.17403394 2.4286911 3.116709
-0.1208689 2.4365103 3.128813
-0.076088533 2.4364495 3.1299031
-0.031313401 2.4362605 3.1302707
0.022378465 2.4312038 3.1238391
0.076059915 2.4333334 3.1258914
0.12971543 2.4336801 3.1249039
0.17437209 2.4325798 3.1217396
0.21965711 2.438988 3.1276467
0.27229312 2.4286454 3.1109421
0.33238512 2.4392209 3.1285141
0.37778193 2.4342601 3.1230776
0.41884103 2.4369869 3.1345687
0.46904781 2.4403241 3.1331353
0.52886623 2.4416742 3.1358635
0.58033705 2.4300625 3.1130855
0.63010889 2.4308689 3.1180465
0.6703673 2.4324498 3.1227489
0.73183393 2.4372137 3.1320813
0.77424878 2.4310935 3.1275225
0.82676119 2.4490933 3.1285558
0.87583047 2.4402614 3.1422524
1.1868402 2.4207783 3.1046693
1.2277293 2.4283192 3.1413887
1.2767857 2.432934 3.1315582
1.3043675 2.4227233 3.1268849
1.3735136 2.4198802 3.1175487
1.4255106 2.4257996 3.1476715
1.477056 2.4211845 3.134115
1.518422 2.4266768 3.1256618
1.5724866 2.4231906 3.1254919
1.6150113 2.416436 3.1391642
1.676496 2.4222245 3.120465
1.7312857 2.423351 3.1259375
1.8267337 2.4369063 3.1159196
1.8711662 2.4352248 3.1208436
1.9230613 2.4317806 3.134202
1.9667815 2.4387667 3.1383038
2.0198493 2.4331508 3.1229196
2.3192701 2.438648 3.127732
2.384196 2.4427521 3.1464727
0.43698686 2.4513526 3.1249986
0.82757998 2.4515524 3.1316497
1.0383878 2.4560845 3.1226342
1.0827775 2.4545565 3.1460147
-0.17756405 -0.51744866 3.172358
-0.14855225 -0.5181886 3.1657386
-0.10833126 -0.46923938 3.1845741
-0.087806739 -0.48896751 3.1785727
1.1335508 -0.47397336 3.1968677
-0.60832351 -0.41314954 3.1528275
-0.59266841 -0.41290784 3.152899
-0.10335842 -0.41364276 3.1936367
-0.61689121 -0.37544218 3.1596613
-0.5847435 -0.36996594 3.1664119
1.0854737 -0.38150606 3.1991882
1.1303972 -0.38055626 3.1800034
-0.6193971 -0.31921619 3.1593108
-0.57968986 -0.32242855 3.1744881
-0.54441965 -0.30452749 3.1526775
1.1377223 -0.32260063 3.1565962
-0.62305456 -0.27516684 3.1578398
-0.57662088 -0.27482855 3.1778197
-0.54944289 -0.28428483 3.1831567
1.1379447 -0.27542338 3.1602192
-0.62290502 -0.22924232 3.1594732
-0.57443428 -0.23183566 3.1822126
-0.53027421 -0.22414169 3.1919618
-0.46074134 -0.2284435 3.1663609
0.040181391 -0.22402892 3.1686368
0.079617657 -0.21954526 3.1695249
0.10983723 -0.24220508 3.1667068
1.1400346 -0.23649096 3.1682146
-0.65175897 -0.1523879 3.1500247
-0.62115651 -0.17354573 3.1601136
-0.57196051 -0.17653577 3.1826615
-0.53545117 -0.15403439 3.1989381
0.032884341 -0.17682773 3.1744509
0.064497814 -0.1743753 3.1744125
1.1370091 -0.16504601 3.1628227
-0.62205046 -0.12205389 3.1589839
-0.57407194 -0.12138606 3.184159
-0.54014134 -0.1333753 3.1963329
0.049630478 -0.13720876 3.1946435
0.15550119 -0.13643448 3.1744485
1.1396006 -0.12594414 3.1712322
-0.6516766 -0.076140776 3.151386
-0.6223228 -0.076286361 3.1612341
-0.57167786 -0.076677516 3.1836655
0.029958179 -0.073934026 3.1911786
0.069821618 -0.076046318 3.1898174
0.12445326 -0.090420738 3.1580896
1.1436366 -0.094791166 3.1832094
-0.65165037 -0.045651112 3.1516445
-0.62230223 -0.0304711 3.1616514
-0.57180268 -0.030631119 3.1848381
0.041677602 -0.045361005 3.1719635
0.064945668 -0.045755271 3.1993086
1.1477981 -0.031608362 3.1955812
-0.65146774 0.030563021 3.1508152
-0.62239701 0.022990102 3.1621387
-0.57311219 0.024634209 3.1833458
-0.54244697 0.0077714995 3.1962535
-0.65167326 0.07631427 3.1512668
-0.62268645 0.076494411 3.1630087
-0.57405239 0.075457379 3.1848261
-0.5497613 0.092350185 3.1922266
1.1490803 0.087647989 3.1983728
-0.65181005 0.12207662 3.1509483
-0.62306285 0.12242051 3.1639409
-0.57407403 0.12293405 3.183944
-0.54245144 0.13089901 3.1944451
1.148298 0.11936215 3.1954696
-0.65258193 0.17566055 3.1529629
-0.62307191 0.17594193 3.1622858
-0.57640356 0.17500727 3.1836963
-0.54275203 0.15406521 3.1955347
-0.6530118 0.2368802 3.1523814
-0.62432337 0.22993353 3.166363
-0.57091981 0.22650012 3.1870003
-0.53611213 0.23151848 3.1995783
-0.39124432 0.22800842 3.1643004
-0.65355271 0.27529481 3.1529024
-0.62428993 0.27587786 3.1636992
-0.57365811 0.27733946 3.1871252
-0.65430349 0.33684596 3.1525612
-0.62501431 0.32223871 3.1645293
-0.57428843 0.32389796 3.1877012
-0.65466064 0.37532836 3.1513543
-0.62695497 0.37414578 3.16324
-0.5747214 0.37044343 3.1867666
-0.65575784 0.42965114 3.1520576
-0.62485379 0.42748293 3.1633489
-0.57704294 0.4234947 3.1865194
-0.65645957 0.47618753 3.1509824
-0.62726313 0.47735065 3.1628675
-0.57856947 0.48133042 3.186342
-0.65825361 0.52369851 3.1546829
-0.62886 0.52487516 3.1659973
-0.57747757 0.52729064 3.187475
-0.65841937 0.5623312 3.1510301
-0.62229747 0.57225639 3.1675856
-0.57097632 0.57505172 3.1899199
-0.54105121 0.59182978 3.198391
-0.66063505 0.63378924 3.1527293
-0.62330848 0.61965269 3.1668169
-0.57188207 0.62265843 3.1890948
-0.5413627 0.6077528 3.198276
-0.66163176 0.68117923 3.1509411
-0.62723738 0.67238027 3.1681607
-0.5725376 0.67013001 3.1864259
-0.54302049 0.67213511 3.1996834
-0.66385216 0.74559134 3.1520052
-0.62431401 0.72740829 3.1685257
-0.57537597 0.72433639 3.1863761
-0.5344311 0.72008246 3.1985383
-0.62766784 0.7799837 3.1657295
-0.57537335 0.77783734 3.1861086
-0.5367679 0.76816291 3.1956413
-0.65521073 0.82705837 3.1549547
-0.62203044 0.82963437 3.1695933
-0.57542813 0.82925338 3.186934
-0.54578745 0.80910432 3.1951318
-0.65944302 0.87326223 3.1556454
-0.62341005 0.87853503 3.1679735
-0.57861882 0.88198811 3.1865053
-0.5439328 0.87134165 3.1972635
-0.65851223 0.92141253 3.153759
-0.62546748 0.92863584 3.1691759
-0.57707214 0.93183631 3.1866193
-0.54379326 0.90614349 3.198096
-0.66353303 0.97945118 3.1548698
-0.62675637 0.9778896 3.1659775
-0.57427478 0.97461444 3.1899192
-0.66696429 1.0264043 3.1537571
-0.6293577 1.0294691 3.1687629
-0.57635242 1.0194728 3.1925094
-0.66945213 1.0777879 3.1545093
-0.62509298 1.0762881 3.1750956
-0.57866144 1.0698601 3.1948271
-0.66676229 1.1328692 3.1587782
-0.62063706 1.1200819 3.1791105
-0.58091354 1.1221118 3.1958568
-0.67154771 1.1757218 3.1588905
-0.62121928 1.170682 3.1798527
-0.59113646 1.1745853 3.1947343
-0.66725439 1.2166775 3.1608176
-0.624295 1.2248154 3.1828089
-0.59380603 1.2283851 3.1964166
-0.7032842 1.2703001 3.1504223
-0.67136598 1.2765963 3.1656733
-0.62703198 1.2787668 3.183358
-0.59627616 1.2740611 3.19858
-0.70739943 1.3181829 3.1570492
-0.67663091 1.3293612 3.1669955
-0.63153893 1.3273027 3.1813557
-0.59216964 1.3121171 3.1963043
-0.71090734 1.3897343 3.1527476
-0.6789487 1.3746114 3.1655591
-0.63316429 1.3776547 3.1889369
-0.71470034 1.4298357 3.1590607
-0.67451936 1.4231278 3.1713171
-0.63241148 1.4254295 3.193629
-0.7512365 1.4947166 3.1505637
-0.71764684 1.4747198 3.1590865
-0.67217404 1.4751588 3.1740835
-0.63880157 1.4758804 3.1897106
-0.72226298 1.5240389 3.165765
-0.67269278 1.5259688 3.184489
-0.6433419 1.5279093 3.198235
-0.75588965 1.5535622 3.1525512
-0.72575802 1.576485 3.1649866
-0.67755502 1.5717558 3.1833179
-0.64495867 1.5650274 3.1946206
-0.72493404 1.6280034 3.1671064
-0.67669499 1.62464 3.1910465
-0.75893795 1.694526 3.1570225
-0.72571522 1.6708399 3.169004
-0.6767959 1.6736284 3.1891367
-0.76704675 1.7283157 3.1578758
-0.72054952 1.7269591 3.1819708
-0.68320608 1.7242264 3.1956413
-0.76997089 1.7653768 3.1573131
-0.72610193 1.7755369 3.1801755
-0.69370866 1.7795303 3.1930652
-0.77676588 1.8244218 3.1596704
-0.72992593 1.8276206 3.1786931
-0.69805771 1.8249719 3.1985567
-0.76963937 1.8772748 3.161057
-0.71958596 1.8780867 3.1846972
-0.68308026 1.8737184 3.1926961
-0.80607796 1.9404167 3.1539989
-0.76789129 1.9242668 3.1675186
-0.72265488 1.9306722 3.1904342
-0.77755409 1.9702616 3.1644015
-0.72585201 1.9739923 3.1881874
-0.69310868 1.9884564 3.1993184
-0.77842337 2.0263772 3.167197
-0.7319116 2.022387 3.1845937
-0.69652915 2.0333345 3.1980877
-0.80947292 2.0747623 3.1511483
-0.77294242 2.0795667 3.1686099
-0.72732866 2.0728021 3.1895139
-0.80474621 2.1203673 3.150228
-0.77268869 2.1290271 3.170037
-0.72204316 2.1321149 3.1921277
-0.81094474 2.1721807 3.1553035
-0.77721888 2.1770637 3.1694877
-0.72942126 2.1810215 3.1882045
-0.8160162 2.2214556 3.155158
-0.77707702 2.2280588 3.1702237
-0.73085546 2.2247574 3.1951172
-0.80796844 2.2649658 3.1539223
-0.76866168 2.2754381 3.1710107
-0.72804874 2.2779408 3.1933389
-0.80546063 2.3047433 3.1511798
-0.7681672 2.318959 3.1644149
-0.7206164 2.3304436 3.1861823
-0.67665237 2.3441849 3.1952531
-0.76245642 2.362268 3.1562643
-0.71882349 2.3732278 3.1659849
-0.67046189 2.3805382 3.1789289
-0.63141286 2.3947945 3.1734991
-0.59469163 2.3978333 3.1744218
-0.56711757 2.4054704 3.1710091
-0.52557391 2.4081669 3.1768737
-0.47629273 2.4141786 3.1770043
-0.42904544 2.4036005 3.1682959
-0.3757275 2.4183908 3.1758873
-0.31995302 2.4165866 3.1608846
-0.27580881 2.4245114 3.1747146
-0.22683862 2.4301798 3.1713212
-0.17622863 2.4322412 3.1731529
-0.12190165 2.4301643 3.1724958
-0.076771922 2.4312525 3.1751022
-0.027949806 2.4322786 3.173589
0.022629181 2.4314556 3.1760275
0.080505252 2.4343572 3.1755881
0.12187632 2.4377041 3.1649365
0.17323871 2.4349444 3.1710465
0.22507533 2.43345 3.1687586
0.28024322 2.4417329 3.1760354
0.32771659 2.4406819 3.1779981
0.36719522 2.4303689 3.174994
0.4228628 2.4376392 3.1789541
0.48258114 2.4362144 3.1790404
0.52691525 2.4362245 3.1763175
0.57005185 2.4359035 3.1757612
0.6210593 2.4392223 3.1723943
0.67100483 2.4290752 3.1684213
0.71993804 2.4401684 3.1746209
0.77607316 2.4326396 3.1754918
0.82758313 2.4366479 3.162869
0.87300152 2.439718 3.1792831
0.92915225 2.4353096 3.1724758
0.97449404 2.4440339 3.1987338
1.1886673 2.4440126 3.1768417
1.2329298 2.4384243 3.1942644
1.4248295 2.4312742 3.1770363
1.4684861 2.4309564 3.1805305
1.5277029 2.4261675 3.1775229
1.568303 2.4167874 3.1743724
1.6686997 2.4336009 3.186547
1.7350264 2.4350672 3.1806936
1.7836432 2.4445698 3.1502583
1.8126724 2.4377692 3.1703217
1.8733788 2.4331884 3.1783285
1.9147743 2.4265349 3.1768849
1.9791331 2.4341359 3.1714404
2.0144825 2.4327793 3.1983674
2.0884125 2.4488449 3.1853449
2.1754756 2.4355774 3.160356
2.3243425 2.4449897 3.1898961
0.1500361 2.4553246 3.1868792
0.38853332 2.4505975 3.1996622
1.0185339 2.4751163 3.1544871
1.0715522 2.4652236 3.177098
1.1320286 2.4622302 3.181174
1.8616512 2.4505475 3.1670129
2.2487473 2.4509594 3.1957893
1.132374 -0.45916793 3.2283397
-0.10394531 -0.40058386 3.2130415
1.0120263 -0.43182018 3.2321641
1.1401294 -0.41875353 3.2292547
-0.1190313 -0.39949834 3.2039888
1.0892907 -0.39880565 3.2091222
1.1378859 -0.35982481 3.2360303
-0.22874521 -0.3257114 3.2360909
1.1483753 -0.30603138 3.2364376
1.1512275 -0.33102587 3.2428536
-0.30756521 -0.28031671 3.2479784
1.1472259 -0.27353314 3.2351296
1.6219624 -0.26793462 3.2416444
-0.51337564 -0.20839903 3.205965
-0.47608373 -0.20897806 3.2188361
-0.4312782 -0.20978689 3.23546
-0.3698318 -0.21020147 3.2467966
-0.3348718 -0.23093563 3.211452
1.1471815 -0.2252344 3.2375152
-0.51936001 -0.17178676 3.2079844
-0.47683081 -0.17053743 3.2252882
-0.43140283 -0.17097451 3.2378092
-0.36909992 -0.18646924 3.2412932
0.0090838289 -0.1597196 3.2385874
0.080636621 -0.19177154 3.2126541
1.145533 -0.17667826 3.234874
-0.51663262 -0.12125012 3.2081907
-0.47671521 -0.12398008 3.2258821
-0.43182498 -0.12445132 3.2423537
-0.3693105 -0.10881405 3.2454031
0.034636807 -0.12080701 3.2214215
1.1430165 -0.14419653 3.2288513
-0.5210464 -0.0771368 3.2086108
-0.47667128 -0.077458523 3.226573
-0.43192554 -0.077779338 3.2439959
-0.36775041 -0.077405639 3.2322376
0.003931425 -0.092667244 3.2381203
0.085882001 -0.076794922 3.221442
1.1507372 -0.071492404 3.2033749
1.5834912 -0.091135234 3.2303123
-0.52077985 -0.03079929 3.2074556
-0.47674996 -0.03095354 3.22756
-0.43383974 -0.033025563 3.2440803
-0.36665168 -0.030856803 3.2230577
0.019348623 -0.046231408 3.2329664
0.080977947 -0.046192512 3.2296708
1.1556679 -0.031811114 3.217519
-0.51965868 0.023934565 3.2093656
-0.4767468 0.023328504 3.2274916
-0.43177223 0.02340267 3.2433298
0.07066258 0.02059916 3.2279205
1.1529884 0.024115868 3.210031
-0.52103448 0.077267505 3.2084622
-0.47681698 0.077608198 3.2274044
-0.43152004 0.077829629 3.2408581
1.151666 0.063934319 3.205981
1.5999761 0.050180763 3.2247066
1.6119514 0.067303546 3.2486115
-0.51922977 0.12170065 3.2085321
-0.47699329 0.12418047 3.2275839
-0.43151295 0.12447706 3.2397509
-0.35240546 0.13949493 3.2331889
1.6124861 0.12596013 3.2483854
-0.51972741 0.17205442 3.2100263
-0.47706822 0.17075771 3.2266905
-0.43127239 0.17104706 3.2365067
-0.35203022 0.16256279 3.2290173
-0.52065653 0.22369808 3.2103608
-0.47769305 0.22536659 3.2286718
-0.43387586 0.22395514 3.2431884
-0.39662066 0.24654767 3.2070227
-0.52229106 0.2786738 3.2087257
-0.4777441 0.27977023 3.2262492
-0.43512195 0.28311819 3.2432551
-0.39850321 0.27096504 3.2209992
-0.52284849 0.32545793 3.2092085
-0.47813591 0.32666814 3.225971
-0.42521319 0.32781592 3.2423089
-0.52349418 0.37240496 3.2098436
-0.47878185 0.37383354 3.2269604
-0.43372291 0.36855611 3.2441795
-0.52405483 0.41939762 3.2094626
-0.47247908 0.42189482 3.2341993
-0.43517274 0.43923968 3.2492435
-0.55483329 0.4579815 3.2007909
-0.52488154 0.47450194 3.2094514
-0.47470987 0.47158134 3.2323253
-0.42440769 0.46765316 3.2450879
-0.5259968 0.53007901 3.2106123
-0.47199795 0.52619189 3.2315474
-0.4232589 0.5319708 3.2432938
-0.52484781 0.57577068 3.2105703
-0.52510905 0.6268118 3.2057271
-0.52609116 0.67298549 3.2056344
-0.520751 0.72066259 3.2026117
-0.51432472 0.76975292 3.2048757
-0.49822569 0.76915836 3.2040157
-0.52662814 0.82081729 3.2019401
-0.48464516 0.82774687 3.2105663
-0.43964648 0.83994001 3.2304454
-0.51524079 0.86690319 3.2071116
-0.47083971 0.87075418 3.2183762
-0.43106994 0.8810491 3.2398264
-0.51700234 0.92138982 3.2083292
-0.4726063 0.92168957 3.2214527
-0.43467581 0.92550737 3.2385864
-0.52119964 0.97112441 3.212708
-0.47581652 0.97596878 3.2337801
-0.44488654 0.97826952 3.2445145
-0.55357188 1.0198219 3.201921
-0.52330458 1.0229907 3.2154477
-0.47799841 1.0286701 3.2384348
-0.44658363 1.0222294 3.2484503
-0.55623692 1.0727774 3.2065163
-0.52564377 1.0757319 3.2190404
-0.48447162 1.078746 3.2402222
-0.55809981 1.1245683 3.2058372
-0.52801722 1.1289816 3.222173
-0.48368865 1.1237646 3.2409387
-0.5686838 1.1780638 3.2072337
-0.53189731 1.1762153 3.2205348
-0.48315436 1.1697034 3.2429421
-0.57212412 1.2271584 3.2054267
-0.52193511 1.220889 3.2284606
-0.48544794 1.216033 3.2479
-0.56804436 1.2747892 3.2117498
-0.52476859 1.2736129 3.2336044
-0.48805988 1.2800128 3.2499974
-0.60006672 1.3393224 3.2024441
-0.56540883 1.3231494 3.2119689
-0.52165681 1.3312868 3.2373753
-0.60635537 1.3729461 3.2049842
-0.57307243 1.3786993 3.2175612
-0.52383667 1.3781013 3.2387159
-0.4903394 1.3601968 3.2439778
-0.61066937 1.4276167 3.2053382
-0.57157153 1.4255705 3.2222269
-0.52854502 1.4286214 3.2414348
-0.61611289 1.4725338 3.2065294
-0.57628804 1.4764652 3.2206106
-0.5324834 1.4771143 3.2445698
-0.62440437 1.5236647 3.2084918
-0.57989186 1.5274587 3.2268724
-0.54375482 1.5230228 3.2426991
-0.62313432 1.5772413 3.2130311
-0.57602525 1.573326 3.2351906
-0.65023792 1.6198041 3.2055106
-0.62045807 1.6270609 3.2158773
-0.56901205 1.6190631 3.2354286
-0.65393066 1.6796632 3.204546
-0.61916333 1.6763325 3.2179165
-0.57272625 1.6721019 3.2408609
-0.65636837 1.7198131 3.2031913
-0.62493968 1.7266401 3.2208946
-0.58408225 1.7230023 3.2392476
-0.66934997 1.7741623 3.2062819
-0.63065445 1.7735397 3.2220864
-0.58773571 1.7766731 3.2423689
-0.67390966 1.8291926 3.210073
-0.63022208 1.8267487 3.2267032
-0.59469765 1.8278222 3.2385674
-0.66470373 1.8697573 3.2114072
-0.6196118 1.8812184 3.2346375
-0.58585799 1.8753916 3.2481897
-0.67380285 1.9224503 3.207999
-0.62245768 1.9246521 3.2339313
-0.58008993 1.9284856 3.2465167
-0.67036539 1.9754688 3.2124538
-0.62586004 1.9702371 3.2355804
-0.59130859 1.9804634 3.2390213
-0.67617673 2.0249095 3.2099876
-0.63150531 2.0228758 3.2332265
-0.58591819 2.0183995 3.2465363
-0.70288074 2.0872617 3.2095695
-0.67524725 2.0751009 3.2132454
-0.62941444 2.0722537 3.2344785
-0.5968771 2.0521982 3.2442231
-0.70357382 2.1070304 3.2036896
-0.67062092 2.123708 3.2168286
-0.62689608 2.1267025 3.2394917
-0.67448956 2.1717658 3.2167473
-0.62755859 2.1842804 3.2396495
-0.71201175 2.2039924 3.2041337
-0.6783374 2.220022 3.2155664
-0.63013858 2.2256875 3.2354817
-0.70863581 2.2667005 3.2061081
-0.67827207 2.2660446 3.2140071
-0.63024741 2.2770269 3.234236
-0.59600312 2.2938588 3.2456522
-0.70213628 2.3020375 3.203732
-0.67076665 2.3209128 3.2068963
-0.63238162 2.3212306 3.2245953
-0.58474922 2.3353367 3.2427888
-0.62376589 2.3717828 3.2134786
-0.58118492 2.3805816 3.2248945
-0.53760099 2.3902698 3.2444835
-0.52210736 2.4052825 3.2218666
-0.47138587 2.408159 3.2231195
-0.42410839 2.4087033 3.2112241
-0.37541702 2.4137509 3.2318506
-0.32442355 2.4227734 3.2217138
-0.26942423 2.4212224 3.2237122
-0.22695617 2.4259493 3.2267773
-0.18185894 2.4245563 3.2295547
-0.12366313 2.4384351 3.2360411
-0.064076349 2.431752 3.2374024
-0.031868976 2.4362278 3.2231398
0.022980288 2.4431112 3.2440956
0.073284313 2.4404747 3.2311521
0.12344493 2.44137 3.2222955
