ply
format ascii 1.0
comment PCL generated
element vertex 1547
property float x
property float y
property float z
element camera 0
property float view_px
property float view_py
property float view_pz
property float x_axisx
property float x_axisy
property float x_axisz
property float y_axisx
property float y_axisy
property float y_axisz
property float z_axisx
property float z_axisy
property float z_axisz
property float focal
property float scalex
property float scaley
property float centerx
property float centery
property int viewportx
property int viewporty
property float k1
property float k2
end_header
0.57766968 0.87336653 3.7168229
0.62163627 0.87592191 3.7349298
0.54051518 0.94478494 3.7032871
0.57663715 0.92554629 3.7137573
0.61975336 0.9273808 3.7399094
0.53213465 0.97332883 3.7043099
0.57397884 0.97424573 3.7194192
0.62171912 0.97636384 3.7438345
0.53226465 1.0008613 3.7003069
0.5729022 1.0266207 3.720587
0.62272584 1.024071 3.7415428
0.53522754 1.0887914 3.7051444
0.57390344 1.0743344 3.7183616
0.61484766 1.0725999 3.7420528
0.52741402 1.1282262 3.7078965
0.57647592 1.1252749 3.7256961
0.6259864 1.1129074 3.7449608
0.53042579 1.17303 3.7070038
0.57810974 1.1747128 3.72651
0.62473887 1.1720282 3.7447712
0.53090006 1.2279928 3.7122633
0.57166582 1.2270242 3.7357662
0.60161054 1.2219437 3.7478218
0.53103048 1.2752496 3.7165444
0.57243997 1.2752347 3.7301292
0.60308599 1.2717158 3.7462952
0.48611742 1.3333842 3.7031393
0.52732712 1.3239151 3.7131743
0.57251692 1.3225421 3.7326641
0.60406411 1.3112245 3.7434878
0.48691788 1.3634152 3.7022226
0.5267188 1.376599 3.7160168
0.57922679 1.374426 3.7402554
0.48979443 1.4274724 3.7094672
0.52172631 1.4275523 3.7229462
0.5604924 1.4224846 3.74406
0.48502931 1.4785724 3.7084475
0.52221894 1.4772787 3.7282045
0.55315852 1.4751912 3.7465069
0.48875737 1.5227194 3.7140751
0.52171445 1.5246316 3.72609
0.5610531 1.5236259 3.7440937
0.48560184 1.5747025 3.7124968
0.52834266 1.5784681 3.7326622
0.47811064 1.628378 3.713897
0.52892601 1.6297487 3.7371309
0.55862194 1.6139158 3.7475696
0.47656927 1.6780331 3.7187488
0.51543337 1.6788105 3.7430744
0.44221163 1.7213776 3.7066643
0.47268045 1.7284333 3.7193027
0.51648182 1.7206029 3.738205
0.43537062 1.7894001 3.7108431
0.47491765 1.7750382 3.7240748
0.51545173 1.7729403 3.7394803
0.43844944 1.8267921 3.7090631
0.47638497 1.8190014 3.7221267
0.51486957 1.8272028 3.7432888
0.43865216 1.8800298 3.711277
0.47898412 1.8676615 3.7286668
0.51697391 1.8735853 3.7447159
0.42041311 1.923346 3.7076714
0.47132471 1.9209452 3.7286685
0.51356733 1.9370633 3.7486806
0.42175898 1.9683198 3.7047055
0.4761804 1.9756016 3.7305007
0.51564026 1.9841853 3.7487977
0.42438161 2.019547 3.7122464
0.47252321 2.031678 3.7349503
0.51789743 2.032347 3.7496841
0.39645058 2.0852137 3.7033687
0.42676345 2.0701447 3.7171974
0.47854581 2.0755196 3.736902
0.39846599 2.1351786 3.7055521
0.42902958 2.1206353 3.720499
0.47033858 2.1290913 3.7317917
0.50170803 2.1262941 3.7456748
0.42058372 2.1739643 3.7139511
0.47296768 2.1808 3.7354035
0.50261742 2.1500638 3.7439969
0.38213971 2.2434247 3.700314
0.42291009 2.2258146 3.7167909
0.47213241 2.2291403 3.7394018
0.5050714 2.2005885 3.74489
0.38357693 2.2817822 3.7003932
0.42544627 2.279254 3.7208478
0.46678078 2.2789936 3.7308338
0.43684408 2.3200436 3.7161822
0.46864879 2.3284335 3.7268584
0.53053159 2.3043642 3.7450144
0.44789666 2.3656311 3.7043469
0.48251939 2.3714104 3.7227688
0.52069348 2.3794775 3.7316234
0.56205529 2.3912051 3.7401059
0.52180374 2.4118509 3.7069044
0.57859319 2.4122939 3.7179039
0.62395543 2.4215143 3.723892
0.67973846 2.4281065 3.7231741
0.72650611 2.4270549 3.7295754
0.78194332 2.4332516 3.7049477
0.82183814 2.4352241 3.7228005
0.89315164 2.4373822 3.7351065
0.92729974 2.4457982 3.7420669
0.97372174 2.4323766 3.7111924
1.0357882 2.4422047 3.7286091
1.0689675 2.4410124 3.748992
1.1135473 2.4473255 3.7490776
1.1755264 2.4458082 3.7315185
1.2275453 2.4453154 3.7173684
1.2811952 2.4480793 3.7074678
1.3347387 2.4486465 3.7395508
1.4340973 2.4431345 3.7161748
1.4819218 2.4440947 3.7343707
1.5255272 2.4459119 3.7232604
1.5781147 2.4450765 3.703943
1.6235278 2.4441659 3.7352371
1.6775569 2.4448793 3.7169359
1.7172208 2.4448729 3.7270544
1.9070944 2.4490826 3.7354472
1.2618805 2.4511828 3.7179081
1.339051 2.4583344 3.7080941
1.369325 2.4539251 3.7383966
1.4041432 2.4593568 3.7371976
1.5634557 2.4554222 3.7269671
1.6610627 2.4521656 3.7359028
1.8860365 2.4501069 3.7462196
1.974388 2.4512649 3.7102156
0.84620559 -0.51211953 3.7505076
0.68803155 -0.46459097 3.7607973
0.72367656 -0.48075962 3.7753818
0.76171792 -0.49840981 3.7999251
0.81965297 -0.49436516 3.7602398
0.87396878 -0.49303281 3.7907798
0.64026767 -0.42668712 3.7561066
0.6769619 -0.42151222 3.7671909
0.71573555 -0.41734952 3.7879195
0.63894492 -0.38051444 3.751503
0.67930359 -0.37368944 3.7706001
0.72734976 -0.37347054 3.7943742
0.63904428 -0.32619387 3.7554295
0.67942965 -0.32816568 3.7740254
0.72819555 -0.33045715 3.7948284
0.63892883 -0.27177516 3.7575598
0.67862916 -0.27313837 3.7724142
0.72340918 -0.27918005 3.787137
0.62867314 -0.22602487 3.7533422
0.68071085 -0.22070394 3.7732899
0.72919488 -0.22001576 3.7954385
0.63802671 -0.18090434 3.7557747
0.67513293 -0.176615 3.7714083
0.72539496 -0.17704241 3.7933681
0.63791144 -0.12657106 3.7565196
0.67838931 -0.12737788 3.7760162
0.71847105 -0.12803364 3.7911513
1.179638 -0.13037497 3.788393
1.223469 -0.1114655 3.7702975
0.62826914 -0.072226912 3.7548037
0.67782855 -0.072680287 3.7737551
0.72314036 -0.077715904 3.7918673
1.2332969 -0.077578731 3.7805588
1.2511324 -0.055624817 3.7640131
0.62845945 -0.027043629 3.7562933
0.67794961 -0.027208215 3.7748082
0.71935427 -0.02739149 3.7971172
1.2432569 -0.027759584 3.7706904
0.62864321 0.018166859 3.7573872
0.67864442 0.018309169 3.7786713
0.71936554 0.01841742 3.7971892
1.2409431 0.023482095 3.7788258
1.2515678 0.0094918478 3.7655406
0.63328904 0.076964468 3.7571445
0.67807847 0.072888777 3.7750804
0.72332108 0.073324829 3.7928197
1.2430991 0.078494802 3.7757244
1.2513356 0.056002896 3.7645421
0.63856691 0.12688088 3.7602117
0.67867875 0.12760925 3.777451
0.71956223 0.12840448 3.7967384
1.2418866 0.12110421 3.7651529
0.63717437 0.16274714 3.7510934
0.67773247 0.17678885 3.7708454
0.72037369 0.18360932 3.7995152
0.69795001 0.2007876 3.7791002
0.72814792 0.20156936 3.7903333
2.2738771 0.22139873 3.7530415
2.3159761 0.24275032 3.757678
2.3134828 0.26975355 3.759227
0.72297257 0.3365463 3.7569275
0.75932956 0.34094408 3.7673385
0.85108429 0.33132178 3.785255
2.2796769 0.32837233 3.7672639
2.3050363 0.32338449 3.7563045
0.72473985 0.37382558 3.7638018
0.77552646 0.37635398 3.7831485
0.81427252 0.36811367 3.7882895
1.0637182 0.37174496 3.7851684
2.2205112 0.37312117 3.7825539
2.2780824 0.37432235 3.7720668
2.3227196 0.37503469 3.7603302
0.69567007 0.43655571 3.7534025
0.72495383 0.41953453 3.7616832
0.76675004 0.42248321 3.7831697
1.1192647 0.42741516 3.7696874
2.2200229 0.4233827 3.777734
2.2763965 0.42453063 3.7651672
2.3121283 0.42553464 3.7601659
0.69561875 0.46380579 3.750936
0.72682124 0.47546971 3.767004
0.76845425 0.47862387 3.7872016
2.2196276 0.47363672 3.7725537
2.2827704 0.4804298 3.7779424
2.317168 0.47718459 3.7637067
2.3629062 0.48842078 3.7517874
0.69830114 0.52949721 3.7597506
0.72960788 0.52317476 3.7774251
0.76002359 0.52517641 3.788291
2.2244196 0.52511692 3.7755957
2.2849772 0.52745634 3.769664
2.320024 0.52231574 3.7530921
2.3684826 0.50994956 3.7585592
0.6865496 0.57242709 3.7593324
0.72644234 0.57227391 3.7771895
0.76171589 0.56327486 3.7931783
2.2193768 0.57327127 3.7703843
2.2747431 0.5781101 3.7684553
2.3124924 0.57998496 3.766489
0.68050051 0.62117201 3.7551429
0.7222777 0.62569815 3.777843
0.76886034 0.62997955 3.798207
2.2206733 0.62779719 3.7792547
2.2655811 0.62552869 3.7732899
2.3205712 0.62320912 3.7615776
0.68209201 0.67758876 3.7575693
0.7207877 0.6767022 3.7783475
0.76473415 0.66747344 3.7971351
2.2229815 0.6790871 3.776562
2.2738438 0.67549318 3.772038
2.309993 0.66713524 3.762084
2.3534327 0.67447639 3.7570691
0.68205893 0.71415412 3.7528648
0.7290166 0.72442704 3.7893789
0.76609433 0.70580566 3.7993789
2.2269959 0.72090244 3.7776871
2.272151 0.72236621 3.7669535
0.67631459 0.77297741 3.7655466
0.72222936 0.77851868 3.7875407
2.2198031 0.76249671 3.7811573
2.2716861 0.7527225 3.7616365
0.64749134 0.84500062 3.7511864
0.67574292 0.82605028 3.7654834
0.72448373 0.8200525 3.7850335
0.75063807 0.83929467 3.799824
0.64881325 0.88353997 3.7531331
0.68115056 0.8725208 3.7678876
0.72016358 0.87353033 3.7844741
0.75150913 0.89628553 3.7955813
0.64973056 0.93087482 3.7509105
0.67624551 0.92285162 3.765568
0.7218014 0.92210978 3.7856553
0.67284161 0.97444886 3.7682877
0.72473073 0.97259855 3.793108
0.67439157 1.0232216 3.7686377
0.72226101 1.017171 3.789191
0.63078076 1.076092 3.7527766
0.67368668 1.0768213 3.770328
0.72772884 1.0705429 3.7915876
0.62873209 1.1364009 3.7575104
0.67525119 1.1228379 3.7732296
0.7203263 1.1205726 3.7940006
0.63274419 1.1753813 3.7547066
0.67219043 1.1752241 3.7822375
0.71062338 1.1665161 3.7950637
0.63240224 1.2273751 3.7612998
0.67368633 1.2249788 3.7803507
0.70323813 1.2178 3.7859502
0.63277793 1.2750343 3.7650495
0.67689973 1.2781324 3.787611
0.70673674 1.2523047 3.7984135
0.63371104 1.3272091 3.7667382
0.67593855 1.3235419 3.7827268
0.70898807 1.322916 3.794884
0.61701316 1.3758092 3.7627454
0.67378682 1.3761847 3.7868598
0.70978248 1.3529913 3.7921488
0.59053123 1.4268217 3.7524512
0.62311792 1.4265487 3.7647495
0.67238492 1.4211184 3.7836914
0.5828535 1.4690633 3.7546439
0.62332928 1.4751217 3.7659028
0.66421652 1.4723336 3.7923095
0.5881688 1.5253327 3.763047
0.6270237 1.5221496 3.7774875
0.65867019 1.529016 3.79111
0.57885796 1.578733 3.7641649
0.62699652 1.5709866 3.77649
0.65960735 1.5600878 3.7882245
0.57316601 1.6286287 3.7551563
0.62564152 1.627966 3.7842822
0.66360259 1.6082976 3.7997377
0.54269236 1.6810308 3.7536068
0.57362181 1.677606 3.7674894
0.62518644 1.6749394 3.7857938
0.66522038 1.6510744 3.7971807
0.54480267 1.7357914 3.7525704
0.57782435 1.7268231 3.7683952
0.62316513 1.7189014 3.7853165
0.54672194 1.7709682 3.7560639
0.57859325 1.7796732 3.7714055
0.62009704 1.767669 3.7895079
0.53906465 1.821298 3.7560539
0.58093262 1.8259256 3.7732253
0.62290555 1.8247553 3.7899396
0.53220034 1.8946141 3.7546811
0.57294041 1.870687 3.7719154
0.62573332 1.8823223 3.7897408
0.5271278 1.9259008 3.755892
0.57533997 1.9178849 3.7734177
0.61777335 1.9177884 3.7918518
0.52974439 1.9748 3.7595348
0.56774634 1.9650748 3.7747998
0.61491758 1.975916 3.7983277
0.53260279 2.0250111 3.764308
0.56999761 2.025543 3.785543
0.61413312 2.0273488 3.7976294
0.53218174 2.0791926 3.7678778
0.57760328 2.0709136 3.7851741
0.5233748 2.1185703 3.7626057
0.57395345 2.1153786 3.7922783
0.60973591 2.1368906 3.7973022
0.53423882 2.1773071 3.7740781
0.57794666 2.1748705 3.7885652
0.5222441 2.2302954 3.7651985
0.55904692 2.2364395 3.7863667
0.48910016 2.26932 3.7553668
0.52115399 2.277122 3.7651868
0.56360483 2.2648854 3.7833958
0.49141884 2.320632 3.7544017
0.52000374 2.3309233 3.761153
0.57319748 2.3175578 3.7879634
0.6008029 2.3419738 3.7991097
0.5362131 2.3699224 3.7657409
0.57389271 2.3695638 3.7694256
0.61778307 2.3838596 3.789454
0.63656574 2.4162557 3.7708368
0.67141724 2.4181924 3.7692988
0.7200442 2.4247718 3.7873311
0.7754367 2.4314187 3.7720864
0.82920378 2.4379203 3.7765858
0.87846833 2.4384749 3.7724304
0.93152046 2.4361043 3.769696
0.97280347 2.4351625 3.7599974
1.0189174 2.4355011 3.7733738
1.090343 2.4438617 3.7789066
1.1313176 2.4421978 3.7817893
1.1707015 2.4365673 3.7629488
1.224358 2.4388523 3.7531581
1.2747974 2.4444747 3.7725096
1.3232958 2.4453154 3.7839358
1.3635831 2.4414001 3.7658803
1.4297547 2.4436388 3.7818496
1.4564379 2.4335077 3.7721152
1.523829 2.4389193 3.7600048
1.5891688 2.4465628 3.7761388
1.6278025 2.445287 3.7852745
1.680331 2.4430165 3.7624907
1.7357877 2.4407771 3.7716181
1.7731678 2.4451635 3.7824175
1.8192333 2.4484458 3.7704036
1.8931776 2.4374156 3.7722275
1.9464421 2.449229 3.7718925
1.1367543 2.4522862 3.7517045
1.2299774 2.4500942 3.7705193
1.2939535 2.4513161 3.755477
1.3218064 2.4532032 3.7743349
1.3910408 2.4524016 3.7766173
1.4122223 2.4521742 3.7699156
1.4891666 2.4522734 3.794472
1.5756254 2.4530072 3.7674272
1.7993687 2.4511402 3.7831786
0.74302191 -0.47057816 3.8034711
0.774607 -0.47735795 3.8091521
0.81995809 -0.47782585 3.8200686
0.87554854 -0.47249168 3.8165364
0.74184555 -0.42376184 3.8009923
0.77166158 -0.42493597 3.8080263
0.82334167 -0.42778537 3.8270035
0.88001347 -0.42820373 3.8226633
0.74151969 -0.38673195 3.8019161
0.77131158 -0.36933604 3.8100498
0.82269472 -0.37167689 3.8277998
0.87629062 -0.37566909 3.834152
0.9025799 -0.36460367 3.8409648
0.74090993 -0.33119991 3.8021955
0.77156126 -0.32326582 3.8140733
0.8223297 -0.32505926 3.828902
0.87284565 -0.32658294 3.8400574
0.90253925 -0.32720143 3.8430052
0.7409339 -0.26679587 3.8056097
0.77057666 -0.27671838 3.8115623
0.82254207 -0.27868068 3.8322995
0.87283397 -0.27990142 3.8424072
0.9025569 -0.29914299 3.8445895
0.77077454 -0.2214082 3.8148639
0.82247341 -0.2229082 3.8343124
0.87846148 -0.22125579 3.8379922
0.90176314 -0.24281918 3.8437953
0.73948371 -0.16523637 3.801883
0.77001667 -0.17509413 3.8126903
0.82186466 -0.17631708 3.833039
0.88071632 -0.17694066 3.8387392
0.73993611 -0.12856977 3.8051007
0.77020669 -0.12901752 3.814779
0.82186294 -0.12988345 3.8342006
0.87541598 -0.14291437 3.8445218
0.90027648 -0.14913714 3.8405523
1.191476 -0.11284737 3.8268034
1.2060773 -0.11244845 3.8094358
0.74000371 -0.064247467 3.8064916
0.77059698 -0.073714957 3.8176405
0.81671607 -0.07153289 3.8367422
1.2146646 -0.070432648 3.821363
0.73943567 -0.027452972 3.8038368
0.77141398 -0.027617261 3.8220642
0.81358588 -0.027787607 3.8416796
1.2194194 -0.028069489 3.8209157
0.73238468 0.018464925 3.8062453
0.77094316 0.018567972 3.8197582
0.82027054 0.016361617 3.8392687
1.2220211 0.019057635 3.8226933
0.74013066 0.073659621 3.8069205
0.7711727 0.073971249 3.8203995
0.82024729 0.076779597 3.8386905
0.86323088 0.093425445 3.8484209
1.2221926 0.075678855 3.8290465
0.74030191 0.12881643 3.8068097
0.77202278 0.12952064 3.8235962
0.81743896 0.12757061 3.8390045
0.89876503 0.13049728 3.8343644
0.90067422 0.13077892 3.8424788
1.2212665 0.1227708 3.8253076
0.73343968 0.17156792 3.8026333
0.77124548 0.17556597 3.8185115
0.82355762 0.17688753 3.8406706
0.88303518 0.17764008 3.8485718
0.90105128 0.16817623 3.8431296
0.7785058 0.20276318 3.806633
0.82975817 0.20405081 3.8242481
0.86728024 0.20416117 3.8207622
0.87603426 0.33382046 3.8109713
0.8334775 0.38355824 3.8173683
0.87023652 0.36944669 3.8339126
1.1496794 0.35678455 3.8104165
1.1680224 0.35665843 3.8051696
2.1906199 0.37488416 3.8180635
0.79933459 0.4436374 3.8020813
0.82383728 0.42477301 3.8177321
0.87257326 0.43403107 3.8398309
1.0736258 0.422086 3.8171134
2.195569 0.42642927 3.8226833
0.81843334 0.47719055 3.812258
0.87572891 0.47775763 3.8417244
2.1936736 0.47672331 3.8149056
0.78346288 0.52857351 3.8102002
0.82683456 0.52411699 3.8235002
0.87725872 0.52550226 3.8443317
2.1960778 0.53813255 3.813005
2.2033885 0.50937229 3.8288541
0.77904737 0.57970977 3.8068869
0.82543129 0.57834011 3.8229315
0.86730528 0.57206309 3.8387845
2.1912012 0.57761413 3.8298886
2.2008688 0.59012341 3.8156855
0.78392237 0.61236662 3.8040605
0.81686723 0.62553835 3.8229241
0.85736722 0.62076634 3.8472278
2.1937904 0.61907572 3.829632
2.2034559 0.63153255 3.8152666
0.78240407 0.6753583 3.8129663
0.81883234 0.67385644 3.8268919
0.85737038 0.66465038 3.8422768
2.1962869 0.68103641 3.8261635
2.2031045 0.6721319 3.8093727
0.78150147 0.732072 3.8157439
0.82012367 0.72179246 3.8271859
2.19451 0.71667963 3.8331428
2.2046723 0.72354263 3.8050721
0.74902391 0.76304883 3.8022268
0.78049093 0.77586997 3.8144662
0.82269984 0.7710709 3.8329897
0.85424572 0.76466733 3.8452423
2.1954761 0.75794262 3.8288937
0.77758586 0.82378322 3.8137333
0.81948656 0.82900113 3.8326859
0.77291012 0.87131804 3.8107145
0.82877588 0.8732689 3.8379605
0.85850525 0.87283355 3.8493879
0.77894282 0.92488593 3.8206174
0.82592052 0.9160189 3.8425281
0.77160412 0.97684067 3.8150105
0.81699878 0.97383541 3.8449078
0.7378456 1.0340068 3.8012998
0.7696389 1.0294116 3.8169889
0.81309265 1.0271487 3.8402269
0.77062857 1.0768588 3.8233273
0.81311107 1.0757667 3.8475749
0.74160248 1.1337546 3.8022549
0.77555907 1.1239789 3.8194015
0.80620122 1.1259375 3.835907
0.73986757 1.1810629 3.8093538
0.77479941 1.1780107 3.8248081
0.80776399 1.1759202 3.8334985
0.73724544 1.2272339 3.8115706
0.7816273 1.2285255 3.829145
0.81241512 1.2307667 3.8451664
0.73115909 1.2790132 3.8066208
0.78062344 1.2740033 3.8239098
0.8212468 1.285838 3.8439085
0.73113072 1.3285979 3.8085938
0.77269715 1.3214937 3.8227937
0.81656069 1.3240485 3.8447757
0.72777778 1.3756909 3.8150055
0.77983046 1.37383 3.834929
0.81894308 1.3569764 3.848954
0.72628039 1.4238114 3.8128502
0.77491671 1.4203157 3.8314903
0.80182666 1.4385867 3.8429644
0.69755483 1.4722247 3.8046277
0.72816557 1.4757431 3.8099279
0.77194303 1.4760693 3.8330619
0.80193186 1.4582207 3.8383262
0.68046832 1.5251681 3.8057995
0.72237295 1.5224241 3.8208258
0.77313989 1.530166 3.8431537
0.67644054 1.5822721 3.8053188
0.72242266 1.5738552 3.8210309
0.77544981 1.5804391 3.8414586
0.67861682 1.6262423 3.8059638
0.72442073 1.6268803 3.8261333
0.77055043 1.6197953 3.8399572
0.62833238 1.6951942 3.8015175
0.67843938 1.6791772 3.8095481
0.71956801 1.6742729 3.8185878
0.75735056 1.6673275 3.8362846
0.6774829 1.7306007 3.8082507
0.72308409 1.7217808 3.824651
0.75844532 1.7451358 3.8472445
0.66935122 1.7772179 3.8093617
0.72632557 1.769066 3.8289385
0.6765644 1.8207231 3.8154385
0.73138076 1.8211954 3.8421504
0.66885793 1.8730087 3.8131044
0.71537507 1.8679516 3.8402424
0.63416052 1.9407787 3.80459
0.67188585 1.9213073 3.8159537
0.71640623 1.92401 3.8396215
0.62269676 1.982924 3.8033705
0.67558032 1.9719287 3.8220401
0.70939612 1.9825916 3.8386796
0.6335184 2.0258913 3.8063309
0.68061793 2.026968 3.8350463
0.7231499 2.0231135 3.8453798
0.61775768 2.0795317 3.8040788
0.67779726 2.079242 3.8374157
0.59013766 2.1389036 3.8032501
0.62587142 2.1325679 3.8175924
0.67674446 2.1271574 3.8392675
0.62491822 2.1849408 3.8143044
0.668751 2.1750519 3.8361945
0.59496129 2.2276318 3.8037605
0.62403446 2.2311885 3.8138721
0.67072636 2.222424 3.8299241
0.59123796 2.2835245 3.8045342
0.63369113 2.268615 3.8181336
0.67606199 2.2814159 3.8420913
0.63351762 2.3180568 3.8209863
0.67869741 2.3317633 3.8381941
0.71206844 2.3497331 3.841567
0.63463521 2.3634884 3.8085201
0.67885256 2.3737936 3.819675
0.72025752 2.3815792 3.8341177
0.67856318 2.4038694 3.8031092
0.72681141 2.4080877 3.817765
0.77262646 2.4111638 3.8187728
0.82199872 2.419394 3.828747
0.87781435 2.4289768 3.8349049
0.92555106 2.4294515 3.822448
0.97892106 2.4326036 3.826355
1.029953 2.4302154 3.830112
1.0708565 2.4421651 3.8260269
1.1269189 2.434334 3.8155468
1.1747952 2.4353065 3.8290372
1.2324913 2.4407818 3.8162262
1.2713679 2.4402394 3.820874
1.3214986 2.4403718 3.8233643
1.3668562 2.4449768 3.8185854
1.4169153 2.4358869 3.8365307
1.4725207 2.4387486 3.8247564
1.5377754 2.4396605 3.8057196
1.5764586 2.4405494 3.8276832
1.6307609 2.4442203 3.8325639
1.6639644 2.4449737 3.8223553
1.7078618 2.4453602 3.8072753
1.4019966 2.4502144 3.8174608
1.5227848 2.4502561 3.8292415
1.6920016 2.4539993 3.8286641
1.7947935 2.4528778 3.8401747
0.90364528 -0.27141586 3.8505826
0.87092417 -0.11827663 3.8536644
0.90296376 -0.11215786 3.8528345
1.0248653 -0.1320854 3.8699424
1.0806482 -0.13313606 3.892374
1.1802745 -0.11358611 3.8556643
0.84475094 -0.083891645 3.8522458
0.87528771 -0.074766524 3.8593881
0.90332764 -0.074759059 3.8549442
1.1930716 -0.075899683 3.8651114
1.2005038 -0.094723664 3.856132
0.84475046 -0.027892087 3.8527443
0.87557721 -0.027973812 3.8610282
0.90465355 -0.02800403 3.8609986
1.1962024 -0.028471008 3.8757374
1.2081195 -0.038026787 3.8812191
0.84515142 0.037459701 3.8544841
0.87624568 0.018859165 3.8639851
0.90461117 0.018858584 3.8608105
1.1912348 0.0097366543 3.8925047
1.2104958 0.019221764 3.8726113
0.84563023 0.056167282 3.8565056
0.87771022 0.071282409 3.8614802
0.9038431 0.075024985 3.8570416
1.1929488 0.086404547 3.8974159
1.2026763 0.076247662 3.86325
0.84482509 0.14012316 3.851356
0.87410069 0.13098164 3.8530271
1.1933991 0.12477779 3.8981605
1.2067666 0.12417489 3.8755364
0.86439645 0.17765179 3.8515947
1.0171497 0.20828113 3.8759067
1.1090273 0.2095713 3.883924
0.88603044 0.39388412 3.8508687
0.92517781 0.37439948 3.8632727
0.97529584 0.37945962 3.8838418
0.88614404 0.41268873 3.8500438
0.91821939 0.42389405 3.8615067
0.97402954 0.42454258 3.8887501
1.1700006 0.41085136 3.8745046
0.91962248 0.47169459 3.8636849
0.96350139 0.47474074 3.8823659
2.2148552 0.49613345 3.8954556
0.92201233 0.52965945 3.8687747
0.96108395 0.51943082 3.8821304
2.2177484 0.51746166 3.8985312
0.89011192 0.57466078 3.853483
0.92288542 0.57748854 3.8679113
0.95817447 0.57214332 3.8923035
2.20875 0.55655479 3.8784516
0.88432235 0.62676346 3.8568885
0.92580241 0.62679118 3.8751593
0.95849353 0.62956411 3.8876393
0.87790316 0.6842469 3.8564427
0.92784935 0.67576718 3.8783073
0.96843028 0.67019433 3.8966503
2.2124362 0.66063929 3.8727751
0.87857777 0.72511959 3.8594034
0.93086189 0.72569984 3.885006
2.1951828 0.73398101 3.877717
2.2031024 0.72279257 3.8705955
0.88350779 0.78120905 3.8616331
0.9279328 0.77681988 3.8799086
2.2005489 0.76683283 3.8826942
0.83860624 0.81500673 3.8563838
0.86890733 0.82627738 3.8590531
0.92629534 0.82585138 3.8837676
0.87287283 0.87582886 3.8607533
0.9218111 0.87602347 3.8798604
0.96914601 0.8776632 3.8992093
0.84110105 0.93148774 3.8503306
0.87333834 0.92591345 3.863945
0.92348069 0.92198652 3.8820899
0.95058757 0.92658478 3.8978086
0.84314972 0.97188783 3.8532727
0.87447423 0.97493309 3.8610003
0.9190045 0.97203207 3.883265
0.95291388 0.97723323 3.8992634
0.84567654 1.0225694 3.8564053
0.87713122 1.0258082 3.8642616
0.92123967 1.0226544 3.884238
0.84165174 1.073341 3.8591917
0.87561923 1.0751475 3.8757122
0.92484504 1.0750866 3.8904948
0.83637458 1.1195444 3.8565834
0.88139969 1.1255188 3.8847923
0.91740894 1.1262796 3.892231
0.83229083 1.1740106 3.857769
0.87258273 1.1745912 3.8736119
0.92921537 1.1774613 3.889462
0.83420193 1.2249105 3.8563042
0.87692463 1.22102 3.870707
0.91457206 1.2282329 3.8884125
0.8353287 1.265202 3.8528783
0.86926335 1.2724453 3.8704567
0.92189598 1.2793753 3.8948336
0.83931714 1.3294933 3.8576646
0.87238055 1.3257817 3.8729925
0.91689491 1.32401 3.8925612
0.83557194 1.3759748 3.8608646
0.87508249 1.3787805 3.8731189
0.91891599 1.3760939 3.8892133
0.83432508 1.4248489 3.8590641
0.87841195 1.4232897 3.8779035
0.91940171 1.4343809 3.8923867
0.82776874 1.4793241 3.8625309
0.87084508 1.4712522 3.8778672
0.78905392 1.5488786 3.8517687
0.82050771 1.5232645 3.8652849
0.87519217 1.5230892 3.8850615
0.79020315 1.5707719 3.8517582
0.82068694 1.5725752 3.8628635
0.87453687 1.5725222 3.8880477
0.90129435 1.5737437 3.8982301
0.79428232 1.6380979 3.8541484
0.82949054 1.6294508 3.8710735
0.87133187 1.6233621 3.8880053
0.79070419 1.6773529 3.8596337
0.83158678 1.6832814 3.8764486
0.87025714 1.6641889 3.8876266
0.77396452 1.7267457 3.8546953
0.82365006 1.7273296 3.8748257
0.86746901 1.7251683 3.8894074
0.77238178 1.7841766 3.8560457
0.82130778 1.7687833 3.8708434
0.85249883 1.7960531 3.8962734
0.77570295 1.8318666 3.8590188
0.82058966 1.8226333 3.8829043
0.85553974 1.842973 3.896487
0.73697597 1.8853197 3.8542047
0.77938676 1.8808315 3.8633771
0.82168883 1.8760738 3.8818822
0.85931122 1.8917899 3.8994994
0.76852244 1.9270532 3.8677807
0.83783591 1.9095383 3.8902011
0.73200113 1.9691237 3.8565798
0.77656555 1.9729506 3.8740647
0.81407642 1.9785703 3.8879251
0.76893425 2.0270057 3.8703043
0.82092732 2.0295208 3.8915126
0.73193455 2.0721076 3.8601882
0.7682969 2.0718431 3.8701563
0.818452 2.0696661 3.8982
0.73145866 2.1179552 3.861007
0.77824509 2.1237552 3.8886433
0.7252453 2.1776931 3.8639276
0.78317952 2.1771207 3.883842
0.81349993 2.1662633 3.8920012
0.72108382 2.2238328 3.8634164
0.7694391 2.2307229 3.8809876
0.81783533 2.2090681 3.8996124
0.71930939 2.266974 3.8562295
0.77082688 2.2711496 3.8788605
0.80147398 2.2843575 3.8974714
0.72286224 2.3197913 3.8565466
0.76912415 2.3235049 3.8787446
0.80359209 2.3219371 3.8936224
0.73606092 2.3600097 3.8553715
0.77269524 2.3740537 3.8644631
0.81306851 2.3733764 3.8750629
0.85821271 2.3830175 3.889993
0.84120208 2.4099391 3.8622601
0.8838973 2.4139733 3.87677
0.92971468 2.423079 3.8837283
0.97294223 2.4249344 3.8786359
1.0263206 2.4254761 3.8688323
1.0818287 2.4307339 3.8659286
1.131441 2.430934 3.8707829
1.1786932 2.4333344 3.8952737
1.2204779 2.4415457 3.8755562
1.2742244 2.430897 3.8673515
1.3215481 2.4316461 3.8721454
1.3811083 2.4379315 3.8748116
1.4428084 2.4399018 3.8849332
1.4667518 2.4435201 3.8841937
1.5198338 2.4412227 3.8637547
1.5670763 2.4379952 3.8763583
1.6128365 2.4282646 3.8604791
1.6652157 2.440953 3.8656111
1.7001312 2.4437652 3.8584433
1.4929161 2.4506779 3.8889296
1.726728 2.4502895 3.860795
1.765035 2.4507687 3.8999536
1.8821872 2.4584036 3.8693025
1.941718 2.4548488 3.892653
1.9775394 2.4685855 3.876667
2.0657756 2.4686618 3.8661909
0.99848855 -0.11451692 3.9218869
1.0294329 -0.11476535 3.9256091
1.0723044 -0.11524875 3.9355154
1.1196622 -0.1199467 3.9240642
1.1663477 -0.11502364 3.9101071
0.99957448 -0.05725503 3.9269502
1.0234104 -0.078936517 3.9318018
1.0744585 -0.076933615 3.9440243
1.1255651 -0.077124938 3.9453409
1.1715096 -0.073940501 3.913439
0.99959534 -0.03812689 3.9271731
1.0243239 -0.026684392 3.9299824
1.0640059 -0.028749332 3.9432096
1.1461928 -0.028855272 3.9465411
1.1737175 -0.026760688 3.915395
0.99904466 0.028808944 3.9250107
1.0269501 0.016591558 3.9334445
1.065145 0.0097801518 3.9474671
1.1459081 0.019506788 3.9455531
1.17363 0.022172717 3.920918
0.99914902 0.076613508 3.924948
1.0313352 0.076876305 3.9332838
1.0719835 0.083711423 3.9471734
1.1467245 0.077572696 3.9478354
1.1746987 0.074487627 3.9240165
0.99906856 0.12440927 3.9237978
1.0304654 0.1247403 3.9291856
1.0637444 0.12528464 3.9408772
1.146912 0.11629457 3.9478488
1.1738608 0.1160946 3.9351213
0.99767661 0.17196763 3.9170847
1.0307387 0.17270392 3.9288766
1.0746218 0.17360638 3.9424257
1.2878238 0.15569161 3.9352746
1.0764465 0.21063288 3.9108944
1.1380876 0.21143711 3.9147167
1.0840273 0.34702057 3.9320712
2.1545639 0.33113751 3.9369648
2.2168226 0.33275533 3.93471
1.0281323 0.37311941 3.9095185
1.0718095 0.37502387 3.9225602
2.1702077 0.38091779 3.9467986
2.219384 0.37473515 3.9364033
0.99678999 0.41981474 3.9009247
1.031283 0.42223072 3.9181614
1.0727038 0.42344856 3.9225209
2.1385193 0.42505726 3.9471164
2.1584628 0.42491052 3.9374411
2.2230332 0.43021217 3.931076
0.99922729 0.47820523 3.9059858
1.0321804 0.48018503 3.9171164
1.076624 0.4732582 3.9330673
1.1208251 0.46878436 3.9280696
2.2348738 0.46932176 3.9335413
0.97959989 0.53530657 3.9022133
1.0224998 0.52816576 3.9143076
1.076769 0.52162474 3.92943
1.1163371 0.52433479 3.9435041
2.217453 0.52620745 3.9315252
0.97637028 0.57445031 3.9054847
1.0260259 0.57814831 3.9231534
1.0810931 0.57219863 3.9406788
1.1129739 0.5639165 3.9461367
2.2176461 0.57448852 3.9383531
0.98151225 0.62253749 3.9011812
1.0211585 0.6237582 3.9150894
1.0665524 0.62552679 3.9378724
2.222168 0.62795347 3.9403973
0.98391914 0.68166441 3.9042315
1.0164014 0.67451406 3.9145176
1.0613972 0.67599678 3.9395843
2.215878 0.67828262 3.92278
0.97319585 0.72641385 3.9039249
1.0251995 0.72675288 3.9189453
1.0695875 0.71967292 3.9383087
0.94606853 0.76849157 3.9019992
0.97909081 0.77415311 3.9054437
1.0214893 0.77472663 3.9219418
1.0629476 0.78027266 3.943985
0.97670591 0.82543981 3.904953
1.024211 0.82530308 3.9256268
1.0669669 0.82113081 3.9471543
0.9911809 0.87044507 3.908222
1.0278151 0.87694597 3.9322245
1.0624655 0.87166494 3.9487047
0.9755922 0.92894775 3.9038944
1.0310982 0.92860961 3.9371696
1.0638413 0.92182732 3.946171
0.98830092 0.97576922 3.9124732
1.0295384 0.9739424 3.9315605
1.0645993 0.96172732 3.9425726
0.97043985 1.0240192 3.9082463
1.0302185 1.0254298 3.9306147
1.0692468 1.0349262 3.9477534
0.97208869 1.0765567 3.9112923
1.0067405 1.0704206 3.9170189
0.93908155 1.1192594 3.9003797
0.97263753 1.1242965 3.9129393
1.0199506 1.1253279 3.9310498
1.0589906 1.1332499 3.9427698
0.9405418 1.1502386 3.9005873
0.97410262 1.1733822 3.9179356
1.0204389 1.1734157 3.9317179
1.055838 1.1799502 3.9481788
0.94503427 1.224296 3.9047778
0.98147553 1.2247946 3.9210556
1.0235903 1.2265111 3.9333751
1.0579484 1.2220483 3.9476604
0.94747841 1.2667435 3.9061775
0.98148525 1.2726346 3.9192648
1.027184 1.2804178 3.9361382
1.0596503 1.2538623 3.9474945
0.94967902 1.3189001 3.903909
0.9768703 1.3246127 3.9168119
1.0188817 1.3222674 3.9351249
0.97237742 1.3719627 3.9186158
1.0115631 1.3755131 3.9351196
0.93418479 1.4237101 3.9004846
0.96688855 1.4271501 3.9170475
1.0165601 1.4323999 3.9419756
0.89707255 1.4870527 3.9019794
0.9290114 1.4806597 3.9089639
0.97646761 1.4706947 3.9236381
1.016096 1.4732984 3.9442101
0.93308091 1.527055 3.915225
0.97932428 1.5269476 3.9365263
1.0125759 1.5115352 3.9489059
0.92982942 1.5775578 3.9147274
0.97832316 1.5776454 3.9334965
0.91869843 1.6267803 3.9166517
0.96530563 1.6275994 3.9390547
1.00017 1.645206 3.9487064
0.88842529 1.6867397 3.902766
0.92151505 1.6720412 3.9165246
0.96761191 1.6720148 3.936326
1.0016985 1.6680652 3.948626
0.89204729 1.7238672 3.9091966
0.92908061 1.7266719 3.9258239
0.96774966 1.7154623 3.9398632
0.88853735 1.7739611 3.9103355
0.92566317 1.7737207 3.9212942
0.96516371 1.7672012 3.944139
0.87076443 1.8195804 3.9112184
0.923724 1.8204144 3.9305294
0.87375587 1.8665074 3.9106801
0.91915166 1.8796468 3.9402597
0.95263642 1.8746834 3.9497347
0.83343524 1.9432545 3.9114194
0.87617892 1.9268417 3.9204836
0.91886038 1.9307665 3.9385979
0.84523082 1.9776433 3.9058342
0.88060224 1.9772918 3.9142547
0.92385536 1.9719061 3.9309406
0.84648496 2.0113676 3.9000795
0.87963599 2.0315506 3.9187138
0.92517155 2.0201242 3.937597
0.83102143 2.0856416 3.9031897
0.87102425 2.0741487 3.9227819
0.92379665 2.0828135 3.9431369
0.82355034 2.1239438 3.9058275
0.86963016 2.1249313 3.9243205
0.91192883 2.1206512 3.941335
0.83978736 2.1807048 3.9146595
0.87775493 2.171221 3.9304764
0.90671402 2.1597385 3.9360642
0.83504772 2.2318261 3.9069426
0.87233531 2.2232459 3.928484
0.92458105 2.229948 3.9436409
0.83540189 2.2806878 3.9087446
0.88631314 2.2769842 3.9327643
0.91788423 2.2712803 3.948679
0.83507633 2.3280995 3.90697
0.87863648 2.327848 3.9240489
0.92239332 2.3357954 3.9444323
0.88655281 2.3681116 3.9134493
0.93675363 2.3759892 3.9320493
0.97120744 2.3829265 3.9470704
0.89839888 2.4033301 3.9021299
0.93203896 2.4078348 3.9036622
0.97982311 2.4098792 3.9213991
1.0258306 2.4173901 3.9251451
1.0770674 2.4237113 3.9206004
1.1274549 2.4227226 3.9244585
1.1846933 2.4240668 3.9255939
1.2346206 2.4372449 3.936482
1.2769976 2.4351451 3.9222105
1.3283259 2.4283636 3.9295204
1.3675011 2.4334021 3.9278238
1.4221464 2.4397223 3.9236727
1.4757637 2.4365661 3.9189205
1.5304513 2.4348116 3.9159195
1.5764271 2.4345512 3.9348381
1.6208913 2.4349017 3.9210463
1.6937401 2.4442661 3.9134674
1.7305701 2.4492538 3.9096341
1.845661 2.4468296 3.9155676
1.6650114 2.451004 3.9357476
1.7913734 2.4563577 3.900579
1.8256847 2.4501214 3.9293933
1.8788787 2.4609601 3.9294426
1.914888 2.4637375 3.9204557
1.9909233 2.4653876 3.9479384
2.0102911 2.4611781 3.9316804
2.0609336 2.4558353 3.9278173
2.1240008 2.4646583 3.9460001
1.0866129 -0.028823037 3.9518914
1.1177711 -0.028877297 3.9541903
1.0818021 0.024296267 3.9528048
1.1171454 0.019498812 3.9519711
1.080947 0.071037225 3.9554203
1.1232995 0.077667221 3.9577432
1.086978 0.12574196 3.9518476
1.1196525 0.12617156 3.9594474
1.1702237 0.13611515 3.9569709
1.1210717 0.17485814 3.9631693
1.1731783 0.17576735 3.9745405
1.2236488 0.17337237 3.9844215
1.2624445 0.15615216 3.9534721
2.1897402 0.33335614 3.9548264
1.2277613 0.39147431 3.9645092
2.134589 0.37439024 3.9670241
2.1812289 0.36775553 3.9524467
1.1944056 0.44866717 3.95314
1.2309335 0.42191184 3.9726362
1.2645499 0.43316883 3.9789846
2.1183772 0.42307344 3.9722593
2.1942205 0.4278639 3.9561913
2.2172813 0.41786072 3.9524097
1.1336038 0.48666751 3.9535935
1.1742727 0.48357925 3.9755993
1.2264392 0.47454879 3.9796054
1.2666342 0.46342579 3.9832544
1.352947 0.47595546 3.986793
2.1343188 0.47553229 3.9663579
2.1803401 0.46607199 3.9586401
2.2164133 0.47481179 3.9614611
1.1353564 0.52640557 3.9562755
1.1673242 0.5245918 3.9671028
1.2278792 0.52286988 3.9887192
1.2658803 0.52231312 3.9758611
2.1293173 0.51845217 3.9767048
2.1794322 0.52228409 3.9595191
2.2000432 0.54396898 3.9561925
1.1294627 0.57868117 3.9546871
1.1764377 0.57408661 3.9794471
1.2193582 0.57282108 3.9905522
1.2612379 0.55412823 3.9917321
1.3599753 0.59365571 3.965096
2.1392667 0.5758056 3.9817209
2.1711235 0.57595009 3.9700468
2.2019787 0.5758394 3.9563525
1.0960726 0.62369114 3.952975
1.1299425 0.62627035 3.9636571
1.1773262 0.62083256 3.9849648
1.210386 0.62265468 3.9905586
1.3638554 0.62333518 3.9840395
2.172194 0.60764229 3.9685082
2.2149258 0.62130713 3.9748793
1.0975078 0.67327881 3.9527197
1.1314502 0.67606479 3.9634445
1.1784288 0.67072374 3.9832087
1.2134938 0.67379183 3.9952824
1.3785186 0.67700195 3.9789846
2.2129109 0.66962868 3.9771585
1.0985005 0.71294916 3.9516261
1.130082 0.72967654 3.9678595
1.1798748 0.72091615 3.982208
1.2227488 0.72819072 3.9961936
1.3646756 0.7200374 3.996537
2.2293966 0.73130739 3.987407
1.0803455 0.76273745 3.954093
1.1248188 0.7761957 3.9641211
1.1839203 0.77293605 3.9894631
1.2168776 0.75513291 3.9967005
2.2250559 0.76158506 3.9752042
1.0827625 0.8330397 3.953474
1.1206216 0.82357448 3.9638722
1.1757228 0.82861084 3.9897084
1.0846896 0.87379158 3.9547081
1.1182462 0.87700754 3.9636159
1.1653832 0.87296289 3.9837673
1.2003808 0.86684412 3.9967675
1.0864072 0.9243536 3.9532845
1.1171621 0.92306024 3.9600391
1.1690664 0.92547095 3.9886141
1.0827265 0.97936934 3.9563177
1.1269566 0.97546214 3.9721057
1.1721271 0.97777933 3.9908581
1.0864143 1.02239 3.9562564
1.1273509 1.0232232 3.9729655
1.1713934 1.0265994 3.9923058
1.0316546 1.0861111 3.9528303
1.0736014 1.0787017 3.9563968
1.1282585 1.0716801 3.9752097
1.174698 1.0696115 3.9962952
1.0764081 1.1112612 3.9609916
1.1308929 1.1260487 3.979665
1.1698135 1.1248361 3.9936016
1.0788258 1.1734918 3.9581022
1.1178449 1.1729714 3.9738553
1.0831907 1.2281427 3.9635987
1.1201421 1.2276433 3.97645
1.15268 1.2283868 3.9872005
1.0738356 1.2788153 3.9567485
1.1223191 1.2785406 3.9814682
1.0441556 1.3291273 3.9519153
1.0807498 1.3287971 3.9642041
1.1258452 1.3229389 3.9847476
1.0468185 1.3726001 3.9523802
1.0814048 1.3783702 3.9632611
1.1249489 1.3707899 3.9780736
1.0288038 1.405405 3.9564176
1.0751381 1.4236032 3.9690545
1.130927 1.4245338 3.9932671
1.0328459 1.491558 3.9511108
1.0682205 1.4683776 3.972477
1.1042751 1.4760201 3.9872298
1.0302125 1.5312009 3.958863
1.0698436 1.5201633 3.9740291
1.108923 1.5231285 3.9930944
1.0294499 1.5722965 3.959178
1.0799603 1.5777954 3.9820354
0.99881113 1.6125495 3.9522936
1.0331802 1.6187372 3.9618244
1.081665 1.6304899 3.9827695
1.019205 1.6745561 3.9614398
1.0631764 1.6746292 3.9819477
0.98717481 1.739341 3.9566898
1.0194522 1.7215617 3.9636676
1.0550413 1.7192442 3.9794507
0.98872548 1.7728254 3.9530382
1.0234938 1.7695258 3.9662871
1.0717289 1.7709773 3.9881511
1.1064354 1.787243 3.9919062
0.98257136 1.8213906 3.9578185
1.0331855 1.8283262 3.9804204
1.0762293 1.8200259 3.9913483
0.97524321 1.8630406 3.9594429
1.0245414 1.882933 3.9812589
1.0699273 1.8583533 3.9982717
0.93622911 1.9245 3.9565742
0.96887529 1.9173417 3.9613247
1.0163609 1.928784 3.9773588
1.0590878 1.9126259 3.9957345
0.97481585 1.9708362 3.970614
1.0216756 1.9807839 3.9829674
1.0558423 1.9649745 3.9950714
0.94600856 2.0491769 3.9593179
0.97951955 2.0222292 3.9742374
1.0233423 2.0294774 3.9895449
0.94661689 2.0714238 3.9537933
0.98401827 2.0736487 3.9764421
1.0275788 2.0731881 3.9926672
0.93076301 2.1458838 3.9540851
0.96770078 2.1219733 3.966769
1.019591 2.13078 3.9876754
0.92348993 2.1850884 3.9568357
0.969531 2.1725495 3.973599
1.0117518 2.1763222 3.9811871
0.89545703 2.247015 3.9561744
0.92985696 2.2236309 3.955117
0.97328484 2.2234914 3.971261
1.0233364 2.2292681 3.9971752
1.0541408 2.205054 3.9948316
0.93059492 2.2870893 3.9510922
0.97715044 2.275058 3.9687221
1.0233696 2.2727149 3.989614
1.0605803 2.2724009 3.9964051
0.94547117 2.3187532 3.9575033
0.98148489 2.3281376 3.9675446
1.0328116 2.3211708 3.9853001
1.0645859 2.3242435 3.9925683
0.98762554 2.3736579 3.9593298
1.0321079 2.3781292 3.9743788
1.0802062 2.3780487 3.9885652
1.1170162 2.3980639 3.9919214
1.077569 2.4047713 3.9638216
1.1290828 2.4072828 3.9732482
1.1703423 2.41769 3.9822204
1.2239144 2.4228697 3.9788616
1.2716 2.4233406 3.9712818
1.3265477 2.422544 3.9855263
1.3867562 2.4316311 3.9857662
1.4343386 2.4374385 3.9829535
1.4839395 2.4326503 3.9769115
1.524665 2.4312141 3.9792097
1.5931518 2.4380109 3.9875946
1.6236663 2.433434 3.9692972
1.663452 2.4427741 3.973449
1.705346 2.4386334 3.9514616
1.760896 2.4537354 3.9600482
1.8432076 2.4509361 3.9785171
1.8833218 2.4588816 3.9784131
1.9296716 2.4599843 3.9623804
1.9776626 2.4543989 3.9881356
2.024241 2.4553015 3.970701
2.1456234 2.4664721 3.9981308
1.2467587 0.1972844 4.002039
1.2796109 0.1879164 4.0063028
1.3322129 0.18978788 4.0372591
1.3668684 0.1804418 4.0448008
1.3678828 0.20061745 4.0471473
1.3378516 0.37818977 4.012785
2.117193 0.37682071 4.0051503
1.2967268 0.43738842 4.0133777
1.3444723 0.430035 4.0292015
1.359551 0.43843719 4.0093937
2.119132 0.43996698 4.0041308
1.3357397 0.47044429 4.0322099
1.3593781 0.45829964 4.0073485
2.1148579 0.46225238 4.0182309
1.3282528 0.52297539 4.0294218
2.1179316 0.54089046 4.0250001
1.2731352 0.58058727 4.0068245
1.3208457 0.57460946 4.0321021
1.3533294 0.5737282 4.0436907
2.1297278 0.5683825 4.0124626
1.2357929 0.62551391 4.0047455
1.2715251 0.62845939 4.0171542
1.3203324 0.62270433 4.0367112
1.3538762 0.62429076 4.0401659
2.2055395 0.6351819 4.0034375
1.2389619 0.67689514 4.0094528
1.2718807 0.67558163 4.0199003
1.3228951 0.67420673 4.0389967
1.353948 0.67465091 4.0348053
1.2415699 0.71819144 4.0131569
1.2799067 0.72582573 4.0259447
1.3234019 0.7218765 4.0416412
1.3613217 0.72352684 4.0185299
2.2209816 0.74616432 4.0177989
1.2346864 0.78270197 4.0101228
1.2808367 0.77370751 4.0297065
1.3171778 0.77738535 4.0421686
1.3613765 0.77958667 4.0443363
1.1997535 0.81660199 4.0019007
1.2352018 0.83031589 4.0123224
1.2802529 0.82083577 4.028327
1.3197498 0.81936842 4.0445356
1.3790795 0.80846953 4.028039
1.225587 0.87557566 4.009058
1.2682585 0.88040972 4.0319219
1.3007342 0.87073445 4.0454803
1.3827717 0.85115898 4.033021
1.4176879 0.88818526 4.0012803
1.220628 0.92692202 4.0131636
1.2654892 0.92531794 4.0346603
1.3047246 0.9343304 4.0484958
1.2183617 0.97286499 4.0051813
1.275165 0.9781515 4.043798
1.303973 0.95408988 4.0428729
1.1886076 1.0433586 4.0003381
1.2218984 1.0236149 4.0157871
1.2739258 1.0254304 4.0386868
1.1909261 1.0855995 4.0007114
1.2299322 1.075505 4.0192595
1.2721601 1.079017 4.0410724
1.1944356 1.119061 4.0066924
1.2313472 1.125132 4.0220623
1.2774378 1.1228905 4.044354
1.1772476 1.1774219 4.0097766
1.2251178 1.1761829 4.0275955
1.2742915 1.1772974 4.0473161
1.1806374 1.2264855 4.0118656
1.2201182 1.2274735 4.029645
1.2642022 1.2183644 4.0414515
1.173214 1.2800634 4.0120492
1.2217149 1.278172 4.0318079
1.2586548 1.2845995 4.0454421
1.1763246 1.3242173 4.0133915
1.2254397 1.3230937 4.0348048
1.261088 1.3385541 4.0414829
1.1827649 1.3741343 4.0172472
1.222864 1.3616396 4.0294724
1.2652276 1.363609 4.0498638
1.1499892 1.4313431 4.0097075
1.1855164 1.4269695 4.0224171
1.2216941 1.4230094 4.0363221
1.1309623 1.4843252 4.0056367
1.172243 1.4673479 4.0191708
1.2248068 1.4679149 4.0359721
1.1345428 1.5301032 4.0073276
1.1688625 1.5229676 4.0244551
1.220428 1.5271071 4.0443306
1.1274362 1.5755752 4.0091953
1.1796989 1.5685903 4.0310092
1.2194176 1.5683546 4.0427933
1.1329513 1.6246852 4.0170221
1.1782271 1.6183617 4.0334883
1.1243088 1.6754986 4.0108571
1.1859812 1.6826274 4.0358434
1.082803 1.7307148 4.0020099
1.1201464 1.7299414 4.021431
1.1654168 1.7266121 4.0425897
1.2049463 1.736727 4.04951
1.1260461 1.7685323 4.0184708
1.161727 1.7771169 4.0412221
1.1332856 1.8219608 4.0306869
1.1668136 1.8271245 4.0452185
1.0897356 1.8824091 4.0123801
1.1327964 1.8752922 4.0350447
1.1730342 1.8899624 4.0489655
1.0804642 1.9399253 4.0157008
1.110467 1.9291404 4.0218387
1.1521413 1.9223895 4.043582
1.0831537 1.9764936 4.0142937
1.121657 1.978404 4.0265617
1.155369 1.9703877 4.0397954
1.0765167 2.0261393 4.0154009
1.125151 2.026669 4.03299
1.1607018 2.0115764 4.0467672
1.0454284 2.0806439 4.0043726
1.081702 2.0785308 4.0185981
1.1278684 2.0740592 4.036377
1.1685792 2.089879 4.0498791
1.0467011 2.1044393 4.0009747
1.0834322 2.1246009 4.0083494
1.1397563 2.1255441 4.0415287
1.0648402 2.1729052 4.0058169
1.1139019 2.1744127 4.0240746
1.1516082 2.1739306 4.0407267
1.0338129 2.2073431 4.00319
1.0748976 2.2328081 4.0101676
1.1230613 2.2213259 4.0285249
1.1580637 2.2296453 4.0454988
1.0876167 2.2839689 4.0123291
1.122802 2.267755 4.0245309
1.0912247 2.3241196 4.0114193
1.1287177 2.3233907 4.0268536
1.1684346 2.3483896 4.0391822
1.0942565 2.3523657 4.012866
1.131768 2.3734193 4.0181785
1.1800858 2.386394 4.0391726
1.2212613 2.3878465 4.0490184
1.1933451 2.4092631 4.0193024
1.2263626 2.4128125 4.0262218
1.2799544 2.4164915 4.0365286
1.3315117 2.4296637 4.0473309
1.375914 2.4293962 4.0352411
1.4162359 2.4221818 4.0111914
1.4684955 2.4239852 4.0254068
1.5806625 2.4420123 4.0251551
1.6189666 2.4376779 4.0312748
1.6784124 2.4421368 4.020205
1.7371819 2.4453368 4.0062327
1.7846454 2.4411831 4.035934
1.9688069 2.4489443 4.0375857
1.7752856 2.4510829 4.0036716
1.8219204 2.4567025 4.024816
1.8955657 2.4668632 4.0445523
1.9221017 2.4565954 4.0144653
2.0272419 2.4638567 4.0434456
2.0840034 2.4623189 4.016634
2.1217017 2.4656858 4.0070949
1.3928933 0.1812271 4.0576367
1.4296055 0.18206665 4.0690813
1.3942031 0.20152994 4.0607915
1.4304487 0.20239212 4.0708218
2.1342082 0.42621729 4.0826635
2.1239309 0.48772785 4.0577621
2.1294866 0.51024693 4.0664592
2.1266582 0.57321513 4.0548182
2.2360394 0.68686831 4.0535603
1.3402214 0.74870217 4.0502057
1.3618257 0.73934215 4.0509338
1.3418169 0.77998143 4.051053
1.345933 0.82302713 4.0579133
1.3689229 0.82463145 4.0611649
1.3311586 0.8690027 4.0561199
1.3667371 0.87673128 4.0602951
1.320568 0.92240828 4.0546312
1.3750139 0.92260122 4.0763345
1.4146538 0.92624229 4.0841169
1.4508952 0.92964548 4.0917578
1.5144875 0.93066818 4.0804615
1.3209463 0.97945035 4.0581398
1.3754377 0.97900653 4.0911951
1.4205704 0.96106398 4.0961866
1.326488 1.027038 4.0606289
1.3682969 1.0290184 4.0776286
1.2923336 1.0626916 4.0569587
1.3271372 1.0762837 4.0608263
1.3671564 1.0836694 4.0815029
1.2968507 1.1381776 4.0575204
1.3339757 1.1230353 4.0739899
1.370518 1.127709 4.083672
1.2979093 1.1698943 4.0547018
1.3257325 1.1764129 4.0724802
1.352957 1.1821457 4.0876732
1.3178539 1.2302194 4.0715179
1.3531449 1.2134311 4.0818005
1.275581 1.263805 4.0579419
1.3252745 1.2787473 4.0854588
1.2839671 1.3256345 4.0663147
1.3280575 1.3231064 4.0846915
1.2448379 1.3845614 4.0502839
1.2866105 1.3855538 4.0674567
1.3246843 1.361436 4.076931
1.2467082 1.4073383 4.0513115
1.2705225 1.4324223 4.0769582
1.3149923 1.4271923 4.0832148
1.3500959 1.4291921 4.0951505
1.2307373 1.4958589 4.0502248
1.273314 1.4773747 4.0752082
1.3071058 1.4806445 4.0884848
1.2706591 1.5167129 4.0686245
1.3135926 1.5302025 4.097662
1.2432581 1.5950323 4.068553
1.2721701 1.5773689 4.0771327
1.3189374 1.5894048 4.0998583
1.2336315 1.6276398 4.0646148
1.2781695 1.624833 4.0784278
1.2296846 1.6707289 4.0620689
1.2741547 1.6815907 4.0742569
1.3024762 1.6802707 4.0951643
1.1848763 1.7486799 4.0540705
1.2282443 1.7188419 4.0588865
1.2641194 1.7258688 4.0786667
1.3060486 1.7488697 4.0869069
1.1880804 1.7745371 4.0583735
1.2276649 1.773872 4.0675092
1.2760472 1.7729489 4.0938787
1.1928777 1.8241338 4.0610328
1.2290149 1.8199267 4.0718994
1.283004 1.847033 4.0953531
1.1887655 1.8782943 4.0560579
1.2284169 1.8634347 4.0695434
1.2730024 1.8767357 4.090549
1.3176489 1.8504837 4.0954938
1.1793389 1.9321772 4.0596132
1.2209891 1.9239492 4.0783925
1.2614418 1.9239336 4.0881047
1.1832011 1.9813228 4.057683
1.2219307 1.970554 4.0803633
1.2669245 1.9756056 4.0906582
1.1826965 2.0391805 4.0649776
1.2266107 2.0213151 4.0802546
1.2657474 2.032171 4.0947828
1.1804907 2.0702872 4.0596189
1.2309275 2.0718398 4.0784378
1.2780967 2.0803156 4.0945048
1.1824099 2.1233566 4.0627446
1.2156941 2.1238375 4.0739856
1.1776059 2.1711736 4.0554986
1.2166131 2.1718261 4.0741768
1.2552966 2.1821864 4.0861568
1.1826005 2.2131033 4.0593581
1.220911 2.2233033 4.0706859
1.2615174 2.2260749 4.0929441
1.1799291 2.2691839 4.0569634
1.2267845 2.278019 4.071764
1.2741123 2.2721603 4.0926332
1.1806922 2.3179693 4.0556064
1.227681 2.3270223 4.0703597
1.2865473 2.3397264 4.0974426
1.1961788 2.359844 4.0539436
1.2399641 2.3806884 4.0651507
1.2753907 2.3675454 4.0877137
1.314467 2.3946099 4.0897536
1.2863899 2.4063165 4.0670338
1.325701 2.4170969 4.0769281
1.3738991 2.4231894 4.0756211
1.4345367 2.4309139 4.0735078
1.5206488 2.4314895 4.0762076
1.5673195 2.44508 4.0611734
1.6466606 2.4394171 4.0791135
1.6773353 2.4343514 4.0595741
1.7791394 2.4420962 4.0946951
1.9601922 2.4438725 4.0880909
2.008023 2.445482 4.0724297
1.7476519 2.4532595 4.0718889
1.7726244 2.4561155 4.0686936
1.8730921 2.4623034 4.0815458
1.9220808 2.4630196 4.0833263
2.0740075 2.4547105 4.0638838
2.1255655 2.4503918 4.0924869
2.1502812 2.4517343 4.0846353
1.4775586 0.93344873 4.1033049
1.5073406 0.93909001 4.1227899
1.4309379 0.98997504 4.1112304
1.4720092 0.96772528 4.1142516
1.5191466 0.97000599 4.1296082
1.3917043 1.0142688 4.1011667
1.4317523 1.0311135 4.1177392
1.4770775 1.020545 4.1266432
1.5184093 1.0195694 4.1407843
1.3953265 1.0584111 4.1044989
1.4240137 1.0747594 4.1205053
1.4752238 1.0764649 4.137804
1.500865 1.074579 4.1463981
1.3995512 1.1136501 4.107254
1.419498 1.1288708 4.1194949
1.4657073 1.1245052 4.1343598
1.5043312 1.1404115 4.1440125
1.3827357 1.1794987 4.1118093
1.4208547 1.1771501 4.118711
1.4626791 1.1788205 4.1315851
1.5073581 1.1638654 4.1481843
1.3836398 1.2220535 4.1058846
1.4203441 1.2266948 4.1138663
1.4746232 1.2264791 4.1403818
1.3737668 1.2725506 4.1064081
1.4270718 1.2746387 4.12427
1.4678743 1.2827046 4.1425009
1.3855584 1.3301089 4.1167898
1.4260478 1.3155003 4.1236339
1.4505291 1.3392544 4.1468763
1.3723297 1.3884376 4.1284809
1.4284949 1.3597618 4.144917
1.3706993 1.4220339 4.115015
1.4186586 1.4221429 4.1421847
1.3351643 1.4885137 4.1053734
1.3749162 1.4760748 4.1276064
1.424614 1.4729592 4.1410904
1.3384191 1.5344877 4.1042018
1.3762237 1.5199823 4.1203489
1.2944421 1.5642067 4.1000805
1.3335247 1.5758215 4.1018682
1.3835604 1.5708616 4.1308575
1.4236226 1.579769 4.1464586
1.3260424 1.6299067 4.1128273
1.3695058 1.6287404 4.1315441
1.4025155 1.6231931 4.1408463
1.3190961 1.6691793 4.1036191
1.3677162 1.6737772 4.1253443
1.4054511 1.6696891 4.1370716
1.3206425 1.7220036 4.1064696
1.3745418 1.7252895 4.1330185
1.4150499 1.7353142 4.1491017
1.335081 1.7828633 4.1248417
1.3790895 1.7742664 4.1333065
1.418577 1.7722709 4.1493382
1.2862111 1.8178793 4.1027417
1.331972 1.8230721 4.1144853
1.3863208 1.8270688 4.1410866
1.2785217 1.8992997 4.1035166
1.3264481 1.8845054 4.1155925
1.3670088 1.8847914 4.1357851
1.4033198 1.8569517 4.1494799
1.282483 1.9484917 4.1012487
1.3161733 1.9178013 4.1087127
1.3661071 1.9286199 4.1313291
1.3242878 1.9732043 4.1187105
1.3775114 1.9761459 4.1410394
1.2901525 2.0146127 4.1062574
1.33078 2.0267198 4.1230941
1.3699996 2.0252049 4.1384673
1.293885 2.0532024 4.1060619
1.3248103 2.0784125 4.1250582
1.3705494 2.072295 4.1397386
1.2638711 2.1367643 4.1073632
1.3170683 2.1276293 4.1209641
1.3697897 2.11693 4.1314263
1.2845781 2.1727033 4.1133852
