ply
format ascii 1.0
comment PCL generated
element vertex 1456
property float x
property float y
property float z
element camera 0
property float view_px
property float view_py
property float view_pz
property float x_axisx
property float x_axisy
property float x_axisz
property float y_axisx
property float y_axisy
property float y_axisz
property float z_axisx
property float z_axisy
property float z_axisz
property float focal
property float scalex
property float scaley
property float centerx
property float centery
property int viewportx
property int viewporty
property float k1
property float k2
end_header
-0.36898458 -0.27520108 1.1959742
-0.32592389 -0.27418259 1.1880056
-0.27591074 -0.27509153 1.1790407
-0.23179366 -0.27357209 1.171766
-0.75656527 -0.2277254 1.1730543
-0.36488929 -0.22358003 1.1969889
-0.3250854 -0.22583029 1.1891757
-0.2727946 -0.22430763 1.1786854
-0.23121327 -0.22542678 1.1722144
-0.7542991 -0.17433874 1.1705695
-0.36758357 -0.17283511 1.1968441
-0.32287157 -0.17525569 1.1878885
-0.27508071 -0.17526238 1.1793127
-0.23440619 -0.17416243 1.1723635
-0.7529372 -0.12503122 1.1725956
-0.7487461 -0.10748318 1.1666238
-0.36934638 -0.12459818 1.1970668
-0.32473618 -0.12529042 1.1877383
-0.27636516 -0.12511835 1.1791706
-0.23495723 -0.12530614 1.174571
-0.75115329 -0.082357079 1.170514
-0.74781966 -0.063742422 1.1755667
-0.40231618 -0.07714048 1.1993194
-0.36978319 -0.072578877 1.1956831
-0.32522392 -0.0752979 1.18692
-0.27638996 -0.074440494 1.177936
-0.23432854 -0.073843203 1.174304
-0.75105596 -0.037430264 1.1540751
-0.74359071 -0.034939528 1.1762148
-0.37318301 -0.026972501 1.1955428
-0.32626256 -0.026059955 1.1862488
-0.27585587 -0.025693599 1.1770551
-0.23414947 -0.025520645 1.1747233
-0.40691969 0.030804284 1.1986915
-0.37463605 0.02395232 1.1941855
-0.32585609 0.023210509 1.184751
-0.27564731 0.022885285 1.1761572
-0.23403263 0.022733234 1.1742022
1.1252716 0.035632364 1.1909111
-0.40592182 0.077240162 1.1977226
-0.37436604 0.074919894 1.1929281
-0.32634509 0.075460054 1.185068
-0.27574518 0.074332163 1.1751257
-0.23405641 0.073822208 1.1728806
1.1161276 0.073238097 1.1653306
-0.40979877 0.1221799 1.1986626
-0.37436253 0.12499911 1.1921517
-0.32551315 0.12479329 1.1844403
-0.27592066 0.1254209 1.1751471
-0.23491164 0.12479168 1.1728916
1.1143718 0.10095497 1.151614
-0.61192137 0.19420283 1.1997037
-0.46533138 0.19616184 1.1967118
-0.41883636 0.18524928 1.191666
-0.37432507 0.17498186 1.1893836
-0.32615653 0.1748585 1.1806605
-0.27638087 0.17534655 1.1727926
-0.23618118 0.17513098 1.1725013
-0.37997678 0.20214041 1.1843313
-0.32454833 0.20199351 1.1685193
-0.27498096 0.20223586 1.1630685
-0.557814 -0.50072986 1.2121195
-0.85162568 -0.48163605 1.2223891
-0.82940823 -0.48622546 1.225192
-0.78116894 -0.48162165 1.2166102
-0.71313959 -0.47796866 1.2198476
-0.67482102 -0.49398708 1.2257311
-0.62463987 -0.49552041 1.2218801
-0.57335562 -0.49573782 1.2283647
-0.52504218 -0.49617249 1.2255086
-0.47702652 -0.4950425 1.2241778
-0.42693484 -0.4949114 1.2253304
-0.37536535 -0.49268493 1.221361
-0.32462722 -0.49224317 1.225503
-0.27691573 -0.49096259 1.2307419
-0.22073127 -0.48403916 1.2259477
-0.173768 -0.48647213 1.2246346
-0.12399006 -0.48592797 1.2236882
-0.075259916 -0.48540559 1.224342
-0.026744099 -0.48670101 1.2276403
0.025090178 -0.48549426 1.2245406
0.07538338 -0.48601693 1.2258673
0.12682146 -0.485109 1.2220713
0.17516197 -0.48493201 1.2268893
0.22432415 -0.48381352 1.2229991
0.27386215 -0.48267388 1.2240851
0.3235032 -0.48240983 1.2268555
0.37577191 -0.48176393 1.2255867
0.42370915 -0.48039109 1.2196894
0.47399178 -0.48035136 1.2286519
0.52649838 -0.47972277 1.2240913
0.57468742 -0.47921878 1.2253984
0.6284703 -0.47927421 1.2239642
0.67442608 -0.47827646 1.2208781
0.72501349 -0.47740376 1.2202058
0.77764052 -0.47645012 1.2209492
0.82488173 -0.47607756 1.2200131
0.87618566 -0.47766438 1.2217492
0.91979122 -0.47840986 1.2220063
0.97696865 -0.47866449 1.2254287
1.0291456 -0.47760835 1.2291542
1.0756289 -0.47942278 1.2225953
1.1261449 -0.48002833 1.2235091
1.1726087 -0.47704428 1.2174758
1.2253662 -0.48045686 1.2216526
1.2802151 -0.48244178 1.2211344
1.3315042 -0.47878203 1.2238109
1.3648463 -0.47530326 1.2263619
1.5243993 -0.47343621 1.2110485
-0.77272344 -0.42551628 1.2294041
-0.72394079 -0.44141677 1.2121329
-0.2397783 -0.43003762 1.2116405
-0.76710707 -0.384157 1.2006392
-0.24408887 -0.35612479 1.2385328
-0.76410037 -0.31606692 1.2309619
-0.72359073 -0.30675235 1.2451512
-0.6759879 -0.31193316 1.2445858
-0.62635356 -0.31074879 1.2380865
-0.57619166 -0.31147468 1.2357717
-0.52294958 -0.31157994 1.2295176
-0.47309431 -0.31510684 1.2254455
-0.42459074 -0.31537879 1.219929
-0.3746441 -0.31789237 1.2160332
-0.32321122 -0.32232803 1.211795
-0.27062422 -0.32720953 1.2080053
-0.76210916 -0.27545598 1.233801
-0.72382283 -0.2754094 1.2449555
-0.67406583 -0.27468982 1.2406946
-0.62347394 -0.27441663 1.236243
-0.5743497 -0.27572635 1.2291609
-0.52566296 -0.27346349 1.2217728
-0.4737654 -0.27459088 1.2132083
-0.42381075 -0.27490699 1.2056437
-0.39060727 -0.27554491 1.2016006
-0.75884366 -0.22564533 1.2288731
-0.72765118 -0.2250272 1.2457132
-0.6744318 -0.22396035 1.242823
-0.62492317 -0.22613378 1.2385451
-0.57451129 -0.224751 1.2312422
-0.52448219 -0.22558825 1.2229153
-0.47517917 -0.22441743 1.2151878
-0.42453831 -0.2245615 1.2070091
-0.38683715 -0.22720267 1.2019411
-0.75683522 -0.1745322 1.2275078
-0.72496837 -0.17481337 1.2458291
-0.67688078 -0.17442651 1.244483
-0.62560391 -0.17594808 1.2380302
-0.57477438 -0.17405701 1.2318345
-0.52489281 -0.17552079 1.2249424
-0.47702599 -0.17478298 1.2167994
-0.4265849 -0.17466067 1.2085952
-0.39210287 -0.1791278 1.2017086
-0.7541002 -0.12677424 1.2261765
-0.7235809 -0.1251163 1.2454165
-0.67296386 -0.12499023 1.2441369
-0.62454563 -0.12511113 1.2390126
-0.57596457 -0.12351654 1.2320156
-0.52564383 -0.12616056 1.2243992
-0.47517714 -0.12521604 1.2162343
-0.42519403 -0.12370241 1.2076893
-0.3901135 -0.12515852 1.2012483
1.0992681 -0.11903699 1.2442631
1.1016997 -0.1116355 1.2440578
-0.75247908 -0.084596403 1.2219564
-0.72965074 -0.074580751 1.2406851
-0.67373526 -0.074881151 1.24259
-0.62362862 -0.073281281 1.2369956
-0.57489818 -0.072774291 1.2306365
-0.52472681 -0.077313088 1.2225798
-0.47330862 -0.076019749 1.2142029
-0.42461061 -0.074852683 1.206756
-0.39022321 -0.079842806 1.2011291
1.1123221 -0.066369928 1.2236288
-0.86961013 -0.011276064 1.2490776
-0.82332766 -0.010649438 1.2447039
-0.77174783 -0.013820959 1.2362449
-0.72926229 -0.028140133 1.2397513
-0.67711419 -0.02537716 1.2410758
-0.62615496 -0.026133774 1.2359754
-0.57404989 -0.024871266 1.2282163
-0.52332038 -0.027634865 1.2198759
-0.47287577 -0.027255973 1.2123359
-0.42361668 -0.026907012 1.2049683
-0.39242223 -0.022819577 1.2011558
-0.22713885 -0.024041293 1.2478433
1.1309526 -0.023055032 1.2278284
-0.8120991 0.022074673 1.246805
-0.77275646 0.02474322 1.2460886
-0.72514266 0.022097463 1.2435524
-0.67580217 0.022825368 1.2377474
-0.62675375 0.022273358 1.2337413
-0.57506233 0.022735268 1.2269228
-0.52561998 0.024541071 1.2190758
-0.47554722 0.024354516 1.2109424
-0.42700559 0.022797288 1.2038752
-0.39588675 5.8035763e-05 1.2008002
-0.22651161 0.033033937 1.2442217
1.1395537 0.012391096 1.220425
-0.80810118 0.068035111 1.2490077
-0.77226537 0.074962243 1.2483618
-0.72591692 0.074927256 1.2433091
-0.67631125 0.074746631 1.237136
-0.62736756 0.073555551 1.2323807
-0.5757159 0.073150106 1.2252306
-0.52327788 0.076709442 1.2163728
-0.47421154 0.077137284 1.2099047
-0.42837521 0.07329604 1.2038451
-0.2272476 0.054214165 1.247768
-0.76600271 0.12153761 1.2480459
-0.72471339 0.12694106 1.2444332
-0.67497247 0.12435511 1.2369241
-0.62538308 0.12484485 1.2302532
-0.5744189 0.12297948 1.2231883
-0.52366459 0.12697648 1.2161648
-0.47352961 0.12484728 1.2096899
-0.42887959 0.1244036 1.2024629
-0.39786077 0.14312378 1.2009013
-0.76087683 0.17488045 1.2481334
-0.72397649 0.17246157 1.2427876
-0.67408681 0.17262241 1.2358818
-0.62246907 0.17394583 1.2262816
-0.57412165 0.17461164 1.2200614
-0.52365577 0.17616346 1.2126579
-0.47376424 0.17154041 1.2067447
-0.43040901 0.16354728 1.2024546
-0.22303371 0.17379408 1.2061529
-0.56073523 0.20005074 1.2141153
-0.4959814 0.20154852 1.2016087
-0.8519119 -0.48217192 1.2665219
-0.83515733 -0.48619679 1.2766081
-0.7189514 -0.48702982 1.2784805
-0.67399567 -0.48929024 1.2761068
-0.62473655 -0.49158797 1.2728103
-0.57690871 -0.49336642 1.2732141
-0.52349019 -0.4933275 1.2725787
-0.47467321 -0.49280944 1.2768816
-0.42626905 -0.49217507 1.2733933
-0.37526891 -0.49149764 1.2765412
-0.32210124 -0.49129355 1.2748883
-0.27525857 -0.48677897 1.2695564
-0.21939893 -0.48809382 1.2775161
-0.17308287 -0.4885706 1.2747943
-0.12440197 -0.48703367 1.2803578
-0.077482715 -0.48695856 1.2767432
-0.027861159 -0.48510361 1.2735511
0.024876039 -0.48629197 1.2774031
0.077550247 -0.48583889 1.2752496
0.12528643 -0.48599252 1.2759612
0.17175388 -0.48471728 1.2745622
0.22701512 -0.48427594 1.275299
0.27684632 -0.48410875 1.2774663
0.32368428 -0.48238531 1.2762657
0.3735145 -0.48248813 1.2746923
0.42319566 -0.48111328 1.2723712
0.47042826 -0.48009422 1.2749101
0.52218878 -0.4805575 1.2723794
0.57491142 -0.48016348 1.2744169
0.62540442 -0.47959524 1.2765535
0.67762715 -0.47962689 1.2743443
0.72514689 -0.47911769 1.2698888
0.77388549 -0.47769177 1.2731081
0.82837516 -0.4797602 1.27873
0.87442029 -0.47711882 1.2731149
0.92347032 -0.47891876 1.2747455
0.97105092 -0.47925475 1.2719097
1.0281368 -0.47941476 1.2719873
1.0743657 -0.4774434 1.2766184
1.1264105 -0.47818208 1.2721318
1.1729852 -0.48005077 1.2749834
1.2232066 -0.47950107 1.2782582
1.2715021 -0.47967088 1.2766383
1.3238548 -0.48136166 1.2765406
1.3769999 -0.47761819 1.2798227
1.418756 -0.4760232 1.2772051
-0.79542679 -0.44420058 1.2638835
-0.25708807 -0.37852392 1.2690908
-0.2481384 -0.37138259 1.257226
-0.75372607 -0.31966379 1.2512643
-0.72993582 -0.31635481 1.2532105
-0.66305482 -0.32555088 1.2507674
-0.6248312 -0.32758409 1.2555244
-0.56849509 -0.32984993 1.2575094
-0.53193724 -0.33036569 1.2565632
-0.49140126 -0.33283976 1.2503533
-0.44869381 -0.34085995 1.2669352
1.112058 -0.1649351 1.285423
1.0990634 -0.12735109 1.2574998
1.1066773 -0.13959116 1.2652073
-1.0571005 -0.010782037 1.2696476
-1.0228211 -0.010681834 1.2697011
-0.97685641 -0.010528753 1.2670256
-0.92503577 -0.0099320244 1.2572179
-0.87903744 -0.0084346728 1.2510194
-0.2264657 -0.02034387 1.2671838
1.1385764 -0.037455462 1.2500515
-1.0686363 0.022455864 1.2846597
-1.0285602 0.022803145 1.2773868
-0.97866112 0.021538934 1.2703515
-0.92466003 0.023483729 1.2613978
-0.87344855 0.025627999 1.2550954
-0.83538628 0.024177568 1.2516878
-0.22584713 0.029882548 1.2605741
-1.0657923 0.076131083 1.2877986
-1.0241336 0.074300967 1.2806295
-0.97243941 0.072130755 1.270257
-0.92542273 0.074945293 1.2646524
-0.8763929 0.076921567 1.2590842
-0.82806599 0.076633781 1.2532084
-0.78067815 0.075434044 1.2511204
-0.22560844 0.071168326 1.2567579
-1.0623292 0.12601444 1.2864736
-1.026217 0.12520979 1.2844671
-0.97648948 0.12405165 1.2766583
-0.92515492 0.12490218 1.2687786
-0.87420863 0.12640339 1.2608626
-0.82562357 0.12280715 1.2563015
-0.78313434 0.12796387 1.2519163
-1.0584731 0.16550635 1.2899474
-1.0269967 0.17321828 1.2879796
-0.9737668 0.16899893 1.2786717
-0.92558813 0.17012389 1.2732605
-0.87483692 0.16992521 1.2663525
-0.82346845 0.16963227 1.2581139
-0.78160828 0.17178962 1.2539399
-0.85260808 -0.4767386 1.3211428
-0.84267265 -0.4787294 1.3199803
-0.7607277 -0.48567587 1.334311
-0.72696227 -0.48682585 1.323276
-0.67654699 -0.48739377 1.3251253
-0.62637287 -0.48955047 1.3275492
-0.57700253 -0.49089724 1.3259103
-0.52378792 -0.49083614 1.3198279
-0.47518343 -0.49089259 1.3267145
-0.4271079 -0.49023056 1.3211215
-0.37582123 -0.4897632 1.3250098
-0.32585901 -0.48978034 1.3246081
-0.28779683 -0.4852961 1.3220474
-0.22560479 -0.48877573 1.327837
-0.17688958 -0.49023825 1.3256679
-0.12469552 -0.48673424 1.3279544
-0.073607318 -0.48658258 1.3235972
-0.023258034 -0.48671776 1.3240293
0.022557616 -0.48644945 1.3251921
0.074676409 -0.48678619 1.3245753
0.12423211 -0.48602235 1.3272889
0.17811485 -0.48594838 1.3221632
0.22240737 -0.48395309 1.3234708
0.27532896 -0.48382029 1.3231332
0.32744765 -0.48256516 1.3253295
0.37859887 -0.48304325 1.3279912
0.42556226 -0.4828411 1.3299197
0.47632104 -0.48217791 1.3229678
0.52478576 -0.48133746 1.3276278
0.57207477 -0.48060083 1.3242129
0.62322742 -0.4810724 1.3277391
0.67309475 -0.47935247 1.3238537
0.72697508 -0.4795846 1.3215282
0.77787954 -0.47925851 1.3291222
0.82964516 -0.47778174 1.3289078
0.87262785 -0.47808227 1.3298742
0.92115802 -0.47754344 1.3241805
0.9741528 -0.47948664 1.3209523
1.0230134 -0.47701979 1.3245138
1.0726488 -0.47573972 1.3247629
1.1229851 -0.47680801 1.3154984
1.1740351 -0.48002183 1.3288666
1.2292093 -0.47885883 1.3220266
1.2843851 -0.47829804 1.3224523
1.3249751 -0.48138914 1.3218212
1.3651272 -0.48138207 1.3346064
1.4177204 -0.47998792 1.3301084
1.4534203 -0.47840852 1.3411211
-0.28913149 -0.37540093 1.3386818
1.0978733 -0.28343546 1.3389374
1.1109111 -0.2669434 1.3375982
1.1178203 -0.22646846 1.325318
1.1261845 -0.19263394 1.3165416
-1.0932875 0.074416287 1.3039685
-1.1014909 0.10840965 1.311848
-1.0868119 0.16138516 1.304148
-1.0013536 0.19497725 1.308566
-0.80410558 -0.48640686 1.3853061
-0.77616847 -0.48695296 1.378562
-0.72911412 -0.48732722 1.3764853
-0.67311847 -0.48519436 1.37275
-0.62586635 -0.48802024 1.3762659
-0.5750683 -0.48877993 1.3763884
-0.52346873 -0.49028435 1.3728734
-0.4729895 -0.48929182 1.3723376
-0.42371744 -0.48938531 1.3756855
-0.37293765 -0.48819631 1.3752931
-0.32259732 -0.48704192 1.373181
-0.28293324 -0.47090015 1.3709445
-0.22551338 -0.48802391 1.3728739
-0.17604814 -0.48920396 1.3756095
-0.12441956 -0.48673669 1.3769052
-0.074064776 -0.48521224 1.3739473
-0.026658755 -0.48582205 1.378032
0.026556332 -0.48637882 1.375108
0.074134097 -0.48628914 1.376742
0.12711638 -0.48577017 1.3739548
0.17329718 -0.48597446 1.3722631
0.22354729 -0.48404458 1.3755147
0.27656376 -0.48399919 1.3709823
0.322799 -0.48359424 1.375158
0.37155819 -0.48170355 1.3750099
0.42161193 -0.48342928 1.3775852
0.47271654 -0.48254675 1.3724132
0.52430016 -0.48178771 1.3719726
0.57483494 -0.4831953 1.3813699
0.62387663 -0.48180166 1.3783818
0.67282659 -0.48086882 1.3729488
0.72755575 -0.48041916 1.3707377
0.77589548 -0.47889656 1.3710195
0.81012464 -0.47888449 1.3751779
0.891433 -0.47307798 1.3544407
0.92291522 -0.4736326 1.355796
0.97161514 -0.4761377 1.366241
1.0182749 -0.47626629 1.3691084
1.0833437 -0.4751659 1.3711586
1.1244397 -0.47818232 1.3761514
1.1766417 -0.48188046 1.3764259
1.2258183 -0.4807708 1.3745964
1.2728614 -0.47930482 1.3745115
1.3272063 -0.47989988 1.3734025
1.3794463 -0.48010764 1.3793494
1.4332952 -0.47929549 1.382206
1.4786859 -0.49133289 1.3901534
1.5305294 -0.48967272 1.3888099
-0.30954188 -0.40115005 1.3901849
-0.28981322 -0.4046309 1.379643
1.0771784 -0.41820899 1.3833141
1.1027018 -0.4184922 1.3963484
-0.31245267 -0.38581419 1.3734304
-0.29373229 -0.39384341 1.3663769
1.0907865 -0.38227332 1.3779325
1.1021439 -0.36360505 1.3757633
1.0961584 -0.33503947 1.3580433
1.1087083 -0.31930959 1.3648018
1.1095599 -0.29441851 1.3517747
-0.87614155 -0.49155563 1.4402279
-0.82179344 -0.48945951 1.4319494
-0.76545399 -0.48608303 1.4190226
-0.72190136 -0.48673451 1.4228296
-0.67160261 -0.48686579 1.4267211
-0.62725192 -0.48777482 1.4252739
-0.57423413 -0.48850462 1.4234871
-0.5261088 -0.48920316 1.4293342
-0.4770689 -0.48886505 1.424705
-0.42432788 -0.48845986 1.4254924
-0.37257868 -0.48833328 1.4302458
-0.32461238 -0.48167723 1.4236815
-0.25846565 -0.48477077 1.4261385
-0.22519326 -0.48831841 1.4241379
-0.17443511 -0.48933345 1.4213991
-0.12956752 -0.48645392 1.4251273
-0.076828249 -0.48505026 1.4247892
-0.025129884 -0.48554224 1.4304584
0.021439333 -0.48610851 1.4269783
0.072903089 -0.48749319 1.4275432
0.12347482 -0.48667693 1.4279888
0.17463662 -0.48711532 1.4280331
0.22729549 -0.4851453 1.4294195
0.27353156 -0.48411691 1.4207838
0.32463548 -0.48410484 1.4263707
0.37626794 -0.48294771 1.4259738
0.42275682 -0.482348 1.4236084
0.47493526 -0.48296586 1.4252752
0.52446824 -0.4830566 1.4251324
0.57388633 -0.48425552 1.4244677
0.62453198 -0.48359302 1.4261822
0.67416513 -0.48210493 1.421964
0.72932017 -0.48444349 1.4279294
0.77769762 -0.48097861 1.4227344
0.82145756 -0.47647706 1.4259896
1.1289384 -0.47465938 1.4173524
1.1714572 -0.47892448 1.4169289
1.2244495 -0.47757047 1.4174272
1.2771485 -0.47931108 1.4346218
1.3149838 -0.48002049 1.4182328
1.3694814 -0.48085263 1.4279641
1.424305 -0.48253015 1.4255915
1.453912 -0.48312789 1.4211524
1.5355003 -0.48802388 1.4034537
-0.31242859 -0.42488769 1.4341555
-0.29254767 -0.44841173 1.40265
1.10465 -0.41100618 1.400833
1.1202636 -0.37232557 1.4142101
-1.325762 -0.011920174 1.4240865
-1.3571441 0.028816681 1.4347472
-1.3373079 0.019394116 1.4375073
-1.3597667 0.079462521 1.4390898
-1.3337518 0.057747424 1.4428132
-1.3591126 0.12148327 1.4395933
-1.3554444 0.17140509 1.4374635
-1.3494275 0.15956269 1.432254
-1.3662533 0.21523452 1.4439808
-1.3233185 0.20376801 1.4489812
-1.3592654 0.26032409 1.4469478
-0.91495526 -0.49126709 1.4957101
-0.87630624 -0.4912039 1.4777647
-0.82029021 -0.49109828 1.4794573
-0.77136952 -0.48830587 1.4733369
-0.72460639 -0.48886061 1.4734547
-0.67371511 -0.48601589 1.4734052
-0.62268662 -0.48749793 1.4723939
-0.57370973 -0.48813209 1.4713403
-0.52676696 -0.48856086 1.4753907
-0.47603568 -0.48838195 1.4796015
-0.42418098 -0.4881171 1.4721016
-0.37350979 -0.48681429 1.4754076
-0.32920828 -0.47849891 1.4721168
-0.2636289 -0.4866094 1.4786456
-0.22283415 -0.49031845 1.4720948
-0.17330705 -0.49046001 1.4703014
-0.12359688 -0.48795313 1.4791553
-0.073436618 -0.48543593 1.4701482
-0.028512584 -0.48626521 1.4803151
0.019382743 -0.48769626 1.4809065
0.07627558 -0.48710513 1.4782244
0.13035628 -0.48778912 1.4789207
0.17777552 -0.48737887 1.4775981
0.22527246 -0.48558173 1.4724642
0.27695066 -0.48466471 1.4759356
0.32650217 -0.4831517 1.4715614
0.37413654 -0.48349738 1.4754642
0.42247096 -0.48456383 1.4811459
0.47282612 -0.48390171 1.4762892
0.52455771 -0.48463732 1.475193
0.57513154 -0.48345411 1.4703286
0.62846678 -0.48488948 1.4745936
0.67507571 -0.48266336 1.4660866
0.7244187 -0.48356578 1.4716841
0.77903181 -0.48196876 1.4761429
0.82555419 -0.48000288 1.4757254
0.87310278 -0.4803082 1.47489
0.91728306 -0.47930199 1.4775853
0.97128612 -0.47949582 1.4891683
1.0230991 -0.48260659 1.4962108
1.105029 -0.48210618 1.4864242
1.1768807 -0.4734464 1.471529
1.2197864 -0.47894958 1.4706843
1.2771069 -0.47848323 1.4806162
1.3273027 -0.47874308 1.470933
1.3730919 -0.48096806 1.4773797
1.4249834 -0.48290485 1.4721065
1.49986 -0.48567745 1.450992
1.5143552 -0.4902215 1.4934546
1.5628226 -0.48495525 1.4793308
-0.31042105 -0.43927005 1.4578706
-1.3115466 -0.0082960296 1.4566406
-1.3203517 0.025131691 1.4625852
-1.3636899 0.063034296 1.4540738
-1.3247746 0.077986352 1.4631683
-1.32212 0.12451585 1.4636858
-1.3300788 0.17429848 1.4681554
-1.3253598 0.22494854 1.4616231
-1.3366433 0.27553704 1.4792662
-1.3509715 0.31842655 1.4795296
-1.3376642 0.32329902 1.4758127
-1.3583065 0.38668531 1.4916089
-1.3391795 0.36601481 1.4783629
-1.3426661 0.41226533 1.4852349
-0.95339876 -0.48170045 1.5281042
-0.92443699 -0.49049255 1.5252497
-0.87551719 -0.49212706 1.5300308
-0.82261533 -0.48948318 1.5193905
-0.77889127 -0.48990589 1.5235122
-0.72700715 -0.48738638 1.5226504
-0.67580855 -0.4893291 1.525326
-0.62621003 -0.48708153 1.5213705
-0.57101625 -0.48786801 1.5209651
-0.52303708 -0.48826814 1.5206336
-0.47083485 -0.48729107 1.5268273
-0.42328793 -0.4885039 1.5249279
-0.37358525 -0.48656008 1.5264848
-0.33903363 -0.4810299 1.5140387
-0.26730555 -0.48715496 1.5240351
-0.22597912 -0.49364248 1.5297928
-0.17826355 -0.49190971 1.5251178
-0.12355471 -0.48766136 1.524615
-0.075643681 -0.48699316 1.5224553
-0.022684546 -0.48703727 1.5167484
0.028717348 -0.48835486 1.5226572
0.076993749 -0.48684412 1.521657
0.12439526 -0.48960581 1.5287749
0.17868954 -0.48737666 1.524978
0.22685759 -0.48760164 1.5224998
0.27776101 -0.48638341 1.531528
0.32586548 -0.48578387 1.5302788
0.36907426 -0.48380104 1.5209234
0.42506313 -0.48519969 1.5207815
0.47116017 -0.48449522 1.5212587
0.52449173 -0.48515064 1.5258483
0.5753718 -0.48593292 1.5293082
0.62343746 -0.48492935 1.5209221
0.68186414 -0.48708445 1.5240655
0.71832007 -0.48200315 1.5164793
0.77368277 -0.483046 1.5242289
0.8274262 -0.48180044 1.5273252
0.87453926 -0.48025426 1.5229021
0.92390132 -0.48000202 1.5261047
0.97077286 -0.47865823 1.5304941
1.0225127 -0.47989282 1.5179344
1.0844901 -0.48141521 1.5281413
1.1196213 -0.47910395 1.5266367
1.2255764 -0.47332031 1.5169013
1.2695451 -0.47842941 1.52889
1.3246999 -0.48050022 1.5249323
1.3835232 -0.48351663 1.5355573
1.4194776 -0.4844065 1.5121077
1.4726827 -0.48772487 1.5149302
1.5082561 -0.48817202 1.5161855
-0.96637988 -0.48830143 1.5680295
-0.92698169 -0.49293947 1.5741488
-0.86783713 -0.49183539 1.5653988
-0.82375687 -0.49095035 1.5756744
-0.77533782 -0.48805308 1.5721246
-0.72147429 -0.48706114 1.5776223
-0.67829007 -0.48896211 1.5755303
-0.62868637 -0.48746043 1.5724214
-0.57402474 -0.48728755 1.5712909
-0.52344716 -0.48769969 1.5726386
-0.47546625 -0.48932639 1.5748886
-0.42824802 -0.48780194 1.5748836
-0.37809613 -0.48632917 1.5787654
-0.34832418 -0.48254043 1.5579932
-0.27280334 -0.48935285 1.57564
-0.22289816 -0.49516603 1.5754387
-0.17413516 -0.4939847 1.5772634
-0.12794881 -0.49136683 1.5752412
-0.072431788 -0.48797092 1.5796773
-0.026582576 -0.48935273 1.569186
0.025299978 -0.48948818 1.5779299
0.07409884 -0.48951945 1.5700516
0.12138903 -0.48817134 1.5725601
0.17162716 -0.49068737 1.5798035
0.2281945 -0.48865959 1.5750833
0.27020469 -0.48583043 1.5720572
0.3212803 -0.4850544 1.5727538
0.37605426 -0.4841826 1.5731416
0.42377934 -0.48467788 1.5664533
0.4728961 -0.48416328 1.5716144
0.52130878 -0.48619556 1.5722497
0.5790866 -0.48610508 1.5734446
0.63133913 -0.48512188 1.5770655
0.67639589 -0.4878296 1.5738158
0.72884405 -0.4861286 1.5789649
0.77340519 -0.48489866 1.5708854
0.82238376 -0.48204425 1.5764067
0.87281257 -0.48178843 1.5753765
0.92294568 -0.47941735 1.5701119
0.97161102 -0.47941008 1.5804998
1.0165678 -0.47839665 1.5729715
1.0775858 -0.47951758 1.5735539
1.1179221 -0.47688666 1.5675837
1.1700165 -0.48017508 1.585271
1.2085495 -0.48205739 1.5987846
1.279092 -0.47799838 1.5692883
1.3155059 -0.48302928 1.5828646
1.3682156 -0.48281318 1.5756357
1.4265116 -0.48708451 1.5767244
1.4835953 -0.48972902 1.5654364
1.5170912 -0.48754767 1.5648232
1.5921602 -0.48832992 1.5677799
-0.23519087 -0.50272191 1.6250536
-1.0044656 -0.48518321 1.6219028
-0.97547817 -0.49618143 1.6269209
-0.92066437 -0.4963592 1.6245813
-0.87465113 -0.49269295 1.6261555
-0.82706803 -0.48891667 1.6218859
-0.77391171 -0.48742282 1.6212621
-0.72661597 -0.48842424 1.6173195
-0.67529994 -0.48780155 1.6194229
-0.62339163 -0.48914337 1.629042
-0.5762409 -0.48872757 1.6302135
-0.52577865 -0.48824877 1.6256828
-0.47855186 -0.48698249 1.6196582
-0.42003521 -0.48894104 1.6285957
-0.37418646 -0.48223004 1.6185095
-0.27015689 -0.49216443 1.6289836
-0.22137499 -0.49657694 1.6257378
-0.17294762 -0.4935486 1.6269158
-0.12278386 -0.48987067 1.6190529
-0.078023724 -0.48959064 1.6293354
-0.023234235 -0.48885095 1.6234002
0.019761125 -0.49022755 1.6249117
0.076717757 -0.49168256 1.6293106
0.12528363 -0.49130636 1.6265223
0.17329445 -0.48923892 1.6202904
0.22443639 -0.48944721 1.6221342
0.27659786 -0.48841047 1.630011
0.32606411 -0.48738465 1.6251292
0.36672094 -0.48761961 1.6298695
0.41736186 -0.48411116 1.6167643
0.47859329 -0.48919132 1.6322272
0.52942598 -0.48803309 1.623113
0.57840812 -0.48740965 1.6234468
0.62698376 -0.48862267 1.6288176
0.67780811 -0.48648998 1.631194
0.72609603 -0.48713526 1.6247619
0.7742269 -0.48445785 1.6311581
0.81739229 -0.48278528 1.6166743
0.86877918 -0.48155785 1.6170015
0.92627144 -0.48031208 1.6234269
0.97365433 -0.47878185 1.6221231
1.0050478 -0.47721305 1.6280745
1.0779016 -0.48360023 1.6273359
1.1215981 -0.47996277 1.6278677
1.1667753 -0.47837734 1.6260847
1.2184169 -0.48034024 1.632382
1.3198814 -0.47715908 1.6224982
1.374419 -0.48770952 1.6188679
1.4134259 -0.48289931 1.6201036
1.4674824 -0.48433688 1.6462214
1.5564859 -0.48810047 1.6288431
-0.99542624 -0.50315511 1.6757706
-0.25685132 -0.50115508 1.690406
-0.22662914 -0.50364298 1.6804172
-0.19503926 -0.50094944 1.6655791
-1.012493 -0.49790129 1.6868638
-0.97222972 -0.49549872 1.6741363
-0.9253273 -0.49506631 1.6723042
-0.87847447 -0.49407542 1.6869993
-0.82549721 -0.48933366 1.6713537
-0.77636123 -0.48822641 1.6691781
-0.72551209 -0.49046957 1.6721604
-0.67727542 -0.48898998 1.677428
-0.62960786 -0.48714104 1.6731254
-0.57484025 -0.4871414 1.6709987
-0.52386105 -0.48773441 1.679363
-0.47379401 -0.48878506 1.6713765
-0.42774627 -0.48650691 1.6775674
-0.39184371 -0.48472846 1.6562313
-0.30394819 -0.48787525 1.6697565
-0.28060591 -0.49173105 1.6744131
-0.20530994 -0.49772403 1.6834326
-0.17830798 -0.4938896 1.6766531
-0.12138473 -0.49164146 1.6755712
-0.075158253 -0.49140042 1.6751744
-0.029898405 -0.4900474 1.6787704
0.022986786 -0.49163041 1.6743307
0.077779509 -0.49028546 1.6719081
0.12725838 -0.49095485 1.6790874
0.17791981 -0.4911167 1.6779442
0.22331186 -0.49025744 1.6743221
0.27591515 -0.48851913 1.6782191
0.32804099 -0.48713166 1.6762173
0.37877592 -0.4888266 1.6763302
0.42636466 -0.48729774 1.6700227
0.47636729 -0.48703039 1.6734033
0.52585483 -0.48611444 1.6675359
0.57251918 -0.48602763 1.671932
0.61875618 -0.48457405 1.6691401
0.67126703 -0.48487252 1.6796956
0.72219741 -0.48886618 1.6731083
0.77311236 -0.48469129 1.6647882
0.82553184 -0.48492417 1.6743381
0.88459826 -0.48379937 1.6734445
0.92385328 -0.48227596 1.6913033
0.97639984 -0.48217043 1.687291
1.0289068 -0.47953093 1.6837738
1.0756102 -0.48135009 1.6695954
1.1255286 -0.482517 1.6818311
1.158316 -0.47835648 1.6736164
1.2320199 -0.48321411 1.675652
1.2717606 -0.48197642 1.6752275
1.3981476 -0.48968446 1.6682274
1.4235189 -0.48644608 1.6612599
1.4832319 -0.48722896 1.6711979
1.5193131 -0.48594871 1.6775115
-1.0399849 -0.50422728 1.7448409
-0.93668634 -0.50180161 1.7361493
-0.25253135 -0.50929153 1.718708
-0.23799729 -0.50577641 1.7266556
-1.0687904 -0.49005651 1.73507
-0.96521461 -0.49612522 1.7300737
-0.90529555 -0.49734139 1.7298542
-0.87264025 -0.49447191 1.7302694
-0.82544529 -0.49144006 1.7292701
-0.77473581 -0.48516315 1.7223394
-0.72830194 -0.48620373 1.7365974
-0.67601037 -0.48626879 1.7360981
-0.62633604 -0.48388818 1.7211366
-0.57429498 -0.48547292 1.721763
-0.52846998 -0.48137856 1.7201701
-0.47631845 -0.48348847 1.7098274
-0.43503883 -0.47966805 1.7054448
-0.30996218 -0.48739421 1.7302606
-0.28025389 -0.49242589 1.7196734
-0.20949291 -0.49666777 1.7203573
-0.17274021 -0.49499413 1.7146339
-0.12899235 -0.49502215 1.7251215
-0.07867714 -0.49323088 1.7260339
-0.029109258 -0.48934531 1.7238613
0.027510004 -0.49077329 1.7237316
0.069830418 -0.49297187 1.7273326
0.12308913 -0.49192593 1.7256571
0.1773748 -0.49065882 1.7260729
0.22923268 -0.49099383 1.7302215
0.2718668 -0.48976344 1.730287
0.32153085 -0.49012041 1.7257874
0.37659687 -0.48961285 1.7257787
0.42672852 -0.4869557 1.721222
0.47116095 -0.48875579 1.7305552
0.52896482 -0.48641279 1.7207798
0.58308941 -0.48682818 1.7131803
0.62967205 -0.48648015 1.7256355
0.66704601 -0.48337927 1.7260677
0.73100406 -0.48689026 1.7198353
0.77742606 -0.48872843 1.7234119
0.82465643 -0.48430079 1.7271365
0.873555 -0.48407426 1.7152134
0.92549503 -0.48221779 1.7402529
0.9787721 -0.48561859 1.7333498
1.0707928 -0.48101246 1.7231184
1.1269296 -0.48024952 1.7309508
1.1724761 -0.48068702 1.721696
1.2290252 -0.4882732 1.7150728
1.2734355 -0.48609766 1.7300053
1.4304042 -0.48732489 1.7200072
1.4900901 -0.4882918 1.7131594
0.74731153 0.23075509 1.7446775
0.77392405 0.22645728 1.7459666
-1.4920988 1.2410109 1.7351598
-1.0644391 -0.50419718 1.7632871
-1.0263286 -0.50349438 1.7743505
-0.99168259 -0.50161952 1.798532
-0.26253062 -0.50746799 1.7804154
-0.22873391 -0.50315624 1.7708676
-0.17110744 -0.5007652 1.7651405
-0.11959459 -0.50016296 1.775651
-1.081358 -0.49543399 1.7769468
-1.0313895 -0.49978819 1.7734094
-0.97312576 -0.49704784 1.7859271
-0.92367989 -0.49469164 1.7714421
-0.87765801 -0.49331278 1.7641768
-0.82317621 -0.48882839 1.7696836
-0.76747441 -0.48661897 1.7602583
-0.71888953 -0.47760996 1.7509136
-0.31637523 -0.48990703 1.7805701
-0.28578192 -0.49512568 1.7811918
-0.21492822 -0.49791095 1.7669621
-0.17360246 -0.49565521 1.7782694
-0.12972663 -0.49659219 1.7787095
-0.071515046 -0.4901711 1.774251
-0.025089387 -0.49015018 1.7727009
0.018660771 -0.49103308 1.780092
0.082306817 -0.49106586 1.775391
0.12617157 -0.49106014 1.7739905
0.17045842 -0.49002755 1.7747538
0.21670972 -0.49094731 1.7733094
0.27728724 -0.48886195 1.7725166
0.32924545 -0.49004522 1.7642132
0.38558492 -0.49342206 1.7757441
0.41748413 -0.48998702 1.7696147
0.47530204 -0.49084821 1.7863119
0.52647924 -0.49185753 1.78027
0.57862133 -0.48962569 1.7726297
0.62457865 -0.48920232 1.7794487
0.67629254 -0.48512799 1.7791059
0.72773427 -0.48883098 1.7727427
0.77659523 -0.48643151 1.7749411
0.82119012 -0.48607895 1.7878256
0.87743062 -0.48644009 1.7767015
0.9269833 -0.48495108 1.7762667
0.97417706 -0.48323667 1.7760977
1.0214598 -0.48462996 1.7677965
1.0660657 -0.48313999 1.7742004
1.1289666 -0.48635536 1.7788197
1.1739826 -0.49102676 1.7839298
1.2318567 -0.48934048 1.7701566
1.269915 -0.48572007 1.7658931
1.5464891 -0.49253088 1.7602454
0.74187392 0.22111993 1.7807854
0.77112651 0.21836913 1.7571875
0.81709486 0.22126041 1.7725447
-1.5169137 0.28840992 1.7864294
-1.4756367 0.28540781 1.7877854
-1.4083201 0.28988519 1.7875869
-1.3762624 0.2762239 1.7774963
-1.5217608 0.32315817 1.7862573
-1.4776322 0.32050064 1.7937675
-1.4350235 0.31042138 1.7887956
-1.5260093 0.37234622 1.7880728
-1.4675912 0.36742935 1.7958248
-1.5267593 0.42762694 1.7874879
-1.4717757 0.41422477 1.7978033
-1.4191598 0.42547005 1.7997973
-1.5314022 0.4706946 1.7901
-1.5290251 0.52563584 1.7927222
-1.5299567 0.56217396 1.7898309
-1.5399418 0.73875439 1.7979213
-1.5522068 0.78381544 1.7978342
-1.5352919 0.75584459 1.7970555
-1.5459788 0.83685589 1.7921395
-1.555196 0.85879719 1.7958349
-1.5439861 0.88706899 1.7924061
-1.5538608 0.92117602 1.791315
-1.548021 0.90638518 1.7896491
-1.55985 0.97752309 1.798848
-1.5593367 1.0307662 1.7976762
-1.5497534 1.0071651 1.7952206
-1.5544517 1.0642948 1.7993656
-1.5549299 1.1811614 1.7900447
-1.5339024 1.1623054 1.7948337
-1.565811 1.2464637 1.7970721
-1.5559341 1.2721418 1.7938887
-1.5324373 1.2864789 1.7745972
-1.55212 1.3496797 1.797183
-1.5378493 1.3252604 1.788434
-1.0671866 -0.50249594 1.8157349
-0.97860873 -0.50234354 1.8070433
-0.26174322 -0.50710422 1.8296598
-0.23293395 -0.50618035 1.8231791
-0.18610965 -0.50232196 1.8298817
0.32130849 -0.50118917 1.8484362
-1.1075677 -0.49524885 1.8115988
-1.0560455 -0.4966878 1.8414865
-1.0238376 -0.49730909 1.8266355
-0.97859138 -0.49512771 1.8199586
-0.92591393 -0.48897019 1.8019834
-0.8855958 -0.49363166 1.8046699
-0.31283411 -0.49063829 1.8275119
-0.29675406 -0.49834359 1.8404762
-0.21615456 -0.49701428 1.8168807
-0.17539173 -0.49683428 1.8364872
-0.12356899 -0.49535418 1.8208616
-0.077172771 -0.49465761 1.8365988
-0.020627439 -0.49113092 1.8196142
0.023021184 -0.48894051 1.8252223
0.074415945 -0.489813 1.8198253
0.13035066 -0.48988041 1.8276478
0.17651416 -0.48782292 1.8255522
0.22106461 -0.48959729 1.8207254
0.27079034 -0.49293417 1.8268844
0.33343354 -0.49327022 1.8260844
0.37470907 -0.49106199 1.817703
0.42493045 -0.49080652 1.8188434
0.47460636 -0.48928118 1.8250703
0.52842325 -0.489485 1.8198447
0.57726777 -0.48918152 1.8210155
0.63138241 -0.48663604 1.8258432
0.66929835 -0.48677683 1.8284909
0.72620553 -0.48727289 1.8228546
0.7764141 -0.48102394 1.804023
1.0344485 -0.48324263 1.8044424
1.0702395 -0.48190421 1.8144104
1.1201749 -0.48866877 1.8237972
1.1791462 -0.4898859 1.8353125
1.2209932 -0.4903703 1.8163933
2.0774665 -0.29081938 1.8460479
-1.4064281 0.29270604 1.8150853
-1.3822405 0.28996047 1.8290056
-1.269407 0.28642875 1.8394542
-1.2424334 0.28376111 1.8305415
-1.5092858 0.33369714 1.805032
-1.4806513 0.33956671 1.8015021
-1.4145861 0.32550198 1.8223287
-1.3923621 0.30576354 1.8458084
-1.5115927 0.37411347 1.8057925
-1.4900371 0.38438463 1.8057055
-1.4176296 0.37460104 1.8267076
-1.3949966 0.37811694 1.8488735
-1.5156002 0.42318353 1.8065044
-1.4929949 0.4312714 1.8088477
-1.4210373 0.42582923 1.8270679
-1.3934768 0.42271233 1.8473065
-1.5136809 0.47548857 1.8066108
-1.4935287 0.47961059 1.8119725
-1.4183724 0.47675487 1.8278724
-1.3936871 0.48014888 1.8489218
-1.509336 0.529293 1.8062412
-1.4937553 0.51195419 1.8047867
-1.4199433 0.52728152 1.8305042
-1.3980459 0.51374221 1.847602
-1.5173674 0.55930328 1.8088881
-1.4538134 0.58751315 1.841139
-1.4286965 0.57292479 1.8422157
-1.3936381 0.57514894 1.8482771
-1.4262379 0.62607342 1.8449229
-1.3991849 0.60979974 1.8470271
-1.4178416 0.67546463 1.8434912
-1.3981055 0.67380154 1.8494819
-1.5219909 0.72749466 1.8039834
-1.4197522 0.72827935 1.840844
-1.3923818 0.71990323 1.8494357
-1.5562425 0.78589201 1.8024561
-1.5273459 0.77973044 1.8065035
-1.4263095 0.77297664 1.8409618
-1.5336707 0.82401264 1.8088551
-1.4223859 0.84679306 1.8492939
-1.5356698 0.87756836 1.8117788
-1.4295242 0.86852539 1.8419796
-1.5520432 0.93830365 1.8058462
-1.538433 0.92556661 1.8169202
-1.43361 0.92602903 1.8440895
-1.554392 0.9650318 1.8052731
-1.5383199 0.97230607 1.8142236
-1.4382755 0.97657615 1.8442143
-1.5526271 1.0456077 1.8062301
-1.5419676 1.0230454 1.8163855
-1.430191 1.0270514 1.8420173
-1.5585436 1.0886465 1.806092
-1.5409986 1.0683604 1.8208599
-1.4379028 1.089996 1.8411559
-1.558007 1.1238694 1.8064725
-1.5405926 1.121857 1.8143119
-1.4260978 1.1070695 1.8396063
-1.5586588 1.1825684 1.8090868
-1.5415459 1.1666877 1.8185422
-1.4375877 1.1836783 1.84562
-1.5589094 1.2217844 1.8148227
-1.5441166 1.2362469 1.8248671
-1.440624 1.2373738 1.8489354
-1.5586191 1.2562939 1.8080266
-1.5422789 1.2700428 1.811057
-1.4395418 1.2884283 1.8459386
-1.5628948 1.3242022 1.8021618
-1.4478614 1.3078785 1.8491964
-1.5622611 1.3822855 1.8085194
-1.5581317 1.4025068 1.8031794
-1.565528 1.4747906 1.81725
-1.543211 1.4789091 1.8182926
-1.4481078 1.4645143 1.8409731
-1.5669305 1.5271169 1.8202429
-1.4492548 1.503072 1.8492837
-1.5643069 1.5738701 1.8097639
-1.5443147 1.5804483 1.8134409
-1.5658673 1.6282752 1.8198791
-1.4401525 1.6217283 1.8470073
-1.5666794 1.6728506 1.8169165
-1.438192 1.6594186 1.8499756
-1.5732443 1.7272243 1.815554
-1.4510509 1.7000378 1.846723
-1.4395765 1.8114812 1.8456403
-1.113022 -0.50676948 1.8630911
-1.0831487 -0.5023337 1.8558289
-0.2740289 -0.50909638 1.8740849
-0.22615074 -0.50162852 1.8750607
-0.17217077 -0.501378 1.8768902
-0.14594176 -0.50043225 1.8966153
-0.32159764 -0.4885551 1.8811662
-0.29398164 -0.49998173 1.8833749
-0.22760041 -0.4966023 1.8766161
-0.16382071 -0.49842843 1.8880138
-0.12153163 -0.49515471 1.8632324
-0.072091028 -0.49192911 1.8723108
-0.026334805 -0.48941633 1.8687475
0.027542716 -0.49029148 1.8799881
0.073287383 -0.48997563 1.8779562
0.1236705 -0.4884735 1.8720855
0.17400932 -0.48869428 1.8809079
0.22936569 -0.49066782 1.8702348
0.2787945 -0.49381304 1.876181
0.32333821 -0.49524441 1.8759904
0.37203667 -0.49118051 1.8712617
0.42146784 -0.49355632 1.8797915
0.46931186 -0.49304914 1.8778213
0.52237475 -0.49169675 1.8785969
0.57169652 -0.48922542 1.874456
0.62470895 -0.4878763 1.8776287
0.68104213 -0.48831758 1.8709085
1.1271583 -0.48817426 1.8691239
1.1573037 -0.48718703 1.8766782
2.0337586 -0.27792877 1.8819122
2.067555 -0.27564526 1.8622117
2.0337331 -0.22653304 1.8852447
2.0662167 -0.23488665 1.8624375
2.038713 -0.1776443 1.8823069
2.058259 -0.19145375 1.8743801
2.0396428 -0.13773923 1.8867157
2.0538335 -0.12328254 1.8867971
2.0426085 -0.026310619 1.893481
2.0525784 -0.030049248 1.8886943
2.03689 0.019552479 1.8897041
2.0581789 0.019742511 1.8938794
2.0375195 0.075396292 1.8967057
2.0523753 0.069293506 1.8874688
2.0400708 0.13027799 1.8897153
2.0546989 0.11290165 1.8877211
2.0313644 0.18008277 1.8799366
-1.3665954 0.2942031 1.8534572
-1.3326056 0.29247633 1.8578153
-1.2777556 0.29463005 1.8610151
-1.2323208 0.29877391 1.8758506
-1.1888459 0.29436487 1.860939
-1.3719459 0.32828936 1.8577706
-1.3224524 0.32602429 1.8684062
-1.2754688 0.32362068 1.8735998
-1.2267275 0.32575151 1.8848788
-1.1991348 0.30845377 1.8863264
-1.409353 0.3614288 1.8502268
-1.3728999 0.3752239 1.8575454
-1.3245124 0.37465 1.8676333
-1.2739596 0.37554988 1.8756073
-1.2239481 0.37434688 1.8867888
-1.4138769 0.43469498 1.8504524
-1.3687873 0.42436361 1.8588886
-1.3265862 0.42350677 1.8697648
-1.2761325 0.42467549 1.8760134
-1.2262959 0.42750594 1.8880402
-1.3717173 0.47278214 1.8590878
-1.3235421 0.47402191 1.87003
-1.2739586 0.4740167 1.8778976
-1.2236423 0.47522104 1.8878994
-1.3710673 0.52457476 1.8592291
-1.3272797 0.52316189 1.8688933
-1.2750704 0.52603823 1.8778557
-1.2277657 0.52296013 1.8883768
-1.4190222 0.59231657 1.8503767
-1.3738161 0.57455307 1.8575572
-1.3243443 0.57527429 1.8695763
-1.274582 0.57463408 1.8779447
-1.2249007 0.57466531 1.8906783
-1.3724366 0.62627572 1.8573222
-1.3264952 0.62621081 1.8690569
-1.275914 0.6227029 1.8785974
-1.226842 0.62523377 1.89037
-1.3756257 0.67632824 1.8578542
-1.3262199 0.67248279 1.8691772
-1.2764513 0.67482609 1.8795002
-1.227475 0.67674536 1.8913034
-1.375668 0.72610885 1.8592241
-1.3248228 0.72388512 1.8721452
-1.2742649 0.72785926 1.8833814
-1.2273808 0.72300339 1.8930227
-1.4115041 0.7816608 1.8523207
-1.3751193 0.77458858 1.8632402
-1.3239121 0.77585715 1.8748877
-1.2750264 0.77595997 1.8842229
-1.2330929 0.76978499 1.8931491
-1.4230719 0.82793045 1.8549538
-1.3757044 0.82380557 1.864481
-1.3249376 0.82348692 1.8742446
-1.2764612 0.8242135 1.8849127
-1.2326634 0.82408667 1.8957473
-1.414276 0.8825953 1.8552903
-1.3746159 0.87309843 1.865111
-1.3224926 0.87485182 1.8790588
-1.2737905 0.87403411 1.889733
-1.2311591 0.87373722 1.8963753
-1.4145851 0.92204052 1.8524028
-1.3764157 0.92435747 1.8658851
-1.3260363 0.92459875 1.880033
-1.2735425 0.92292821 1.8887407
-1.2372351 0.91951275 1.8956586
-1.4188423 0.9745307 1.8550551
-1.3758224 0.97670549 1.8678367
-1.3264859 0.97191823 1.8795314
-1.2753837 0.97761464 1.8900222
-1.2407938 0.9754408 1.8966831
-1.4275126 1.0258927 1.859038
-1.3778763 1.0268102 1.8700086
-1.3245027 1.022961 1.880555
-1.272192 1.0284561 1.8910619
-1.2385696 1.0250084 1.8977247
-1.4193957 1.0740633 1.8587112
-1.3746923 1.072963 1.8716937
-1.3221003 1.0750498 1.8832256
-1.2761455 1.0748487 1.8904275
-1.2406936 1.064045 1.897597
-1.4227936 1.1243799 1.8605692
-1.3736687 1.1247549 1.8750744
-1.32574 1.1245658 1.884557
-1.2767006 1.1223048 1.8938841
-1.4203248 1.1718915 1.8596764
-1.3781921 1.1730502 1.8727932
-1.3253697 1.1774472 1.8852819
-1.2792083 1.1718346 1.8939134
-1.4196546 1.2218853 1.8581421
-1.3773282 1.2224765 1.8738496
-1.327273 1.2267694 1.8847429
-1.2832552 1.2188412 1.8957379
-1.4211457 1.2705309 1.8565624
-1.3790519 1.2761052 1.8757147
-1.3301998 1.2749509 1.8878683
-1.2838387 1.2715477 1.8942266
-1.4215304 1.3250098 1.8613855
-1.3757136 1.3281219 1.8775723
-1.3270359 1.3212935 1.8909605
-1.2837961 1.3111209 1.8964181
-1.4510579 1.3580905 1.8540649
-1.4223336 1.3767577 1.8611561
-1.376098 1.376394 1.8794012
-1.3243276 1.3741909 1.8912524
-1.2997507 1.363306 1.8979183
-1.4508255 1.4242938 1.8575572
-1.4246012 1.4251019 1.8631178
-1.3754771 1.4225531 1.8750039
-1.3260748 1.4256015 1.8917336
-1.2848244 1.4335846 1.8976191
-1.422321 1.4757942 1.8638773
-1.3713343 1.4735383 1.8771777
-1.3294305 1.4734764 1.8930711
-1.2871727 1.4713793 1.8945618
-1.4502705 1.52965 1.8661557
-1.4212772 1.5229133 1.8623343
-1.3756094 1.5287831 1.881845
-1.3246703 1.5234993 1.8940854
-1.2892239 1.520413 1.8974363
-1.4603019 1.559186 1.8654453
-1.4229232 1.5693434 1.8609123
-1.3733453 1.5765753 1.8815742
-1.3273292 1.5729291 1.8934216
-1.2964611 1.5804117 1.8983693
-1.4187711 1.6214159 1.8605325
-1.3787249 1.6198694 1.8799844
-1.3265828 1.6243935 1.8933544
-1.299974 1.6173613 1.8979481
-1.4223402 1.6798193 1.8632228
-1.374334 1.6720519 1.8811742
-1.3261195 1.6795404 1.8971504
-1.2901099 1.6602098 1.8985932
-1.4221488 1.720075 1.8594025
-1.3717245 1.7240134 1.8834971
-1.3316156 1.7231601 1.8931412
-1.2920147 1.726674 1.8973335
-1.4501976 1.7821516 1.8549769
-1.4228684 1.7752953 1.8616804
-1.380275 1.7707862 1.8815615
-1.3249763 1.7726672 1.8918196
-1.2857559 1.7734718 1.8977014
-1.4167694 1.8158332 1.8666987
-1.3710293 1.807448 1.8824703
-1.3397807 1.8006285 1.8912835
-0.30094579 -0.50234789 1.9296622
-0.2773869 -0.51413321 1.9241339
-0.17854315 -0.50276011 1.9224565
-0.11025141 -0.50239122 1.9244573
-0.31470045 -0.49591234 1.915985
-0.22276489 -0.49713689 1.9164457
-0.17552893 -0.49616811 1.9159746
-0.13513911 -0.49731722 1.9303042
-0.070219643 -0.49419016 1.9223347
-0.022608234 -0.49127433 1.9212699
0.021072378 -0.4892627 1.9197763
0.076858424 -0.48489779 1.9142946
0.1348089 -0.4916625 1.9389849
0.1814668 -0.48994914 1.9296488
0.22434831 -0.48906949 1.9167247
0.27460748 -0.49439555 1.923359
0.32082671 -0.49485517 1.9241066
0.36927578 -0.49445647 1.9198468
0.42453602 -0.49321488 1.9169847
0.47929275 -0.49259281 1.9192311
0.52621168 -0.49471664 1.9331584
0.56921887 -0.49182704 1.9265678
0.62812102 -0.49130175 1.9258928
1.2260547 -0.49532524 1.9112966
2.0313792 -0.30138662 1.9426253
1.9991339 -0.2610583 1.9396881
2.0142457 -0.27634382 1.9202789
1.9989367 -0.23608805 1.9422212
2.0094686 -0.22705708 1.9221556
2.0192327 -0.17950797 1.9203056
2.0257452 -0.13783512 1.9265709
2.0230839 -0.066488795 1.934769
2.0267866 -0.034187898 1.9258263
2.0220404 0.021307396 1.9277378
2.0277088 0.07062158 1.91782
2.0273383 0.12341925 1.9314106
2.0272737 0.16508871 1.920754
-1.2032435 0.32779318 1.9121331
-1.1985068 0.31365347 1.928237
-1.2084786 0.3725912 1.9254853
-1.2108432 0.41992408 1.9266157
-1.2092388 0.4745284 1.9204738
-1.2101117 0.52736413 1.9214312
-1.2079344 0.57283783 1.9242295
-1.2067837 0.61914295 1.921784
-1.2070726 0.67766809 1.9195555
-1.2086047 0.72532767 1.9195163
-1.2104539 0.77059865 1.9179798
-1.2139672 0.82032716 1.9176958
-1.2118498 0.87696236 1.9203271
-1.2175065 0.92987853 1.9172499
-1.2195854 0.97061247 1.9146372
-1.2204908 1.0248407 1.9159356
-1.2262744 1.077493 1.9140338
-1.2550697 1.1385021 1.9034963
-1.23015 1.1235226 1.9121337
-1.2526358 1.1870681 1.902721
-1.2319679 1.1789359 1.913098
-1.259755 1.2304593 1.9035815
-1.2318749 1.2290527 1.9179715
-1.2580057 1.2851297 1.9049091
-1.2326665 1.2740973 1.922178
-1.3100195 1.3376718 1.9031689
-1.2735734 1.3313018 1.9049606
-1.2321602 1.3170686 1.917376
-1.2729628 1.3759153 1.9042733
-1.2335024 1.3682338 1.9189953
-1.3017609 1.4143572 1.902512
-1.267886 1.4160657 1.9053022
-1.2377657 1.4223272 1.9241099
-1.2637637 1.4666668 1.9059309
-1.2406464 1.4721056 1.9229467
-1.266201 1.5265293 1.909876
-1.2378694 1.5187403 1.9255348
-1.2714458 1.5801842 1.912817
-1.2398283 1.5724485 1.9255412
-1.2696669 1.6280756 1.9109008
-1.2422643 1.629094 1.9283929
-1.3051312 1.6777266 1.9027084
-1.2710294 1.6736253 1.9087328
-1.2437916 1.6791528 1.9307305
-1.3068812 1.7350627 1.9015545
-1.2661564 1.7262751 1.9118086
-1.2462319 1.7247344 1.9357016
-1.2748775 1.7749866 1.9092354
-1.2478989 1.7681408 1.9263602
-1.2512214 1.8044348 1.9485265
-0.30841327 -0.50509965 1.9792215
-0.26995718 -0.5115453 1.9742631
-0.20936069 -0.50056189 1.9698641
-0.18529984 -0.50062716 1.9716911
-0.11369251 -0.50313264 1.9852303
0.36548236 -0.50024968 1.9942054
0.47642279 -0.50343072 1.9914211
0.59193784 -0.50090098 1.9596471
-0.31873259 -0.49872795 1.9831777
-0.25158983 -0.49829802 1.9980192
-0.22722483 -0.49788332 1.9740036
-0.17079155 -0.49837628 1.9716938
-0.13087873 -0.49504077 1.9525269
-0.076119326 -0.49698952 1.9754843
-0.016688503 -0.49458933 1.9735262
0.017031005 -0.49510682 1.9956061
0.14214879 -0.49141309 1.977389
0.16817324 -0.4922542 1.9693949
0.23019798 -0.49760064 1.9969078
0.27515465 -0.49509352 1.9748456
0.32692498 -0.49796805 1.982596
0.37281418 -0.49698544 1.9799129
0.42670986 -0.49734041 1.9740448
0.52364701 -0.49315062 1.9761881
0.58345795 -0.49639729 1.9856154
0.61971378 -0.49245852 1.9701484
1.992296 -0.30221987 1.986989
2.0147257 -0.30175483 1.9618807
1.9808332 -0.26910788 1.9793916
2.0081463 -0.28820223 1.9571081
1.9859115 -0.22290821 1.9776329
1.9927477 -0.17314185 1.9786392
2.0061469 -0.18208422 1.9589651
1.9949831 -0.13748904 1.9855371
2.0103126 -0.13304476 1.9656385
1.9941311 -0.069331758 1.9767592
2.0001028 -0.061512962 1.9547409
1.9954782 -0.034763001 1.989747
2.0114131 -0.024180716 1.9664139
2.010186 0.017666113 1.9730358
2.0272171 0.070309922 1.9689361
2.0228236 0.10127835 1.9517106
0.72360313 0.21890593 1.9908979
0.77845764 0.21898119 1.9771862
0.90878767 0.22418432 1.9904734
-1.2210683 0.33409947 1.9762917
-1.2276293 0.37532163 1.986048
-1.2261612 0.42612094 1.980278
-1.2234098 0.47945157 1.9728969
-1.2217544 0.52174056 1.9738491
-1.2193036 0.5734393 1.9711447
-1.2176697 0.6214698 1.9729372
-1.2167965 0.67305684 1.970423
-1.2195628 0.7272051 1.9724998
-1.2181075 0.77370709 1.9761566
-1.2182254 0.82497287 1.9692453
-1.2224571 0.87405676 1.9776357
-1.2211144 0.92627108 1.9670506
-1.2268517 0.98153687 1.9822826
-1.2231718 1.0230385 1.9747589
-1.2244161 1.0710018 1.979233
-1.227106 1.1224676 1.9676447
-1.2332106 1.1800743 1.9771981
-1.2292697 1.2258278 1.9743183
-1.2294914 1.2686847 1.9642595
-1.2478007 1.3487114 1.9919029
-1.2402023 1.3756224 1.9814558
-1.2354543 1.4284225 1.9668375
-1.2391717 1.4705751 1.9662094
-1.2423729 1.532787 1.9687752
-1.2433527 1.5621433 1.9885923
-1.255576 1.6093292 1.985854
-1.2472631 1.6244026 1.9802399
-1.2505634 1.6577122 1.977441
-1.2476027 1.6729592 1.958521
-1.2533861 1.7240024 1.9754688
-1.2468083 1.7719927 1.9624035
-0.31341356 -0.50861973 2.0343702
-0.28745717 -0.51728612 2.0162041
-0.20939685 -0.50254524 2.018435
-0.17815244 -0.50239682 2.0197859
-0.12860484 -0.50133675 2.0180254
-0.036737841 -0.50012624 2.0156662
0.23869662 -0.50184065 2.0134404
0.28021091 -0.50088418 2.0271225
0.31379497 -0.50192469 2.049346
0.38683331 -0.50396085 2.0279951
0.44613943 -0.50396836 2.0413625
0.47728506 -0.50228107 2.0294883
0.50492972 -0.50227022 2.024946
-0.34065381 -0.49638426 2.037873
-0.26198977 -0.49949417 2.0019767
-0.24232039 -0.4993346 2.0029812
-0.16416605 -0.49990276 2.0105445
-0.12573414 -0.49739188 2.0230422
-0.075968966 -0.4978655 2.0161982
-0.019091697 -0.49430737 2.0171638
0.0025249324 -0.49659663 2.0433068
0.23975515 -0.49423718 2.0242066
0.28048801 -0.49369037 2.0292146
0.32123336 -0.49787244 2.0317194
0.36098769 -0.49780583 2.0270078
0.42006573 -0.49697819 2.0158966
0.461043 -0.49828154 2.0153186
0.50003231 -0.49734846 2.0494115
0.58842468 -0.49485612 2.0225925
0.60914207 -0.49188659 2.0208168
1.9630449 -0.27138489 2.0250466
1.9637756 -0.22053838 2.0263162
1.9681094 -0.1697666 2.0230656
1.9666376 -0.13807705 2.0236621
1.9957207 -0.075292073 2.0206168
2.0109861 0.0008669165 2.013361
2.0382497 0.052090582 2.0159757
0.81676322 0.22404468 2.0172226
0.869941 0.22214624 2.0169249
0.90035248 0.21686409 2.024569
-1.2280498 0.3359814 2.0257282
-1.2327713 0.37579668 2.0177674
-1.233687 0.42584908 2.0203161
-1.2357569 0.47427168 2.0265334
-1.1628468 0.49514577 2.049228
-1.2330067 0.52888036 2.0308058
-1.1627792 0.5061152 2.0470722
-1.2306734 0.57487887 2.0218253
-1.2278345 0.62907469 2.0185053
-1.2284291 0.6690926 2.0253649
-1.226472 0.72979873 2.0138462
-1.2339857 0.77768558 2.0350952
-1.2268072 0.82084346 2.0171673
-1.2306395 0.86842185 2.026263
-1.2335978 0.9282741 2.0223746
-1.2281245 0.97264421 2.0107107
-1.2428515 1.0406575 2.0408626
-1.2375972 1.0596876 2.0222917
-1.236694 1.1280762 2.0195959
-1.2422771 1.1802399 2.0295308
-1.2405638 1.2202317 2.0243907
-1.2417696 1.2756895 2.0193796
-1.2506759 1.333542 2.0070038
-1.2445097 1.3275898 2.0218024
-1.237301 1.3504964 2.0010467
-1.2543749 1.4263381 2.0294769
