ply
format ascii 1.0
comment PCL generated
element vertex 1459
property float x
property float y
property float z
element camera 0
property float view_px
property float view_py
property float view_pz
property float x_axisx
property float x_axisy
property float x_axisz
property float y_axisx
property float y_axisy
property float y_axisz
property float z_axisx
property float z_axisy
property float z_axisz
property float focal
property float scalex
property float scaley
property float centerx
property float centery
property int viewportx
property int viewporty
property float k1
property float k2
end_header
-0.37508202 0.17632447 1.1888503
-0.32594761 0.1751036 1.18109
-0.27650586 0.17561957 1.1718545
-0.23641171 0.17478602 1.1722653
-0.48727512 0.20047788 1.1969863
-0.36355916 0.2002539 1.1868062
-0.32581025 0.20277889 1.1730627
-0.2889072 0.20129129 1.1706513
-0.24392764 0.20310214 1.1538298
-0.63044024 -0.50020432 1.2043041
-0.44269302 -0.50127977 1.2098547
-0.85136485 -0.48218411 1.2063901
-0.83125192 -0.48502505 1.2276351
-0.77473044 -0.47902235 1.2110494
-0.71577376 -0.47816199 1.2216209
-0.67577755 -0.49321216 1.222998
-0.62480569 -0.49527052 1.2225915
-0.57475436 -0.49606571 1.2239661
-0.52614212 -0.49592331 1.2265463
-0.47373328 -0.49556923 1.2250681
-0.42390615 -0.49528733 1.2270744
-0.37525225 -0.49350435 1.2243594
-0.32490155 -0.49233222 1.2283211
-0.27314728 -0.49035752 1.2234551
-0.220682 -0.48308584 1.2222309
-0.17623951 -0.48695323 1.2284163
-0.12534593 -0.48656139 1.2236861
-0.075533658 -0.48715541 1.2287381
-0.026638364 -0.48667446 1.2268134
0.021781154 -0.4859651 1.2237709
0.07344415 -0.48614499 1.2262589
0.12474552 -0.48484728 1.2217034
0.17509153 -0.48532715 1.2223817
0.22287773 -0.48484254 1.2288347
0.27520093 -0.48335835 1.2274826
0.32546246 -0.48252922 1.2238851
0.37537116 -0.4814347 1.2238147
0.42692494 -0.48183 1.2245566
0.47768015 -0.48036426 1.2233837
0.52441418 -0.48059306 1.2260699
0.57373649 -0.48111916 1.2292913
0.62338215 -0.47880036 1.2226303
0.67868012 -0.47868085 1.2210492
0.72697109 -0.47874105 1.2221498
0.77346444 -0.47753608 1.220239
0.82898182 -0.47756863 1.2239672
0.87460625 -0.4783279 1.2231616
0.92481714 -0.47881833 1.2244151
0.975824 -0.47925824 1.2222146
1.0229691 -0.47681525 1.2248007
1.0717463 -0.47685978 1.2193716
1.1329291 -0.4817951 1.2279249
1.1728059 -0.47873974 1.2251065
1.2305063 -0.48212177 1.2282696
1.2743689 -0.48194551 1.2224197
1.3222452 -0.48256108 1.223792
1.3687472 -0.47490421 1.2331412
1.5245575 -0.47248507 1.2142496
1.5650182 -0.47494641 1.2163187
-0.77081734 -0.43107191 1.2310687
-0.7237373 -0.43835464 1.2099658
-0.23919518 -0.42606759 1.2102467
-0.76838404 -0.3948352 1.2000875
-0.24557775 -0.35829705 1.2460874
-0.76490599 -0.3181828 1.2230392
-0.72301888 -0.30398506 1.2447269
-0.67489308 -0.30901366 1.2422658
-0.62260842 -0.3110058 1.2375168
-0.57574171 -0.31205219 1.2358233
-0.52256566 -0.31285512 1.2304657
-0.47512379 -0.31582415 1.2261292
-0.4261933 -0.31582332 1.2203705
-0.37623271 -0.31743813 1.2158289
-0.32611349 -0.32410485 1.2152654
-0.27732503 -0.32285959 1.2047091
-0.2301001 -0.32360363 1.2023959
-0.76257765 -0.27604282 1.2355735
-0.7245304 -0.27423531 1.2450726
-0.67461908 -0.27491292 1.2417108
-0.62344664 -0.27481455 1.2355918
-0.5754571 -0.27548602 1.2296939
-0.52647924 -0.274207 1.2216853
-0.47395423 -0.2747072 1.2137078
-0.42423952 -0.2751089 1.2065046
-0.39187774 -0.26789579 1.201104
-0.7589258 -0.2265029 1.2306074
-0.7254824 -0.22532006 1.2460567
-0.67333537 -0.22472681 1.2427268
-0.62535393 -0.22483298 1.2385094
-0.57446736 -0.22473581 1.2311262
-0.52361375 -0.22556575 1.2230994
-0.47309071 -0.22464809 1.2153566
-0.42348352 -0.22573343 1.2069069
-0.39170343 -0.22298594 1.2022449
-0.22085392 -0.2047483 1.2021073
-0.75671571 -0.17450908 1.227329
-0.72503197 -0.17482403 1.2459499
-0.6773845 -0.1750645 1.2451458
-0.62620157 -0.17611107 1.2392083
-0.57621247 -0.17486331 1.2331281
-0.52300328 -0.17698318 1.2243131
-0.47560069 -0.17405955 1.2172517
-0.42595616 -0.17586598 1.208095
-0.39130196 -0.17345105 1.202508
-0.2211578 -0.18156223 1.2062076
-0.75391859 -0.12731124 1.226043
-0.7246936 -0.12487779 1.2456044
-0.6729036 -0.12553874 1.2441065
-0.62468547 -0.12513675 1.2392919
-0.57658672 -0.12311389 1.2322707
-0.52670014 -0.12731186 1.2243302
-0.47523627 -0.12523544 1.2163861
-0.42521894 -0.1242308 1.2083507
-0.39223567 -0.1268664 1.2019134
1.0967368 -0.11523059 1.2451577
1.1034777 -0.11538771 1.2422631
-0.75198781 -0.082822591 1.2329936
-0.72846937 -0.073737986 1.2384794
-0.67509639 -0.074806646 1.2433031
-0.62473911 -0.072718479 1.2373505
-0.57484782 -0.072768442 1.230507
-0.52491671 -0.077345386 1.22303
-0.47326842 -0.07600788 1.2141062
-0.42396995 -0.074847043 1.2059258
-0.39074993 -0.074840404 1.2014198
1.1198007 -0.05565583 1.2358581
-0.86029214 -0.011230131 1.24709
-0.82133561 -0.010276848 1.2447842
-0.76927942 -0.013927466 1.2378581
-0.72833866 -0.027261829 1.241358
-0.6751107 -0.026761536 1.240624
-0.62419891 -0.025414085 1.2350739
-0.57381815 -0.0248743 1.2288617
-0.5232234 -0.027695816 1.2205433
-0.47205019 -0.027253142 1.2123748
-0.42355487 -0.027226847 1.205086
-0.3959704 -0.023675181 1.2008774
1.1267655 -0.021977987 1.2268248
-0.82039934 0.020209176 1.2473418
-0.77355826 0.024312038 1.2462151
-0.72656012 0.022153504 1.2442214
-0.67661601 0.022857627 1.2392548
-0.62664431 0.021723203 1.2345127
-0.57471776 0.023259813 1.2270743
-0.5224123 0.024744481 1.2186388
-0.4733468 0.025285942 1.2112409
-0.42629755 0.02319585 1.2036145
-0.39573562 0.011916008 1.2002934
1.1305795 0.014016788 1.208943
-0.81334758 0.056814026 1.2492305
-0.77117395 0.072178707 1.2481241
-0.72563034 0.076241799 1.2447201
-0.677131 0.074843891 1.2386508
-0.62765318 0.073587418 1.2329494
-0.5752781 0.073100172 1.2242892
-0.52351218 0.076517157 1.2169417
-0.4734363 0.076677591 1.2099177
-0.42753753 0.076070815 1.2034991
-0.22673389 0.066105738 1.244558
-0.77229178 0.12442881 1.2480903
-0.72385275 0.12707858 1.2437924
-0.67458802 0.125011 1.238255
-0.62495029 0.12518127 1.2311324
-0.57509881 0.12202068 1.223882
-0.52353489 0.12682396 1.2158418
-0.4735024 0.1243569 1.2084575
-0.42901075 0.12522162 1.2030331
-0.76562315 0.16978924 1.2477714
-0.72350419 0.17151269 1.2435143
-0.67447889 0.17253214 1.2372111
-0.62316203 0.17458521 1.226529
-0.57413256 0.17360906 1.2201817
-0.52456409 0.17537344 1.2131236
-0.474601 0.17104287 1.2071143
-0.43145275 0.16335988 1.2026032
-0.22624543 0.18689348 1.2005771
-0.5653705 0.20169222 1.2240556
-0.50319332 0.20323038 1.2107375
-0.47255024 0.20066194 1.2023597
-0.85956764 -0.48531541 1.2868365
-0.82912987 -0.48588976 1.2668545
-0.71880132 -0.48580125 1.2713895
-0.67610401 -0.49024847 1.2757181
-0.6251002 -0.49307933 1.2749419
-0.57439429 -0.4928256 1.2755148
-0.52354395 -0.49363077 1.2717929
-0.47497526 -0.49364895 1.2781342
-0.42521352 -0.49280205 1.2708117
-0.37417591 -0.49189091 1.2740853
-0.32601488 -0.49146414 1.2772574
-0.27727544 -0.48573658 1.2720175
-0.22074115 -0.48852926 1.276786
-0.17309909 -0.48920599 1.2759039
-0.12367988 -0.48689604 1.276731
-0.075296067 -0.48672724 1.2762007
-0.026000738 -0.48651919 1.2768953
0.023931779 -0.48689669 1.2700509
0.074652351 -0.48642313 1.2779716
0.12525512 -0.48576027 1.275367
0.17288449 -0.48562491 1.2737379
0.22479303 -0.48511952 1.2758653
0.27340382 -0.48353586 1.2760649
0.32362932 -0.48324886 1.2721386
0.37352324 -0.48179075 1.2751551
0.42859524 -0.48167452 1.2714758
0.47400296 -0.4816896 1.2725337
0.52464598 -0.48157629 1.2783209
0.57115209 -0.48060602 1.2744852
0.61989415 -0.48005071 1.2755728
0.66951591 -0.47941151 1.2702527
0.72548574 -0.47901762 1.2754111
0.77876133 -0.47781712 1.272171
0.82509887 -0.47858852 1.2752591
0.87612212 -0.47903469 1.2777753
0.92634034 -0.47945276 1.2743205
0.97510803 -0.47994292 1.2730818
1.0202975 -0.48054111 1.2793132
1.0735561 -0.47838938 1.2795936
1.1235156 -0.47860482 1.2683144
1.1816523 -0.4803369 1.2802781
1.2284282 -0.48064077 1.2819254
1.2760888 -0.4797574 1.2718292
1.3209782 -0.48208249 1.2750258
1.3668413 -0.48132965 1.2764974
1.4054358 -0.48008588 1.2914034
1.4505253 -0.47897354 1.294345
-0.78399259 -0.41696233 1.2513093
-0.25533271 -0.37279779 1.2610662
-0.24744889 -0.37035924 1.2537308
-0.76237106 -0.31827715 1.2545019
-0.72975266 -0.31876749 1.2574852
-0.67464644 -0.32506132 1.2577463
-0.62536222 -0.32589188 1.2538913
-0.56478965 -0.32865965 1.2535557
-0.53832078 -0.32966608 1.2516356
1.1143565 -0.1674528 1.2878168
1.0996096 -0.13493203 1.2574732
1.1010416 -0.14263509 1.2584195
-0.74122548 -0.089778058 1.2506901
-1.0589676 -0.010791339 1.2718916
-1.0244106 -0.010693491 1.2716588
-0.97578144 -0.010514617 1.2656357
-0.92405939 -0.010328537 1.2589144
-0.88270789 -0.0094905552 1.2536743
-0.84981883 -0.0066405954 1.2500858
-1.0668018 0.024113292 1.2865739
-1.0272927 0.021561816 1.2796448
-0.97713315 0.022040145 1.2714814
-0.92361736 0.023232177 1.2626942
-0.87347996 0.025003714 1.2558682
-0.82957 0.043487851 1.251264
-0.78142089 0.031600475 1.2507538
-0.22683151 0.024393164 1.2632363
-1.0629697 0.077017225 1.2854756
-1.0245875 0.075427629 1.2811366
-0.97379762 0.071536511 1.2728672
-0.92482275 0.074820831 1.2650419
-0.87667161 0.076930113 1.2594916
-0.82550091 0.077686481 1.2541536
-0.78699052 0.081252836 1.2512796
-0.22541369 0.063269638 1.2568432
-1.0645381 0.12475539 1.2876226
-1.0270575 0.12584989 1.2846212
-0.97643811 0.12398113 1.2753857
-0.92451066 0.12495626 1.2683088
-0.87345737 0.12670048 1.2620006
-0.82736385 0.1238322 1.2566999
-0.78000426 0.12287715 1.2511508
-0.74647379 0.11373814 1.2508171
-1.0592856 0.16492088 1.2926223
-1.022869 0.17206194 1.2872699
-0.97254038 0.17063053 1.2799922
-0.92352891 0.1699369 1.2711364
-0.87432647 0.16990533 1.2666392
-0.82324427 0.16913797 1.258845
-0.78472412 0.17851639 1.2555642
-0.7421118 0.19451126 1.2502235
-0.69653332 0.19965306 1.2569484
-0.85722119 -0.48317623 1.3188765
-0.8421998 -0.47590438 1.3144914
-0.75668806 -0.48478535 1.3302523
-0.72217196 -0.48809832 1.3258165
-0.6704973 -0.48908588 1.322988
-0.62408161 -0.49064982 1.3250759
-0.57293034 -0.4906626 1.3239502
-0.52555597 -0.49215275 1.324821
-0.47681299 -0.49127752 1.3254516
-0.42623821 -0.49044147 1.3234122
-0.37520283 -0.4905147 1.3221769
-0.32248467 -0.48981932 1.3234168
-0.28813925 -0.48566914 1.3276762
-0.22284317 -0.48887879 1.3248914
-0.17446318 -0.49019727 1.3244679
-0.1245216 -0.48772791 1.3257766
-0.074540436 -0.48633993 1.3212242
-0.02544418 -0.48600927 1.3253489
0.025734903 -0.48729247 1.3231628
0.075368322 -0.48632544 1.3229722
0.12580448 -0.4859775 1.3278893
0.17756234 -0.48612761 1.3238763
0.22355689 -0.48564515 1.3259212
0.27486011 -0.48341078 1.3243599
0.32556105 -0.48327351 1.324029
0.37816152 -0.48259997 1.3290006
0.42563951 -0.48238799 1.3238167
0.4775531 -0.48163122 1.3230078
0.52349108 -0.48143208 1.3260748
0.57420689 -0.48115918 1.31958
0.62527364 -0.48114786 1.3211941
0.67598331 -0.48166043 1.3276329
0.72353983 -0.47973001 1.3272151
0.77370209 -0.47902375 1.3262228
0.82551551 -0.47697413 1.3292896
0.8696748 -0.47679669 1.3277798
0.92715669 -0.48024881 1.3254527
0.97237825 -0.47950032 1.3304493
1.0213817 -0.48067144 1.3273265
1.0712589 -0.47664011 1.3250649
1.1198877 -0.47842455 1.3250028
1.1758149 -0.48059073 1.3221059
1.2234402 -0.47878718 1.326403
1.2728693 -0.48030195 1.3225363
1.3321108 -0.48091456 1.3267391
1.3774973 -0.48108006 1.3220105
1.4276851 -0.48132649 1.3370489
1.4585161 -0.48158675 1.3277187
-0.28974748 -0.37814322 1.3443022
1.0980356 -0.30935621 1.3498775
1.1088381 -0.30218768 1.3494388
1.0944542 -0.26688871 1.3171808
1.1098584 -0.26626962 1.3376976
1.0973055 -0.23266231 1.3160788
1.1164117 -0.22211403 1.3191447
1.1201509 -0.19440499 1.3116345
-1.093297 0.06166273 1.3046098
-1.0969416 0.10027672 1.3069496
-1.0864196 0.16965762 1.3100885
-0.97371173 0.19246088 1.300799
-0.77539647 -0.48684782 1.3763717
-0.72594959 -0.48651505 1.3700423
-0.67597741 -0.4882293 1.3752215
-0.62584507 -0.48859185 1.3766659
-0.57489163 -0.4892801 1.3718687
-0.52365547 -0.49005842 1.3760237
-0.47585022 -0.48971045 1.3717083
-0.42249849 -0.48878375 1.3735843
-0.37654847 -0.48862165 1.3722855
-0.32409525 -0.48828736 1.3701001
-0.28658533 -0.47296149 1.3743154
-0.22518733 -0.48852429 1.3753611
-0.17504407 -0.48915237 1.3726107
-0.12538256 -0.48743299 1.3736613
-0.073758923 -0.48613262 1.3756068
-0.023701582 -0.4854117 1.3723093
0.027302109 -0.48680666 1.3762957
0.077798173 -0.48745376 1.3757682
0.12436515 -0.48635849 1.376971
0.17270027 -0.4861196 1.3738904
0.22451113 -0.48549971 1.3757979
0.27459916 -0.48346293 1.372743
0.32569137 -0.48302078 1.3793713
0.37168977 -0.48309246 1.3772718
0.43232596 -0.48286086 1.3757182
0.47802693 -0.48257419 1.3718156
0.52718204 -0.48231816 1.37748
0.57540876 -0.48207512 1.3684703
0.62366325 -0.48231217 1.3702013
0.67397881 -0.48094383 1.3771112
0.72383165 -0.48075053 1.3675494
0.77500522 -0.47950834 1.3793671
0.80933785 -0.47744989 1.3653363
0.89161509 -0.47700098 1.3536832
0.92641884 -0.4782345 1.3628973
0.98012096 -0.47455955 1.363868
1.0287117 -0.47694871 1.3703984
1.0794009 -0.47461939 1.3693587
1.1202372 -0.47845507 1.3704753
1.1689956 -0.4804787 1.3754679
1.2226526 -0.48010281 1.3793198
1.2813141 -0.4819634 1.3689437
1.3184937 -0.47855321 1.3759254
1.3642795 -0.48006421 1.3777027
1.4171818 -0.48147091 1.3776424
1.4929695 -0.48685139 1.3519486
1.5266911 -0.48158693 1.3800176
-0.29771912 -0.40145326 1.3673275
1.0805233 -0.42048666 1.3842362
1.1029096 -0.41857103 1.3966115
-0.30893967 -0.38825908 1.3784775
-0.29122993 -0.39049971 1.3547777
1.0948527 -0.39513147 1.3913192
1.1019157 -0.38251808 1.3874108
1.0943968 -0.33449945 1.3558753
1.1042103 -0.32873157 1.3645191
1.1171899 -0.28738606 1.354869
-0.86097372 -0.48748651 1.4320121
-0.81934994 -0.48659569 1.4211684
-0.77858067 -0.48712131 1.4192905
-0.72361392 -0.48723495 1.4215974
-0.67542392 -0.48659891 1.4239577
-0.62458897 -0.48740482 1.4272213
-0.57323015 -0.48885617 1.4230673
-0.52388507 -0.48884603 1.4238311
-0.47116223 -0.48917452 1.4255886
-0.42288724 -0.48799995 1.4260027
-0.37299663 -0.48778111 1.4226483
-0.32556152 -0.48228699 1.4205809
-0.26751572 -0.47742823 1.4227405
-0.22834578 -0.48778409 1.419808
-0.17593004 -0.48970488 1.4253091
-0.12528609 -0.4873659 1.4218975
-0.077341683 -0.48585483 1.4281662
-0.027200287 -0.48610529 1.4231862
0.021744262 -0.48728436 1.4281083
0.072353728 -0.48721823 1.4241556
0.12492241 -0.48674577 1.42951
0.1749164 -0.48735771 1.4281301
0.22602211 -0.48421034 1.425505
0.27502555 -0.48457974 1.4250348
0.32083151 -0.48290431 1.4233302
0.37499374 -0.48409268 1.4228538
0.42437565 -0.48440796 1.4251171
0.47782931 -0.48363146 1.4242514
0.52005386 -0.4845731 1.4285151
0.57296389 -0.48353302 1.4187751
0.62940681 -0.48372671 1.4250077
0.67547464 -0.48185173 1.4239585
0.72988361 -0.48249248 1.421752
0.77336842 -0.48170683 1.4236054
0.81944549 -0.47885168 1.4342463
0.8625614 -0.47676086 1.4403774
1.1354994 -0.47685927 1.4188432
1.1716223 -0.4789654 1.4220625
1.2267933 -0.47926259 1.4173523
1.2782782 -0.48014399 1.4206088
1.3247713 -0.48094004 1.434848
1.3780452 -0.48143798 1.4239268
1.4161052 -0.48077014 1.4231838
1.4687957 -0.48805991 1.4355942
1.5191888 -0.48995885 1.4295149
1.0893606 -0.4279305 1.4089389
1.1318291 -0.38170493 1.4109951
-1.3282973 -0.011925946 1.424464
-1.3544861 0.029965512 1.4313494
-1.3372697 0.017465951 1.4395809
-1.3602766 0.076000638 1.441455
-1.3563858 0.12314329 1.4372576
-1.3470452 0.10636196 1.4340332
-1.3562158 0.17371304 1.4380318
-1.3550463 0.21933253 1.4482082
-1.3477248 0.21231 1.4244151
-0.90201527 -0.49063611 1.4822409
-0.87699699 -0.4904542 1.4709412
-0.82888281 -0.49140969 1.4752918
-0.77155054 -0.48902231 1.4777672
-0.72034675 -0.48826599 1.4782928
-0.6773985 -0.48829395 1.479122
-0.62111646 -0.48813093 1.4801625
-0.5745703 -0.48887926 1.4780194
-0.52414393 -0.48809746 1.4710907
-0.47694364 -0.48787549 1.4782571
-0.42829749 -0.4882572 1.4785194
-0.37580743 -0.48738804 1.4732397
-0.33365852 -0.48093313 1.475969
-0.26146474 -0.48717484 1.4806696
-0.22358717 -0.49051467 1.4694694
-0.16943552 -0.48978168 1.4779515
-0.12541564 -0.489034 1.4775347
-0.073237151 -0.48543945 1.4753118
-0.027743638 -0.4860796 1.4762697
0.022313224 -0.48651794 1.4765903
0.074604288 -0.4889971 1.4712614
0.12644181 -0.48816648 1.4801832
0.17604616 -0.48763129 1.4775913
0.21922761 -0.48530284 1.475155
0.2750383 -0.48406309 1.4739779
0.32523754 -0.48404929 1.4736413
0.37475848 -0.48405856 1.47376
0.41917846 -0.48452434 1.4793613
0.470485 -0.48605034 1.4794236
0.52847111 -0.48507041 1.4756509
0.57696974 -0.48522928 1.4695249
0.62507385 -0.48459905 1.4790695
0.67674011 -0.48519242 1.4720002
0.72317219 -0.4842672 1.4771762
0.77870065 -0.48445112 1.4797523
0.82143593 -0.48147219 1.4765362
0.87664741 -0.47987863 1.4822574
0.91969013 -0.47809333 1.4725423
0.97576493 -0.48147202 1.486691
1.018057 -0.47824308 1.4803919
1.0842918 -0.47682095 1.4752772
1.1760933 -0.47534251 1.4605415
1.2226726 -0.4812541 1.4757714
1.276086 -0.47798347 1.4752192
1.3201028 -0.47946224 1.4602368
1.3723657 -0.48239243 1.4853978
1.4161041 -0.48306879 1.4749774
1.4770463 -0.48606694 1.4731553
1.5190166 -0.48645446 1.477398
1.5732285 -0.49003217 1.4694409
-0.31429592 -0.44009081 1.4645301
-1.3114171 -0.01268599 1.4564916
-1.3164359 0.025056699 1.4582446
-1.3524202 0.062913649 1.4587011
-1.3228048 0.073007002 1.4624306
-1.3233572 0.12468094 1.4650583
-1.3260558 0.173783 1.4637208
-1.3284527 0.2221906 1.4692299
-1.3344458 0.27512598 1.4768262
-1.3373568 0.3258034 1.4755611
-0.92845035 -0.49013329 1.5199252
-0.87419605 -0.49215734 1.5197285
-0.82761836 -0.4889726 1.5235124
-0.77553678 -0.48875618 1.5232176
-0.72394443 -0.48714602 1.5255219
-0.67618549 -0.48834449 1.5212224
-0.62495011 -0.48768237 1.5273585
-0.57591701 -0.48851019 1.5275235
-0.52918804 -0.48932549 1.5287699
-0.47381115 -0.48820725 1.526181
-0.4244132 -0.48799303 1.5297377
-0.37348914 -0.48642215 1.5260671
-0.3387205 -0.48344573 1.5193206
-0.2652778 -0.48777178 1.5216444
-0.22078651 -0.4926376 1.5225629
-0.1770886 -0.49097502 1.5235825
-0.12595712 -0.48860988 1.5218993
-0.074320555 -0.48692635 1.5256256
-0.024464361 -0.48696408 1.5301845
0.024422087 -0.4886665 1.5222393
0.077789657 -0.48958379 1.5171018
0.12368726 -0.48698437 1.5168989
0.17462787 -0.4891842 1.5296326
0.22525032 -0.48740309 1.5240098
0.27458093 -0.48653144 1.5302284
0.32566306 -0.48434168 1.5242138
0.37197301 -0.48554295 1.5286331
0.42774126 -0.48572335 1.5316573
0.47704419 -0.48503596 1.5176631
0.527156 -0.48542431 1.5222541
0.57361031 -0.48453033 1.524389
0.62267625 -0.48562491 1.5296408
0.68020868 -0.48572674 1.5228277
0.72365469 -0.48357823 1.5237504
0.77396518 -0.48228443 1.5250037
0.83248025 -0.48172638 1.5250095
0.87505752 -0.48190823 1.5292283
0.92287123 -0.47974005 1.520124
0.97455281 -0.47952738 1.5227906
1.0223966 -0.47975031 1.5230749
1.0752831 -0.47977674 1.5206289
1.1194865 -0.47982401 1.5209997
1.1811386 -0.46878859 1.5203342
1.2276769 -0.4756771 1.5199614
1.2683836 -0.47835079 1.5346105
1.3179789 -0.47954285 1.5120404
1.3773874 -0.48359093 1.5300443
1.4260806 -0.48340723 1.5012438
1.4593854 -0.48603413 1.5259556
1.5201287 -0.48882946 1.5097338
1.5669032 -0.48746923 1.5214957
-1.3456194 0.23731236 1.5039035
-0.226364 -0.50389141 1.5884411
-0.96810704 -0.49206284 1.5765208
-0.92263693 -0.49396437 1.5715588
-0.87697095 -0.49254641 1.576172
-0.82395226 -0.49056461 1.5710067
-0.77195227 -0.48972049 1.5740247
-0.72187513 -0.48847952 1.5791399
-0.67390656 -0.4885214 1.5785193
-0.62424016 -0.48704368 1.5752226
-0.57252806 -0.48818502 1.5718707
-0.52130312 -0.48765692 1.5674025
-0.47407809 -0.48901722 1.5725162
-0.42032677 -0.48804259 1.5785003
-0.37515563 -0.48719567 1.5834254
-0.34821597 -0.48239055 1.5575092
-0.26902306 -0.49001217 1.5690359
-0.22277953 -0.49637476 1.5781004
-0.17584771 -0.49444455 1.5771772
-0.12060071 -0.491487 1.5788856
-0.076389641 -0.48766911 1.5776712
-0.025586015 -0.48847216 1.5789738
0.02511524 -0.49030262 1.5691559
0.073704012 -0.49067077 1.5705498
0.12407672 -0.4910948 1.5761722
0.18023601 -0.49016747 1.5752416
0.2272204 -0.48740241 1.5733224
0.2779797 -0.48728362 1.5765454
0.31977028 -0.48318005 1.570833
0.3778564 -0.48460814 1.5672621
0.42718369 -0.48761383 1.5819576
0.47425798 -0.48659429 1.5721173
0.52373689 -0.48590317 1.5721412
0.57513237 -0.48784953 1.5806458
0.62732649 -0.48523411 1.5740824
0.67628968 -0.48880395 1.5820761
0.72904623 -0.48548502 1.5695941
0.76581049 -0.48163369 1.5769162
0.82512188 -0.48085609 1.5728623
0.87389845 -0.4810918 1.5721133
0.92323828 -0.47957453 1.5706307
0.97211492 -0.48085317 1.5773163
1.0188169 -0.48377615 1.5817945
1.0834392 -0.48299333 1.5738705
1.1282288 -0.48084256 1.5727472
1.164431 -0.47622889 1.5744259
1.2865547 -0.47931916 1.5836389
1.3247871 -0.48291546 1.5757649
1.374281 -0.48367652 1.5742553
1.4388766 -0.48630422 1.5627786
1.4887551 -0.48810747 1.5913035
1.5249296 -0.48791537 1.5603396
1.5730183 -0.48874795 1.5868564
-0.98610568 -0.50059652 1.6291964
-0.2383385 -0.5028879 1.6322904
-1.0013433 -0.49254143 1.627923
-0.97375178 -0.49657252 1.6313186
-0.92264342 -0.49432981 1.619009
-0.87374467 -0.49183071 1.6210595
-0.82786942 -0.49029422 1.6226869
-0.77935451 -0.49057075 1.6303421
-0.72620785 -0.48761192 1.6212559
-0.67996299 -0.48686537 1.6145159
-0.62741864 -0.48808694 1.6258205
-0.57330954 -0.48830223 1.6215709
-0.5231685 -0.48985976 1.6246976
-0.47308809 -0.4876723 1.6248344
-0.4275552 -0.48971188 1.6269259
-0.37957016 -0.48316425 1.6223692
-0.27414253 -0.49228093 1.62105
-0.21147037 -0.49748275 1.63106
-0.17191444 -0.4937939 1.6262509
-0.13099422 -0.4911882 1.6214635
-0.072446853 -0.48922369 1.623647
-0.025437852 -0.48918283 1.6243993
0.024106313 -0.4905411 1.6232213
0.076449707 -0.49036095 1.622601
0.12557058 -0.48989952 1.6254406
0.17205261 -0.49113569 1.6215245
0.21979253 -0.48953283 1.6251794
0.27246466 -0.48831761 1.6301204
0.32789943 -0.48792058 1.6305335
0.37334728 -0.48849833 1.6250908
0.42371356 -0.48612717 1.6277059
0.47602552 -0.48565069 1.6168549
0.52901256 -0.48619947 1.6274433
0.57748699 -0.48565689 1.6236408
0.62703562 -0.48593393 1.6230136
0.6758247 -0.48544133 1.6263739
0.72868371 -0.48671311 1.6219841
0.77935737 -0.48313594 1.6207327
0.82388812 -0.4824115 1.6232121
0.87121493 -0.48034778 1.6194657
0.92025793 -0.48059353 1.6142634
0.97812212 -0.47656313 1.6205888
1.0257449 -0.481139 1.6181113
1.0756159 -0.47854668 1.6251938
1.1219759 -0.48027772 1.6234986
1.1705655 -0.48173213 1.619933
1.2221553 -0.48181191 1.6372397
1.3347763 -0.48397344 1.6268282
1.3675718 -0.48526898 1.610745
1.4403484 -0.49194947 1.6213517
1.454107 -0.48992926 1.628673
1.5370485 -0.49034736 1.6263264
1.5762037 -0.48745966 1.6410179
-1.0399753 -0.50224018 1.6928811
-0.96165067 -0.50148702 1.6836828
-0.92840248 -0.50086445 1.6559448
-0.2538158 -0.50348556 1.6687584
-0.22818568 -0.50287843 1.6840553
-1.0210528 -0.49284855 1.6891565
-0.9874537 -0.49799141 1.6677818
-0.92705387 -0.49721497 1.6805077
-0.87129653 -0.49478692 1.6830823
-0.82749814 -0.49130201 1.6737696
-0.77388495 -0.4909111 1.6744456
-0.72476649 -0.49156114 1.6770078
-0.6816346 -0.48997575 1.6774918
-0.62407309 -0.48814827 1.6686461
-0.5731982 -0.48768449 1.6711445
-0.52340472 -0.48693764 1.6750464
-0.47330245 -0.48907325 1.6783094
-0.42749912 -0.48617899 1.6804695
-0.39702156 -0.48633552 1.6662626
-0.30642402 -0.48772144 1.6841784
-0.27719858 -0.49305817 1.674165
-0.17665112 -0.49498785 1.6790982
-0.12238702 -0.49561119 1.6742783
-0.075958401 -0.49061683 1.673924
-0.030053809 -0.49027339 1.6782014
0.02598449 -0.48986322 1.6768566
0.073391721 -0.49214208 1.6751312
0.12363408 -0.48961702 1.6730471
0.17621469 -0.49150276 1.6780297
0.22689375 -0.49169427 1.677313
0.27236187 -0.49046031 1.6822305
0.32869667 -0.48907742 1.673211
0.37218454 -0.48819876 1.6768266
0.42518783 -0.48788866 1.6749405
0.47914279 -0.48739728 1.6766208
0.52361709 -0.48744836 1.6760628
0.57696462 -0.48915046 1.6824474
0.62206578 -0.48769385 1.663929
0.68259257 -0.48691821 1.6742907
0.71793824 -0.4886159 1.6835346
0.77106792 -0.48833895 1.6800315
0.81789619 -0.48481843 1.671909
0.88091993 -0.48394328 1.6832902
0.92191994 -0.48115453 1.6792666
0.97305691 -0.48051533 1.681502
1.0814078 -0.48756972 1.6950626
1.1251882 -0.48265889 1.6802753
1.1806133 -0.4851841 1.677989
1.2253367 -0.48456976 1.6738065
1.2749351 -0.48463434 1.6823274
1.3753793 -0.4851732 1.6597044
1.4361906 -0.48404175 1.6677815
1.4786637 -0.48628867 1.6793776
1.5017054 -0.49223021 1.6651796
-1.0517868 -0.5030424 1.7341938
-1.0262368 -0.50228041 1.7209034
-0.97772229 -0.50135648 1.7171209
-0.92637968 -0.50126433 1.7380122
-0.26189059 -0.50247145 1.7252617
-0.23655176 -0.50495285 1.7286372
-0.192807 -0.50003928 1.7229313
-1.0352072 -0.49616289 1.7222493
-0.9691273 -0.49752045 1.7212477
-0.92005515 -0.49784768 1.7260795
-0.87554044 -0.49437475 1.7207954
-0.8209123 -0.49159998 1.7258666
-0.77743155 -0.48995447 1.7234346
-0.72686237 -0.48564255 1.7334274
-0.6744076 -0.48683438 1.7307316
-0.62647092 -0.48397648 1.7215266
-0.57427251 -0.48464784 1.7244253
-0.52367634 -0.48328009 1.7199284
-0.47573695 -0.48445183 1.712041
-0.44091085 -0.47705251 1.7057723
-0.306012 -0.48617747 1.7156044
-0.28874731 -0.48980007 1.72211
-0.20842516 -0.49752229 1.7255256
-0.17913185 -0.49534941 1.7285212
-0.12678751 -0.49413764 1.7206589
-0.078162 -0.49327692 1.7241256
-0.025379425 -0.48925042 1.7288342
0.01835094 -0.49090022 1.7323021
0.072352752 -0.493496 1.7250931
0.12721878 -0.49391049 1.7290797
0.17454283 -0.49061719 1.7180413
0.22505808 -0.49031469 1.7255132
0.27444723 -0.4896163 1.7247252
0.32068047 -0.48906571 1.7242303
0.38098297 -0.49017757 1.7242714
0.42842793 -0.48883113 1.7230339
0.46346545 -0.48702899 1.7256069
0.53189528 -0.48841584 1.7179283
0.58142477 -0.48832354 1.7238255
0.62706465 -0.48741531 1.7206906
0.67498815 -0.48575279 1.7210695
0.72635025 -0.48879766 1.7264936
0.77162528 -0.4867557 1.7250648
0.82725817 -0.48388866 1.7199155
0.8713119 -0.48478398 1.7170739
0.9292419 -0.48474121 1.7287846
0.97343159 -0.48525515 1.73403
1.0218838 -0.48484099 1.7220979
1.0690005 -0.48499289 1.7216798
1.1266102 -0.48381695 1.724359
1.1795985 -0.4820683 1.7121998
1.2149906 -0.48852965 1.7242889
1.2742143 -0.4882988 1.7407207
1.3126926 -0.48456359 1.7254276
1.4471376 -0.48439485 1.7218299
1.5779608 -0.48894101 1.7147092
-1.4269378 0.26597109 1.7449017
-1.4979621 1.2458876 1.7419783
-1.0737127 -0.50358492 1.7867575
-1.0222389 -0.5040161 1.7665333
-0.96614444 -0.50054026 1.7607379
-0.26579556 -0.5047363 1.7695463
-0.22463594 -0.50383824 1.7842041
-0.16602111 -0.50152421 1.772494
-0.13817015 -0.50010252 1.7908461
-1.0692914 -0.49916506 1.7765939
-1.0074708 -0.49986526 1.7841759
-0.9790017 -0.49762759 1.786153
-0.92508435 -0.49543333 1.7741573
-0.87082988 -0.49123743 1.7734729
-0.82528424 -0.48767367 1.7725677
-0.77285892 -0.48558846 1.7608439
-0.72917336 -0.47843957 1.7512947
-0.31395832 -0.49181736 1.7793169
-0.28726766 -0.49337935 1.7796968
-0.21628684 -0.49811992 1.7785122
-0.17261384 -0.49700335 1.7667899
-0.12136928 -0.49583873 1.7762949
-0.073348455 -0.49056894 1.775664
-0.023965297 -0.49042276 1.7815012
0.029476279 -0.48968139 1.775643
0.075880073 -0.48957083 1.7719487
0.12801851 -0.49224839 1.7713854
0.17740694 -0.48986796 1.7663448
0.22680941 -0.49115351 1.7766774
0.27859432 -0.49137709 1.7768685
0.3285087 -0.48780695 1.7684573
0.37638265 -0.48933953 1.7757775
0.42612228 -0.48934346 1.7740898
0.47684845 -0.49022272 1.7718453
0.52198738 -0.49044213 1.7656372
0.57519597 -0.48890352 1.7787843
0.62419933 -0.48809764 1.7743109
0.67310065 -0.48671106 1.7733154
0.72768712 -0.4857074 1.7719116
0.77825326 -0.48437461 1.7849118
0.81754148 -0.48622194 1.7788944
0.88215095 -0.4832066 1.7680812
0.92004889 -0.48201981 1.7673486
0.97479248 -0.48355111 1.7772546
1.0222977 -0.48662907 1.7726589
1.079672 -0.48643604 1.7832104
1.1253239 -0.48753801 1.7789221
1.1925393 -0.48964053 1.7927992
1.2257683 -0.49092332 1.7814004
1.2717472 -0.48639664 1.7682877
1.3090717 -0.48570228 1.7608832
-1.5174869 0.28441742 1.7883868
-1.4726775 0.28129226 1.7836567
-1.4067119 0.28850168 1.7757099
-1.3919935 0.28007182 1.7710624
-1.3469343 0.27645621 1.7981409
-1.5229936 0.32766321 1.782504
-1.4717767 0.3243297 1.7955763
-1.4214032 0.31808123 1.7954583
-1.5190305 0.3722463 1.7837753
-1.466482 0.37307581 1.7917286
-1.4211586 0.39308017 1.7982624
-1.5290601 0.42751297 1.787533
-1.4158552 0.41247666 1.7876556
-1.52534 0.47409734 1.789742
-1.4817126 0.47581899 1.7976067
-1.5278111 0.53085881 1.7913746
-1.5264877 0.56025964 1.7913189
-1.5343736 0.73056298 1.7933637
-1.5354432 0.77062994 1.7934426
-1.5514523 0.8454591 1.7961853
-1.543528 0.81872374 1.7960473
-1.5521506 0.89744437 1.7994227
-1.5462373 0.8693096 1.7950712
-1.5511996 0.9195984 1.7882472
-1.5484865 0.90665776 1.7901874
-1.5514044 0.97223043 1.7891085
-1.5466462 0.97858781 1.7917306
-1.5569692 1.0234331 1.7978317
-1.5536964 1.08121 1.7893443
-1.5503395 1.1658942 1.791528
-1.5620891 1.2375276 1.7963947
-1.5559863 1.2781787 1.7902241
-1.5239817 1.2793804 1.7648053
-1.5344527 1.3051658 1.7807407
-1.5550636 1.3997452 1.7996289
-1.5161493 1.3587185 1.7585328
-1.530259 1.4249125 1.7692297
-1.5583382 1.4634696 1.7931409
-1.0676138 -0.50417316 1.8138441
-1.042065 -0.50480628 1.8141108
-0.96023297 -0.50033426 1.8055983
-0.25877675 -0.51010567 1.8294721
-0.24547823 -0.50898153 1.832324
-1.1110035 -0.49493042 1.8249103
-1.0940899 -0.49633107 1.8392006
-1.0146375 -0.49363634 1.8138666
-0.97656345 -0.49409303 1.8161104
-0.9345358 -0.48985428 1.8136952
-0.88403189 -0.4927642 1.801501
-0.31600156 -0.48915881 1.8261065
-0.28511858 -0.49816716 1.8235388
-0.21328777 -0.49645865 1.8179353
-0.16948633 -0.49633363 1.8219349
-0.12852624 -0.49635252 1.8228315
-0.072158687 -0.49245778 1.827744
-0.023106499 -0.48860639 1.820101
0.020000793 -0.48962906 1.8200957
0.073803917 -0.4914864 1.8298533
0.12181532 -0.49004522 1.8229402
0.17079741 -0.49049911 1.82784
0.22174585 -0.48865959 1.8213844
0.27844873 -0.49108717 1.8210901
0.32126728 -0.49123162 1.8262361
0.37203366 -0.48909146 1.8231424
0.42469257 -0.49226508 1.8262106
0.47751296 -0.48872635 1.8280746
0.52389759 -0.49064526 1.8221315
0.57368195 -0.4910835 1.8357662
0.62457365 -0.48615247 1.8264681
0.67764032 -0.48631164 1.8178231
0.72081012 -0.48657897 1.8205174
0.76740593 -0.48792911 1.8194168
0.83954716 -0.48892555 1.8006536
0.86311418 -0.49162641 1.8041122
1.0266007 -0.48584533 1.8041191
1.0768729 -0.48668805 1.817922
1.1176945 -0.48497143 1.8239583
1.1778204 -0.48995033 1.8277979
1.2191041 -0.48727083 1.8194077
1.2578582 -0.48946738 1.8098216
1.3117304 -0.49435464 1.8044829
2.0751731 -0.24707942 1.849386
-1.5049164 0.29885638 1.8068845
-1.4105442 0.29574844 1.8406211
-1.3926271 0.29346594 1.8307499
-1.2801152 0.28768075 1.8446269
-1.5114321 0.32944077 1.8042011
-1.4934545 0.31354982 1.8008997
-1.41172 0.32623371 1.8320547
-1.390637 0.32373646 1.8478383
-1.5096581 0.37522712 1.8050495
-1.4880046 0.37323901 1.8050666
-1.4138852 0.37383938 1.8260708
-1.3935263 0.375956 1.8472269
-1.5183461 0.42593285 1.8071057
-1.4858112 0.4214659 1.8052377
-1.4154108 0.42811656 1.8321935
-1.3984364 0.41443607 1.847247
-1.5073119 0.4695718 1.8044308
-1.4856544 0.47704181 1.8024578
-1.4185938 0.47551423 1.8289288
-1.3938687 0.48554105 1.8480302
-1.5208313 0.51928741 1.807601
-1.4964561 0.5236696 1.8053931
-1.418359 0.5252257 1.8299299
-1.3962651 0.52210343 1.8485498
-1.5178022 0.56537408 1.8005996
-1.4759141 0.56932974 1.8207459
-1.4264619 0.57699841 1.8437439
-1.3944128 0.57548708 1.8492699
-1.4214441 0.62326622 1.8415257
-1.4182203 0.66997921 1.8419656
-1.520082 0.72894144 1.8053278
-1.4242642 0.72227937 1.8379145
-1.3962084 0.74375081 1.8472494
-1.5191122 0.77723742 1.8066889
-1.4235229 0.77707446 1.8412509
-1.5292569 0.82568133 1.8092072
-1.4192377 0.820319 1.8386997
-1.5326958 0.87740499 1.8110323
-1.4351457 0.87048501 1.8432223
-1.5565323 0.94101757 1.8110694
-1.5375719 0.92391962 1.8122468
-1.4359914 0.91115576 1.8441943
-1.5529587 0.95030594 1.8016578
-1.5408012 0.97377694 1.8151067
-1.4371356 0.97012675 1.84536
-1.5565878 1.048275 1.8108376
-1.5398644 1.0254815 1.816637
-1.4456065 1.0468636 1.8488185
-1.5547543 1.0776134 1.8105168
-1.5288992 1.0684799 1.81099
-1.4353757 1.0708053 1.8467543
-1.5554715 1.125553 1.8129448
-1.5423536 1.1333371 1.8245144
-1.4381404 1.1061424 1.8467793
-1.5648952 1.176934 1.8082507
-1.5418426 1.1728457 1.8155441
-1.4387335 1.1697427 1.8459424
-1.5591304 1.2204794 1.8187796
-1.5418086 1.2344108 1.8221325
-1.5617137 1.2587985 1.81161
-1.5384823 1.2668999 1.8065656
-1.4412035 1.2899156 1.8480693
-1.5496384 1.3353753 1.8021621
-1.4455591 1.3057988 1.846256
-1.5565718 1.3711376 1.8059583
-1.5430481 1.3523583 1.8098172
-1.4402025 1.3835515 1.8482093
-1.4393541 1.4311812 1.8466356
-1.5594183 1.4791572 1.8238599
-1.5487201 1.4904367 1.8204406
-1.5619669 1.5264782 1.8142452
-1.548551 1.5276639 1.8263876
-1.570464 1.5749166 1.8172731
-1.5428391 1.5725874 1.8163296
-1.5663571 1.6201581 1.8211638
-1.4415989 1.6233569 1.8488622
-1.0728698 -0.50223839 1.8598733
-0.27638179 -0.50678486 1.868374
-0.23516367 -0.5022732 1.8611466
-0.18775274 -0.50291282 1.8792464
-0.31162032 -0.49241889 1.8771797
-0.2189379 -0.49782771 1.8819587
-0.17383863 -0.4971849 1.8754218
-0.11508605 -0.4954482 1.873168
-0.075470075 -0.49392971 1.874696
-0.023247678 -0.49054569 1.8699744
0.025737096 -0.48935202 1.8743
0.073438093 -0.48996031 1.8758973
0.1225698 -0.48863551 1.8736922
0.17689177 -0.48870373 1.8794973
0.23128965 -0.48939022 1.8691976
0.27592042 -0.49189758 1.8728101
0.32465157 -0.4944455 1.881163
0.3714672 -0.49396491 1.874385
0.42142463 -0.4932034 1.8721048
0.46589756 -0.49132854 1.8638215
0.53202039 -0.49046826 1.8744335
0.57071489 -0.48851851 1.8651985
0.61547136 -0.48719969 1.870139
0.67652881 -0.48598638 1.8695438
0.72270554 -0.48319912 1.8539194
1.1700827 -0.49123856 1.8639889
1.2297033 -0.49045581 1.8846281
1.2990957 -0.4909856 1.8505082
2.1118631 -0.30194256 1.8757689
2.0413632 -0.27397922 1.8815917
2.0676603 -0.27927902 1.8592521
2.0412927 -0.23096797 1.8797847
2.0627346 -0.22641271 1.8634949
2.0375247 -0.17494203 1.8867276
2.0518453 -0.1852407 1.8806324
2.0402281 -0.13233986 1.8910599
2.0550299 -0.14201187 1.8867781
2.0356855 -0.029897999 1.8846935
2.0408208 0.015454516 1.8933778
2.0540981 0.032068893 1.8900263
2.0403402 0.075291276 1.8877335
2.0507164 0.05063656 1.8865354
2.0426962 0.12498709 1.8874919
2.0381522 0.1771972 1.8911482
2.0560014 0.1814288 1.8841604
0.91709936 0.22397955 1.8849404
2.0605488 0.2005292 1.8866549
-1.3661535 0.29410729 1.8528516
-1.3327695 0.29251146 1.8580364
-1.2719197 0.29447693 1.8628955
-1.2325521 0.29882929 1.8761969
-1.1876422 0.29406455 1.8590357
-1.3658748 0.32678837 1.8583732
-1.3252141 0.32698354 1.8683889
-1.2739069 0.32271537 1.8736746
-1.2219673 0.32661089 1.8858545
-1.1954291 0.30750054 1.880497
-1.3711725 0.37560821 1.8583279
-1.3260908 0.375099 1.8698709
-1.2739064 0.37553138 1.8755287
-1.2254926 0.37345016 1.8867995
-1.3721036 0.42631793 1.8577641
-1.3279507 0.42285818 1.869444
-1.274586 0.42550144 1.8763707
-1.2230523 0.42550224 1.8889865
-1.3720063 0.47210386 1.8567812
-1.3238171 0.47524127 1.8694992
-1.2733208 0.47378549 1.8769642
-1.2247323 0.47564411 1.8895632
-1.3706124 0.52442211 1.8584387
-1.3265488 0.52447283 1.8692558
-1.2740358 0.52537966 1.8786716
-1.2259426 0.52497399 1.8901827
-1.3698363 0.57416707 1.8582096
-1.3238057 0.57393467 1.869819
-1.2750363 0.57483608 1.8786134
-1.2245383 0.57448405 1.8901089
-1.4013379 0.60533488 1.8513516
-1.3725208 0.62630814 1.8574327
-1.3259797 0.62460709 1.869933
-1.2734543 0.62359411 1.8805134
-1.2277774 0.62311465 1.8893621
-1.4149457 0.67668486 1.8503932
-1.3759822 0.67565513 1.8559203
-1.3266467 0.67270601 1.869778
-1.2752154 0.67530155 1.8820126
-1.2273471 0.67667633 1.8911541
-1.4151332 0.72736293 1.8517637
-1.3744719 0.72596866 1.8609563
-1.3229611 0.72194082 1.8742049
-1.2747941 0.72816765 1.8841786
-1.2295234 0.7237094 1.8928195
-1.4068184 0.77697337 1.8516917
-1.3749019 0.77447015 1.8629513
-1.3237191 0.77689779 1.8736072
-1.27492 0.77588809 1.8840697
-1.2298483 0.76800752 1.8941892
-1.4121019 0.82737702 1.8531715
-1.3744392 0.82514071 1.8656323
-1.3232708 0.82783955 1.8751467
-1.2743566 0.82331502 1.884542
-1.2330432 0.82102627 1.8954121
-1.4140027 0.87815958 1.8519442
-1.3763565 0.87370372 1.8647565
-1.3241842 0.87443829 1.876579
-1.2754966 0.87247288 1.8865641
-1.2372525 0.87825543 1.8946075
-1.418113 0.92505538 1.8552631
-1.3740959 0.92554539 1.8683283
-1.3254552 0.92204678 1.8790526
-1.2739935 0.92356688 1.8866793
-1.2361318 0.92556667 1.8955665
-1.4204597 0.97181141 1.8549353
-1.376377 0.97710359 1.8685801
-1.3272347 0.97245842 1.8805699
-1.2728249 0.97538233 1.8890177
-1.2373035 0.97140896 1.8956972
-1.4237074 1.0241967 1.8568865
-1.376438 1.0261294 1.8716382
-1.3243016 1.0225457 1.883063
-1.2724705 1.0270096 1.8900057
-1.2412418 1.0192996 1.8962851
-1.4189872 1.0781955 1.8559246
-1.3772092 1.0721452 1.8718498
-1.3243008 1.0762312 1.8830886
-1.2776163 1.0734974 1.8915257
-1.240471 1.0730039 1.8975996
-1.4230045 1.1309041 1.8583761
-1.3736663 1.1221949 1.8738664
-1.3261969 1.1249716 1.8852241
-1.2751979 1.1241333 1.8946416
-1.4171792 1.177318 1.8597523
-1.3768393 1.1716323 1.8755152
-1.3201922 1.1725682 1.8855385
-1.274446 1.1806331 1.8970252
-1.2494441 1.1840435 1.897873
-1.4519354 1.2073318 1.8573369
-1.4211817 1.2282614 1.8581831
-1.3764936 1.2220838 1.8765146
-1.3264028 1.2274711 1.8891025
-1.2742233 1.2236655 1.8963699
-1.4561163 1.2566552 1.8653084
-1.4206613 1.2738277 1.8599668
-1.3761777 1.2732797 1.8769506
-1.3292851 1.2753092 1.8891969
-1.2895526 1.2714785 1.8960092
-1.2443756 1.271315 1.8998291
-1.4206119 1.3264829 1.8603822
-1.3753761 1.3273633 1.8784003
-1.321883 1.3235059 1.8928803
-1.2843764 1.3308009 1.8983768
-1.4534786 1.3603562 1.8571579
-1.4212948 1.376783 1.863452
-1.3763908 1.3766785 1.8798048
-1.3262938 1.377129 1.8917953
-1.2913891 1.3709017 1.8969966
-1.4536105 1.4086883 1.8573179
-1.4220589 1.4272227 1.8621789
-1.373803 1.4265237 1.8808632
-1.3232354 1.4268126 1.8923247
-1.2878454 1.4244112 1.8990961
-1.4246283 1.4796603 1.8617193
-1.3741285 1.476575 1.8810192
-1.3258573 1.4751132 1.8931766
-1.2944796 1.475098 1.8969254
-1.4264473 1.5233395 1.8632207
-1.3764422 1.5257012 1.8788801
-1.3282812 1.5251831 1.8897393
-1.2866079 1.5240208 1.8977275
-1.4247153 1.571328 1.8632524
-1.3752348 1.57521 1.8827609
-1.3285204 1.5729619 1.8922173
-1.2914975 1.5681274 1.8956569
-1.4214045 1.6244248 1.8639706
-1.3787923 1.6189996 1.8823223
-1.3291042 1.6262033 1.8948226
-1.450047 1.6859792 1.8553681
-1.4214268 1.6745484 1.8639549
-1.3768418 1.6706997 1.8804632
-1.3229892 1.6757302 1.8919508
-1.4244668 1.7202131 1.86242
-1.371276 1.7269784 1.8835509
-1.3282967 1.7251097 1.8946329
-1.2978635 1.7103155 1.8984824
-1.424718 1.7743219 1.862421
-1.378055 1.7745517 1.8819705
-1.320262 1.7738391 1.8927063
-1.4515712 1.8265748 1.8610185
-1.4294205 1.8108431 1.8612932
-1.3763205 1.8058243 1.8767408
-1.3415809 1.8030478 1.8938246
-0.30226126 -0.50454372 1.938097
-0.27632865 -0.51138216 1.9288185
-0.23622596 -0.5024156 1.9232793
-0.14660384 -0.50270241 1.9052193
-0.31997275 -0.4960295 1.9288255
-0.21890637 -0.49658883 1.924273
-0.18072015 -0.49764919 1.9213963
-0.12157976 -0.49564695 1.9166902
-0.075878188 -0.49439374 1.9262124
-0.028116908 -0.49280038 1.9272799
0.03799551 -0.49126738 1.9248993
0.074550979 -0.49309337 1.9339256
0.12774399 -0.49039391 1.9278574
0.16949184 -0.49037638 1.9192519
0.22197525 -0.49147958 1.9273728
0.27565387 -0.48984715 1.9217839
0.32426339 -0.49622744 1.9253992
0.37167072 -0.49230653 1.9207585
0.42238703 -0.49617133 1.92919
0.47452471 -0.49375275 1.9228071
0.52016342 -0.49369711 1.923044
0.57799476 -0.49526453 1.9390556
0.62432313 -0.48862073 1.9225451
0.65967083 -0.49035579 1.9109762
1.999859 -0.27362987 1.9389113
2.0179098 -0.2790668 1.917763
1.9979944 -0.21728179 1.9431943
2.0194857 -0.23151842 1.9224408
1.9986541 -0.19241266 1.9460881
2.0193443 -0.17952414 1.92039
2.0237706 -0.13625196 1.9277049
2.0175462 -0.067678772 1.9364595
2.0194623 -0.030726589 1.9252586
2.0224385 0.017118927 1.9256279
2.028816 0.067367963 1.9197621
2.0290327 0.12443297 1.9236053
2.0242927 0.17161648 1.9151779
0.94174254 0.21769977 1.9126301
0.99061525 0.21868634 1.9047906
-1.2048695 0.32564169 1.9194555
-1.2076896 0.37717801 1.9207242
-1.2136011 0.42338282 1.9369475
-1.2080277 0.47656456 1.9218973
-1.2106574 0.51994151 1.9268423
-1.2074941 0.57620102 1.9226989
-1.2068396 0.62575573 1.9142491
-1.1991631 0.62789029 1.915226
-1.2066778 0.67481971 1.9210377
-1.2094162 0.72505754 1.9193518
-1.2084005 0.77532351 1.9189616
-1.2111502 0.82172984 1.9197289
-1.2155699 0.87310004 1.9171243
-1.2133131 0.92439497 1.9170886
-1.2159084 0.96952093 1.9113855
-1.218251 1.0241785 1.91627
-1.2182714 1.0765957 1.9182979
-1.2513428 1.129405 1.9007534
-1.2283174 1.1281979 1.9158849
-1.2761183 1.1644387 1.9024975
-1.229974 1.1768799 1.9129628
-1.2537886 1.2457612 1.9031495
-1.2308412 1.22918 1.9147559
-1.3285295 1.2966166 1.9027129
-1.2670813 1.2825226 1.9045495
-1.2307637 1.2739053 1.9164578
-1.263535 1.3203969 1.9036627
-1.2356621 1.3208429 1.9188185
-1.2692732 1.3760903 1.9060483
-1.2375269 1.3711668 1.926136
-1.3003455 1.4128195 1.9004436
-1.2706751 1.424544 1.9059258
-1.2376064 1.4221456 1.9238621
-1.2698052 1.472358 1.9065762
-1.2406698 1.4738899 1.9260688
-1.3079826 1.5175225 1.9039038
-1.2678721 1.5251248 1.9070289
-1.2401659 1.5187753 1.9217207
-1.3197056 1.5733964 1.9028387
-1.2681088 1.5760465 1.9078028
-1.2397007 1.5678648 1.925347
-1.3118613 1.624384 1.9022914
-1.2749357 1.6275243 1.9093732
-1.2419877 1.624227 1.928061
-1.2772063 1.6753916 1.908759
-1.240337 1.6716682 1.9307859
-1.2715061 1.7277253 1.9109374
-1.2465445 1.7243204 1.9299959
-1.3130587 1.7561896 1.9002845
-1.2786795 1.773703 1.9084741
-1.2470788 1.7669784 1.9250945
-1.2506406 1.8035971 1.9476219
-0.30792782 -0.50438052 1.9763972
-0.27397636 -0.51403171 1.9780357
-0.23159398 -0.50186485 1.9733404
-0.16190673 -0.50268143 1.9812183
-0.13920993 -0.50539929 1.9799925
0.27220467 -0.50089812 1.9660931
0.38071525 -0.5009172 1.9950104
0.5335992 -0.50148386 1.973483
-0.32743895 -0.4948481 1.9766184
-0.2512033 -0.49753249 1.9949496
-0.22450627 -0.4961085 1.99128
-0.18925075 -0.49832258 1.9623352
-0.1036463 -0.49663055 1.9798996
-0.067823611 -0.49527881 1.9688288
-0.026406491 -0.49250636 1.9783875
0.018027609 -0.49249026 1.9700626
0.064740002 -0.4910475 1.9685818
0.11376639 -0.49361339 1.9874835
0.22510853 -0.4936834 1.9814301
0.27435225 -0.49503008 1.9827551
0.32511902 -0.49688414 1.97159
0.36933005 -0.49664164 1.9789681
0.42663437 -0.49611321 1.9690222
0.47882324 -0.4957059 1.9762192
0.51141614 -0.49903348 1.9673898
0.57522261 -0.49556494 1.9751043
0.61350423 -0.49161014 1.9811442
1.9940643 -0.30152205 1.9769607
2.0114589 -0.30126521 1.9586952
1.9874908 -0.27101421 1.9762412
1.9872967 -0.22627833 1.976353
1.9912966 -0.18138862 1.9837235
2.0035517 -0.16474707 1.9671605
1.9960545 -0.1291966 1.9871055
2.0088983 -0.13720562 1.9659703
1.9946241 -0.074766375 1.9958558
2.005986 -0.068180896 1.9720461
2.0097604 -0.02982134 1.9725655
2.0153155 0.022309069 1.974889
2.0210505 0.06803254 1.966947
2.0272131 0.1140582 1.9552969
0.89906996 0.22429319 1.9947573
0.91821498 0.22154959 1.9604156
0.97584772 0.22480018 1.9737186
-1.2220091 0.33432078 1.9778324
-1.2224419 0.3709774 1.9760897
-1.2242584 0.42545417 1.9772055
-1.2231684 0.47562051 1.9782368
-1.2196268 0.52678233 1.9739293
-1.2199639 0.57294595 1.9746886
-1.220522 0.62366092 1.980505
-1.2211854 0.66974604 1.9843479
-1.2178279 0.72721457 1.9736077
-1.2151568 0.77630937 1.9699852
-1.217626 0.82671702 1.9737011
-1.2219819 0.87374753 1.9768559
-1.2239246 0.92771643 1.9786706
-1.2253516 0.97848833 1.9750134
-1.2289529 1.0366386 1.9860111
-1.2267975 1.0578424 1.9724883
-1.2268234 1.1258399 1.9703668
-1.233346 1.1839318 1.9856813
-1.2299757 1.2178699 1.9715843
-1.2344557 1.2738683 1.9785707
-1.2341681 1.3279258 1.9735857
-1.2399602 1.3866043 1.9772025
-1.2407093 1.4284074 1.9791647
-1.2421829 1.4784107 1.9754242
-1.2443793 1.5227513 1.9804254
-1.2469292 1.5740519 1.9765545
-1.2462102 1.6036382 1.9665492
-1.2575823 1.6734593 1.9837941
-1.2580154 1.7368892 1.9777821
-1.2554666 1.7843046 1.9760447
-1.2565449 1.8179412 1.9954582
-0.31154257 -0.50041294 2.0009634
-0.28077692 -0.5148989 2.0208747
-0.22000247 -0.504269 2.0246272
-0.1777079 -0.5011906 2.0149376
-0.13080606 -0.50366735 2.0273438
-0.091185138 -0.50283206 2.0254297
0.28331321 -0.50128782 2.0496674
0.33101845 -0.50248832 2.0072918
0.36472043 -0.50291896 2.0478365
0.43178463 -0.50285906 2.0387809
0.52265644 -0.50000113 2.0123394
0.58396649 -0.50110257 2.0054672
-0.33931494 -0.49535829 2.0193236
-0.18031281 -0.49872223 2.0257695
-0.076117143 -0.49614528 2.0196819
-0.012217191 -0.49155396 2.0225301
0.012373163 -0.49327588 2.0296092
0.061323255 -0.4901931 2.0163457
0.23337178 -0.49109823 2.0117197
0.27422184 -0.49161407 2.02109
0.33204198 -0.49918443 2.0360327
0.37839776 -0.49716273 2.0221617
0.44873619 -0.49569905 2.0063882
0.474962 -0.4955081 2.0162003
0.52634984 -0.49689916 2.020709
0.57764006 -0.49541786 2.0272577
0.60400701 -0.49011698 2.0218561
1.980666 -0.3033689 2.0108125
1.9661659 -0.27146769 2.0235074
1.9669993 -0.22018725 2.0260134
1.9687508 -0.16866542 2.0261829
1.9762754 -0.13829793 2.0217006
1.9861501 -0.068618447 2.0111275
1.9999858 -0.049689431 2.0018902
2.00295 -0.024443725 2.0052023
2.033571 0.00087665272 2.0359728
0.83803499 0.22566509 2.0273752
0.87210381 0.22009365 2.0129955
0.95071167 0.22690785 2.0043328
-1.2210215 0.32978252 2.016619
-1.1756396 0.32761648 2.0487416
-1.2356056 0.3729417 2.0275817
-1.2321118 0.42713574 2.017451
-1.2388347 0.4705095 2.0354776
-1.2329029 0.52515483 2.0249386
-1.163848 0.50658041 2.048954
-1.2298254 0.57507652 2.0253966
-1.2248154 0.61416745 2.0201116
-1.2333897 0.67468137 2.0370114
-1.2268873 0.72185403 2.0235505
-1.2278206 0.77383798 2.0249951
-1.2296908 0.82217151 2.0238953
-1.2271129 0.87168932 2.0184984
-1.2335236 0.92673635 2.0220406
-1.238837 0.98412883 2.0327861
-1.2327518 1.0173396 2.0208371
-1.2385287 1.0797716 2.0202911
-1.2377613 1.1290042 2.0213604
-1.2377882 1.1669873 2.0265203
-1.2519524 1.2193987 2.0383537
-1.2428128 1.2224321 2.0172977
-1.2540305 1.2699422 2.0490985
-1.2394644 1.2794985 2.0233357
-1.2549723 1.3075664 2.0309856
-1.2422397 1.3375714 2.0195103
-1.2474532 1.3744915 2.0271482
-1.2533555 1.418942 2.0316124
-1.2370398 1.4004712 2.0052199
-1.2567497 1.4685936 2.0449634
-1.2441094 1.47878 2.0086532
-1.2605637 1.5454298 2.0419576
-1.2495484 1.5445925 2.0156958
-1.2528138 1.5757108 2.021826
-1.2621422 1.6277975 2.0283267
-1.2624912 1.6720132 2.024287
-1.2685392 1.7251625 2.0143161
-1.2591665 1.7566268 2.0075455
-1.2718709 1.8535581 2.0090382
-0.32001454 -0.50907296 2.0696809
-0.27290979 -0.50738525 2.0758836
-0.22856532 -0.50263506 2.0722435
-0.16938436 -0.50567001 2.0760536
-0.12911239 -0.50652677 2.0814805
-0.071353994 -0.50382763 2.0722201
-0.032604679 -0.50241601 2.0670767
0.27760801 -0.50236702 2.0839722
0.32678759 -0.50308609 2.0675106
0.42791343 -0.50347918 2.0716062
0.45261517 -0.50105745 2.0726776
0.53409767 -0.50072682 2.0580981
0.59658283 -0.50003546 2.0901251
-0.33362076 -0.49913734 2.0795863
-0.19978352 -0.49569908 2.076488
-0.078035772 -0.49986678 2.0775213
-0.007531439 -0.48968744 2.0796993
0.022671955 -0.49262151 2.0698011
0.22370888 -0.49805537 2.0847895
0.275695 -0.49559352 2.0702822
0.31874239 -0.49964136 2.0833056
0.36933941 -0.49912617 2.0755131
0.52266169 -0.49956411 2.0550215
0.56611961 -0.49620983 2.079011
1.9394051 -0.27355969 2.0728238
1.9537585 -0.29241472 2.0559978
1.938521 -0.22205703 2.0710862
1.9448202 -0.1739939 2.0769639
1.9453554 -0.13931605 2.072588
1.960268 -0.13899241 2.0526185
0.9056592 -0.069067851 2.0788522
0.90941697 -0.024787599 2.0827873
0.89882755 0.021242525 2.0833459
0.90986609 0.022124002 2.0790131
0.89877355 0.073961221 2.082376
0.91016674 0.070371293 2.076617
0.89942771 0.12675616 2.0820351
