ply
format ascii 1.0
comment PCL generated
element vertex 1533
property float x
property float y
property float z
element camera 0
property float view_px
property float view_py
property float view_pz
property float x_axisx
property float x_axisy
property float x_axisz
property float y_axisx
property float y_axisy
property float y_axisz
property float z_axisx
property float z_axisy
property float z_axisz
property float focal
property float scalex
property float scaley
property float centerx
property float centery
property int viewportx
property int viewporty
property float k1
property float k2
end_header
-0.12695952 1.9783568 4.6386542
-0.072310902 1.9806627 4.6449065
-0.27476424 2.0238059 4.6063666
-0.21665162 2.0272698 4.6164598
-0.17014602 2.0314198 4.6273403
-0.12344772 2.0358641 4.6385069
-0.27099848 2.0753357 4.6083226
-0.22172819 2.0812018 4.6272545
-0.1666078 2.0793598 4.6247845
-0.1276608 2.0835934 4.6351027
-0.080556385 2.0697353 4.6450038
-0.25305051 2.119653 4.6117163
-0.21822955 2.1246235 4.6238003
-0.1832568 2.1176889 4.6393681
-0.11211833 2.1027052 4.637866
-0.26566762 2.1854248 4.6061497
-0.21513309 2.1724217 4.6289229
-0.18437335 2.1900899 4.6480193
-0.26217926 2.2168472 4.6049228
-0.2195076 2.2202706 4.6232123
-0.18470746 2.2298336 4.6442709
-0.25517207 2.2680457 4.6059418
-0.220208 2.27493 4.6212401
-0.18533728 2.2852931 4.6434202
-0.21667041 2.3233378 4.6150775
-0.18564536 2.3250341 4.638298
-0.20931697 2.3696513 4.6135125
-0.17371501 2.373745 4.6225586
-0.12595227 2.3770914 4.6301932
-0.082028292 2.3716533 4.6388836
-0.042049102 2.3837879 4.6443601
0.19750237 2.3935046 4.6047826
0.23518436 2.3877239 4.6478662
0.27811292 2.3929479 4.6191878
0.31762138 2.3970473 4.606739
0.38004869 2.3889227 4.6432629
0.41689551 2.3926594 4.6482825
0.49006292 2.3959801 4.6495953
0.52592158 2.3939805 4.6428223
0.5750016 2.3970633 4.6446276
0.66038305 2.3994279 4.6409993
0.73256183 2.3977523 4.629787
0.81645226 2.3953094 4.6146746
0.87826008 2.3989029 4.6134424
1.081738 2.3961287 4.6339507
1.1070896 2.3980997 4.6334887
-0.081888437 2.407655 4.6161208
-0.029936865 2.4022679 4.6246285
0.018116603 2.4056809 4.6312461
0.06621477 2.4055159 4.6306133
0.11017909 2.4103863 4.6209774
0.16251776 2.4071765 4.6320915
0.23438796 2.4038572 4.6234655
0.3425543 2.4038379 4.6185408
0.37902194 2.4063525 4.6213131
0.42716718 2.406666 4.6188655
0.48665786 2.4033744 4.6082301
0.52321506 2.4057674 4.6099281
0.58360773 2.4068313 4.606709
0.62571621 2.4064119 4.6205964
0.68496621 2.4006643 4.6408262
0.70771533 2.407681 4.6238031
0.7705856 2.4030437 4.6356711
0.91653323 2.4040017 4.618031
1.8146406 -0.4694773 4.6794004
0.69939125 -0.20130168 4.6539679
0.70201194 -0.23574024 4.6703863
0.69997776 -0.17907493 4.6584558
0.70109969 -0.15693037 4.6664367
0.70209539 -0.1234482 4.6736956
0.70218199 -0.078552112 4.6748772
0.70244902 -0.033604041 4.6769791
0.70489216 0.022636831 4.6932378
0.70577657 0.067838542 4.6988368
0.70515388 0.16930456 4.6929398
0.70622164 0.20345961 4.6991529
0.63848126 0.38425681 4.6983323
0.34019092 0.42380646 4.6538982
0.37452254 0.42479971 4.6631112
0.42019346 0.42579505 4.671351
0.46388346 0.42232841 4.6802559
0.51956987 0.41475955 4.6932707
0.57017863 0.4064866 4.698575
0.17656298 0.48303095 4.6536808
0.21802753 0.48061582 4.6654391
0.27405819 0.48093176 4.6664257
0.3300783 0.48109668 4.665504
0.37554345 0.48200214 4.6722355
0.42121527 0.48297119 4.6791492
0.46933818 0.47721004 4.6862383
0.5016672 0.47349513 4.692122
0.17292733 0.524131 4.6529551
0.21792302 0.52507466 4.660111
0.27433911 0.52616525 4.6678753
0.33125457 0.52767563 4.6788487
0.376917 0.52875793 4.6861458
0.4228515 0.52993584 4.6940308
0.47232151 0.52687848 4.6975098
0.21780053 0.55827934 4.6549687
0.26263422 0.55868661 4.6568489
0.34259146 0.56155336 4.6774015
0.37718123 0.56289005 4.6868162
0.4118076 0.56407803 4.6948419
0.50317395 0.56535226 4.6996374
0.83501184 0.56808603 4.6912432
0.87756675 0.57752913 4.6695719
0.92388248 0.5895462 4.6680012
0.97522342 0.59319806 4.6907253
0.84138542 0.63251454 4.6565866
0.87480891 0.6208986 4.6510201
0.9229821 0.6116221 4.6615124
0.97363466 0.6263988 4.6801786
0.98283839 0.67046851 4.6640196
0.97933364 0.88206553 4.6802983
0.97644597 0.92491895 4.6797676
0.96804595 0.97387004 4.6704836
0.96895576 1.0206647 4.6682558
0.96995652 1.0676317 4.6661282
0.97192878 1.1158141 4.6683211
0.97377712 1.1640365 4.6695566
0.96823871 1.28725 4.6795855
0.96956223 1.3354487 4.6769557
0.96698737 1.3798624 4.6752915
0.97395706 1.4231222 4.681581
0.98023605 1.4655687 4.6841526
0.47971171 1.5488943 4.6604166
0.5138787 1.5358338 4.6559625
0.57243973 1.5264668 4.6606116
0.62065375 1.5313814 4.6715603
0.66631043 1.5296795 4.6619911
0.71649617 1.5378238 4.6820784
0.96693867 1.5003659 4.6908607
0.098412149 1.596508 4.6699319
0.16781636 1.5965223 4.6686254
0.31889516 1.5767486 4.6786294
0.54035604 1.5571433 4.6809106
0.56547236 1.5623378 4.694643
0.017469816 1.6433907 4.6613321
0.069766335 1.6311916 4.679945
0.13356552 1.6019828 4.6853485
0.22699377 1.6059735 4.6945801
0.26144364 1.6032057 4.6852612
-0.017272299 1.6901795 4.6513338
0.017501825 1.6829611 4.666266
0.075733475 1.675739 4.6809845
0.12256916 1.6683035 4.6949663
-0.063721791 1.7405769 4.6502247
-0.017296813 1.7157278 4.6519966
0.017537741 1.7322743 4.6623249
0.075787373 1.7275847 4.6721749
0.13053595 1.7212858 4.6889491
0.16991319 1.7336372 4.6984744
-0.075488016 1.7794273 4.6515236
-0.029008485 1.7930455 4.6539917
0.017569691 1.7823415 4.6595492
0.075982332 1.7748356 4.6731114
0.1346558 1.7672095 4.6859908
0.17008483 1.7705834 4.6941824
-0.029084526 1.8324733 4.6559653
0.017622204 1.8346758 4.6616054
0.08209604 1.8161567 4.679903
0.1350984 1.819731 4.6883259
-0.029164184 1.8844426 4.6560564
0.013766636 1.8830115 4.6633487
0.064713359 1.8682245 4.6804018
0.11917041 1.8770897 4.6952791
-0.025314728 1.9316006 4.6540279
0.021614829 1.9178635 4.6632118
0.06489484 1.9207352 4.6805501
0.11943366 1.9239553 4.6941123
-0.029298263 1.9757032 4.6543522
0.017743226 1.9654589 4.6614342
0.065052874 1.9725924 4.6780782
0.12450062 1.9788381 4.692028
-0.11170653 2.0008476 4.650208
-0.080500066 2.0210638 4.6562862
-0.0293782 2.0161581 4.6556592
0.017821603 2.0219946 4.6691709
0.065196596 2.024363 4.6743402
0.12478629 2.031111 4.6890774
0.18056254 2.0390205 4.695713
-0.06482815 2.0539913 4.6501298
-0.029473342 2.0702877 4.6567302
0.017912023 2.0790257 4.6764679
0.065454476 2.0804007 4.6792517
0.12027951 2.0803494 4.6844707
0.18496156 2.0757198 4.6970811
-0.16043058 2.1405919 4.6602902
-0.12476128 2.1406448 4.66117
-0.077042252 2.1243949 4.6561713
-0.029636556 2.1293709 4.6674647
0.01796809 2.1345749 4.678915
0.065660939 2.1345747 4.6785979
0.12539974 2.1285794 4.6846137
0.17346376 2.1168087 4.6978469
-0.16853762 2.1747546 4.65485
-0.1289411 2.1758289 4.6580582
-0.073275603 2.1735132 4.6539655
-0.029722707 2.1827283 4.6641979
0.01403441 2.1829851 4.6746793
0.06594307 2.179678 4.6870213
0.13168946 2.1719303 4.6841836
0.18202008 2.1755259 4.6957316
-0.16115674 2.2339036 4.653368
-0.12166528 2.22001 4.6737189
-0.081761174 2.2202144 4.6747308
-0.029842354 2.2264006 4.6687307
0.02203952 2.2192833 4.6732717
0.065975435 2.2166839 4.6772738
0.12123497 2.2171915 4.6834002
0.17446379 2.2252767 4.6934066
-0.16149622 2.2745047 4.6507158
-0.12578343 2.266278 4.6633515
-0.07804323 2.2721703 4.6762319
-0.029989872 2.274009 4.680408
0.018137408 2.2747712 4.6819973
0.066280916 2.275599 4.683404
0.11442725 2.275202 4.681942
0.17495154 2.2796445 4.6897578
0.23154704 2.2788289 4.6960378
0.28440654 2.2992258 4.6971369
-0.16196191 2.3170862 4.6513186
-0.12607186 2.3192995 4.6565814
-0.078159235 2.3239646 4.6667047
-0.030082002 2.3296814 4.678576
0.018221095 2.3339188 4.6871324
0.066590503 2.3224652 4.6924639
0.1149615 2.3224444 4.6917524
0.18012293 2.3300273 4.6825652
0.23603326 2.3357189 4.6865315
0.28475338 2.3261814 4.6941214
-0.066203229 2.3625929 4.6587243
-0.026057133 2.3729744 4.6606627
0.018212268 2.3811336 4.6673303
0.066638522 2.3722079 4.6777024
0.11506865 2.3729353 4.6784253
0.1721025 2.3794003 4.6737142
0.235764 2.3693566 4.6681108
0.28738737 2.3716412 4.6819048
0.33110413 2.3819385 4.6774483
0.37824252 2.3706448 4.6828761
0.43502071 2.3875906 4.6748805
0.47607073 2.3904984 4.6777139
0.52945256 2.3857548 4.6831555
0.57817197 2.3858373 4.6791372
0.62871993 2.3929894 4.6885948
0.67738438 2.3924589 4.6826072
0.72613788 2.3921716 4.6767101
0.77429426 2.3902364 4.6672163
0.82332468 2.3909936 4.6625891
0.86256498 2.3983798 4.6721539
0.93626803 2.3991621 4.6633019
1.0809098 2.3969231 4.6947551
1.1160886 2.3929172 4.6805282
0.61269218 2.4024477 4.6516852
0.88853127 2.402436 4.6766939
0.91293287 2.402158 4.6726885
0.97578841 2.4060268 4.6710863
1.1689423 2.4001706 4.6857972
1.2454591 2.4046357 4.6803055
0.76856422 -0.50079846 4.7152061
0.81866908 -0.50360948 4.7366581
0.86691213 -0.5050267 4.7446547
0.73546982 -0.46732306 4.7279816
0.77062792 -0.4678942 4.7302084
0.81593519 -0.47371301 4.7454219
0.73619628 -0.42214996 4.7354393
0.76795751 -0.42668805 4.7401791
0.73462808 -0.37570927 4.7278419
0.77108729 -0.37681773 4.7382574
0.73444843 -0.3300668 4.7288857
0.77138901 -0.33125943 4.7423477
0.73515815 -0.27340579 4.7357845
0.77103209 -0.27400124 4.742538
0.80677021 -0.28594971 4.7471089
0.73439288 -0.21620399 4.7327614
0.77011377 -0.21664007 4.7387686
0.73529696 -0.17087691 4.7397785
0.75889003 -0.17105079 4.7424021
0.73551786 -0.12532222 4.7421055
0.75894487 -0.12542167 4.7436504
0.73586035 -0.079758331 4.7449288
0.77090192 -0.079834692 4.7463837
0.80621034 -0.068501242 4.7490025
0.73568165 -0.034119643 4.7441063
0.77069497 -0.034148224 4.7454171
0.73457462 0.022883669 4.7369599
0.76493859 0.028639873 4.7457085
0.72537804 0.083401792 4.7266803
0.76672173 0.076181896 4.7444062
0.72131115 0.12501968 4.7244864
0.7709775 0.12572564 4.7460413
0.73636723 0.17132515 4.7464514
0.76737791 0.16764617 4.7468925
0.72680306 0.22017129 4.7329316
0.75998318 0.21721545 4.7477531
0.72100508 0.27340463 4.7334375
0.72056508 0.32705453 4.7386146
0.67573321 0.38616559 4.7185082
0.71311396 0.37658328 4.7380142
0.54807228 0.42943269 4.7030458
0.5861215 0.42218351 4.7036095
0.63007528 0.42008024 4.7189569
0.67852402 0.42197895 4.7361441
0.71525306 0.43492109 4.7489891
0.53725678 0.47505799 4.7051473
0.58353794 0.47592294 4.7101135
0.62841642 0.47275409 4.7205057
0.67868501 0.46769965 4.7344089
0.71502155 0.46910238 4.7452755
0.45756754 0.54227948 4.7004519
0.52646136 0.53210622 4.7065053
0.58409286 0.53306293 4.7106018
0.63379985 0.52798831 4.722517
0.68049258 0.52612478 4.7430515
0.71484011 0.54903668 4.73838
0.53831804 0.56664616 4.7078991
0.58431286 0.56729311 4.7096977
0.63174939 0.56915694 4.7212882
0.67927772 0.57084417 4.7310886
0.73052567 0.56460625 4.7384586
0.7689997 0.56969166 4.7122626
0.80699837 0.57239634 4.7308335
0.9914062 0.57316107 4.7138534
0.99848574 0.94664264 4.7075186
0.99852747 0.98131275 4.7029157
0.99910843 1.0165395 4.700686
1.0043936 1.0451412 4.7221141
1.0055642 1.0812423 4.7222881
1.0098877 1.1325948 4.7351751
0.96114284 1.2583371 4.7096281
0.76765883 1.5236518 4.7104673
0.81634843 1.5270969 4.7156982
0.86274207 1.5260398 4.7066774
0.91355848 1.5325413 4.7206078
0.99769825 1.5114605 4.7221446
0.36730033 1.5856333 4.7026653
0.42889547 1.5979832 4.735919
0.45295003 1.5999581 4.7402749
0.59336036 1.5744754 4.7291374
0.61681253 1.5743662 4.7267504
0.77158952 1.555028 4.7293468
0.80873942 1.5585468 4.7359939
0.13426177 1.633579 4.7040052
0.18147798 1.6385489 4.7172451
0.22768331 1.634197 4.7033315
0.27981102 1.6355686 4.7297187
0.31917986 1.6290073 4.7336106
0.14633965 1.6733429 4.708715
0.18198992 1.6783361 4.7219162
0.22941965 1.6819988 4.7307873
0.27704915 1.6855253 4.7390008
0.14643052 1.7095147 4.7030082
0.1859774 1.7219547 4.7127476
0.22981091 1.7319362 4.7270441
0.27363142 1.7320232 4.7374272
0.3137908 1.7285814 4.7499337
0.19407374 1.7755374 4.706687
0.23002328 1.7806928 4.719274
0.28032869 1.7786331 4.7326007
0.31417668 1.7662865 4.7467546
0.076636128 1.837422 4.7013464
0.18280689 1.8274372 4.7070718
0.23028299 1.8299526 4.7121215
0.2785272 1.8367816 4.7279606
0.32629591 1.8151574 4.7376575
0.36278906 1.8197497 4.7478147
0.14763664 1.8653094 4.7046714
0.18333599 1.8800341 4.7078142
0.23099592 1.8830853 4.7140017
0.27463028 1.8805751 4.7171388
0.32690585 1.8661119 4.7336826
0.36323053 1.8696041 4.7407598
0.41205603 1.8870107 4.7486405
0.14815824 1.9430118 4.7013159
0.1836358 1.9305702 4.7023516
0.22745132 1.9298773 4.7101588
0.28363708 1.9196509 4.7263212
0.32777464 1.918777 4.7330837
0.37635112 1.9234095 4.7420421
0.41295612 1.9270564 4.7489586
0.18430533 1.9851011 4.7055402
0.23640944 1.9702682 4.7216959
0.28046012 1.9689047 4.7274323
0.32882881 1.9727616 4.7345486
0.37730312 1.9762002 4.7402973
0.19651201 2.0241294 4.7024059
0.23273854 2.0165739 4.7149906
0.28111514 2.0213547 4.7243338
0.32944912 2.0243921 4.7292686
0.37844405 2.0302465 4.7404175
0.41535321 2.0345786 4.7484155
0.23313437 2.0678334 4.7084723
0.28190237 2.0749931 4.7229052
0.3305696 2.0793772 4.7307081
0.37534201 2.0793116 4.7386451
0.19755585 2.1187139 4.701417
0.23388207 2.1224475 4.7085171
0.2826699 2.1287253 4.7206106
0.33195418 2.1243374 4.739296
0.38012281 2.1116838 4.7392364
0.41775325 2.1311045 4.7496719
0.19802622 2.1597586 4.7010546
0.23459968 2.1771021 4.7074485
0.2837235 2.1849864 4.7226276
0.33258817 2.1646283 4.7365942
0.38125926 2.1664522 4.7379789
0.41812855 2.1693897 4.7422533
0.19922385 2.24528 4.7054038
0.23534699 2.2323925 4.7065663
0.28008589 2.2323217 4.7145486
0.33325675 2.217464 4.7301598
0.3828297 2.2239411 4.7413712
0.43220556 2.227982 4.7470074
0.46906218 2.2296081 4.748003
0.24818569 2.2999408 4.7000828
0.28855586 2.2678406 4.7100177
0.33388919 2.2702525 4.7227192
0.38319787 2.2747943 4.7295189
0.43304953 2.2811079 4.7396436
0.4783715 2.2799587 4.7440476
0.33427894 2.3215573 4.7113285
0.38359869 2.3258958 4.7174726
0.43286175 2.328891 4.7205224
0.48305377 2.3358011 4.7311153
0.34659803 2.3592198 4.7000375
0.39617535 2.3648555 4.7084904
0.43284458 2.3654046 4.7072477
0.48246413 2.3696289 4.7122269
0.53327996 2.366122 4.730298
0.58246267 2.3790097 4.7228737
0.63242459 2.3825133 4.7252531
0.68404126 2.3912439 4.7375917
0.73228008 2.3879049 4.725625
0.78211522 2.3896663 4.723361
0.81904936 2.3897045 4.7188845
0.8948189 2.3947418 4.7190132
0.92989457 2.3897483 4.7039261
0.97097361 2.3875556 4.723155
1.0652338 2.3924818 4.7483425
1.1139648 2.3901339 4.7352738
1.1800798 2.3980529 4.7398376
1.2177875 2.3985634 4.7338276
1.3384136 2.3882596 4.7499504
1.3884411 2.3878629 4.7384286
1.4173696 2.3942883 4.7456279
1.4704779 2.3987334 4.7429709
0.8722775 2.4006302 4.7339973
0.99622262 2.4012058 4.7172174
1.0472872 2.404814 4.7164149
1.257702 2.4032338 4.7357931
1.31988 2.402564 4.7218113
0.90345788 -0.50620949 4.7515683
1.1518035 -0.51429975 4.7944441
0.83266276 -0.45922497 4.7529569
0.86878669 -0.47160205 4.7572508
0.91773194 -0.47310698 4.7667513
0.96644002 -0.47433603 4.7732286
1.0171926 -0.47642642 4.7878389
0.78508312 -0.41243365 4.7508845
0.8208341 -0.42459363 4.7542791
0.8695085 -0.42594135 4.7640533
0.91816086 -0.42713958 4.7718077
0.96851134 -0.42897615 4.7863379
1.0176241 -0.44175088 4.7921391
0.82071006 -0.37862545 4.7560821
0.86998087 -0.38008323 4.7691631
0.91825891 -0.38099399 4.7748699
0.96755522 -0.38221473 4.7841883
1.0060947 -0.38365388 4.7975421
0.82028866 -0.33255053 4.755867
0.8691178 -0.33367711 4.766664
0.91760123 -0.3345615 4.7737017
0.96797657 -0.32442507 4.7890372
1.005874 -0.33706021 4.7987695
0.82574844 -0.26936635 4.7562337
0.8693977 -0.27621341 4.7705979
0.91761082 -0.27685121 4.7761154
0.96725708 -0.26627129 4.7878265
1.0049295 -0.26704553 4.7971163
0.82008141 -0.21778947 4.7589483
0.86822486 -0.21836065 4.7660761
0.91839349 -0.21934339 4.7821498
0.9639371 -0.22393203 4.7924342
0.78370106 -0.17148605 4.7520418
0.81987095 -0.17187151 4.7589569
0.86761767 -0.17223655 4.7639484
0.9171778 -0.17291196 4.7770214
0.96317005 -0.16971309 4.7900562
1.0048299 -0.16248544 4.7996716
0.78366095 -0.12572199 4.7527065
0.81987196 -0.12601255 4.7598567
0.86834025 -0.12638524 4.7688332
0.91804832 -0.12689401 4.7824907
0.96699297 -0.12725013 4.7901468
1.0039521 -0.1391335 4.7959442
0.82304507 -0.083907284 4.75629
0.86767858 -0.080325514 4.7658062
0.9177109 -0.080681868 4.781322
0.95633161 -0.081010535 4.7970104
1.0284704 -0.069588318 4.7997584
0.81910253 -0.034250129 4.7563515
0.86823487 -0.03438554 4.7692175
0.91706455 -0.03448534 4.778348
0.96285504 -0.030741056 4.790257
1.0278323 -0.04631969 4.7969494
0.78345621 0.011535688 4.7524567
0.82062167 0.023077125 4.7651539
0.86886454 0.023122655 4.7726645
0.91757292 0.023203604 4.7810044
0.96609831 0.023255179 4.7867031
1.0038556 0.023336373 4.7966704
0.78318131 0.091556646 4.7501779
0.82009524 0.080382898 4.761579
0.86878061 0.080650538 4.7717986
0.9178856 0.080923691 4.7821875
0.96642339 0.081135303 4.7878933
1.0042864 0.093001582 4.7981272
0.81962007 0.1261878 4.7581782
0.86816972 0.12658575 4.767766
0.91806567 0.1271314 4.7823877
0.96724856 0.12753567 4.791296
1.004499 0.13946825 4.7983694
0.78363526 0.18311933 4.7511382
0.82102126 0.17233385 4.7653537
0.86980861 0.1729055 4.7757382
0.91885781 0.17347682 4.7855554
0.96449274 0.1701989 4.7964177
0.78415436 0.21757895 4.7533054
0.82142311 0.21836472 4.7664299
0.87123114 0.21933682 4.7822952
0.91920817 0.21977133 4.7861261
0.95710778 0.22053081 4.7978191
0.7378397 0.27460986 4.7527218
0.7732237 0.27500132 4.755651
0.8220951 0.276021 4.7683358
0.8703872 0.26523459 4.7760744
0.91865313 0.26587012 4.781673
0.9577145 0.27870631 4.7988415
0.7380982 0.3433601 4.7514167
0.77407426 0.33262879 4.7584481
0.82335758 0.33401793 4.7731915
0.87280005 0.32377437 4.7869358
0.91924828 0.32931069 4.7944765
0.73910338 0.37821379 4.7561436
0.77514052 0.37901872 4.7627444
0.82290959 0.37986857 4.7683277
0.87218761 0.38129133 4.7807503
0.91788453 0.37883654 4.7932243
0.95859057 0.37191015 4.7990127
0.7312572 0.42009294 4.7531962
0.77557927 0.42518869 4.7628059
0.82332075 0.42612424 4.7681527
0.87201011 0.42741358 4.7771587
0.90888596 0.42846861 4.7847214
0.73990512 0.47037596 4.7558689
0.77666724 0.47180587 4.7666025
0.82460582 0.47292018 4.7727127
0.87373996 0.47455084 4.7837267
0.92271501 0.47594848 4.7919779
0.72849137 0.51629359 4.7541733
0.77821285 0.51885897 4.7728944
0.82546395 0.5195837 4.7745018
0.87476784 0.52144158 4.7860694
0.92409098 0.52314997 4.7959118
0.77802819 0.5533061 4.7692099
0.82361221 0.55297792 4.7612343
0.87594151 0.55695164 4.7899504
0.92403692 0.55798733 4.7930355
0.9600032 0.55863386 4.7940178
1.0184357 0.57041204 4.7864294
1.0308204 0.6174233 4.7842665
1.0307721 0.66398311 4.7798572
1.0342215 0.72464991 4.7901459
1.0357293 0.81932354 4.787015
1.0222495 1.2291864 4.7791839
1.0242058 1.2670743 4.781992
1.0277216 1.3189539 4.7896342
1.0286252 1.3676753 4.7847071
1.0292279 1.4041777 4.7804213
0.96970254 1.5469038 4.7583237
0.64417481 1.5838798 4.7531581
0.68373191 1.5934384 4.7784228
0.72064477 1.5962074 4.7831335
0.83836061 1.5698054 4.7673683
0.86632341 1.5774239 4.7875681
1.0132775 1.5590491 4.7905302
0.37187344 1.6289728 4.7556915
0.415301 1.6216875 4.7567391
0.47090307 1.623504 4.7585616
0.51609147 1.6253451 4.7733898
0.57115984 1.6244504 4.7740126
0.62486619 1.630685 4.7802701
0.67413324 1.6306921 4.7884588
0.74641573 1.6003934 4.7931619
0.32897317 1.6702609 4.7540298
0.37289667 1.6689374 4.7602158
0.42154625 1.6742001 4.7725239
0.46977264 1.6768308 4.7769604
0.51837707 1.68022 4.7832408
0.56665456 1.6820788 4.7848139
0.61504459 1.6839309 4.786037
0.67579353 1.6626065 4.7936492
0.32980877 1.7139632 4.7562957
0.37407687 1.7217515 4.7637434
0.42267692 1.7263169 4.7736492
0.47162747 1.731227 4.7841573
0.51981807 1.7327169 4.7848563
0.56780738 1.733304 4.7827578
0.61711264 1.7255105 4.7932348
0.65287405 1.7011179 4.7946768
0.3382929 1.7684362 4.7514195
0.37496281 1.7734451 4.7630467
0.42350924 1.7774409 4.7710118
0.47219288 1.7811098 4.7777629
0.52124691 1.785404 4.7858305
0.56881797 1.784319 4.7791419
0.61853081 1.7655293 4.795207
0.67959172 1.7561845 4.799963
0.38764393 1.8247958 4.7596741
0.42443749 1.8291783 4.7689857
0.47320312 1.8328416 4.7754002
0.5181852 1.8326603 4.7832828
0.57084489 1.8266972 4.7866669
0.61954677 1.8165565 4.790617
0.38798627 1.8741655 4.7510056
0.42929113 1.87685 4.7666469
0.47458494 1.8862743 4.7764187
0.52292752 1.875333 4.7789497
0.57179457 1.8658713 4.7849612
0.6213063 1.8700079 4.7913656
0.65826225 1.8722119 4.793663
0.43784165 1.9312546 4.7578063
0.47096837 1.9319347 4.7683716
0.52830714 1.920422 4.7800198
0.57316554 1.9186254 4.7831349
0.62333846 1.9245291 4.7936392
0.66138119 1.9417636 4.7995372
0.4267641 1.9834588 4.7548652
0.4761892 1.9770339 4.768702
0.52539212 1.9687221 4.7777262
0.5740748 1.9700261 4.776989
0.6243369 1.9761065 4.7874594
0.66255796 1.9817054 4.797606
0.43977699 2.0241399 4.7543154
0.48064622 2.0190871 4.7609968
0.52616745 2.0200129 4.7705827
0.57606101 2.025351 4.7792225
0.62678766 2.032568 4.791955
0.43278471 2.0692685 4.7540302
0.47756165 2.0674253 4.7572918
0.5273841 2.0731404 4.7668257
0.57803053 2.0809538 4.7808304
0.62446803 2.0830004 4.7921786
0.71468157 2.0525622 4.7982335
0.39353016 2.1310453 4.7510023
0.43370149 2.1139905 4.7515354
0.47911647 2.122663 4.7576299
0.52887905 2.1277165 4.7653203
0.57483131 2.1287696 4.7744393
0.63337737 2.1181452 4.7871814
0.67956293 2.1183946 4.7938814
0.44338036 2.1743889 4.7515984
0.4805367 2.1776428 4.7561941
0.53026217 2.182035 4.7620959
0.5856449 2.1712725 4.7853708
0.63100111 2.1688132 4.7861753
0.68163323 2.1740134 4.79286
0.49413228 2.2328084 4.7530527
0.52699 2.2301099 4.754848
0.58198547 2.2177348 4.7744036
0.63372964 2.2273932 4.79072
0.67179441 2.2312737 4.7954698
0.53755236 2.2729738 4.7647529
0.58302784 2.2708786 4.766542
0.63445586 2.2792215 4.7795639
0.67385447 2.2752099 4.7977128
0.49669516 2.3057208 4.7567811
0.53483093 2.3237948 4.7615027
0.58558089 2.330127 4.770287
0.63639826 2.3356853 4.7771268
0.67419577 2.3258572 4.7830143
0.70074922 2.3319061 4.7929187
0.58499336 2.3647404 4.7523818
0.63525271 2.3685045 4.7553697
0.69030315 2.3657463 4.7639661
0.7323885 2.3686693 4.7654071
0.77580798 2.3711925 4.7755742
0.81277293 2.3703771 4.7694073
0.86179203 2.384279 4.7817097
0.91557986 2.3920641 4.7702837
0.95351368 2.3934762 4.7677608
1.0176346 2.3853002 4.7715569
1.1647979 2.3929722 4.7934823
1.2176092 2.3977995 4.7939181
1.2801495 2.3967962 4.7797518
1.3122234 2.3863301 4.7513084
1.4849354 2.3968139 4.7991676
1.5077811 2.3926237 4.7848482
1.1577784 2.4035947 4.7553372
1.4503103 2.4071498 4.7654247
1.2050475 -0.51707029 4.8126473
1.0705214 -0.47948295 4.811903
1.1204777 -0.48083675 4.8184628
1.1678247 -0.48099059 4.812746
1.2213893 -0.48360148 4.8311195
1.273433 -0.48544043 4.8414736
1.312534 -0.47489819 4.8491158
1.0191138 -0.41910797 4.8005304
1.0699291 -0.43245751 4.8121319
1.1205803 -0.43395379 4.8218203
1.1706108 -0.42331362 4.8278689
1.2235049 -0.42534605 4.8431668
1.2604935 -0.41402906 4.8437352
1.3117235 -0.42712817 4.8490486
1.0317118 -0.38453037 4.8052549
1.0694002 -0.37380731 4.8129625
1.1199937 -0.37511146 4.8224697
1.1717764 -0.36488274 4.8358364
1.2100006 -0.35395032 4.842267
1.0257089 -0.32036084 4.8083048
1.0685838 -0.31514162 4.8120193
1.1195985 -0.31635067 4.8235216
1.1721067 -0.31787369 4.8393669
1.209245 -0.31833243 4.8408465
1.0316503 -0.26795495 4.8101244
1.0685679 -0.26843458 4.8138199
1.121875 -0.27001554 4.8352399
1.1722362 -0.27078468 4.8417397
1.2105553 -0.28325963 4.8475428
0.98126125 -0.20887704 4.8000336
1.0179241 -0.22087812 4.8034811
1.0677085 -0.2215452 4.8114681
1.1208985 -0.22283822 4.8325796
1.1708922 -0.22341838 4.8377876
1.2217363 -0.22409903 4.8450608
0.98133594 -0.18566899 4.8010125
1.0215737 -0.17818753 4.8030491
1.0681288 -0.17494765 4.8146019
1.1202453 -0.17579231 4.8310013
1.1711323 -0.17638141 4.8400211
1.2219834 -0.17692004 4.8473005
1.0211238 -0.1238692 4.802
1.0675199 -0.12818497 4.8128138
1.1186604 -0.12869102 4.825099
1.1688042 -0.12904586 4.8313732
1.2207865 -0.12957577 4.8434858
0.98143035 -0.081167974 4.8033118
1.0132781 -0.085112475 4.8031554
1.0677183 -0.08153902 4.8143654
1.1188118 -0.081856914 4.8263865
1.167189 -0.086154699 4.8421464
1.2218542 -0.09427318 4.8482747
1.2589946 -0.094397232 4.8489375
0.98125976 -0.046320319 4.8027692
1.0132281 -0.03085993 4.8033123
1.0681926 -0.034875497 4.8168383
1.1185085 -0.03498283 4.8254104
1.1590538 -0.035148256 4.8426332
1.020891 0.023423638 4.8093405
1.0677792 0.023469821 4.8149738
1.118152 0.023562511 4.8238535
1.1589617 0.023675347 4.8422389
1.0220051 0.077696241 4.8066134
1.0668356 0.081744581 4.8102665
1.1191689 0.08218126 4.8278341
1.171815 0.082580909 4.8443499
1.2091591 0.094525099 4.8465824
1.0220366 0.12424607 4.8061128
1.0687006 0.12860687 4.8179665
1.1203701 0.12918335 4.8323183
1.167257 0.1256876 4.8417115
1.2093118 0.11813179 4.8468351
0.98154134 0.18596266 4.8017673
1.0198421 0.17494351 4.813478
1.0698998 0.17553607 4.8223934
1.1209539 0.17620908 4.8338127
1.1673341 0.17277826 4.8410234
0.98352277 0.22125998 4.8104534
1.0209763 0.22181249 4.8175836
1.0718085 0.2226792 4.8296361
1.1223258 0.22342271 4.8384261
1.1727803 0.22408584 4.8452682
0.97472286 0.26364717 4.8048635
1.0220431 0.26875696 4.820961
1.0728395 0.26979101 4.8326759
1.1225653 0.27047071 4.8378487
1.1616338 0.25958484 4.8487
0.93533474 0.30218893 4.8052063
0.97243434 0.32617766 4.8106542
1.0237466 0.31600159 4.8271551
1.0738991 0.3170093 4.8355689
1.1214774 0.31718737 4.8312306
1.1605451 0.31825244 4.841773
0.93524694 0.39509901 4.8002448
0.975806 0.38807896 4.8045616
1.0232543 0.37431267 4.82197
1.0730623 0.3753877 4.8289528
1.1203225 0.37160891 4.8341308
1.1611555 0.36557692 4.842073
0.93687022 0.43070671 4.8065615
0.97286296 0.43117845 4.8072863
1.0220422 0.43227357 4.8130035
1.0742154 0.43449369 4.8308163
1.1246855 0.42407852 4.8395762
0.97370487 0.47819164 4.8084955
1.0234272 0.47964722 4.8165722
1.0752738 0.48193103 4.8325725
1.1230959 0.48790881 4.846314
1.1645695 0.4848749 4.8493261
0.97356057 0.52476156 4.8045273
1.0244069 0.52692163 4.8178773
1.0767411 0.52964473 4.8358684
1.1277064 0.53149736 4.8455257
0.98536533 0.55982542 4.8010826
1.0347373 0.56131428 4.8072705
1.0746022 0.57556432 4.8226404
1.1287518 0.57926846 4.8463702
1.1660779 0.56836706 4.8495598
1.0787276 0.62494397 4.8372393
1.1177883 0.62702429 4.8480034
1.0817354 0.67397439 4.8465042
1.0820361 0.70963597 4.8444571
1.038918 0.7866385 4.8057065
1.0696384 0.7683568 4.8375864
1.0407327 0.84680164 4.8073921
1.0831041 0.81688869 4.8379669
1.0427568 0.88381851 4.8124466
1.0852392 0.86592293 4.841887
1.0474433 0.93512666 4.8280554
1.0740312 0.92579633 4.8392434
1.0493516 0.97239035 4.8321223
1.0520617 0.99867845 4.8413291
1.052634 1.0348953 4.8388844
1.0634503 1.0894164 4.8431468
1.056949 1.1227554 4.8461084
1.0626494 1.3209472 4.8392186
1.0388489 1.4413267 4.8202143
1.0436271 1.4841712 4.8348207
1.0478115 1.5264534 4.8464255
0.89636451 1.5883162 4.8175831
0.92080975 1.5889827 4.8164716
0.95066762 1.5987178 4.8427405
1.0486431 1.5640531 4.842237
0.73755062 1.6310774 4.8089261
0.78290743 1.6179829 4.8164077
0.81717259 1.6304369 4.8240967
0.86396778 1.6313796 4.8343787
0.91409457 1.6346256 4.8378391
0.96402586 1.6129168 4.8445621
1.013263 1.6019628 4.8440495
0.71837401 1.6729206 4.8068938
0.76444542 1.6734266 4.8161573
0.81479764 1.677974 4.8237286
0.86265928 1.6809716 4.8396497
0.67047095 1.7212783 4.8008618
0.71567333 1.7200911 4.8052855
0.76620865 1.725575 4.8154736
0.81677455 1.7304524 4.823565
0.87267065 1.717114 4.8415256
0.92019802 1.7308517 4.8496027
0.95645034 1.705933 4.8491716
0.66452914 1.7748047 4.804359
0.7183556 1.7748387 4.811173
0.76924723 1.7808822 4.8223605
0.81940567 1.7845984 4.8268824
0.87017834 1.764834 4.8395634
0.92072469 1.7684282 4.8431387
0.67029905 1.8237507 4.8050804
0.72092307 1.8296397 4.8157129
0.76718831 1.8300439 4.8237309
0.820889 1.8243263 4.8261585
0.87198663 1.8172872 4.8370094
0.92310894 1.8219265 4.8430219
0.68435323 1.8775321 4.8049202
0.7217021 1.8801597 4.8079472
0.77744466 1.8676147 4.8275552
0.82329071 1.8662716 4.8304968
0.87496126 1.8724407 4.8404455
0.92633271 1.8773887 4.846838
0.67782027 1.9263144 4.804297
0.72378731 1.9342682 4.8083191
0.77423012 1.9143389 4.8209643
0.82579142 1.9208754 4.8317084
0.87773263 1.9274914 4.8422937
0.91625583 1.9311032 4.8465567
0.68744057 1.9711809 4.8027382
0.72616506 1.9772608 4.8137608
0.77530468 1.965876 4.8138847
0.82767785 1.9743158 4.8288193
0.87956107 1.9807315 4.8383894
0.91829485 1.9723785 4.8468657
0.68103045 2.0167763 4.8036709
0.72761321 2.0178514 4.8124995
0.7786665 2.023468 4.8204765
0.83110291 2.0317464 4.8343863
0.88216352 2.0236063 4.8419113
0.920627 2.0144777 4.8483858
0.67892975 2.0675006 4.8045588
0.73470229 2.0794258 4.815989
0.78124499 2.0793715 4.8215723
0.83345354 2.0745602 4.8370142
0.87980705 2.0606399 4.8422904
0.92264074 2.0560396 4.8479552
0.73161465 2.1273391 4.8089781
0.77900106 2.1295841 4.8196125
0.83551651 2.1168587 4.837543
0.87212384 2.1032107 4.8338871
0.90100801 2.1377995 4.8452401
0.73417109 2.184166 4.81007
0.77256113 2.1757288 4.818634
0.81303948 2.1724491 4.8384376
0.86390585 2.1755056 4.8391089
0.69698143 2.2206469 4.8007693
0.73682338 2.2292202 4.8153296
0.77498996 2.2198038 4.8216419
0.81535554 2.2284374 4.8360186
0.8627277 2.2287807 4.8414969
0.6995368 2.2659521 4.805933
0.72510958 2.2684968 4.8087029
0.76440907 2.2747557 4.8177977
0.81678355 2.2822058 4.827724
0.87341958 2.2682285 4.8425107
0.90909094 2.2824099 4.8477058
0.71850157 2.319252 4.8049459
0.76639473 2.3305669 4.8132453
0.81353188 2.3305595 4.8178725
0.86998045 2.3160343 4.8314075
0.91910601 2.3283761 4.8407845
0.83124185 2.3627474 4.8117766
0.87393498 2.3613775 4.8135924
0.9223398 2.3719888 4.8189754
0.97634363 2.3813045 4.8307228
1.0347215 2.3858991 4.8417778
1.0788236 2.3977742 4.8182197
1.1350549 2.3925962 4.8186588
1.1860757 2.3852844 4.8358889
1.225009 2.3869724 4.8323431
1.2791144 2.3932171 4.8352771
1.3550078 2.3924129 4.818264
1.4094274 2.3984344 4.8195448
1.388664 2.4066508 4.8415537
1.4377059 2.4030714 4.8232565
1.4619422 2.4009085 4.813199
1.540073 2.4033136 4.8001523
1.6078448 2.4026403 4.847434
1.2765884 -0.45103711 4.8557382
1.333805 -0.47016084 4.8587937
1.3821857 -0.4664773 4.8749776
1.4342721 -0.46783471 4.880054
1.482071 -0.47304133 4.8834505
1.5131538 -0.46996692 4.8876009
1.2881438 -0.41530704 4.8545804
1.3343706 -0.41341206 4.8719192
1.3814666 -0.41839221 4.8753352
1.4314327 -0.41617504 4.8879447
1.4632185 -0.43329775 4.8940248
1.2297205 -0.37087259 4.8545222
1.2760787 -0.36778092 4.8584604
1.3292005 -0.36932796 4.8705311
1.3829862 -0.37095383 4.8832769
1.4363136 -0.37235779 4.8925099
1.4741509 -0.38484198 4.8906269
1.239248 -0.31998837 4.8620291
1.2755243 -0.32016152 4.8585434
1.3311659 -0.32212442 4.8800268
1.3841527 -0.3233538 4.8896394
1.4316616 -0.32815737 4.8931751
1.2292455 -0.26816091 4.8570867
1.2779068 -0.27321813 4.8694534
1.3295925 -0.27407253 4.876173
1.3819838 -0.27498701 4.883904
1.4216192 -0.27570352 4.8899193
1.2745492 -0.22507644 4.8582492
1.3273373 -0.22597699 4.8695021
1.3825102 -0.2272111 4.8873749
1.4356096 -0.22803694 4.8959417
1.2743706 -0.1776315 4.85886
1.327795 -0.1784323 4.8724813
1.3824443 -0.17932956 4.8883991
1.4314121 -0.18397397 4.8972993
1.2761281 -0.13039485 4.8665466
1.3277994 -0.1308026 4.873477
1.38394 -0.1316006 4.8947635
1.4340503 -0.1317949 4.8929377
1.1859154 -0.070639729 4.8522553
1.2240306 -0.07079047 4.8571496
1.277743 -0.078823477 4.8576951
1.3273109 -0.083154306 4.8723063
1.3831544 -0.083635874 4.8926263
1.4343269 -0.083817512 4.8945732
1.4728256 -0.083954558 4.8957062
1.1855327 -0.035233028 4.850914
1.2246358 -0.035335716 4.8597894
1.2751758 -0.035412185 4.8639412
1.3271141 -0.035520382 4.8719826
1.3802984 -0.035660386 4.8828869
1.4324684 -0.035758954 4.8885641
1.4735664 -0.047906514 4.8984809
1.186622 0.02377213 4.8553619
1.2242869 0.023819393 4.8584085
1.2749749 0.023885043 4.8631482
1.3294631 0.024025075 4.8805304
1.3850653 0.019355804 4.8908353
1.4219675 0.024202203 4.8960714
1.228882 0.079065688 4.8598781
1.2752631 0.083208084 4.8638449
1.3304198 0.083699368 4.8836498
1.3842099 0.084071264 4.896245
1.422471 0.096222311 4.8971891
1.1858568 0.14173935 4.850841
1.2286919 0.13425103 4.8583283
1.2787402 0.13100454 4.876338
1.331516 0.13153695 4.886898
1.3839443 0.13198453 4.8945799
1.4216696 0.12016124 4.8940587
1.1864206 0.18902461 4.852046
1.2245715 0.17761683 4.8572893
1.2773188 0.17840192 4.8698745
1.330743 0.17918974 4.883049
1.3831511 0.17980106 4.8906975
1.4232152 0.18034539 4.8980904
1.2251717 0.22505462 4.8583031
1.2790853 0.22622675 4.8752222
1.3324039 0.22721413 4.8877854
1.3883514 0.22391839 4.8929534
1.422766 0.21630128 4.8955507
1.1787791 0.27564022 4.8514047
1.2260596 0.27260464 4.8602276
1.2788227 0.27376476 4.8726182
1.3301126 0.27454045 4.8776684
1.3807765 0.27992988 4.8939672
1.1885087 0.31943762 4.8559604
1.2281584 0.32052821 4.8665571
1.2806492 0.32180718 4.8776045
1.3337758 0.32313231 4.8891077
1.3860633 0.32418889 4.8959351
1.1882267 0.36665696 4.8525515
1.2280705 0.36796659 4.8639383
1.2818249 0.36979565 4.8797703
1.3343805 0.37116778 4.889051
1.3828111 0.37639025 4.8968234
1.1397524 0.44893703 4.8503804
1.1742345 0.41062424 4.860074
1.2167299 0.4037365 4.8662
1.1402967 0.47278401 4.8511872
1.1662567 0.45005399 4.858664
1.1794653 0.53355157 4.8567076
1.2291332 0.54642111 4.8569193
1.2678536 0.54776454 4.8626728
1.1856118 0.58600515 4.8610687
1.2319163 0.58336216 4.8649817
1.2725074 0.58563721 4.8776913
1.3030515 0.57661867 4.8994417
1.3643286 0.57715499 4.8928919
1.1445712 0.62876511 4.8575983
1.1833537 0.63046151 4.8650489
1.2340343 0.63205934 4.8693776
1.2822503 0.63029426 4.8793139
1.3154112 0.63083482 4.8939953
1.1332204 0.67648423 4.8572769
1.1837426 0.67824745 4.8623152
1.2314413 0.68449658 4.87081
1.2682298 0.67919093 4.8852272
1.3049179 0.68569481 4.8970051
1.0841241 0.73470235 4.8514328
1.1348089 0.72497135 4.8594885
1.1856884 0.72703815 4.8656526
1.2336069 0.72556227 4.875526
1.2688395 0.73547632 4.8820863
1.3047289 0.73370123 4.8915663
1.0979979 0.77168322 4.8549376
1.1238024 0.77311063 4.8602419
1.1640902 0.77618724 4.8738914
1.215243 0.77837086 4.879745
1.2669506 0.78072953 4.8862634
1.3068337 0.78305483 4.894393
1.1258838 0.82219255 4.8639736
1.1646912 0.82436371 4.8711143
1.2168553 0.82735765 4.8808498
1.2699008 0.83070683 4.8922577
1.1280463 0.87152576 4.8677073
1.1661842 0.87328041 4.871726
1.2184681 0.87647331 4.8816409
1.272701 0.88078588 4.8973317
1.1158072 0.91901433 4.862216
1.1686934 0.9230994 4.8762445
1.2210405 0.92644751 4.8859272
1.2737039 0.9297778 4.8951297
1.0782415 0.97708625 4.8519206
1.1191368 0.969634 4.8704467
1.169471 0.97169411 4.8731751
1.2218785 0.97523487 4.8828945
1.2635314 0.97954667 4.8982544
1.0809927 1.01543 4.8593154
1.1208678 1.0191031 4.8714037
1.170274 1.0203781 4.8698187
1.2250056 1.0139296 4.8903675
1.2644398 1.0165529 4.8967485
1.0817783 1.0639672 4.8559179
1.1203061 1.0665052 4.8619814
1.1755209 1.073167 4.8845582
1.2293416 1.090204 4.8970861
1.0718877 1.1378764 4.8559904
1.1237552 1.1178758 4.8695765
1.1763585 1.1222134 4.8807206
1.2293493 1.1265482 4.8914833
1.0730424 1.1750852 4.8554034
1.1272316 1.1695657 4.8769445
1.1782893 1.1723917 4.8810062
1.2186182 1.1763437 4.8913565
1.0795383 1.2178684 4.8593431
1.1295102 1.2202466 4.8787313
1.1791282 1.2216231 4.8763857
1.2225329 1.22879 4.8988857
1.0744344 1.2706797 4.8572145
1.1301014 1.2692348 4.8728523
1.183282 1.274462 4.8850017
1.2239664 1.2789478 4.8960752
1.2504318 1.2933127 4.8979411
1.3271005 1.2967259 4.897562
1.0919155 1.315279 4.8611908
1.1324524 1.3203254 4.8741574
1.172966 1.3250818 4.8857961
1.2146544 1.3430097 4.898489
1.2512709 1.3308167 4.8944588
1.303248 1.321804 4.8998513
1.0821015 1.3663816 4.8639803
1.1342189 1.3709272 4.8725986
1.1750858 1.376188 4.8853688
1.2150996 1.380157 4.8932571
1.2542137 1.3706514 4.8990002
1.082027 1.4158993 4.8737483
1.1245587 1.4225789 4.8756862
1.1682929 1.4305671 4.8817291
1.2063305 1.4453379 4.8971777
1.2566527 1.4223642 4.8988676
1.0863723 1.4688761 4.8636956
1.1249548 1.471735 4.8674765
1.1668289 1.4785666 4.8840694
1.2075295 1.4835691 4.8944192
1.0775104 1.5220835 4.8701315
1.1183375 1.5279584 4.8832121
1.1716676 1.533779 4.8938732
1.0807939 1.5755723 4.8742323
1.1210353 1.5806564 4.8841629
1.1734766 1.5853217 4.8905764
1.2134848 1.5771266 4.8998656
0.97889143 1.6296151 4.8537011
1.0165386 1.6314805 4.854043
1.0696877 1.6260954 4.8699255
1.1249688 1.6353856 4.8900595
1.1763144 1.6261036 4.8939762
1.2154295 1.6166856 4.8993006
0.91837806 1.6787591 4.8518667
0.9684267 1.6690167 4.855247
1.0202314 1.6740836 4.8629756
1.0726655 1.6796645 4.8718953
1.122095 1.6823086 4.8854184
1.1746445 1.6624016 4.8971119
0.91949922 1.7051747 4.8519111
0.97515917 1.7265371 4.855145
1.0230658 1.7277346 4.864573
1.0757712 1.7337228 4.8740234
1.1328205 1.7189747 4.8869987
1.1768694 1.7232746 4.8924041
0.97414923 1.7769219 4.8596954
1.0251889 1.7804661 4.8623304
1.074158 1.7829428 4.8745928
1.1319711 1.7692884 4.8904152
1.1802483 1.7695866 4.8961616
0.97661912 1.8305682 4.8592825
1.0239668 1.8306147 4.8648839
1.0844049 1.819225 4.8739352
1.1292876 1.8169829 4.8856254
1.1506038 1.8412093 4.8991303
0.97514302 1.8806623 4.8608279
1.0349823 1.8685436 4.8681459
1.0843954 1.8715765 4.8809423
1.1253121 1.8778441 4.8913789
1.1511781 1.8670247 4.8949323
0.94276315 1.9350314 4.8530917
0.98637789 1.9194099 4.865582
1.0348291 1.9211596 4.8749671
1.0741694 1.9250662 4.8791895
1.1028941 1.9318669 4.8925543
0.94577301 1.9782987 4.8580608
0.98038274 1.9651093 4.8663034
1.0167184 1.9798375 4.8750801
1.0647397 1.9802859 4.8806763
1.1051308 1.973261 4.8919015
0.94876683 2.0093718 4.8662481
0.96747708 2.0304706 4.8699813
1.0125571 2.0295105 4.8841128
1.0681694 2.0241351 4.8855
1.1064242 2.000581 4.8904171
0.91419756 2.0897856 4.8629675
0.96522135 2.0801229 4.8663778
1.0233203 2.0677154 4.8846021
1.0688032 2.0751164 4.8956695
1.1644799 2.0900762 4.8936305
0.87728572 2.1405542 4.8547368
0.92038679 2.1277125 4.8630013
0.96367717 2.1315699 4.8660841
1.0220842 2.1196628 4.8852158
1.0759037 2.126925 4.8942294
0.91338372 2.1806974 4.8552742
0.97324228 2.1676462 4.8605838
1.0247567 2.1755137 4.8821249
1.0665742 2.1839499 4.8952789
0.92355347 2.2184553 4.8530726
0.97468382 2.2263055 4.8743191
1.0276926 2.2322094 4.8798156
1.0817051 2.2269731 4.8923426
0.92644048 2.2672136 4.8542781
0.97786045 2.2840009 4.8733096
1.0291462 2.2732651 4.8741207
1.0834231 2.2685316 4.8874412
0.9370442 2.3146086 4.8505783
0.97401994 2.3311961 4.8599644
1.0324845 2.3186595 4.8769407
1.0820578 2.3211474 4.8852487
1.1182731 2.3344955 4.8869948
1.1552887 2.3492546 4.8913469
0.99190664 2.3505793 4.8568983
1.0340784 2.3602865 4.8711782
1.0835623 2.3837998 4.8712564
1.1174239 2.3751681 4.8684077
1.1684006 2.3754802 4.881505
1.22437 2.3850501 4.8919792
1.2691897 2.3894463 4.8716731
1.3831922 2.3807793 4.8839865
1.47453 2.3958142 4.8641348
1.5088155 2.3835316 4.895349
1.6831691 2.3921304 4.8718119
1.3254473 2.4080267 4.8575649
1.4258308 2.4005306 4.885098
1.453986 2.4044232 4.8873744
1.5609719 2.4100072 4.8749189
1.5310979 -0.4596726 4.9047365
1.569169 -0.46945652 4.9154162
1.6242478 -0.46205592 4.9117928
1.4777433 -0.40990329 4.9012399
1.5185944 -0.42324942 4.9080973
1.5742683 -0.42520875 4.920548
1.626946 -0.426238 4.9221129
1.4799393 -0.36219364 4.9110546
1.5198045 -0.37516093 4.9146318
1.5744774 -0.37663341 4.9238367
1.6156957 -0.37775195 4.9303756
1.4691893 -0.32134178 4.9055033
1.5186292 -0.32647538 4.9131474
1.5756764 -0.32826427 4.9299183
1.6166363 -0.32916039 4.935585
1.4499297 -0.26449302 4.9002328
1.4680338 -0.28092411 4.9032736
1.5185522 -0.27806157 4.9148388
1.5769093 -0.27981782 4.9357748
1.6174688 -0.28051031 4.9401379
1.4764419 -0.228773 4.9047222
1.5185932 -0.22967155 4.9166512
1.5736718 -0.23063287 4.9272623
1.6152203 -0.23136558 4.9349489
1.4491247 -0.1681481 4.9003005
1.4776719 -0.18071859 4.9101295
1.5177591 -0.18117879 4.9152937
1.5729401 -0.18195683 4.9263535
1.6162846 -0.1827174 4.9395528
1.4759085 -0.13231412 4.9052715
1.5170287 -0.13273963 4.9139209
1.5727484 -0.13335617 4.9267855
1.611866 -0.13357048 4.9270716
1.5203097 -0.084575847 4.9252501
1.5726112 -0.084770754 4.9270515
1.6148354 -0.07288412 4.9369798
1.4762515 -0.023893451 4.9075079
1.5198303 -0.036112025 4.924058
1.573985 -0.036233548 4.9317269
1.6131097 -0.03628825 4.931942
1.3727331 0.048139405 4.9007134
1.4490343 0.024258005 4.9017348
1.4780906 0.024339622 4.9135604
1.5195879 0.024427459 4.9232736
1.5724378 0.024510011 4.9268546
1.6132092 0.024577925 4.9322357
1.4232061 0.072253041 4.9000125
1.4643884 0.084565036 4.9099641
1.5185204 0.084902748 4.9193134
1.5725584 0.085230887 4.9267859
1.6146455 0.085550569 4.936141
1.4240153 0.14439228 4.9016809
1.464147 0.13275535 4.9084201
1.5194999 0.13338563 4.9216838
1.5753319 0.13403866 4.9346485
1.6186678 0.13460712 4.9476676
1.4656729 0.18114299 4.912477
1.5210495 0.18200806 4.9256272
1.5761454 0.18277612 4.9361281
1.6179655 0.18339339 4.9444222
1.3738198 0.24014246 4.9006834
1.424408 0.24059065 4.9004312
1.4662189 0.22947615 4.9128981
1.5209358 0.23046005 4.9239202
1.5780187 0.23174402 4.9405618
1.3994402 0.26445022 4.900979
1.4260569 0.27697104 4.904789
1.4688122 0.27823991 4.9198284
1.5236468 0.27944022 4.9309602
1.5794464 0.28073224 4.9432988
1.6206491 0.29377663 4.9489584
1.4264777 0.32520109 4.9042177
1.4686581 0.32655355 4.9173069
1.5233762 0.32793546 4.9280338
1.577691 0.32914728 4.93574
1.6292257 0.32647273 4.9469643
1.4136062 0.36109778 4.9019194
1.4675484 0.36254144 4.9118357
1.5243951 0.36459506 4.9295568
1.5786897 0.3659324 4.9371233
1.6212677 0.36730373 4.9474692
1.3287653 0.57736033 4.90137
1.4120636 0.58197135 4.9267478
1.3294283 0.60171068 4.901854
1.3683753 0.61503267 4.9043236
1.4262958 0.61924493 4.9285932
1.4792473 0.62111175 4.9336462
1.5320801 0.62280655 4.9368882
1.5724642 0.61206836 4.9420018
1.3321364 0.68733567 4.9043074
1.3701355 0.66411376 4.9063721
1.4242487 0.66684413 4.9172134
1.4800551 0.67017841 4.9319878
1.5186648 0.67109716 4.9311934
1.3327885 0.73591167 4.9019556
1.3708301 0.72127676 4.9126425
1.4272876 0.71686208 4.9230437
1.4814212 0.71957207 4.931829
1.5242136 0.71028095 4.9457049
1.3350337 0.78549248 4.9051204
1.3738778 0.77486396 4.9089255
1.4297714 0.7667771 4.9266338
1.4839925 0.76966178 4.9353013
1.324496 0.83477569 4.9075561
1.3769708 0.82515752 4.9146237
1.4267952 0.81375962 4.9110646
1.4745369 0.82008374 4.94174
1.5034405 0.83476883 4.9499283
1.3256332 0.88391435 4.9059963
1.3838855 0.86739165 4.9193077
1.4279217 0.86138773 4.9244509
1.4676288 0.87383336 4.9413552
1.5113869 0.86735386 4.9435401
1.3282406 0.93417776 4.909523
1.3792717 0.92050588 4.9207449
1.4355154 0.91647339 4.9293156
1.4768229 0.91938895 4.9375772
1.5060229 0.92227197 4.9479394
1.289665 0.98104382 4.9014082
1.3315063 0.98512834 4.9151206
1.3887821 0.96805215 4.9242439
1.425102 0.96658671 4.931633
1.4603318 0.96423101 4.9344764
1.2285891 1.0411193 4.9012823
1.2845564 1.0359064 4.9067626
1.3305768 1.0321277 4.921205
1.3738986 1.0138263 4.9262023
1.4153154 1.0172607 4.9357653
1.4553421 1.0195522 4.9396167
1.2296156 1.0662215 4.9018373
1.2815137 1.0812529 4.9047685
1.338418 1.0787115 4.9182234
1.3761903 1.064445 4.9273524
1.4165862 1.0672345 4.9330711
1.4607499 1.0849897 4.9489608
1.2829387 1.1311039 4.9027109
1.3244162 1.1354167 4.9146986
1.36788 1.1173269 4.9202471
1.4187946 1.118035 4.9332895
1.4693302 1.1263601 4.9421191
1.2470713 1.1803304 4.9037285
1.2864816 1.1830057 4.9083638
1.3272936 1.186799 4.9174485
1.3685942 1.1662674 4.9311357
1.4212035 1.1691712 4.9338064
1.4758945 1.1735384 4.9422531
1.516788 1.1765313 4.9471006
1.2485449 1.2304554 4.9013124
1.2825388 1.2278386 4.9020371
1.3190238 1.2397003 4.9094701
1.3691463 1.215842 4.9249353
1.4230305 1.2276088 4.9463062
1.2678462 1.2782053 4.9024048
1.3114027 1.2810053 4.9057708
1.372143 1.2677193 4.9270821
1.4282331 1.2738819 4.94133
1.468592 1.2767391 4.9448624
1.21398 1.3178577 4.900321
1.2798791 1.3351873 4.9062128
1.3333912 1.3274546 4.9162388
1.3728001 1.3176018 4.9205585
1.4252015 1.320228 4.9376559
1.2706763 1.3875049 4.9107695
1.3224231 1.3656834 4.9163961
1.3784368 1.3724785 4.9313984
1.4484642 1.367891 4.9497428
1.2237892 1.430329 4.9021773
1.2839342 1.4131494 4.9074917
1.3257929 1.4184761 4.9191523
1.3832082 1.4268496 4.9387369
1.4263037 1.4452363 4.9493761
1.2342049 1.4738796 4.9013538
1.2740061 1.4650143 4.9087362
1.3279026 1.4701828 4.9169717
1.3836839 1.4769807 4.9302368
1.4287798 1.4976677 4.9476109
1.4537396 1.4727166 4.9478002
1.229363 1.5189584 4.9074378
1.2793264 1.520558 4.9187698
1.3340603 1.52666 4.9292998
1.3742806 1.5300033 4.9329648
1.4121157 1.5309033 4.9436588
1.4818678 1.5008973 4.9479861
1.2319359 1.5632664 4.9086699
1.2812517 1.5723814 4.9153442
1.3251367 1.580451 4.9337215
1.3658605 1.5844064 4.9388776
1.4231173 1.5671415 4.9440241
1.2440543 1.6218368 4.9105816
1.2829099 1.6240066 4.9104738
1.3242964 1.6292036 4.9192553
1.3645954 1.6335818 4.9396887
1.4209466 1.6027317 4.944294
1.1955861 1.685196 4.9088802
1.2305137 1.6712632 4.9146881
1.2753513 1.679987 4.919745
1.3166797 1.6851014 4.9278531
1.3598871 1.6797603 4.9447441
1.195842 1.710346 4.9039297
1.2232357 1.7264403 4.9070787
1.26551 1.720829 4.9230242
1.3239884 1.7183089 4.9317241
1.3625717 1.7207675 4.9453726
1.2181281 1.7848916 4.9077287
1.2704049 1.7650409 4.9327097
1.3230233 1.7684877 4.933022
1.3743162 1.7795488 4.9421873
1.1761792 1.8298697 4.9011641
1.2178257 1.8238389 4.9153333
1.272881 1.8186574 4.9294748
1.3277893 1.8252225 4.9378514
1.3822391 1.8306617 4.9427242
1.1721526 1.8906847 4.9059691
1.2213472 1.8667295 4.9196267
1.2759416 1.8733337 4.9280005
1.3200908 1.8825529 4.9451771
1.3855712 1.8730356 4.9445925
1.131229 1.9252188 4.9068322
1.1709882 1.9289422 4.9100714
1.2239867 1.9209876 4.9165688
1.2757939 1.9255127 4.9317756
1.1360148 1.9710374 4.9169979
1.1749132 1.9731324 4.9158874
1.223685 1.9733166 4.9200301
1.2870358 1.9634439 4.9315991
1.3246055 1.9650578 4.9410219
1.1303509 2.0302773 4.9143453
1.1737026 2.0243552 4.9157887
1.2344172 2.0133629 4.9369526
1.2681832 2.0243289 4.9468656
1.3031859 2.0218658 4.9461279
1.3564006 2.0126534 4.9487171
1.0861229 2.0595117 4.900847
1.1280031 2.0798562 4.9093294
1.1863855 2.0653379 4.9219975
1.224381 2.0684483 4.934804
1.2614566 2.0695121 4.9426436
1.3044852 2.0620611 4.9397755
1.1294079 2.1202917 4.9038324
1.1888623 2.1203706 4.9168897
1.2260575 2.1221123 4.9260745
1.2637759 2.124295 4.9361815
1.0962391 2.1801114 4.915175
1.1350439 2.1689405 4.9163423
1.1744332 2.1714673 4.9156356
1.216675 2.1788695 4.9257021
1.3132725 2.1528502 4.9494696
1.0956608 2.2043025 4.9044495
1.1231732 2.221292 4.9057279
1.1670792 2.2324541 4.9238968
1.2212989 2.2254934 4.932024
1.2630278 2.2186866 4.9425278
1.12677 2.2793601 4.9045472
1.1650113 2.2834911 4.9183097
1.2233398 2.2677059 4.9276752
1.278326 2.2743783 4.9327073
1.3206443 2.2809334 4.9395256
1.1742278 2.3189547 4.9081626
1.225414 2.3229001 4.9186053
1.2809243 2.3305306 4.9252319
1.321381 2.333796 4.9246559
1.3674541 2.3335176 4.9481745
1.4224534 2.3387208 4.9484601
1.1856476 2.3588691 4.9068952
1.2261037 2.3627331 4.9080019
1.2791538 2.3658812 4.9049268
1.3218243 2.3861692 4.9081421
1.3658237 2.3695974 4.9287505
1.423092 2.3672364 4.9226465
1.4749287 2.3785391 4.9252405
1.5303557 2.3709397 4.9293528
1.5756803 2.3803892 4.9398565
1.631025 2.3848538 4.9364686
1.7353812 2.3842793 4.9084988
1.5716817 2.4004452 4.9179158
1.6222726 -0.097705148 4.9594483
1.6224201 0.23288572 4.9566054
1.6357591 0.28205591 4.9553781
1.6631206 0.28253821 4.958395
1.7216024 0.2964341 4.9735813
1.7789304 0.29778129 4.9840765
1.648852 0.3434864 4.9525418
1.6776717 0.33209008 4.960237
1.71954 0.33305684 4.966023
1.7770238 0.33461061 4.977066
1.8233194 0.33631533 4.9930143
1.6489006 0.36801532 4.9514742
1.6767154 0.36874625 4.9556217
1.7208519 0.37032363 4.9680519
1.7779909 0.37195948 4.9779081
1.8264089 0.37428272 4.9996343
1.576408 0.63813967 4.9522705
1.617811 0.6399641 4.9582481
1.6781807 0.64425981 4.9802222
