ply
format ascii 1.0
comment PCL generated
element vertex 1478
property float x
property float y
property float z
element camera 0
property float view_px
property float view_py
property float view_pz
property float x_axisx
property float x_axisy
property float x_axisz
property float y_axisx
property float y_axisy
property float y_axisz
property float z_axisx
property float z_axisy
property float z_axisz
property float focal
property float scalex
property float scaley
property float centerx
property float centery
property int viewportx
property int viewporty
property float k1
property float k2
end_header
1.0123875 0.11970273 1.0132076
0.66130346 0.17737806 1.0187804
1.2422208 0.19238433 1.0388184
1.2585425 0.1921618 1.0193065
0.480306 0.23182748 1.0282435
0.50188684 0.22772221 1.0037981
0.55577785 0.20804793 1.0022774
0.64729851 0.23446353 1.0161326
0.66694057 0.210912 1.021655
0.7123971 0.20858163 1.0197059
0.98784631 0.23758748 1.0215061
1.0060683 0.23245996 1.0233817
1.2373704 0.22650397 1.0377917
1.257995 0.22391388 1.01412
0.44973025 0.25399169 1.0490766
0.47728056 0.27503416 1.0281491
0.50240999 0.27251831 1.0055306
0.58557928 0.28350607 1.0187305
0.6381368 0.27590132 1.0228047
0.65200806 0.28804633 1.0475985
1.2250834 0.25184169 1.0265846
1.2503037 0.2519241 1.0017121
0.44273505 0.33431447 1.045607
0.4777247 0.31934643 1.0317776
0.50767142 0.33041906 1.0139881
0.59005177 0.31334966 1.0095508
0.62707156 0.31937391 1.0191225
1.1687011 0.3093437 1.0178381
1.2912302 0.34467766 1.0354035
1.3020817 0.3426649 1.0110229
0.41963363 0.38290304 1.0129902
0.46767092 0.36540908 1.0116155
0.52307731 0.37290144 1.0143633
1.2977661 0.36250076 1.0432421
1.3107777 0.37554955 1.0271654
0.34261066 0.43925092 1.0079962
0.37052774 0.42031327 1.0265211
0.40364677 0.40351811 1.0297323
0.53847677 0.41110682 1.0053215
1.321306 0.42492709 1.0298343
1.3282049 0.47481054 1.0287195
1.3257728 0.5233174 1.0274801
1.2388154 0.592686 1.0438666
1.2737982 0.58994019 1.0259736
1.3141342 0.57037681 1.0274954
-1.4547755 -0.51207554 1.0859141
-1.4132447 -0.51207405 1.0828593
-1.3707902 -0.50805783 1.0804716
-1.3275207 -0.50784296 1.0792363
-1.2732043 -0.50491107 1.0791589
-1.2320249 -0.50536573 1.0828269
0.78270721 -0.51155722 1.0706249
0.82514167 -0.51077658 1.0729079
0.87041253 -0.5049389 1.0700586
0.90440774 -0.50219917 1.0589727
-1.167304 -0.49601233 1.0686771
-1.1264673 -0.49360847 1.0782627
-1.075232 -0.48816669 1.0737848
-1.0244274 -0.48775598 1.0749366
-0.97329849 -0.48442805 1.0747105
-0.92381185 -0.48144469 1.0740166
-0.87894392 -0.48233694 1.0786117
-0.82576042 -0.48355079 1.0735147
-0.77538103 -0.48522943 1.0750548
-0.72687423 -0.48630521 1.0743251
-0.67422491 -0.48700342 1.0755948
-0.62596476 -0.48748386 1.071853
-0.57409579 -0.48769253 1.0759432
-0.52405918 -0.48714542 1.0750986
-0.47498378 -0.48755336 1.0710928
-0.42305106 -0.48889679 1.0754793
-0.37631014 -0.48906565 1.0750786
-0.32718715 -0.48914409 1.0753113
-0.27519774 -0.48941544 1.0754827
-0.22286248 -0.49053073 1.0762879
-0.17460023 -0.49042195 1.0747272
-0.12532614 -0.49062347 1.0774916
-0.075418167 -0.4902246 1.0753075
-0.025363576 -0.48949957 1.0746641
0.023711691 -0.4890925 1.0731827
0.072731137 -0.48790938 1.0713214
0.12567265 -0.48709449 1.0762844
0.17603651 -0.4844996 1.0762424
0.22536011 -0.48405677 1.0737262
0.27664942 -0.47601587 1.075309
0.32314968 -0.47101519 1.0696276
0.36752808 -0.47447014 1.0567217
0.88939333 -0.49768522 1.0891839
0.92776603 -0.47802246 1.0774205
0.95576072 -0.46850011 1.0560318
0.28094265 -0.42517743 1.0784892
0.31341398 -0.42724571 1.0577077
0.93897921 -0.42603168 1.086682
0.96186382 -0.42589897 1.0622853
0.28401497 -0.37836686 1.0824356
0.31337422 -0.37063193 1.0605776
0.9407928 -0.37464333 1.0895903
0.96331745 -0.37652427 1.0653906
0.29765335 -0.34586096 1.0954045
0.32833704 -0.33413985 1.0744979
0.36833268 -0.31361997 1.0662715
0.40026268 -0.30177283 1.0521632
0.9409923 -0.32267448 1.0900745
0.96414608 -0.32570884 1.0651013
0.38748628 -0.29091072 1.0810937
0.41983309 -0.26971731 1.0673227
0.45074114 -0.25436157 1.0518733
0.57907301 -0.25222552 1.051564
0.94105279 -0.27663305 1.0902444
0.96340531 -0.27440983 1.0650998
0.43359163 -0.22680229 1.08113
0.46043095 -0.21988593 1.0617656
0.94168913 -0.22664009 1.0887909
0.96297818 -0.22266811 1.0643295
0.44207814 -0.1783357 1.0875
0.4639858 -0.17446107 1.0649416
0.94015968 -0.17392722 1.0883753
0.96202368 -0.17553346 1.0645912
0.44142789 -0.13217317 1.0849904
0.46512765 -0.11940988 1.0643408
0.58072907 -0.12635522 1.0534221
0.66082519 -0.10349888 1.0703042
0.93831366 -0.12552401 1.0893499
0.9622345 -0.12519969 1.0626314
0.44956613 -0.093980446 1.0971596
0.47502992 -0.07674519 1.0747226
0.50450623 -0.05786366 1.054191
0.59401542 -0.07300701 1.0532688
0.60730922 -0.067454174 1.0668544
0.93834054 -0.073850237 1.0873992
0.96103197 -0.074661307 1.0610088
0.48773715 -0.032792658 1.0873262
0.51859313 -0.022739733 1.0631111
0.58929819 -0.021223852 1.053571
0.61379886 -0.022691071 1.06501
0.93625814 -0.024458768 1.0860295
0.95968163 -0.025276152 1.0596792
0.49717781 0.0019563378 1.0985882
0.52698904 0.020031229 1.0786211
0.57282084 0.022685707 1.0608585
0.62059319 0.025936397 1.078305
0.93547255 0.023408627 1.0856236
0.95683569 0.020909637 1.0610474
0.53810412 0.060477506 1.0912503
0.57412517 0.072751969 1.0829394
0.61928672 0.073477179 1.0885553
0.93502045 0.073720068 1.0823652
0.95733917 0.076356627 1.0591599
0.58264369 0.10527597 1.0976745
0.60621583 0.10549526 1.0971591
0.67274189 0.13718434 1.068284
0.9327355 0.11310906 1.0846018
0.95776176 0.11267012 1.0586022
1.0097566 0.13134466 1.0520581
0.5829978 0.1955166 1.0989654
0.67229784 0.16717491 1.0583291
1.1937487 0.19262072 1.0902659
1.2206931 0.19064787 1.0706413
1.2525766 0.18570477 1.0829984
0.39650807 0.22665012 1.0961339
0.4297716 0.23175275 1.0753227
0.45658365 0.22769979 1.0551738
0.61976463 0.22552012 1.0790899
0.66473162 0.21884502 1.0630498
0.94064486 0.23151807 1.0867478
0.97358024 0.23579653 1.0698456
1.0025582 0.23090209 1.0543238
1.1884898 0.22984235 1.0870345
1.2136546 0.22386627 1.0650667
0.42661685 0.27465308 1.0775787
0.45458442 0.2807 1.0559949
0.62728876 0.27938765 1.0678352
0.65391243 0.27248889 1.0732517
1.1938943 0.25124469 1.0525455
0.39874125 0.31907472 1.0950383
0.42690119 0.32420892 1.0771917
0.45798185 0.33540997 1.0557796
0.50405622 0.34640357 1.0542846
0.65708727 0.31258386 1.0793006
1.2699695 0.34696302 1.0720046
0.42747504 0.37549314 1.0807549
0.48347852 0.36905742 1.0690866
0.5158428 0.37450433 1.0632424
1.2793349 0.37594685 1.0690051
1.3013799 0.39602649 1.0509672
0.39591759 0.41685823 1.0626866
0.41050187 0.40910494 1.0776619
1.2875791 0.42412511 1.0751811
1.3056742 0.43138772 1.0553417
1.2876514 0.47535267 1.0769802
1.3046825 0.47466779 1.0554576
1.286502 0.52376896 1.0810003
1.3084399 0.52877855 1.0607516
1.2420053 0.59485799 1.0702965
1.277068 0.57340783 1.0737092
1.3078883 0.5612095 1.0537856
1.2339392 0.6014694 1.0701616
-1.5016271 -0.50586927 1.143507
-1.4585205 -0.50973475 1.135419
-1.4140966 -0.50852239 1.1233715
-1.3696532 -0.50791568 1.1284136
-1.3302872 -0.50446671 1.130091
-1.2755442 -0.50368422 1.1261678
-1.2329019 -0.50312662 1.111539
-1.1720423 -0.50028539 1.1001177
0.79409039 -0.50514281 1.1057582
0.82351828 -0.50448287 1.1149659
0.85916775 -0.50076252 1.1105077
-1.2143074 -0.49836725 1.1164948
-1.1775146 -0.49515596 1.1283145
-1.1214061 -0.48882061 1.1268181
-1.0761478 -0.49213046 1.1284771
-1.0205443 -0.48529083 1.1250786
-0.97512704 -0.4821277 1.122382
-0.92810708 -0.48044854 1.1289773
-0.87685341 -0.48073274 1.1247549
-0.82804286 -0.48375961 1.1264652
-0.77728248 -0.48378646 1.1245295
-0.72695506 -0.48648393 1.1275051
-0.67584807 -0.48722821 1.1252555
-0.62273073 -0.48628888 1.118592
-0.57811761 -0.48634079 1.1223568
-0.52463847 -0.4872261 1.1246191
-0.47481087 -0.48757514 1.1208223
-0.42528674 -0.48824343 1.1245763
-0.37628779 -0.48952717 1.1244702
-0.32324171 -0.48970821 1.1230599
-0.27729961 -0.49013549 1.127833
-0.22595321 -0.49022749 1.1260674
-0.17465343 -0.49077114 1.1248839
-0.124075 -0.49057898 1.1218168
-0.074043378 -0.49069068 1.1246399
-0.026138054 -0.48960719 1.1236123
0.025338875 -0.48885718 1.1244365
0.0755824 -0.48709807 1.12229
0.12482547 -0.48585594 1.1258628
0.17362212 -0.48315066 1.1268971
0.22437204 -0.47900149 1.1209412
0.26339716 -0.46852252 1.1179657
0.7939561 -0.49732825 1.1157519
0.83034742 -0.49659169 1.1371809
0.87884867 -0.47950783 1.1292094
0.90766996 -0.4666445 1.1102995
0.25742391 -0.42442429 1.1152793
0.88942426 -0.42788959 1.1407511
0.91356772 -0.42350444 1.1160545
0.26751423 -0.37318823 1.1172066
0.8922509 -0.37880981 1.1432673
0.91526145 -0.37414575 1.118472
0.29104117 -0.34434378 1.117193
0.32304251 -0.3223618 1.1169358
0.35901749 -0.30482113 1.1099436
0.8943454 -0.32893425 1.1430454
0.91602361 -0.32552075 1.1179794
0.38444003 -0.28735548 1.1110563
0.40737367 -0.26463273 1.1158446
0.89293355 -0.27686542 1.1431305
0.91510206 -0.2748363 1.1178384
0.41926074 -0.22428425 1.1092925
0.89269269 -0.22321677 1.1412976
0.91731817 -0.22421347 1.1155274
0.43121171 -0.17362614 1.1150708
0.89245838 -0.1747205 1.1425017
0.91448969 -0.17560506 1.1178623
0.43626028 -0.12181837 1.1184883
0.45620736 -0.10594498 1.105065
0.89344895 -0.12431275 1.1410438
0.91473418 -0.12561196 1.1165884
0.44320768 -0.0834933 1.127488
0.45572421 -0.063095458 1.1151438
0.8912161 -0.074952394 1.1415925
0.91263872 -0.073601037 1.1161526
0.46851704 -0.0248353 1.1224313
0.6593017 -0.017626368 1.1144478
0.89049369 -0.025865078 1.1423841
0.91146255 -0.026542388 1.1169926
0.48583862 0.020191768 1.1261466
0.506908 0.035017475 1.1081592
0.66125554 0.015010804 1.1177478
0.89102221 0.023783147 1.137717
0.91166615 0.022967115 1.1130862
0.49491078 0.058978386 1.138566
0.52076983 0.077520214 1.1223372
0.5559724 0.09322349 1.1041873
0.64151418 0.083631165 1.1037508
0.66120046 0.078715399 1.118986
0.88775128 0.075763032 1.1362705
0.91064513 0.074006543 1.1105415
0.53665322 0.11474766 1.1345618
0.57178974 0.12775037 1.1205571
0.62217945 0.1265679 1.1141467
0.65947318 0.11909412 1.1298833
0.8880505 0.11392997 1.136054
0.90900242 0.11460947 1.113174
0.53393263 0.18062744 1.1348474
0.57100779 0.17419975 1.1188036
0.61175501 0.1747449 1.1290212
1.1461381 0.19001083 1.1471556
1.1698853 0.18975852 1.1226176
1.210227 0.18425629 1.1069758
0.39336845 0.23621795 1.1145533
0.40708727 0.23838873 1.10349
0.5290544 0.20581877 1.1457731
0.57844079 0.21008387 1.1325723
0.61942124 0.21188936 1.1319544
0.89941764 0.23970421 1.1463106
0.92502278 0.23531497 1.1216593
1.1352891 0.23498024 1.1384187
1.1658317 0.22208829 1.1167971
0.39505786 0.2738522 1.1139389
0.40682772 0.26978651 1.1070689
0.64619827 0.25982833 1.1075978
0.65750551 0.26664105 1.1131239
0.39573997 0.32467028 1.1115135
0.40422106 0.32194409 1.1043459
0.39581025 0.35296372 1.1030774
0.40871263 0.38762823 1.1156436
1.2977668 0.3832674 1.1243535
1.3051728 0.36973011 1.1351782
0.41587105 0.40816861 1.1170908
1.2944911 0.42905465 1.1072872
1.2837884 0.48005417 1.1020619
1.3111868 0.46965116 1.1289375
1.2883943 0.52959293 1.1112229
1.3087529 0.52708876 1.1424272
1.2839658 0.57827127 1.1150448
1.3059943 0.56431484 1.1313007
-1.5521045 -0.51400173 1.1847116
-1.5295835 -0.51097226 1.190146
-1.4749311 -0.50888479 1.1720959
-1.4223922 -0.50895542 1.1653537
-1.3679543 -0.50564879 1.1782115
-1.3275377 -0.50887871 1.1819177
-1.2760211 -0.50246054 1.1651142
-1.2402688 -0.50173289 1.1746413
-1.2028142 -0.49419987 1.167379
-1.1738333 -0.49023572 1.1748794
-1.1204278 -0.48865247 1.1791239
-1.0749594 -0.48835191 1.1722369
-1.0225805 -0.48191968 1.1678903
-0.97490627 -0.48046181 1.1761662
-0.92289823 -0.48180282 1.1759595
-0.87165314 -0.48189268 1.1738795
-0.82481772 -0.48085776 1.1696618
-0.77456921 -0.48359418 1.1757888
-0.72356117 -0.48480296 1.1770018
-0.67408353 -0.48567125 1.1743972
-0.62650365 -0.48635742 1.176459
-0.57535911 -0.48602051 1.171355
-0.52695912 -0.48649755 1.1759614
-0.47658539 -0.48702168 1.1739131
-0.42782405 -0.48813757 1.1743158
-0.37501654 -0.48905104 1.1727971
-0.32634327 -0.48944205 1.1739926
-0.27555487 -0.49041501 1.176106
-0.22540289 -0.49091825 1.1751238
-0.17550202 -0.49123114 1.1766479
-0.12455312 -0.49201962 1.1733248
-0.073878273 -0.49060285 1.1738417
-0.026532181 -0.48999292 1.1734879
0.025417041 -0.4888297 1.1753969
0.074787222 -0.48717484 1.175568
0.12456436 -0.48523453 1.1730759
0.17394541 -0.48268062 1.1754941
0.22273107 -0.47884402 1.1686089
0.25628355 -0.47583508 1.1826375
0.79447228 -0.45656982 1.1745541
0.83276868 -0.47309795 1.1783971
0.85975438 -0.46843663 1.1605719
0.79156059 -0.44528463 1.1880251
0.84296829 -0.42670742 1.1906893
0.86658192 -0.42332 1.1662595
0.84415317 -0.37749013 1.1947268
0.8681398 -0.37336668 1.1708213
0.84536964 -0.3250128 1.1959532
0.86937791 -0.32362309 1.169619
0.8448506 -0.27259552 1.1929275
0.86808443 -0.27376381 1.1697677
0.84297514 -0.22452877 1.1952224
0.86680621 -0.22587568 1.1704947
0.84524697 -0.17314638 1.1935068
0.86828589 -0.17435583 1.1694545
0.43844867 -0.12726532 1.1544852
0.84337491 -0.12619278 1.1954098
0.86741668 -0.12531744 1.1702644
0.43036065 -0.06659884 1.1756051
0.45193589 -0.055141479 1.1602421
0.83693796 -0.072284713 1.1917441
0.86746222 -0.07629963 1.169845
0.38261241 -0.026579086 1.1983757
0.43071011 -0.011120616 1.1767001
0.45923969 -0.023367114 1.1705987
0.70775616 -0.012444976 1.1829555
0.83914787 -0.026150323 1.1877284
0.86691457 -0.026069971 1.1681985
0.38828087 0.029551335 1.1964355
0.41594565 0.014597389 1.1892446
0.47324651 0.025557274 1.1733189
0.83452374 0.02456185 1.1862643
0.86519957 0.022755457 1.1665447
0.43706498 0.083600186 1.1967275
0.48943928 0.071488 1.1789103
0.50356758 0.092033461 1.1616342
0.83308089 0.074433535 1.1825334
0.86184239 0.075160123 1.1649634
0.52303338 0.12530884 1.171254
0.83563417 0.11344375 1.1774949
0.86313599 0.11640521 1.1656405
0.51922572 0.17441003 1.1721486
0.6243912 0.16271377 1.1557256
1.1210308 0.1906617 1.1760063
0.40371779 0.2401925 1.1981276
0.49867624 0.2062286 1.1908838
0.51258636 0.21080828 1.1762459
0.56324655 0.2164001 1.156186
0.67616457 0.21653093 1.195753
0.73146725 0.2156015 1.1872971
0.91365314 0.23304819 1.155178
1.084661 0.2373324 1.1790913
1.1195555 0.22000706 1.1694999
0.40529492 0.2712675 1.1983364
0.38697216 0.31982392 1.1831324
0.40484101 0.33517271 1.1956406
0.39299947 0.37761655 1.182708
0.40267566 0.37367001 1.1763506
1.3111395 0.37766358 1.1538081
1.3455139 0.49385417 1.1743913
1.3510481 0.45321324 1.1855239
1.3171788 0.52038801 1.1599926
-1.6213963 -0.51841098 1.2432585
-1.5757654 -0.51430941 1.2132671
-1.5203472 -0.51387465 1.2136608
-1.4748762 -0.51186675 1.2270044
-1.4280112 -0.51331776 1.2314851
-1.3809091 -0.50983179 1.2306757
-1.3279452 -0.5058009 1.2269125
-1.2794925 -0.50251174 1.2130213
-1.2197323 -0.50103199 1.2482362
-1.2588887 -0.49720207 1.2235608
-1.2350303 -0.49846444 1.2233033
-1.1817054 -0.49456906 1.2220417
-1.1230011 -0.48793152 1.2271578
-1.0710139 -0.48208618 1.2249639
-1.0313592 -0.48184767 1.2211934
-0.97237569 -0.47734359 1.2237636
-0.92331725 -0.48117402 1.2231705
-0.8724879 -0.48121196 1.2259858
-0.82596058 -0.48027357 1.223621
-0.7769419 -0.48273289 1.2241597
-0.72479683 -0.48316607 1.2244833
-0.67638779 -0.48351529 1.2221686
-0.62339932 -0.48409984 1.2198762
-0.57405919 -0.48580918 1.2249309
-0.52413207 -0.48660967 1.2252079
-0.47396326 -0.48680246 1.2239654
-0.423877 -0.48801777 1.2224283
-0.37430474 -0.48846713 1.2243942
-0.32287094 -0.48886377 1.2243404
-0.2728847 -0.48952964 1.2224828
-0.22648145 -0.49105054 1.2257439
-0.17664315 -0.49162403 1.2249144
-0.12321938 -0.49086225 1.2228498
-0.075922146 -0.49024323 1.2217916
-0.024121808 -0.49042109 1.2242273
0.021767203 -0.48844916 1.2197549
0.075301573 -0.48635215 1.2240834
0.12594773 -0.48445293 1.2218255
0.17558748 -0.48279822 1.2263266
0.22249299 -0.48124948 1.2253331
0.25816035 -0.47995311 1.2335761
0.81603587 -0.45324731 1.2037029
0.78698289 -0.41116288 1.2348999
0.81830329 -0.42434272 1.2143713
0.74329823 -0.37397373 1.2440524
0.78959674 -0.37536171 1.2434393
0.81957185 -0.37680262 1.2195741
0.79426628 -0.32402614 1.2443125
0.8199079 -0.32567358 1.2206715
0.79428989 -0.27260017 1.2439574
0.82012743 -0.27650407 1.218783
0.79346871 -0.22556366 1.2451801
0.81892592 -0.22445402 1.2202839
0.79368716 -0.17444129 1.2443669
0.82047367 -0.17517722 1.2195373
0.79216868 -0.12991242 1.2352128
0.82044047 -0.12777047 1.2183306
0.39603364 -0.053738926 1.2100863
0.42558995 -0.064129017 1.2152165
0.76692373 -0.070115358 1.2323905
0.82255608 -0.090216316 1.2078817
0.38930607 -0.023702977 1.2131395
0.42119563 -0.027028209 1.2240914
0.76646262 -0.041940343 1.2380966
0.38892895 0.020792626 1.2077811
0.41815546 0.030581854 1.2075068
0.74342191 0.0054013841 1.2231734
0.75334221 0.013367035 1.2311076
0.39550665 0.07146892 1.2209243
0.4200702 0.077078782 1.2156492
0.49175721 0.093529269 1.2038133
0.74703401 0.082005627 1.2186936
0.75678903 0.073960848 1.2304522
0.39702985 0.12910952 1.2370105
0.42338985 0.12446488 1.2197444
0.46703815 0.12743275 1.2321895
0.50600666 0.11604014 1.206169
0.39574358 0.17509523 1.2290633
0.42439798 0.17377818 1.2257178
0.45638222 0.17460461 1.2338568
0.51231825 0.18807797 1.2161455
1.0780507 0.19150183 1.2235935
1.4712679 0.1850512 1.236351
1.5072217 0.19335739 1.2259854
0.39592421 0.22970057 1.2363051
0.41988891 0.21781516 1.2263895
0.45894441 0.21480334 1.2365031
0.50699323 0.2139224 1.2244476
0.69531429 0.21733502 1.2158394
0.72626477 0.21810903 1.2390894
0.99260646 0.23986629 1.2477238
1.0322812 0.23613051 1.2377788
1.0703771 0.2202004 1.2224399
1.4868109 0.2058526 1.2389477
1.5083585 0.2040319 1.2215233
0.39044142 0.27772167 1.2202783
0.40612626 0.27443081 1.2133201
0.39048073 0.324597 1.2069925
0.4050602 0.31162474 1.2022165
0.38923997 0.35725418 1.2038618
-1.6156448 -0.51957339 1.2548022
-1.5704792 -0.51552248 1.2756577
-1.5192103 -0.5152393 1.2712802
-1.4748627 -0.51292318 1.2638619
-1.43212 -0.51002061 1.2769539
-1.3795341 -0.50779408 1.2749339
-1.3339165 -0.50592273 1.2695469
-1.1682668 -0.49580216 1.2862504
-1.1203243 -0.48737177 1.2812463
-1.0712184 -0.48377606 1.270225
-1.0226333 -0.48021317 1.2720556
-0.97429514 -0.48109668 1.2705359
-0.92768371 -0.48087221 1.2745756
-0.8788349 -0.47909188 1.2748693
-0.83005786 -0.48303974 1.2778591
-0.77535164 -0.48269957 1.2708603
-0.72358978 -0.48358467 1.2770492
-0.67311382 -0.48287532 1.2731339
-0.62657797 -0.48384693 1.2719007
-0.57537448 -0.48370188 1.2748964
-0.52464199 -0.48420972 1.2759441
-0.47709247 -0.48586205 1.2722086
-0.42648047 -0.48689359 1.2723521
-0.37415344 -0.48795471 1.273991
-0.32540208 -0.48792002 1.2746307
-0.27411559 -0.48972845 1.2733682
-0.22490692 -0.49037337 1.2766839
-0.17248881 -0.49151456 1.2718604
-0.128479 -0.49138218 1.2778416
-0.07546851 -0.49125776 1.2730875
-0.027472708 -0.49007371 1.2738847
0.024860226 -0.48850495 1.2718914
0.075796291 -0.4862316 1.2768551
0.12526643 -0.48421249 1.2728629
0.17744786 -0.48310536 1.2751231
0.22631454 -0.48153162 1.2778063
0.26438075 -0.47885782 1.277069
0.74381727 -0.35705546 1.2641298
0.77107489 -0.36983365 1.2593645
0.73786801 -0.32246146 1.2741809
0.77078927 -0.32398224 1.2648653
0.74302018 -0.27727112 1.2868584
0.76986921 -0.27373809 1.2667388
0.7443853 -0.22720627 1.2907274
0.76887721 -0.22572996 1.2672499
0.73997474 -0.17742679 1.2838516
0.76986754 -0.17668885 1.2670991
0.74029893 -0.12796515 1.2743759
0.76612586 -0.13340962 1.2681297
0.74041891 -0.076728977 1.2570505
0.76493651 -0.073429227 1.2631581
0.76855212 -0.046903003 1.2553934
0.39611533 0.1440753 1.266959
0.40227544 0.14633586 1.2866712
0.39692342 0.15737422 1.2542735
0.4692975 0.19265617 1.2642649
1.0336994 0.18723714 1.2811893
1.0729213 0.18275918 1.2614471
1.4456115 0.19417369 1.2903353
1.4671106 0.19489244 1.267004
0.4107942 0.23330095 1.2595026
0.46917349 0.23065981 1.2723558
0.74143243 0.21538024 1.2537448
0.75241381 0.21660931 1.2578465
0.93105996 0.23197399 1.2758445
0.98110706 0.23315454 1.2764134
1.0256252 0.21606557 1.2738532
1.0540478 0.20044039 1.2526182
1.4380481 0.20611444 1.2861319
1.4701371 0.20517196 1.2567233
-1.5988742 -0.52320749 1.3439834
-1.4585412 -0.50412846 1.3201983
-1.4294095 -0.5127815 1.3225954
-1.3566378 -0.51318866 1.3146493
-1.0721797 -0.48812056 1.3268223
-1.0209094 -0.48520857 1.3239915
-0.9664616 -0.48447171 1.3192879
-0.92176181 -0.48132071 1.3242159
-0.87358457 -0.47952557 1.324129
-0.82188725 -0.48195398 1.3210466
-0.77473915 -0.48234943 1.3235749
-0.72474056 -0.48298848 1.3279845
-0.67255563 -0.48307183 1.3307669
-0.62485033 -0.48210105 1.3218883
-0.57517993 -0.48312366 1.3249414
-0.52440363 -0.4839181 1.3222443
-0.47495291 -0.48528087 1.3266804
-0.42658871 -0.48577452 1.3270302
-0.37708059 -0.48723799 1.324761
-0.3251591 -0.48723811 1.3206015
-0.27641454 -0.48864079 1.3233715
-0.22528091 -0.4900226 1.3303874
-0.17409813 -0.4906905 1.3229274
-0.12214196 -0.49040839 1.3248085
-0.074291021 -0.49031284 1.3248013
-0.02374253 -0.48905516 1.3261521
0.023584025 -0.48796013 1.3259114
0.074605554 -0.48530519 1.3232166
0.12715523 -0.48348626 1.3266702
0.17339446 -0.48225516 1.3226205
0.22734851 -0.48049718 1.3242815
0.26684728 -0.47961149 1.324474
0.75099379 -0.29666293 1.3200423
0.74291182 -0.20762761 1.302552
0.93712223 0.19542879 1.3151417
0.98231196 0.18812148 1.3276783
1.0084654 0.1874225 1.3043737
1.4178253 0.19176176 1.3245847
0.93866736 0.21365422 1.3101425
0.97798789 0.2148789 1.3193191
1.0073951 0.20491944 1.3032423
1.3463081 0.20478471 1.3339454
1.3792927 0.20496163 1.3279518
1.4165512 0.20255277 1.3196241
-1.4656582 -0.51610118 1.3666182
-1.4364126 -0.51990956 1.3724258
-1.0749352 -0.48821431 1.383876
-1.0260776 -0.48763976 1.3687679
-0.97663796 -0.48544174 1.3703713
-0.92378485 -0.4804655 1.3753585
-0.87260312 -0.48173627 1.3657963
-0.82456952 -0.48121819 1.3719567
-0.77056456 -0.48132825 1.3703475
-0.7242533 -0.48086238 1.3712437
-0.67368871 -0.48103657 1.3736973
-0.62390834 -0.48211268 1.3732715
-0.57464707 -0.48258886 1.3769617
-0.52434313 -0.48319295 1.3727497
-0.47280127 -0.48356631 1.3749189
-0.42306387 -0.48391318 1.3740113
-0.37502682 -0.48671323 1.377067
-0.3262195 -0.48655963 1.3717173
-0.27203482 -0.48849112 1.3760084
-0.22254364 -0.48914918 1.3718189
-0.17624263 -0.49004802 1.3708172
-0.12579714 -0.48959556 1.3704796
-0.074997529 -0.49010333 1.3738852
-0.025536826 -0.48823667 1.3753682
0.02556959 -0.48635033 1.3735155
0.076254971 -0.48490438 1.3762671
0.12448721 -0.48417395 1.3794397
0.17431834 -0.48218772 1.3750393
0.22124866 -0.48051873 1.3719218
0.27246282 -0.47967365 1.3739591
0.82189506 0.17165321 1.3972756
0.86542022 0.19545269 1.3880419
1.3759433 0.19250286 1.3736032
0.82694125 0.22689016 1.3838093
0.86900258 0.20380276 1.3929571
1.3722507 0.20131671 1.3769966
1.5729674 0.53086668 1.3978989
-1.0745414 -0.49074492 1.4247274
-1.0348407 -0.49088725 1.42716
-0.977911 -0.48489591 1.4266182
-0.92475444 -0.48505551 1.4282793
-0.87614018 -0.48521715 1.4225205
-0.82848322 -0.48158246 1.4232454
-0.77618057 -0.4807393 1.4247619
-0.72321099 -0.48171079 1.4189693
-0.67386287 -0.47915497 1.4186852
-0.62622285 -0.48086214 1.4190387
-0.57516885 -0.48080969 1.4326842
-0.52378052 -0.48191103 1.4244856
-0.47372237 -0.48430315 1.4218875
-0.42292428 -0.48439285 1.4253401
-0.37550548 -0.48575792 1.4242184
-0.32334244 -0.48687658 1.423293
-0.27271238 -0.48836145 1.4234444
-0.22392777 -0.48960727 1.4229093
-0.17557354 -0.4891248 1.4225074
-0.12517478 -0.49049056 1.4254435
-0.074365482 -0.48817298 1.4211073
-0.026428893 -0.48748615 1.4259875
0.023967752 -0.48601562 1.4240773
0.074247427 -0.4837988 1.4256465
0.12566911 -0.48279992 1.4247489
0.17832066 -0.480149 1.4154013
0.22634186 -0.48140186 1.4247947
0.27437547 -0.47993186 1.4218273
0.30953437 -0.47578287 1.4340442
0.83941871 0.17831445 1.4185884
0.86780107 0.18751456 1.430813
1.2653792 0.18069759 1.4244207
1.3244689 0.19318523 1.426609
0.82222861 0.22456495 1.4216372
0.8695994 0.21308938 1.4310818
1.3235968 0.20180976 1.4245987
1.6156595 0.43861949 1.4479074
1.6070735 0.49311998 1.4433949
1.5906744 0.53251839 1.4277529
1.5920119 0.56861269 1.4428844
1.6127133 0.59234333 1.4364488
1.6112641 0.67969328 1.44199
1.6190649 0.75340825 1.4401945
1.6437353 0.84249407 1.4482397
1.6498904 1.1501679 1.4257674
1.6731966 1.1868317 1.4456787
1.6728849 1.2071272 1.4450614
-1.0860472 -0.50118941 1.4621342
-1.0732112 -0.49595162 1.4860016
-1.0307717 -0.49616277 1.4641904
-0.9707064 -0.49229714 1.4839298
-0.9208352 -0.48645478 1.4705949
-0.87419015 -0.48343655 1.4720236
-0.82336515 -0.48323679 1.4780707
-0.77744049 -0.48311996 1.4783772
-0.72172403 -0.47989523 1.4706578
-0.67636639 -0.48057684 1.4707292
-0.63127398 -0.48157939 1.4777451
-0.57550883 -0.47995076 1.4731648
-0.52520877 -0.48146844 1.477923
-0.47584152 -0.48361048 1.4728625
-0.42572874 -0.48574519 1.4767982
-0.37636039 -0.48512098 1.476383
-0.32740206 -0.48613268 1.4730597
-0.27706394 -0.48682505 1.4719038
-0.22546794 -0.48754478 1.4736484
-0.17577378 -0.48929855 1.4733843
-0.12355028 -0.48971102 1.4805255
-0.07697776 -0.48852119 1.4751071
-0.028735934 -0.48713082 1.479437
0.023727851 -0.48522311 1.4781188
0.074693426 -0.48433089 1.4742403
0.12805197 -0.4841975 1.4769785
0.17488244 -0.48090628 1.4714042
0.22716334 -0.47978723 1.4728892
0.27701396 -0.48019543 1.4717736
0.31881651 -0.47400406 1.4729904
0.8495394 0.19460022 1.4593885
0.85626012 0.19436486 1.4541943
1.2398645 0.1828407 1.4715309
1.273415 0.19400561 1.4767786
0.83649856 0.21387382 1.4615625
0.86104161 0.21108149 1.4606661
1.2730204 0.20274194 1.4753171
1.6268778 0.39826894 1.4782141
1.5498617 0.40699056 1.4660965
1.5692924 0.42806849 1.4773704
1.6267478 0.42916584 1.4853234
1.5750747 0.47092354 1.4796809
1.6278206 0.47421706 1.483698
1.5795968 0.54811925 1.4855378
1.6294706 0.52541941 1.4890349
1.6250002 0.57270062 1.4773754
1.6320848 0.62616569 1.4824533
1.6337396 0.67193329 1.4841237
1.6393063 0.72639763 1.486676
1.6386372 0.77497923 1.4835107
1.6418946 0.82337826 1.4867752
1.6540718 0.82687134 1.4669756
1.6415347 0.87335002 1.4881011
1.6560862 0.87641966 1.471669
1.6403158 0.91955847 1.4877613
1.6557013 0.92725056 1.4691896
1.6411399 0.97027898 1.4881862
1.6546522 0.97366667 1.4695971
1.6398797 1.0192696 1.4882485
1.6552906 1.0311582 1.47016
1.6400938 1.0686589 1.4864012
1.6577088 1.0847077 1.4722493
1.6410952 1.1228404 1.4849708
1.6503543 1.1471337 1.4507085
1.6381049 1.1782134 1.4865112
1.6582037 1.1796162 1.4651787
1.6396273 1.2294964 1.481943
1.6595236 1.2195543 1.4630705
1.6385049 1.2758073 1.4852562
1.6538525 1.2650281 1.4638861
1.6357464 1.3298688 1.4922581
1.6315391 1.3674152 1.495888
-1.1621368 -0.51011372 1.5343406
-1.1205376 -0.50632828 1.5022516
-1.0599177 -0.50046074 1.5128472
-1.0700107 -0.49551338 1.5251834
-1.0278428 -0.49526128 1.5278472
-0.97612 -0.49066198 1.5210177
-0.92255294 -0.48901123 1.5258659
-0.87518328 -0.48570237 1.5265734
-0.83176345 -0.48464116 1.5293938
-0.77425557 -0.48124158 1.5224824
-0.7276333 -0.47941592 1.522926
-0.67795902 -0.4798685 1.5215583
-0.62134159 -0.47872168 1.5236436
-0.57718205 -0.47913435 1.5292361
-0.5280968 -0.48121646 1.5310565
-0.47331688 -0.48288324 1.5222764
-0.4247528 -0.48286557 1.5230995
-0.37446356 -0.48539761 1.5247574
-0.32303429 -0.48469225 1.5232908
-0.27087474 -0.4864158 1.5258788
-0.22337383 -0.48834035 1.5251782
-0.1728746 -0.48941627 1.52641
-0.12551597 -0.48975173 1.5285616
-0.070262052 -0.48811594 1.5252484
-0.024557097 -0.48701963 1.5328584
0.024387931 -0.48348096 1.5217386
0.075215153 -0.48275837 1.5202059
0.12245604 -0.48518929 1.5260776
0.17887446 -0.48308676 1.5288582
0.22521986 -0.48059389 1.5270674
0.27452186 -0.48159268 1.5259805
0.32167503 -0.47842988 1.52142
1.1900063 0.19388659 1.5336708
1.2236986 0.19074479 1.5215205
1.193542 0.20113145 1.5120828
1.2281185 0.20253506 1.5049779
1.2970566 0.34942177 1.5422957
1.3114139 0.34837744 1.5244075
1.3186938 0.37168503 1.5329953
1.3299608 0.40113342 1.5450822
1.5865583 0.42185703 1.5380316
1.61105 0.42604375 1.5200042
1.5950669 0.4787235 1.5406228
1.6001976 0.48618498 1.5355239
1.5958791 0.5260613 1.539238
1.6088303 0.53075093 1.5216352
1.5962029 0.57063442 1.5424581
1.6130248 0.58189398 1.5197682
1.5937471 0.62531191 1.5424684
1.6141011 0.62548614 1.5180256
1.5935546 0.67267948 1.5412917
1.6149077 0.675668 1.5164719
1.5926952 0.72276527 1.5407376
1.615791 0.72697103 1.5164138
1.5922495 0.77490896 1.5405787
1.6148664 0.77826965 1.5163968
1.5930399 0.82354879 1.5444857
1.6145828 0.82540363 1.5190051
1.5948976 0.87530321 1.5434406
1.6160647 0.87391996 1.5198442
1.5934151 0.91893905 1.5406809
1.6163011 0.92215705 1.5160172
1.5926156 0.97333604 1.5420865
1.6154188 0.97127342 1.5174407
1.5929325 1.025211 1.5411643
1.6157236 1.0225226 1.5164642
1.5915281 1.0785786 1.5398651
1.6145641 1.0739847 1.5155295
1.5873796 1.1289314 1.5401934
1.6162776 1.125589 1.5140903
1.5909824 1.1785586 1.5428827
1.6141483 1.1736209 1.5179343
1.5928911 1.2275215 1.540536
1.6151949 1.2238181 1.5152231
1.5904291 1.2795906 1.539766
1.613447 1.2741857 1.5160022
1.590063 1.3176349 1.5376666
1.6134079 1.3268164 1.5155178
1.5920335 1.3656034 1.5437773
1.6152371 1.3803252 1.5188991
1.5937103 1.4147495 1.5422044
1.6090555 1.4271271 1.5287358
1.5937734 1.4696229 1.541451
1.6055232 1.4726949 1.5310067
1.5923337 1.5201397 1.545889
-1.0766159 -0.49895313 1.5766693
-1.0190037 -0.49483514 1.5890691
-0.97306406 -0.49430236 1.5782295
-0.9248175 -0.48752025 1.5714782
-0.87304884 -0.48425278 1.5806693
-0.82651711 -0.48569632 1.5755928
-0.77398574 -0.48068336 1.5743246
-0.72392458 -0.48028871 1.575773
-0.67664117 -0.48165631 1.5763882
-0.62297833 -0.47810534 1.5817796
-0.56761509 -0.48051995 1.5815858
-0.52167422 -0.48526144 1.584483
-0.47356287 -0.4834455 1.5812908
-0.42509612 -0.48379347 1.5749272
-0.37721923 -0.4838672 1.5729601
-0.32432601 -0.48476964 1.5766346
-0.27551457 -0.48597756 1.5747552
-0.22604607 -0.48711011 1.5757697
-0.1743671 -0.48847938 1.5728672
-0.12496692 -0.4883351 1.5729761
-0.07632897 -0.4876008 1.5709935
-0.023799084 -0.48398411 1.5708761
0.025238743 -0.48484686 1.5781575
0.075523168 -0.48568699 1.5810161
0.12522513 -0.48448598 1.5715203
0.1730354 -0.48146576 1.5701989
0.22112329 -0.4803513 1.5775554
0.2763854 -0.48358339 1.5796136
0.32446161 -0.48262024 1.5790763
0.36651927 -0.4743886 1.5726072
0.44588232 0.0078485133 1.5918617
0.46144086 0.089629874 1.5870821
0.45966667 0.12526402 1.5934685
0.44814271 0.16547631 1.5650477
0.45313406 0.15563905 1.5832927
1.1767668 0.19166242 1.5726138
1.2930477 0.3508155 1.5549694
1.314314 0.38089055 1.5678828
1.3584601 0.39606681 1.5534434
1.3284425 0.4090434 1.5752081
1.3606166 0.41530588 1.5702814
1.530107 0.41272527 1.5965079
1.5664597 0.43574023 1.5747215
1.6048468 0.4470107 1.5507654
1.5489689 0.48906732 1.5985337
1.5707002 0.47574064 1.5716335
1.5443828 0.54190272 1.5985271
1.569768 0.52444315 1.573627
1.5461407 0.57161415 1.5964682
1.5710868 0.57529444 1.5720336
1.5471494 0.62376207 1.5959494
1.5696996 0.62393612 1.5694512
1.54711 0.67977464 1.5967884
1.5687199 0.67422992 1.5731893
1.5447636 0.73022348 1.5957748
1.5665348 0.72308522 1.571167
1.5444342 0.7822566 1.5954845
1.567988 0.77413976 1.570654
1.54562 0.82622004 1.5953188
1.569434 0.82968509 1.5701928
1.5456743 0.88415408 1.5954231
1.5697798 0.87569374 1.5703354
1.5458733 0.93329495 1.5944347
1.5681181 0.92531437 1.5698421
1.5437493 0.98088646 1.5950758
1.5681233 0.97432989 1.5700381
1.5434457 1.0324175 1.593887
1.5676374 1.0244859 1.5686408
1.5439785 1.076923 1.5919256
1.5665287 1.0783094 1.5678017
1.5442019 1.1195089 1.5943447
1.5630382 1.1258947 1.5720081
1.5458632 1.1763202 1.5946797
1.5663602 1.1747779 1.5694842
1.5425124 1.221175 1.5914019
1.5692143 1.225019 1.5674893
1.54382 1.2759935 1.5912524
1.567716 1.2730737 1.5671362
1.5451288 1.3236914 1.5888823
1.5675974 1.3298874 1.5695086
1.544457 1.3755031 1.5940642
1.5674541 1.3736145 1.5695295
1.5441055 1.4316744 1.5969375
1.5705585 1.4212826 1.5700731
1.5481133 1.4721569 1.5945312
1.5731381 1.4742018 1.568404
1.5477407 1.5225189 1.5969067
1.5703115 1.5225393 1.5732512
1.5459359 1.5624671 1.5946321
1.5659928 1.5686793 1.576521
1.5479931 1.6069562 1.5960151
1.55968 1.6188236 1.5845035
1.5441583 1.677364 1.5984794
1.5525914 1.6610665 1.5952495
-1.130731 -0.50979602 1.6152089
-1.0569044 -0.50662637 1.6200444
-1.005316 -0.5034892 1.6322565
-0.98160022 -0.50058168 1.6312327
-1.0338264 -0.49738076 1.6329627
-0.97408885 -0.49674985 1.6186041
-0.91912007 -0.48878402 1.6103852
-0.88115919 -0.48680916 1.6257957
-0.82970995 -0.48638853 1.6230911
-0.77281022 -0.48128885 1.6250526
-0.72852844 -0.47963852 1.6152507
-0.67417824 -0.48203951 1.6229362
-0.62184119 -0.47797754 1.6284577
-0.57421649 -0.47941127 1.6207893
-0.52732778 -0.48119631 1.6252023
-0.47818914 -0.48008755 1.623921
-0.42353895 -0.4803727 1.6272873
-0.37375671 -0.48287541 1.6282796
-0.32039434 -0.48403049 1.6182324
-0.27910721 -0.48530677 1.6257507
-0.22522728 -0.48670477 1.6305943
-0.17485186 -0.48661461 1.6226991
-0.12292577 -0.48647785 1.6189692
-0.071837284 -0.48574808 1.626197
-0.026715934 -0.48530942 1.6266246
0.023953373 -0.48357797 1.6269332
0.075432926 -0.48387328 1.6279522
0.12344532 -0.48565039 1.6247196
0.1735978 -0.48337832 1.6238354
0.2316514 -0.48333806 1.6319805
0.27012023 -0.48308808 1.6213062
0.32595411 -0.48372483 1.6297102
0.371566 -0.47688603 1.6216599
0.40696055 -0.47432482 1.6372122
0.46264854 -0.11838869 1.6093037
0.46433899 -0.075011037 1.6120682
0.46421772 -0.026126716 1.6159476
0.44921577 6.1175691e-05 1.603781
0.46228898 0.026422881 1.6154979
0.46333402 0.071944356 1.6114537
0.45858479 0.11970601 1.6045225
0.69465101 0.19502518 1.6345429
0.68322831 0.22305885 1.6269182
1.4850281 0.38253793 1.6395192
1.514496 0.39279625 1.6301947
1.3452363 0.41107151 1.6272825
1.3561871 0.42598251 1.6188974
1.4444662 0.41825512 1.6329455
1.4506887 0.43004811 1.6377472
1.5227658 0.42814901 1.6272546
1.5235618 0.47391927 1.6259366
1.524393 0.52230531 1.6255963
1.521253 0.57484096 1.624406
1.5201037 0.62530482 1.6257133
1.4987786 0.67087185 1.6470044
1.5219368 0.67584985 1.6229935
1.5214713 0.72723562 1.6249214
1.4970664 0.77955633 1.6463567
1.5206437 0.77125388 1.6217924
1.4971981 0.83285725 1.6460936
1.5223289 0.82090211 1.6231341
1.4977058 0.87647033 1.6498647
1.5211437 0.87467402 1.6247215
1.4977336 0.93121862 1.6469707
1.5209031 0.92812651 1.6235075
1.4993262 0.98235506 1.647167
1.5191804 0.97950268 1.6226068
1.4970008 1.0207191 1.6478277
1.5192693 1.0265458 1.62217
1.4970564 1.0722308 1.6442785
1.518922 1.0722972 1.6231809
1.4963684 1.1249362 1.6466967
1.5207564 1.1250865 1.6208158
1.4971123 1.1763698 1.6473429
1.5200768 1.1763508 1.6194296
1.4996192 1.2484115 1.646309
1.516404 1.2241818 1.6240609
1.4969497 1.2842239 1.6460626
1.5207251 1.2746257 1.6227074
1.519938 1.3234613 1.6211687
1.4998041 1.3704693 1.6493126
1.5204684 1.3740886 1.6251065
1.4986513 1.4325337 1.647723
1.5203412 1.4244183 1.6247617
1.5216852 1.4788173 1.6262761
1.4921701 1.5263174 1.6435806
1.5240993 1.5253836 1.6212255
1.5258441 1.5781455 1.6255565
1.5250202 1.6253037 1.6264786
1.5521108 1.6483219 1.6035892
1.5234251 1.6724371 1.6306607
1.4989129 1.7076082 1.6475263
1.5277226 1.7053758 1.6249228
-1.1342037 -0.52057016 1.6823592
-1.0687956 -0.50739032 1.672895
-1.0204772 -0.50346369 1.6654273
-0.96553838 -0.50190926 1.6838104
-0.97648704 -0.49586523 1.6535288
-0.87105483 -0.48983431 1.6725094
-0.82089084 -0.48251328 1.6677281
-0.77066416 -0.48012015 1.669253
-0.72424603 -0.4826498 1.6762145
-0.67823297 -0.47844407 1.6709306
-0.62817204 -0.47704244 1.6714413
-0.57596564 -0.47959647 1.6760471
-0.52723759 -0.48169047 1.6727822
-0.47107729 -0.48147038 1.672644
-0.42096543 -0.47948009 1.6853492
-0.37069079 -0.47910562 1.6742692
-0.32676575 -0.48131362 1.6723955
-0.27241072 -0.48217526 1.6685807
-0.22541694 -0.48387372 1.6792279
-0.1724015 -0.48452425 1.6826599
-0.12631996 -0.48476735 1.6742432
-0.078237899 -0.48326731 1.6779239
-0.027915601 -0.47987896 1.6702645
0.020885449 -0.48124862 1.6711069
0.071876362 -0.48293248 1.6750312
0.127373 -0.48567986 1.6682564
0.17578408 -0.48305261 1.6727641
0.22469771 -0.48267469 1.6730131
0.27868709 -0.48437968 1.6756912
0.32354027 -0.48324376 1.6703423
0.37125638 -0.47878018 1.6716102
0.41052759 -0.47502342 1.6707271
0.64055628 0.19062063 1.6640009
0.67595869 0.18636684 1.6727663
0.64931399 0.22144371 1.6697364
0.68080044 0.21800572 1.6709771
1.4840078 0.39497882 1.6553483
1.4879955 0.42872894 1.6554158
1.4421606 0.4600051 1.699738
1.4745169 0.47594944 1.6753578
1.5009574 0.45932731 1.6509761
1.4786659 0.52488804 1.6759326
1.5000653 0.53400922 1.6505556
1.4789199 0.57656163 1.6738939
1.4746703 0.62390786 1.6764749
1.4760734 0.67438304 1.6737081
1.4747469 0.72508663 1.6757207
1.4735398 0.77675784 1.6747184
1.4750837 0.8236416 1.6738266
1.4735016 0.87259847 1.6759317
1.4722859 0.9213562 1.6748374
1.4749743 0.97209913 1.6744671
1.4728184 1.0241526 1.675159
1.4734542 1.0770658 1.6752636
1.4723172 1.1259166 1.6725706
1.4717054 1.1741823 1.6744157
1.4484646 1.2094225 1.6955739
1.4761734 1.2268398 1.6709759
1.471444 1.2754908 1.6767664
1.4786892 1.3270917 1.6709907
1.4767545 1.3730514 1.6741189
1.4482791 1.4229946 1.6974127
1.4756749 1.4212046 1.6738269
1.4433327 1.4771578 1.695325
1.4784838 1.472267 1.6714813
1.4733669 1.5226226 1.6779118
1.4786503 1.5738355 1.6763971
1.5041817 1.5873621 1.6520135
1.4800286 1.6231009 1.6742278
1.4779481 1.6738827 1.6805462
1.5001559 1.6773914 1.656554
1.4759647 1.7126585 1.6800966
-1.107221 -0.51178402 1.7017367
-1.0517886 -0.50794524 1.712111
-1.0264676 -0.50707531 1.7201016
-0.9689064 -0.50162297 1.7220238
-0.90754151 -0.50016725 1.7007107
-0.96776092 -0.49863592 1.7098655
-0.91290212 -0.49732712 1.7267874
-0.85382783 -0.48640898 1.7037829
-0.80034548 -0.48136184 1.7019542
-0.77458835 -0.4847576 1.7243909
-0.72866327 -0.48413563 1.7361587
-0.67253083 -0.47909945 1.7215211
-0.618783 -0.47753716 1.7237573
-0.57555813 -0.47777912 1.7254964
-0.52454478 -0.48015186 1.7198979
-0.47189811 -0.47897908 1.7186657
-0.42686915 -0.4762961 1.7291584
-0.37699312 -0.47800824 1.7275507
-0.32480481 -0.47788399 1.7266071
-0.27584073 -0.48024681 1.7218708
-0.22510876 -0.48068658 1.7283784
-0.18232784 -0.48137695 1.724118
-0.12698156 -0.48060107 1.7293935
-0.076259375 -0.48106888 1.7250513
-0.028055144 -0.48018977 1.7274431
0.024827899 -0.48125583 1.7203805
0.075851612 -0.48237309 1.7217518
0.12585875 -0.48462468 1.7168118
0.17588225 -0.4841072 1.7183336
0.22256951 -0.48220727 1.7177867
0.27362967 -0.48316494 1.7263982
0.32896391 -0.48391485 1.7225585
0.37509802 -0.48019606 1.7149178
0.42097223 -0.48038086 1.7273141
0.46883973 -0.47526228 1.7454526
0.6758768 0.22468269 1.7137938
1.3718638 0.37438977 1.7369914
1.41364 0.39417505 1.7376621
1.4159532 0.43000999 1.7402118
1.4297738 0.47664818 1.7302198
1.4521413 0.48890465 1.7053777
1.4320199 0.52633882 1.7265797
1.4533285 0.523709 1.7031028
1.4269627 0.57541835 1.7295717
1.4520187 0.57001477 1.7042369
1.4297165 0.62366796 1.7240543
1.4518516 0.64183593 1.7031541
1.4273394 0.67461079 1.7269143
1.4539909 0.65844882 1.7005039
1.4272468 0.72199219 1.7261602
1.4295931 0.77397639 1.7254181
1.4520411 0.76769292 1.7020457
1.429137 0.82586527 1.725203
1.4537171 0.83292687 1.7003752
1.4277617 0.87728947 1.7250868
1.4274019 0.92709035 1.7257605
1.4287677 0.97673732 1.7247838
1.4521697 0.97617054 1.7028424
1.4274375 1.0263913 1.7262015
1.4513813 1.0214446 1.7032032
1.4260736 1.0741953 1.7249296
1.427608 1.124619 1.724792
1.4290446 1.1751417 1.7211951
1.4533107 1.1703207 1.7003783
1.4249914 1.2259111 1.7282138
1.4260103 1.274937 1.7274175
1.3910671 1.342741 1.7459384
1.4247352 1.3244342 1.7280006
1.4541662 1.3250674 1.704262
1.386834 1.3710196 1.7388655
1.4300737 1.3737329 1.7229897
1.4554055 1.3891739 1.7041295
1.3890632 1.4264703 1.7458849
1.4268818 1.4250804 1.7269737
1.4295361 1.4754542 1.7255381
1.4616386 1.4957609 1.7012113
1.4327099 1.5260037 1.7286844
1.4538841 1.5304765 1.7082288
1.4318683 1.5735462 1.735191
1.4542532 1.5822853 1.7079674
1.4343095 1.6211667 1.7273968
1.4369249 1.6757879 1.7294388
1.4558825 1.6730309 1.7086177
1.4323299 1.7226031 1.7353154
1.4565773 1.7173532 1.709849
-1.7751541 -0.58797365 1.7916485
-1.7017678 -0.58622074 1.7773131
-0.92316061 -0.50031066 1.7768497
-0.9373942 -0.49783579 1.7606964
-0.80404395 -0.48545486 1.7568452
-0.77102202 -0.48486626 1.7650117
-0.7281729 -0.48224178 1.7671707
-0.67561007 -0.47952065 1.77732
-0.62417805 -0.47817129 1.7787651
-0.56962365 -0.48062423 1.7761267
-0.51792634 -0.47809812 1.7753143
-0.47470644 -0.4755238 1.7735035
-0.42524022 -0.47469336 1.7731082
-0.37998652 -0.47426954 1.7740177
-0.32106259 -0.47609094 1.7712339
-0.27780315 -0.477936 1.7788079
-0.23061544 -0.47865081 1.7730961
-0.1764241 -0.47899917 1.778627
-0.11912265 -0.47864288 1.7719381
-0.074549146 -0.47877857 1.7675525
-0.026434207 -0.47576994 1.7790375
0.022788735 -0.47726074 1.77011
0.074521005 -0.48014233 1.7692089
0.12608007 -0.48880437 1.7755015
0.17629358 -0.48403305 1.7761536
0.22366576 -0.48289472 1.7759975
0.27592596 -0.48319033 1.7743977
0.31791213 -0.48582649 1.7681056
0.37666908 -0.48072603 1.7689732
0.4252933 -0.48089182 1.7767212
0.45761418 -0.47813097 1.7621437
0.62762403 -0.43487689 1.7940061
-2.1311049 -0.27177098 1.7909579
-2.1555784 -0.22825041 1.7707903
-2.1489573 -0.21025002 1.7899445
1.3763235 0.3877115 1.7850354
1.4077946 0.39168647 1.7607676
1.3830955 0.42445785 1.7828354
1.4072057 0.41893399 1.7572558
1.3809003 0.47411656 1.7829216
1.4059086 0.48037434 1.7577586
1.3822161 0.52387226 1.7828312
1.4070643 0.52115411 1.7556119
1.3818277 0.57554519 1.7813189
1.404807 0.57394272 1.7562222
1.3838148 0.62712723 1.7794056
1.4063575 0.62387609 1.7546389
1.3800943 0.67722005 1.779952
1.4018629 0.67389822 1.7543859
1.3806239 0.72593021 1.7800968
1.4019481 0.73734403 1.7550251
1.381688 0.77564514 1.7795171
1.4035101 0.77296799 1.7554841
1.3804607 0.82299918 1.7800449
1.4052523 0.824193 1.7541378
1.3820758 0.87543517 1.7763352
1.4033651 0.86260837 1.7541913
1.3803689 0.92396092 1.7761481
1.404193 0.9241358 1.7523631
1.3784696 0.9729529 1.7790474
1.4041332 0.97513461 1.7528747
1.3799731 1.0239904 1.7784214
1.4034383 1.0209228 1.7543029
1.3816025 1.0758982 1.7767307
1.4026747 1.0729177 1.7517655
1.38221 1.1245744 1.777705
1.4043956 1.1277009 1.7510536
1.3796879 1.1761466 1.7802452
1.4047581 1.1709991 1.7540054
1.3808448 1.227669 1.7779868
1.4005772 1.2054147 1.7540351
1.382251 1.2741982 1.7758702
1.3809887 1.3256786 1.7782608
1.4032453 1.3087171 1.7515854
1.3735217 1.3780106 1.7752961
1.3697472 1.4217017 1.7739336
1.3804709 1.4757044 1.7821957
1.4053606 1.4794952 1.761907
1.3843483 1.5320462 1.7827083
1.4084166 1.5200622 1.7579807
1.38692 1.5794653 1.7829524
1.4092946 1.5722179 1.7592326
1.386488 1.6208786 1.785228
1.4107199 1.6312033 1.7599885
1.3838426 1.6731671 1.786221
1.4117706 1.6713705 1.7590786
1.3895894 1.7281523 1.78
1.4106106 1.7230842 1.7585647
-1.6784056 -0.60131705 1.8131597
-1.9201931 -0.55543011 1.8398684
-1.8685179 -0.58504885 1.8362523
-1.8184609 -0.59050089 1.8386708
-1.767164 -0.59111679 1.8160269
-1.7303493 -0.59425974 1.8303158
-1.655557 -0.59356916 1.8219252
-0.93534589 -0.49734789 1.8022778
-0.75886554 -0.48550683 1.8117456
-0.62310046 -0.48139793 1.823053
-0.57573152 -0.48103625 1.8228931
-0.52651346 -0.4779239 1.8211731
-0.47349873 -0.47869548 1.8124537
-0.43097052 -0.47522211 1.8184958
-0.37608013 -0.47449887 1.8238192
-0.3186132 -0.47413397 1.810141
-0.27535141 -0.47649792 1.8234266
-0.22234297 -0.47576842 1.8173537
-0.17099658 -0.47784084 1.8330871
-0.12232886 -0.47767723 1.8230482
-0.075075731 -0.47414276 1.8155342
-0.021917125 -0.47424057 1.8260739
0.023523247 -0.47780508 1.8214115
0.077207156 -0.47991619 1.8214058
0.12487562 -0.48627794 1.8277359
0.17486532 -0.48192754 1.8246559
0.22558439 -0.48242626 1.8226786
0.27355996 -0.48187536 1.8252147
0.33019939 -0.48854837 1.8251841
0.37292603 -0.48542744 1.8225368
0.42589 -0.47885916 1.8254378
0.46591774 -0.47610801 1.8187958
0.56747502 -0.4816215 1.844391
0.6180464 -0.45471448 1.8335212
0.62103814 -0.43537268 1.8406879
0.65263337 -0.42253232 1.8404596
-2.1063986 -0.30905777 1.8106979
-2.0909672 -0.30957118 1.8317739
-2.0890472 -0.27955663 1.8178831
-2.1113207 -0.22274244 1.8256048
-2.0924339 -0.24322884 1.8376364
1.2895045 0.38344145 1.8135962
1.3367046 0.38975766 1.8284825
1.3554624 0.39042997 1.8097769
1.3308759 0.42757717 1.8341875
1.3584864 0.42643976 1.8107474
1.3359268 0.47626066 1.8318115
1.3563421 0.47427252 1.8084805
1.3355691 0.52708501 1.833349
1.3576113 0.52364886 1.8096559
1.3327994 0.57275742 1.8342097
1.3566529 0.57393646 1.8095561
1.3352175 0.62752408 1.8312619
1.3580866 0.62078804 1.8077992
1.3355076 0.67553478 1.8313344
1.3553854 0.67423576 1.8088747
1.3379298 0.72475672 1.8294828
1.3569331 0.730187 1.8080759
1.3354627 0.7765314 1.8299931
1.3580585 0.77480954 1.8057226
1.335263 0.82729572 1.8308145
1.3569791 0.82785988 1.8061104
1.3325819 0.87884039 1.8341423
1.3556727 0.87357694 1.8091106
1.3353723 0.92536396 1.8293502
1.3552219 0.92637998 1.8063357
1.3339988 0.97216129 1.8313339
1.3554293 0.97592038 1.8056704
1.3346338 1.0228403 1.8322402
1.3559794 1.0288067 1.8070943
1.3351294 1.0746614 1.8316061
1.3583174 1.0761594 1.8070825
1.3357399 1.1241553 1.8316815
1.3543892 1.1283362 1.8087109
1.3327197 1.1732683 1.8330795
1.3552247 1.1713241 1.8049053
1.3372844 1.2253231 1.829039
1.3546748 1.2235038 1.8093549
1.3335658 1.277608 1.8338382
1.3577539 1.2802966 1.8101808
1.3372718 1.3235058 1.8303075
1.3591468 1.322068 1.8091872
1.3380531 1.3714701 1.8282621
1.3603675 1.3642493 1.8072504
1.3359251 1.4189842 1.8363277
1.356339 1.4300128 1.8156868
1.3380023 1.4749103 1.8393602
1.3555268 1.4759601 1.8146373
1.3405054 1.5231476 1.8371964
1.3618205 1.5251609 1.8105361
1.3371307 1.5797945 1.8380251
1.3568133 1.5692668 1.8117579
1.3421607 1.6329159 1.8375756
1.3617312 1.6265932 1.8146256
1.3373494 1.6713104 1.8428679
1.3582561 1.6745043 1.8168373
1.3411589 1.7288136 1.8413086
1.3623841 1.7249998 1.8187991
1.3417675 1.7689607 1.8427914
1.3683742 1.7620478 1.8158129
-1.764575 -0.60217291 1.8793603
-1.7098945 -0.60103148 1.8504542
-1.6984643 -0.60109824 1.8598204
-1.9208509 -0.56918997 1.8808426
-1.8711798 -0.5845589 1.8685176
-1.8355309 -0.58795136 1.8817002
-1.787529 -0.58812213 1.8687481
-1.7097002 -0.58954316 1.8763542
-1.6768193 -0.58428705 1.8841542
-1.6250808 -0.57990992 1.8672283
-1.9381794 -0.5484302 1.8602537
-0.65986085 -0.48583752 1.881294
-0.62695867 -0.48305565 1.8671165
-0.57819176 -0.48333818 1.8893765
-0.53051752 -0.4811821 1.8766145
-0.49622598 -0.47999546 1.8518018
-0.30719465 -0.47328454 1.8525925
-0.27127001 -0.47387838 1.8672494
-0.22892696 -0.47606784 1.8711677
-0.17527287 -0.4736174 1.8653064
-0.12894948 -0.47569269 1.8653768
-0.058983877 -0.47436178 1.8638086
-0.026606962 -0.47418448 1.8792214
0.025998045 -0.47803688 1.869446
0.071981914 -0.47962451 1.8749189
0.11897374 -0.4845106 1.8736525
0.17614977 -0.48183641 1.8727036
0.22003134 -0.48254171 1.8661848
0.27345079 -0.48244709 1.87361
0.32493579 -0.48579279 1.8792093
0.37457287 -0.48543298 1.8736379
0.41948041 -0.47725856 1.8732481
0.49849445 -0.48664805 1.8783526
0.50094682 -0.47963709 1.8892387
0.58666688 -0.46600547 1.8837982
0.60976762 -0.4749299 1.8782781
0.58954245 -0.43400347 1.8710612
0.62571943 -0.42168126 1.8590517
-2.104522 -0.26235253 1.861851
-2.0825322 -0.23203279 1.8688706
1.3265808 0.53528023 1.8590007
1.3208541 0.58511454 1.8602716
1.3201874 0.6245591 1.8600382
1.3142655 0.6788038 1.860338
1.295023 0.74978781 1.8870518
1.3130277 0.72700113 1.8677089
1.2889011 0.78069746 1.8858753
1.3104109 0.7723738 1.8616164
1.2868974 0.82712781 1.8867058
1.309727 0.82286322 1.8618418
1.2886935 0.87350196 1.8838112
1.3102823 0.87347794 1.8599091
1.2853116 0.92542106 1.884362
1.3085363 0.92068124 1.85876
1.2883595 0.97663689 1.8836917
1.3091278 0.97521585 1.8602219
1.2870275 1.0265666 1.8825371
1.3094181 1.0246806 1.8598343
1.2856929 1.0740426 1.8867753
1.3091825 1.0785055 1.860484
1.2893741 1.1218299 1.8840231
1.3110434 1.1268953 1.8601513
