ply
format ascii 1.0
comment PCL generated
element vertex 1508
property float x
property float y
property float z
element camera 0
property float view_px
property float view_py
property float view_pz
property float x_axisx
property float x_axisy
property float x_axisz
property float y_axisx
property float y_axisy
property float y_axisz
property float z_axisx
property float z_axisy
property float z_axisz
property float focal
property float scalex
property float scaley
property float centerx
property float centery
property int viewportx
property int viewporty
property float k1
property float k2
end_header
-0.9336521 0.27454093 3.0957196
0.28095472 0.27287307 3.0749285
0.27986816 0.32468346 3.073518
0.24163389 0.3865712 3.0941317
0.27212605 0.37977403 3.0642557
0.17198281 0.42214823 3.071306
0.22956179 0.41824362 3.0785394
0.27232894 0.42956218 3.0661702
-2.8643966 0.47124341 3.0705967
-2.831382 0.47380185 3.0954018
0.27496275 0.47473118 3.0771866
-2.8604755 0.53071904 3.0655653
-2.8340964 0.52158928 3.0917869
0.27795246 0.52957326 3.0766578
-2.8656547 0.57905692 3.0636609
-2.8355019 0.56920201 3.0860441
0.28509772 0.57758111 3.0595269
-2.8681767 0.63120341 3.0610623
-2.8438282 0.62785929 3.0855057
0.27850613 0.62383199 3.0630798
-2.8595524 0.67926234 3.069315
-2.8400671 0.67670596 3.0905831
-1.6096056 0.69427872 3.0523813
-1.5787961 0.68705094 3.0612042
0.27793926 0.67380631 3.0616977
-2.9014111 0.74693 3.0531173
-2.8714573 0.726421 3.0714128
-2.8370264 0.72593611 3.0957901
-1.617267 0.73125988 3.06744
-1.5826952 0.72463882 3.0899107
0.27931726 0.73736966 3.0554557
-2.86693 0.77748048 3.0744851
-2.840555 0.76503676 3.0916777
-1.6268349 0.77274793 3.0779212
0.27235559 0.77171057 3.0557816
-2.8717875 0.82587367 3.0763803
-1.6688492 0.82524914 3.0672436
-1.6391646 0.81554908 3.0885413
0.27200708 0.82353604 3.064991
-2.9018748 0.88677901 3.0582211
-2.8770857 0.87468684 3.0781841
-1.6666143 0.86870092 3.0648472
-1.63885 0.87804222 3.0907853
0.24104981 0.88338262 3.084945
0.2673952 0.87373763 3.0681565
-2.9063969 0.92676193 3.0528848
-2.8760166 0.92726535 3.0811365
-1.6686958 0.92682636 3.0709658
-1.6396353 0.90908885 3.0895929
0.24759805 0.92937118 3.0952702
0.26849017 0.92272896 3.0718708
-2.9123898 0.98452741 3.0693483
-2.8788819 0.97543955 3.0937498
-1.7038829 0.99549186 3.0578792
-1.6715032 0.97937799 3.0772624
-1.6443747 0.99960852 3.09813
0.24827583 0.97772944 3.0941668
0.27048919 0.97571117 3.0717525
-2.9138019 1.017377 3.0615666
-2.8796551 1.0262229 3.0860372
-1.7055016 1.0296767 3.0522912
-1.6786139 1.0301572 3.0737433
-1.6458466 1.0255189 3.0946879
0.24903369 1.0267286 3.0934696
0.27239469 1.0212563 3.0674193
-2.9153233 1.0721389 3.059803
-2.8815165 1.0749813 3.0814223
-1.7058352 1.0902722 3.0767138
-1.6788449 1.0733473 3.081315
-1.6462524 1.0507787 3.0890768
0.24991108 1.0687593 3.0955083
0.27112749 1.0692726 3.0716908
-2.9194686 1.1261508 3.067157
-2.887023 1.1248994 3.0880499
-1.7110958 1.1195347 3.062856
-1.6775744 1.1280466 3.0858967
0.27929381 1.1223278 3.0645642
-2.9238842 1.1753056 3.0679684
-2.8987584 1.1687287 3.0878119
-1.7039652 1.1560876 3.0543637
-1.6795642 1.1727393 3.0763767
0.27781799 1.176158 3.0705721
-2.9525681 1.2041734 3.0602603
-2.9285328 1.2267385 3.0704114
-2.890377 1.222571 3.0992017
-1.7059711 1.232612 3.062422
-1.678845 1.2184896 3.0879066
0.27994552 1.2222842 3.0695829
-2.9702668 1.2907839 3.0500996
-2.9290881 1.2804042 3.0773253
-2.8964875 1.2646123 3.0919003
-1.7124474 1.2737533 3.059608
-1.6814185 1.2764152 3.0841115
0.27559772 1.2796524 3.0717995
-2.9523213 1.3114401 3.061466
-2.9169445 1.3187908 3.0767207
-1.7125835 1.3265377 3.0591094
-1.6909075 1.3209952 3.0800557
0.2801837 1.3280926 3.0724316
-2.9646311 1.3667762 3.0550203
-2.9239881 1.3763192 3.0837004
-1.7129725 1.3761742 3.0639539
-1.6854528 1.3750678 3.0889263
0.27607071 1.3765589 3.0809431
-2.9665062 1.4247069 3.065073
-2.927515 1.4327513 3.0862751
-1.7183965 1.4289291 3.0653596
-1.6887939 1.4253604 3.0868344
0.27909744 1.4230151 3.0706694
0.30175185 1.4421614 3.0518093
-3.0008831 1.4743376 3.0553293
-2.9660192 1.4770889 3.0531354
-2.9381645 1.4781823 3.0808563
-1.7189833 1.474124 3.0620387
-1.6901526 1.4790374 3.0875442
0.2749294 1.4797224 3.0749006
-2.9547949 1.5218022 3.0620155
-2.9323587 1.5274172 3.0876892
-1.7188972 1.5197996 3.0617173
-1.6964566 1.5192735 3.0856273
0.27737656 1.5290133 3.0805769
-2.9627659 1.5732762 3.0635347
-2.938472 1.5678906 3.0919898
-1.7278777 1.5711639 3.0874043
0.28510088 1.5781872 3.0726943
-2.9741104 1.6183856 3.0645933
-2.9427664 1.6178701 3.0893474
0.28002793 1.6178434 3.0757623
0.30754003 1.6296449 3.05229
-2.9710174 1.6736037 3.0688477
-2.9334393 1.6749967 3.094063
0.28662524 1.6714557 3.0773509
0.30960265 1.6888462 3.0535095
-2.9697645 1.730261 3.0713158
0.28850704 1.7271982 3.0793672
0.31086308 1.7280809 3.0525148
-2.9703681 1.7780197 3.0750759
-2.9491613 1.7991194 3.0988894
0.29032993 1.7749014 3.0833411
0.31372982 1.7847383 3.0633149
-2.9729087 1.8320848 3.0688877
-2.9326255 1.8430381 3.0991058
0.29334515 1.8211571 3.0814619
0.3143366 1.8208716 3.0548296
-2.9759269 1.8819281 3.0696597
-2.9407649 1.8793247 3.0913684
0.28532422 1.8609451 3.0892935
0.31048328 1.8746608 3.0647202
-3.0053992 1.9462901 3.0524106
-2.9762034 1.9310434 3.0759408
0.28823733 1.9301181 3.0976186
0.31145003 1.9271197 3.0737035
-2.9763777 1.9854752 3.0742874
0.31793135 1.9729881 3.0700231
-2.9758458 2.0350089 3.0787144
0.2910102 2.0077627 3.0987945
0.31740376 2.0168064 3.0704994
-2.9737008 2.0838852 3.0809975
0.29326236 2.0828555 3.0924022
0.31843805 2.0749214 3.0683205
-2.9785614 2.1303303 3.0673878
0.29503992 2.1297245 3.0929849
0.32378951 2.1250634 3.0668473
-2.9766223 2.1746254 3.0705383
0.2974053 2.1899266 3.0941682
0.31972232 2.1811094 3.0729828
-2.9696593 2.2226419 3.0802398
-2.9403787 2.2006161 3.0990129
0.29376638 2.2296257 3.0820575
0.32273439 2.2295542 3.0626769
-2.9741948 2.2647064 3.0711737
-2.9357157 2.2883971 3.0877352
0.29410717 2.2839556 3.0774686
0.3211807 2.27037 3.0568111
-2.9683712 2.3095047 3.0577481
-2.9276881 2.3287859 3.0801125
-2.8961692 2.3448062 3.0915005
-1.3512939 2.3463268 3.0548058
0.27743524 2.3249974 3.0840466
0.30624071 2.3228023 3.060833
-2.9116936 2.3615303 3.0545044
-2.872457 2.3556781 3.0722628
-2.8333559 2.365829 3.0792928
-2.7746742 2.3734493 3.080478
-2.7133169 2.3833385 3.0737989
-2.6849003 2.3873119 3.0741963
-2.6341705 2.3905456 3.0701962
-2.5978997 2.3967032 3.0713117
-2.3460772 2.3933048 3.0754735
-2.2769825 2.3838813 3.0679951
-2.2474298 2.3947752 3.0904186
-2.1732311 2.3885775 3.0744948
-2.148083 2.3937578 3.0995848
-2.074208 2.3649025 3.0664935
-2.0278623 2.366405 3.0720074
-1.9814533 2.3771412 3.0697432
-1.9295578 2.3731146 3.0915909
-1.8685856 2.3558016 3.0788705
-1.8155981 2.3629532 3.0767922
-1.7735957 2.3575304 3.0702496
-1.7371826 2.361867 3.0806639
-1.664562 2.3589261 3.0667903
-1.6303085 2.365639 3.0792158
-1.5797937 2.3543522 3.0766702
-1.536705 2.3644977 3.069417
-1.4794407 2.3732111 3.0725009
-1.4374151 2.3734875 3.0831451
-1.3867875 2.3571827 3.0981536
-1.3204361 2.3566258 3.0817783
-1.2786837 2.3612688 3.0740812
-1.2207112 2.369235 3.0765097
-1.1703334 2.3780012 3.0673189
-1.1142664 2.3841186 3.0745866
-1.077768 2.3832521 3.0717199
-1.0267366 2.3769283 3.0773933
-0.96986991 2.3827839 3.0762444
-0.93751538 2.3873286 3.0542803
-0.87119186 2.3944077 3.0712423
-0.81751508 2.3835096 3.0655453
-0.77966541 2.388942 3.0573337
-0.73642421 2.3931856 3.0719261
0.1807906 2.3991222 3.078362
0.22493097 2.3908665 3.0823679
0.26573679 2.3747978 3.0715387
-2.6493943 2.4057078 3.052007
-2.5699253 2.4205894 3.0837543
-2.5287328 2.4318812 3.0798252
-1.0850426 2.4162383 3.0534077
-0.91742349 2.4052289 3.0840349
-0.71267235 2.4033909 3.0902638
-0.67828286 2.4059536 3.0735312
-0.61973107 2.4129202 3.0753655
-0.57846552 2.4127598 3.0730495
-0.53345209 2.4148922 3.0738077
-0.47529194 2.417474 3.0763576
-0.42208678 2.4224658 3.0805995
-0.37129742 2.4184241 3.0756207
-0.32877097 2.4222388 3.0776281
-0.27399388 2.4187298 3.072422
-0.22123261 2.4212837 3.0791421
-0.17215326 2.4198501 3.0714157
-0.11476974 2.4249339 3.0715699
-0.075053751 2.4216318 3.0768919
-0.030872328 2.4193757 3.0746136
0.022117591 2.4118152 3.0819771
0.075127214 2.4127688 3.0825188
0.1281258 2.4121773 3.0803387
0.1717743 2.4046466 3.0690174
-0.69982088 -0.56590205 3.1227479
-0.82227737 -0.42059201 3.1182976
-0.82768077 -0.37715167 3.1426849
-0.91311771 -0.30552983 3.1067505
-0.82832652 -0.33893931 3.1480827
-0.9113965 -0.266826 3.1032302
-0.8922832 -0.2909447 3.1196291
-0.90985179 -0.21307038 3.1007164
-0.87567616 -0.2293261 3.1211936
-0.8372218 -0.22927529 3.1274633
0.23013353 -0.22444405 3.1267686
-0.9823668 -0.1847835 3.1264429
-0.91912353 -0.1690577 3.1342838
0.23213783 -0.17777634 3.1301646
0.25645009 -0.17830138 3.1054657
-0.90582854 -0.12324006 3.1458397
0.22986814 -0.12272568 3.1317768
0.25627863 -0.12621009 3.1049995
-0.9053477 -0.084629014 3.145009
-0.89044124 -0.092397355 3.14961
0.23567338 -0.074762903 3.1297321
0.25628203 -0.089072153 3.1058829
-0.90657777 -0.015307393 3.149981
0.2355321 -0.029864756 3.1282265
0.25656605 -0.022246918 3.1100554
0.17632075 0.017522501 3.1411505
0.23678665 0.025729764 3.1306994
0.25632045 0.022315891 3.1070261
-0.90541559 0.076606706 3.1173301
0.18264711 0.074532069 3.1198308
0.23050055 0.073100314 3.136004
0.2558614 0.074190125 3.1009338
-0.90340638 0.10777298 3.1376612
0.23677297 0.12403136 3.1289232
0.25649825 0.12640893 3.1074979
-0.91023678 0.17533422 3.1033244
0.232622 0.17825277 3.1364217
0.25670314 0.17858453 3.1083
-0.91116863 0.22889908 3.10414
0.23099752 0.22724435 3.1378169
0.25718832 0.2236305 3.1122653
-0.91254997 0.27506724 3.1063099
0.15292549 0.29831415 3.1142025
0.23635133 0.27013186 3.1315472
0.25690353 0.27549338 3.1060486
0.15404309 0.32303458 3.1354833
0.23436046 0.32250363 3.1353559
0.2575582 0.32846841 3.1106327
0.2313572 0.37516487 3.1247289
0.26227751 0.36789933 3.104418
0.18476796 0.42231342 3.1388845
0.22143537 0.43535084 3.1212912
-2.809341 0.46930453 3.1161649
-2.7893252 0.48410708 3.1364613
0.19981915 0.48249209 3.1316133
0.23107319 0.47514641 3.1275225
0.2585479 0.47958446 3.1097493
-2.8109772 0.52511215 3.1133482
-2.7856882 0.51875657 3.1335347
0.19982253 0.54281181 3.1251438
0.22964852 0.52702785 3.1211023
0.25852352 0.5394696 3.1029842
-2.8106129 0.56987292 3.1121387
-2.7857482 0.57057101 3.1379449
0.23365434 0.56558591 3.1303549
0.25961185 0.56432599 3.1133871
-2.8182743 0.62848687 3.1111157
-2.7868927 0.63360941 3.1379695
-2.8193586 0.67385072 3.1102607
-2.7839041 0.6768561 3.1358855
-2.8110108 0.72989953 3.1166768
-2.7899265 0.72687024 3.1394863
-1.5576217 0.7362839 3.1155791
-1.5381134 0.73868239 3.1346986
-2.8205276 0.77693558 3.1216273
-2.7911608 0.77671838 3.1430492
-1.6040322 0.77168751 3.1050847
-1.5755416 0.77383447 3.1260433
-1.5410602 0.7565394 3.1378274
-2.8232734 0.8295905 3.1210785
-2.7977958 0.81697011 3.1421175
-1.6179463 0.82796705 3.106596
-1.5838169 0.82751083 3.1330779
-2.8277781 0.87796015 3.1256592
-1.6131915 0.8753503 3.1146858
-1.5832877 0.8731221 3.1432061
0.21111953 0.89051956 3.1303816
-2.8535602 0.9186269 3.1079514
-2.8274307 0.92918754 3.1313961
-1.6251926 0.93153203 3.1154685
-1.5967785 0.91766644 3.1414356
0.22033843 0.92440969 3.1237071
-2.8594382 0.96892035 3.1015351
-2.8276322 0.98155612 3.1292374
-1.6205986 0.97236073 3.1252265
0.22256124 0.97661287 3.1233511
-2.830471 1.020795 3.1294253
-1.6204674 1.0222121 3.1253531
0.22207408 1.0242116 3.1264424
-2.8547602 1.0712343 3.105149
-2.8322122 1.0737145 3.1355884
-1.6568669 1.0827372 3.1023698
-1.627845 1.0773513 3.1267223
0.22878456 1.0702738 3.1253684
0.251329 1.0980264 3.1075275
-2.86061 1.1260016 3.1148779
-2.8356552 1.1277025 3.1429811
-1.6594745 1.1096495 3.1004536
-1.6288025 1.1286291 3.1276066
0.22978245 1.1216273 3.1275852
0.25161541 1.1225202 3.1053569
-2.8695731 1.1687912 3.1119688
-2.8442464 1.1704402 3.1399517
-1.654406 1.1852937 3.1103222
-1.6250582 1.1721643 3.1325588
0.23056652 1.1723657 3.1264446
0.25274149 1.1664227 3.1093795
-2.8716874 1.2268906 3.1148992
-2.8358371 1.2103411 3.136199
-1.6579905 1.2218076 3.10691
-1.6263291 1.2277753 3.1323781
0.23159516 1.2247036 3.1279192
0.2538383 1.2261652 3.1083241
-2.8691394 1.2800719 3.1253133
-1.6574548 1.2788458 3.1094859
-1.6311467 1.2706814 3.1296203
0.232619 1.2774633 3.1285942
0.25403807 1.2583981 3.102071
-2.8745613 1.3220137 3.1249304
-1.663403 1.326208 3.1067023
-1.6300575 1.3213316 3.1337116
0.23478954 1.3249485 3.1235521
0.25547567 1.3284225 3.1012845
-2.9010873 1.3549525 3.104774
-2.8712769 1.3748628 3.1213207
-2.8461668 1.3870845 3.1465833
-1.6626478 1.3754809 3.1103556
-1.6349487 1.3678194 3.1328063
0.23306094 1.376838 3.1228549
0.25645143 1.3729734 3.1010041
-2.8778517 1.4328818 3.127634
-1.6626941 1.4258211 3.1149635
-1.6364597 1.4206421 3.1381609
0.23554155 1.4292815 3.1266956
0.25778663 1.4277258 3.1019537
-2.9155407 1.4819429 3.113843
-2.8852937 1.4818845 3.1383295
-1.6724575 1.4726578 3.1146026
-1.643867 1.4747814 3.1389811
0.23685735 1.4774481 3.1308916
0.25878224 1.4650754 3.1034043
-2.9109676 1.5251361 3.1108608
-2.8871739 1.5215951 3.1311929
-1.6711975 1.5233876 3.125814
0.23504396 1.5259242 3.1279526
0.26045993 1.5387073 3.101295
-2.914386 1.579836 3.1271946
-2.8792665 1.5686406 3.1433423
-1.7070748 1.5718021 3.1107783
-1.6905342 1.5639397 3.1238673
0.23789144 1.5784242 3.1364601
0.26170906 1.5783272 3.1044645
-2.9120584 1.6176931 3.1142874
-2.8807449 1.617185 3.138176
0.24219248 1.6277272 3.1342947
0.2635552 1.6381174 3.1081219
-2.9071176 1.6686691 3.1206443
-2.888175 1.651947 3.1322725
0.24376982 1.666942 3.1267643
0.26429775 1.6752914 3.1041729
-2.9215446 1.7165825 3.1246409
-2.8937888 1.7286204 3.1480539
0.23540287 1.742799 3.1381269
0.26155952 1.7312016 3.1216478
-2.9204433 1.7694196 3.126091
0.26336426 1.7737057 3.1098623
-2.9217894 1.8220056 3.1176846
-2.8930759 1.8337843 3.1401072
0.26207227 1.8305775 3.1281171
-2.9115207 1.8804779 3.1188693
-2.8898666 1.897032 3.1489077
0.27120912 1.8820612 3.1166518
-2.9218903 1.9351095 3.1183543
-2.8944929 1.9209517 3.1428628
0.26306319 1.9199753 3.1284564
-2.9502995 1.9722042 3.10109
-2.9201951 1.9835637 3.1223645
-2.8944979 1.9979728 3.1482077
0.27457115 1.977394 3.1218104
-2.9283738 2.0377088 3.1182122
-2.8989992 2.0221488 3.141371
0.27264208 2.0251818 3.1201344
-2.9243124 2.0854011 3.1186664
-2.8941288 2.0864592 3.1458321
0.27247116 2.0747361 3.1276658
-2.9198613 2.1307564 3.1220469
0.2715174 2.1293263 3.128485
-2.9578493 2.1550837 3.1032627
-2.9285738 2.1686409 3.1168308
-2.8914747 2.1638465 3.1455963
0.27868748 2.1814392 3.1314793
-2.9172771 2.2189019 3.1189115
-2.8928714 2.2157204 3.1415019
0.24970184 2.2344575 3.1434059
0.27353814 2.2148185 3.1140695
-2.9169819 2.2598689 3.1099932
-2.8925581 2.266654 3.1349387
0.23376942 2.2850623 3.1458907
0.2642169 2.2748206 3.1183274
-2.8783131 2.3261702 3.1259589
-2.8334928 2.3461864 3.1437578
0.23495689 2.3410416 3.135834
0.25152713 2.3214674 3.1255939
-2.8133516 2.3598299 3.1277456
-2.7712779 2.3620279 3.1341567
-2.7302592 2.3760204 3.1250074
-2.6756878 2.3864822 3.1286113
-2.6284819 2.3932424 3.1286306
-2.3672514 2.394428 3.1171143
-2.2782488 2.3861635 3.1238451
-2.2029333 2.3900926 3.1097217
-2.1714971 2.378212 3.1239302
-2.1329758 2.3891368 3.1254172
-2.0588756 2.3713167 3.1116409
-2.0270202 2.3802333 3.1460226
-1.9786453 2.3776605 3.1200361
-1.9258816 2.3730907 3.1407707
-1.8710337 2.3630428 3.1287646
-1.8227452 2.3606522 3.1262503
-1.7809021 2.3659954 3.1335325
-1.7262174 2.3645027 3.1200647
-1.6799113 2.3619797 3.1258392
-1.6190512 2.3561041 3.1263452
-1.5809731 2.355952 3.1427629
-1.501946 2.3740642 3.1200624
-1.4725842 2.3722563 3.1291378
-1.4109461 2.3635359 3.1396241
-1.3670745 2.3596206 3.1228437
-1.3279732 2.3562934 3.1319773
-1.2745429 2.364656 3.1300018
-1.2248677 2.3767149 3.1252475
-1.1636429 2.3865931 3.12692
-1.1215391 2.3819194 3.1264892
-1.065418 2.3695118 3.1249509
-1.0188775 2.3813653 3.1264608
-0.97860026 2.3814127 3.118475
-0.92410296 2.3953419 3.1239703
-0.88214141 2.3894925 3.1074681
-0.82833225 2.3908587 3.1215787
-0.76146698 2.3953154 3.1296272
-0.73464966 2.3986681 3.1154253
-0.68075329 2.3993256 3.126334
0.18243818 2.3946767 3.1237557
0.2178037 2.3704228 3.1317084
0.25187781 2.3512459 3.1140261
-2.6048326 2.4014087 3.1337836
-2.4074888 2.4142957 3.1291394
-2.360435 2.4083147 3.1488309
-2.3376729 2.4054883 3.1046855
-2.2360733 2.404165 3.1153662
-1.178663 2.404541 3.1224394
-0.86241376 2.4101896 3.1406975
-0.82908201 2.4112637 3.1129735
-0.78368288 2.4107447 3.1219988
-0.71783447 2.4027271 3.124157
-0.66909838 2.4078581 3.104254
-0.62596005 2.4056091 3.1264133
-0.57013112 2.4073098 3.1196868
-0.52534842 2.4166021 3.1208999
-0.48323217 2.4143627 3.1199691
-0.42259055 2.4164045 3.1298461
-0.3712393 2.4161808 3.1209314
-0.31741771 2.4153123 3.1246347
-0.28125459 2.4208694 3.1174529
-0.23154314 2.4221041 3.1258254
-0.17040655 2.4170966 3.12255
-0.12047062 2.4195979 3.1242592
-0.084232107 2.4134047 3.1001229
-0.031201422 2.4187975 3.1249838
0.022320734 2.4086924 3.1290596
0.075829752 2.4083786 3.1279757
0.12920907 2.4056175 3.1229715
0.16500908 2.4084883 3.1253669
-0.6810804 -0.56036496 3.1844881
-0.6182757 -0.55989528 3.1902404
-0.76411211 -0.53517306 3.1634474
-0.8135516 -0.4203079 3.1786411
-0.79390389 -0.43792728 3.1960471
-0.81442505 -0.37400171 3.1859052
-0.82290512 -0.32651606 3.180227
-0.8204428 -0.2772752 3.1764274
-0.82321179 -0.2424469 3.1842465
0.18566556 -0.22721267 3.1672447
0.20439999 -0.22697526 3.1633744
-0.96773028 -0.18642154 3.1589522
-0.91034472 -0.17808914 3.1598322
-0.87740022 -0.16996871 3.1589458
-0.84021467 -0.16872227 3.1848607
0.18550996 -0.17404468 3.1667221
0.20670573 -0.17045541 3.1595345
-0.87039417 -0.12368658 3.164562
-0.83327866 -0.12839156 3.1928222
0.18585806 -0.12127881 3.1742487
0.20085092 -0.12117674 3.170907
-0.90735608 -0.061656453 3.1523373
-0.86954266 -0.075965412 3.1704786
0.18545277 -0.075624093 3.1682127
0.2078113 -0.075508766 3.162204
-0.90733671 -0.038488742 3.1524949
-0.87235332 -0.030899236 3.1731751
0.17918888 -0.027167182 3.1651242
0.20761414 -0.030149946 3.159724
-0.90804571 0.023308039 3.1549907
-0.87259591 0.023381215 3.1740203
0.18471369 0.037724648 3.1560402
0.21126509 0.017010728 3.157819
-0.90911913 0.069762662 3.1582551
-0.87366104 0.077791162 3.1773043
0.17036116 0.090867214 3.1691947
0.20744732 0.090540394 3.1562796
-0.9089973 0.13165945 3.1564646
-0.87528199 0.12462799 3.1821797
0.17804091 0.12121987 3.1701229
0.20779173 0.12090828 3.1609097
-0.91024488 0.17056406 3.1595151
-0.88286519 0.17126946 3.1784894
0.17819765 0.17439558 3.171185
0.20668648 0.17053178 3.1590519
-0.90855098 0.23088981 3.1700814
-0.88286865 0.21649985 3.1840165
0.17951332 0.2291358 3.1925516
0.20500307 0.22401343 3.1728704
-0.90960574 0.27613723 3.166517
-0.88576823 0.27717236 3.1838374
0.18760456 0.27561423 3.1976395
0.2099452 0.26982069 3.1648779
-0.91552705 0.32835236 3.1789701
-0.88364482 0.32553789 3.182991
0.17691153 0.3357515 3.1841619
0.20791617 0.32785359 3.1699691
-0.91090697 0.37925869 3.1839566
-0.88193285 0.3789261 3.1866701
0.17359895 0.37674913 3.1833973
0.20752695 0.37702316 3.1669219
-0.90982938 0.41977721 3.1855204
-0.88212699 0.42360207 3.1895492
0.17200921 0.41268548 3.1828442
-2.7639036 0.46752295 3.163343
-2.7367554 0.48740804 3.1771438
-0.90786022 0.47180572 3.1883287
-0.88459897 0.47197482 3.19399
0.16949369 0.46623057 3.1889408
0.2070266 0.46732855 3.1669042
-2.7638025 0.5225234 3.1558924
-2.7394524 0.52327287 3.1815305
-0.91056216 0.52050442 3.1927958
-0.89450675 0.52034253 3.1947987
-2.7617724 0.56727499 3.1614029
-2.7385781 0.57630217 3.1817803
-0.91134071 0.5761922 3.1890361
-0.89052528 0.57634646 3.1939037
0.20327064 0.56751686 3.1772861
-2.7607036 0.62490523 3.158138
-2.7281179 0.62950361 3.1881263
-0.91231626 0.63213938 3.1852877
-0.89314067 0.63253254 3.1911645
-2.7575409 0.67735887 3.1598544
-2.734302 0.67865258 3.1870432
-1.4266101 0.67458212 3.1917641
-0.90961361 0.6854167 3.1920483
-0.89935946 0.6658209 3.1940567
-2.7684352 0.72787607 3.1631739
-2.7309015 0.72715884 3.1860888
-1.5167903 0.74432945 3.1703794
-1.4904351 0.74766177 3.1960213
-0.90235591 0.72370958 3.1963825
-0.88551581 0.7149905 3.1972737
-2.7657576 0.77762216 3.1684635
-2.7392092 0.77821553 3.1922431
-1.5530932 0.78731477 3.1578369
-1.5255967 0.77596813 3.1779683
-0.88905406 0.78165042 3.199785
-2.7689798 0.83109426 3.1747632
-2.7492568 0.80996197 3.1978304
-1.5585526 0.83165008 3.1610763
-1.5303705 0.82248247 3.18578
-2.7756011 0.88037741 3.168534
-2.7487273 0.86759287 3.1842098
-1.5594333 0.87962502 3.1673193
-1.5416048 0.86702526 3.1846833
-2.8024671 0.93048388 3.1583889
-2.7777219 0.91834658 3.1770966
-1.5680382 0.92036563 3.1631844
-1.5346394 0.92777121 3.1909444
0.17872889 0.9304136 3.17941
-2.8052459 0.9604919 3.1539652
-2.7807014 0.97173852 3.1786013
-1.5707123 0.97756463 3.1715956
0.18463795 0.97271025 3.1718974
-2.7838392 1.0255224 3.1795201
-1.5760597 1.0284423 3.1711371
-0.91827112 1.0197065 3.1992385
0.17927831 1.0206161 3.1803076
-2.8071394 1.0752689 3.1629765
-2.7800789 1.0761038 3.1877463
-1.6034564 1.0835685 3.1580257
-1.5727432 1.0715836 3.1752717
0.1859986 1.0743593 3.1748047
0.20726426 1.0791991 3.1525238
-2.8106382 1.1313846 3.1634786
-2.7854662 1.1252073 3.1864974
-1.6036819 1.100652 3.1540456
-1.5762545 1.1221786 3.1753092
-1.5487329 1.1439056 3.1966052
0.1802752 1.1211025 3.1764278
0.20798968 1.1300715 3.1522617
-2.8129754 1.1763647 3.162703
-2.7884367 1.1716633 3.1890373
-1.5749873 1.1785892 3.1791031
0.18649311 1.1744487 3.1805718
0.20890933 1.1823698 3.1542733
-2.8176446 1.2386377 3.1720021
-2.7977173 1.2051959 3.1900835
-1.5804962 1.2276736 3.1748784
0.18401444 1.2305728 3.183846
0.20960504 1.225849 3.154366
-2.8221307 1.2762665 3.1647329
-2.7940328 1.2915843 3.196573
-1.6069756 1.2775686 3.1540999
-1.5775744 1.2768347 3.1842256
0.1893229 1.2748302 3.1767268
0.21053141 1.2709978 3.1573899
-2.825407 1.3221726 3.1647754
-2.797555 1.3230456 3.1899505
-1.6074615 1.3322513 3.1602554
-1.5816655 1.320508 3.1833267
0.18871279 1.3248881 3.1811135
0.21144871 1.324442 3.1574214
-2.8201318 1.3640897 3.1712539
-1.6140903 1.3820444 3.1662076
-1.5878069 1.3772243 3.1881747
0.1878624 1.3738395 3.1811862
0.21249866 1.3791319 3.1586618
-2.8297684 1.4238001 3.1734817
-1.6139612 1.4275608 3.1656487
-1.5874363 1.4181269 3.1859787
0.19385631 1.417484 3.173918
0.21325953 1.4323483 3.1548102
-2.8566332 1.4826617 3.1641793
-2.8263228 1.4825701 3.1877234
-1.6213783 1.4746689 3.1735592
-1.5939184 1.4760174 3.1964729
0.19510221 1.4713209 3.179879
0.2141864 1.4790037 3.1553085
-2.8640523 1.5269477 3.1554899
-2.8346562 1.527383 3.180347
-1.6270288 1.5215186 3.1748345
0.18846908 1.5241278 3.1921048
0.21049654 1.532046 3.1678534
-2.854557 1.5833956 3.1615329
-2.8399727 1.5692736 3.1768723
-1.6627922 1.5677673 3.1618283
-1.6390499 1.5673126 3.1873035
0.20689675 1.5734272 3.1666071
-2.8637156 1.6190305 3.1580539
-2.83764 1.6215236 3.1870534
0.18610683 1.6127717 3.1958256
0.21131361 1.6248518 3.1683068
-2.8661637 1.6670941 3.1614265
-2.8340213 1.6661615 3.1839125
0.21564007 1.6724808 3.1687257
-2.8728828 1.7105922 3.1576576
-2.8369312 1.7149678 3.1875446
0.21802847 1.7184874 3.1765058
-2.8727102 1.7757912 3.163332
-2.8341227 1.7752638 3.1922817
0.22190711 1.7755145 3.1793437
-2.8693173 1.8327421 3.1681442
-2.8427026 1.8138769 3.1931944
0.22136256 1.8239737 3.1870127
0.25464201 1.8034183 3.153713
-2.8714836 1.8662978 3.1694839
-2.845124 1.8636864 3.1946414
0.22606447 1.8743268 3.1734123
0.25627908 1.8654556 3.1521389
-2.8694026 1.9146169 3.1801748
0.22516508 1.9235884 3.1734753
-2.8748333 1.9719445 3.1731703
0.2321558 1.9802881 3.1702416
-2.8690858 2.0289829 3.169879
-2.8425155 2.026793 3.1987069
0.22801077 2.0222924 3.1780994
-2.8670101 2.0836771 3.1714036
-2.8455105 2.0500684 3.1902637
0.23464759 2.0676277 3.1717131
-2.8652477 2.1158352 3.1664908
-2.8390083 2.1244128 3.1867435
0.23063408 2.12128 3.1772518
-2.8649795 2.1688013 3.1679761
-2.8297601 2.1654205 3.1980391
0.23208633 2.1725659 3.1772511
-2.8664379 2.2200572 3.1729727
-2.8420572 2.2069654 3.1928003
0.22720216 2.2198665 3.1703031
-2.8652856 2.2705007 3.1655979
-2.8318777 2.2695227 3.1892853
0.19970691 2.2546387 3.1922569
0.22241175 2.2688339 3.1644268
-2.8615146 2.3084068 3.1615975
-2.8246009 2.3236108 3.1745603
-2.7964411 2.3403306 3.1902936
-1.598465 2.3486857 3.1666195
-1.3745937 2.3467422 3.1681085
-1.3279228 2.3471341 3.1854079
0.18382397 2.3316102 3.1952837
0.21258795 2.3256805 3.1740417
-2.7609828 2.3607855 3.1699085
-2.7264593 2.3698745 3.1751158
-2.6840429 2.3816786 3.1818705
-2.6228776 2.3968215 3.1695502
-2.5951595 2.3907821 3.1767466
-2.4927468 2.3946934 3.1989377
-2.4203701 2.3959389 3.1941695
-2.368536 2.3959341 3.1734116
-2.3263786 2.3949645 3.1989143
-2.2664318 2.3958287 3.1850915
-2.2382705 2.397764 3.1800902
-2.1658175 2.3843412 3.1728787
-2.1185701 2.3866374 3.17974
-2.0645995 2.3808856 3.175199
-2.0233543 2.37937 3.1955934
-1.9896518 2.382951 3.1716919
-1.9179647 2.3678975 3.1833451
-1.8677403 2.3542717 3.1852489
-1.8269745 2.3592331 3.1677446
-1.7778444 2.36728 3.1751416
-1.7247955 2.35885 3.1709213
-1.6722213 2.3624275 3.1787684
-1.6187893 2.3504953 3.160759
-1.5820233 2.3526073 3.1800778
-1.5238537 2.3668821 3.1701267
-1.4724169 2.3587859 3.1707363
-1.4246683 2.3580499 3.1880419
-1.321226 2.3529077 3.1763494
-1.2748593 2.3637877 3.1686175
-1.2239408 2.3740389 3.1808228
-1.1727525 2.3743796 3.1816146
-1.1191674 2.3709221 3.1768758
-1.0754929 2.3642282 3.171783
-1.0319895 2.37289 3.1733813
-0.96782273 2.3840239 3.1757197
-0.93162298 2.3873408 3.1667891
-0.86467546 2.3882716 3.183696
-0.83130217 2.3925552 3.1722858
-0.79009974 2.394031 3.1706679
-0.70793742 2.3941844 3.1867235
-0.65939033 2.3929415 3.1753414
-0.6314683 2.3995779 3.1710107
0.076600209 2.3967066 3.1818306
0.14865696 2.3966641 3.1797264
0.17522663 2.3727257 3.1814964
0.20084032 2.3567979 3.1589215
-2.5851796 2.4026754 3.150593
-2.5246413 2.4054182 3.179919
-2.4710119 2.4047575 3.1777399
-2.4308691 2.406579 3.1529632
-2.3380997 2.4064729 3.1598842
-2.2758965 2.4051952 3.170728
-0.8904984 2.4186697 3.1832347
-0.78140986 2.4046705 3.1688151
-0.7299751 2.4053855 3.1762326
-0.67639369 2.4023888 3.179364
-0.61370856 2.4011905 3.176049
-0.57699579 2.408812 3.1740437
-0.52688318 2.4127955 3.1775539
-0.47312304 2.4194078 3.1725738
-0.43494776 2.415957 3.1753311
-0.37489524 2.417464 3.1659694
-0.32106653 2.4175227 3.1760736
-0.27867064 2.4172227 3.1765983
-0.23039275 2.4179883 3.1778092
-0.18060449 2.4164877 3.1784136
-0.12175675 2.4186101 3.1747444
-0.076391146 2.4194767 3.1596692
-0.031515162 2.4190624 3.1771033
0.026185751 2.4092064 3.1781313
0.07659366 2.4070432 3.1746254
0.12704599 2.4078574 3.1743848
-0.68806094 -0.55038166 3.218941
-0.64067161 -0.55021375 3.2244146
-0.71390212 -0.53635949 3.2275472
-0.66100937 -0.53824693 3.2467217
-0.60764164 -0.54878861 3.2200861
-0.77451766 -0.41669065 3.2191412
-0.73964399 -0.4270981 3.2438924
-0.77549052 -0.37784553 3.2263815
-0.81078732 -0.32108706 3.2075448
-0.77552253 -0.32666686 3.2301981
-0.80900818 -0.29693514 3.2020073
-0.78146046 -0.27481654 3.2239778
-0.97453249 -0.20503646 3.2079124
-0.8730706 -0.21126123 3.2254767
-0.81932813 -0.21482854 3.2254827
-0.79132223 -0.22034597 3.2336292
-0.81698781 -0.17536399 3.2136695
-0.78779709 -0.17085382 3.235517
-0.81652212 -0.12202428 3.2134438
-0.79164582 -0.12593269 3.2382424
-0.82611799 -0.078199983 3.2135744
-0.79189807 -0.078692764 3.2402372
-0.82394427 -0.029670373 3.2184474
-0.79967666 -0.039288573 3.2389603
-0.82084012 0.023681454 3.2255354
0.12804526 0.046579652 3.2497976
-0.82151157 0.078734457 3.2275984
0.12714697 0.069344759 3.2267108
-0.82666576 0.12756591 3.2273617
-0.85652 0.17222102 3.2019098
-0.82459217 0.17185073 3.2283721
0.11251172 0.17064685 3.246774
-0.85773134 0.2194687 3.2044842
-0.82811898 0.22076425 3.2295945
-0.86431926 0.27474016 3.2057266
-0.83332318 0.27136558 3.2279906
0.17263596 0.27616119 3.2045205
0.20335819 0.29156435 3.203156
-0.94788527 0.33331361 3.223495
-0.86455083 0.33025587 3.2082019
-0.83295608 0.32658559 3.2353723
0.17651829 0.31843638 3.202704
-0.95325428 0.37507391 3.2387414
-0.93187141 0.3649852 3.223762
-0.86251241 0.37511745 3.2127318
-0.83597964 0.38279191 3.2371783
0.17305535 0.37678668 3.2056246
-0.95691693 0.41657794 3.2478862
-0.93207383 0.43646052 3.2184069
-0.86236292 0.42544165 3.2078402
-0.8363589 0.42827165 3.2348313
-2.722152 0.48294416 3.2086926
-2.672261 0.48507965 3.2326596
-0.9320395 0.47611246 3.2144401
-0.85885131 0.47742587 3.2146611
-0.83708751 0.47628254 3.2330959
0.11313512 0.4679285 3.245657
0.16008505 0.49963471 3.2446237
-2.71205 0.52344841 3.2033026
-2.6770103 0.52399093 3.2334363
-0.9343189 0.5272162 3.2316189
-0.86644328 0.52245045 3.2136052
-0.83576912 0.52154404 3.2394271
-2.7116995 0.57628727 3.2097988
-2.676122 0.56979734 3.2362919
-1.4058585 0.58089823 3.2438884
-0.94469047 0.56299573 3.2492661
-0.86335409 0.5686121 3.2145102
-0.83563101 0.57804412 3.2422714
-2.7044244 0.64967734 3.2111726
-2.6800692 0.62751853 3.2262781
-0.86878383 0.61853361 3.2187555
-0.84377652 0.62404579 3.2422407
-2.7081153 0.67922974 3.2105162
-2.6781321 0.67886215 3.2290173
-1.4310943 0.68892157 3.2217097
-0.87348831 0.67228246 3.2149911
-0.84668064 0.67435402 3.2468331
-2.7061043 0.72820407 3.2113285
-2.6844416 0.72503954 3.2321968
-1.4623646 0.72531843 3.2226155
-0.92285502 0.72732389 3.2092695
-0.86974609 0.72112286 3.2180047
-0.84735864 0.72307944 3.2423456
-2.7155871 0.77966732 3.2190764
-2.6878581 0.77995729 3.2407537
-1.48351 0.77249706 3.2246439
-0.91442049 0.77243769 3.2062695
-0.87390536 0.77246004 3.2203374
-0.84938312 0.76507688 3.243778
-2.7226055 0.82988375 3.2171166
-2.6928225 0.82958794 3.2365859
-1.5094801 0.82148248 3.2110174
-1.4892734 0.82293427 3.2357152
-0.92279148 0.82410657 3.2173419
-0.87113875 0.82084811 3.2208447
-0.84989244 0.82194138 3.2362454
-2.7248826 0.88261795 3.2194278
-2.6986711 0.87001526 3.2350507
-1.514876 0.87776756 3.2142482
-1.4893675 0.87561148 3.239682
-0.92254055 0.87190551 3.2199929
-0.87360764 0.8699103 3.2215974
-2.7266443 0.92126721 3.2200577
-1.5174366 0.92354995 3.2120836
-1.4940606 0.91853052 3.2299163
-0.91518235 0.9194985 3.2089164
-0.87713861 0.9219172 3.2251604
0.14127658 0.93989462 3.2284946
0.16149034 0.92931563 3.2105312
-2.756911 0.98331141 3.2039165
-2.7253428 0.97271729 3.2247739
-2.6956127 0.96273685 3.2473249
-1.5508699 0.96392143 3.2015765
-1.5214096 0.97797745 3.2201676
-1.4919671 0.96106219 3.2458344
-0.90953451 0.97048193 3.2090886
-0.87345856 0.97535557 3.2330813
0.13890715 0.97614646 3.2280388
0.16168527 0.97776788 3.2048962
-2.7644882 1.0152733 3.2048907
-2.7269385 1.0255378 3.2322981
-1.5223716 1.0246826 3.2179549
-1.4979013 1.0331743 3.2433009
-0.91173124 1.0232724 3.2122524
-0.87858385 1.0257071 3.2339845
0.13792786 1.0234497 3.2331116
0.1625964 1.0387681 3.2111583
-2.7551811 1.0777855 3.2146895
-2.7240057 1.0770296 3.2338343
-1.5227886 1.0754098 3.2226839
-0.91969794 1.0794463 3.2230003
-0.88812685 1.0808126 3.2336061
0.13971822 1.069631 3.2278974
0.16272123 1.0792748 3.2046955
-2.7661443 1.1312349 3.2129443
-2.7268906 1.1315453 3.2335503
-1.5261137 1.1256268 3.2174728
-0.92215425 1.1239301 3.2325528
-0.88533705 1.1228352 3.2329471
0.14051031 1.123987 3.2353716
0.16342461 1.1397442 3.2053685
-2.7651639 1.1742965 3.218303
-2.7257712 1.1761422 3.2398169
-1.5202895 1.1721356 3.2209637
-1.4961462 1.181875 3.2477922
-0.90781289 1.1723561 3.2273655
-0.88757443 1.1727902 3.2429667
0.1424925 1.1719348 3.2326171
0.16425817 1.177609 3.2137823
-2.7747939 1.2278765 3.2135153
-2.7358353 1.2134433 3.2412968
-1.524447 1.2266994 3.2256956
-1.49857 1.2097073 3.2459338
-0.9149763 1.2258872 3.2343547
-0.89219677 1.2287016 3.2467747
0.14537378 1.227386 3.2297654
0.16436632 1.2184612 3.2055886
-2.7652104 1.2739226 3.219331
-2.7372303 1.2828799 3.2474041
-1.5510947 1.2967174 3.2036159
-1.527174 1.2724987 3.225158
-0.91644394 1.2766114 3.2329166
-0.89496911 1.2741467 3.2454567
0.14195931 1.2735988 3.2337761
0.1604767 1.2836986 3.2209275
-2.7718215 1.3249662 3.2171383
-2.7452378 1.3265102 3.243052
-1.5566187 1.3273733 3.2068956
-1.5295126 1.3234016 3.2328966
-0.92344975 1.3207989 3.2407925
-0.8957448 1.3002588 3.2411826
0.13468753 1.3220298 3.2420518
0.15828483 1.3229561 3.2213869
-2.7708738 1.3692437 3.2205067
-2.7324715 1.3799505 3.2481053
-1.5622973 1.378342 3.2116127
-1.5319965 1.3724654 3.2389133
-0.92097366 1.3750314 3.2296634
0.135406 1.3947201 3.2401781
0.15876348 1.3758373 3.2169425
-2.8075361 1.4377613 3.2016811
-2.7730217 1.4187587 3.225776
-2.7388079 1.4031903 3.2482014
-1.5633113 1.4281656 3.2131729
-1.533527 1.424274 3.2400787
-0.93026465 1.4256864 3.2285302
0.16269092 1.4328696 3.2272027
-2.8043549 1.4970106 3.2163165
-2.7772713 1.4731333 3.2315922
-1.5664049 1.4728315 3.2195153
-1.5413001 1.4756762 3.2413826
-0.93045074 1.471638 3.2283623
0.13678381 1.4918225 3.2471867
0.16855946 1.4801142 3.2205822
-2.804704 1.5275484 3.2041907
-2.7829659 1.5322313 3.2370872
-1.6065139 1.5407785 3.2022383
-1.5720961 1.5240483 3.2244275
-1.5397056 1.5270386 3.244025
-0.92865026 1.5227892 3.2323606
0.15989569 1.5275826 3.2327843
-2.8178122 1.5753372 3.2019174
-2.7872753 1.5752522 3.2250152
-1.6125325 1.5820398 3.2170944
-1.5903374 1.577643 3.2318237
-0.93334037 1.5688533 3.2351847
0.17341164 1.5767524 3.2220592
-2.8093758 1.6228105 3.2133088
-2.7803531 1.6236918 3.2382705
-0.93104613 1.6244978 3.2349014
0.13828178 1.6087512 3.2485626
0.16651846 1.6258974 3.2310812
-2.8156767 1.6673667 3.2021053
-2.7885165 1.6694217 3.2295203
-0.9343183 1.6624868 3.2415209
0.17826119 1.6770557 3.2172387
-2.8105443 1.7176092 3.2163715
-2.7969234 1.7218378 3.2400322
-0.93366706 1.7376155 3.2474649
0.17566498 1.7182077 3.2189355
-2.8141325 1.7756314 3.2089539
-2.7873836 1.7710556 3.2301412
-0.93388999 1.7554133 3.2411911
0.18414681 1.7788143 3.2319455
0.20606649 1.7662179 3.2005816
-2.8145723 1.8260841 3.215435
-2.7939293 1.8261147 3.2313509
0.18115816 1.8235375 3.2223542
-2.812201 1.8701241 3.2175701
-2.7857032 1.8760155 3.2407141
0.17569228 1.874554 3.2325718
-2.8299382 1.9249349 3.2227035
-2.7939358 1.9024687 3.2395806
0.18238437 1.9244366 3.2313778
-2.8285797 1.965148 3.2208068
-2.7941859 1.9801482 3.2469363
0.18618512 1.974432 3.2289901
0.21127334 1.9747902 3.2102838
-2.8219306 2.0165939 3.2213821
-2.7995858 2.005085 3.2418189
0.18551575 2.0243051 3.2299666
0.21254447 2.0474348 3.2006941
-2.8222373 2.066751 3.2183471
-2.7911177 2.0671968 3.2432871
0.1881955 2.0747809 3.2266598
0.2138592 2.0950425 3.2031963
-2.816062 2.1213243 3.2188349
-2.798152 2.1042805 3.2334645
0.19086525 2.1252742 3.221894
-2.8145137 2.1700554 3.2213383
-2.7970462 2.1730516 3.2420573
0.18151389 2.1755631 3.2254269
-2.8170996 2.22329 3.219131
-2.784462 2.222894 3.2429829
0.18245198 2.2255228 3.2217708
-2.8144498 2.2727771 3.2103651
-2.7890494 2.2790227 3.2336867
0.17737335 2.2717831 3.2175643
0.20132908 2.2908676 3.2081707
-2.7732465 2.3187947 3.2277851
-1.5036771 2.3496375 3.2073796
-1.4821819 2.3458278 3.2096696
-1.4145341 2.3442497 3.232697
-1.3737341 2.3468678 3.223779
-1.3385942 2.3470602 3.2225983
0.14948002 2.3373621 3.2399414
0.17109765 2.32372 3.2201307
-2.7669649 2.3535047 3.2110686
-2.7194917 2.3609524 3.221812
-2.6648395 2.3824317 3.2275534
-2.62394 2.3822844 3.2167633
-2.5784678 2.3834591 3.2317355
-2.5323715 2.3912981 3.2219946
-2.4719172 2.3790402 3.2235913
-2.4209354 2.3859046 3.2293007
-2.3799961 2.3971653 3.2232132
-2.3187201 2.3873994 3.2250683
-2.2702801 2.390162 3.2248678
-2.2225962 2.3931105 3.2245305
-2.1818991 2.3928103 3.2308571
-2.125195 2.385179 3.2239182
-2.0597711 2.3783743 3.2231956
-2.0281694 2.3767219 3.2376294
-1.9873075 2.3733552 3.2207606
-1.9324257 2.3658485 3.2200785
-1.8997163 2.3622236 3.2304795
-1.8233185 2.3602326 3.2177782
-1.774794 2.3696544 3.2265635
-1.7216954 2.3617177 3.2224135
-1.6700705 2.3550103 3.2193506
-1.6257032 2.3573463 3.2240345
-1.5645498 2.3598866 3.221051
-1.5325255 2.3646982 3.220257
-1.4173435 2.3521869 3.2023709
-1.3978992 2.3513651 3.2082486
-1.2731314 2.376863 3.2295127
-1.2279851 2.3675311 3.2196884
-1.167026 2.3630877 3.2217755
-1.1179026 2.3583729 3.2290211
-1.0724837 2.3601918 3.2209728
-1.0242702 2.3686366 3.2178955
-0.99058396 2.3820648 3.2205248
-0.91232824 2.3812983 3.2192743
-0.86618 2.3909998 3.2247322
-0.833996 2.3933699 3.2225275
-0.76561594 2.3917074 3.2339771
-0.69596863 2.3976078 3.2303197
-0.63600546 2.398504 3.2050028
0.095425889 2.3990371 3.2196033
0.13458161 2.3811059 3.2236435
-0.91323829 2.4114842 3.2054367
-0.88381946 2.4071248 3.206054
-0.8092165 2.4054329 3.2197723
-0.77247441 2.4061639 3.2281098
-0.72548163 2.4037342 3.2336085
-0.67052323 2.4006867 3.2267392
-0.61002254 2.4043031 3.2170744
-0.57440948 2.4088011 3.2285662
-0.52353013 2.4104199 3.2232921
-0.47566247 2.4112194 3.2177572
-0.42917895 2.4140182 3.2298429
-0.37931877 2.4212875 3.2184155
-0.32524878 2.4242702 3.232559
-0.26991993 2.4212027 3.2325654
-0.23242067 2.4193485 3.217663
-0.17431542 2.4175766 3.2276509
-0.12668891 2.4177532 3.2226284
-0.068397015 2.4196301 3.2300613
-0.027189776 2.4120109 3.2115748
0.010648961 2.4061027 3.218425
0.068219043 2.4007468 3.2224407
0.13184036 2.4004283 3.220444
-0.6300084 -0.5388158 3.254303
-0.71567637 -0.41860577 3.2756748
-0.68595016 -0.4331679 3.299237
-0.72098076 -0.37436861 3.2751558
-0.75602186 -0.34824452 3.2500918
-0.72489709 -0.32256708 3.2779148
0.090189055 -0.31347877 3.2757611
-0.75493032 -0.26869178 3.2503211
-0.72729182 -0.27019727 3.2731683
-0.69981468 -0.25586107 3.2988172
0.095079221 -0.27953136 3.2838569
0.11362106 -0.27404296 3.2745609
-0.85362911 -0.2222389 3.2516403
-0.84760624 -0.22485742 3.2927012
-0.76546925 -0.22203505 3.2627287
-0.73871499 -0.20756352 3.2904432
0.098072551 -0.21948187 3.281353
0.12215169 -0.22294517 3.2658572
-0.76318824 -0.17743962 3.2617517
-0.73830485 -0.17552589 3.2897921
0.098270178 -0.17277807 3.2897589
0.1210959 -0.17174353 3.2694323
-0.76405436 -0.12659273 3.2599831
-0.74117362 -0.13140674 3.2855217
0.098389931 -0.12581301 3.2951241
0.12122274 -0.12502916 3.2743452
-0.7651276 -0.079188757 3.2655308
-0.74007952 -0.076557711 3.2927704
0.098283477 -0.078547321 3.2924755
0.12112033 -0.078066655 3.2722256
-0.77386856 -0.031653579 3.2683127
-0.74262297 -0.035836779 3.2934878
0.093090393 -0.04187867 3.2948563
0.12127018 -0.031226465 3.2766533
-0.77402455 0.023928313 3.2689962
-0.74760288 0.024094805 3.2972391
0.098368645 0.023620889 3.2958021
0.12017531 0.020149456 3.2775753
-0.77435851 0.079533584 3.2697802
-0.74805772 0.072110146 3.2987759
0.098266147 0.078591965 3.2917948
0.11342449 0.078225978 3.2754953
-0.80305886 0.11879748 3.2512698
-0.7761811 0.12749809 3.2764256
-0.74827093 0.11214829 3.298955
0.098488592 0.12602071 3.2982674
0.11295599 0.12459252 3.2609978
-0.80410916 0.19025883 3.2532263
-0.77626872 0.175282 3.2752569
-0.74866432 0.17627169 3.2987921
0.098518036 0.1733108 3.2978272
-0.80401778 0.2219246 3.2514718
-0.7788344 0.22523376 3.2753735
0.098314755 0.22013693 3.2891743
0.11319754 0.21854968 3.2647209
-0.80512238 0.26983973 3.2535164
-0.77848965 0.27162015 3.2802243
0.098427393 0.26760563 3.290643
0.11402646 0.27514723 3.2858899
-0.805987 0.32571101 3.2535636
-0.78028834 0.32144105 3.2760534
0.11449486 0.33149424 3.2960615
-1.0028964 0.37375239 3.2910998
-0.9794082 0.37101886 3.2702267
-0.81152678 0.37807906 3.2554626
-0.78186834 0.37149376 3.2809691
0.098835327 0.3793222 3.297157
0.11445596 0.37871599 3.2915924
-0.97904688 0.42491165 3.2788863
-0.80967599 0.43093812 3.2603426
-0.78546429 0.42896828 3.2808347
0.09895885 0.41144001 3.298805
0.11475443 0.42717302 3.2963636
-2.6223078 0.47678864 3.2808857
-0.96868134 0.46434072 3.2691362
-0.81669503 0.47598535 3.2576492
-0.78748703 0.47737002 3.2823625
0.11462729 0.45829716 3.289937
-2.6241405 0.52477068 3.2771595
-0.96933812 0.51931232 3.2805073
-0.81344366 0.53372502 3.2655625
-0.79017031 0.5283277 3.2909656
-2.6260386 0.57282293 3.2728789
-1.3910685 0.58514661 3.2752707
-1.3389639 0.56405914 3.2644079
-0.96774572 0.57754099 3.283103
-0.94872659 0.58155268 3.2612066
-0.81367666 0.57741141 3.2614276
-0.78623909 0.58082056 3.286099
-2.6503835 0.63129693 3.2578878
-2.6267772 0.61965764 3.2741656
-2.5941005 0.6219393 3.2985673
-1.4080229 0.6186896 3.2663462
-1.3921753 0.62278765 3.2957242
-0.96507561 0.63132226 3.2819204
-0.94992888 0.63080591 3.2591612
-0.81617403 0.62743956 3.2654371
-0.78476495 0.62722623 3.2918639
-2.6534519 0.67028803 3.255223
-2.630944 0.67184448 3.2821662
-1.4139128 0.67164993 3.2729092
-1.3904929 0.67243117 3.2846756
-0.9673934 0.6717875 3.2785542
-0.81860852 0.67769432 3.2685847
-0.79107666 0.68174195 3.293556
-2.6596186 0.72938567 3.2524025
-2.6342888 0.7206912 3.2778649
-1.4268188 0.72427642 3.2729406
-1.3979803 0.74366969 3.291985
-0.9624716 0.72183031 3.2781765
-0.81915057 0.72659135 3.2636633
-0.79206067 0.7313655 3.2905333
-2.6632328 0.7834363 3.2590368
-2.6390698 0.7667985 3.2790859
-1.4610249 0.78157616 3.2651358
-1.4308752 0.77218384 3.2747226
-0.96084809 0.76892352 3.2773597
-0.82232785 0.7780388 3.2686617
-0.79527539 0.78327209 3.2962148
-2.6649303 0.82023227 3.2599216
-2.6340034 0.81835103 3.2899501
-1.4593648 0.82947105 3.2639284
-1.4287032 0.82282513 3.2835479
-0.96404022 0.82071692 3.2799969
-0.82398051 0.82830936 3.2670276
-0.79687572 0.81754637 3.2974427
-2.6746838 0.87162679 3.2612476
-2.637058 0.87192917 3.2888336
-1.4651577 0.87931377 3.2635186
-1.4359361 0.86960959 3.2922199
-0.96853161 0.87400955 3.2864265
-0.94929332 0.88792235 3.2771878
-0.82983565 0.87905711 3.273344
0.11598174 0.89547288 3.2698252
-2.6737039 0.92298657 3.2672701
-2.6359234 0.92331874 3.2949526
-1.4723023 0.92609566 3.2678154
-1.4389304 0.92268497 3.2889843
-0.94633913 0.9261626 3.2590671
-0.82347852 0.92110574 3.2762864
0.084774449 0.92787957 3.2959239
0.11022098 0.92569441 3.2726614
-2.6718521 0.97441071 3.271673
-2.6469731 0.99544996 3.2920611
-1.4734776 0.9784857 3.2670915
-1.4405333 0.97276181 3.287065
-0.9521805 0.96483165 3.2725317
-0.94931221 0.98659581 3.2575293
-0.83157229 0.9715293 3.280381
0.084953606 0.97836864 3.2934566
0.10843096 0.97969872 3.2687719
-2.6791067 1.0300479 3.2785907
-2.6493583 1.015871 3.2899976
-1.4731443 1.0271202 3.2692523
-1.4417317 1.0246909 3.2974138
-0.95859462 1.0294775 3.2821825
-0.85269129 1.0383598 3.2735362
-0.83389723 1.0195779 3.2800055
0.11042891 1.0282614 3.2708244
-2.7011175 1.0991884 3.2569735
-2.6788337 1.068682 3.2756538
-1.4749706 1.0774004 3.2643383
-1.4450979 1.0702335 3.2950602
-0.96458113 1.0776601 3.293293
-0.85944313 1.0694989 3.2589786
-0.83281773 1.0776218 3.289695
0.085484266 1.0740218 3.2951782
0.10749383 1.0698283 3.2713151
-2.7032874 1.1197048 3.2538743
-2.6820164 1.1231135 3.2844076
-1.4760172 1.1230996 3.2680254
-1.4430277 1.1237637 3.2889001
-0.86239988 1.1248949 3.2650707
-0.83934224 1.1264014 3.2875667
0.085847139 1.1275994 3.2980692
0.1106566 1.1236084 3.2712138
-2.7100353 1.1618654 3.2501788
-2.687479 1.1747204 3.2764082
-1.4732847 1.1741426 3.273978
-0.92502809 1.1618153 3.2562721
-0.86612272 1.1772923 3.2602007
-0.83716404 1.1665395 3.2869596
0.1124582 1.1786077 3.2665889
-2.7133892 1.2349679 3.2585421
-2.6816466 1.2208103 3.2811594
-1.4710299 1.2225358 3.278239
-1.4437079 1.2304623 3.2991467
-0.95245188 1.2171586 3.2794542
-0.94647014 1.2345343 3.2521727
-0.87058097 1.2278553 3.2655249
-0.84407043 1.2225796 3.2897542
0.11582959 1.2235388 3.2756462
-2.7172089 1.2787269 3.2711442
-2.6791239 1.273609 3.2948062
-1.476312 1.2721635 3.2701757
-1.4465644 1.2591226 3.2983303
-0.8668837 1.273553 3.2739999
-0.83722174 1.270936 3.297483
0.11688467 1.2713938 3.2751141
-2.7170801 1.327323 3.2667017
-2.6919284 1.3296428 3.2936816
-1.506041 1.3360119 3.2588165
-1.4820783 1.3222374 3.2794137
-0.96332264 1.3074576 3.2959299
-0.92012751 1.3448578 3.2553024
-0.87893009 1.32276 3.2685058
0.11404771 1.3187543 3.2797594
-2.7208652 1.3674866 3.2646153
-2.6989443 1.3731866 3.2881284
-1.5047238 1.3780541 3.2586474
-1.4763789 1.3713287 3.2835925
-0.96016961 1.3708795 3.2652335
-0.90405566 1.3712214 3.2538414
-0.88244486 1.3744447 3.2803738
0.11802435 1.3770804 3.2810762
-2.7272823 1.4260591 3.272959
-1.5122137 1.4202055 3.2633543
-1.4848349 1.4226058 3.2846172
-0.90877354 1.4291134 3.2550387
-0.88360709 1.4268723 3.2777257
0.12048113 1.4265151 3.2781146
-2.7248859 1.4752667 3.2778327
-1.5159835 1.4728805 3.2692044
-1.4862441 1.4779372 3.2926526
-0.9117074 1.4761645 3.2517502
-0.88676608 1.4719021 3.2831295
0.12760469 1.4710461 3.2771957
-2.753557 1.5327593 3.2608261
-2.7276533 1.5280542 3.2868781
-1.5141171 1.5263587 3.2719684
-1.4970851 1.5200186 3.2928205
-0.97701263 1.5154862 3.283824
-0.90843487 1.5250918 3.2661452
-0.8891173 1.5295964 3.289109
0.13252835 1.5231594 3.2735784
-2.7621245 1.578251 3.254025
-2.7354701 1.5804414 3.2809505
-1.5704825 1.575599 3.2512932
-1.5230892 1.5691761 3.2745948
-0.95637673 1.5787317 3.2519166
-0.91177469 1.5750003 3.2677357
-0.89284074 1.57915 3.2879634
0.13213995 1.5755754 3.2775192
0.15460239 1.5708129 3.2506373
-2.7533975 1.6258112 3.2653222
-2.7246013 1.6268811 3.2897954
-0.96256453 1.6234926 3.260366
-0.91523719 1.6194669 3.2726312
-0.89780754 1.6313175 3.2906361
0.12709785 1.630758 3.2832036
-2.7647479 1.6735781 3.2606459
-2.7353175 1.6743591 3.2847662
-0.91438055 1.6814352 3.2806897
0.13163078 1.6730433 3.2774434
0.15663502 1.6846189 3.2599034
-2.765173 1.7212803 3.2621119
-2.7272079 1.7245421 3.2879238
-0.91458547 1.7266843 3.2797024
0.13373108 1.7171247 3.27233
0.15705208 1.7315763 3.2524333
-2.7588432 1.7729028 3.2667429
-2.7304716 1.7654446 3.2891798
-0.91402608 1.7672381 3.2824471
0.13326731 1.779819 3.285223
0.1579098 1.7752223 3.256726
-2.7769105 1.826162 3.2680063
-2.7417572 1.8142973 3.2829876
0.13578752 1.829891 3.2881551
0.15894252 1.8297904 3.2606077
-2.7656016 1.8667934 3.2714367
-2.7314594 1.8816106 3.296834
0.13273242 1.8772671 3.2811928
0.16015357 1.887027 3.267251
-2.7684023 1.9169157 3.2644625
-2.7390115 1.918273 3.2900171
0.13831288 1.9335533 3.2854459
0.16093276 1.9484333 3.260298
-2.7685208 1.9672045 3.2720292
-2.7354994 1.9832972 3.2990775
0.13753848 1.9763043 3.2779679
0.16168047 1.9837284 3.2635763
-2.7695818 2.0167861 3.2617052
-2.7371471 2.0161715 3.2841437
0.13665543 2.027792 3.2812324
0.16204843 2.0232978 3.2547665
-2.7655649 2.0727217 3.2656443
-2.7431831 2.0709293 3.2886815
0.135657 2.0782552 3.2811952
0.16296728 2.0700531 3.2564046
-2.7729042 2.11993 3.259052
-2.7365425 2.1255076 3.2890587
0.1326869 2.1269317 3.2771373
0.16396905 2.1271286 3.254566
-2.7651541 2.1731596 3.2662721
-2.7349601 2.1746206 3.2921705
0.13869104 2.1747644 3.2737362
-2.7637115 2.2234373 3.2598286
-2.7318635 2.2236762 3.2839189
0.13417241 2.2230182 3.2772114
-2.7605724 2.2719975 3.2598286
-2.7286558 2.2824924 3.2866268
0.13387755 2.2773111 3.2729452
0.16710691 2.2943995 3.2501714
-2.7234759 2.3284645 3.2741046
-1.5800894 2.3443975 3.2768662
-1.5070455 2.3463802 3.2870603
-1.4704447 2.3439493 3.2754059
-1.3795513 2.3421659 3.2700336
-1.234418 2.3458405 3.2959321
-1.1128159 2.3496482 3.2967653
-1.093093 2.347965 3.2995737
0.12820299 2.3210933 3.2678237
-2.7173269 2.3571537 3.2560544
-2.6801875 2.3633072 3.2761047
-2.6171496 2.3669217 3.2682197
-2.5767548 2.369729 3.2825572
-2.5323479 2.3762419 3.2679942
-2.4698005 2.3607879 3.2585945
-2.4263442 2.3699732 3.277775
-2.3753471 2.3820806 3.2791233
-2.3384845 2.3870487 3.2846766
-2.2790539 2.389539 3.2718413
-2.2318029 2.3937218 3.2818084
-2.182164 2.3950541 3.2871451
-2.1375811 2.3896921 3.2680407
-2.0808091 2.3823133 3.2691612
-1.9758116 2.3863485 3.2830136
-1.9295837 2.3791907 3.29392
-1.8790356 2.3711796 3.2726965
-1.8308929 2.3606219 3.2775047
-1.7760549 2.3625929 3.2755291
-1.7258214 2.3612401 3.2653227
-1.6737069 2.3570228 3.2811997
-1.6260068 2.3545837 3.274977
-1.5515176 2.3550603 3.2840071
-1.5244424 2.3578296 3.2664633
-1.4806501 2.3546188 3.2673225
-1.426949 2.361501 3.298383
-1.3151138 2.3633494 3.276932
