ply
format ascii 1.0
comment PCL generated
element vertex 1490
property float x
property float y
property float z
element camera 0
property float view_px
property float view_py
property float view_pz
property float x_axisx
property float x_axisy
property float x_axisz
property float y_axisx
property float y_axisy
property float y_axisz
property float z_axisx
property float z_axisy
property float z_axisz
property float focal
property float scalex
property float scaley
property float centerx
property float centery
property int viewportx
property int viewporty
property float k1
property float k2
end_header
-0.76589823 1.0748659 3.0051587
-0.72567797 1.0701752 3.0177987
-0.67523742 1.0704234 3.0360136
-0.6406011 1.0743836 3.048409
1.111686 1.0727936 3.0230749
1.1943737 1.0732739 3.0015247
1.2321924 1.0713441 3.0042253
-0.76064044 1.1215554 3.0047131
-0.72552246 1.1208882 3.0174105
-0.67216945 1.1219028 3.0361481
-0.64331353 1.1251714 3.049675
1.1121336 1.1241797 3.023632
1.1886581 1.1326184 3.0017388
1.2238809 1.1232769 3.0074718
1.2531935 1.1230683 3.0053828
-0.76825732 1.1785152 3.0085435
-0.72256041 1.1700033 3.0209794
-0.67408943 1.1713548 3.0325668
-0.64542246 1.1752552 3.0473814
1.1080661 1.1704788 3.0140042
1.1881919 1.1766694 3.0042372
1.2244211 1.1732241 3.0085118
1.2590271 1.1759768 3.0058963
-0.76489806 1.2161156 3.0059161
-0.72266811 1.2215838 3.0218906
-0.6775052 1.2237753 3.0349591
-0.64007896 1.2262276 3.0470006
1.1125672 1.2277129 3.0214472
1.191843 1.2199044 3.0017908
1.228312 1.2246623 3.010077
1.2611675 1.2336124 3.0063272
-0.76514804 1.2666175 3.0034902
-0.72521728 1.272441 3.0188444
-0.67751157 1.277667 3.0352898
-0.63744599 1.2779045 3.0463696
1.1211467 1.2657529 3.0185401
1.1836882 1.2703789 3.013016
1.2252924 1.2615583 3.0088208
1.2758305 1.2802458 3.0433969
-0.76574945 1.3220185 3.0043833
-0.72768062 1.3234687 3.0146427
-0.67578506 1.328586 3.0354064
-0.63942087 1.3498551 3.0493586
-0.7602551 1.364974 3.0022442
-0.72570705 1.3786442 3.0154412
-0.67608202 1.3779012 3.0349028
-0.64071816 1.376195 3.0479615
-0.7600112 1.4341583 3.0024512
-0.72643596 1.4219356 3.0149875
-0.67128295 1.4229252 3.035033
-0.64324027 1.4210974 3.0468781
1.279092 1.4388964 3.0235245
-0.76156986 1.4762557 3.0073738
-0.72273999 1.4696603 3.0199351
-0.67738003 1.474113 3.0370984
1.1327097 1.4713832 3.0182049
1.176039 1.4749507 3.0184333
1.2228526 1.4727601 3.0318458
1.2683975 1.4782214 3.0302398
-0.77114803 1.5249474 3.0052068
-0.72977173 1.5225378 3.0237701
-0.68470967 1.5213648 3.0413196
1.1321833 1.5181173 3.0109184
1.1811558 1.5224372 3.0151439
1.2272555 1.5260979 3.029984
1.2748804 1.5277669 3.0223386
-0.81447524 1.5893333 3.0168028
-0.77495605 1.57675 3.0157032
-0.7253387 1.5714364 3.0360661
-0.684425 1.5614836 3.0423088
1.1378813 1.5594083 3.0224597
1.1724122 1.5691473 3.0221431
1.23013 1.5771046 3.0400355
1.2746711 1.5785699 3.0266142
-0.85981542 1.6474923 3.007194
-0.82921642 1.6227652 3.0129387
-0.77423656 1.6192938 3.0293219
-0.73385543 1.6217318 3.0452595
1.1871899 1.6053995 3.0365849
1.229619 1.6260734 3.0462518
1.2707449 1.6254358 3.0317528
-0.90491229 1.6886477 3.0002923
-0.87115401 1.678053 3.0065796
-0.82120168 1.6733729 3.0223985
-0.77607113 1.6746116 3.0384059
-0.74458754 1.6769181 3.0486934
1.2905378 1.6736245 3.0418818
1.3001844 1.6836216 3.0383358
-0.87423223 1.7266678 3.0079606
-0.82976413 1.7255183 3.0295
-0.78132486 1.7268778 3.0417633
-0.7488457 1.7274156 3.0489678
-0.91047221 1.7805295 3.0065396
-0.88260007 1.7767948 3.0124352
-0.82511425 1.770736 3.0275381
-0.78592587 1.769954 3.0452819
-0.91816199 1.8254226 3.008327
-0.87088722 1.8263782 3.0250785
-0.82265776 1.8295265 3.0410211
-0.7933355 1.8448123 3.0475774
-0.91798437 1.8698692 3.0085223
-0.87725502 1.8715814 3.0209348
-0.83213699 1.8765342 3.0356891
-0.79471332 1.8646687 3.045053
-0.92731482 1.9233925 3.0057468
-0.87261528 1.9218764 3.0281858
-0.81843233 1.9271216 3.0457814
1.3254857 1.9349394 3.0219159
-0.95832151 1.9933548 3.0043547
-0.91990483 1.9765214 3.012327
-0.87501991 1.9763765 3.0284786
-0.82815856 1.9719701 3.0422342
1.3247738 1.9693279 3.0195034
-0.96004605 2.01387 3.0007362
-0.92722923 2.0245464 3.0079033
-0.87895864 2.0304296 3.0287762
-0.82941687 2.0302069 3.0472198
1.3230155 2.0276134 3.0184569
-0.95168412 2.0748425 3.0089645
-0.91848737 2.0770004 3.0205872
-0.86849242 2.0800099 3.0371225
-0.82593656 2.0805335 3.0473835
1.3304349 2.0870318 3.0456088
-0.96295357 2.1241333 3.0039089
-0.92274851 2.1209948 3.0153284
-0.87268668 2.1245298 3.0327342
-0.82976842 2.1246438 3.0426023
1.3273872 2.1246433 3.0300581
-0.96225441 2.1669827 3.0028281
-0.93041772 2.1746948 3.00896
-0.87987274 2.1742413 3.0264249
-0.8352887 2.1734457 3.0431609
1.3284177 2.1754727 3.0257499
-0.95435923 2.2495008 3.0002816
-0.91780198 2.2235944 3.0169263
-0.87358922 2.217411 3.027612
-0.84039283 2.2215838 3.0413446
1.3236414 2.22736 3.0262825
-0.92018116 2.2718451 3.0096114
-0.86908585 2.2631185 3.0231235
-0.82768303 2.269345 3.041497
1.3247006 2.2718766 3.0298178
-0.90889573 2.319252 3.0032947
-0.87606096 2.3253636 3.0197756
-0.82986069 2.3298352 3.0367732
0.57142925 2.3473125 3.0225406
1.323168 2.3267658 3.020077
-0.86885428 2.3649282 3.0046535
-0.82339466 2.3733413 3.0164847
-0.77620256 2.3738019 3.0331697
-0.72314852 2.3966277 3.0437706
0.5467962 2.3803291 3.0183096
0.56553525 2.3504648 3.0447936
0.63715601 2.3911514 3.0177982
0.89107275 2.3947508 3.0040331
1.1294354 2.3767295 3.0217662
1.1807171 2.3894815 3.0233147
1.2307183 2.3897064 3.0258703
1.2745565 2.3844688 3.022109
1.3082497 2.371346 3.0295506
-0.80849177 2.4043367 3.000767
-0.77287191 2.4035149 3.0074909
-0.72098249 2.4141958 3.0182507
-0.67340136 2.4115608 3.0263226
-0.63113928 2.4107583 3.0270069
-0.58135718 2.4179835 3.0273712
-0.52023476 2.4199948 3.0254235
-0.47469854 2.4228022 3.0232725
-0.42689508 2.4303184 3.0301976
-0.3821474 2.425864 3.0294759
-0.33779043 2.4227898 3.0299554
-0.26824161 2.4283831 3.0427337
-0.22395706 2.4252408 3.041703
-0.17117281 2.4237385 3.04263
-0.10048328 2.413111 3.0318868
-0.065857261 2.4254646 3.0481985
-0.048297856 2.4260068 3.0491512
0.074564599 2.4209151 3.0422826
0.12731001 2.4233315 3.0438912
0.17979777 2.4210632 3.038908
0.24970552 2.4186959 3.0318692
0.27711499 2.4286709 3.0424831
0.32048568 2.4237428 3.0327387
0.3728987 2.4223061 3.0259836
0.42977744 2.4192469 3.0294642
0.47926912 2.4189923 3.0264359
0.52555025 2.4208646 3.0395923
0.63894546 2.4243612 3.0086968
0.68214792 2.4241273 3.0318484
0.72357547 2.4245195 3.0278673
0.77217466 2.4259412 3.0272338
0.81913346 2.4209385 3.0323188
0.8651188 2.41065 3.0198259
0.92576879 2.402107 3.0172031
0.96577859 2.4174728 3.0335417
0.66714615 2.472357 3.0479488
0.83802545 2.4566383 3.0275211
1.0900939 -0.46640384 3.057385
1.1104138 -0.46085161 3.0682697
1.087745 -0.42493743 3.0666161
1.1091579 -0.42963979 3.0678294
1.2257514 -0.436683 3.0619082
1.0855749 -0.37421125 3.0733738
1.1131517 -0.37175873 3.0641665
1.0856582 -0.32206562 3.0810578
1.1139408 -0.32720575 3.0742693
1.0721644 -0.27500677 3.0750554
1.1071622 -0.26031661 3.0752103
1.0756226 -0.22732027 3.0722632
1.1056575 -0.24466133 3.0718818
1.0373594 -0.16699886 3.0689108
1.0783303 -0.18066156 3.0868013
1.0963887 -0.12293604 3.0975487
-0.20826623 -0.058439299 3.0598378
-0.17239003 -0.058669712 3.0732975
-0.13643341 -0.058988012 3.0911202
-0.091106221 -0.072898865 3.0564637
1.0843303 -0.079637915 3.0926595
-0.25883356 -0.014540368 3.0503166
-0.22071844 -0.027854286 3.0571928
-0.17259207 -0.029343609 3.0774517
-0.13660704 -0.029508427 3.0952747
1.0383606 -0.015171818 3.0992649
1.070761 -0.027445052 3.0923958
-0.21973516 0.02198543 3.0593021
-0.17263491 0.022097422 3.0780504
-0.13654929 0.022195961 3.0940101
0.9461962 0.045730785 3.0915697
1.0292344 0.010348846 3.0965309
1.0655066 0.0052730343 3.0900834
1.2265601 0.024913037 3.0765743
-0.22104207 0.071867257 3.0610514
-0.17278555 0.073610596 3.0801089
-0.1365044 0.073870122 3.0924084
-0.5739255 0.14820473 3.0677612
-0.52431703 0.14883879 3.0871086
-0.48814231 0.14913674 3.0974028
-0.42346504 0.13264668 3.0671546
-0.38851696 0.13328807 3.0852599
-0.27050838 0.11340151 3.0565505
-0.22387157 0.11019643 3.0716176
-0.1771307 0.10710093 3.090596
-0.14410982 0.10355269 3.096312
-0.61799777 0.18143831 3.0589929
-0.57497811 0.1781688 3.0723052
-0.52710575 0.17750756 3.0902481
-0.66222715 0.22208659 3.0501924
-0.62674069 0.22263117 3.0627687
-0.57685447 0.22341602 3.0803709
-0.54120851 0.22405505 3.0938032
-0.66335207 0.28177023 3.0520716
-0.62793076 0.27507895 3.0657787
-0.57596791 0.27561569 3.0854373
-0.53819156 0.27669513 3.0954914
-0.66473037 0.33117801 3.0551622
-0.62491655 0.32638684 3.0701849
-0.57602513 0.33037108 3.0859437
-0.54249227 0.31439173 3.095962
-0.66528827 0.35693911 3.055804
-0.61723763 0.36078262 3.0634928
-0.57384956 0.37077132 3.0712314
-0.5236361 0.37428606 3.0824544
-0.48209363 0.38132116 3.0940537
-0.60523516 0.4308607 3.0546567
-0.57533687 0.42331073 3.0581634
-0.5255208 0.4250561 3.077054
-0.47635505 0.42449111 3.0933807
-0.44549552 0.41942802 3.0999289
-0.60556179 0.47568622 3.0518553
-0.57640529 0.47616678 3.058738
-0.5264262 0.47805807 3.0771911
-0.49138007 0.48027146 3.0956497
-0.6067329 0.52128166 3.0528657
-0.57752872 0.52181596 3.0598025
-0.52700865 0.52344745 3.0756872
-0.48391464 0.52534676 3.0918186
-0.60734868 0.55908048 3.0515444
-0.57677639 0.57726538 3.0617557
-0.52790803 0.5692926 3.075649
-0.48871762 0.56784368 3.0931962
-0.61366177 0.63256031 3.0545855
-0.57349604 0.62993008 3.0658846
-0.52232385 0.62398189 3.080821
-0.48620632 0.61832446 3.0952933
-0.61211979 0.69118029 3.0579102
-0.57448095 0.67610139 3.06477
-0.524122 0.67893624 3.0840054
-0.4923133 0.67780828 3.0967031
-0.61245221 0.72162563 3.0548477
-0.57590699 0.72295398 3.0653722
-0.52578902 0.72649622 3.0868187
-0.48996058 0.72417676 3.0943539
-0.61697078 0.77163589 3.0539346
-0.57933193 0.77269757 3.0662138
-0.52649873 0.77294785 3.0835495
-0.48859364 0.77834785 3.0968029
1.0849024 0.77790481 3.0703704
1.1563513 0.75283647 3.0846076
-0.6067884 0.83448505 3.0542014
-0.57329601 0.8212018 3.0683861
-0.5278033 0.82044578 3.0831997
-0.49897739 0.82298166 3.0962145
1.090147 0.81294268 3.0795565
1.1055064 0.82838738 3.0719843
-0.61578131 0.87750942 3.0544791
-0.57412916 0.87477142 3.0717206
-0.53030044 0.87013745 3.0892978
-0.60821784 0.93161041 3.0549724
-0.57434255 0.92778313 3.0711071
-0.5305928 0.92373544 3.0884666
-0.61462659 0.97758299 3.0584457
-0.57776767 0.97983581 3.0706205
-0.53037202 0.97314942 3.0900905
-0.62015015 1.027151 3.0587323
-0.57429093 1.0309227 3.071847
-0.52420187 1.0200175 3.0906832
1.0961574 1.0449561 3.0732758
1.1148096 1.0166035 3.0589447
-0.62177557 1.0759515 3.055712
-0.57429999 1.0795687 3.0726919
-0.53013909 1.0760832 3.0924852
1.0968332 1.06937 3.0692849
1.1073527 1.0878543 3.0618293
-0.62128735 1.1271564 3.0583932
-0.57631212 1.1297837 3.0718396
-0.52387983 1.123143 3.0913475
-0.49282548 1.1023942 3.0999911
1.1059976 1.1342143 3.0804665
-0.61603951 1.1782129 3.0595512
-0.5710032 1.1812176 3.0736814
-0.52397966 1.1710582 3.0924349
1.1062642 1.1823987 3.0681164
-0.61031026 1.2287812 3.0578401
-0.57558733 1.2284718 3.0744727
-0.52964246 1.2179914 3.0906913
1.1061424 1.2302523 3.0539751
-0.61129653 1.2776421 3.0581565
-0.5732742 1.2702196 3.0742054
-0.52694309 1.2742184 3.0910134
1.1174767 1.283221 3.0731602
-0.62321466 1.325248 3.0565636
-0.57732892 1.3200409 3.0716367
-0.52625918 1.3230935 3.0892472
-0.61776733 1.3697557 3.057128
-0.57524651 1.3773526 3.0767083
-0.52710742 1.3796927 3.0919676
-0.62053734 1.4233433 3.0552273
-0.57493573 1.4278935 3.0716915
-0.52382815 1.4217303 3.0889039
-0.65003121 1.4999193 3.0568979
-0.62848914 1.4747666 3.0631173
-0.57425767 1.4734848 3.0737493
-0.52660412 1.4733546 3.0966561
-0.65782279 1.5322841 3.0579031
-0.62075192 1.5223727 3.068974
-0.57434797 1.5267745 3.0846682
-0.53506023 1.5292631 3.0949638
1.1240954 1.5486085 3.0589073
-0.70585215 1.5977437 3.0538249
-0.66771114 1.5732422 3.0590177
-0.62479895 1.5725985 3.0740757
-0.58102429 1.5746747 3.0883946
-0.71343374 1.6296686 3.0517025
-0.6759361 1.626461 3.0723436
-0.6307804 1.6202011 3.0910594
-0.59945327 1.6316838 3.0990939
1.2055696 1.6357082 3.0529835
-0.72631198 1.6758152 3.056242
-0.67340082 1.6739054 3.0742066
-0.63000196 1.6688856 3.0957272
1.2687613 1.6739573 3.0602243
-0.71578127 1.7254492 3.0652151
-0.67194331 1.7246273 3.0804627
-0.63014084 1.7221391 3.0965426
-0.76307225 1.7742226 3.0573983
-0.7226634 1.776292 3.0685575
-0.67278987 1.7781231 3.0883133
-0.64165545 1.7724003 3.0935822
-0.77368903 1.8239021 3.0560961
-0.72683972 1.8198123 3.0715063
-0.67838377 1.8235456 3.0864832
-0.62864709 1.8157667 3.0992086
-0.81420976 1.8712274 3.0523565
-0.77775842 1.8819733 3.056108
-0.73026586 1.8749499 3.074919
-0.68248224 1.8716822 3.0881996
-0.81859171 1.9148532 3.0525002
-0.76915687 1.9256831 3.062417
-0.7207194 1.9274527 3.082206
-0.68263978 1.9260982 3.0969627
-0.805682 1.9579355 3.0541959
-0.77314514 1.9695168 3.0615861
-0.72472072 1.9756989 3.0808954
-0.69228637 1.9798646 3.0934682
-0.80937594 2.000833 3.0509419
-0.78015894 2.0223644 3.0597618
-0.72912091 2.021816 3.0822556
-0.69608629 2.0249202 3.0932038
1.310299 2.0269489 3.0564029
-0.81434381 2.0837834 3.0549166
-0.76997477 2.0778542 3.0667722
-0.72537011 2.0696435 3.0864727
-0.6903919 2.059037 3.0942249
1.2981362 2.074208 3.0752039
1.3156214 2.0827265 3.0635214
-0.80569482 2.1292081 3.0546856
-0.77039462 2.1300213 3.0707953
-0.72109884 2.1252313 3.0832434
-0.68821567 2.1390004 3.0922871
1.2888918 2.1057851 3.0917714
1.3100095 2.121778 3.0711989
-0.8115381 2.179379 3.0571611
-0.77751637 2.1813142 3.0671167
-0.72647429 2.1846018 3.0819976
-0.68642932 2.1834371 3.0935776
1.3092756 2.1734817 3.0769312
-0.81573677 2.2255745 3.0525975
-0.78153253 2.2275631 3.0627029
-0.73058289 2.2319715 3.0792267
-0.6835084 2.2160108 3.0944059
1.3099265 2.2232285 3.0774107
-0.8031987 2.2744007 3.0540709
-0.77190346 2.2770801 3.0608668
-0.72225797 2.2790184 3.079499
-0.6797837 2.2792253 3.0957022
1.3106067 2.2683597 3.0690622
-0.80810982 2.3148127 3.0564532
-0.77203751 2.3214054 3.055423
-0.72084659 2.3270996 3.0735414
-0.66926271 2.3322556 3.0901535
0.6064598 2.3379354 3.0910547
1.2875597 2.3469336 3.0791917
1.3109479 2.3213556 3.0715289
-0.75631225 2.3538737 3.0501902
-0.72262526 2.3683026 3.0587552
-0.67059278 2.3813276 3.0683947
-0.62362444 2.386101 3.0829568
-0.58334935 2.3877501 3.0916512
0.58755529 2.3508599 3.0765936
0.87852019 2.3975754 3.0830717
0.96331513 2.3977728 3.0806186
1.1848443 2.3888512 3.0785062
1.2278069 2.3878369 3.072433
1.2697247 2.370816 3.0719945
1.3020194 2.3582871 3.0516739
-0.60002053 2.4010079 3.0716257
-0.573349 2.4098935 3.0700817
-0.52851278 2.4080579 3.07427
-0.47472417 2.4173555 3.0705478
-0.42153278 2.4236927 3.0736341
-0.37234014 2.4251933 3.0842159
-0.32643542 2.4263487 3.0751104
-0.28581491 2.4256012 3.0717912
-0.22553737 2.4246624 3.0746899
-0.17294912 2.4312563 3.0858717
-0.12274297 2.428416 3.0706971
-0.077911563 2.424489 3.0691946
-0.027400186 2.4300604 3.0747111
0.022159897 2.4346197 3.0770991
0.07536754 2.4336944 3.0837059
0.12835443 2.4299219 3.0775342
0.18149284 2.4331217 3.0742648
0.22556697 2.433042 3.0684218
0.27401477 2.4230475 3.0830898
0.3238543 2.4227896 3.0822256
0.38118023 2.4280999 3.0802341
0.42581427 2.417834 3.0742552
0.47650748 2.4232433 3.0837784
0.52024215 2.4195786 3.0731812
0.64863479 2.407352 3.08956
0.67433923 2.412169 3.0738025
0.72341716 2.4075851 3.0672688
0.77277488 2.4132626 3.0773807
0.83168286 2.4104085 3.0751121
0.86744064 2.4039335 3.0701618
0.92016637 2.4052696 3.0689139
0.97968239 2.4026382 3.0645576
1.0074666 2.4351892 3.0834656
0.69110024 2.4941785 3.0715008
0.97135168 2.4999843 3.0511768
1.0727235 -0.15362217 3.1004491
1.0491662 -0.13049428 3.105083
1.0698839 -0.1207204 3.1035073
-0.10736726 -0.059237234 3.1048999
-0.078263238 -0.067150369 3.1275215
1.0496229 -0.076733463 3.1076057
1.0647405 -0.076714791 3.1032884
-0.10740301 -0.029608013 3.106106
-0.085392028 -0.02968205 3.1145599
1.0429887 -0.035682324 3.1047623
1.0637254 -0.045919754 3.100738
-0.10745418 0.022289712 3.1076784
-0.085514173 0.0223526 3.119009
1.0363064 0.040101252 3.1077199
1.0650334 0.038609035 3.1045537
-0.10747545 0.074222498 3.1077549
-0.085455276 0.07440456 3.1163166
0.96528786 0.066647783 3.1181076
1.0287141 0.077205993 3.119257
1.0577101 0.074123517 3.1118407
-0.46697897 0.14951986 3.1076622
-0.44587946 0.14995933 3.1190042
-0.36161309 0.1342874 3.1108031
-0.32510233 0.13461612 3.1211574
-0.28895539 0.13517681 3.1366205
-0.16704103 0.11888319 3.1094141
-0.12292282 0.11186454 3.1216393
-0.085421659 0.10411289 3.1145332
0.96617633 0.12809242 3.1197748
1.029822 0.12359469 3.1215866
1.0515575 0.12342516 3.1121757
-0.5046761 0.19448793 3.1041877
-0.47509325 0.17967135 3.1101022
-0.42309076 0.17445825 3.1292536
-0.37629104 0.17052111 3.1442683
0.97922122 0.17244926 3.1214118
1.0292422 0.17265758 3.1371338
1.0549016 0.15471475 3.1211312
-0.51264709 0.22462042 3.1050346
-0.47650802 0.22523242 3.1174026
-0.42563188 0.22611181 3.134656
-0.38899359 0.22670209 3.1460807
0.98702842 0.22110251 3.1352811
1.0276101 0.22505724 3.1361988
-0.51313376 0.27479172 3.1052878
-0.47665098 0.27034175 3.1159258
-0.42594492 0.2715278 3.1346295
-0.38952431 0.25726688 3.1488478
-0.5512898 0.33014402 3.1014171
-0.5181967 0.32863298 3.1067686
-0.47800267 0.32381985 3.1214349
-0.42704856 0.32515574 3.1393182
0.99273634 0.32975531 3.1455028
1.0139889 0.3264896 3.1394188
-0.47036225 0.36919728 3.1077921
-0.42473957 0.37599894 3.1184714
-0.37532237 0.37921584 3.1336362
-0.33903936 0.38834143 3.1433113
0.97571933 0.38886327 3.1447961
1.0092108 0.37422651 3.146826
-0.42269847 0.42116433 3.1149247
-0.37338364 0.42258057 3.1297166
-0.34068537 0.42792043 3.1434295
0.96799058 0.41220278 3.1445036
1.0167996 0.40530255 3.1419101
-0.46859899 0.47681752 3.1037891
-0.42533171 0.47444797 3.1139545
-0.37560183 0.47175527 3.1309457
-0.33748424 0.47037888 3.1451962
-0.46287116 0.5270133 3.1039143
-0.42629454 0.52835935 3.115401
-0.3739104 0.5254029 3.1356661
-0.3390778 0.52102166 3.1445994
-0.47008437 0.57665974 3.1054749
-0.42722401 0.57485932 3.1167014
-0.37628907 0.57793945 3.137985
-0.33878636 0.57880723 3.1455317
-0.46123695 0.62401855 3.1070442
-0.42589834 0.61997586 3.1167257
-0.37636533 0.6237092 3.1328187
-0.33935526 0.62554932 3.1449568
-0.46458003 0.6724844 3.106482
-0.4221108 0.66951931 3.1234446
-0.37777776 0.67185092 3.1381791
-0.34360075 0.66834438 3.142863
-0.46285552 0.73169082 3.106319
-0.42321256 0.72467273 3.1236279
-0.37877029 0.71952909 3.1396437
-0.34248886 0.71739781 3.1470234
-0.46620938 0.77492905 3.1072693
-0.42401779 0.77953827 3.1209002
-0.38103932 0.77281785 3.1385269
-0.34944096 0.75288999 3.1487212
1.0740941 0.7791872 3.1137064
-0.46939072 0.82455873 3.1053314
-0.42509654 0.82753325 3.1209831
-0.3768838 0.82896233 3.1418169
1.0850859 0.82091337 3.1136301
-0.50166231 0.87339336 3.104337
-0.47190464 0.87504029 3.1134501
-0.42702624 0.87743306 3.1264884
-0.38177025 0.87954271 3.138056
-0.50284386 0.92152208 3.1025648
-0.47291136 0.92304599 3.1109922
-0.42794484 0.92559803 3.1241562
-0.38309646 0.92906487 3.1399512
-0.50443137 0.97834516 3.1010919
-0.47427517 0.97200286 3.1103804
-0.42663425 0.9775154 3.1275973
-0.38261804 0.97730678 3.1428661
-0.47563443 1.0212195 3.1091001
-0.42378387 1.0268061 3.131479
-0.37837407 1.0301552 3.1458302
-0.50763446 1.0698441 3.1013944
-0.47742134 1.0716419 3.1100063
-0.42490909 1.0763247 3.1290114
-0.37953004 1.0802737 3.1446559
-0.47691745 1.1235555 3.107688
-0.42629775 1.1268067 3.1278572
-0.38096967 1.1315207 3.1451645
-0.47360015 1.1746629 3.1135261
-0.42042705 1.1791905 3.1310377
-0.37725425 1.1723387 3.1443367
-0.51409066 1.2404697 3.1001403
-0.47521314 1.2257781 3.1113808
-0.42175928 1.2302388 3.1282578
-0.38016653 1.2205887 3.1457341
-0.47468117 1.2758415 3.1092803
-0.42538327 1.2805641 3.1275029
-0.37685889 1.2698665 3.1436794
-0.50302315 1.3470916 3.1027803
-0.47115856 1.3307894 3.1100054
-0.4228501 1.3241121 3.1294367
-0.37849647 1.3232331 3.1435299
-0.34633625 1.3061821 3.148222
-0.50412071 1.3738608 3.1021128
-0.47300696 1.3757719 3.1099577
-0.42710498 1.3736719 3.1306348
-0.38879928 1.3793191 3.1472175
-0.50689477 1.4373174 3.1010933
-0.47543514 1.4228123 3.1130955
-0.42870468 1.4268414 3.1269047
-0.38974005 1.4228772 3.1422153
-0.51691091 1.4751303 3.1015925
-0.47799432 1.4787297 3.1138067
-0.4272553 1.4766557 3.1375751
-0.39132977 1.4528449 3.147049
-0.51156044 1.5230925 3.1046841
-0.47353464 1.5305755 3.1245403
-0.43445665 1.5273618 3.1416039
-0.52705806 1.5694964 3.1101785
-0.47952589 1.5700277 3.1292973
-0.43606722 1.565475 3.1414516
-0.5697158 1.6203189 3.1148915
-0.52083749 1.6246219 3.1338999
-0.48228019 1.6240299 3.1449842
-0.60284203 1.6737556 3.1036406
-0.57400233 1.673822 3.1186407
-0.53167659 1.6739311 3.132545
0.025154701 1.6847255 3.1299171
0.053259145 1.6865667 3.1330955
1.2519894 1.692609 3.1148598
-0.60692656 1.7263815 3.107882
-0.57310456 1.7240665 3.1223385
-0.5294525 1.7223758 3.1403718
-0.48599154 1.7202108 3.1496515
0.020511363 1.7237093 3.1282248
0.053217847 1.7262545 3.1143651
-0.61994851 1.7733171 3.1059749
-0.57870156 1.7742261 3.1247253
-0.52991843 1.7698075 3.1417685
0.025357012 1.7695723 3.1274662
0.053580981 1.7792791 3.1185787
-0.62936896 1.8314953 3.1143472
-0.58035702 1.8234998 3.1290038
-0.54051328 1.8107123 3.1395667
0.02908919 1.8256553 3.1276984
0.053748716 1.8179246 3.1142848
-0.650805 1.8732733 3.1040168
-0.61840969 1.8769451 3.1153138
-0.57021987 1.876076 3.1390195
-0.53588277 1.8572307 3.1479359
0.020934893 1.8550442 3.1422191
-0.65994918 1.9199663 3.102679
-0.62495577 1.9269583 3.1181643
-0.57358474 1.9296627 3.1379967
-0.53921741 1.9112773 3.1482496
-0.6676107 1.9737768 3.1057451
-0.62600136 1.9766566 3.1171105
-0.57647783 1.9735876 3.1375401
-0.54288608 1.9670411 3.1495886
-0.67269319 2.0316782 3.1079657
-0.62763441 2.0287321 3.1182692
-0.57953179 2.0183971 3.1373022
-0.54656988 2.0320611 3.1456931
-0.66798234 2.0822675 3.1073215
-0.62553173 2.0801952 3.1199439
-0.58319396 2.0694439 3.1377232
-0.66759193 2.1204758 3.1070197
-0.62122875 2.1295102 3.1247013
-0.5770269 2.1278617 3.1395495
1.2971057 2.1371732 3.1013682
-0.66275907 2.1645677 3.1052768
-0.62412328 2.1743791 3.1202366
-0.57350403 2.1810536 3.1377933
1.2831107 2.184027 3.1164997
1.3091362 2.1932666 3.1092691
-0.66082859 2.2152543 3.1031666
-0.6269542 2.2193182 3.1146533
-0.57637185 2.2272279 3.1338749
-0.54383636 2.2469196 3.1492105
1.2899026 2.2259479 3.1152685
-0.67265111 2.2517786 3.1006031
-0.63082242 2.2683337 3.1134708
-0.57942283 2.2743804 3.1300504
-0.53918982 2.2757907 3.1437244
1.2938054 2.2765403 3.1274705
1.3051648 2.2906342 3.1057072
-0.65073937 2.302794 3.1056294
-0.62289703 2.3238411 3.1099284
-0.57928383 2.3216579 3.1290698
-0.53430068 2.3308234 3.1411347
0.59608096 2.349081 3.14327
0.61938441 2.3265691 3.126272
1.2863847 2.3246894 3.1249995
1.3076315 2.3133349 3.1001499
-0.60694504 2.3574574 3.1057053
-0.57408941 2.3722854 3.1144059
-0.53227508 2.3805413 3.1245012
-0.48685837 2.3859529 3.1378179
-0.43783936 2.3918865 3.1399679
0.58612752 2.3722191 3.1231027
0.89411104 2.3971746 3.1154349
0.91976506 2.3985672 3.1482677
0.9743914 2.3978932 3.1336737
1.2268699 2.380513 3.1304014
1.273975 2.3609235 3.1181686
-0.46954179 2.4067633 3.1151659
-0.42139548 2.4095695 3.1209948
-0.37544081 2.4130681 3.1303661
-0.32691371 2.4192519 3.1289954
-0.2778658 2.4204345 3.1205678
-0.22795494 2.423727 3.1246912
-0.17450544 2.4280198 3.1295974
-0.12067682 2.4237938 3.1296463
-0.075985439 2.4243124 3.1314819
-0.03568783 2.4250197 3.1243718
0.022289075 2.4237828 3.1143038
0.080326512 2.4225078 3.1204765
0.12966371 2.4236348 3.1291878
0.1743076 2.4312987 3.1200945
0.21860029 2.4267433 3.1119416
0.26883334 2.4245741 3.1317945
0.32687435 2.4183664 3.1278725
0.37638399 2.4246087 3.1228206
0.42655081 2.4252052 3.1270466
0.46570855 2.4143174 3.1169176
0.52650636 2.4216106 3.1274014
0.56471616 2.4311755 3.1346424
0.67807943 2.4061897 3.1243248
0.72504294 2.415626 3.1259956
0.77485466 2.4113765 3.124795
0.82445163 2.406018 3.1215639
0.86854881 2.4017949 3.1278038
0.92349875 2.4027815 3.1161058
0.97320575 2.4040565 3.1239243
1.0263946 2.4217584 3.1346817
1.0957313 2.4420085 3.1245358
1.0395442 2.4588196 3.1261117
1.0820626 2.4529357 3.1439376
1.0230553 2.5006826 3.1125658
-0.072287522 -0.06088952 3.1921816
-0.072143726 -0.030369557 3.186079
1.0520085 -0.046771854 3.164952
-0.072171614 0.022851899 3.1873045
1.0324726 0.015734304 3.1567054
-0.071942933 0.075812638 3.1766508
0.96457076 0.07760749 3.1511736
-0.26059288 0.13604258 3.1584661
-0.22409876 0.13684474 3.1790159
-0.18651366 0.13712361 3.1871362
-0.10165089 0.12059649 3.156173
-0.077132709 0.11649856 3.182003
1.024822 0.13368598 3.1828184
-0.35919341 0.18914485 3.1537614
-0.32717958 0.17610486 3.1622171
-0.27611274 0.17356822 3.1790509
-0.23560481 0.17076077 3.1957023
0.53891253 0.198797 3.1704497
0.56971186 0.19887958 3.1681957
1.0165694 0.15593636 3.1564558
-0.36709139 0.22717656 3.1544409
-0.32320312 0.22826986 3.1729524
-0.27118754 0.22928888 3.1904554
-0.24113117 0.22976393 3.1987298
0.98342329 0.24890223 3.1526384
-0.37315437 0.27476686 3.1547337
-0.32337299 0.27405053 3.1721156
-0.27138931 0.27535498 3.1904705
-0.24130727 0.27591419 3.1986678
-0.37557504 0.32639423 3.1558511
-0.32421261 0.32055819 3.177604
-0.27697673 0.31668478 3.1933086
0.98621082 0.31197676 3.1577802
-0.36000219 0.36392432 3.1507523
-0.32233316 0.36494237 3.1626143
-0.27470842 0.37549543 3.1714377
-0.22555344 0.38248432 3.1861827
-0.18251395 0.38566408 3.1930418
0.98035681 0.36727393 3.1617062
1.0109367 0.37484843 3.1522574
-0.31515667 0.42545149 3.155396
-0.27353564 0.42537713 3.1688912
-0.22583143 0.42891905 3.1863079
-0.19183967 0.42609829 3.1957483
0.97664952 0.43376198 3.1573498
1.0047308 0.42236057 3.1549251
-0.30798629 0.47167024 3.1559212
-0.27081633 0.4731991 3.1683724
-0.22592132 0.47504139 3.1831539
-0.19083582 0.47668293 3.1957703
0.97685295 0.47091135 3.1680784
1.0072037 0.46259615 3.1589317
-0.31103787 0.52833515 3.1551294
-0.27146631 0.52019775 3.1711323
-0.22644083 0.52222604 3.185766
-0.19241369 0.52364314 3.1959095
0.94909155 0.52783239 3.1807723
0.979325 0.51930761 3.1710064
-0.30927545 0.58058918 3.1572924
-0.27191454 0.5747385 3.1703329
-0.2269035 0.56948072 3.1871822
0.94430709 0.56914973 3.1882176
0.96763599 0.56971127 3.174969
-0.3097873 0.62746209 3.1567008
-0.27256042 0.62986124 3.171104
-0.22742067 0.62476414 3.1876583
-0.19695431 0.60273117 3.1979451
0.93811029 0.6255461 3.1884112
0.96473724 0.62114972 3.1768215
-0.31637362 0.67710567 3.1582026
-0.27350506 0.67829156 3.1756885
-0.22797476 0.68039834 3.1880255
-0.19759014 0.67445672 3.1989844
0.93211669 0.68237799 3.1888049
0.96218306 0.68121189 3.1768162
-0.31488195 0.72567034 3.1613324
-0.27416337 0.72628474 3.1765902
-0.22886814 0.72963595 3.1936545
0.93555975 0.72823822 3.1880593
0.95652711 0.72250181 3.1799741
-0.35023272 0.7853955 3.1508088
-0.32301641 0.77125132 3.160408
-0.27481779 0.77445906 3.1767085
-0.22938858 0.77797449 3.1935911
0.92996609 0.77918518 3.1890771
1.1208895 0.75011349 3.1558907
-0.35111448 0.82341009 3.1525128
-0.32079804 0.81970716 3.1612101
-0.27555442 0.82313204 3.1773946
-0.23006065 0.82705331 3.1949921
0.92969412 0.83013564 3.1859467
-0.35213327 0.88257122 3.1513202
-0.32190818 0.86909091 3.1637404
-0.2762711 0.87200224 3.1772881
-0.23845045 0.87602264 3.1940677
0.91926992 0.8793698 3.1924243
-0.35328403 0.93204975 3.1525362
-0.32443315 0.92152584 3.1636441
-0.27762264 0.92323279 3.1839828
-0.23921125 0.92587656 3.1952639
0.88762796 0.93999946 3.1962805
0.91217321 0.93242973 3.1947553
-0.35440686 0.98176432 3.1529109
-0.32389912 0.97337747 3.163861
-0.278256 0.97236508 3.1816864
-0.24370971 0.97130626 3.1938891
0.88994133 0.99077559 3.1944358
0.90877146 0.97730643 3.1885099
-0.35545245 1.0315634 3.151993
-0.32306933 1.020521 3.165643
-0.27896473 1.0220171 3.1797419
-0.24074079 1.0265658 3.1960824
0.90886867 1.0181026 3.1958897
-0.35658875 1.0818936 3.1512635
-0.32587913 1.0683768 3.163655
-0.27999559 1.0731374 3.1808443
-0.24156798 1.0776359 3.1963863
0.89516884 1.069517 3.196743
-0.35798746 1.1254843 3.154161
-0.32691798 1.1190686 3.1624975
-0.27530599 1.1262938 3.1819336
-0.23835517 1.1247538 3.1963549
0.88099527 1.1288319 3.1935043
-0.35884008 1.1676311 3.1517367
-0.32813755 1.1707231 3.1624589
-0.27417874 1.1767498 3.1824062
-0.23522437 1.1806219 3.1951005
0.88374496 1.1567953 3.1973052
-0.36006218 1.2111712 3.1521425
-0.32929337 1.222464 3.1611166
-0.27515993 1.2288133 3.181196
-0.22963242 1.2295325 3.1948118
-0.32759437 1.2775236 3.1622212
-0.27717295 1.2766485 3.1826658
-0.22869581 1.2603533 3.1966782
-0.32417521 1.3292878 3.1623406
-0.26730996 1.3210602 3.1842091
-0.23281415 1.3355826 3.197542
-0.36513317 1.3727411 3.1550732
-0.32307708 1.3733279 3.1666636
-0.27035701 1.3726077 3.1825862
-0.23888095 1.3772043 3.1950932
-0.35884368 1.4197831 3.1584766
-0.31970707 1.4250994 3.1733301
-0.27724385 1.4233166 3.1860542
-0.23973593 1.414638 3.1965454
-0.40124989 1.4920201 3.15007
-0.36701685 1.4787726 3.1597564
-0.32106391 1.471824 3.173701
-0.27352598 1.4750208 3.1925526
-0.41063347 1.5210782 3.1507258
-0.3706995 1.5241278 3.1606572
-0.32341689 1.5236356 3.1832538
-0.28566405 1.5150009 3.1944673
-0.45527908 1.5919545 3.1539915
-0.41857395 1.5764655 3.1575489
-0.37285969 1.5658616 3.1676438
-0.32861787 1.5721277 3.1879172
-0.28437918 1.5668024 3.195966
-0.45685023 1.6221614 3.1556997
-0.42312625 1.6246812 3.1723497
-0.37986591 1.6315086 3.1898365
-0.34500435 1.6466511 3.1947885
-0.50964504 1.6828043 3.1522174
-0.47437078 1.6764081 3.1583021
-0.43060547 1.6755923 3.1770902
-0.39110008 1.6763395 3.1969421
-0.023477057 1.6886443 3.1806955
0.016560066 1.6706496 3.1686604
-0.47449046 1.7237591 3.157527
-0.4288823 1.7266381 3.1818862
-0.3941521 1.7282023 3.1928985
-0.029052148 1.7270235 3.1710331
-0.52368444 1.7852749 3.1518965
-0.48023626 1.7763343 3.1636617
-0.42130843 1.7749493 3.1846545
-0.029228108 1.7738128 3.1757629
0.0042028222 1.7771981 3.1514339
-0.51488388 1.8309524 3.1562788
-0.46654806 1.8267707 3.1721022
-0.42160043 1.8250009 3.1889358
-0.38582179 1.8237848 3.1981912
-0.026981069 1.8243515 3.1769211
0.0042247702 1.820357 3.1545408
-0.5171569 1.8729255 3.1552815
-0.47118366 1.8769374 3.1712697
-0.42159995 1.8744577 3.1905861
-0.38699529 1.8548537 3.1969783
-0.021060359 1.8667943 3.1801162
0.02113753 1.8813219 3.1626337
0.054674692 1.8745234 3.1568847
-0.52133542 1.9269179 3.1584899
-0.47378978 1.9215435 3.1734498
-0.42173633 1.9251595 3.1928844
-0.3910186 1.9429218 3.1995039
0.0042939601 1.901831 3.1852114
1.2716497 1.9192271 3.1957459
-0.52150029 1.9781238 3.1583157
-0.47882402 1.9740082 3.1733332
-0.42954722 1.9702708 3.1898735
-0.39126882 1.9613723 3.193589
-0.52632779 2.0233886 3.1560652
-0.4771612 2.0279374 3.173414
-0.42896795 2.0199955 3.1944034
-0.5506162 2.0818086 3.1513865
-0.52136368 2.0739632 3.1634688
-0.47010884 2.0871058 3.1839762
-0.42931619 2.0733237 3.1929841
-0.55309314 2.1173358 3.1519423
-0.5186345 2.1189396 3.1589558
-0.46851611 2.1289196 3.1802092
-0.42944145 2.1407347 3.1964786
-0.55529201 2.1519866 3.1505468
-0.52461493 2.1719441 3.1589367
-0.47126892 2.1766646 3.1802094
-0.42837262 2.1824858 3.1936202
-0.52184606 2.2189469 3.1613719
-0.47331834 2.2215469 3.1747448
-0.42182088 2.2299626 3.1926804
-0.51967967 2.2706037 3.1595671
-0.47624531 2.2708642 3.1743062
-0.43524626 2.2706871 3.1846802
0.65348655 2.2900302 3.1947622
1.2715195 2.2825191 3.1577995
-0.51298189 2.3115287 3.1561468
-0.48049498 2.3229778 3.1628292
-0.43036065 2.329844 3.1879075
-0.3921729 2.3449512 3.1986318
0.62581348 2.3236375 3.1747961
1.2451248 2.3151951 3.1641598
1.268281 2.3330309 3.1639266
-0.46829116 2.3648357 3.1585705
-0.42466608 2.3703325 3.1692989
-0.37669781 2.3807919 3.1826744
-0.33015436 2.3889756 3.1935141
0.6011129 2.3508153 3.1806703
0.67695487 2.3995466 3.1633978
0.99786192 2.3919833 3.1568437
1.0359453 2.3978844 3.1933825
1.1652817 2.3969297 3.1939411
1.2340746 2.3665655 3.1665123
1.2593931 2.3612783 3.1634274
-0.35578156 2.4058752 3.1611412
-0.32007727 2.408396 3.1675489
-0.27548349 2.4126852 3.1766629
-0.23054296 2.415046 3.1826632
-0.1798307 2.4230838 3.1784253
-0.12184127 2.4204066 3.1771023
-0.07677789 2.4231205 3.1818261
-0.027916972 2.4237552 3.1693921
0.022610856 2.4292648 3.1731575
0.072988175 2.4215527 3.1659319
0.13091476 2.4202447 3.1766164
0.17598037 2.4278302 3.1674139
0.22141993 2.4315269 3.1699305
0.27594414 2.4250278 3.1754074
0.33509278 2.4231286 3.1770675
0.37624985 2.4211736 3.1796081
0.41712037 2.4181409 3.1678901
0.48076281 2.4253874 3.1773283
0.52242839 2.4174097 3.1755152
0.56007075 2.4230828 3.177918
0.69786352 2.4089978 3.1726232
0.72590923 2.4112697 3.1705744
0.77052659 2.4079883 3.1573956
0.82744324 2.4140549 3.1816442
0.87750781 2.4081693 3.1716413
0.93242973 2.4093845 3.1729143
0.97630906 2.4068966 3.1836696
1.030867 2.4046116 3.1661162
1.0778629 2.4364874 3.1795349
1.125442 2.4291711 3.1746409
1.0651535 2.4567704 3.1541712
-0.057697456 -0.076979496 3.228132
-0.034626346 -0.077065989 3.2319598
-0.16471972 0.1380066 3.2085049
-0.12673663 0.13841878 3.2192175
-0.081181154 0.13935378 3.241981
-0.21566649 0.18132794 3.2028551
-0.17654942 0.17157544 3.2135971
-0.122687 0.16993454 3.2327843
-0.089109659 0.17064828 3.2472107
0.53728551 0.18559121 3.2078948
0.56143773 0.18590865 3.210731
-0.21872769 0.23037238 3.2081692
-0.17161085 0.22488673 3.2197843
-0.11989399 0.22453944 3.2385223
-0.086083747 0.22048047 3.2481301
0.25292513 0.2334588 3.2498026
0.44132274 0.23436016 3.249114
-0.21884316 0.276582 3.2074997
-0.17339937 0.277657 3.2217693
-0.12197822 0.27710697 3.2396326
-0.26224747 0.33275005 3.2002621
-0.2268921 0.32321769 3.2096646
-0.17396618 0.32499179 3.2294617
-0.12812179 0.32637611 3.2447221
-0.22700195 0.35415649 3.2090747
-0.17463036 0.36596701 3.2179158
-0.12527476 0.37230986 3.2234833
-0.073601522 0.37678832 3.2368119
-0.042742752 0.38146141 3.248312
-0.16353726 0.43316203 3.2059288
-0.12200046 0.42307419 3.2180858
-0.073730417 0.41961959 3.238791
-0.042757928 0.41274965 3.246949
-0.167447 0.47824061 3.2070057
-0.11990966 0.48005015 3.2205563
-0.073847942 0.47480312 3.2392304
-0.042845704 0.47601855 3.247942
-0.16409041 0.52541494 3.2078137
-0.12020414 0.52782625 3.2238264
-0.073910154 0.52974617 3.2365384
-0.035085361 0.50784278 3.2488556
-0.17410624 0.57300752 3.2091329
-0.12039169 0.57523215 3.2232764
-0.076109216 0.57639551 3.2418785
-0.17233591 0.62207866 3.2095482
-0.12069278 0.62344187 3.2256327
-0.076249927 0.62835813 3.2416236
-0.04308017 0.64336795 3.246918
-0.16867633 0.67203438 3.2114167
-0.12106988 0.67230153 3.2295446
-0.074458942 0.67484248 3.2426636
0.93009681 0.65478998 3.2153721
-0.17477843 0.7271601 3.2123401
-0.12125961 0.72027981 3.2276149
-0.082453936 0.7232216 3.2416275
0.92238808 0.74126673 3.2356076
-0.17582627 0.77807903 3.2130134
-0.12174252 0.7703476 3.2333379
-0.082727678 0.77290887 3.2449501
0.9185555 0.76224411 3.2182984
1.0446773 0.78063017 3.2362468
-0.20004451 0.8476392 3.2126245
-0.17243224 0.82746238 3.2148666
-0.12217241 0.82041413 3.237092
-0.082922243 0.82214808 3.2447779
0.90812188 0.83191532 3.2146888
1.03298 0.83308995 3.2457359
-0.20791779 0.8791793 3.2070963
-0.16902685 0.88104069 3.2154417
-0.12235308 0.86905688 3.23368
-0.07977844 0.87224066 3.2464023
-0.20841818 0.92851311 3.205842
-0.17170374 0.93014908 3.2201824
-0.12283169 0.92001235 3.237349
-0.087395146 0.92247081 3.2468328
0.89511836 0.91550243 3.2297583
0.90482569 0.90095407 3.2052174
-0.21508746 0.98121363 3.2071893
-0.17015174 0.97665203 3.2193627
-0.12309689 0.96970177 3.2350001
-0.086403452 0.9845708 3.2477844
0.88730699 0.98072958 3.2192314
-0.20977324 1.0295746 3.2069767
-0.17064637 1.0271236 3.2185862
-0.12354508 1.0211298 3.2368867
-0.091924191 1.0160267 3.2485528
0.88583004 1.0245998 3.2103748
-0.21047473 1.0806987 3.2070122
-0.16894539 1.0723765 3.2204196
-0.12400467 1.0729017 3.2381709
-0.09239129 1.0935431 3.2490664
0.87894124 1.0728552 3.2182679
1.0486606 1.0944754 3.2430673
-0.21269925 1.1285758 3.2060776
-0.17177279 1.1191591 3.2203913
-0.12429079 1.1235147 3.2344294
-0.09255451 1.1277158 3.2472291
0.87052047 1.1188624 3.205133
1.0507689 1.1132926 3.2455657
-0.21005189 1.1698205 3.2049603
-0.17238419 1.171325 3.2202101
-0.12474562 1.1759887 3.2345784
-0.092941441 1.1809474 3.2489712
0.86429578 1.1799001 3.2163582
1.0738332 1.1785374 3.2465293
-0.20832159 1.2144791 3.2048864
-0.17295137 1.2234652 3.2184007
-0.12726983 1.227271 3.235739
-0.093205743 1.2329547 3.2457533
0.84632701 1.2387195 3.2331367
0.86174107 1.2183731 3.2074006
1.0793189 1.2433542 3.2472847
-0.2164426 1.2804337 3.2103875
-0.17364523 1.2768415 3.2181978
-0.12570541 1.2743039 3.2361021
0.8419646 1.2784779 3.2329021
0.86362183 1.2729459 3.2237687
1.0759929 1.2780362 3.2415237
1.101294 1.2830133 3.2491114
-0.21692167 1.3210745 3.2069943
-0.17638335 1.3287249 3.218143
-0.12415568 1.3219573 3.2365668
-0.093876779 1.3153589 3.2490759
0.83776867 1.3315158 3.2255569
0.85061002 1.3197016 3.2284162
1.0779774 1.3276753 3.2489576
1.1023601 1.3011547 3.2473783
-0.21690206 1.3784521 3.2076843
-0.17292464 1.3749365 3.2234254
-0.12683915 1.3758398 3.2393956
-0.094199933 1.3608632 3.2484736
0.82998562 1.3766885 3.2349446
1.0893993 1.3567472 3.2481432
-0.25708503 1.4370025 3.2041388
-0.2188323 1.4251165 3.2072544
-0.1760767 1.4258875 3.2248609
-0.13087139 1.426664 3.245172
0.83627409 1.4290519 3.2461734
-0.25737739 1.4549854 3.2025518
-0.22748987 1.4742616 3.2102911
-0.17679502 1.4727796 3.2248428
-0.13338698 1.4641299 3.2419672
0.83102375 1.4682466 3.2492526
-0.27182832 1.5327344 3.2058749
-0.22476478 1.5250781 3.2211921
-0.17802048 1.524501 3.2336679
-0.12872866 1.5291111 3.2452266
-0.31113487 1.5936189 3.2092423
-0.27297503 1.5680654 3.2090857
-0.22841413 1.5706526 3.2269859
-0.18759814 1.5683136 3.2441864
-0.14601222 1.5695086 3.2482021
-0.36953422 1.6115725 3.2014608
-0.32923028 1.6261002 3.2139387
-0.27837646 1.6271023 3.2341895
-0.24618104 1.619648 3.2261922
-0.36960161 1.6854357 3.2034414
-0.32886633 1.6785386 3.2142863
-0.28752074 1.681038 3.2333705
-0.071267039 1.6864229 3.2267106
-0.032551873 1.6731685 3.2210021
0.024418095 1.6736835 3.2374871
0.054642227 1.6799062 3.2337716
-0.37100205 1.7198787 3.204757
-0.3283605 1.7312325 3.2203286
-0.28063643 1.7241125 3.2386119
-0.07137356 1.7222899 3.2180591
0.071513772 1.7238036 3.2208922
-0.37005228 1.7748554 3.2100201
-0.31826243 1.7745682 3.2278521
-0.26603544 1.7736673 3.2439303
-0.070224978 1.7743633 3.2271054
-0.35990742 1.824948 3.2136307
-0.32197136 1.8238987 3.2269528
-0.26927173 1.8216705 3.2406833
-0.063534781 1.8232312 3.2139986
-0.046606265 1.8328044 3.2125719
-0.36856976 1.8752667 3.2117667
-0.31971619 1.8786144 3.2331111
-0.27614099 1.8803828 3.2444706
-0.064102635 1.8737212 3.2281115
-0.041173305 1.8881289 3.2102013
-0.37359121 1.9197055 3.2091756
-0.32409224 1.928082 3.2352965
-0.27617985 1.9332699 3.2437024
-0.012847926 1.9266042 3.2266834
1.2806401 1.941775 3.2139945
-0.4107452 1.9896042 3.2016068
-0.37267312 1.9756806 3.2114429
-0.32572007 1.9725221 3.2357368
-0.28257078 1.9745643 3.2421715
1.2660602 1.9779609 3.2265358
-0.37602979 2.0245776 3.2145813
-0.32941815 2.0232298 3.2312315
-0.28740752 2.0258715 3.2461996
1.2476203 2.0480156 3.2499533
1.2677389 2.02898 3.2375953
1.3010108 2.0092182 3.2474301
-0.38059258 2.0744982 3.2131193
-0.32678613 2.0783324 3.2313962
-0.29486123 2.0781107 3.2437804
-0.40912607 2.1300716 3.2062998
-0.37905604 2.1187034 3.2133064
-0.33141351 2.1308806 3.2324026
-0.28769121 2.1253057 3.2451119
-0.40216717 2.1752107 3.2032788
-0.37044647 2.1688719 3.2111187
-0.32955217 2.1756077 3.2318389
-0.29873925 2.1857445 3.2457452
-0.36956373 2.2183838 3.2165358
-0.31777585 2.2299578 3.2378149
-0.28269875 2.2356343 3.2486925
0.67391419 2.2439039 3.2337267
-0.41393483 2.290195 3.2027705
-0.37181222 2.2766554 3.2112978
-0.31945536 2.2777331 3.2351685
-0.27570733 2.2970467 3.2480597
0.63717222 2.2871442 3.2114227
0.65792978 2.2783225 3.2319403
-0.40972173 2.3241665 3.2035632
-0.37392434 2.3302109 3.2065411
-0.3209241 2.3243964 3.2296836
-0.27959204 2.3284385 3.2443655
0.62563783 2.3387308 3.2324824
1.2201864 2.3375201 3.2467771
-0.35703006 2.3510234 3.2102993
-0.31893161 2.368824 3.2125142
-0.27092513 2.3791451 3.2301557
-0.22642551 2.3839457 3.2411568
-0.17820258 2.3956087 3.247576
-0.14153674 2.3937895 3.2465768
0.93435085 2.399379 3.2212653
0.97163773 2.3996413 3.212563
1.0254482 2.3981748 3.2352223
1.1764407 2.3756444 3.2247982
1.2168034 2.3622329 3.2320862
-0.25916529 2.4018149 3.216064
-0.22310168 2.4051681 3.2227476
-0.17385674 2.4113858 3.2193706
-0.12282825 2.4130208 3.2199185
-0.072054811 2.4175899 3.2308064
-0.031839497 2.4193296 3.2212999
0.022765839 2.4193575 3.212554
0.077657588 2.4203365 3.2308486
0.12643546 2.4247701 3.229634
0.16520235 2.4211748 3.2257805
0.22731943 2.4211056 3.2226887
0.28226084 2.4228806 3.2215552
0.32374588 2.4262905 3.2087283
0.380871 2.4233117 3.2353706
0.43077269 2.424952 3.2235518
0.48166862 2.4227433 3.2237217
0.52712905 2.4208741 3.2154427
0.57116288 2.421344 3.2244866
0.72460008 2.4116018 3.2226861
0.77766246 2.415992 3.2186806
0.82051283 2.4112933 3.2257774
0.87475556 2.4103112 3.2278099
0.91714233 2.4123828 3.2249286
0.9749738 2.4078083 3.2234385
1.0113612 2.4056814 3.2111642
1.079214 2.412827 3.2265878
1.128672 2.4134223 3.2192705
-0.058246773 -0.06216174 3.259073
-0.023321781 -0.066243984 3.2692816
0.019667396 -0.070372619 3.2802846
0.074440666 -0.070461974 3.2825284
-0.058266878 -0.03106829 3.260452
-0.027258284 -0.031209592 3.2753143
0.019727869 -0.031382058 3.2932351
0.051229991 -0.023571081 3.2994308
0.26885173 -0.031115053 3.2589493
-0.058290817 0.023380337 3.261785
-0.027242491 0.023461439 3.2732875
0.019705353 0.023584967 3.2895672
0.051222276 0.015779022 3.2989285
-0.058223099 0.077762224 3.2574265
-0.02722195 0.078055531 3.2700195
0.019726776 0.078574635 3.2917182
0.28800383 0.078936271 3.2984033
-0.058213007 0.12437368 3.2558908
-0.027222876 0.12492201 3.2703199
0.019713486 0.12561987 3.2887733
0.051258985 0.14179842 3.2992871
-0.065972537 0.17099421 3.2540607
-0.02724997 0.17191266 3.2718496
0.019728256 0.17286786 3.2900851
0.051275253 0.17335559 3.2993422
0.28575429 0.18790059 3.2696714
0.30139166 0.18789116 3.2685766
0.3818655 0.18112493 3.2827358
0.42816994 0.18075186 3.2718058
0.47102484 0.17872998 3.2597649
0.54008996 0.17351046 3.2730858
0.55279928 0.17255773 3.2533584
-0.064950086 0.22903334 3.2562959
-0.027275875 0.21896376 3.2728119
0.019730667 0.22004789 3.2891073
0.051295843 0.23647584 3.298095
0.23822917 0.21869044 3.2631183
0.2857607 0.20355979 3.2691247
0.30929771 0.21927078 3.2676895
0.39059615 0.21307322 3.2878575
0.44097599 0.21591915 3.2868216
0.45936102 0.21203062 3.2659578
-0.10491934 0.2955718 3.2503593
-0.073939078 0.2805891 3.2583711
-0.027319126 0.27410421 3.2748671
0.019753458 0.27536353 3.2899067
0.051326383 0.25238892 3.2992926
0.28711972 0.25171643 3.2825074
0.31261954 0.25639507 3.2731082
-0.10504106 0.3270624 3.2521486
-0.074058563 0.32784739 3.2604849
-0.027391242 0.32977551 3.2801216
0.015274642 0.33320349 3.2917247
-0.073959932 0.35855061 3.2536805
-0.022817403 0.37294301 3.2623558
0.019685524 0.37644991 3.2732179
0.064980343 0.37561408 3.2827759
0.336537 0.38008675 3.2934361
-0.022796635 0.42405775 3.2562313
0.019679602 0.42332658 3.267966
0.065152958 0.42784297 3.2870393
-0.019479305 0.46935496 3.2567518
0.019729292 0.47134379 3.2705483
0.072966985 0.47532251 3.2874784
0.35334623 0.48434967 3.2925296
-0.02538163 0.52883744 3.2558346
0.019751456 0.51928926 3.2709818
0.067301348 0.5219996 3.2876091
0.35430941 0.50954938 3.2991292
-0.058741175 0.59600312 3.2511168
-0.025836537 0.5782755 3.2597077
0.018366015 0.57367498 3.2734094
0.062899701 0.56831288 3.2892118
0.37019143 0.5891031 3.2888331
-0.058763411 0.61191761 3.2504134
-0.025496501 0.62803769 3.2612958
0.021430762 0.62968457 3.2761898
0.06753324 0.61901748 3.2880006
0.37071902 0.61386776 3.2906094
-0.027537728 0.67884797 3.2624359
0.019889196 0.681355 3.2745225
0.063173674 0.66629326 3.2916694
-0.059041973 0.72516823 3.2507038
-0.02759544 0.7275002 3.2614362
0.019942474 0.73082167 3.2763577
0.064350568 0.71989739 3.2927313
1.0643286 0.73418999 3.2508714
-0.059204161 0.77457786 3.252327
-0.027667873 0.77719092 3.2635932
0.019997919 0.78067464 3.2782044
0.070069171 0.76997143 3.2938361
1.0662012 0.77114594 3.2647798
-0.059345871 0.82396555 3.252285
-0.027722623 0.82645339 3.2623515
0.020049024 0.8307358 3.2793312
0.062884741 0.81801885 3.2947915
0.91955835 0.81752408 3.2754138
1.0364426 0.81949389 3.259516
1.0616093 0.81995153 3.2557862
-0.059555765 0.87458849 3.2554107
-0.027804038 0.87681532 3.2640338
0.018092347 0.87854087 3.2782845
0.058740396 0.86488199 3.2945952
1.0418868 0.87327719 3.267669
1.0646664 0.87167722 3.2562151
-0.066115275 0.9251892 3.2566936
-0.027927021 0.92839473 3.2683485
0.020169258 0.92668658 3.2823141
0.058910549 0.92222959 3.2942886
1.0742134 0.90566188 3.2520795
-0.070501737 0.96961278 3.2546122
-0.028005289 0.97905052 3.2677228
0.020227537 0.97504318 3.2829075
0.059074469 0.96690339 3.2955227
0.89195991 0.98665375 3.2691138
-0.071507476 1.0285523 3.2537403
-0.030086147 1.0276775 3.2659843
0.022327777 1.0214956 3.2875547
0.05278926 1.0221852 3.2964916
0.87392741 1.0341002 3.2556245
-0.074324392 1.0758802 3.254739
-0.028202755 1.0774537 3.2709541
0.020370413 1.0714637 3.2880225
0.052896965 1.0567904 3.2963185
1.0370165 1.099704 3.2623534
-0.07395979 1.1281345 3.2572072
-0.025989201 1.1237388 3.2727351
0.015793666 1.1222848 3.2905338
0.86274731 1.1394956 3.2553849
1.0453156 1.1337065 3.2823434
1.065827 1.1285921 3.2524216
1.1019896 1.1317781 3.2915242
-0.067188017 1.17033 3.2591255
-0.028433494 1.1733105 3.2776542
0.020532612 1.177982 3.2907603
0.86265945 1.1558936 3.250953
1.0465467 1.1854805 3.2734876
1.0662512 1.1713244 3.2629454
1.1035939 1.1757071 3.2857201
-0.072546311 1.2202023 3.2595189
-0.028497653 1.2250304 3.2729023
0.015119906 1.2280239 3.2890081
0.85330498 1.2239289 3.2664981
1.0459946 1.210068 3.2651603
1.0764924 1.2216635 3.2611058
-0.077429056 1.2729932 3.2567234
-0.02859807 1.2787275 3.2719622
0.020675143 1.2693732 3.294709
0.053745728 1.2803428 3.2993116
1.0406137 1.2829692 3.2890129
1.0584978 1.2741759 3.2658362
1.1032226 1.268348 3.259604
-0.073152237 1.3311464 3.2593822
-0.031081224 1.3285942 3.2728844
0.010828471 1.326843 3.2920194
1.0664071 1.327181 3.265281
1.1068505 1.3319138 3.2530951
-0.074838005 1.3766801 3.2600701
-0.026797693 1.3746226 3.2765846
0.015292913 1.3731147 3.2934115
0.83192736 1.376043 3.2562485
1.0708743 1.3769985 3.2720411
1.1097455 1.3694217 3.2512898
-0.11121503 1.4179755 3.2515278
-0.078469552 1.4223348 3.2620769
-0.032320987 1.4231575 3.2818456
0.82342803 1.4275432 3.2677515
-0.11768585 1.4906468 3.2589672
-0.0810702 1.4798005 3.2691257
-0.029172834 1.4707887 3.2867544
0.004246329 1.4738213 3.2936113
0.81699604 1.473399 3.2636635
-0.12913103 1.5241895 3.2592926
-0.077086143 1.5286863 3.2748234
-0.029306058 1.5283453 3.2865307
0.79358327 1.5445192 3.2961717
0.8129822 1.5221642 3.277967
-0.18033223 1.5860131 3.2608209
-0.12653026 1.5667813 3.267405
-0.079930022 1.5748411 3.2811649
-0.040677484 1.5737604 3.2862461
0.79380059 1.570703 3.2881927
0.815934 1.5664519 3.2821662
-0.22814612 1.6239526 3.2596011
-0.1795437 1.6252631 3.2753878
-0.13326351 1.6234585 3.2833924
-0.08479131 1.6167498 3.2962232
-0.046547756 1.6103321 3.2938609
0.79759169 1.6127152 3.2916965
0.81528217 1.6222662 3.287262
-0.26602057 1.6728247 3.2513952
-0.23246592 1.6745636 3.2565539
-0.1847153 1.6749823 3.2709002
-0.12945624 1.6738005 3.2874658
-0.082970701 1.6709609 3.2893941
-0.023890525 1.6712874 3.269351
0.017071376 1.6678261 3.2790494
0.055399537 1.6691213 3.291198
0.80272758 1.6751745 3.2937822
-0.25049049 1.7244606 3.2540121
-0.22018734 1.7284257 3.2591968
-0.17847697 1.723703 3.2754252
-0.13488941 1.7225267 3.2858777
