ply
format ascii 1.0
comment PCL generated
element vertex 1495
property float x
property float y
property float z
element camera 0
property float view_px
property float view_py
property float view_pz
property float x_axisx
property float x_axisy
property float x_axisz
property float y_axisx
property float y_axisy
property float y_axisz
property float z_axisx
property float z_axisy
property float z_axisz
property float focal
property float scalex
property float scaley
property float centerx
property float centery
property int viewportx
property int viewporty
property float k1
property float k2
end_header
-1.5093179 1.124454 2.5669508
-1.469072 1.1140337 2.5784748
-1.8157997 1.1531478 2.5934978
1.3894877 1.1899699 2.5665159
1.3848649 1.2262126 2.5740511
1.3818045 1.2705163 2.5754883
1.3889757 1.3257145 2.577668
1.3874332 1.3770329 2.5834846
1.4015636 1.3620832 2.5627277
1.394207 1.4205841 2.5800228
1.4038374 1.4228611 2.5609362
1.3924508 1.4671439 2.5853429
1.4037609 1.4744135 2.5570495
1.3938283 1.5252701 2.592418
1.4044011 1.5202265 2.5674906
1.3979291 1.5747358 2.5778573
1.4086008 1.5699404 2.5632346
1.4270289 1.6751401 2.5740156
1.4360141 1.7212712 2.5749676
1.4393592 1.7682657 2.574666
1.4436487 1.8219994 2.5767496
1.4439082 1.8842809 2.5748353
1.4554735 1.8660972 2.5561147
1.4464422 1.9295501 2.5771198
1.4546164 1.9404509 2.5545475
1.4620535 1.9849459 2.5696321
1.4605019 2.0288472 2.5867019
-1.8494241 2.0930905 2.5982206
1.4668844 2.0756092 2.577033
1.4727242 2.130657 2.575201
1.4660336 2.1633739 2.5731783
-1.9102966 2.2120245 2.5977688
1.467708 2.2255366 2.5731163
-1.9576139 2.299479 2.5867348
-1.942528 2.2833247 2.5908589
1.4566694 2.2747893 2.5654705
-1.9748999 2.3360634 2.5716052
-1.949828 2.3289723 2.5977728
1.4519863 2.3244648 2.5945833
-1.9738162 2.3763728 2.5737369
-1.9210846 2.3862927 2.591516
-1.9630342 2.4074454 2.566556
-1.9188892 2.4103065 2.5674586
-1.8702011 2.4114339 2.5752842
-1.8262728 2.4248438 2.5744681
-1.7858306 2.4267747 2.5812151
-1.7331187 2.4235277 2.5870335
-1.2298714 -0.55539107 2.6133878
-1.1741852 -0.55470753 2.6279085
-0.96187317 -0.55514508 2.6182952
-0.71166581 -0.55883819 2.6236513
-0.66899252 -0.55946112 2.6342199
-0.60528511 -0.55666345 2.630944
-0.57258487 -0.55844432 2.64451
-0.52702743 -0.55606246 2.6392496
-1.4224868 -0.50893843 2.6274307
-1.3948376 -0.51193613 2.6274402
-1.3019423 -0.52187699 2.6366701
-1.2806377 -0.53927463 2.6230047
-1.231905 -0.5457477 2.636559
-1.1748292 -0.54460073 2.6486588
-0.95234859 -0.54404098 2.6337953
-0.91950965 -0.54035115 2.6224005
-0.87403244 -0.53716224 2.6283696
-0.82670212 -0.54227346 2.6186194
-0.77650928 -0.5449065 2.621928
-0.72092497 -0.54794168 2.6343763
-0.35393709 -0.54844004 2.6215236
-0.31571919 -0.54083353 2.626138
-0.28217298 -0.53262353 2.6138587
-0.20652372 -0.50843757 2.6279287
-1.4898903 -0.46940708 2.6366754
-1.4374779 -0.49150434 2.6157961
-0.1857536 -0.4702034 2.6090605
1.3427916 -0.48294985 2.6425481
1.3570144 -0.46465182 2.6276445
-0.18171829 -0.42441037 2.6164377
1.3445857 -0.43297672 2.6360395
1.3579186 -0.41996217 2.6208889
-0.17392552 -0.35423541 2.6333714
1.3646897 -0.37578514 2.6229849
-0.17176357 -0.31234813 2.6037338
1.3739208 -0.34232759 2.6230717
-0.1873067 -0.29211006 2.6481204
-0.19144018 -0.23213354 2.6206698
1.3741311 -0.16420746 2.6356692
1.4188755 -0.17920832 2.6413655
1.3786998 -0.12428021 2.6224661
1.3763419 -0.073199473 2.6235645
1.3803688 -0.026975837 2.6198225
1.3812451 0.01392383 2.6215439
1.4036386 0.013890122 2.6018748
-1.6476283 0.085082553 2.6173735
-1.8280965 0.13807212 2.613426
-1.7781729 0.12921098 2.6361861
-1.7197812 0.10055782 2.6276402
-1.8620546 0.16750093 2.6029921
-1.8207163 0.17010236 2.6157088
-1.7764711 0.17528254 2.63151
-1.7246721 0.18690094 2.6313305
-1.6810664 0.1860245 2.6369278
-1.6351025 0.18483803 2.6373141
-1.612209 0.33348793 2.6334543
-1.7237915 0.38194954 2.6282899
-1.6977773 0.36091518 2.6493406
-1.5737915 0.37894469 2.6095886
-1.8094037 0.42841592 2.6047754
-1.7792993 0.4231227 2.6230721
-1.7350477 0.42356411 2.6407349
-1.8172932 0.47400439 2.6100504
-1.7697735 0.47293472 2.627861
-1.7295083 0.4752408 2.6423798
-1.5302068 0.47880337 2.628767
-1.8194195 0.5242995 2.6092579
-1.7743988 0.52519715 2.6271317
-1.7351161 0.52431923 2.6417754
-1.8207054 0.56898004 2.6084878
-1.7773048 0.57559866 2.6259565
-1.7373027 0.57758659 2.641551
-1.8188521 0.62716907 2.6104791
-1.7758344 0.62740076 2.6267018
-1.7361815 0.62628639 2.6413045
-1.877831 0.68953866 2.6006088
-1.8211356 0.67754531 2.6098747
-1.7733777 0.67613053 2.6286147
-1.7352601 0.67555976 2.6457324
-1.8618132 0.71129316 2.602679
-1.8243787 0.72186655 2.6090755
-1.7788882 0.72244668 2.6274211
-1.7351993 0.72297734 2.6424141
-1.8514887 0.78723985 2.6002059
-1.8203201 0.77207571 2.609483
-1.7746171 0.76752245 2.6303167
-1.7319239 0.76335371 2.6449814
-1.8592808 0.82783288 2.6017177
-1.8234241 0.82062739 2.6111724
-1.7787067 0.82499194 2.6343741
-1.7474904 0.82672971 2.6472847
-1.863277 0.87246108 2.6037216
-1.8269645 0.86949182 2.6214225
-1.7772217 0.88362831 2.6396148
-1.8600386 0.91194868 2.6035132
-1.8272706 0.92368549 2.6210351
-1.7781461 0.9290089 2.6377606
-1.7448206 0.92720395 2.6487076
-1.6603884 0.94304907 2.6318767
-1.6348724 0.93685693 2.621876
-1.8537036 0.98984659 2.6106009
-1.820864 0.97773468 2.6207922
-1.7709018 0.97905451 2.6399443
-1.7430956 0.97525847 2.6484323
-1.6663642 0.96744221 2.6021996
-1.6044759 0.95080084 2.6300728
-1.5707073 0.96263283 2.6321371
-1.8520526 1.0116025 2.6011198
-1.8262414 1.0291524 2.6199121
-1.7767031 1.0266999 2.639014
-1.7274904 1.024788 2.642545
-1.4211507 1.0236602 2.6223104
-1.8180376 1.0794085 2.6190739
-1.7724731 1.0721035 2.6340201
-1.7295713 1.0779361 2.6366956
-1.4254665 1.0698858 2.6167724
-1.8149315 1.1269696 2.618515
-1.772179 1.1239611 2.6327977
-1.7218529 1.1250904 2.6369762
-1.69015 1.1249155 2.6270101
-1.8125849 1.1823792 2.6200912
-1.7769309 1.1760224 2.6338105
-1.7354952 1.1683487 2.6434095
-1.6252187 1.1556845 2.6021924
-1.5371306 1.1654119 2.6250257
1.3879963 1.1829751 2.602947
-1.8040056 1.2187434 2.6177554
-1.7751831 1.2276572 2.634716
-1.7322572 1.2202528 2.6466546
1.3794125 1.2238835 2.6166263
-1.7686648 1.2806013 2.6335528
-1.7432919 1.2783999 2.6475651
1.3723137 1.2745371 2.6104655
-1.7709546 1.3248401 2.6300166
-1.741112 1.3210733 2.6444824
1.3744724 1.3243637 2.619441
-1.7626365 1.372354 2.6400018
-1.7490337 1.3503566 2.6467547
1.37245 1.3781971 2.6248271
-1.7660495 1.419176 2.6386802
1.3820155 1.426532 2.6265035
-1.7646027 1.4807745 2.6424885
1.383009 1.4782679 2.6248322
-1.7625684 1.5150164 2.6351342
1.383895 1.5283926 2.6266913
-1.7644247 1.5781521 2.6468861
1.3888022 1.5796435 2.6225131
-1.7528986 1.6140542 2.6462045
-1.7624233 1.6549673 2.6435807
1.41219 1.6784335 2.6251249
1.4205585 1.7243855 2.6258132
1.4247139 1.7763003 2.6258762
1.4235103 1.8255888 2.6226115
1.433212 1.8802016 2.625031
1.432889 1.9247494 2.6312571
-1.8172497 1.9913174 2.6448159
1.4409795 1.9677606 2.6256704
1.4505661 1.9939933 2.6089103
-1.8288167 2.0294881 2.6446195
1.4460955 2.0263412 2.6269207
-1.829963 2.0743954 2.6404955
1.440703 2.0661769 2.6380429
1.4545245 2.0789506 2.6145382
-1.8630956 2.1330736 2.6325235
-1.8423895 2.1414368 2.6458964
1.4419309 2.1329675 2.6498749
1.4555176 2.1224122 2.6192706
-1.9049234 2.1884205 2.6032789
-1.8765227 2.1847825 2.632026
1.4481331 2.1753881 2.6376011
1.4559048 2.1705556 2.6077836
-1.9114923 2.2410386 2.6037967
-1.8757621 2.2313914 2.6313012
1.4446195 2.2371845 2.6391037
1.4591316 2.2225437 2.6163943
-1.9203458 2.2853527 2.6157551
-1.8770845 2.281137 2.63306
-1.8473661 2.2941384 2.6474586
1.4468436 2.2742281 2.6178956
1.4562322 2.2544081 2.6029301
-1.9190801 2.3240075 2.609185
-1.8811486 2.3381238 2.6304896
-1.8448879 2.3286819 2.6417208
1.4353912 2.3245537 2.6293347
-1.9410527 2.3666253 2.6005259
-1.8797617 2.3773427 2.6180048
-1.8311614 2.378926 2.6320016
-1.7794607 2.3977921 2.6436014
-1.8157902 2.4078164 2.6167433
-1.7656294 2.4132268 2.6238008
-1.7208109 2.4238443 2.6248779
-1.6726485 2.416034 2.6304202
-1.6365926 2.4234169 2.6410961
-1.1535052 -0.55781573 2.6511817
-1.1242958 -0.55678701 2.6696782
-1.0654149 -0.5544973 2.6592767
-1.0247627 -0.55447692 2.6702976
-0.99064332 -0.55056202 2.6585293
-0.67325473 -0.55167675 2.6616817
-0.62526655 -0.55621874 2.6698573
-0.56826723 -0.55511183 2.6784835
-0.5217281 -0.55120605 2.6820421
-0.48536724 -0.55420429 2.6848407
-1.4218361 -0.50522816 2.6643105
-1.3144623 -0.51302439 2.6639793
-1.2752651 -0.53218687 2.6711268
-1.2287434 -0.53277051 2.6841393
-1.1817935 -0.54150271 2.6763856
-1.127815 -0.54825842 2.6832037
-1.0502098 -0.54715717 2.6992297
-1.0187047 -0.54493511 2.6955032
-0.96948987 -0.52922267 2.6793818
-0.92588067 -0.52249455 2.6719429
-0.87732774 -0.5232743 2.6765831
-0.82737821 -0.52762383 2.6790757
-0.77864325 -0.53377551 2.6699975
-0.72882241 -0.53796053 2.6741984
-0.68697995 -0.54419547 2.6903372
-0.58584219 -0.54977781 2.6660521
-0.36244732 -0.54856575 2.6863425
-0.26903921 -0.53147876 2.6748915
-0.22368343 -0.51211703 2.680402
-1.4685277 -0.47384468 2.6761074
-1.43616 -0.48507079 2.6836283
1.3402081 -0.46929327 2.6779058
1.3507129 -0.47191226 2.6599457
-0.20461054 -0.41577113 2.6983743
-0.18893428 -0.42276463 2.6599216
1.33939 -0.4317067 2.6799724
1.3535223 -0.40656927 2.6623876
-0.18963109 -0.36643541 2.6753063
1.3439288 -0.38367194 2.6896193
1.3559878 -0.37461609 2.6684864
-0.18952291 -0.33414099 2.6764996
1.3620956 -0.3462874 2.6637468
-0.18741733 -0.27957356 2.6505728
1.3596029 -0.16825478 2.6803486
1.3483527 -0.13143639 2.6827211
1.3610553 -0.12204304 2.6665204
1.3587451 -0.075929657 2.6788378
1.3607699 -0.027431684 2.6770506
1.3499382 0.028028142 2.6879618
1.3609893 0.012361444 2.6734746
-1.655237 0.086576924 2.6738863
-1.6138809 0.080696255 2.6873813
-1.5745082 0.071746439 2.6912851
-1.7506912 0.13819186 2.6587956
-1.7198913 0.12666941 2.6654298
-1.6724671 0.12141896 2.6808915
-1.6266948 0.11749095 2.6813602
-1.7260311 0.16689324 2.6638045
-1.6771178 0.16631326 2.6761501
-1.6457362 0.16533303 2.6705425
-1.66153 0.34493932 2.652941
-1.6465982 0.34481037 2.6588013
-1.7103972 0.38671902 2.6564717
-1.6713185 0.37586501 2.665494
-1.6309563 0.37763196 2.6675234
-1.7073791 0.42822126 2.6567752
-1.6755586 0.42749977 2.6663792
-1.6291721 0.42884535 2.6754606
-1.5894949 0.4290131 2.6607831
1.3380482 0.42719433 2.6865807
-1.7106423 0.47989056 2.6551292
-1.6758182 0.481056 2.6708846
-1.6273463 0.4788512 2.6876459
-1.588378 0.4758532 2.6839597
1.340353 0.47622654 2.6876886
-1.7121534 0.52395183 2.6510575
-1.675611 0.52387387 2.6685307
-1.6244651 0.52375603 2.6920292
-1.5696152 0.52001297 2.6923108
-1.5482897 0.51769459 2.6866975
1.3379967 0.50597936 2.6958539
-1.7091634 0.57561511 2.6553879
-1.6735276 0.57655638 2.6722038
-1.6260185 0.57367492 2.6897662
-1.5976698 0.59728754 2.6975958
-1.4988444 0.57010692 2.6691632
-1.7135187 0.62946099 2.6537633
-1.6779336 0.62926251 2.6703341
-1.6295152 0.62665063 2.6866527
-1.5985525 0.61947173 2.6953154
-1.71131 0.6748004 2.653935
-1.6763877 0.6759907 2.67031
-1.621492 0.67128241 2.6872225
-1.7079788 0.71812868 2.6584175
-1.6696315 0.72564536 2.6719351
-1.6258453 0.72275668 2.6909745
-1.4267323 0.72255087 2.6854749
-1.7159622 0.77915901 2.6571181
-1.6726547 0.7759431 2.6792457
-1.6305636 0.76972866 2.6946151
-1.7200363 0.82802749 2.6630275
-1.6757182 0.82677078 2.6859357
-1.6430959 0.8313486 2.6970108
-1.7576255 0.87381703 2.6518555
-1.724045 0.8823806 2.6653802
-1.6795441 0.88325244 2.6897154
-1.7172285 0.92842102 2.6677737
-1.673159 0.92884475 2.6915288
-1.7233057 0.9703486 2.6606505
-1.6957432 0.96958518 2.6524718
-1.6442719 0.95074224 2.6680157
-1.5514975 0.98350358 2.6584156
-1.5188863 0.99602163 2.6616037
-1.4721825 1.016067 2.6691914
-1.4367888 1.0661473 2.6901765
-1.470124 1.1263291 2.6850519
-1.7150321 1.1795294 2.6521611
-1.6925009 1.1804758 2.658267
-1.6028796 1.1868253 2.6554003
-1.5931438 1.1907625 2.6714633
-1.5265251 1.1742569 2.6552565
-1.4999009 1.1617705 2.6792238
-1.7123086 1.227613 2.6560631
-1.6794529 1.2234868 2.6638007
-1.6283499 1.2362038 2.6864026
-1.5958058 1.2346131 2.6976721
-1.7165617 1.2751664 2.6590576
-1.6718199 1.2754985 2.6702614
-1.6252095 1.2702556 2.686018
-1.5982816 1.2517942 2.6962066
1.3736589 1.2757633 2.6682594
-1.7142932 1.3264686 2.6590378
-1.6725366 1.3274683 2.6739879
-1.6312295 1.3200668 2.6908932
1.3670743 1.3214362 2.6712289
-1.7241708 1.3711715 2.6615524
-1.6738914 1.3755813 2.6818974
-1.6376891 1.3635068 2.6924558
1.3662235 1.3680032 2.673157
-1.7526444 1.4358702 2.653538
-1.7267773 1.4260969 2.6662698
-1.6789293 1.4231216 2.6841578
-1.6438609 1.4145797 2.6961243
1.3660254 1.423039 2.6777103
-1.7578988 1.4637781 2.6506555
-1.7299474 1.4760824 2.6633663
-1.6750132 1.4803736 2.6899927
1.3717514 1.4714582 2.6748576
-1.7543952 1.5295291 2.651628
-1.7229966 1.5218549 2.6732578
-1.6723843 1.5269021 2.6897342
1.3757235 1.5249782 2.6776886
-1.751483 1.5887964 2.6563864
-1.7280393 1.5792633 2.6753676
-1.6795235 1.5751678 2.6927726
1.3787366 1.5720252 2.6704903
-1.7559932 1.6403947 2.6591208
-1.7243627 1.6249332 2.6789935
-1.687953 1.6286852 2.6923952
1.3732202 1.6008015 2.6800425
-1.7547653 1.6710026 2.6610909
-1.7242492 1.6726751 2.6817093
-1.6819071 1.6787696 2.6960301
1.389451 1.6742635 2.6844101
1.4013821 1.6854731 2.662714
-1.7652048 1.7214314 2.6689367
-1.7261885 1.7258171 2.6855183
-1.6883512 1.7421647 2.6973922
1.3985904 1.7087877 2.6898618
1.4075849 1.7337885 2.6761577
-1.7658936 1.7682859 2.6654463
-1.7286549 1.7763264 2.6857674
-1.6993966 1.7863489 2.6966856
1.3936907 1.7695023 2.6921601
1.4075392 1.7750518 2.6773057
-1.7628872 1.8173556 2.6597691
-1.7249671 1.8206645 2.6878183
1.4127672 1.8263115 2.6740422
-1.7731823 1.8679638 2.664722
-1.7279243 1.8729643 2.68923
1.4165032 1.8735456 2.6736238
-1.7724611 1.9284463 2.6748092
-1.7346643 1.928076 2.6903381
1.4107538 1.9220921 2.6743283
-1.8011678 1.975276 2.6670876
-1.7673192 1.9836261 2.6811321
-1.7339414 1.9747677 2.6907489
1.426722 1.9753809 2.6763661
-1.8112684 2.0203431 2.6596439
-1.7801396 2.0255988 2.6755569
-1.7439303 2.0293822 2.6943126
1.4324487 2.0251858 2.6688957
-1.8058186 2.0760403 2.6580269
-1.7720975 2.0764997 2.6787121
-1.7360454 2.0742061 2.6953597
1.4311806 2.0797338 2.6830347
-1.8237717 2.1312425 2.6604836
-1.7754493 2.1249366 2.6780796
-1.7323538 2.1148894 2.6923664
1.4364424 2.1190739 2.6806581
-1.8564475 2.17519 2.6536336
-1.8278819 2.180938 2.6595707
-1.7780515 2.1730223 2.6756217
-1.7271562 2.173192 2.6946611
1.4361988 2.1792579 2.679184
-1.8258727 2.2263021 2.6576066
-1.7731079 2.2231839 2.6794338
-1.7299297 2.2323146 2.6985927
1.4342545 2.2261775 2.6744125
-1.8250128 2.2794363 2.6578801
-1.7804565 2.2701702 2.6733222
-1.7381142 2.2692094 2.6920757
-1.6936399 2.2945242 2.6959236
1.4296627 2.2734416 2.6748149
-1.8258377 2.327688 2.6587191
-1.7777175 2.321722 2.670634
-1.7215755 2.3261859 2.6891913
1.3983521 2.3474033 2.6526649
1.4185747 2.3220778 2.6743865
-1.8057114 2.3617804 2.6551976
-1.7726316 2.3744545 2.6611118
-1.7301083 2.3761137 2.673008
-1.67579 2.3819129 2.6850274
1.3829508 2.3646111 2.6838448
-1.7248775 2.4136443 2.6581311
-1.668352 2.410363 2.671212
-1.6210978 2.4167037 2.6793878
-1.5743427 2.4221141 2.6722012
-1.530851 2.4226265 2.6950977
-1.128127 -0.55178022 2.7025533
-1.0832313 -0.5500192 2.7057652
-0.45984784 -0.55575711 2.7122161
-0.42743015 -0.55661416 2.7199607
-0.38533929 -0.55328023 2.7076106
-1.3226869 -0.5143401 2.722182
-1.2764137 -0.51451021 2.7212121
-1.2236922 -0.52207917 2.7319942
-1.1751837 -0.52979225 2.7251303
-1.1237265 -0.5346508 2.7213843
-1.0758673 -0.53843874 2.7221777
-1.0198752 -0.5309146 2.7212408
-0.9722237 -0.50812793 2.7161326
-0.91742527 -0.50611305 2.7177534
-0.87062865 -0.50574213 2.7194483
-0.82212359 -0.50967789 2.7192931
-0.77460396 -0.51444119 2.7285097
-0.72595096 -0.52551544 2.7300422
-0.66883844 -0.53495067 2.7247751
-0.62215328 -0.54124224 2.7262063
-0.57481951 -0.54184622 2.7261353
-0.52686268 -0.541179 2.7224033
-0.47018313 -0.54687631 2.7349832
-0.42362857 -0.54702777 2.7408047
-0.37598914 -0.54103577 2.7288375
-0.32152876 -0.53699833 2.7337158
-0.27866304 -0.53103894 2.7059569
-0.23754114 -0.50793362 2.7167978
-1.4078619 -0.47726539 2.7233605
-1.3705524 -0.48941216 2.7372115
-0.96793127 -0.47184983 2.7296782
-0.92792189 -0.47359779 2.7383742
-0.88131046 -0.48657051 2.7403958
-0.82483357 -0.48867849 2.7372205
-0.78479314 -0.48911643 2.7477643
-0.21662244 -0.477974 2.7283168
1.3245413 -0.46591589 2.725359
-1.4816427 -0.42743874 2.7386892
-0.96782231 -0.42391568 2.7347875
-0.93425578 -0.42421052 2.7448313
-0.20681591 -0.42903376 2.7265327
1.3296304 -0.42175075 2.7282822
-1.5108519 -0.37901315 2.7460361
-0.96790451 -0.3760685 2.7397816
-0.94119591 -0.37634724 2.7482464
-0.20708457 -0.37472719 2.7353423
1.3380936 -0.38103226 2.7286794
-1.5108638 -0.32916385 2.7442482
-1.4991736 -0.33202228 2.7484553
-0.96737224 -0.321179 2.743022
-0.9404096 -0.34183118 2.7490158
-0.20678155 -0.31512579 2.736186
-1.5130701 -0.28134114 2.7457278
-0.9660266 -0.27294579 2.7427173
-0.9387579 -0.27296269 2.7493408
-0.30006412 -0.25059855 2.7474308
-0.20642018 -0.27528617 2.7341492
-1.5152221 -0.21454944 2.7220299
-0.96758521 -0.22344515 2.7436533
-0.93760502 -0.22489163 2.748889
-0.21175702 -0.24756798 2.719316
-1.5181217 -0.16906573 2.7295988
-0.96788299 -0.17583784 2.7449067
1.3404952 -0.16662169 2.7277
-1.5067209 -0.1291423 2.7423432
-1.4936161 -0.14364766 2.7499535
-0.965087 -0.12742347 2.7433584
-0.9499945 -0.14968251 2.7455225
1.3411903 -0.12860961 2.7291286
1.3502988 -0.12599094 2.7197702
-1.4980594 -0.099789381 2.7274497
-0.9714514 -0.077771619 2.7454205
-0.94995564 -0.054337498 2.747756
1.3359826 -0.07754235 2.7306051
-1.4764675 -0.028194835 2.7208655
-0.9687981 -0.027053868 2.7386293
-0.94212431 -0.027070513 2.7466152
1.3398749 -0.02549707 2.7284517
1.3528322 -0.041899957 2.7266679
-0.97211343 0.022440232 2.7422316
-0.9492166 0.013757486 2.7458963
1.3448755 0.014310961 2.7274485
-0.96888947 0.072847731 2.7451968
-0.97185516 0.11609891 2.7455943
1.3226694 0.3974143 2.7458355
1.3236017 0.42287445 2.7203465
1.3194675 0.46622169 2.7081182
-1.5950921 0.53091329 2.7036328
1.3267823 0.52516615 2.7040851
-1.6004471 0.56186068 2.7082329
-1.5701499 0.57712156 2.7084799
-1.5351826 0.5744468 2.7079976
1.3265936 0.57075274 2.7168183
-1.5698926 0.62693858 2.7077444
-1.5301322 0.62557131 2.7175105
-1.4949653 0.62720478 2.7012691
-1.5753052 0.67297506 2.7090731
-1.5293671 0.6720404 2.7242815
-1.4841679 0.6761778 2.7186289
-1.572438 0.72477716 2.7114255
-1.5223033 0.72094512 2.728456
-1.4798354 0.73069447 2.7346518
-1.6087253 0.78272116 2.7052531
-1.5776436 0.77642399 2.71629
-1.5311073 0.77657801 2.7372859
-1.4754492 0.76931316 2.7447937
-1.4343343 0.77412629 2.7422588
-1.6191803 0.82958388 2.7090228
-1.5738591 0.83001006 2.7232594
-1.5283005 0.8275255 2.7409377
-1.6572094 0.87078142 2.7010734
-1.6204629 0.87967336 2.7116735
-1.574024 0.87867957 2.72894
-1.5352663 0.87778521 2.7423859
-1.6272469 0.92826396 2.7113624
-1.5771757 0.92843521 2.7290363
-1.5402639 0.92330515 2.7441056
-1.6181505 0.96993327 2.7134228
-1.5717773 0.97585773 2.7340686
-1.5317606 0.97424275 2.7459898
-1.5657052 1.006778 2.731482
-1.5294297 1.0176201 2.7400215
-1.4852666 1.0405397 2.7430389
-1.4461043 1.0508561 2.7143366
-1.4603127 1.1172317 2.7237482
-1.5100828 1.1873188 2.7480817
-1.498005 1.1686099 2.7482662
-1.6250827 1.2242179 2.7029774
-1.5702337 1.2263099 2.7138982
-1.5239583 1.2208571 2.735713
-1.5710768 1.2697442 2.7104635
-1.5227188 1.275301 2.7369318
-1.4942973 1.2541041 2.7495801
-1.6117042 1.3379672 2.708627
-1.5728159 1.325707 2.71822
-1.5229919 1.3227651 2.7379146
-1.6209139 1.3797067 2.7036297
-1.5798697 1.3789548 2.7195435
-1.5296415 1.3715219 2.7409801
1.3594564 1.3788059 2.7013195
-1.6197246 1.4266185 2.7075541
-1.5710909 1.4234686 2.7325025
-1.5416093 1.4213072 2.7464426
1.3571118 1.4186426 2.7327576
-1.6242377 1.4794939 2.7136011
-1.5773596 1.474357 2.7304423
-1.5404159 1.4744834 2.7417104
1.3573779 1.4671795 2.7195506
-1.6250787 1.5270017 2.71403
-1.5740334 1.5234879 2.7307289
-1.5404437 1.5214872 2.7418628
1.3676186 1.5261879 2.7234268
-1.6556822 1.5886886 2.7075686
-1.626685 1.5758302 2.7150505
-1.5750114 1.5718396 2.7314317
-1.5480921 1.5527853 2.7445962
1.3683422 1.5791056 2.7235229
-1.665318 1.6300607 2.7072935
-1.6292591 1.6260754 2.7169816
-1.5789927 1.6237639 2.7366707
-1.6590796 1.6720423 2.7043481
-1.6254596 1.6787126 2.7196455
-1.5777774 1.6738089 2.7380884
1.381988 1.6837877 2.7385426
-1.7015088 1.7064799 2.7014859
-1.6736128 1.7356075 2.7128994
-1.6274599 1.7298188 2.7247324
-1.5785369 1.7225962 2.7383924
1.3882419 1.7251657 2.7256753
-1.6789061 1.7756227 2.7113221
-1.6285381 1.7722946 2.7265251
-1.5806316 1.7758631 2.7435989
1.3882253 1.770871 2.7256672
-1.6757455 1.8233324 2.7057495
-1.6288433 1.8219159 2.7323074
-1.5885239 1.8234501 2.7436333
1.3963683 1.8304999 2.7268698
1.4087114 1.8205265 2.7034125
-1.7033014 1.8659499 2.7043509
-1.670269 1.8787682 2.7205095
-1.6253586 1.8790388 2.7357798
-1.5928851 1.8793178 2.7458375
1.3879747 1.8594637 2.7255125
1.4051151 1.8769867 2.7112956
-1.7129711 1.9360237 2.7070069
-1.6800079 1.929163 2.716151
-1.628234 1.9249068 2.7312231
-1.593978 1.9237524 2.7464495
1.3951864 1.9483681 2.7452526
1.4048671 1.9173472 2.7253041
-1.7132423 1.979552 2.7041445
-1.6762733 1.9756099 2.7169979
-1.6251698 1.9747581 2.7422059
1.4137625 1.98022 2.7250051
-1.7156186 2.0259757 2.7040157
-1.6742671 2.0247934 2.7202938
-1.6264515 2.0204029 2.7416832
1.4166592 2.0273635 2.7249405
-1.7133766 2.0771282 2.7062657
-1.6733443 2.0733232 2.7213783
-1.6324064 2.0745978 2.7384281
1.4186409 2.0727592 2.7341197
-1.7116864 2.1204467 2.706614
-1.6796156 2.1206155 2.7203515
-1.6330185 2.1270607 2.7396655
1.4180962 2.1260779 2.7252159
-1.7126383 2.173362 2.7066116
-1.6743728 2.1753983 2.7172379
-1.6229936 2.1805229 2.7394278
1.4192079 2.1783535 2.7214754
-1.7352545 2.2105775 2.7010798
-1.6697853 2.2241895 2.7183781
-1.6287477 2.2293386 2.7384377
1.3993014 2.2297349 2.7428339
1.4112802 2.2252941 2.7231305
-1.7102511 2.2670722 2.7043099
-1.674024 2.2741611 2.7150102
-1.6212084 2.2735813 2.7421751
1.3914562 2.278806 2.7440934
1.4075118 2.2736437 2.7166719
-1.6705784 2.337507 2.7146027
-1.6274875 2.3216879 2.733319
-1.5883652 2.3318729 2.742471
1.3950925 2.3306339 2.7331309
1.4126766 2.3284464 2.7126591
-1.654651 2.3664052 2.7067738
-1.6239382 2.378521 2.71718
-1.5760165 2.3748794 2.7338181
-1.5339388 2.3809941 2.7427649
1.3339087 2.3840897 2.7325299
1.3729328 2.3661683 2.7203593
-1.6122565 2.4042835 2.7056623
-1.5780087 2.4132154 2.7100117
-1.5233285 2.4125619 2.723433
-1.475713 2.4200556 2.7338307
-1.4352708 2.4241056 2.7430928
-1.3730557 2.4073331 2.7476106
-1.3217026 -0.50119388 2.7676492
-1.2776939 -0.50461531 2.773242
-1.2348183 -0.50860548 2.7740774
-1.1820856 -0.51475036 2.7701809
-1.1251796 -0.51392514 2.7668378
-1.0768256 -0.51799566 2.778573
-1.0317471 -0.51325023 2.7685337
-0.75734669 -0.50253618 2.7503469
-0.72004747 -0.50790936 2.7613633
-0.67184305 -0.51147932 2.7765868
-0.6272772 -0.52176088 2.7731566
-0.57884747 -0.52552533 2.7784069
-0.52547657 -0.53100985 2.7777424
-0.47958454 -0.53505695 2.7747982
-0.42877713 -0.54015368 2.7757845
-0.378124 -0.53861648 2.7726147
-0.32686654 -0.52528888 2.789942
-0.27632907 -0.52577108 2.7733996
-1.4103013 -0.46858609 2.7631845
-1.3737831 -0.47482169 2.7688196
-1.3291492 -0.47970918 2.7814369
-1.2830677 -0.48853835 2.7933617
-1.0183947 -0.47765335 2.7760298
-0.90571624 -0.45672214 2.7515633
-0.87253451 -0.4644213 2.7597935
-0.82995468 -0.46825084 2.7817612
-0.77852684 -0.48453686 2.777359
-0.72693932 -0.48955899 2.7776215
-0.6961084 -0.49370998 2.7908547
-0.25130007 -0.48250556 2.7757709
-0.23658063 -0.46654877 2.7627079
1.313466 -0.46875167 2.7681868
-1.5057719 -0.42055666 2.7518656
-1.4732819 -0.41958636 2.7568805
-1.4243624 -0.42548504 2.7756472
-1.3769604 -0.43138841 2.7909973
-1.3418289 -0.448217 2.799217
-1.0183661 -0.42681068 2.7922928
-0.90817815 -0.42483172 2.7550671
-0.86997992 -0.42627874 2.7734864
-0.82612091 -0.42282903 2.79391
-0.79749238 -0.42798951 2.7999494
-0.2308227 -0.42815375 2.777765
1.3122054 -0.42500725 2.7766147
-1.501581 -0.36149928 2.750212
-1.4719409 -0.37581122 2.7589247
-1.422985 -0.37627697 2.7814484
-1.3836604 -0.38005242 2.7966461
-1.0127764 -0.37574258 2.781786
-0.91424495 -0.37653252 2.7558577
-0.87365216 -0.37925959 2.7735431
-0.83727431 -0.37201932 2.7915754
-0.222839 -0.37921214 2.7669792
1.3208364 -0.38323978 2.7732792
-1.4753007 -0.32294795 2.7606709
-1.4267387 -0.32696521 2.7815797
-1.3883145 -0.32150388 2.7940199
-1.0063448 -0.3249422 2.7682805
-0.9191767 -0.32018003 2.7577803
-0.87494594 -0.32241365 2.7752955
-0.8373726 -0.32271478 2.7915239
-0.22026829 -0.33004719 2.7721438
-1.5093383 -0.267508 2.7560296
-1.4761487 -0.27435458 2.7635114
-1.4284589 -0.27455348 2.7838182
-1.3917283 -0.27445766 2.7959039
-1.0018647 -0.2821686 2.7590718
-0.99969387 -0.26093888 2.7544794
-0.91355622 -0.27360079 2.7619987
-0.87510991 -0.2744261 2.7792854
-0.83930767 -0.27688628 2.7917922
-0.32981324 -0.25982338 2.7733564
-0.22559583 -0.26853988 2.7545421
-1.5127914 -0.22540417 2.7553768
-1.4760469 -0.22318393 2.7654114
-1.4288492 -0.22399247 2.7878113
-1.3991514 -0.22387719 2.7968876
-1.0008559 -0.24060306 2.7589493
-0.99753386 -0.21924008 2.7509606
-0.92052251 -0.22714214 2.7575912
-0.87921447 -0.22466306 2.7767186
-0.84131372 -0.22653164 2.7910581
-0.31125185 -0.22756386 2.7894609
-1.518546 -0.18088894 2.7618291
-1.4759356 -0.17291509 2.7645302
-1.4277761 -0.17322002 2.7883079
-1.3986456 -0.17320201 2.7984219
-0.99697441 -0.17343087 2.7515831
-0.9234947 -0.17460613 2.7574477
-0.8798275 -0.17106028 2.7765772
-0.84132332 -0.17159307 2.793694
-0.27677584 -0.17669843 2.7841594
1.3235781 -0.17261389 2.7747877
-1.4733251 -0.12085342 2.7648706
-1.4267632 -0.12252674 2.788208
-1.397199 -0.12969816 2.7971852
-0.99728328 -0.12323558 2.7542753
-0.92523229 -0.1275766 2.7559817
-0.87974483 -0.12311681 2.777998
-0.8410728 -0.12347152 2.7945545
1.2891597 -0.11277694 2.7635422
1.32095 -0.12612766 2.772651
-1.4743294 -0.071782365 2.7646866
-1.4255118 -0.071896598 2.7870057
-1.3970128 -0.06470713 2.7983904
-0.99554825 -0.054586671 2.7509623
-0.92380661 -0.074866585 2.7569788
-0.87880409 -0.075105466 2.7761536
-0.84088361 -0.075398505 2.795028
1.2997757 -0.098379225 2.7517805
1.3177472 -0.075140275 2.7556102
-1.4676168 -0.028547175 2.7689502
-1.425573 -0.028580086 2.7876537
-1.3970995 -0.043047555 2.7988522
-0.99608833 -0.027236251 2.7526982
-0.91682076 -0.027130656 2.7586081
-0.87849694 -0.027220076 2.7757394
-0.84077996 -0.027340656 2.7952673
1.2933925 -0.013933654 2.7741487
1.3213536 -0.026052019 2.763808
-1.4682565 0.021955634 2.7701423
-1.4259907 0.021948524 2.7884665
-0.99543929 0.020681199 2.7508724
-0.9237926 0.020595526 2.7575142
-0.87893456 0.020653816 2.7771254
-0.84070301 0.020707358 2.7949986
1.3279246 0.014479468 2.7733209
-1.4584156 0.068867803 2.775563
-1.4249091 0.072436251 2.7856951
-1.3964796 0.072440691 2.797065
-0.97802079 0.078345478 2.7547052
-0.92451221 0.07519953 2.7589791
-0.87958729 0.075428739 2.7785032
-0.84361815 0.071100257 2.7960131
-1.4521308 0.13002355 2.7702432
-1.4286486 0.12086228 2.7821965
-1.3978822 0.1230974 2.7985508
-1.0032775 0.11738965 2.770864
-0.96144962 0.12863322 2.7534747
-0.9222706 0.12048177 2.7643857
-0.87570149 0.11690733 2.7884147
-0.84895837 0.11011469 2.7967405
-1.427839 0.17489643 2.7813778
-1.3988215 0.17378664 2.7984793
-0.96604538 0.16521564 2.7696073
-0.94548124 0.16521673 2.7746592
-1.4596492 0.2249051 2.7801347
-1.4261335 0.22414593 2.7821245
-1.3912841 0.22726209 2.7951763
-1.4237428 0.27278948 2.7784793
-1.3927917 0.27495331 2.7941377
-1.412511 0.32545143 2.7818031
-1.3849617 0.32575652 2.7949696
-1.3870167 0.37630084 2.7888184
-1.3742479 0.42760858 2.793504
-1.3653747 0.47921178 2.7969096
-1.3614063 0.50857234 2.7967031
-1.5022316 0.79030752 2.7510309
-1.471037 0.7967661 2.7582505
-1.4260597 0.79633546 2.7741325
-1.3796908 0.79087716 2.7946072
-1.5073512 0.83006322 2.75211
-1.4758797 0.82900304 2.7607222
-1.4272814 0.82973737 2.7765691
-1.3812478 0.82766593 2.7919078
-1.5121135 0.87727356 2.7502899
-1.4764706 0.87829798 2.7633643
-1.4232215 0.87409228 2.7798471
-1.3829547 0.87541884 2.7941258
-1.5120311 0.92636943 2.7556143
-1.4737847 0.92577797 2.7692161
-1.4262891 0.92399311 2.7815552
-1.3841065 0.92493898 2.792805
-1.5082054 0.97353238 2.7535582
-1.4782834 0.97352624 2.7659299
-1.4262878 0.97374976 2.7823439
-1.3894025 0.96780264 2.794873
-1.512724 1.0139898 2.7513909
-1.4718066 1.0221167 2.763799
-1.4216012 1.0207235 2.7836711
-1.3884528 1.0249107 2.7967343
-1.4537342 1.0748168 2.7606783
-1.4277917 1.0703931 2.7828302
-1.3913292 1.0701526 2.7961473
-1.4604998 1.1385707 2.7746758
-1.4263506 1.120416 2.7840869
-1.3899015 1.1073684 2.792475
1.3466322 1.1395704 2.7972815
-1.4679854 1.1688628 2.7615297
-1.4242249 1.1702752 2.783288
-1.3938428 1.17027 2.795105
-1.4748147 1.2200608 2.7589087
-1.4262784 1.2217797 2.7787383
-1.3901247 1.2175568 2.7954688
-1.4731663 1.2748662 2.7623141
-1.4237425 1.2703643 2.7803793
-1.3911492 1.2728945 2.7953022
-1.4746902 1.3251401 2.7604127
-1.4283147 1.3249609 2.7791183
-1.3948373 1.3299191 2.793797
-1.5042086 1.3921223 2.7586303
-1.4704934 1.3768319 2.7674761
-1.4225147 1.3804855 2.7864232
-1.3911695 1.3801504 2.7980633
-1.5214045 1.4259809 2.7579269
-1.4811049 1.4254538 2.7704854
-1.4282413 1.4249548 2.7821314
-1.3897709 1.4284824 2.7929535
1.3585682 1.4476154 2.7570817
-1.5102495 1.4756373 2.7579639
-1.4694175 1.4739962 2.7718942
-1.4213966 1.4728926 2.7840466
-1.3849539 1.4518813 2.7981851
1.3595929 1.4856216 2.7733638
-1.5170251 1.5280033 2.7543869
-1.4777323 1.5296674 2.7668958
-1.427552 1.5315124 2.7879667
-1.3961127 1.518671 2.7974858
1.3497331 1.5341654 2.7880509
1.3564687 1.5246387 2.7749996
-1.5231296 1.5777743 2.7565176
-1.4709674 1.5787314 2.7727356
-1.4213477 1.576438 2.7887313
-1.386664 1.5651001 2.7990863
1.343549 1.5765799 2.7998769
1.3576725 1.5705756 2.7736855
-1.5504229 1.6353291 2.753931
-1.5257018 1.6198728 2.7574883
-1.4759581 1.6243553 2.7760482
-1.434166 1.6174259 2.792253
-1.3940113 1.6051837 2.7994454
1.3533604 1.6010919 2.7671719
-1.5527052 1.6537961 2.7500343
-1.5221661 1.6715767 2.7595644
-1.4765995 1.6742496 2.7803149
-1.4405928 1.6700732 2.792382
1.3694782 1.6935508 2.7889807
-1.5531178 1.7364306 2.7537897
-1.5299859 1.7225651 2.7613044
-1.4753578 1.7227261 2.7821198
-1.4339178 1.7295768 2.7933395
1.3725137 1.7241383 2.7768111
-1.5561358 1.7560689 2.7504928
-1.5260258 1.7669497 2.7655869
-1.4758784 1.7757027 2.7849722
1.3776789 1.7660617 2.7822025
-1.5682797 1.8253008 2.7571023
-1.5269616 1.8279107 2.7765279
-1.4800797 1.8265293 2.7921455
1.3873503 1.820928 2.7707806
-1.5679195 1.8791237 2.7576923
-1.527182 1.8798968 2.7784274
-1.4826627 1.8759105 2.7913771
1.3891128 1.8765846 2.7874954
-1.5704055 1.9254264 2.7611277
-1.5276312 1.924008 2.7789116
-1.4870101 1.9189043 2.7949398
1.3958925 1.9222387 2.7758973
-1.5738578 1.9791569 2.7623148
-1.524902 1.9679861 2.7820613
1.3953967 1.9717857 2.7852459
1.4063309 1.9804442 2.7572045
-1.5761224 2.0204091 2.7629447
-1.5255892 2.0126503 2.7817512
-1.4961133 2.0154593 2.7963433
1.4056784 2.0280704 2.7804053
-1.6084388 2.0551112 2.7508976
-1.57757 2.0676477 2.7677124
-1.5243044 2.0738432 2.7889149
-1.4961734 2.0982163 2.798547
1.407122 2.0746529 2.7739222
-1.6045053 2.1147799 2.7539167
-1.5688909 2.1198788 2.7715721
-1.5245779 2.1366656 2.7855887
-1.4928923 2.1313186 2.7956135
1.4116536 2.1269431 2.7768607
-1.6130615 2.1518838 2.7511919
-1.5779636 2.1762729 2.7637124
-1.524788 2.1776588 2.7810211
-1.4943751 2.1802142 2.79549
1.405551 2.1738663 2.7806299
-1.5762357 2.233088 2.7612019
-1.5216314 2.2293966 2.7820168
-1.487915 2.239495 2.7941401
1.4029374 2.221823 2.7796838
-1.6046038 2.2747777 2.7527282
-1.5718055 2.28337 2.7586455
-1.5277065 2.276588 2.7777314
-1.4814388 2.2786832 2.7949119
1.3912938 2.2613928 2.7560809
1.4028032 2.2628119 2.7911153
-1.5645975 2.3254714 2.7579892
-1.5211968 2.3246315 2.771368
-1.4772786 2.3245046 2.7919254
1.3857665 2.3222971 2.7724671
-1.5141045 2.3640342 2.7615604
-1.4741008 2.377389 2.7739892
-1.4245069 2.3874335 2.7880311
1.1978209 2.3880601 2.7924421
1.2338003 2.3908284 2.7825162
1.2810965 2.3870804 2.7710056
1.3236516 2.3793602 2.76753
1.3698306 2.3581128 2.7742643
-1.4545727 2.4094305 2.7518678
-1.4202561 2.4152374 2.7661624
-1.3783884 2.4155684 2.7756464
-1.3314887 2.4144924 2.7847559
-1.291979 2.418699 2.7974534
-1.2158247 -0.50188738 2.8062298
-1.1605096 -0.50684237 2.808012
-1.140072 -0.50014657 2.8174987
-1.0869015 -0.50963306 2.8011131
-0.61603975 -0.5092923 2.8123834
-0.5717774 -0.51459217 2.8168788
-0.52223641 -0.51382929 2.8167093
-0.46917766 -0.51679301 2.8208346
-0.42488045 -0.52298135 2.8261948
-0.37465009 -0.51852268 2.8208258
-0.32615426 -0.50620711 2.8073812
-0.28352395 -0.51242435 2.8257239
-1.3098677 -0.46162766 2.8008976
-1.2726086 -0.47110993 2.811023
-1.2253865 -0.47720379 2.8241007
-1.1790687 -0.48397726 2.8279142
-1.1206632 -0.49055925 2.8176236
-1.0725288 -0.48912555 2.8188674
-0.77616394 -0.46795326 2.8080153
-0.72523904 -0.47096071 2.8265297
-0.67302543 -0.49001202 2.8143623
-0.6275152 -0.49222243 2.8344982
-0.5749324 -0.49307382 2.8329439
-0.52173799 -0.49750361 2.8381774
-0.47215822 -0.49626765 2.8367021
-0.42475176 -0.497246 2.847337
-0.38813448 -0.49459314 2.8353896
-0.27271563 -0.47841072 2.8311682
1.2951329 -0.46538883 2.8321581
1.3038856 -0.46926329 2.8049917
-1.3579748 -0.41255552 2.8016262
-1.3241209 -0.42559761 2.8135066
-1.2756099 -0.4272067 2.8286068
-1.2359536 -0.42746693 2.842932
-0.81170076 -0.4005653 2.8013828
-0.77811891 -0.42211512 2.8147788
-0.72753125 -0.42461717 2.8379335
-0.24026172 -0.40611425 2.8126321
1.2968854 -0.42112958 2.83165
1.3034937 -0.4257693 2.8090229
-1.3636353 -0.37341443 2.8032212
-1.3234092 -0.37626898 2.8161983
-1.2742523 -0.37647045 2.8338463
-1.2400186 -0.38048929 2.8475261
-0.81131619 -0.37275863 2.8025973
-0.77884299 -0.37376189 2.8166549
-0.73083389 -0.37403691 2.8385201
-0.24046925 -0.37252748 2.8180888
1.3111327 -0.38468966 2.829942
-1.3625221 -0.32629195 2.8040574
-1.3239477 -0.32544309 2.8190272
-1.2748829 -0.32560238 2.8364699
-1.2427168 -0.32827681 2.8487847
-0.81315172 -0.32544315 2.8027656
-0.77809143 -0.32498807 2.8179195
-0.730663 -0.32799056 2.8389788
-0.24104683 -0.32597199 2.8286827
-1.3628241 -0.27447709 2.8061345
-1.3270049 -0.27455515 2.8191662
-1.2775816 -0.27483383 2.838342
-0.8151865 -0.2727749 2.8034854
-0.77758288 -0.27638644 2.8195598
-0.7328335 -0.2777704 2.8422768
-0.36301082 -0.26460728 2.8220463
-0.34821585 -0.27049828 2.8128581
-0.25470555 -0.29887098 2.8307011
-0.23496155 -0.29229298 2.8123693
-1.369843 -0.22383022 2.8063288
-1.32708 -0.22395056 2.8224471
-1.2762094 -0.2239297 2.8383834
-0.81609958 -0.22717324 2.8043125
-0.77751428 -0.22798871 2.8221726
-0.73212743 -0.22892411 2.8423889
-0.3307285 -0.2227096 2.8116813
1.3298978 -0.20266676 2.8295383
1.3503017 -0.20245729 2.8194051
-1.3724676 -0.17319259 2.8072731
-1.3246621 -0.1730157 2.8198168
-1.2752936 -0.17318885 2.8388166
-1.2387599 -0.15869416 2.8497391
-1.0449052 -0.17696346 2.8413222
-0.81519341 -0.17187583 2.8037856
-0.77668905 -0.1725038 2.8217804
-0.73147297 -0.17325757 2.8424218
-0.31371072 -0.18569088 2.8340023
-0.29017651 -0.16706443 2.8278151
1.3113372 -0.17314078 2.8269482
-1.3710016 -0.12086384 2.8077903
-1.3243943 -0.12244734 2.8210497
-1.2740951 -0.12249604 2.8379476
-1.0408326 -0.12686671 2.8320417
-0.8151319 -0.12371099 2.8052585
-0.77686477 -0.12420177 2.8240969
-0.73528153 -0.12666892 2.8427589
-0.26768517 -0.13774998 2.831219
-0.23814635 -0.12073679 2.8049185
1.3103944 -0.14414826 2.8260455
-1.3716646 -0.073417842 2.8086908
-1.3243736 -0.071930617 2.8222337
-1.2739128 -0.071952775 2.8387239
-1.0357795 -0.077115029 2.8194582
-0.81474698 -0.075520225 2.8050396
-0.7764405 -0.075825408 2.8236208
-0.73798531 -0.076135412 2.8423834
-0.23355354 -0.087966993 2.8314493
-1.3742963 -0.027318431 2.8089571
-1.3253109 -0.02864486 2.8247347
-1.2737544 -0.028636338 2.8388889
-1.0349952 -0.027901368 2.8179295
-0.81531209 -0.027409205 2.80756
-0.77666587 -0.027511066 2.8250182
-0.73820496 -0.027625693 2.8438032
-1.4005989 0.00027530466 2.8060658
-1.3749747 0.023389397 2.8090684
-1.3244042 0.021901196 2.8227837
-1.2741643 0.02188725 2.8398023
-1.0354671 0.021233797 2.8192058
-0.81515431 0.020747265 2.8070116
-0.77674139 0.020822905 2.8252978
-0.73787868 0.02088544 2.8425295
1.2887045 0.021860972 2.8353496
1.3104185 0.014651971 2.8208482
-1.3693697 0.07253281 2.8108342
-1.3254446 0.072486818 2.8243785
-1.2745055 0.072446272 2.839915
-1.2377378 0.072392084 2.8496604
-1.0360196 0.077427909 2.8199959
-0.81957179 0.078570582 2.8064673
-0.77725291 0.076108612 2.8264861
-0.74115163 0.071796067 2.8452311
-1.4688964 0.14610545 2.8016918
-1.3693291 0.12311217 2.8094542
-1.3260643 0.12310913 2.8243978
-1.2749033 0.12303581 2.8395362
-1.0344354 0.12725152 2.835393
-0.93077368 0.13958891 2.8207755
-0.85172367 0.12426775 2.8054523
-0.82129818 0.11852393 2.8157799
-0.77655828 0.11694486 2.8344243
-0.74656075 0.11122546 2.8465726
-1.3698682 0.17377299 2.8086119
-1.3270259 0.17381686 2.8245516
-1.2750744 0.17362274 2.8380394
-1.0039315 0.15407801 2.8135767
-0.9439373 0.15341064 2.8147914
-1.3648423 0.22192495 2.8073936
-1.3270487 0.22446145 2.8220112
-1.2765517 0.22446074 2.8387535
-1.2400227 0.22438227 2.8492315
-1.3673553 0.27530453 2.807503
-1.321808 0.27549437 2.8254616
-1.2705612 0.27535641 2.8406692
-1.240636 0.27513856 2.8474972
-1.3610773 0.32095668 2.8043282
-1.3233145 0.3267023 2.8211546
-1.2741909 0.32585746 2.8392944
-1.2425773 0.326296 2.8481295
-1.3656925 0.37453595 2.8067954
-1.3245294 0.37768111 2.8228033
-1.2736608 0.37764516 2.8392775
-1.2449845 0.37774432 2.8491971
-1.3663563 0.4214789 2.8056705
-1.3260772 0.42342949 2.8172936
-1.2750666 0.42166463 2.8380253
-1.2459352 0.40709335 2.8485413
-1.100958 0.4018693 2.8495154
-1.3560412 0.48022848 2.8068924
-1.3251886 0.47340846 2.8216388
-1.2799312 0.47434375 2.8430765
-1.2492975 0.46647742 2.8498616
-1.3516146 0.52493042 2.8096488
-1.3235965 0.52536619 2.8220143
-1.2785293 0.52747506 2.8407507
-1.3560419 0.5632019 2.8137231
-1.3231 0.57405794 2.8207805
-1.2781917 0.57055467 2.8390796
-1.3257648 0.62501377 2.823411
-1.2784849 0.62307352 2.8381383
-1.3174131 0.67554277 2.8224046
-1.275335 0.67658114 2.8413677
-1.3219982 0.72210032 2.8242478
-1.2780757 0.72224438 2.8395996
-1.3543501 0.78273219 2.8085148
-1.3237334 0.77469891 2.8179481
-1.2733737 0.77428013 2.8395474
-1.3623081 0.82393676 2.8046761
-1.3231076 0.83064061 2.8188112
-1.2757876 0.82684577 2.8421738
-1.36068 0.87539178 2.8021739
-1.3248903 0.8762334 2.8179471
-1.274911 0.8775782 2.8399107
-1.3584694 0.92342985 2.8049722
-1.3244759 0.92210531 2.8179402
-1.2766451 0.92709541 2.8406119
1.3223435 0.93156749 2.8185976
-1.3645459 0.9724347 2.8061569
-1.3269957 0.97230923 2.8191304
-1.2758799 0.97321993 2.8396356
1.3214824 0.97420013 2.8208113
-1.367299 1.0174809 2.8042698
-1.3255857 1.0218531 2.8228159
-1.2786882 1.0207938 2.8429666
1.3276169 1.0252154 2.8226037
-1.3636764 1.0707289 2.8082652
-1.3231273 1.0710166 2.8237219
-1.2790496 1.0719638 2.8417966
-1.2489823 1.0795989 2.8499451
1.330209 1.0756187 2.8186555
-1.3693774 1.1227971 2.8058853
-1.326544 1.123209 2.8247817
-1.2750137 1.1203392 2.8390729
-1.2495437 1.1027368 2.8447723
1.3293626 1.1187332 2.8156915
-1.3709164 1.1701473 2.8034055
-1.3262258 1.1709186 2.8218727
-1.2739784 1.1717602 2.8424213
-1.2441204 1.1874975 2.849139
1.3305898 1.1528255 2.8171
-1.3610226 1.2204794 2.8050897
-1.3234549 1.2209793 2.8201704
-1.2787647 1.2219937 2.8385248
-1.368544 1.2732564 2.8048375
-1.3270816 1.274706 2.819416
-1.2752647 1.2726365 2.8408568
-1.3678522 1.3260301 2.8055203
-1.3237913 1.323573 2.8200946
-1.2756757 1.3263125 2.83953
-1.2470059 1.3440291 2.8494275
-1.3673798 1.3795863 2.8058951
-1.3262384 1.3818493 2.822335
-1.2819701 1.3794916 2.8421955
-1.2494615 1.3621559 2.8494115
-1.3590769 1.4257478 2.8041608
-1.3234035 1.4234804 2.8222604
-1.2728848 1.4252487 2.8413928
-1.3718781 1.4742594 2.8068097
-1.3243685 1.4695249 2.8193116
-1.2786297 1.4708338 2.8386936
-1.3686341 1.5307777 2.8088942
-1.3195218 1.5234119 2.8256817
-1.2796353 1.5283103 2.8416719
1.3475704 1.549665 2.822264
-1.3706049 1.577919 2.8081543
-1.3267361 1.5772936 2.8326774
-1.2873447 1.5691926 2.8452277
1.3439834 1.5785279 2.823921
-1.4114213 1.6320329 2.8076513
-1.3698729 1.6274954 2.8215408
-1.3225719 1.6254241 2.8325951
-1.2889569 1.6288335 2.8479152
1.3422791 1.6097181 2.8292847
1.3504542 1.6005337 2.8070853
-1.416853 1.670458 2.8030388
-1.3785 1.6721845 2.8169982
-1.3282326 1.6780329 2.8332598
-1.2862983 1.6676321 2.847878
1.3450696 1.6890259 2.8489661
1.3586386 1.683908 2.8136983
-1.4148659 1.7234781 2.8053718
-1.3688771 1.7209196 2.8229227
-1.324033 1.723011 2.8403549
1.3561246 1.7251911 2.8364611
-1.4255146 1.7773024 2.8097577
-1.3754841 1.7721738 2.8204083
-1.3316505 1.7672591 2.8412745
1.3667353 1.7741184 2.8357224
-1.4587443 1.8335229 2.802752
-1.4249808 1.8323427 2.8149483
-1.3744417 1.827142 2.8344047
-1.3392663 1.8274316 2.8404717
1.374121 1.8243445 2.8240051
-1.4570252 1.8755642 2.8086834
-1.4217163 1.8799331 2.8211932
-1.3786633 1.87988 2.8388023
-1.3462614 1.8616763 2.8421469
1.3758469 1.8791785 2.8233984
-1.4686766 1.9294878 2.808923
-1.4278544 1.9241127 2.8235626
-1.3799844 1.9206613 2.8411503
-1.3227065 1.9247522 2.8479214
1.3821858 1.924584 2.8113167
-1.4727167 1.9729167 2.8117483
-1.418714 1.9678429 2.8262703
-1.3808187 1.9722856 2.8432496
1.391905 1.9820964 2.8236282
-1.4663938 2.0255558 2.8073156
-1.4285121 2.0151935 2.8257592
-1.3859113 2.0144892 2.8424633
1.3829082 2.0233366 2.8285527
-1.4780929 2.0749297 2.8071566
-1.42085 2.0717356 2.8317928
-1.3898751 2.0751538 2.8456624
1.3942052 2.0773792 2.8285697
1.4017115 2.0634809 2.8025515
-1.4666765 2.1253915 2.809546
-1.4280355 2.127516 2.8266804
-1.3867884 2.1274955 2.8423979
1.3906116 2.1317689 2.8415217
1.4023539 2.1321771 2.8179874
-1.4713795 2.1844125 2.8127198
-1.4266425 2.1819427 2.8286016
-1.3825034 2.1802943 2.8448155
1.3890336 2.1794763 2.8295283
-1.4654875 2.2266331 2.8077526
-1.4189801 2.2278113 2.8224623
-1.386241 2.2225187 2.8385658
1.3926033 2.2245989 2.8265679
-1.4575105 2.2635183 2.8061285
-1.4241595 2.2745602 2.8183157
-1.3753998 2.2762971 2.8380446
1.3831278 2.2792032 2.8240848
-1.4529781 2.3364701 2.8014693
-1.4253157 2.3255196 2.8168972
-1.3756516 2.3198712 2.8338265
-1.3489201 2.3386452 2.8495991
1.3690554 2.3281047 2.8260407
-1.4156877 2.3621218 2.8073728
-1.3735437 2.3773856 2.8188317
-1.3345324 2.3760009 2.8407547
-1.2816409 2.3970418 2.8463976
1.0226549 2.3828304 2.8449986
1.0788324 2.392643 2.840173
1.1328661 2.3882623 2.8341351
1.1726291 2.393208 2.8231864
1.2420559 2.3946772 2.8337562
1.2782753 2.3878636 2.8202136
1.3266485 2.3735344 2.8269272
1.3536794 2.3579865 2.8187919
-1.353846 2.4001629 2.8215299
-1.3159204 2.4041581 2.8238394
-1.2745509 2.414938 2.8215849
-1.2284409 2.418489 2.8312168
-1.1674616 2.414712 2.8392856
1.1174822 2.4012082 2.8387785
1.2128212 2.4004276 2.8403277
-1.1659645 -0.46690559 2.8562472
-1.1218302 -0.46451759 2.8773541
-1.076053 -0.47035208 2.8692369
-0.67483908 -0.46846107 2.8554246
-0.6194123 -0.46831962 2.8778942
-0.57182592 -0.47228992 2.8798735
-0.52298337 -0.48215497 2.8733575
-0.4761838 -0.48363528 2.8814189
-0.42277044 -0.48212567 2.883961
-0.38911131 -0.49076593 2.8960538
-0.30279386 -0.48727724 2.8820271
-0.28070277 -0.48518255 2.8710134
1.2789789 -0.46825129 2.8721778
-1.2120922 -0.4321146 2.8517895
-1.1769334 -0.42619485 2.8617949
-1.1243469 -0.42350835 2.8834207
-1.0762991 -0.42745158 2.8874426
-0.67532378 -0.42683208 2.8619297
-0.62346917 -0.42730969 2.8829362
-0.58856767 -0.42287388 2.8967056
-0.25940377 -0.42195636 2.873244
1.2819085 -0.42581832 2.8726299
-1.2150481 -0.37700155 2.8565173
-1.1743236 -0.37553126 2.8682809
-1.1226429 -0.3776716 2.8881941
-1.074502 -0.37609637 2.8874397
-0.70816886 -0.38365829 2.8515244
-0.67376786 -0.37408748 2.869065
-0.62185282 -0.37235865 2.8871932
-0.58784503 -0.3730821 2.8975773
-0.26018625 -0.38857394 2.8851171
1.2952316 -0.3982721 2.8865619
1.3060826 -0.38652536 2.8680027
-1.2198887 -0.32544497 2.8582962
-1.1760752 -0.32635614 2.8733175
-1.1235875 -0.32811478 2.8906379
-1.0744543 -0.32227778 2.8845024
-0.70664215 -0.32017604 2.8504989
-0.67596918 -0.32520097 2.8646965
-0.6209833 -0.32272634 2.8871081
-0.25941536 -0.3182351 2.8820758
-1.2250144 -0.27507445 2.8572574
-1.176278 -0.27533805 2.8744085
-1.1283497 -0.27556306 2.890137
-1.0775487 -0.27190071 2.882061
-0.70656979 -0.27140981 2.8535364
-0.67370194 -0.27221453 2.8674684
-0.62140936 -0.27270529 2.8856933
-0.59986323 -0.2805801 2.8925548
-0.38475749 -0.26341826 2.8825309
-1.2271835 -0.22423534 2.8577402
-1.1761788 -0.22419336 2.8717945
-1.1279174 -0.22468734 2.8920248
-1.0765316 -0.22381401 2.8821442
-0.70623463 -0.22257905 2.854974
-0.67353654 -0.22328086 2.8695199
-0.62203807 -0.22289267 2.8890069
-0.36097017 -0.23376888 2.8620515
-0.33950743 -0.2057447 2.8581831
1.290313 -0.20561953 2.8895297
1.3091494 -0.20396122 2.8570566
-1.2241586 -0.17519182 2.8578236
-1.1773342 -0.17368758 2.8770378
-1.1270322 -0.17376611 2.8921413
-1.0850086 -0.17343046 2.896879
-0.70554578 -0.17370546 2.8543935
-0.67322397 -0.17433728 2.8704023
-0.62454915 -0.17337272 2.8887711
-0.5998562 -0.18235129 2.8976374
-0.3183192 -0.16543466 2.8767779
-0.29818776 -0.1507895 2.8618429
1.2897205 -0.17512785 2.8709192
-1.2253127 -0.1226806 2.8576202
-1.1762686 -0.12287464 2.8761816
-1.1267086 -0.12300818 2.8930681
-1.0869989 -0.11963047 2.8964527
-0.7111097 -0.12226021 2.8552558
-0.67319745 -0.12550002 2.8719406
-0.62610668 -0.12586044 2.8873034
-0.59976405 -0.12620081 2.8991292
-0.27609974 -0.12056296 2.8623097
-1.2250092 -0.072063826 2.8580887
-1.1756591 -0.072150327 2.8758686
-1.1254289 -0.072195098 2.8909245
-1.0871483 -0.072068177 2.8948829
-0.71238124 -0.076353893 2.8555617
-0.67259955 -0.076585896 2.8705013
-0.6257506 -0.076835752 2.8867428
-0.59909868 -0.077004761 2.8970034
-0.26319706 -0.091903247 2.8829234
-0.24598612 -0.069265403 2.8984294
-1.2248597 -0.028690729 2.8582387
-1.1758096 -0.028751234 2.8767347
-1.1248698 -0.02875603 2.8899736
-1.087519 -0.028733155 2.8963566
-0.71320659 -0.027740121 2.8594453
-0.67332578 -0.027820183 2.8741455
-0.62620425 -0.027905872 2.8894095
-0.59936118 -0.027962925 2.8988326
-1.2251208 0.021892987 2.8588355
-1.175737 0.021908302 2.8765461
-1.1251506 0.021887342 2.8906898
-1.0869203 0.029058427 2.8947105
-0.71284616 0.020958332 2.8580081
-0.67355561 0.021027368 2.8751175
-0.62670147 0.021099806 2.8916981
1.2496554 0.014708411 2.8587198
-1.2224463 0.072445214 2.856741
-1.1749952 0.072505325 2.8741276
-1.1253885 0.072555333 2.8907061
-1.0854884 0.072297454 2.8903484
-0.71722502 0.07941024 2.8573952
-0.6729874 0.076812923 2.8720257
-0.62810081 0.076491326 2.8914511
-1.2251716 0.12309724 2.857084
-1.1753206 0.12316521 2.8736854
-1.1247689 0.12315293 2.8878765
-1.0807384 0.12563862 2.8889918
-0.9233709 0.14274977 2.891037
-0.7241199 0.12424917 2.8658018
-0.68058467 0.1229456 2.8792593
-0.6334765 0.11208925 2.8882012
-1.2248299 0.17364766 2.854404
-1.1748317 0.17371953 2.8706429
-1.1247048 0.17378363 2.8858976
-1.0803272 0.17361587 2.8946815
-1.0294386 0.17754643 2.8753736
-0.97159511 0.18262511 2.8779235
-1.2190092 0.22451603 2.8573718
-1.1754807 0.22446907 2.8697245
-1.1264216 0.22475605 2.8878472
-1.0898082 0.22467142 2.8963821
-1.0340269 0.20193572 2.8960485
-1.2188359 0.27510557 2.8538399
-1.176177 0.27526736 2.8683255
-1.1256585 0.27528629 2.8828096
-1.0917974 0.27260658 2.894603
-1.2174685 0.3294616 2.8580928
-1.1747848 0.32434872 2.8698089
-1.1250044 0.32906631 2.8890021
-1.0994669 0.31226307 2.8952754
-1.2164493 0.37789166 2.8591838
-1.1739947 0.3782461 2.874671
-1.1262834 0.3768155 2.8762853
-1.0750495 0.37366167 2.8758085
-1.0276096 0.38240299 2.8874061
