ply
format ascii 1.0
comment PCL generated
element vertex 1518
property float x
property float y
property float z
element camera 0
property float view_px
property float view_py
property float view_pz
property float x_axisx
property float x_axisy
property float x_axisz
property float y_axisx
property float y_axisy
property float y_axisz
property float z_axisx
property float z_axisy
property float z_axisz
property float focal
property float scalex
property float scaley
property float centerx
property float centery
property int viewportx
property int viewporty
property float k1
property float k2
end_header
1.3363597 0.62762612 1.786401
1.3603779 0.62101579 1.7608734
1.1171801 0.66665888 1.7896461
1.3338805 0.67664331 1.7871052
1.3594732 0.67492312 1.7616674
1.3337195 0.72085279 1.7858509
1.3595077 0.72628903 1.7601352
1.3349277 0.77503866 1.7848917
1.3599378 0.77973044 1.7606115
1.3366853 0.82682806 1.7861896
1.3607885 0.82616025 1.7631559
1.3355775 0.87666154 1.7859226
1.3614236 0.87182415 1.7618319
1.3357526 0.92806715 1.7862686
1.3601056 0.92108047 1.7623415
1.3354297 0.97910368 1.7874019
1.3608596 0.97235811 1.7617902
1.3384634 1.0306214 1.7870508
1.3598433 1.0234901 1.763126
1.3337772 1.0743802 1.7887819
1.3617505 1.077293 1.7616264
1.3375171 1.1233097 1.7858024
1.3645563 1.1284095 1.7595063
1.3400289 1.1768864 1.7859341
1.3627312 1.1746627 1.7631401
1.335149 1.2240145 1.7882221
1.3629135 1.2247922 1.7627265
1.3419858 1.2711371 1.7881087
1.3641267 1.2768903 1.7643918
1.3414642 1.3220855 1.7896839
1.3642528 1.3276162 1.7657684
1.3445644 1.3730167 1.7900385
1.3660159 1.3796831 1.7639842
1.3436747 1.419608 1.7880819
1.3709964 1.4317187 1.7650524
1.3455707 1.4689605 1.7931111
1.3716252 1.4794304 1.7644602
1.3443012 1.5190779 1.7930506
1.3680533 1.5247864 1.7682179
1.344743 1.5679936 1.7947967
1.3712554 1.574911 1.7717385
1.3486474 1.6306622 1.7998681
1.3695089 1.6238123 1.7749652
1.3489923 1.6835874 1.7955965
1.3740612 1.6737757 1.769792
1.4006341 1.6585734 1.7518494
1.3482292 1.7297986 1.7941353
1.3700891 1.7191023 1.7752614
-1.1166811 -0.50156915 1.8370523
-1.0857166 -0.50422746 1.8153324
-1.003456 -0.50270873 1.8438636
-0.98193407 -0.50287443 1.8192573
-0.92627221 -0.50253254 1.8137304
-0.86501729 -0.50298244 1.8305707
-0.80073375 -0.50058126 1.8207601
-0.77594012 -0.5050571 1.8198111
-0.71867478 -0.50600845 1.8192575
-0.68241298 -0.50743014 1.8259039
-0.63034564 -0.50972599 1.8207256
-0.57683295 -0.50728822 1.8215446
-0.5299896 -0.51112378 1.8323328
-0.47833699 -0.51371455 1.8272763
-0.42392159 -0.51091254 1.8137531
-0.36737633 -0.51149398 1.8277861
-0.33281735 -0.50848621 1.8154907
0.1861003 -0.51062846 1.8222321
0.22069205 -0.51071179 1.813977
0.25056633 -0.5054149 1.801857
-1.0809617 -0.49930906 1.8188587
-0.92782986 -0.49770603 1.8241937
0.17073222 -0.46995384 1.8142433
0.22645071 -0.47610721 1.8227068
0.2556541 -0.47201145 1.8046671
0.16394055 -0.42402944 1.8202642
0.22846588 -0.42592436 1.8326074
0.26251984 -0.42366415 1.8101484
0.096220285 -0.3584035 1.808231
0.1238836 -0.37921441 1.8167896
0.15272722 -0.39826643 1.8233149
0.22984195 -0.37483019 1.8370101
0.26681176 -0.37491328 1.8154705
0.090132125 -0.32760924 1.8069428
0.11191671 -0.33422208 1.8318583
0.19733046 -0.31030113 1.8349949
0.23081437 -0.32698715 1.8407903
0.26836732 -0.32373047 1.8161964
0.23856762 -0.27892911 1.8388239
0.26988786 -0.27406445 1.8158078
0.23840554 -0.22724175 1.8420645
0.27059221 -0.22369647 1.8183881
0.24336395 -0.17547278 1.8424282
0.27138847 -0.17453368 1.8211366
0.24174003 -0.1330093 1.846014
0.27328151 -0.12581438 1.8222116
0.19621311 -0.088137113 1.840086
0.24495944 -0.076147899 1.8452896
0.27514839 -0.073214501 1.8217424
0.19597736 -0.013177923 1.8391654
0.24427353 -0.022123555 1.8455142
0.27445939 -0.026799483 1.8223916
0.19655547 0.030949317 1.8444109
0.24143749 0.023427667 1.8426409
0.27592531 0.021086715 1.8166082
-0.058129735 0.077581577 1.8046455
0.19585595 0.074798167 1.8369961
0.22894269 0.076756597 1.8391685
0.26900244 0.073268667 1.8137953
0.2284559 0.10524537 1.8265238
0.26756811 0.10444756 1.8089944
-0.14465933 0.19008264 1.8004167
-0.087092243 0.1814913 1.8039988
0.49480399 0.18768468 1.8412683
0.52310199 0.17987534 1.8266699
0.55334568 0.16268775 1.8345321
0.88734722 0.17420614 1.8336226
0.91405004 0.18110348 1.8135157
0.3971208 0.22440062 1.8442605
0.42882127 0.2207835 1.8344119
0.47463709 0.21452355 1.8309138
0.51846218 0.20811239 1.809407
1.1817695 0.38779238 1.8220987
1.2280397 0.39044198 1.8288811
1.2881683 0.38455296 1.8218064
1.3094059 0.38598815 1.8075215
1.1802634 0.4257279 1.8186948
1.2263607 0.4267118 1.8398653
1.2824229 0.42471081 1.8410481
1.3106425 0.42395923 1.8147427
1.1801485 0.47522518 1.8269408
1.2240115 0.47189823 1.8420266
1.2817922 0.47255433 1.8409901
1.3140301 0.47657368 1.8131894
1.1881697 0.52446604 1.8307499
1.2293588 0.52318889 1.8453053
1.2827759 0.52787036 1.8414434
1.3110807 0.52304572 1.8137895
1.1462901 0.56725407 1.8056276
1.1764015 0.57507932 1.8233833
1.2194809 0.573708 1.8414662
1.2868621 0.5762139 1.8359548
1.3123492 0.5704841 1.8106117
1.1785678 0.62417102 1.8231658
1.2256231 0.62227654 1.8444227
1.2851123 0.62384945 1.8379555
1.3122032 0.62494546 1.8097855
1.1415572 0.66960567 1.80716
1.177577 0.67542499 1.8271978
1.2246341 0.67450148 1.8422633
1.2860063 0.6741572 1.836262
1.3093883 0.67333102 1.8112049
1.1327573 0.72752857 1.8103024
1.1748413 0.72344559 1.8315463
1.2226943 0.72197205 1.8425249
1.2793279 0.72848666 1.8393421
1.3089285 0.72504681 1.8121144
1.1394526 0.75717235 1.814694
1.1784655 0.77793926 1.8358684
1.2217004 0.76778227 1.8442037
1.2798936 0.77350044 1.8386894
1.310703 0.7715317 1.8104948
1.1393791 0.82793975 1.8137246
1.1835468 0.82665503 1.8329157
1.2201084 0.81917572 1.8445116
1.2773681 0.82030511 1.8384819
1.3116237 0.82591343 1.8095379
1.1381669 0.87443322 1.8228382
1.1728673 0.87659186 1.8303877
1.2215157 0.8773644 1.8455949
1.278265 0.86892653 1.8375299
1.3102282 0.87947446 1.8118134
1.1459333 0.92144281 1.8315885
1.1720464 0.92915916 1.8317029
1.2138758 0.91561127 1.8460096
1.281327 0.92008913 1.8373677
1.3118622 0.92951977 1.8102576
1.1363916 0.98515248 1.8248178
1.1676161 0.96459264 1.8355591
1.2865168 0.97166806 1.836851
1.3120099 0.97507763 1.8090438
1.1270223 1.0177619 1.8316636
1.287132 1.025507 1.836929
1.3128966 1.0207537 1.8136194
1.2864294 1.078482 1.8366585
1.3107735 1.0699688 1.8119831
1.2842437 1.1247391 1.8389151
1.3118209 1.1248302 1.8124336
1.2866251 1.1767868 1.8380817
1.314244 1.1752548 1.8143972
1.2891234 1.2241328 1.8365507
1.3134611 1.2215595 1.8158184
1.2869844 1.2762293 1.8427049
1.3151525 1.2758906 1.8169302
1.2912999 1.3242153 1.8412781
1.3159777 1.3290918 1.8171518
1.2923249 1.3806772 1.8442513
1.3172549 1.3759729 1.81954
1.2948672 1.4275762 1.8401867
1.3181062 1.4227651 1.8165779
1.2943563 1.4785206 1.8430297
1.3207383 1.4745308 1.8192043
1.3187194 1.5253531 1.8227347
1.2953491 1.5664855 1.8458633
1.3199166 1.5804753 1.8215691
1.3230882 1.6261181 1.8251016
1.3258927 1.6734526 1.8235685
1.3286244 1.7265686 1.8219121
1.3185816 1.755141 1.8361654
-0.97295374 -0.5073936 1.8767524
-0.92162657 -0.50295824 1.8761374
-0.88092977 -0.50424761 1.8848065
-0.82509613 -0.50604767 1.8780464
-0.77179974 -0.50627023 1.8769562
-0.72935438 -0.50741255 1.8768078
-0.67601711 -0.50705856 1.8691941
-0.63180906 -0.50940365 1.8694562
-0.56581753 -0.51011497 1.8675629
-0.5232833 -0.51144397 1.8796343
-0.47069061 -0.51377738 1.8745352
-0.41762686 -0.51384872 1.867613
-0.38422 -0.51336884 1.8740724
-0.34110087 -0.51044732 1.8810374
0.18758781 -0.5040586 1.8595959
-1.128958 -0.49694011 1.8593568
0.18749744 -0.49981898 1.8918581
0.20320426 -0.49753883 1.8639958
0.21025522 -0.4203921 1.8568966
0.13314879 -0.3700321 1.8657221
0.15611322 -0.39804932 1.8650254
0.20941313 -0.37367609 1.8557934
0.1281027 -0.34145829 1.8608634
0.20881304 -0.32127154 1.856997
0.21615641 -0.27096051 1.8570249
0.21642329 -0.22242157 1.8593432
0.22073101 -0.17374043 1.8605673
0.19957042 -0.10757999 1.8709664
0.22156592 -0.12325919 1.8615024
0.19913465 -0.098397255 1.8671966
0.22114885 -0.07591667 1.8633598
0.22174418 -0.026723161 1.8602076
0.19742471 0.0044655711 1.8527644
0.21663757 0.021084065 1.8559122
0.19720122 0.053197868 1.8501456
0.2092272 0.056207236 1.8510891
0.43997145 0.1843325 1.8920889
0.47180748 0.17839016 1.8683476
0.50146627 0.17251001 1.8529828
0.8246932 0.17102341 1.885028
0.86640984 0.17874485 1.8812807
0.37608182 0.21723889 1.8842837
0.42434552 0.20988971 1.8736531
0.4624345 0.20355569 1.8653809
1.2488831 0.42266548 1.8508323
1.2701635 0.41944048 1.8519523
1.2456698 0.49760708 1.8526442
1.2696112 0.49208996 1.8529605
1.2337282 0.52912319 1.854148
1.2678571 0.51829904 1.8536214
1.2353258 0.58723289 1.8520266
1.2723728 0.5747233 1.8546516
1.2370794 0.63333273 1.8502418
1.2668437 0.6263746 1.8510689
1.2633148 0.67129546 1.851673
1.2757492 0.713247 1.8514453
1.2361861 0.78639257 1.8538182
1.2541649 0.78666449 1.8543754
1.2400718 0.82899117 1.85139
1.2360327 0.87840641 1.8502845
1.2558656 0.87015843 1.8509836
1.2386738 0.92661852 1.8566872
1.2578645 0.92825389 1.8562979
1.2333372 0.97799528 1.8737768
1.261017 0.97638732 1.8585622
1.1789705 1.023126 1.8733714
1.2325766 1.0258296 1.8849581
1.2617301 1.0266372 1.8591969
1.2354344 1.074484 1.8825363
1.2628479 1.0780106 1.8593167
1.1389546 1.1311519 1.8874073
1.237028 1.1272787 1.8880084
1.2604141 1.1323339 1.8659499
1.2355895 1.1749722 1.8858385
1.2630162 1.1724906 1.8611474
1.240141 1.220745 1.8852123
1.2649623 1.2294083 1.8650433
1.2376817 1.2776392 1.8899028
1.2626612 1.2720958 1.8641906
1.2429024 1.3288723 1.8944417
1.2646565 1.3252765 1.866354
1.246308 1.3743941 1.8899156
1.2685137 1.3702869 1.8690422
1.2426085 1.4132695 1.8900447
1.2697999 1.4198931 1.8689129
1.2449889 1.4658995 1.8948205
1.2704171 1.4721873 1.8714783
1.2719012 1.5256733 1.8746753
1.2723812 1.5759252 1.8755422
1.2801427 1.6299049 1.8734603
1.3015711 1.6087003 1.8529932
1.2775862 1.6764203 1.8765113
1.3031846 1.6636964 1.8518987
1.2809452 1.7268119 1.8774223
1.3061135 1.721589 1.8517758
1.2806171 1.7652562 1.8813645
1.3052518 1.7628425 1.8557924
-0.85877979 -0.5046885 1.9052016
-0.82605857 -0.50569832 1.9288557
-0.78257477 -0.50606388 1.925642
-0.71344107 -0.50981826 1.9257288
-0.67085493 -0.50844169 1.9099617
-0.60661054 -0.5127362 1.9082977
-0.57217699 -0.51179701 1.9251603
-0.51915157 -0.50875288 1.9233676
-0.47572389 -0.51293969 1.9148359
-0.42713141 -0.51531696 1.9252911
-0.3801167 -0.51558554 1.9245889
-0.34472048 -0.50649458 1.9025893
0.19892259 -0.50532556 1.9120675
0.2020478 -0.50375962 1.9437649
-0.88599169 -0.49895743 1.9165634
0.20878251 -0.4924404 1.9184394
0.39668599 0.1868244 1.9450643
0.42202294 0.17611417 1.9252276
0.79786944 0.17197758 1.9466186
0.81677073 0.17737606 1.9246196
0.33698174 0.21687706 1.9321859
0.37381321 0.20903282 1.9208533
0.41104952 0.20440143 1.9110456
1.1802036 1.0843314 1.9141388
1.211728 1.0800347 1.907295
1.1818231 1.1290921 1.9175353
1.2118703 1.1245973 1.9075137
1.1787666 1.1765219 1.9167925
1.2156993 1.1775246 1.9068199
1.1777929 1.2251688 1.9290466
1.2159649 1.2253048 1.9121435
1.141137 1.2665957 1.9453818
1.1839186 1.2769784 1.9442388
1.2142806 1.2757227 1.9172974
1.1946555 1.3284422 1.9426216
1.2179365 1.3249173 1.9170326
1.1966459 1.3734474 1.945474
1.2218553 1.374251 1.9183112
1.1957262 1.4223974 1.9474642
1.2204744 1.424816 1.9205703
1.1998924 1.4907433 1.9489497
1.2230674 1.4768087 1.9224263
1.2249192 1.523519 1.9258622
1.2514306 1.5307713 1.9006226
1.2243259 1.5724856 1.9271367
1.2536001 1.5857544 1.9031233
1.2278217 1.6259891 1.9269897
1.2530642 1.6321783 1.9052818
1.2281566 1.6723013 1.9289869
1.2547065 1.6887562 1.9053075
1.232697 1.7224507 1.9280225
1.2556466 1.7392071 1.9084114
1.2313393 1.7724504 1.9296706
1.2590144 1.7712959 1.905331
-0.91031855 -0.50240219 1.9710939
-0.86664093 -0.50698864 1.9772393
-0.82034814 -0.50450009 1.97089
-0.5746358 -0.51213503 1.9731396
-0.52332175 -0.51910311 1.9774734
-0.4603405 -0.51627541 1.9632823
-0.42890134 -0.5159058 1.9733969
-0.37073323 -0.51449549 1.9791281
-0.34662026 -0.50414485 1.9711668
0.2050245 -0.50153643 1.9740491
0.37632805 0.17811251 1.9725335
0.78144217 0.1731073 1.9812341
0.24202333 0.21087731 1.9919637
0.27854159 0.21266516 1.9755634
0.33296496 0.20895532 1.9783674
0.35888919 0.20371448 1.9732941
1.1438389 1.289269 1.9889036
1.1726649 1.2879486 1.9569595
1.1495759 1.3263654 1.9989145
1.1686199 1.3253134 1.9712141
1.1447188 1.370706 1.9965335
1.1693074 1.3735688 1.9735414
1.1434131 1.4200903 1.9996121
1.1734346 1.4238204 1.9754268
1.1748976 1.4739166 1.9766426
1.1796924 1.5229243 1.9747944
1.2014375 1.5451095 1.9529407
1.1764799 1.5719527 1.9789873
1.1823112 1.6266147 1.9767038
1.2050395 1.6097215 1.9548382
1.1843139 1.6710702 1.9753908
1.2036529 1.6749359 1.9563907
1.1858817 1.7236104 1.9819368
1.2082731 1.7252979 1.9579499
1.1860828 1.7753248 1.9856758
1.2088145 1.7690883 1.9569733
1.1864028 1.80519 1.9850605
1.2053707 1.8042419 1.9736466
-0.87231904 -0.50180197 2.0294402
-0.84232086 -0.50783086 2.0168571
-0.77224159 -0.50606555 2.028743
-0.60129809 -0.51314539 2.0085497
-0.5903613 -0.51239032 2.0076427
-0.52058518 -0.51797545 2.0116353
-0.47518852 -0.51781827 2.0292766
-0.42913914 -0.51547724 2.0224571
-0.35956651 -0.51080114 2.0168371
0.33196697 0.18086629 2.0257959
0.35161051 0.17947285 2.0076642
0.67586648 0.1608955 2.0290241
0.74298471 0.17761987 2.0325203
0.7658757 0.17840597 2.0046723
0.24613868 0.20471598 2.0265017
0.28813788 0.2077748 2.0209537
0.3188709 0.20706813 2.0238154
1.0324595 1.134112 2.0473204
1.0617445 1.1682984 2.0239024
1.085284 1.2790774 2.0404074
1.1196438 1.2895119 2.0157428
1.0974224 1.323488 2.0474339
1.1248142 1.3232341 2.0205717
1.1238292 1.3730767 2.0265052
1.1266572 1.4258968 2.0269785
1.128711 1.4760488 2.028415
1.1297092 1.5257491 2.0298028
1.1554643 1.5248963 2.0012181
1.1312175 1.5713351 2.0286779
1.1554725 1.579066 2.0038257
1.1326677 1.6253095 2.0315599
1.1561285 1.6181842 2.0086195
1.1365474 1.682568 2.032037
1.1598338 1.6751928 2.0089989
1.1369079 1.7286888 2.037838
1.1596962 1.725975 2.0137265
1.135914 1.7752247 2.040272
1.1618853 1.7705021 2.0154469
1.1431403 1.8142163 2.0395765
1.1624587 1.8155751 2.0196567
-0.90729475 -0.50596499 2.0889587
-0.87479407 -0.50425148 2.0737317
-0.76951998 -0.50069988 2.0536399
-0.71121621 -0.50898921 2.0810366
-0.60304785 -0.51313788 2.0525649
-0.59548932 -0.51548338 2.0640044
-0.50847942 -0.52118522 2.0590911
-0.47510305 -0.51846719 2.0754623
-0.36837015 -0.50910324 2.0585277
-0.86876678 -0.4993037 2.0695274
0.28139585 0.17589745 2.0853329
0.31148291 0.17725448 2.0687752
0.68074387 0.17117891 2.0833733
0.72107309 0.17653576 2.0564871
0.24403986 0.20127559 2.0935001
0.27153659 0.20329055 2.0706418
0.79464048 0.34207639 2.0762422
0.81423068 0.34050745 2.0722506
0.78214914 0.36592761 2.0824831
0.80609119 0.36309582 2.0755939
1.0404775 1.1253943 2.0709052
1.0669446 1.1833098 2.0934348
1.0654945 1.2241709 2.088053
1.0685214 1.2839899 2.0762901
1.0797693 1.3271923 2.0781119
1.1030247 1.342343 2.0513136
1.0795666 1.3739762 2.0777783
1.1019413 1.3925364 2.0570164
1.0793527 1.4218827 2.0802031
1.1011999 1.4240019 2.0556445
1.0847189 1.4718354 2.0795376
1.1032274 1.465454 2.0553308
1.0846279 1.5201491 2.0848174
1.1057959 1.5294194 2.0618854
1.0872982 1.5731184 2.0846398
1.1115559 1.579694 2.0553398
1.0891172 1.622231 2.0857544
1.1085894 1.6244631 2.0649333
1.0874701 1.674125 2.0929186
1.1102157 1.6750702 2.0657828
1.0910513 1.7199513 2.0871665
1.1132419 1.7284368 2.0663795
1.0979711 1.7681925 2.0917783
1.1144313 1.7709578 2.0672073
1.0957386 1.819407 2.0939689
1.1174859 1.8225313 2.0699394
1.1021947 1.8502461 2.0908561
-0.90754259 -0.50128341 2.1198301
-0.89613515 -0.50407284 2.1365767
-0.76507169 -0.50930262 2.1269505
-0.72334886 -0.50701249 2.1183782
-0.67425293 -0.51158714 2.125155
0.24609657 0.17759642 2.1126342
0.25905859 0.18059802 2.1068323
0.63886255 0.17431998 2.1468148
0.66147673 0.17424141 2.1274633
0.26687154 0.20334077 2.1133485
0.78274715 0.37950885 2.1234021
1.0316914 1.1421585 2.1268685
1.0354749 1.1743451 2.1253827
1.0592014 1.1939243 2.1038251
1.0322378 1.2225797 2.1320467
1.0532433 1.222486 2.104758
1.032402 1.2750934 2.1318045
1.0546479 1.2696973 2.1094935
1.0348963 1.3240277 2.131305
1.0547582 1.3266168 2.1087103
1.0329628 1.374922 2.1377351
1.0552887 1.3805387 2.1138349
1.0396645 1.4237262 2.1364529
1.0567088 1.433393 2.1138496
1.0376346 1.4733666 2.1368048
1.0610198 1.4779406 2.110117
1.0361047 1.5215534 2.136888
1.0604179 1.5273062 2.1146646
1.0382026 1.5732256 2.1384995
1.0613663 1.5752656 2.1140623
1.0412685 1.6249554 2.1359038
1.0625231 1.6246927 2.1165385
1.0398695 1.6744858 2.1445079
1.0680361 1.6768664 2.1166155
1.0459456 1.7297646 2.14484
1.0661542 1.7266095 2.1231778
1.0457771 1.7916943 2.1490715
1.0734835 1.7752548 2.1188407
1.0476443 1.8083 2.1431262
1.072945 1.8249744 2.1267123
1.0731128 1.8611937 2.1290641
-0.9234525 -0.5019995 2.1735904
-0.61970806 -0.51498902 2.1515386
-0.58662176 -0.51287127 2.198292
-0.9067145 -0.498934 2.1636314
0.57602477 0.16617748 2.1928644
0.6183514 0.17347024 2.1630967
0.91396022 0.6188755 2.1742353
0.89924538 0.69236594 2.1852024
0.92529571 1.1142846 2.1968453
0.98779809 1.1418025 2.1816978
1.007874 1.1428539 2.1531005
0.98596895 1.1784929 2.1853926
1.0083711 1.1779355 2.1600413
0.98565853 1.2229446 2.1857898
1.0074083 1.2309862 2.1645663
0.98846978 1.2783608 2.185605
1.0096387 1.2693785 2.1565976
0.98734516 1.3252066 2.1841729
1.007646 1.3217462 2.1614616
0.98646939 1.3729486 2.1897686
1.0085278 1.3761114 2.1634924
0.98884326 1.423339 2.1883893
1.0145944 1.4273859 2.160768
0.99052662 1.4736743 2.1889796
1.0121285 1.4761283 2.16556
0.99307466 1.5222863 2.1912217
1.0147949 1.5308172 2.1692839
0.9915365 1.5762541 2.1929569
1.0114701 1.573804 2.1713192
0.99710411 1.628721 2.1971474
1.0162764 1.6242094 2.1679628
0.99507874 1.6727467 2.1944311
1.0166519 1.6784356 2.1741147
1.0193543 1.7251285 2.1745927
1.0247506 1.7716497 2.1769285
1.030609 1.826761 2.1797345
1.0336893 1.8704095 2.1782956
1.0521615 1.8737054 2.1605475
1.0302923 1.9029855 2.19556
-2.0945201 2.3191831 2.1978531
-0.90966004 -0.50675768 2.2008724
-0.59766144 -0.51140499 2.2414043
0.22811465 -0.50436407 2.2049623
0.54901958 0.16941826 2.2421193
0.57149893 0.17397749 2.2260306
0.87716866 0.41491589 2.210391
0.92193198 0.43973306 2.2408342
0.92486823 0.47754118 2.2403963
0.92695832 0.52532154 2.2385073
0.92600024 0.57845277 2.2349846
0.92184108 0.62370843 2.2344544
0.92056996 0.67307115 2.2338738
0.88759428 0.73555744 2.2113595
0.91145182 0.71655011 2.2452583
0.88845974 0.78672832 2.2357588
0.88732862 0.80899012 2.2268436
0.89702201 0.97775894 2.2405822
0.89080983 1.0064672 2.213217
0.9298749 1.1331545 2.2216938
0.96250081 1.1420201 2.2147233
0.94031376 1.1741387 2.2381101
0.9628799 1.1720264 2.2130651
0.93983048 1.2233443 2.2400191
0.96075469 1.2272698 2.2170846
0.94151086 1.2682185 2.2389731
0.9642601 1.2751867 2.2147632
0.93999571 1.3241891 2.2436137
0.96396488 1.3261942 2.2133806
0.94304889 1.3770858 2.2455559
0.96129799 1.3787459 2.2200871
0.94197094 1.4229932 2.2411098
0.96476561 1.4231294 2.2186985
0.94195694 1.4793717 2.245393
0.96638298 1.4726746 2.2198596
0.94828796 1.5216939 2.2428269
0.9705469 1.5230904 2.2168541
0.94625813 1.5853175 2.2474144
0.96488273 1.5725873 2.2256958
0.94799948 1.6013683 2.2438247
0.97219622 1.6282619 2.2259102
0.97044075 1.675005 2.2302613
0.98153591 1.7247121 2.2245042
1.0007823 1.7163516 2.2010283
0.98049289 1.7758807 2.2319121
1.000252 1.7789987 2.2072356
0.98604202 1.8228354 2.2323487
1.0067836 1.810986 2.2073598
0.98812771 1.8669295 2.2355547
1.0100814 1.8766464 2.2160904
0.99142283 1.907174 2.2461987
1.0092938 1.915433 2.2211084
-2.1755948 2.3188622 2.2406199
-2.1240451 2.3255219 2.2267909
-2.0865214 2.3295653 2.232249
-2.0349655 2.3181548 2.2358913
0.22329782 -0.5070672 2.2673559
0.22803891 -0.49440497 2.2611041
0.53949195 0.16917102 2.2657592
0.88542998 0.43855947 2.2781022
0.90959585 0.44205499 2.2576237
0.88603944 0.47449562 2.2890642
0.90874159 0.473847 2.2639642
0.8866381 0.52754915 2.2875497
0.90997255 0.52594817 2.262254
0.88919973 0.57744652 2.2832296
0.91094816 0.5708316 2.2594113
0.88794875 0.62462878 2.2836807
0.9058466 0.62606388 2.2612433
0.88560563 0.6766364 2.2858717
0.90670258 0.67076564 2.2599826
0.88867003 0.72510254 2.2836308
0.90676248 0.71672696 2.2602935
0.88920707 0.77359235 2.2802181
0.89227962 0.82649368 2.287581
0.89422703 0.87684393 2.28405
0.89014328 0.92354834 2.2907333
0.90176159 0.92897075 2.269367
0.89494932 0.97718245 2.2920885
0.90223789 0.98019981 2.2801154
0.89011794 1.0275934 2.2908754
0.90319645 1.0281627 2.2798846
0.89552307 1.0700485 2.2823009
0.90582788 1.0799568 2.2694983
0.89434332 1.1391312 2.2941968
0.90845239 1.1301556 2.2737403
0.89507467 1.1751585 2.2929893
0.91731471 1.1788932 2.2697129
0.89523548 1.2442623 2.2974815
0.91532779 1.2227455 2.272069
0.89534646 1.2772139 2.2947197
0.91638148 1.2735158 2.2688448
0.8935656 1.3296218 2.2991965
0.9147619 1.324784 2.2762642
0.89718926 1.3605697 2.2967768
0.91750091 1.3752346 2.2728026
0.89157665 1.4231064 2.2946062
0.91996598 1.4259032 2.2707915
0.91702861 1.4765416 2.2753694
0.92305321 1.5229591 2.2706647
0.92678541 1.5708398 2.2698553
0.92729908 1.6278939 2.2748327
0.93029708 1.6753994 2.2740779
0.93923539 1.7263868 2.2793248
0.95729607 1.7375978 2.2588313
0.9381029 1.7746128 2.2817559
0.95829535 1.770265 2.2585633
0.94378996 1.8218833 2.2805111
0.96029049 1.8253684 2.2601221
0.94789249 1.8618373 2.2872353
0.96444643 1.8756113 2.2711723
0.9456659 1.9202842 2.2957976
0.97260237 1.919829 2.2669039
0.95916343 1.9546032 2.2933841
-2.2746706 2.3161907 2.290303
-2.226738 2.3199823 2.2815981
-2.1695027 2.3219948 2.2699697
-2.1301422 2.3248346 2.2745087
-2.0778475 2.3221068 2.2722449
-2.0266557 2.329042 2.277812
-1.9828008 2.3257599 2.2821624
-1.9452938 2.3211291 2.2996852
-2.6202564 -0.32078558 2.3481672
-2.6185985 -0.29702908 2.3493299
0.45518598 0.15837023 2.3379869
0.52560848 0.17594448 2.32458
0.82659394 0.3973648 2.3310492
0.8412922 0.43303803 2.3383596
0.85741413 0.44193077 2.3049421
0.84362811 0.47353187 2.3394966
0.86051261 0.47701511 2.319253
0.83956742 0.53092796 2.3437994
0.86044246 0.52288908 2.3192441
0.84072703 0.57711864 2.3394959
0.86245906 0.57288826 2.3137777
0.84181815 0.62484074 2.3402848
0.86331087 0.62239116 2.3131678
0.84421158 0.67436957 2.3375659
0.86371338 0.67010272 2.3136926
0.84047174 0.72968668 2.341584
0.8625291 0.72231108 2.3181436
0.84452879 0.77661073 2.342895
0.86474735 0.77221996 2.3187914
0.84235972 0.82135886 2.3471708
0.86474741 0.82590991 2.3208015
0.84246653 0.86803824 2.3453555
0.86742491 0.87677407 2.3189676
0.84733224 0.92404246 2.3447556
0.8703143 0.92725921 2.316376
0.84137309 0.99262685 2.3472128
0.86820704 0.97415477 2.3243699
0.84434545 1.0146949 2.3496728
0.87045139 1.0250175 2.3233578
0.84612435 1.0540384 2.3424895
0.8711974 1.0772086 2.3210311
0.87327862 1.1240444 2.3212605
0.84943348 1.1876167 2.3493421
0.87147325 1.1736901 2.3219049
0.87280923 1.2258475 2.3242457
0.84837747 1.2937235 2.349241
0.87064391 1.271526 2.321465
0.87023795 1.325235 2.3258479
0.84436673 1.3720741 2.3491435
0.87209654 1.3745841 2.3231354
0.87123579 1.4237388 2.3290741
0.87520611 1.4734052 2.3277411
0.900855 1.4704574 2.3021405
0.87911302 1.5250136 2.3220384
0.8797254 1.5747582 2.3231947
0.90453023 1.5843159 2.3033006
0.88202423 1.6296937 2.3302903
0.90802175 1.6103854 2.3008618
0.88476944 1.6745071 2.3307414
0.90484071 1.669022 2.3074908
0.88646126 1.7202594 2.3398697
0.9111287 1.7286701 2.3097157
0.8922947 1.773769 2.3444498
0.91239566 1.7842354 2.3192437
0.89522314 1.8190113 2.3463686
0.92188627 1.8296969 2.3173575
0.9195962 1.8736098 2.322274
0.9234162 1.9255356 2.325428
0.9232198 1.9658258 2.3329694
-2.3726175 2.3081632 2.3351049
-2.3254616 2.3056622 2.3212252
-2.2780695 2.3109765 2.3211768
-2.228404 2.3165367 2.3302004
-2.1773992 2.3156474 2.3195596
-2.1242228 2.3275402 2.3261209
-2.0690484 2.3237686 2.3208916
-2.0191748 2.325145 2.3203235
-1.9735115 2.3226485 2.3229001
-1.9215262 2.3237064 2.3290048
0.23522103 -0.5108996 2.3916724
0.18120804 -0.46577686 2.3772373
-2.6127853 -0.32184726 2.3707449
-2.6215167 -0.27005404 2.3724
-2.5943179 -0.25067905 2.3905506
0.29361171 0.1596534 2.3744321
0.32418409 0.16832328 2.3866642
0.44484431 0.16077662 2.3757117
0.48287717 0.17286281 2.3787422
0.50452298 0.17107703 2.3504696
0.77656895 0.35715291 2.3950489
0.79611886 0.41761217 2.3895257
0.81693929 0.42573267 2.3701892
0.79477054 0.47998536 2.3970194
0.81839865 0.47470525 2.3707793
0.79577315 0.52263856 2.393925
0.81697994 0.52210087 2.3689618
0.79542577 0.56856477 2.3936012
0.81943709 0.57423514 2.3686252
0.79458761 0.622554 2.3938394
0.81585276 0.62697399 2.3700631
0.79236442 0.67412138 2.3975825
0.8169136 0.67542267 2.3724186
0.79548329 0.72555041 2.3969905
0.81774229 0.72386372 2.368881
0.79848337 0.77723742 2.3951592
0.82116812 0.77583349 2.3695149
0.79903418 0.81451929 2.3881345
0.81788594 0.82642829 2.3734887
0.82210433 0.87681043 2.3723421
0.7998085 0.94627929 2.3993957
0.82294595 0.92493385 2.3723924
0.82294804 0.97387433 2.3738937
0.82380813 1.0251943 2.3748276
0.82382709 1.0744922 2.3771441
0.85180783 1.073604 2.3540227
0.82647955 1.1262352 2.3722162
0.82594341 1.1746305 2.3758686
0.82713956 1.2267243 2.3747404
0.85330874 1.218424 2.3502016
0.82497543 1.2754961 2.3749471
0.82531613 1.3241729 2.3769748
0.85125816 1.3109726 2.3517315
0.82569969 1.3758488 2.3774858
0.82565105 1.4258312 2.3783579
0.85007375 1.4074199 2.3529835
0.8310225 1.4747167 2.3780878
0.82974541 1.5244671 2.3772695
0.85210818 1.5256594 2.3532684
0.83214873 1.5730023 2.3796282
0.85912722 1.5783923 2.3513484
0.83671492 1.6287075 2.3860762
0.8563441 1.6188446 2.3596148
0.84244412 1.6704575 2.381408
0.86032444 1.673625 2.3576882
0.84125358 1.7259586 2.3914735
0.8612541 1.7217534 2.3674455
0.84024268 1.7717372 2.3963716
0.86853898 1.7707641 2.3680832
0.8719691 1.8216836 2.3721714
0.873142 1.8736939 2.3776569
0.88307118 1.9249902 2.3773148
0.90571636 1.9482564 2.3625405
0.87923586 1.9681501 2.3802235
0.90558141 1.9924259 2.3627491
0.88055688 2.0010858 2.3823986
-2.5016117 2.3073618 2.3967936
-2.4714313 2.3145192 2.3862121
-2.4265532 2.3159449 2.3762639
-2.3789895 2.3138535 2.3772051
-2.3273411 2.3161397 2.3741162
-2.2736776 2.3156917 2.3751631
-2.2309709 2.3170209 2.3859067
-2.1763661 2.3106844 2.3565667
-2.1236823 2.321367 2.368808
-2.0766017 2.3194952 2.3771679
-2.0232143 2.3171732 2.3717589
-1.9725298 2.3147314 2.3779643
-1.9229695 2.3123503 2.3719888
-1.8853372 2.331985 2.3751075
-1.8309566 2.3251562 2.3796813
-2.4460275 -0.57623696 2.4342065
0.22744817 -0.50780272 2.4348464
0.25095245 -0.50763583 2.4325328
0.22393076 -0.47631389 2.4375975
0.25131229 -0.47880846 2.4399343
0.33809546 0.16569944 2.4032781
0.3735247 0.16862822 2.4263856
0.42245579 0.17073217 2.4300165
0.45594004 0.17428784 2.4024458
0.74995744 0.361527 2.4322255
0.77285373 0.3822557 2.4239228
0.74500489 0.43798405 2.4499567
0.77331752 0.42694932 2.4258182
0.74605846 0.47922456 2.4481342
0.77294189 0.47691491 2.4245112
0.74795377 0.52521741 2.4480696
0.77267522 0.52738935 2.4225318
0.74952126 0.5569005 2.4485512
0.77458662 0.57730132 2.4208388
0.74091846 0.63958639 2.449677
0.76912624 0.62185138 2.4260604
0.74253899 0.67183036 2.4492364
0.7686072 0.67385405 2.4266028
0.77099031 0.72509921 2.4241638
0.7727083 0.7742449 2.4255481
0.77560741 0.82376909 2.4239902
0.77688432 0.8749913 2.4239142
0.77702188 0.92421204 2.4239645
0.7768777 0.97528446 2.4270053
0.80213332 0.96776736 2.4009476
0.7808665 1.0257168 2.4243233
0.77918273 1.0731205 2.4288538
0.80079734 1.0827413 2.4063344
0.77685869 1.1224146 2.4304528
0.80295837 1.1110649 2.4042764
0.78257954 1.1735163 2.4243329
0.77912885 1.2202293 2.4268396
0.80148518 1.2298875 2.4041867
0.77917534 1.2733246 2.4280584
0.80301249 1.2515832 2.4012399
0.77984196 1.3209018 2.4289031
0.80149943 1.3416238 2.4096277
0.77956587 1.3747629 2.4292769
0.8033309 1.3643727 2.4066589
0.78189397 1.424527 2.4328616
0.80415308 1.4301027 2.406908
0.78101993 1.4753443 2.4339952
0.80380893 1.4812905 2.4086189
0.78757584 1.5233567 2.4300289
0.80913591 1.5314375 2.4047034
0.78623992 1.5729443 2.436306
0.80625129 1.5757025 2.413404
0.79199487 1.6243429 2.4394422
0.81410998 1.6219511 2.4118598
0.79464787 1.6800451 2.444998
0.81672776 1.6753819 2.4169171
0.81352007 1.7242243 2.4285214
0.82165444 1.7731314 2.4241865
0.83075947 1.8284713 2.4269648
0.85356045 1.8423632 2.4077659
0.83476013 1.8699839 2.4232426
0.85453779 1.8586709 2.4013824
0.82877105 1.9237289 2.4376254
0.85257143 1.9289212 2.411901
0.84147775 1.9761231 2.4262981
0.85908377 1.9799442 2.4053626
0.83369112 2.0208039 2.4377363
0.85864496 2.0177212 2.4113059
-2.3598247 2.2943077 2.4308136
-2.3458712 2.2982814 2.4481218
-1.9986521 2.2982926 2.4299142
-2.503849 2.3079107 2.4425454
-2.4727521 2.3101852 2.4232047
-2.4243517 2.3038025 2.4239664
-2.3750906 2.3094823 2.4169471
-2.3174989 2.319665 2.4278207
-2.2648578 2.3250344 2.4192951
-2.2224066 2.3176777 2.4220474
-2.1826601 2.3219073 2.4281449
-2.1325791 2.3145549 2.4218421
-2.0799873 2.3132532 2.4275222
-2.0297766 2.3128619 2.4119995
-1.9780761 2.3073685 2.4273338
-1.9210541 2.3182809 2.4311223
-1.8737149 2.3278327 2.4260979
-1.8260332 2.3330271 2.4244237
-1.77802 2.3235242 2.4235356
-1.7329602 2.329051 2.44631
-2.3706448 -0.61196625 2.4659498
-2.333297 -0.63355029 2.4798455
-2.2830937 -0.64367747 2.4804602
-2.4266522 -0.57124877 2.4747703
-2.3940356 -0.588 2.486551
-2.5146551 -0.52488297 2.4849677
-2.467943 -0.53587818 2.4799652
-2.4286871 -0.53366834 2.494247
0.22367547 -0.45314443 2.4666994
0.25382125 -0.4537349 2.4680443
-2.6081915 -0.24066068 2.4942818
0.6941067 0.35168681 2.46101
0.72986227 0.37880635 2.4712534
0.72775114 0.4227151 2.4762328
0.7278806 0.47387621 2.4756141
0.72513252 0.5237658 2.4751565
0.72483087 0.5738622 2.4731624
0.75131977 0.58277559 2.4504776
0.72215396 0.62626952 2.4781978
0.72270072 0.67663401 2.4765038
0.72831708 0.72608554 2.4734943
0.72405511 0.77292085 2.4784465
0.75069141 0.78510982 2.4541304
0.72801566 0.82492435 2.4778855
0.75248718 0.82447654 2.4513078
0.73094177 0.8750118 2.474407
0.75535029 0.8652122 2.451473
0.73044324 0.92499435 2.4760501
0.73127979 0.97268307 2.477936
0.75090027 0.98238134 2.4518862
0.73007709 1.0229869 2.4784491
0.75533044 1.0264583 2.4549997
0.73326802 1.0774825 2.4779346
0.75919223 1.0829546 2.4515553
0.73074186 1.1251583 2.4804671
0.75557905 1.1309162 2.4560966
0.7343303 1.1757516 2.4767942
0.75405681 1.1718037 2.4534216
0.73346072 1.2267791 2.4787695
0.75971782 1.2327788 2.4528859
0.72975641 1.2749174 2.4830041
0.75385022 1.2687504 2.4567165
0.73430234 1.3249635 2.4819438
0.75643706 1.3216087 2.459604
0.73806423 1.3718507 2.4781842
0.75983745 1.3673788 2.4541228
0.73667115 1.4246403 2.4834077
0.75401169 1.4212475 2.4643087
0.73570997 1.4741049 2.4831805
0.75761336 1.4684777 2.4577847
0.73920858 1.5240369 2.487473
0.76054007 1.528365 2.4656928
0.7431103 1.5657706 2.487236
0.76414132 1.5767282 2.4631293
0.74316871 1.6403069 2.4984603
0.76447338 1.6262963 2.4704165
0.76970214 1.6722783 2.4687762
0.77323133 1.7196074 2.4728713
0.7844829 1.7754534 2.4762094
0.78066462 1.8216527 2.4828196
0.80189615 1.8253603 2.4568164
0.78926879 1.8780786 2.4819658
0.81329167 1.8755466 2.4594495
0.78774905 1.9226394 2.4883251
0.80754 1.923364 2.4666359
0.78936458 1.975262 2.4874775
0.8177501 1.9809313 2.463521
0.79078269 2.0278227 2.4890947
0.81124085 2.0241046 2.4694438
0.79647851 2.0648859 2.4914041
0.80774564 2.0555034 2.4759908
-2.6379657 2.2864525 2.4939418
-2.4288135 2.2978499 2.4791636
-1.9960015 2.2977927 2.4729068
-2.6558688 2.3045697 2.4665823
-2.6187308 2.3073361 2.4512038
-2.5784159 2.3047097 2.4763019
-2.4037659 2.3098207 2.4729271
-2.3822286 2.3155048 2.4990811
-2.3215351 2.319036 2.4802763
-2.2749703 2.3265681 2.4591525
-2.2186842 2.3144948 2.4632115
-2.1719127 2.3210542 2.4779549
-2.1264014 2.318398 2.4613636
-2.0863657 2.3131747 2.480135
-2.04987 2.319438 2.4725349
-1.9733125 2.3099127 2.4799666
-1.9304653 2.3176434 2.478894
-1.8758888 2.319149 2.4780431
-1.8279343 2.3261154 2.4726174
-1.778318 2.3300066 2.4793408
-1.7275953 2.3360884 2.4797032
-1.6771303 2.321744 2.4686258
-1.6454362 2.324434 2.4909866
-2.3636074 -0.60844111 2.5040674
-2.3162591 -0.61708641 2.5121429
-2.2828226 -0.60816532 2.5276024
-2.2470081 -0.61156541 2.5050564
-2.3792515 -0.57794565 2.5211284
-2.3292279 -0.57951051 2.5379446
-2.4749882 -0.51070356 2.5375042
-2.4102077 -0.52582479 2.5109954
-2.3824599 -0.53604156 2.5326126
-2.5939825 -0.45632887 2.5465167
-2.6186256 -0.40859035 2.5471783
-2.6045921 -0.37322253 2.5302162
-2.586288 -0.3816871 2.5493565
-2.6122296 -0.32888612 2.5353506
-2.6090651 -0.27518332 2.5301008
-2.5951469 -0.25875279 2.5408325
-2.6028523 -0.24169013 2.519367
-2.5971618 -0.22168137 2.5305755
-2.4557455 -0.062050927 2.5307906
-2.4404607 -0.062085692 2.5444646
0.68274212 0.37720105 2.5250916
0.70606738 0.38242087 2.5009205
0.68531895 0.42841113 2.5265596
0.7074157 0.42022252 2.5016375
0.68362319 0.47458357 2.5278206
0.70877624 0.47055766 2.5004287
0.67967969 0.52340108 2.5281599
0.70033306 0.54791391 2.5065715
0.67631245 0.57200205 2.5312963
0.70214278 0.58054662 2.5081971
0.67847627 0.62507647 2.5310631
0.70252317 0.6120804 2.5044739
0.67891651 0.67593724 2.5289752
0.68146437 0.72655648 2.5240107
0.70740008 0.72952914 2.5008569
0.68052775 0.77490729 2.5243058
0.6801756 0.82405752 2.529587
0.70419765 0.82487857 2.5057702
0.68170786 0.87337583 2.5290685
0.70303237 0.8717947 2.5029163
0.68161684 0.92558223 2.5316265
0.70624989 0.9247995 2.5019114
0.68177986 0.97222 2.5308907
0.70575869 0.98631525 2.5097806
0.67909253 1.024034 2.533603
0.7069453 1.029884 2.5072439
0.68506181 1.0759208 2.532191
0.70790809 1.074105 2.5086186
0.680668 1.1248429 2.5330563
0.70810127 1.1227403 2.5049915
0.6807096 1.1764958 2.5339389
0.70833945 1.1760811 2.5068448
0.68346334 1.2225398 2.534344
0.70652759 1.2216772 2.5100534
0.68647027 1.2729895 2.5306447
0.70877165 1.2780597 2.5103548
0.68675154 1.3233212 2.5343013
0.70792639 1.3291191 2.5109036
0.68583995 1.3787884 2.5374744
0.71088338 1.3749329 2.5111382
0.68995601 1.4197385 2.5316758
0.71536064 1.4243064 2.5097663
0.69179606 1.473411 2.5430596
0.70852166 1.4721798 2.5216932
0.69279301 1.5210409 2.5429564
0.71433532 1.5237585 2.5162253
0.69962037 1.559726 2.5399218
0.7191577 1.5812711 2.5190291
0.69269288 1.6178541 2.5483243
0.72183889 1.622244 2.5221736
0.73052096 1.673875 2.520576
0.7262392 1.7279996 2.533788
0.75561607 1.7387941 2.5020199
0.73420358 1.7778138 2.5294495
0.76075935 1.7792215 2.5028205
0.73599815 1.82142 2.5330739
0.75696039 1.8239914 2.5059803
0.74022168 1.8675475 2.533917
0.76484513 1.8799658 2.5158653
0.7415989 1.9265659 2.5430295
0.7631166 1.9311227 2.5190871
0.74394506 1.9795911 2.5410471
0.76721126 1.979924 2.5206671
0.73875302 2.0257289 2.5447018
0.76726532 2.0269425 2.5176752
0.74481618 2.0801907 2.5399508
0.76734805 2.0691049 2.5166862
-2.6314993 2.2972417 2.5200236
-2.6211329 2.3047583 2.5426381
-2.5685601 2.3022261 2.5277014
-2.5313022 2.31287 2.5271006
-2.4164531 2.3123279 2.5151572
-2.3811436 2.3140152 2.5285008
-2.3304968 2.318764 2.5271907
-2.2739599 2.3168631 2.5259521
-2.2152405 2.3119271 2.5209305
-2.1816034 2.322947 2.5189414
-2.1428976 2.3192058 2.5172281
-2.0669022 2.3081369 2.528543
-2.0251012 2.3135974 2.5224798
-1.9737321 2.3138144 2.5356331
-1.9204079 2.3183432 2.5143433
-1.8757657 2.3155303 2.5246122
-1.8199341 2.318922 2.5211322
-1.7706023 2.326041 2.5246708
-1.7255108 2.326062 2.5250361
-1.6832482 2.3367462 2.5263813
-1.6291361 2.3287296 2.5259538
-1.5859017 2.3234699 2.5229917
-1.5432872 2.3225944 2.5447862
-1.6814872 2.3513272 2.5099983
-2.2598701 -0.60589588 2.5663157
-2.3094237 -0.56826526 2.5663202
-2.2887726 -0.58595037 2.5741549
-2.4275038 -0.51088089 2.5779455
-2.3574216 -0.54214501 2.5554223
-2.3223693 -0.53591782 2.580796
-2.5644917 -0.46290189 2.5712647
-2.5210578 -0.4649227 2.5834651
-2.4800463 -0.4860588 2.5777335
-2.4395692 -0.49734882 2.5935071
-2.5791066 -0.42393032 2.5671635
-2.5307102 -0.42273864 2.5946991
-2.5679109 -0.37162027 2.5715964
-2.5209434 -0.37589023 2.5937419
-2.6105008 -0.30929831 2.5511701
-2.5752578 -0.32536507 2.5756266
-2.5106456 -0.33964664 2.599577
-2.6093774 -0.29283422 2.551729
-2.5761211 -0.27648899 2.581398
-2.6026084 -0.22691824 2.5507994
-2.5747576 -0.22739328 2.584105
-2.6080029 -0.19474185 2.5583861
-2.5726326 -0.17829804 2.5852411
-2.5711195 -0.13135903 2.5774257
-2.5702112 -0.083323516 2.5686228
-2.5342512 -0.076568626 2.5809999
-2.4136884 -0.062252149 2.5753198
-2.565316 -0.029012427 2.5742013
-2.5292716 -0.039215863 2.5766389
-2.4883223 -0.047060754 2.5796037
-2.5773659 0.022051159 2.5775528
-2.5766678 0.07790333 2.5801842
-2.5820923 0.13165174 2.5814743
-2.582088 0.1806068 2.5788205
-2.5797446 0.2293369 2.573015
0.41250801 0.35980541 2.562068
0.63132304 0.37630233 2.5844958
0.65900248 0.37980098 2.5572052
0.63656759 0.42448035 2.5813167
0.66098326 0.41700289 2.5567935
0.63352686 0.47377077 2.5785534
0.65780616 0.47218826 2.5549955
0.63273621 0.52795309 2.5799778
0.65578753 0.5222562 2.5579045
0.63099068 0.57690513 2.5805063
0.65354317 0.57022792 2.5595751
0.63082355 0.62137026 2.5810277
0.65395987 0.62868935 2.5563507
0.63223279 0.67409068 2.5826662
0.65366018 0.67607766 2.5603704
0.63490462 0.72539979 2.5793035
0.6542272 0.72136199 2.5541606
0.63613951 0.77512461 2.5798638
0.65711874 0.77371961 2.5554836
0.63558054 0.82708478 2.5808854
0.65958887 0.82380438 2.5548551
0.63067716 0.87672389 2.5864518
0.65578115 0.87453616 2.5593452
0.63029832 0.92464536 2.584579
0.65766472 0.91945326 2.5579143
0.63528252 0.97512496 2.582197
0.65542966 0.97187817 2.5578105
0.63642943 1.0224278 2.5804617
0.6589064 1.0294989 2.5567904
0.63497144 1.0695499 2.5836685
0.65730494 1.0787804 2.5592515
0.63316303 1.122057 2.584996
0.65314096 1.1208057 2.5643492
0.63721579 1.1774139 2.5842485
0.65918469 1.1687968 2.5604722
0.63741481 1.227887 2.5845649
0.66389793 1.2274382 2.5615485
0.63463122 1.2763066 2.5875158
0.65705687 1.2739416 2.5615981
0.64130777 1.3272759 2.5837605
0.66146839 1.3300307 2.5609837
0.64251226 1.3746499 2.5884044
0.66389251 1.3758572 2.5608578
0.64646196 1.4247483 2.5876317
0.66636002 1.4285001 2.5682952
0.64491367 1.4714108 2.5958557
0.66787988 1.4722581 2.5666456
0.64891237 1.5156173 2.5966616
0.67058277 1.5263271 2.5756855
0.67573273 1.5727148 2.5733049
0.67772728 1.6257066 2.579726
0.70020545 1.6496273 2.5688612
0.68000442 1.6709692 2.5808039
0.70958698 1.690619 2.5572791
0.68820971 1.7227938 2.5827327
0.70454669 1.7099552 2.5589285
0.68682843 1.7739601 2.5868907
0.70733356 1.7743254 2.5628688
0.68536347 1.8167907 2.5817423
0.71054929 1.8291374 2.5684941
0.69349366 1.8707777 2.5869217
0.72067463 1.8783114 2.5600772
0.68993288 1.9249665 2.5977628
0.71727049 1.9263905 2.5672815
0.69498634 1.9766525 2.5937052
0.71830839 1.9739832 2.5695837
0.69899875 2.0183079 2.5894308
0.71838933 2.0239511 2.5713806
0.69065934 2.0764983 2.5933349
0.71578419 2.0716259 2.5724678
0.69621271 2.1239877 2.5933363
0.72132224 2.1075461 2.5661657
-2.6257927 2.3064575 2.5930796
-2.5716255 2.3114421 2.5932634
-2.5451486 2.3065681 2.5537288
-2.4902034 2.3087673 2.5745528
-2.4199977 2.3054738 2.5716686
-2.3738322 2.3247752 2.569535
-2.322367 2.3150687 2.5772891
-2.2612686 2.3136411 2.583353
-2.2312717 2.3198676 2.5694757
-2.1925316 2.3169184 2.5686908
-2.1023576 2.3066723 2.5905573
-2.0661876 2.304425 2.5666604
-2.0345566 2.3077984 2.5717857
-1.9707022 2.3169713 2.5642684
-1.9315258 2.325835 2.5758383
-1.8715408 2.3271117 2.5848641
-1.8173772 2.3295753 2.583401
-1.7805338 2.3349078 2.5865798
-1.7176871 2.3261836 2.5696752
-1.6780069 2.3317211 2.5711839
-1.6202859 2.3313317 2.5832496
-1.5786433 2.3373871 2.5760651
-1.5227972 2.3320251 2.5786765
-1.4146762 2.3047841 2.5844924
-2.263216 -0.61073619 2.6353898
-2.239697 -0.61537641 2.6466942
-2.2845213 -0.57282048 2.6232648
-2.4315386 -0.50069165 2.6302614
-2.3621166 -0.50892913 2.6120443
-2.3324988 -0.509462 2.6389308
-2.2772176 -0.52610308 2.6253638
-2.5024083 -0.45466271 2.6065927
-2.4709814 -0.46874547 2.6284711
-2.4198115 -0.47735789 2.6259763
-2.3801503 -0.48358816 2.6335797
-2.3479755 -0.49508944 2.6439445
-2.5073106 -0.42295465 2.61637
-2.4821227 -0.42286554 2.6356661
-2.4254861 -0.42354733 2.6371765
-2.3878109 -0.43248928 2.6375866
-2.5426331 -0.3580631 2.6001437
-2.476299 -0.37114075 2.6118546
-2.4341512 -0.38526827 2.6190562
-2.3823204 -0.39145657 2.6368306
-2.5208652 -0.32271028 2.6120293
-2.4756844 -0.3276895 2.6325431
-2.4191656 -0.31606951 2.6458757
-2.3813505 -0.31126881 2.6447327
-2.5206075 -0.2758511 2.6163509
-2.4917727 -0.28446609 2.6464975
-2.4060421 -0.28024912 2.6449256
-2.381866 -0.28732109 2.6475978
-2.5212851 -0.2270626 2.6210561
-2.5206015 -0.17812824 2.6235383
-2.5582595 -0.12131989 2.6041017
-2.5237799 -0.12943092 2.6292522
-2.513921 -0.096443526 2.620199
-2.4765441 -0.083743922 2.6191959
-2.4168024 -0.07895942 2.6229582
-2.3753655 -0.067689523 2.612709
-2.3448684 -0.072863244 2.6282146
-2.5188534 -0.023385054 2.6266546
-2.4641354 -0.047256 2.614342
-2.4449539 -0.047383498 2.639055
-2.5557482 0.017390618 2.6037188
-2.5250134 0.017359739 2.6330316
-2.5580919 0.074519716 2.6051183
-2.5268917 0.074507348 2.6340334
-2.5622432 0.13185407 2.6073172
-2.5285323 0.1317565 2.6337366
-2.5593722 0.18442439 2.6137905
-2.5261309 0.17859851 2.6375554
-2.5592563 0.22697087 2.6106954
-2.5276234 0.23246424 2.6354039
-2.4878924 0.25992098 2.6131766
0.43871346 0.38482639 2.6162956
0.45111784 0.39675766 2.6376336
0.5829469 0.37760714 2.6351619
0.60767031 0.38105524 2.6125133
0.43787709 0.40913823 2.6350825
0.45039546 0.40889937 2.632108
0.58335298 0.42549533 2.6377001
0.60993111 0.42797822 2.6078415
0.58343238 0.47340822 2.6381378
0.61053789 0.48183188 2.6099346
0.58496201 0.52364951 2.6331894
0.60878706 0.51841819 2.6091645
0.58614343 0.57654256 2.6312282
0.60734892 0.57424182 2.6065872
0.58647388 0.62553018 2.6303563
0.60895407 0.6251424 2.6057508
0.58406895 0.67341661 2.6309762
0.60834754 0.68021095 2.6056008
0.58169019 0.72641283 2.63551
0.6060037 0.72340286 2.6095185
0.58213925 0.77084178 2.633841
0.60909992 0.7753489 2.6089511
0.58560842 0.82621396 2.6340625
0.6104517 0.82275772 2.6050508
0.58635366 0.87537992 2.6331854
0.6072818 0.87329561 2.6101794
0.58608669 0.92438889 2.632936
0.60927409 0.92225689 2.6076899
0.58440989 0.97526878 2.6393692
0.60631263 0.97423619 2.6126449
0.58628035 1.0253222 2.6352866
0.60869271 1.0246512 2.6103663
0.58643949 1.0797552 2.6356549
0.6122213 1.0728816 2.6086886
0.58678681 1.1230633 2.6358356
0.61090881 1.126556 2.6109426
0.58777076 1.167046 2.6360745
0.61159247 1.1761481 2.6123166
0.5875476 1.2255086 2.639888
0.61111563 1.2215358 2.614609
0.58785665 1.2772795 2.6412971
0.61290032 1.2758614 2.6145627
0.5971806 1.3188651 2.6326032
0.61847138 1.329842 2.6161594
0.58903545 1.3665231 2.647398
0.61311883 1.3766662 2.6194429
0.59145653 1.4001364 2.6474955
0.62193644 1.4271305 2.6225939
0.6238355 1.4747406 2.6257594
0.623169 1.5200282 2.6264784
0.65270865 1.5386045 2.6055357
0.62826645 1.5721382 2.6313231
0.65703905 1.5843503 2.6065009
0.63354355 1.6247063 2.6292076
0.66026199 1.6206914 2.6057377
0.63554603 1.6753358 2.6283593
0.65381277 1.6837064 2.6188097
0.638506 1.7299101 2.634583
0.66489887 1.7232529 2.6095951
0.64184451 1.7609546 2.6369267
0.66013253 1.7747563 2.6190073
0.64047873 1.8219808 2.6391594
0.66416395 1.8256807 2.6156418
0.64702821 1.87802 2.6452539
0.67009825 1.8733902 2.6184433
0.6434961 1.9197857 2.6457052
0.66705459 1.9250009 2.6217186
0.642344 1.984628 2.6463318
0.67075717 1.9757242 2.6215024
0.64145368 2.0308499 2.6440849
0.67250198 2.0220027 2.6153848
0.66429186 2.0742562 2.6265762
0.64078194 2.1210949 2.6473579
0.66823411 2.1200807 2.6198466
0.65985179 2.1559746 2.6425962
-2.4404039 2.2966759 2.6131716
-2.6218774 2.3199413 2.6229246
-2.5214238 2.3178058 2.6436963
-2.469275 2.3061109 2.6098173
-2.4072139 2.3107057 2.6153989
-2.3828998 2.314364 2.6402974
-2.3357649 2.3143873 2.6260786
-2.2863564 2.3207102 2.6255293
-2.2323372 2.3122642 2.6171863
-2.1325252 2.3017886 2.6065445
-2.0826042 2.3052881 2.6166799
-2.021585 2.3248367 2.6315825
-1.9726213 2.3180885 2.622822
-1.9245274 2.3216171 2.6233974
-1.8845307 2.3154554 2.6312418
-1.8280722 2.3173065 2.6231387
-1.7725905 2.3231266 2.620723
-1.7203083 2.3206351 2.6241245
-1.6806825 2.3269165 2.6187799
-1.6281339 2.3211091 2.6125982
-1.5781639 2.3286273 2.6273062
-1.5212135 2.3278284 2.6210237
-1.4836242 2.3393607 2.6186604
-1.4290197 2.3281655 2.6106553
-1.3779652 2.3273892 2.6336074
-1.3433955 2.3258088 2.6471157
-2.2297163 -0.60116708 2.667856
-2.2595477 -0.57377487 2.6603923
-2.2249658 -0.57461894 2.6790161
-2.1736729 -0.55154228 2.6982446
-2.3096466 -0.51150388 2.6730533
-2.2691596 -0.52365613 2.6684358
-2.2332985 -0.52887213 2.6696568
-0.37603348 -0.52317643 2.6923494
-2.3845308 -0.46823946 2.6697648
-2.3841238 -0.4186357 2.6659195
-2.3721309 -0.37431186 2.6807294
-0.36073381 -0.37697485 2.6927571
-0.34640437 -0.37553635 2.6835949
-2.4699397 -0.31640682 2.6505911
-2.4417491 -0.30679107 2.6514237
-2.3754301 -0.32521817 2.6745989
-2.4796724 -0.27225009 2.6575654
-2.4370534 -0.27030861 2.6571531
-2.3884537 -0.27301729 2.6714697
-2.4817407 -0.22754066 2.6622036
-2.4263191 -0.22529225 2.6595042
-2.3924205 -0.22425283 2.66449
-2.4768724 -0.17856489 2.6688344
-2.4187379 -0.17398538 2.6787262
-2.3969481 -0.19246788 2.6716566
-2.4788709 -0.12970898 2.6733568
-2.4162195 -0.12862502 2.681097
-2.459203 -0.096274979 2.653373
-2.4241028 -0.095878482 2.6605949
-2.3787811 -0.084863871 2.6759408
-2.3296301 -0.078809485 2.6754084
-2.4736242 -0.023484387 2.6701813
-2.4389405 -0.035618421 2.6857448
-2.477937 0.025463266 2.6747067
-2.4444804 0.017246831 2.6995723
-2.479888 0.082678676 2.6757746
-2.481374 0.13179114 2.6756158
-2.4449899 0.11521726 2.6979532
-2.5000992 0.19740649 2.6615479
-2.4828448 0.17905298 2.6786466
-2.5030313 0.22222477 2.6629539
-2.4815958 0.23269521 2.6786358
-2.4397931 0.26075935 2.6679749
0.48524106 0.35175541 2.6866896
0.53687561 0.37582842 2.6824822
0.56047708 0.37586799 2.6603303
0.53728753 0.42286029 2.6866848
0.55738395 0.4264991 2.6618085
0.44514701 0.45492169 2.6746032
0.53474545 0.4790265 2.6878507
0.55686069 0.47551829 2.6645486
0.53325683 0.52816164 2.688931
0.5582937 0.52898651 2.6647687
0.5344854 0.57518703 2.6854761
0.55862695 0.57503408 2.6599734
0.53601021 0.62523794 2.6857834
0.559044 0.62508237 2.6590877
0.53430319 0.67541724 2.6852469
0.56094044 0.67604733 2.6600101
0.53351283 0.72594124 2.685786
0.55957031 0.72096026 2.6571612
0.5376001 0.77554584 2.6841679
0.56329006 0.77613664 2.6594155
0.53699297 0.82431698 2.684835
0.56517005 0.81903374 2.6554463
0.53405744 0.87341195 2.6884601
0.5568822 0.87379527 2.6637945
0.53597367 0.92374712 2.6871634
0.55910987 0.92416167 2.6634955
0.53800446 0.97463655 2.6857541
0.56067097 0.97376913 2.659241
0.53996211 1.0209805 2.6788981
0.56347871 1.0258952 2.6601236
0.53934836 1.07374 2.6857889
0.56552225 1.0702462 2.6584558
0.53976798 1.1278082 2.6919563
0.55945891 1.1242175 2.6661627
0.53633392 1.1736339 2.6905887
0.56167233 1.1734871 2.6656401
0.53980029 1.2256838 2.6938004
0.56374115 1.2225527 2.6679585
0.54474443 1.2747769 2.6934638
0.56459624 1.2749087 2.6645467
0.54936701 1.3018671 2.6899905
0.56934035 1.3242834 2.6690917
0.56474519 1.3733267 2.6771193
0.57360673 1.4281496 2.6689217
0.58276147 1.475059 2.6697059
0.60019982 1.4918981 2.6577468
0.57754296 1.5261521 2.6812253
0.60036027 1.506514 2.652422
0.5798226 1.577299 2.6828263
0.6075958 1.5894299 2.6557574
0.58656985 1.625744 2.6784348
0.61080003 1.6267442 2.6563597
0.58444494 1.672043 2.6846943
0.61255085 1.6776676 2.6630464
0.58810091 1.7241371 2.6870916
0.6130442 1.7257515 2.6635535
0.59002846 1.7742374 2.691874
0.62202609 1.7784989 2.6618383
0.58761901 1.8194312 2.6911907
0.61334813 1.8219327 2.6710856
0.59335029 1.8750573 2.6968527
0.62134117 1.8758732 2.666115
