ply
format ascii 1.0
comment PCL generated
element vertex 1497
property float x
property float y
property float z
element camera 0
property float view_px
property float view_py
property float view_pz
property float x_axisx
property float x_axisy
property float x_axisz
property float y_axisx
property float y_axisy
property float y_axisz
property float z_axisx
property float z_axisy
property float z_axisz
property float focal
property float scalex
property float scaley
property float centerx
property float centery
property int viewportx
property int viewporty
property float k1
property float k2
end_header
-0.2766737 2.3637238 3.0775244
-0.22746956 2.3653545 3.0795398
-0.17109482 2.3613095 3.0805852
-0.11812421 2.3637443 3.0688803
-0.074445002 2.3666596 3.0737991
-0.027145267 2.3679972 3.0761793
0.026355293 2.363764 3.0791106
0.074555695 2.3591905 3.08097
0.12714668 2.358916 3.0792112
0.17003903 2.3548427 3.0553617
-3.8947051 -0.5532093 3.1209223
-3.9159758 -0.52118826 3.1223383
-3.8963101 -0.53275913 3.1453667
-1.9179422 -0.50946867 3.1093721
-1.8819357 -0.51057374 3.1255267
-3.9036725 -0.4862625 3.1167879
-1.9652938 -0.46441185 3.1150129
-1.9299713 -0.47580966 3.1349559
-1.8722639 -0.47076386 3.1390707
-3.9218259 -0.44390887 3.136529
-3.898119 -0.4190523 3.1199889
-1.9769688 -0.42283311 3.1205297
-1.9208438 -0.42436662 3.1285474
-1.8703272 -0.42545015 3.1298676
0.18280347 -0.41762769 3.1055441
-3.9170859 -0.37653789 3.139611
-2.000237 -0.35622248 3.1286604
-1.9779804 -0.37472692 3.1311908
-1.9282868 -0.3671239 3.1319115
-1.8734249 -0.3673954 3.123121
-1.8373909 -0.38943043 3.1059093
0.1315514 -0.368083 3.1343923
0.15803321 -0.36318251 3.1129062
-3.9062927 -0.33104891 3.1349685
-2.0004089 -0.32227972 3.1316843
-1.98665 -0.32281193 3.1450193
-1.9187657 -0.3284713 3.140831
-1.8832086 -0.31831428 3.1359017
0.13932958 -0.33117756 3.1428041
0.16052359 -0.32834974 3.1154366
-3.9142206 -0.2871874 3.1447973
-3.8866525 -0.26305434 3.1241789
-2.0032544 -0.25469032 3.1408713
-1.9903142 -0.27472585 3.1401896
-1.8748673 -0.27637902 3.1427073
0.17207615 -0.28334236 3.1151385
-3.9006083 -0.21961845 3.1380892
-2.0031686 -0.22008093 3.1310675
-1.9991742 -0.21079443 3.1195097
-3.9053924 -0.15323284 3.1450233
-3.8745937 -0.17406785 3.1193278
-2.0039721 -0.18512644 3.1108444
-1.9916122 -0.16582711 3.1409347
-1.8723499 -0.16711456 3.1441398
-3.9043531 -0.13097899 3.1449585
-3.8804464 -0.10809961 3.126343
-2.0015774 -0.10905579 3.109782
-1.986949 -0.12142919 3.1350894
-3.88272 -0.086072288 3.1286876
-2.0097389 -0.06703271 3.114696
-1.9952191 -0.067259371 3.135339
-3.9081514 -0.042164363 3.1498303
-3.8980484 -0.01987651 3.1418202
-2.0072281 -0.027760943 3.1314108
-1.9994245 -0.016483899 3.1424403
-3.9022098 0.04671184 3.1448028
-3.8981018 0.013394851 3.1418056
-2.0131302 0.017392755 3.1117613
-1.997003 0.017447688 3.1385753
-3.8944664 0.079853237 3.1379297
-2.0141001 0.068069555 3.1126862
-1.9910727 0.064974211 3.1426752
-3.9051981 0.11341114 3.1456861
-2.012224 0.12113601 3.1214714
-1.9996721 0.10239483 3.1414843
-3.9134474 0.18045802 3.1496458
-3.8945594 0.15742509 3.1354625
-2.0142374 0.17014462 3.1271548
-3.9080296 0.22472152 3.1427908
-3.8887711 0.22357917 3.1273694
-2.0142286 0.22338139 3.1288898
-3.9121637 0.28058779 3.142406
-2.0186062 0.25550747 3.129427
-3.914613 0.33645353 3.1398284
-3.8933403 0.35678291 3.1207302
-3.9292634 0.41600066 3.1438084
-3.9503598 0.54187822 3.1452932
-3.9394257 0.51795554 3.1396668
-3.9501557 0.58681893 3.1385744
-3.9384687 0.56266475 3.1326187
-3.9361777 0.61832201 3.1222277
-3.966706 0.67959636 3.1370454
-3.9402573 0.6750415 3.1160707
-3.9643943 0.73560762 3.1250231
-3.9333484 0.72270727 3.1428516
-3.9722376 0.79360855 3.1202483
-3.9429169 0.77571076 3.1269808
-3.9860783 0.83574408 3.1367676
0.16140939 0.84374923 3.1185353
0.21642227 0.8048172 3.1095476
-3.9775801 0.87393463 3.1077752
-3.9288542 0.88435274 3.1473386
0.13857684 0.88126582 3.1433659
0.15601823 0.87498891 3.106122
-4.0078483 0.93763024 3.118552
-3.9847536 0.92347449 3.1232448
0.13621363 0.92329961 3.134176
0.15685281 0.92556763 3.1137636
-4.0054679 0.98268539 3.1058667
-3.9734073 0.96895856 3.1237178
0.13507757 0.97239304 3.1341836
0.16095507 0.98464662 3.10707
-4.0177302 1.0085702 3.1097674
-3.9641535 1.0121403 3.132973
0.13563073 1.0228606 3.1369534
0.15787503 1.031723 3.1127574
-4.0141087 1.0677997 3.1124012
-3.9818616 1.0538125 3.1304746
0.13762558 1.0697424 3.1372867
0.16450958 1.0841872 3.1102099
-3.9824533 1.1028419 3.1388884
0.13691759 1.1263865 3.1446445
0.16370149 1.1186917 3.106591
-3.9887071 1.1505225 3.1310854
0.13871276 1.1722248 3.1390371
0.15944563 1.1664182 3.1136692
0.1415942 1.230924 3.1363578
0.16407476 1.2225709 3.1143634
-4.0026703 1.269833 3.1081495
-3.9891536 1.2959175 3.1305552
0.13981989 1.2763574 3.1384244
0.16692924 1.27257 3.1109631
-3.9995456 1.3224667 3.1313968
0.14274967 1.3321767 3.1360867
0.16904753 1.320847 3.1084034
-4.0197349 1.3757249 3.1321852
-3.9821641 1.3707354 3.1430318
0.14204399 1.3805442 3.1370537
0.16993688 1.3752276 3.1103144
-4.0133772 1.42414 3.131773
0.14770722 1.4209175 3.1321869
0.17222007 1.4253013 3.1088574
0.14871086 1.4707583 3.140368
0.17021975 1.4735749 3.1179259
0.1498441 1.5386707 3.1449585
0.17413478 1.5215132 3.1165628
0.16591105 1.5757002 3.1293349
-4.0591326 1.6219934 3.12499
-4.0240164 1.6173221 3.1378565
-3.9925101 1.6258019 3.148994
0.17300552 1.6291367 3.1453955
0.23193546 1.6438648 3.1209126
-4.06634 1.6722879 3.1127987
-4.024662 1.6696297 3.1405587
0.18521257 1.6956035 3.1462107
0.21318841 1.6633488 3.1290634
-4.061429 1.7225983 3.1107461
-4.0336432 1.7185087 3.13743
0.17746153 1.7332727 3.1419601
0.20618647 1.7260898 3.115448
-4.0571265 1.7614583 3.1133859
-4.0401578 1.776283 3.1354423
0.18074977 1.7715317 3.1374795
0.20979285 1.777065 3.1098342
-4.0711503 1.849932 3.1351862
0.18747663 1.8247119 3.1399617
0.20738989 1.8292472 3.119947
-4.0501533 1.875258 3.1491032
0.18848553 1.8680712 3.1421657
0.21255097 1.8757426 3.1183429
-4.0539784 1.9010859 3.1420012
0.18952133 1.9204764 3.1403463
0.21514902 1.9222885 3.1138995
0.22035155 1.979249 3.121073
0.22242086 2.0247612 3.1195264
0.19306993 2.0680695 3.1452973
0.2290577 2.0744946 3.1080785
0.19484873 2.1477804 3.1428523
0.21777713 2.1213205 3.1303372
0.19590425 2.1855683 3.1458082
0.21845523 2.1728661 3.1159301
0.19106783 2.2348616 3.1414239
0.21870524 2.2309389 3.1115751
0.18360056 2.2775865 3.1347349
0.21389863 2.2789536 3.1042669
-2.3856583 2.3310266 3.1415224
-2.3177435 2.3243454 3.1187115
-2.2669492 2.3236933 3.1237884
-2.2241378 2.3309934 3.1387229
-2.1706314 2.3260412 3.1107588
-2.1282825 2.333034 3.1243668
-2.0770409 2.3196929 3.1213086
-2.0289474 2.3298383 3.1267295
-1.9776665 2.3256569 3.1234612
-1.9222237 2.3207126 3.1256413
-1.8819156 2.3233943 3.1235168
-1.8141799 2.3302574 3.124033
-1.7739047 2.3279214 3.1399639
-1.7303345 2.3225255 3.1180439
-1.6822271 2.3266888 3.1365399
-1.6091547 2.3228357 3.1194041
-1.5719138 2.3329768 3.1307492
-1.5212932 2.3337772 3.1180413
-1.4865998 2.3346384 3.1196973
-1.4255284 2.3349986 3.120234
-1.3939862 2.3320882 3.1379855
-1.3291073 2.3350637 3.1257374
-1.2768295 2.3333361 3.1215107
-1.1677631 2.3365128 3.122745
-1.1293663 2.3419447 3.1232209
-1.0748541 2.3420968 3.1241884
-1.0308118 2.3440907 3.1166515
-0.91833293 2.3442636 3.1272542
-0.89882487 2.3495874 3.1210439
-0.66721296 2.3473186 3.1290994
-0.59309411 2.346621 3.122581
0.075072199 2.3488975 3.11836
0.13076778 2.3402438 3.1297891
0.18023145 2.3127286 3.1177113
-1.1374098 2.3586533 3.1455617
-0.97730047 2.3523216 3.1303205
-0.87453043 2.3571584 3.1374283
-0.82491589 2.3557081 3.1244369
-0.76992887 2.3602345 3.1277187
-0.71897346 2.3565567 3.1206009
-0.67543715 2.3565233 3.1165917
-0.63157064 2.3569522 3.1305914
-0.56789517 2.3619473 3.1295681
-0.5221467 2.3573244 3.1297736
-0.47694468 2.3632917 3.1262043
-0.42299554 2.3608789 3.1292264
-0.37295538 2.3613839 3.1315737
-0.32734066 2.3588159 3.1299536
-0.28014839 2.3669226 3.1328971
-0.22175528 2.3646131 3.1250231
-0.17322396 2.3638997 3.1351154
-0.11930853 2.361171 3.1164052
-0.075178079 2.3632855 3.1203325
-0.034513593 2.364912 3.126462
0.018593192 2.3581815 3.1176624
0.075318798 2.355617 3.1272399
-3.8677361 -0.55420589 3.1595285
-3.8457019 -0.554295 3.1820085
-3.8704648 -0.51957494 3.1747241
-3.8890762 -0.47754744 3.1669049
-1.9113969 -0.46572894 3.1515205
-1.8802476 -0.4727746 3.1524794
-3.8935702 -0.44329137 3.1541977
-1.952616 -0.44193664 3.1503394
-1.8611642 -0.40656355 3.1814358
-1.866044 -0.37255225 3.180764
-3.9202073 -0.31863835 3.1744201
-1.965816 -0.3186461 3.1561527
-1.9395151 -0.32162061 3.1516693
-1.8809546 -0.32222578 3.18594
0.12481353 -0.34772673 3.1558254
-3.9070382 -0.28835896 3.1795886
-3.8693583 -0.26422375 3.1707039
-1.962343 -0.27171785 3.159143
-1.9228529 -0.2706686 3.1617742
-1.8876846 -0.25294057 3.1657679
-3.921025 -0.24307455 3.1532264
-3.8717041 -0.23106638 3.1746855
-1.971493 -0.22093631 3.1626482
-1.9272281 -0.22078067 3.1796138
-1.8941126 -0.21987133 3.1783855
-3.9223919 -0.19853023 3.1567762
-3.8670907 -0.17520216 3.1696429
-3.8366473 -0.16392481 3.1897178
-1.9650086 -0.17214477 3.1645768
-1.923793 -0.16940038 3.1762531
-1.8817272 -0.17718285 3.1774414
-3.8668108 -0.12340146 3.1686647
-3.8488486 -0.10856584 3.1813967
-1.9660858 -0.11628657 3.1682074
-1.9324821 -0.11899239 3.1922944
-3.915314 -0.064518407 3.1553419
-3.8653555 -0.071641631 3.1686981
-3.847223 -0.086379252 3.1805739
-1.9706099 -0.067621894 3.1663988
-1.9425526 -0.067841984 3.1920223
-3.8683944 -0.03107637 3.1784
-1.9709774 -0.025067652 3.1674337
-1.9409968 -0.025137208 3.1899078
-0.42564195 -0.015282472 3.1973286
-3.8688035 0.019977648 3.1746242
-3.8493965 0.046498079 3.182796
-1.9701917 0.017502526 3.1661646
-1.9415308 0.017539196 3.1907711
-3.8744721 0.079841778 3.1621509
-3.8485503 0.079711668 3.1814632
-1.968145 0.071091734 3.1723659
-1.9434105 0.068802208 3.1932945
-0.42232621 0.091386877 3.1715171
-3.9129608 0.13590258 3.1511719
-3.8648713 0.12421796 3.1733031
-1.9717197 0.11973125 3.1668394
-1.9418327 0.11995941 3.1895187
-0.4291524 0.12509795 3.1754208
-3.8741014 0.16898532 3.1790876
-1.9750968 0.17113329 3.1704471
-1.9454832 0.17151682 3.1937084
-0.4286553 0.17050862 3.1780179
-3.8785365 0.22482218 3.1797235
-1.9774139 0.22297302 3.1788027
-1.9493273 0.20611681 3.1984899
-0.42469612 0.22969837 3.1846626
-3.8782616 0.28046063 3.1757569
-3.8320951 0.2683526 3.199574
-2.13907 0.29682946 3.170321
-1.9855434 0.25780618 3.1827924
-3.9478805 0.31684515 3.1684484
-3.8794305 0.32507914 3.1731246
-2.1522844 0.33104971 3.152236
-2.1482346 0.31560412 3.1825788
-3.9395409 0.38343763 3.1555731
-3.8839049 0.37004817 3.1726515
-2.1845584 0.35366908 3.198004
-3.9078474 0.4383882 3.1646385
-3.8820043 0.42058563 3.1760049
-3.845139 0.43623412 3.1947284
-3.9649401 0.49874252 3.1629744
-3.9250307 0.48061058 3.1599941
-3.8676682 0.48548555 3.1802537
-3.8472838 0.46989879 3.192508
-3.9180954 0.52924991 3.1615753
-3.8763688 0.52806699 3.1887205
-3.924336 0.57502675 3.1601529
-3.8912683 0.5734207 3.1740654
-3.9157395 0.62035513 3.1666002
-3.8776109 0.60832632 3.198561
-3.9283223 0.66744941 3.1692567
-3.88924 0.68897527 3.1948075
-3.9104354 0.72257143 3.1650269
-3.8883719 0.73387218 3.1857724
-3.9178627 0.78560942 3.1729679
-3.8977637 0.76949805 3.1868958
-3.9138625 0.82698202 3.1679516
0.1892187 0.83394068 3.1610343
-3.9194329 0.87049276 3.1702378
0.09239006 0.88449764 3.1902459
0.12004447 0.87497854 3.1650872
-3.9526775 0.93524134 3.155926
-3.9269941 0.90912974 3.1609416
-3.8959157 0.92308992 3.1798809
0.093884565 0.92677629 3.1891665
0.11579756 0.92606133 3.1664717
-3.9226248 0.97031176 3.1846929
0.094042793 0.97140288 3.1858552
0.11295554 0.98116255 3.1630595
-3.9243596 1.0211091 3.1804726
0.094349653 1.0257599 3.1856139
0.11311836 1.0215638 3.159271
-3.9578559 1.0793839 3.1661606
-3.9364226 1.0624131 3.1802464
0.094613947 1.0759587 3.1840324
0.11683379 1.0785948 3.1638706
-3.9307387 1.1313198 3.1811147
0.098697923 1.120719 3.1776531
0.1138211 1.1220775 3.1571374
-3.9284825 1.1724966 3.1780233
0.091462076 1.1766338 3.1893499
0.11855806 1.177319 3.1671576
-3.9205511 1.2194813 3.1783378
0.091777526 1.2286317 3.1880834
0.12113824 1.2222192 3.1617308
-3.9705803 1.2973288 3.1563091
-3.9453409 1.2503169 3.1913538
0.08949551 1.2711762 3.1913803
0.10915961 1.2779632 3.1693959
-3.9681962 1.3466878 3.1598296
0.084518909 1.3113518 3.1950307
0.11586598 1.3219863 3.1672993
0.11452595 1.374413 3.1723616
-3.9240561 1.4443828 3.1948628
0.11699864 1.4230857 3.1719582
0.11995793 1.4721193 3.1756194
0.12875615 1.5152663 3.1690528
0.15001777 1.5242316 3.1542418
0.12868936 1.5702176 3.1786399
-3.9769681 1.610137 3.1696227
0.12641889 1.6225901 3.1901746
0.15220168 1.6369472 3.1676331
-3.9867673 1.6852831 3.1871057
0.1327256 1.6712824 3.1867194
0.16880764 1.6700264 3.1585457
0.21024686 1.6901643 3.1535053
-4.0099626 1.7257982 3.171092
-3.9913788 1.7398704 3.192317
0.13224936 1.731691 3.1901004
0.16475524 1.719418 3.172631
0.21913256 1.7199135 3.1524804
-4.01441 1.7828288 3.1674137
-3.9799724 1.7638677 3.1939492
0.13284124 1.7672631 3.1928852
0.15978435 1.7783133 3.1625671
-4.0268917 1.8340582 3.1660128
0.13954832 1.8265474 3.1996109
0.16374324 1.8307242 3.1694138
-4.0365276 1.8624597 3.1636028
-3.997508 1.8849397 3.1834736
0.1646973 1.8835907 3.1693285
-4.0212793 1.9266226 3.1665616
0.14062639 1.9088811 3.1947105
0.16568269 1.9289017 3.1730134
-4.0242805 1.9660517 3.1752472
-3.9902961 1.9530926 3.1924276
0.14184266 1.9770052 3.1987877
0.17495251 1.9802625 3.1670659
-4.0519385 2.0201099 3.1792688
-4.0192852 2.0280056 3.1886835
0.17583923 2.0274556 3.1651175
-4.0067816 2.0826101 3.1974235
0.16870177 2.0764229 3.1767006
-4.0250516 2.1287923 3.1951125
0.14444208 2.1358955 3.1972699
0.17574795 2.1270182 3.1726639
-4.008698 2.1820557 3.1998906
0.14528735 2.1836507 3.1975489
0.17058311 2.1785736 3.1715589
0.14577051 2.2263138 3.1890872
0.17126179 2.2223296 3.1649933
0.13581176 2.2761068 3.1831236
0.16333741 2.2691588 3.1619806
-2.3681014 2.3235748 3.1655066
-2.3309095 2.3170774 3.1765676
-2.2734735 2.3205066 3.1752434
-2.2259197 2.3232369 3.1748924
-2.1595089 2.3161831 3.1755018
-2.1354847 2.3218837 3.1750257
-2.0663984 2.3175237 3.1731241
-2.024658 2.3279042 3.1746061
-1.9762254 2.327363 3.175714
-1.8693038 2.3292718 3.1756215
-1.8279915 2.3285789 3.1602519
-1.7652271 2.3225393 3.1804137
-1.715942 2.3275051 3.1668763
-1.6769991 2.336355 3.1774271
-1.6219682 2.3359568 3.1790085
-1.5707502 2.3309271 3.1925478
-1.5318134 2.3343906 3.171221
-1.4744298 2.3402665 3.1719804
-1.4190099 2.3393011 3.1812835
-1.3760312 2.3397546 3.177213
-1.3238045 2.3304648 3.1812179
-1.2715728 2.3391137 3.1720614
-1.1661803 2.3425832 3.1910367
-1.1375595 2.3469894 3.1800931
-1.0812297 2.3382902 3.1703837
-1.0210533 2.3452206 3.1587806
-0.98600394 2.3489656 3.1734529
-0.87882215 2.3413739 3.169503
-0.83971059 2.3429608 3.1619091
-0.7396636 2.342381 3.1813774
-0.62755042 2.3485475 3.1732922
-0.55491221 2.346853 3.1818519
-0.013391532 2.3464489 3.1847706
0.022434771 2.3472633 3.1858118
0.080700368 2.3444736 3.1899784
0.12308523 2.316921 3.1716015
-1.5449753 2.3543963 3.1984496
-1.2101318 2.3557992 3.1975002
-1.1995218 2.3536847 3.1580324
-1.026669 2.3581083 3.1761885
-0.9612363 2.3543484 3.1749287
-0.94111764 2.3606071 3.1826143
-0.82273251 2.3554788 3.1649256
-0.77636826 2.3544414 3.1693435
-0.72206569 2.3578053 3.1790154
-0.66758817 2.3624616 3.1860707
-0.60944337 2.3573556 3.1704769
-0.56152117 2.3548427 3.1562476
-0.5241034 2.3556476 3.1744502
-0.48151383 2.3589575 3.1725333
-0.42635319 2.3525789 3.170167
-0.36874035 2.3616025 3.179513
-0.31532642 2.3617806 3.1790948
-0.27287823 2.3629658 3.162843
-0.23251617 2.3637972 3.1805363
-0.1701169 2.3605485 3.1740804
-0.12100973 2.3588314 3.1822789
-0.076168261 2.3583477 3.1827579
-0.031268865 2.3567455 3.1725094
0.022341235 2.3554296 3.1620972
0.075884067 2.3568652 3.1633623
-3.8341932 -0.53359258 3.2163672
-1.9093921 -0.53399408 3.2135992
-1.8684001 -0.46131921 3.2069898
-1.8413658 -0.46314365 3.2342904
-1.864275 -0.43078443 3.2262955
-1.8640978 -0.37666655 3.2262549
-1.8841287 -0.3308053 3.2368369
-3.8580754 -0.26582393 3.2226472
-1.8901433 -0.27387035 3.2233503
-3.8219509 -0.23085225 3.2149243
-3.7800703 -0.2304066 3.2407889
-1.8925327 -0.22271019 3.2303288
-3.8196676 -0.18987153 3.2083642
-3.7856884 -0.17047818 3.2322166
-1.9196578 -0.15485665 3.2425148
-1.8935702 -0.1798958 3.2340407
-3.8153334 -0.11970942 3.2142286
-3.7831893 -0.11982769 3.2483463
-1.9106017 -0.11924249 3.2100334
-1.8872353 -0.12208649 3.233012
-3.8152509 -0.075414158 3.2152097
-3.7820714 -0.075492568 3.2484379
-1.9198548 -0.067963928 3.2084677
-1.8911148 -0.068176784 3.2329009
-0.43090463 -0.06206267 3.2365255
-3.8160803 -0.03111992 3.2164359
-1.9160477 -0.023512678 3.213443
-1.8915361 -0.02820117 3.2401893
-0.42647243 -0.03837461 3.2034495
-3.820322 0.024289548 3.2199354
-1.914811 0.01758747 3.2186182
-1.8865914 0.017608268 3.2440002
-3.8190134 0.079707623 3.2180014
-1.9177349 0.066469014 3.2126019
-1.890329 0.0725099 3.2350469
-3.8219421 0.12416029 3.2191858
-1.9164824 0.1204892 3.2196677
-1.8883694 0.12088165 3.2453334
-0.44245458 0.10780545 3.2053964
-3.8285432 0.168818 3.2229362
-3.7816999 0.15707074 3.2451906
-1.9176761 0.17207371 3.219908
-1.8911093 0.16413426 3.2486157
-0.44205609 0.18460153 3.2001636
-3.8220961 0.22401403 3.2145157
-3.7898676 0.2240092 3.2486947
-1.9515448 0.24066718 3.2002962
-1.9215794 0.22400981 3.22403
-1.8921119 0.20732264 3.2484789
-0.44406196 0.22406557 3.2130179
-3.8241475 0.28363159 3.2190373
-3.791558 0.27961931 3.2463956
-2.1233845 0.29951304 3.2173264
-2.0742331 0.29873484 3.2311671
-1.9546347 0.25823346 3.2043407
-1.9239012 0.27390686 3.2372987
-0.43586102 0.27784333 3.2074282
-3.8530667 0.33674625 3.2116573
-3.8257091 0.32078263 3.2173269
-3.7972407 0.32453397 3.2476516
-2.1648359 0.33568129 3.2057598
-2.1306891 0.32702264 3.2263539
-2.0945454 0.3180373 3.2434654
-0.43669587 0.31703663 3.2113295
-3.8335505 0.36937231 3.2126551
-3.7954726 0.36885196 3.242012
-2.2029638 0.39225703 3.221688
-2.1668122 0.3721635 3.2157004
-2.1293168 0.37244007 3.2384574
-3.8524806 0.40361285 3.2045765
-3.8148499 0.42536998 3.2320318
-2.2051537 0.42827821 3.2212868
-2.1731937 0.42723858 3.2276371
-2.1405458 0.42248791 3.2418389
-3.8273335 0.48128784 3.2153466
-3.7985644 0.48040149 3.2320592
-2.2081048 0.46455643 3.2217226
-2.1674986 0.46942458 3.2325401
-2.1489909 0.46331736 3.2413902
-3.8271334 0.52734411 3.2297459
-3.8785233 0.57478881 3.2045109
-3.8327069 0.57289076 3.227942
-3.8653736 0.62371153 3.2133272
-3.8272743 0.61856186 3.2369506
-3.865175 0.67078322 3.208642
-3.8358715 0.67616177 3.2346439
-3.8601232 0.73483694 3.2240272
-3.8111763 0.72061306 3.2468395
-3.8628464 0.78048384 3.2173998
-3.8262467 0.77984667 3.2486029
-3.8751907 0.82827294 3.2182479
-3.8416445 0.83958328 3.2497747
-3.8751032 0.87604892 3.2288475
-3.844907 0.86295837 3.2475352
0.067044392 0.8872661 3.225625
0.13792965 0.86698174 3.2255986
-3.8599763 0.92052525 3.2264404
-3.8422427 0.93030196 3.2295229
0.065051101 0.92237359 3.2175989
-3.8692729 0.96537703 3.230957
0.065302134 0.97521907 3.2195728
-3.8664525 1.015946 3.2298861
0.036073431 1.0244062 3.2488351
0.06549152 1.0237128 3.2194035
-3.9100685 1.0672859 3.2125542
-3.8854702 1.0667524 3.2336073
0.03620562 1.0844209 3.2484062
0.065665446 1.0741388 3.2172446
-3.9165151 1.1149238 3.2052283
-3.8787844 1.1253637 3.2328031
0.03631866 1.1281307 3.2492173
0.067882188 1.1258577 3.2174892
-3.9026563 1.1864979 3.2151799
-3.8773801 1.1857471 3.2356455
-3.8489363 1.1954782 3.2499135
0.03641016 1.1794755 3.2456746
0.06017283 1.1706547 3.2211962
-3.9082012 1.2342563 3.2057867
-3.8864765 1.2346168 3.2291949
0.060501073 1.2255863 3.2267826
-3.9194038 1.2724619 3.204174
-3.8897724 1.2702656 3.2210886
0.062370013 1.2758304 3.2275853
-3.9152827 1.3250376 3.2271614
0.064465709 1.3283923 3.2274299
-3.9042339 1.3990004 3.2361419
0.066999353 1.3753107 3.2271335
-3.9227471 1.420633 3.201937
-3.8787489 1.4214263 3.2484369
0.071662158 1.4230005 3.2264605
0.075462647 1.4761678 3.2282085
0.10204239 1.4525197 3.2032952
0.077069461 1.5275058 3.2348123
0.10268457 1.5191758 3.2045631
0.081660934 1.5660092 3.229167
0.10340592 1.571221 3.2128613
-3.9632547 1.6211863 3.2116694
-3.9312236 1.6248146 3.2391779
0.083619371 1.6173735 3.2374578
0.10382674 1.6274763 3.2081273
-3.9607213 1.6700736 3.2202384
-3.9240012 1.6717622 3.2438765
0.083920851 1.6780517 3.2296224
0.10995866 1.6808959 3.2089255
-3.9687154 1.7209907 3.2077849
-3.9210579 1.7252694 3.2345448
0.088142365 1.7117815 3.2171013
0.11322628 1.7191544 3.2113316
-3.9786217 1.7924213 3.2035735
-3.9332762 1.7760853 3.2335134
0.089278698 1.7763965 3.2418261
0.11003211 1.7812893 3.2219577
-3.9739876 1.8196086 3.2103844
-3.9420404 1.8333218 3.2412868
0.089841388 1.8303879 3.2447884
0.12304287 1.8274299 3.2138996
-4.0039926 1.8519361 3.2039316
-3.9682226 1.8759891 3.226522
0.090206116 1.8721932 3.2435243
0.12370039 1.8740851 3.2151473
-3.9766417 1.9161315 3.2177315
-3.9224553 1.9370742 3.2454665
0.12177914 1.9254913 3.2230446
-3.9729481 1.9764348 3.2259963
-3.9455178 1.954627 3.2383692
0.12184855 1.9705737 3.2249532
-4.0029602 2.0441086 3.2110269
-3.9845219 2.026721 3.2309482
0.12367778 2.0241067 3.2287853
-3.9888012 2.0736418 3.2295895
0.12912409 2.0740929 3.2201157
-4.0003986 2.1041367 3.2276678
-3.9855165 2.1271405 3.2248349
0.09301661 2.1433086 3.2454853
0.12455648 2.1252601 3.2232063
-3.9713778 2.1627345 3.2165718
-3.9479854 2.1754401 3.2328162
0.093220972 2.1657934 3.2435436
0.12462495 2.1746457 3.2202568
-3.9772995 2.2198803 3.2271681
-3.9474859 2.2378163 3.2498896
0.094103314 2.2401307 3.2459624
0.11829605 2.227288 3.219584
-3.96998 2.2613065 3.2149713
-3.9399536 2.2791686 3.2371767
0.094435439 2.2750778 3.2427292
0.11157814 2.2759969 3.2082677
-3.887578 2.3050659 3.2462132
-2.3126402 2.3089266 3.2262037
-2.2749114 2.3225386 3.2499106
-2.2128577 2.3205719 3.2039413
-2.1282277 2.3281922 3.2219803
-2.0219834 2.3206384 3.2202652
-1.974682 2.3396301 3.2314827
-1.928552 2.331275 3.2322855
-1.8743021 2.3231626 3.2212887
-1.8298613 2.3376722 3.2335961
-1.7247537 2.3331826 3.2176793
-1.6679242 2.3313212 3.2175889
-1.6300329 2.3310277 3.2261963
-1.5725724 2.3286269 3.2315376
-1.5295497 2.3360815 3.2287145
-1.4743621 2.338975 3.2229323
-1.4309831 2.3304646 3.2255816
-1.3742628 2.3244405 3.2156045
-1.3239245 2.3189907 3.2245438
-1.2772565 2.3386939 3.2301683
-1.1661909 2.3426554 3.2307725
-1.1229099 2.3492453 3.2138681
-1.0965736 2.3433452 3.2321494
-1.025089 2.3478281 3.2191739
-0.97324455 2.3440547 3.2075429
-0.94275278 2.3415008 3.2494752
-0.82885158 2.3454404 3.2048965
-0.67353708 2.3467891 3.2361472
-0.01347978 2.3440292 3.2164931
0.03472241 2.3420348 3.2371714
0.07663095 2.3259265 3.2260411
-1.2223506 2.360693 3.2412646
-1.0636915 2.354933 3.2259598
-1.0279558 2.3545291 3.2283425
-0.97854888 2.3567183 3.2248099
-0.92054325 2.3554044 3.2273166
-0.85950959 2.3541882 3.210959
-0.82506883 2.3513594 3.2329917
-0.77164257 2.3572094 3.2240353
-0.71917135 2.3551722 3.2217665
-0.67031765 2.3538942 3.2100217
-0.62717271 2.3630345 3.2299428
-0.582856 2.3615212 3.2199295
-0.52464044 2.3621974 3.2289455
-0.47279206 2.3621097 3.2280049
-0.42244786 2.3629441 3.2203918
-0.38203478 2.3612576 3.2310467
-0.32238495 2.3622789 3.228709
-0.27630368 2.3652968 3.2185416
-0.22652903 2.3614714 3.2252588
-0.18005174 2.3610795 3.2217526
-0.12230735 2.3570039 3.232446
-0.076920837 2.3550057 3.2308359
-0.043589454 2.3539927 3.218199
0.013603436 2.3528197 3.2285471
-1.7293042 -0.51454997 3.2727993
-1.6768287 -0.50906372 3.2507906
-1.8159504 -0.46544752 3.264648
-1.7985258 -0.45899329 3.291503
-1.7209263 -0.48581713 3.2896986
-1.6874065 -0.47807562 3.2750111
-1.8274133 -0.43159604 3.2696066
-1.7785614 -0.4245967 3.2889004
-1.7226433 -0.42781356 3.2756345
-1.6852646 -0.42101899 3.2664883
-1.8636677 -0.37144482 3.2635665
-1.8330446 -0.38093486 3.2843852
-1.7762498 -0.39721501 3.2948751
-1.7212616 -0.3735472 3.2870216
-1.6896024 -0.37934572 3.2786539
-1.8690723 -0.32449409 3.2616439
-1.8385743 -0.33152065 3.2872894
-1.7267777 -0.33782724 3.2977803
-1.8701286 -0.27600265 3.262984
-1.8417312 -0.27693763 3.288434
-3.762502 -0.21965094 3.2673361
-1.8698155 -0.22413613 3.2653294
-1.8415848 -0.22492212 3.2910442
-3.7579777 -0.17509806 3.2655747
-1.8770841 -0.17239831 3.2662406
-1.8330072 -0.16917007 3.2894435
-3.7554865 -0.11969495 3.2654722
-1.8619184 -0.11665364 3.2593021
-1.8294042 -0.12271088 3.2873561
-0.42698902 -0.10963619 3.2656653
-3.7593274 -0.075513333 3.2698646
-1.8650527 -0.068494268 3.2620194
-1.8360733 -0.068727411 3.2861567
-0.42445379 -0.081255712 3.2590446
-3.7755182 -0.03125491 3.2638664
-1.8667769 -0.025453519 3.2654603
-1.8362833 -0.025530385 3.2869661
-0.42048773 -0.031337682 3.2779725
-3.7761462 0.024196228 3.2643139
-1.8667167 0.0176591 3.2653453
-1.8372474 0.017707743 3.2886779
-3.7810254 0.079752482 3.2677014
-1.8648955 0.071945667 3.2696168
-1.8407245 0.058057789 3.2882099
-3.777133 0.1240243 3.263063
-1.8688139 0.12126839 3.2672958
-1.8413528 0.11814538 3.2906137
-3.7690804 0.17191742 3.2609794
-1.8687886 0.17524572 3.2716706
-1.8398308 0.17962705 3.2959826
-3.7736852 0.22431152 3.2759218
-1.8725156 0.22717114 3.2746415
-3.7678967 0.27946252 3.2671547
-2.0534005 0.29952025 3.2526526
-1.9029583 0.27786839 3.2631645
-1.8814907 0.26115122 3.2833641
-3.7700224 0.32405913 3.2653961
-2.1008043 0.33668074 3.2517757
-2.0683591 0.32829618 3.2743781
-1.96583 0.31712133 3.2927632
-1.9235291 0.31985962 3.2706692
-3.7807522 0.36952916 3.2705595
-2.1090472 0.37352598 3.2615077
-2.0810688 0.37142253 3.2805064
-3.7909555 0.42635855 3.2734499
-2.1211064 0.43139404 3.2601254
-2.083684 0.43066514 3.2850616
-3.7837934 0.48131618 3.2605753
-2.2550631 0.4926616 3.2881212
-2.1201556 0.47371587 3.2688243
-2.0773101 0.46514955 3.2945108
-3.7920158 0.52432871 3.2760146
-2.1679327 0.53466725 3.2989659
-3.802321 0.58448941 3.2623527
-3.7882919 0.56966525 3.2801487
-2.1691203 0.57119572 3.2960322
-3.807323 0.61891544 3.261297
-3.7913222 0.61990809 3.2890086
-3.8120656 0.6646288 3.2577825
-3.7915888 0.67616087 3.2796543
-3.8227286 0.72279322 3.2566173
-3.7962055 0.73323637 3.2732882
-3.8066988 0.79168493 3.2711122
-3.7993643 0.76763451 3.2693954
-3.8215501 0.82337683 3.2636154
-3.7967963 0.81692582 3.2995181
-3.8131542 0.87766534 3.2725067
-3.7942479 0.86163652 3.2874279
0.025435016 0.8928104 3.2820055
-3.8250515 0.92295629 3.2799382
0.024577811 0.92557889 3.2670262
-3.8343635 0.97079659 3.2768254
0.028121905 0.97892171 3.2672427
-3.8513048 1.0293125 3.2557192
-3.8266375 1.0173569 3.2794337
0.026585719 1.0298145 3.265969
-3.8591113 1.0657301 3.2531054
-3.8234246 1.0714896 3.2793069
0.015612461 1.074568 3.2748382
-3.8295155 1.1253668 3.2815211
0.014890972 1.1247077 3.2732246
-3.8368187 1.1657865 3.2766569
0.015737513 1.1761696 3.2786806
-3.8632736 1.2345116 3.251375
-3.8403776 1.2345065 3.2737775
0.0204191 1.2246391 3.2719789
-3.8376427 1.2886297 3.283488
0.020518452 1.2745242 3.2767682
-3.8580194 1.332794 3.2588639
-3.8285544 1.3420842 3.271811
0.020615654 1.3272834 3.2794499
-3.8625 1.3691033 3.2509148
-3.8379104 1.3801439 3.2678928
0.023498416 1.381121 3.2828696
-3.8627913 1.4473866 3.2685418
-3.8410599 1.4479229 3.2920952
0.023176108 1.4257916 3.2830892
-3.8730369 1.4863117 3.2644701
0.027568316 1.4713687 3.2796206
0.053815097 1.4558001 3.2531281
0.033589944 1.5268159 3.2832232
0.054236826 1.5172676 3.2625113
-3.8429782 1.5983809 3.2829535
0.033681508 1.57651 3.2750559
0.058781646 1.5818609 3.2655761
-3.906261 1.6052166 3.2524338
-3.877641 1.622054 3.2781839
0.038281575 1.6397069 3.2928457
0.060573548 1.6332798 3.2730286
-3.9010763 1.6838681 3.2618337
-3.8845503 1.6677165 3.2823048
0.038421854 1.679879 3.2925987
0.063579641 1.669338 3.2716534
-3.9044311 1.7090415 3.2549982
-3.8731203 1.734575 3.2818136
0.03858899 1.7129047 3.2974265
0.063874692 1.7192343 3.2700486
-3.9093556 1.7932888 3.2712376
-3.8784802 1.7705039 3.2800224
0.038826875 1.7752464 3.2979836
0.067174301 1.7697034 3.2808535
-3.9124458 1.8361709 3.2794328
-3.89938 1.823629 3.2947266
0.066267453 1.8202696 3.2723613
-3.9226084 1.8671132 3.2687957
0.039072257 1.8559591 3.2909305
0.064968638 1.8704762 3.2783387
-3.9207666 1.9101338 3.2635517
-3.8743534 1.9149103 3.2909725
0.079757489 1.9256811 3.2735348
-3.9174373 1.9767061 3.2773693
0.077883936 1.9778764 3.274615
-3.9634039 2.0486434 3.261579
-3.9286184 2.0227993 3.2681103
-3.8947587 2.025959 3.2938795
0.078314029 2.0202289 3.2777505
-3.9223833 2.0827432 3.2731969
0.040106878 2.0835233 3.2989006
0.075103454 2.0679917 3.2738309
-3.9516125 2.128505 3.2592063
-3.9227488 2.1260355 3.2770305
-3.8937354 2.1234565 3.2946892
0.075474888 2.1170115 3.2717021
-3.9615383 2.1583788 3.2556911
-3.9218972 2.1707869 3.2705853
0.072613344 2.1835952 3.2778175
-3.9240892 2.2174144 3.2663152
-3.8949785 2.235734 3.2896264
0.073417991 2.2267225 3.2685244
-3.9093721 2.2721341 3.271287
0.040938634 2.2907686 3.2839949
0.067898892 2.2808213 3.2693405
-3.8660932 2.306792 3.2697544
-2.4651179 2.3241138 3.2998581
-2.4228098 2.3039362 3.2848587
-2.3819323 2.3192027 3.267648
-2.3109694 2.3175583 3.2720604
-2.2690561 2.3167043 3.2688642
-2.1069481 2.32652 3.2772038
-2.0657902 2.3351676 3.2738221
-2.0119205 2.3207321 3.2924335
-1.9780592 2.3248382 3.2680428
-1.9098359 2.3348773 3.2725472
-1.8759044 2.329843 3.2802811
-1.8237388 2.3339586 3.2653131
-1.7778931 2.3354928 3.2662568
-1.7390995 2.3329711 3.256541
-1.6731364 2.322947 3.2685115
-1.6160681 2.3305125 3.260834
-1.5712862 2.3360841 3.2885697
-1.52055 2.3276582 3.2727075
-1.4828472 2.3388176 3.2837951
-1.4251611 2.3329172 3.2741797
-1.3702093 2.3308055 3.269016
-1.3162832 2.3317795 3.2750609
-1.2771757 2.3368571 3.2683077
-1.2262239 2.3397026 3.2684014
-1.1803011 2.3394077 3.2751439
-1.0824097 2.3437746 3.2563608
-1.0372595 2.3476114 3.2741265
-0.96336114 2.3464532 3.2519078
-0.58226216 2.3482583 3.2524254
-0.14214538 2.3490469 3.2923148
-0.013668792 2.3406134 3.2828948
0.020205477 2.3288903 3.2766232
0.059002824 2.3137288 3.2625923
-1.1511725 2.3506258 3.2874682
-1.1343653 2.354394 3.2579629
-1.066618 2.3502729 3.2704523
-1.0101399 2.3594329 3.2791986
-0.98669231 2.3577251 3.2629666
-0.91931397 2.3528342 3.2716861
-0.87689173 2.3616405 3.2787395
-0.82716686 2.3596976 3.2761822
-0.77486807 2.357888 3.271204
-0.72285324 2.3558791 3.2654219
-0.68031353 2.3592734 3.2751415
-0.6238457 2.3595653 3.2771232
-0.577308 2.3561292 3.2827916
-0.53063822 2.3636167 3.281224
-0.4704023 2.366662 3.2837069
-0.41824305 2.3664253 3.2737916
-0.37179983 2.360245 3.2757034
-0.32546535 2.3589072 3.2740951
-0.26975483 2.3558435 3.2684288
-0.2212662 2.3574827 3.2766304
-0.17823239 2.3593471 3.269275
-0.1231285 2.3543024 3.2642896
-0.0684608 2.3522277 3.2716742
-0.022754537 2.3525944 3.2637208
-1.7728567 -0.50490183 3.3175142
-1.7802159 -0.46971834 3.3152649
-1.7287258 -0.47335109 3.3163757
-1.6996065 -0.45172212 3.3424339
-1.6939206 -0.4242236 3.3336904
-1.8019662 -0.37302706 3.3057718
-1.7724224 -0.37229455 3.3095293
-1.6977865 -0.39044428 3.3443365
-1.8094616 -0.32622927 3.3075669
-1.7747998 -0.32942155 3.3172805
-1.7172784 -0.31383625 3.307632
-1.697454 -0.33483768 3.3074975
-1.812718 -0.27782425 3.3128614
-1.7795569 -0.27808776 3.3296063
-1.7239531 -0.27614677 3.3229589
-3.7119188 -0.23115438 3.3251736
-3.6965871 -0.2198257 3.3327317
-1.8107091 -0.22542143 3.3120403
-1.7760824 -0.22591491 3.3343692
-1.7285227 -0.2249435 3.3345413
-3.7141273 -0.16079289 3.3237283
-3.6937439 -0.18642873 3.3318498
-1.859516 -0.17378721 3.3062284
-1.818599 -0.18049558 3.3167634
-1.7748386 -0.17037494 3.3175342
-1.7266874 -0.17819083 3.3262994
-3.7184846 -0.12004185 3.3152719
-3.6918306 -0.11993816 3.3326557
-1.8145533 -0.10354907 3.304091
-1.7834077 -0.1211115 3.3239326
-3.7115712 -0.075549707 3.3101583
-3.6878164 -0.075568423 3.3300796
-1.8090811 -0.07243637 3.310101
-1.7810975 -0.066685148 3.3318729
-3.7097824 -0.027660377 3.3228753
-3.6877604 -0.042389836 3.3304958
-1.8086739 -0.025637949 3.3136983
-1.7792015 -0.025725337 3.337136
-3.7169123 0.02961655 3.325654
-3.69732 0.012928176 3.339227
-1.8112129 0.017752245 3.3144805
-1.7839788 0.017792925 3.3376679
-3.7167587 0.079655938 3.3350682
-1.8194155 0.074842051 3.3133504
-1.7864889 0.064244077 3.3372252
-3.7185953 0.12034509 3.3286903
-3.6996522 0.13497199 3.3387804
-1.8151228 0.12451245 3.3154235
-1.7849557 0.12594093 3.3421891
-3.7183318 0.16813958 3.3127947
-3.6955338 0.16806775 3.3336759
-1.8175896 0.17191365 3.318363
-1.7945248 0.17504437 3.3426602
-3.7187445 0.22425388 3.3308582
-1.8250117 0.22690535 3.3183553
-1.7959462 0.22761564 3.3429625
-3.7187624 0.27638134 3.3343327
-1.9117362 0.29929456 3.3148131
-1.8697035 0.2631481 3.3196735
-1.8405493 0.26900381 3.3313777
-3.7177494 0.32422364 3.3226726
-2.0215821 0.33817232 3.3090675
-1.9811313 0.33731994 3.3170617
-1.9252672 0.32646298 3.3173385
-3.7111523 0.36912334 3.3334
-2.0654202 0.38417625 3.3020358
-2.02966 0.37523174 3.3193629
-1.9836986 0.37107357 3.3338387
-3.7280734 0.42672578 3.3426912
-2.0565758 0.42942682 3.3083494
-2.0371015 0.42799929 3.3331783
-3.7327104 0.47200832 3.3415985
-2.2378769 0.49488991 3.3176899
-2.1020041 0.48667717 3.3130767
-2.0616093 0.48114794 3.3237085
-2.0313709 0.46688336 3.3323569
-3.735719 0.52841008 3.3369122
-2.1694291 0.50785673 3.3045976
-2.1277914 0.52463359 3.3120623
-2.0933769 0.52506882 3.3324392
-3.7447739 0.57463604 3.3385
-2.1513326 0.58939183 3.3032327
-2.1228054 0.57675153 3.3226252
-3.7435467 0.61934501 3.3303847
-2.1563315 0.61800182 3.3070414
-2.133096 0.61915135 3.3269086
-3.7310758 0.67063451 3.3420136
-3.7279682 0.73296225 3.3383896
-3.750231 0.79390919 3.3471029
-3.7466629 0.77053982 3.3485122
-3.7454219 0.82679319 3.3356581
-3.7441757 0.86042649 3.3271258
0.036393661 0.88811028 3.3061008
-3.7474566 0.98014963 3.3450396
-3.7592797 1.0175034 3.346756
-3.7658324 1.0535687 3.3434739
-0.012312706 1.0894738 3.3434222
0.0041802921 1.0533705 3.3408294
-0.020539517 1.1193238 3.3264987
-0.024147289 1.174713 3.3245394
-3.8273911 1.2492377 3.3010705
-0.018972378 1.2210708 3.3205438
-0.024343956 1.2702748 3.3310971
-3.767211 1.3331909 3.3489647
-0.026460618 1.3227948 3.3373766
-0.016708646 1.3707569 3.3290608
0.0042291488 1.375464 3.3065908
-0.021037327 1.4169273 3.3380024
-0.016879236 1.4723084 3.3333602
0.0042716181 1.4740934 3.3157525
-0.012696094 1.5225785 3.3374465
0.0085064545 1.5250263 3.3214948
-0.012774808 1.5576199 3.3496156
0.0099413833 1.5693933 3.3185775
-3.815387 1.6188459 3.3234806
-0.012833842 1.624851 3.3443127
0.014565656 1.6208239 3.3236504
-3.8547976 1.6723747 3.3117623
-3.8194816 1.6746178 3.3363531
-0.012918957 1.6959957 3.3445094
0.012913413 1.6757559 3.3246357
-3.8615115 1.7109051 3.3029225
-3.8183372 1.7192738 3.3244104
0.018750496 1.7292242 3.3289287
-3.8520198 1.7887154 3.3070529
-3.8143282 1.7703059 3.3220739
-3.7916617 1.7707515 3.3449163
-0.013013957 1.7605876 3.3491895
0.021680016 1.7681789 3.3238745
-3.8678675 1.8319983 3.3050694
-3.8283718 1.8301792 3.3348687
0.03226275 1.8256737 3.3209414
-3.8650379 1.8822117 3.3115101
-3.8263533 1.8828565 3.3331351
0.022000346 1.8838934 3.3328564
-3.825568 1.9244194 3.3374381
0.030804249 1.9256905 3.317975
0.056995366 1.9277689 3.3023324
-3.8709886 1.9714892 3.3173718
0.03277031 1.979203 3.322139
0.057264365 1.9720994 3.302531
-3.8710351 2.0261469 3.3160586
-3.8450623 2.0372984 3.3305609
0.031201143 2.030122 3.3241172
0.05771837 2.0410602 3.304496
-3.8757801 2.0774875 3.313076
0.028275361 2.0636382 3.3165181
-3.8693039 2.1196556 3.3343973
0.026125032 2.1207771 3.3281777
-3.9174657 2.160955 3.3028433
-3.8734417 2.1691108 3.3229966
0.031649023 2.1693611 3.3223925
0.058398444 2.1550536 3.3001838
-3.8815718 2.2210112 3.3146083
-3.845819 2.2232733 3.3385634
0.0263949 2.2224748 3.3294144
-3.8628104 2.2735314 3.3160467
-3.8338401 2.292141 3.3393326
-0.013765167 2.2839768 3.3471131
0.020598071 2.2731068 3.3265235
-2.4847443 2.3213124 3.3392138
-2.3627572 2.3065457 3.3284671
-2.3271255 2.3127975 3.3353477
-2.26827 2.3163486 3.3229382
-2.2411706 2.3201666 3.3194749
-2.1257761 2.3380823 3.3407702
-2.0816274 2.333497 3.3301647
-2.0329263 2.3303611 3.3161831
-1.9690871 2.3296595 3.331274
-1.9289138 2.3329587 3.3204885
-1.863554 2.3301406 3.318939
-1.8180408 2.3322034 3.3122597
-1.7126465 2.324295 3.3456593
-1.6204222 2.3334622 3.3201063
-1.5756459 2.3375039 3.3337994
-1.5306202 2.3384135 3.3306873
-1.4769088 2.3406546 3.3325493
-1.4196944 2.3364 3.3245974
-1.3795954 2.3318269 3.3239987
-1.3217109 2.3271866 3.3216617
-1.2760894 2.3325641 3.3198745
-1.2207962 2.3372071 3.3276374
-1.1825852 2.3468938 3.3336473
-1.1010536 2.3459854 3.3345919
-1.0354848 2.3460844 3.311801
-0.91578585 2.3490324 3.3055451
-0.89671773 2.3482888 3.3086545
-0.78418595 2.3487117 3.3321791
-0.74091101 2.349402 3.3029869
-0.57290632 2.3483827 3.3280723
-0.32762262 2.3450866 3.3126485
-0.050811052 2.3491957 3.3309348
-0.023042779 2.3351359 3.329427
0.013776598 2.3091407 3.3105004
-1.1642338 2.3581183 3.3359225
-1.1290216 2.3541818 3.3194244
-1.0789182 2.3535442 3.3219342
-1.0109169 2.3549433 3.3314114
-0.97613066 2.3602762 3.3241532
-0.93750054 2.3563979 3.3116438
-0.87304688 2.3605077 3.3319454
-0.81970721 2.3610604 3.3281989
-0.77028275 2.3569853 3.3214407
-0.71907628 2.3694849 3.3361721
-0.66892308 2.3584843 3.3284585
-0.6247049 2.3626373 3.328824
-0.5726912 2.3596642 3.3194745
-0.5255388 2.3634341 3.3186347
-0.47901511 2.3634655 3.3242567
-0.42509794 2.3606503 3.3112831
-0.37539649 2.3553829 3.3232992
-0.32903209 2.3612714 3.3233089
-0.27346417 2.3628407 3.327071
-0.22992194 2.3590024 3.3266926
-0.18040721 2.3604269 3.3250275
-0.12472832 2.3596787 3.3199329
-0.069211118 2.3587072 3.3198471
-0.032143541 2.3548148 3.302711
-1.6793129 -0.45884988 3.3734555
-1.5284637 -0.46438336 3.3890386
-1.68548 -0.419947 3.3791735
-1.5122573 -0.42195287 3.3742867
-1.7097412 -0.35651144 3.3845856
-1.6918184 -0.37984467 3.3883762
-1.5195214 -0.39800543 3.39271
-1.7121292 -0.3218734 3.3918066
-1.716499 -0.28061974 3.3893077
-3.6662028 -0.23115435 3.3664875
-1.7165569 -0.227378 3.3820446
-3.6680591 -0.18105319 3.3603935
-3.6381459 -0.17114249 3.3890889
-1.7183225 -0.16540223 3.367568
-1.690679 -0.17441787 3.3841834
-3.6667528 -0.11987112 3.3511758
-3.6369483 -0.12359784 3.378648
-1.7575854 -0.12174717 3.3542426
-1.7296842 -0.12225905 3.3809764
-1.696896 -0.13998085 3.3977351
-3.6650271 -0.075592607 3.3506441
-3.6487298 -0.075754881 3.3769851
-1.7568045 -0.069393076 3.3537884
-1.7297801 -0.069718882 3.3822088
-3.6657887 -0.027751187 3.3656578
-3.6359386 -0.031473175 3.3862956
-1.7600238 -0.025844045 3.3603609
-1.7334454 -0.024171557 3.3816547
-3.6659706 0.023963064 3.3684783
-3.6338243 0.023870593 3.3911629
-1.7576281 0.017803654 3.3557749
-1.7338394 0.015696347 3.385457
-3.6654537 0.079418287 3.3713298
-1.7656162 0.074671268 3.3603983
-1.7312728 0.070480153 3.3849912
-3.6665695 0.12000477 3.3643417
-3.6347592 0.12725872 3.3898821
-1.7656478 0.11836854 3.3595269
-1.7422242 0.12324619 3.3848588
-3.6685283 0.17183135 3.3641014
-3.6362636 0.16425647 3.3898361
-1.7689832 0.17296448 3.3626962
-1.7408435 0.17944829 3.3843942
-3.6692886 0.22384749 3.3689115
-3.6318524 0.22353013 3.3964694
-1.7691128 0.22865663 3.3719749
-1.7385399 0.22043338 3.3944473
-3.6748519 0.279782 3.3703303
-3.6367421 0.27935559 3.3973837
-1.8143939 0.28293714 3.3743763
-3.6752057 0.32429993 3.3671141
-3.6431229 0.33547339 3.3988698
-1.9287949 0.32316837 3.3882501
-1.8708277 0.30259559 3.3776617
-1.835498 0.30116585 3.3725557
-3.6820459 0.36947715 3.3693149
-1.9643105 0.37990436 3.3725331
-1.9401314 0.36057377 3.3989525
-3.7053857 0.43779373 3.3626664
-3.6825624 0.42030978 3.3749669
-2.0164225 0.42628062 3.3561037
-1.980683 0.42202717 3.37816
-3.7539549 0.49721321 3.3577573
-3.701771 0.49321428 3.3525746
-3.6848824 0.47803795 3.366842
-2.0221202 0.4782764 3.3732719
-1.9826761 0.46505126 3.3851483
-3.708441 0.52767348 3.3541024
-3.6734853 0.52740282 3.3847694
-2.0693264 0.52981663 3.3642526
-2.0401459 0.52424598 3.3889017
-3.7146206 0.57339311 3.3532245
-3.6772408 0.57274413 3.3817999
-2.2296376 0.55457681 3.3541307
-2.0754688 0.57530689 3.3735664
-2.0396953 0.56635094 3.3927987
-3.7214873 0.61936879 3.3524187
-3.6841502 0.61868608 3.381197
-2.2134857 0.62909615 3.3569434
-2.1109574 0.61419117 3.3686507
-2.0932734 0.60783994 3.3988464
-3.7045047 0.67647529 3.3693917
-3.6813161 0.67631882 3.3901024
-3.7090936 0.73362124 3.363265
-3.6881633 0.73388457 3.3861432
-3.7172108 0.7857061 3.3749778
-3.6754854 0.77565461 3.3943737
-3.7143645 0.82736158 3.3707523
-3.6706076 0.82509893 3.3938179
-3.7219136 0.87439972 3.3676128
-3.6833255 0.87324154 3.3956509
-3.757899 0.92583072 3.3683572
-3.7262659 0.92358804 3.3821602
-3.7517405 0.95848542 3.3545613
-3.718272 0.97279805 3.3769462
-3.6991284 0.95656461 3.3914859
-3.7225351 1.016736 3.3771646
-3.7301621 1.0645552 3.3718855
-3.7562249 1.1146408 3.3613231
-3.7327647 1.1144358 3.3826947
-0.04566393 1.1392503 3.3589649
-3.7659702 1.1750721 3.3531787
-3.7295053 1.1743796 3.3841867
-0.069431335 1.1753148 3.3743191
-0.045680553 1.1729348 3.3523185
-3.7546203 1.2363882 3.3678949
-3.7350581 1.237494 3.3929305
-0.06698291 1.2194103 3.3678534
-0.045902945 1.22879 3.3562672
-3.7603862 1.2845258 3.3582523
-3.7373478 1.2844996 3.380198
-0.071798362 1.2679768 3.3873041
-0.046173461 1.2864592 3.3629744
-3.732615 1.3331585 3.3819001
-0.070399292 1.3276886 3.3872185
-0.046274517 1.3313867 3.3589342
-3.7568333 1.3725426 3.3704696
-3.7373142 1.3855054 3.3916321
-0.063502684 1.3647819 3.371742
-0.042230602 1.3747332 3.3615446
-3.7749124 1.4141929 3.3743739
-3.7482312 1.4362116 3.3849545
-0.064179271 1.4221569 3.3953068
-0.042540867 1.4354328 3.3701899
-3.7755871 1.4680675 3.3709671
-3.7294304 1.4729463 3.3981063
-0.064286493 1.4760492 3.3854768
-0.041165933 1.4725798 3.3631136
-3.7660842 1.5133975 3.3750606
-3.7473569 1.5269812 3.3967903
-0.064673029 1.5193887 3.3951101
-0.036782991 1.5215029 3.3650894
-3.7679596 1.565923 3.3802102
-0.064990774 1.5875731 3.392019
-0.032560393 1.5768213 3.3663609
-3.7738366 1.6155061 3.3668323
-3.742218 1.6288192 3.398303
-0.038931619 1.6195383 3.3749089
-3.802475 1.6582378 3.3564625
-3.7687073 1.6729733 3.3772876
-3.7485955 1.6552302 3.3944638
-0.027511194 1.6697248 3.3737822
0.0043772259 1.6585952 3.3513825
-3.7759314 1.7214522 3.3727798
-0.033091661 1.7249553 3.3781087
-3.7747591 1.7815852 3.3855627
-0.024757549 1.7695861 3.3662121
0.0044248286 1.782577 3.3510623
-3.777791 1.8287013 3.3762124
-0.023827026 1.8248152 3.3821483
0.0044432697 1.8166533 3.3552737
-3.8042979 1.8837434 3.3566823
-3.775007 1.8889922 3.3863847
-0.022125717 1.8699706 3.3739598
0.0044614286 1.8597627 3.355617
-3.7752283 1.9231408 3.3790579
-0.020498738 1.9255483 3.3831162
0.0044973823 1.9287865 3.3617029
-3.8322294 1.978254 3.3604128
-3.7903321 1.9651165 3.3847778
-0.022390559 1.9754267 3.3843701
0.0045086886 1.9697974 3.355639
-3.855654 2.0185914 3.3512869
-3.8277538 2.0287652 3.3641808
-3.7897193 2.0297091 3.3862369
-0.019490572 2.0205514 3.383956
0.004530983 2.015914 3.3572259
-3.8595054 2.0823517 3.3744113
-3.8210022 2.0746706 3.3838704
-3.792192 2.0843892 3.3956947
-0.013493439 2.0683522 3.3678288
0.0045563173 2.0729854 3.3564892
-3.8565228 2.1052217 3.3599036
-3.8269775 2.1145895 3.3711672
-3.797483 2.123908 3.3823104
-0.022805415 2.129185 3.3901021
-3.8319008 2.1731651 3.3727283
-0.019874593 2.18062 3.389329
0.0046096756 2.1715147 3.3627689
-3.8177693 2.2300279 3.3692532
-3.7980366 2.2116137 3.3890564
-0.021176701 2.2279449 3.3820796
0.0046231188 2.2151546 3.3553309
-3.8193905 2.2768385 3.3638325
-3.7884572 2.2820148 3.3919892
-0.051227886 2.293987 3.3986762
-0.026222745 2.2716548 3.3781679
-3.7706184 2.3355188 3.3932686
-2.4464247 2.3253009 3.3724363
-2.3133063 2.3199387 3.3862491
-2.2725875 2.3210864 3.3849149
-2.2388711 2.3293247 3.3935356
-2.165144 2.3273592 3.3772414
-2.1155255 2.328831 3.3808651
-2.0749209 2.3284357 3.3757348
-2.0297008 2.3313851 3.3741455
-1.9677552 2.3317952 3.3860149
-1.9135919 2.3258848 3.3766594
-1.8810846 2.3335001 3.3814993
-1.8499229 2.3399935 3.3593068
-1.7705868 2.341682 3.398366
-1.7121022 2.3171234 3.3799891
-1.6705772 2.3210025 3.3577585
-1.6358047 2.3138764 3.3596978
-1.5755786 2.3322697 3.3698828
-1.5247236 2.3380725 3.3693879
-1.4698323 2.3409412 3.37953
-1.4137257 2.3294249 3.3801486
-1.3734975 2.3471422 3.3796084
-1.3332218 2.3450742 3.3894658
-1.2556291 2.3473368 3.3749475
-1.1299008 2.34723 3.3694561
-1.09199 2.348412 3.3814178
-1.0278286 2.3481092 3.3668294
-0.31216794 2.3492355 3.3566134
-0.23747136 2.3478625 3.3594513
-0.18240084 2.3490133 3.3824048
-0.10785503 2.3463011 3.3995705
-0.063650534 2.3329675 3.3749104
-0.026238536 2.3122079 3.3637111
-3.5775166 2.3512435 3.3991063
-1.7652804 2.3547978 3.3764019
-1.721437 2.3561854 3.3510275
-1.2422109 2.3586729 3.3971162
-1.1611543 2.3521149 3.3684676
-1.1125555 2.3512132 3.3803658
-1.0707384 2.3535819 3.3746448
-0.97311515 2.3593936 3.3871295
-0.92621976 2.3588595 3.3730083
-0.87578756 2.3568182 3.3747916
-0.82216084 2.3580427 3.3776011
-0.77533609 2.3663015 3.385807
-0.72585362 2.3634112 3.3837659
-0.6810109 2.3611012 3.3838716
-0.61936313 2.3648036 3.3833418
-0.56711614 2.3634901 3.3760393
-0.52226132 2.3627489 3.374347
-0.47224107 2.3667986 3.37975
-0.42420897 2.3636858 3.3827522
-0.37083182 2.361953 3.379571
-0.33163625 2.3551223 3.3636146
-0.2756395 2.3555062 3.3681176
-0.20983291 2.3512595 3.3657646
-0.16335483 2.3535974 3.3711543
-0.12229069 2.3611586 3.3685398
-0.088436976 2.3570247 3.3597965
-1.6511428 -0.45759481 3.4108803
-1.6183838 -0.45830736 3.4281368
-1.5819038 -0.45797262 3.4372771
-1.66571 -0.42382881 3.4228928
-1.639114 -0.4293865 3.4422171
-1.5641018 -0.42113638 3.4308689
-1.5481579 -0.43581676 3.4091251
-1.6723471 -0.36861324 3.4251261
-1.6442801 -0.37199175 3.4470081
-1.5553074 -0.3677156 3.4306304
-1.5293729 -0.37444431 3.4167738
-1.7031556 -0.33413354 3.4007287
-1.6746689 -0.32045314 3.4333546
-1.5283487 -0.33936036 3.417028
-1.7022997 -0.28118056 3.4023893
-1.6775984 -0.27748087 3.4306223
-1.5606555 -0.28108481 3.4482222
-1.5392936 -0.28040501 3.4453495
-3.6285563 -0.22055575 3.4151196
-1.701762 -0.23712401 3.4036989
-1.676892 -0.227529 3.4293582
-3.6130111 -0.17590706 3.4233482
-1.6676006 -0.16980867 3.4211051
-3.6260803 -0.11688184 3.42399
-1.7019924 -0.10521777 3.4088211
-1.6738124 -0.12485991 3.4210641
-3.6229992 -0.075982511 3.4150958
-1.7017857 -0.070018619 3.4090054
-1.6734276 -0.070321582 3.4354482
-3.6213181 -0.035299983 3.4209404
-1.707812 -0.02898317 3.4076395
-1.6810331 -0.02615061 3.4302819
-3.6194556 0.0164837 3.4192197
-1.7057942 0.022320691 3.4070382
-1.6808647 0.0179775 3.4299285
-3.6237872 0.079398237 3.4154987
-1.703674 0.070774369 3.4126654
-1.6789904 0.068479575 3.4346368
-3.6144662 0.12383145 3.4262433
-1.7116417 0.12355242 3.4067135
-1.6829273 0.12400803 3.4324846
-3.6154227 0.16829315 3.4254198
-1.7156261 0.17676532 3.4129355
-1.6848701 0.17724751 3.4347191
-3.6145508 0.22379518 3.4216931
-3.5972822 0.23518082 3.4461799
-1.719341 0.23463567 3.4178205
-1.6925429 0.21911632 3.4415751
-3.623199 0.27998698 3.4262323
-1.7776238 0.28551626 3.4259517
-1.7425216 0.28558642 3.4402077
-3.6232243 0.32453746 3.4227138
-1.9142988 0.3427642 3.4137402
-1.8795067 0.33123046 3.4194856
-1.8209926 0.30837858 3.4152632
-1.7751534 0.3044365 3.4406252
-1.7466395 0.30413163 3.4472198
-3.6548839 0.37004966 3.4067354
-3.6230214 0.37350345 3.4320443
-1.9257401 0.38248885 3.4244921
-1.897073 0.36264324 3.441211
-3.6567841 0.42607355 3.4026842
-3.616967 0.42526269 3.4278319
-1.9702734 0.4352966 3.4059174
-1.921663 0.42312643 3.4269562
-3.6621075 0.48262542 3.4010472
-3.6226487 0.48176691 3.4266436
-3.5808067 0.48059356 3.449373
-1.957202 0.48005596 3.4181333
-1.9263207 0.46228075 3.436934
-3.6233792 0.52654171 3.4215627
-3.5871973 0.5372504 3.448252
-2.365634 0.5316543 3.409137
-2.3323486 0.53269058 3.4363406
-2.0199471 0.53065389 3.4126928
-1.988699 0.52170205 3.4291239
