ply
format ascii 1.0
comment PCL generated
element vertex 1503
property float x
property float y
property float z
element camera 0
property float view_px
property float view_py
property float view_pz
property float x_axisx
property float x_axisy
property float x_axisz
property float y_axisx
property float y_axisy
property float y_axisz
property float z_axisx
property float z_axisy
property float z_axisz
property float focal
property float scalex
property float scaley
property float centerx
property float centery
property int viewportx
property int viewporty
property float k1
property float k2
end_header
0.2761516 -0.53886634 1.6277812
0.32686284 -0.53318298 1.6269257
0.37492144 -0.52366799 1.6258441
0.41497913 -0.5110572 1.6193613
-1.1618452 -0.49655375 1.6032541
-1.1274022 -0.49777803 1.6211261
-1.0751858 -0.49669659 1.622982
-1.0198472 -0.49614066 1.6243062
-0.98102289 -0.49653196 1.6211524
-0.93312985 -0.49860397 1.6446676
-0.26107815 -0.46770707 1.6336775
-0.22803853 -0.4763529 1.6169329
-0.18425019 -0.49393988 1.6052798
0.39793491 -0.49470016 1.649368
0.42759055 -0.47622862 1.6253742
0.45323315 -0.45914158 1.6046318
-0.2627956 -0.42727497 1.6350546
-0.23255877 -0.42520097 1.6090946
0.43509576 -0.42687684 1.6332216
0.45711449 -0.42283204 1.606537
-0.25655663 -0.39281541 1.6372809
-0.22207613 -0.3748723 1.6199452
-0.18441115 -0.35611832 1.6040261
0.049051631 -0.35288689 1.6187977
0.063659705 -0.37258959 1.6221504
0.43797988 -0.37556833 1.6352034
0.45911777 -0.37459663 1.6101755
-0.20351249 -0.34775314 1.6247234
-0.17117795 -0.33401635 1.6217601
-0.13273276 -0.31415945 1.6132994
0.043153208 -0.32165524 1.6270695
0.43698484 -0.32733405 1.6394168
0.45795026 -0.32387757 1.6134298
-0.11837272 -0.27956003 1.6299412
-0.090145759 -0.27031514 1.6084038
0.028797651 -0.27361867 1.6239638
0.43896097 -0.27535 1.6396717
0.46025923 -0.27526093 1.6127537
-0.10434618 -0.22580178 1.6390489
-0.082596928 -0.22596277 1.6183301
0.02408655 -0.22590856 1.6263211
0.44014731 -0.22464891 1.6367266
0.46013856 -0.22683792 1.6128935
-0.10455391 -0.18158062 1.6462632
-0.081674829 -0.17637128 1.6192359
0.022712488 -0.17537549 1.6197511
0.44062558 -0.17286448 1.6365516
0.46073103 -0.17527926 1.6103504
-0.10023808 -0.145459 1.6424774
-0.072229169 -0.12444393 1.6235594
-0.04142705 -0.11734272 1.6013349
0.037381895 -0.12639433 1.6183218
0.074970216 -0.11199324 1.6297283
0.11365383 -0.11682454 1.6273562
0.44035906 -0.12353251 1.635247
0.46072057 -0.12386733 1.610498
-0.059598509 -0.078938156 1.6353707
-0.028639728 -0.072975017 1.6127942
0.0329809 -0.067767151 1.6041371
0.065815859 -0.072376475 1.628884
0.13736795 -0.074775428 1.6166573
0.15528038 -0.062363099 1.6284894
0.43816164 -0.076061957 1.6363069
0.45872301 -0.074911043 1.6106651
1.474846 -0.077870212 1.6159046
1.5018572 -0.058596037 1.6114258
-0.022421116 -0.028806444 1.6304777
0.025025336 -0.02686953 1.6122762
0.070362709 -0.021857684 1.6208709
0.16079098 -0.025395911 1.6219677
0.43865749 -0.028062597 1.6344982
0.4582122 -0.026552124 1.6098509
1.4784666 -0.03053337 1.6173173
-0.012387912 0.012452903 1.6437246
0.025794027 0.022959679 1.6319722
0.070190281 0.020609744 1.6350811
0.10324147 0.019507723 1.6305606
0.1579299 0.0187547 1.6293758
0.43693146 0.023997203 1.6347302
0.45829758 0.022501016 1.6079509
1.431113 0.029482668 1.6074219
1.4772544 0.025140729 1.6221324
0.038677879 0.057664622 1.6465487
0.064890258 0.058978174 1.6461444
0.15908152 0.07760483 1.6196936
0.43626651 0.075761937 1.6311749
0.4569011 0.073817037 1.6088687
1.4417315 0.058883242 1.618683
1.471836 0.080181204 1.6222968
0.10450657 0.10646525 1.6483326
0.16810894 0.12409567 1.6161349
0.43722883 0.10630333 1.6358658
0.45994654 0.10666907 1.6100287
1.4498477 0.14723934 1.6229358
1.4726903 0.12730552 1.620635
0.017798221 0.19740227 1.6470747
0.10848949 0.19227199 1.623983
0.16633028 0.1876013 1.6083535
0.68868881 0.18807249 1.6383579
0.7102465 0.17755535 1.6223916
0.03203031 0.22905804 1.6324599
0.070956416 0.2341695 1.6424642
0.10227256 0.20836696 1.606445
0.17174242 0.20453969 1.6031215
0.68122101 0.22113153 1.6290108
0.70367026 0.21209884 1.6125982
0.038371384 0.27148333 1.614383
0.075983331 0.27411002 1.6219015
-0.10714833 0.34302631 1.6076661
-0.095787562 0.34419262 1.6136205
-0.017500751 0.33893815 1.6096382
0.030322015 0.30687594 1.6019613
0.081058301 0.30852628 1.6095194
0.72557533 0.33223742 1.6259521
0.75498068 0.33709502 1.6042683
1.4883999 0.34479371 1.6090192
1.5035659 0.3386347 1.6016418
-0.17564243 0.39088172 1.6178603
-0.13622659 0.3597669 1.6276176
-0.064911596 0.36739218 1.6219945
-0.039190531 0.37441304 1.6145246
0.73089302 0.37380114 1.6323745
0.7611835 0.37630036 1.6096588
1.4138314 0.37558499 1.6434977
1.4836322 0.37717852 1.6260937
1.5090516 0.37800482 1.6082765
0.73468256 0.4235763 1.641923
0.76830024 0.42664972 1.6209674
1.4849244 0.42154795 1.6343346
1.5079489 0.42381358 1.6105849
0.73247367 0.46428293 1.6410483
0.77954733 0.4739781 1.6286728
0.80685985 0.48781887 1.605154
1.484679 0.47729874 1.6339034
1.5094419 0.47235808 1.6089408
0.74887109 0.5471853 1.648806
0.76942343 0.52317727 1.6331109
1.4848795 0.52354395 1.6352037
1.5088922 0.52677757 1.6096271
0.68784034 0.57618529 1.6378272
0.72636116 0.56637704 1.6257609
0.75421 0.55532008 1.6167761
1.4851484 0.57140654 1.6355162
1.509578 0.57590294 1.6108797
1.4847367 0.62640506 1.6342204
1.5072659 0.62516248 1.6102843
1.4830362 0.67703319 1.6333604
1.5091447 0.6724605 1.6078031
1.4860029 0.72464991 1.6307266
1.5083847 0.72410238 1.6084574
1.4828296 0.77603567 1.6334157
1.5099289 0.77794516 1.6085089
1.483857 0.82757187 1.6338744
1.5073421 0.8221302 1.6096166
1.483694 0.87577623 1.6343783
1.5093882 0.87319696 1.6097181
1.4860415 0.92396903 1.6340448
1.510433 0.92261475 1.6100906
1.4861013 0.97604775 1.6350611
1.5092936 0.96957368 1.6096723
1.4834346 1.0260495 1.63718
1.5079499 1.0243417 1.612725
1.4848661 1.0784041 1.6349111
1.5083535 1.0756891 1.6089971
1.4842045 1.1258743 1.6358865
1.505897 1.1256572 1.6112446
1.485091 1.1730813 1.6333376
1.5096142 1.1720449 1.6077882
1.4831061 1.2234511 1.63534
1.5087657 1.2215903 1.6109533
1.4842181 1.276142 1.6344066
1.5071193 1.2666832 1.6104118
1.4861459 1.3246111 1.6323262
1.5097337 1.3238153 1.6086522
1.4871809 1.374041 1.6345578
1.5094573 1.3698745 1.6093754
1.4881506 1.4224836 1.636192
1.5089957 1.4260411 1.6122522
1.4890345 1.4698592 1.6335615
1.5105425 1.4785035 1.6097825
1.487716 1.5217992 1.6386583
1.5102947 1.5257446 1.6125568
1.4907714 1.5732601 1.6372738
1.512239 1.5766741 1.6134599
1.491631 1.6254963 1.6365385
1.5161554 1.6271418 1.6142254
1.4925019 1.6810809 1.6389022
1.5147989 1.6736066 1.6122391
1.5080343 1.7039746 1.6358502
-1.1717203 -0.50145531 1.6655595
-1.1281409 -0.50104487 1.6873475
-1.0734332 -0.5026567 1.6782459
-1.0279331 -0.50091285 1.6927738
-0.98580348 -0.50402623 1.6736418
-0.9226889 -0.5028916 1.6796628
-0.87759256 -0.50393969 1.6674083
-0.82105476 -0.50550967 1.6667534
-0.77390563 -0.50609481 1.6759002
-0.72334826 -0.50935286 1.6731606
-0.67468739 -0.50840425 1.6768957
-0.62250471 -0.51052809 1.6744335
-0.5760203 -0.51310235 1.6777467
-0.52338725 -0.51403594 1.6788626
-0.47924137 -0.51253498 1.6779352
-0.42560306 -0.51338339 1.6684728
-0.37528345 -0.513717 1.6758486
-0.32296124 -0.51047289 1.676901
-0.28147277 -0.50466114 1.6746904
0.12890352 -0.53790349 1.673708
0.17278232 -0.54127455 1.6711971
0.22546794 -0.54222596 1.6779705
0.27544227 -0.53700888 1.6783849
0.32389462 -0.52687681 1.6766666
0.37042055 -0.51311564 1.6695189
-1.1747555 -0.49674645 1.6792374
-1.1485569 -0.49962261 1.6699741
-1.0822945 -0.49821848 1.6718338
-1.0266818 -0.4973191 1.6776255
-0.97211868 -0.49604043 1.6833946
-0.92687416 -0.49749836 1.6661856
-0.85871017 -0.49939799 1.6779372
-0.84031999 -0.49908283 1.6835433
-0.27166715 -0.48801112 1.6676018
0.38249588 -0.47836992 1.6789082
0.40575457 -0.46258801 1.6578265
-0.27549845 -0.40403157 1.6648459
0.38771302 -0.42679393 1.6885835
0.4090142 -0.42338461 1.6632046
-0.25795993 -0.37913418 1.6625682
-0.2408278 -0.36427292 1.6600295
0.068290107 -0.36613274 1.6727949
0.39061141 -0.37521872 1.6919928
0.41234452 -0.37542292 1.6673115
-0.21114346 -0.34586889 1.6542857
-0.17751825 -0.32692799 1.6585089
-0.14985582 -0.30373371 1.6533868
0.05670359 -0.32364964 1.6758062
0.39366168 -0.32571813 1.6906821
0.41416809 -0.32360891 1.6677895
-0.13273416 -0.27271599 1.663587
0.042529695 -0.27107739 1.6823416
0.05058619 -0.29111847 1.6787466
0.39559951 -0.2774615 1.6918133
0.41532788 -0.27409714 1.667345
-0.1162716 -0.22614142 1.6629107
0.040324349 -0.2215656 1.6691167
0.39537838 -0.22930144 1.6939567
0.41655675 -0.22368965 1.6677763
-0.11259345 -0.17819349 1.6578388
0.04090663 -0.17346406 1.6653196
0.053073723 -0.1610394 1.6828418
0.39548469 -0.17601959 1.6941183
0.41517475 -0.17579927 1.6689279
-0.10616063 -0.13004489 1.6838201
-0.092065267 -0.11319321 1.6671244
0.049493227 -0.14241488 1.6544237
0.068928272 -0.11991141 1.6723247
0.13438514 -0.11620776 1.6746081
0.1544406 -0.10424607 1.6747171
0.39364091 -0.12647897 1.6935489
0.41531062 -0.12620421 1.6668332
-0.08027187 -0.07673125 1.6702225
0.089842319 -0.075855486 1.6706363
0.14600503 -0.0919865 1.6708887
0.16238724 -0.082659677 1.6843979
0.392629 -0.07806918 1.6927625
0.41331795 -0.077009305 1.6694818
-0.067286529 -0.031914372 1.6735151
-0.043854292 -0.017362241 1.6572475
0.39237013 -0.028707275 1.6926494
0.41384003 -0.028192118 1.6665375
-0.05634081 0.0060626986 1.6872892
-0.030150671 0.02736103 1.6687154
0.0020056986 0.047318604 1.6519346
0.092360646 0.031019231 1.6567472
0.10498059 0.03963938 1.6577797
0.39171401 0.024647431 1.6898167
0.41147572 0.024371335 1.6664072
-0.017050643 0.070801109 1.6861531
0.023631444 0.078488529 1.6653268
0.079979613 0.078778587 1.6642022
0.105072 0.075320207 1.6583713
0.38885453 0.079561338 1.6901326
0.41103974 0.076998957 1.663546
-0.0087660654 0.1435412 1.6988198
0.022878533 0.1259189 1.6898456
0.076270752 0.11655281 1.6823341
0.10651366 0.12462499 1.6792526
0.39202979 0.1067771 1.6890702
0.42001924 0.10902502 1.6675837
-0.014891654 0.16647159 1.6926671
0.026461873 0.17488295 1.6742465
0.058229789 0.18239807 1.6753185
0.10542224 0.19092059 1.657841
0.64379328 0.1860321 1.6967162
0.66907322 0.17928879 1.6706663
0.99199528 0.18918191 1.6880522
1.0213748 0.18527088 1.676035
0.039382223 0.20949236 1.6523041
0.07910087 0.22304122 1.6728868
0.56760043 0.22796537 1.6971744
0.63461262 0.22197872 1.6785369
0.6600005 0.2136263 1.6629657
0.089447871 0.25436655 1.6515832
0.71318293 0.32566911 1.675658
-0.13632424 0.36638689 1.6766175
-0.070551567 0.36305964 1.6640502
1.4243134 0.38740218 1.6830431
1.4563403 0.39295083 1.6622192
0.72117585 0.42610559 1.659325
1.4385632 0.42408079 1.6846583
1.4593837 0.4262909 1.6614362
0.72864854 0.47866777 1.6651419
0.75444341 0.48872745 1.6521182
1.4367805 0.47866136 1.6885008
1.4589268 0.47425866 1.6618704
0.73075706 0.52692562 1.668662
0.75437111 0.51760054 1.6571074
1.4368095 0.5263229 1.6865593
1.4612644 0.52727288 1.6620487
0.69000751 0.56873041 1.6720687
0.71036685 0.55800515 1.6664469
1.436713 0.57606399 1.6852854
1.4608518 0.57131523 1.6604263
1.4357978 0.62256742 1.6849406
1.4605234 0.624331 1.6587393
1.4343525 0.67206734 1.6861
1.457894 0.67493582 1.6618561
1.4322122 0.72291285 1.6855681
1.4599806 0.72419339 1.6608918
1.4346205 0.77506649 1.6838866
1.4593017 0.77619779 1.6598575
1.4342541 0.82816744 1.684558
1.4593468 0.82790399 1.658967
1.4353805 0.87922376 1.6856968
1.4592493 0.87634122 1.6599554
1.4349744 0.92843628 1.685632
1.4617733 0.92837769 1.6602356
1.4344549 0.97873491 1.6869055
1.4598579 0.9774878 1.6620606
1.436554 1.0283923 1.6827663
1.4591901 1.0261735 1.6590725
1.4335487 1.073374 1.6864953
1.4593353 1.0742028 1.6614168
1.435403 1.1238157 1.685192
1.4600737 1.1215582 1.6609135
1.4386326 1.1762004 1.6843777
1.4599249 1.1767638 1.6603425
1.4347806 1.2250413 1.6874927
1.4591509 1.2268338 1.661451
1.4350446 1.2741166 1.6869438
1.4589176 1.2739403 1.6641556
1.4376171 1.3210509 1.6889929
1.4606463 1.3271395 1.6623423
1.4385585 1.3737235 1.687252
1.4612273 1.3785092 1.6628712
1.440523 1.4251337 1.686433
1.463733 1.4270003 1.6628687
1.4407729 1.4725324 1.6885777
1.4644737 1.4746286 1.6639985
1.4414015 1.5232897 1.6891412
1.4615686 1.5254517 1.6637342
1.4413732 1.5722923 1.6898303
1.4671339 1.5800439 1.6653372
1.4416376 1.6164236 1.6922802
1.4665328 1.6260651 1.6655809
1.4420345 1.6807789 1.6936933
1.4657183 1.6703355 1.6685956
1.4411129 1.7122408 1.6928272
1.4673178 1.7067716 1.6671302
-1.1597737 -0.50116336 1.7174178
-1.1372143 -0.50544232 1.7180225
-1.0585737 -0.5040102 1.7352984
-1.0250018 -0.50239205 1.7291535
-0.96978599 -0.50450605 1.7339492
-0.92059904 -0.50410205 1.7289704
-0.87730002 -0.50636971 1.7377512
-0.82034343 -0.50386024 1.7266085
-0.77335924 -0.50657356 1.7256349
-0.72307038 -0.5057171 1.7161268
-0.67292875 -0.5095225 1.72778
-0.62763911 -0.50743032 1.721889
-0.56927657 -0.51013988 1.7233678
-0.52156121 -0.5120284 1.7295345
-0.47657195 -0.51066148 1.7260929
-0.42339835 -0.51143152 1.718942
-0.37583101 -0.51222003 1.7292382
-0.32655802 -0.50980437 1.730806
0.13214719 -0.52317858 1.7265511
0.17524864 -0.53617245 1.7229838
0.22325428 -0.53641993 1.7237127
0.27602187 -0.52919203 1.7273697
0.32536909 -0.51288635 1.7227994
-1.2088802 -0.49491721 1.7338512
-1.1827793 -0.49713039 1.7340114
-1.019232 -0.49873775 1.7300439
-0.99075234 -0.49862412 1.7208841
-0.8421908 -0.49921182 1.7215191
0.33283108 -0.47810191 1.7343227
0.3585864 -0.46935076 1.710113
0.095078044 -0.41390809 1.7374595
0.33970422 -0.42580527 1.7413093
0.36348903 -0.42446151 1.7153988
-0.24701527 -0.36532611 1.7038525
0.081083074 -0.37946352 1.7319895
0.34338358 -0.37540531 1.7465397
0.36670855 -0.37441581 1.7188693
0.065768436 -0.32651171 1.7192163
0.3434369 -0.32415289 1.7471077
0.36611891 -0.32396707 1.7220722
0.055943921 -0.27422082 1.7209979
0.34508559 -0.26920605 1.7468024
0.36849597 -0.27624649 1.7216566
0.054625209 -0.21696071 1.728984
0.34921366 -0.22680791 1.7422003
0.37123489 -0.22281183 1.7199552
0.064188808 -0.16809754 1.7278104
0.347684 -0.17634536 1.7445786
0.37199223 -0.17327869 1.7219574
-0.10395477 -0.10600417 1.7055539
0.072067209 -0.1398904 1.720544
0.34887978 -0.12257695 1.7473564
0.3703185 -0.12498344 1.7229465
-0.13554788 -0.083300166 1.7430944
-0.094255537 -0.068678848 1.7281681
0.34683111 -0.082747623 1.7473209
0.36939296 -0.075077832 1.7232507
-0.12245764 -0.019306205 1.7374009
-0.07854642 -0.026859337 1.7131368
0.34809762 -0.021045778 1.7461377
0.36962 -0.026798205 1.7207667
-0.15630263 0.020860864 1.7431771
-0.13567735 2.5359686e-05 1.7472074
-0.064477071 0.021009855 1.7243348
-0.046879213 0.04491413 1.7094905
0.3459726 0.02534952 1.7462556
0.36896279 0.023482772 1.7184848
-0.11901049 0.075213537 1.7474697
-0.033121649 0.082274191 1.7233639
0.34205234 0.073210634 1.7415001
0.36560094 0.074273527 1.7176977
-0.018114936 0.1256016 1.7264273
0.01832716 0.12209181 1.7028577
0.070049912 0.1409751 1.709675
0.10415913 0.14295842 1.7059379
0.34284246 0.10099579 1.7395294
0.36527339 0.10603613 1.7200297
-0.14849114 0.1632176 1.7448664
-0.031803541 0.17251888 1.7161794
0.0061489651 0.18770364 1.7036165
0.073254891 0.17294088 1.7239097
0.59673923 0.19635554 1.741016
0.62398785 0.1811402 1.7277552
0.65916628 0.1643541 1.7247009
0.98016667 0.17831881 1.7320136
1.0058798 0.18270968 1.7124616
0.091353171 0.21649294 1.7216282
0.10187232 0.2119754 1.7321035
0.4612399 0.22110958 1.732839
0.53636593 0.22690406 1.7128863
0.58313495 0.22029702 1.7293661
0.61466444 0.21433711 1.7100168
1.3196446 0.36963063 1.7372124
1.3844883 0.39015895 1.7349355
1.4090157 0.39261401 1.7121297
1.3881704 0.42842278 1.7379245
1.4144344 0.427154 1.7119954
0.72621363 0.49460137 1.7020675
1.3870076 0.4756268 1.7362756
1.4118366 0.47596917 1.7112144
0.72225893 0.53796792 1.7075638
1.3874811 0.5225389 1.7373275
1.4125726 0.52201337 1.7133904
0.71118963 0.55748552 1.7128699
1.3856882 0.5797227 1.7375005
1.4106843 0.57497978 1.7127444
1.3845836 0.62700897 1.7366922
1.41032 0.62797892 1.7117294
1.3872544 0.67693913 1.7342238
1.4103392 0.67591977 1.7110819
1.3853509 0.72373706 1.7344422
1.4093596 0.72939867 1.7111626
1.3843322 0.77373946 1.734961
1.4098178 0.77257186 1.7106531
1.3858135 0.8223967 1.7355415
1.411135 0.82398385 1.7096691
1.3857585 0.87112194 1.7356292
1.4098077 0.8748526 1.7113172
1.3874741 0.92064154 1.7367883
1.4107523 0.92512363 1.7135006
1.386565 0.97063565 1.7361871
1.4097524 0.97216833 1.7135675
1.3872502 1.021515 1.7369256
1.4102324 1.0206981 1.7117398
1.3891063 1.0745851 1.7369742
1.4102982 1.0729992 1.7121775
1.3862193 1.1266536 1.7397815
1.4097008 1.1248674 1.7134483
1.3890643 1.1738825 1.7386675
1.4117274 1.1747824 1.7123883
1.3869162 1.2249154 1.7378275
1.4106921 1.2243826 1.7134877
1.3876191 1.2771895 1.7372167
1.4122506 1.2735927 1.7144157
1.3880978 1.3284897 1.7398461
1.4130496 1.3248887 1.7147599
1.3889754 1.3696772 1.7362747
1.4131428 1.3741686 1.7140859
1.3917761 1.4252577 1.7416699
1.4123569 1.4222939 1.7177955
1.3946161 1.4760731 1.7426577
1.4177489 1.4713291 1.7178496
1.3936726 1.5300417 1.7416915
1.4169055 1.5192354 1.7171495
1.3940719 1.578318 1.7423292
1.4184402 1.5740234 1.7184266
1.3996681 1.6183906 1.7462292
1.420312 1.6265378 1.7193382
1.3955084 1.6697944 1.7435981
1.4193125 1.6732404 1.7216234
1.3959641 1.7190402 1.7471907
1.4183272 1.7179953 1.7262119
-1.2255061 -0.50290722 1.7888101
-1.0710622 -0.50487077 1.7783228
-1.0378425 -0.50290823 1.7845361
-0.97132951 -0.50321627 1.7701433
-0.92111039 -0.50365585 1.7604673
-0.87880641 -0.5025028 1.7730608
-0.82436776 -0.50391084 1.779554
-0.77805334 -0.50601113 1.7759573
-0.72409981 -0.50690448 1.7714708
-0.67496467 -0.50706834 1.7795584
-0.62605351 -0.51052588 1.777558
-0.57454616 -0.50731426 1.7734326
-0.52893853 -0.51320219 1.780358
-0.46971807 -0.51085353 1.7789243
-0.42859811 -0.51151282 1.7720743
-0.37228936 -0.51336741 1.7863435
-0.32198158 -0.50884789 1.7785897
0.13779266 -0.50657892 1.7581978
0.17392898 -0.5206176 1.7714201
0.22728102 -0.52510047 1.7783546
0.27523628 -0.51267695 1.7733682
0.30600578 -0.50769812 1.7546539
-1.0707271 -0.49726602 1.7902697
-1.0066187 -0.49944249 1.7826668
-0.98579115 -0.49857068 1.773013
-0.91973382 -0.49846977 1.7702565
0.13137724 -0.47413114 1.7831062
0.15501888 -0.47142166 1.7856741
0.28254315 -0.47701186 1.7828537
0.3108348 -0.46973774 1.7598128
0.09651126 -0.40726095 1.7656407
0.12437563 -0.42408037 1.7833588
0.15455577 -0.43443879 1.7938325
0.29046026 -0.42608863 1.7887539
0.31802148 -0.42448151 1.7646328
0.091700308 -0.3743206 1.7829247
0.11677513 -0.39103344 1.7918578
0.2950187 -0.37388924 1.7937413
0.32190511 -0.37434092 1.7669569
0.079616427 -0.32752165 1.7817516
0.2945973 -0.32482016 1.792406
0.32141343 -0.32410997 1.7691296
0.068043262 -0.28262171 1.7661675
0.29669756 -0.27706796 1.7935743
0.3221257 -0.27576259 1.7700517
0.061237037 -0.23211627 1.7590013
0.29743701 -0.2257233 1.7950808
0.32421502 -0.22653104 1.7685175
0.065062314 -0.17618042 1.752418
0.29712337 -0.18210691 1.7964042
0.3229748 -0.17509301 1.7724007
-0.11983798 -0.10091454 1.7587965
0.29700509 -0.12135296 1.7990085
0.32329643 -0.12415732 1.7735548
-0.16119914 -0.057208758 1.7595422
-0.12482535 -0.069167778 1.767572
-0.099403024 -0.071900785 1.7712926
0.29669878 -0.095238149 1.7981976
0.32421103 -0.071254566 1.7747124
-0.16224395 -0.025266264 1.7621601
-0.13035998 -0.027682446 1.763966
-0.099096976 -0.016847031 1.7666918
0.32377169 -0.02616049 1.7735065
-0.15750167 0.0042207693 1.7566388
-0.12788244 0.022341046 1.7621756
-0.09436518 0.024147306 1.7678297
0.29581043 0.030263808 1.7941964
0.32132798 0.020396346 1.7724707
-0.1503398 0.084749103 1.7703587
-0.12767173 0.070576496 1.7721888
-0.082541749 0.070369646 1.7715681
-0.044232007 0.084272563 1.7650709
0.29154322 0.07344833 1.7941517
0.31728756 0.071839832 1.7694016
-0.15085272 0.12330264 1.7748818
-0.12379695 0.12387325 1.7766902
-0.092186101 0.12519151 1.7810866
-0.035984948 0.12719689 1.7738184
0.29133794 0.10361726 1.7919481
0.32602778 0.10476575 1.7650768
-0.12212311 0.17151269 1.7890519
-0.078148887 0.17562191 1.785521
-0.048329007 0.15984538 1.7579615
0.090949565 0.17762893 1.7650623
0.10353976 0.19436276 1.7620705
0.54631543 0.19471389 1.7933018
0.57405406 0.17965022 1.7746588
0.60695392 0.16872703 1.7545776
0.88786697 0.17959268 1.7775263
0.93282533 0.18254371 1.7954742
0.9574213 0.18103057 1.7679038
0.094875842 0.20235437 1.7577766
0.10319079 0.2021291 1.7555075
0.49596611 0.22501878 1.7830142
0.52974051 0.21785761 1.7792082
0.56636643 0.20900343 1.7637234
1.1251316 0.38530377 1.7727199
1.155629 0.38470456 1.7947562
1.3307681 0.38595852 1.7796872
1.3588457 0.39350563 1.7621654
1.135113 0.43861699 1.7935349
1.3359181 0.42609262 1.789631
1.3614063 0.42447308 1.7637275
1.1331267 0.45750278 1.7865644
1.3392264 0.47343799 1.7845141
1.3626968 0.46924141 1.7611967
1.1368874 0.51959479 1.7937855
1.3365648 0.52723783 1.786083
1.3619423 0.5257203 1.7624418
1.1241871 0.5875783 1.7773484
1.3386599 0.57553214 1.7846203
1.3635628 0.57246959 1.7596018
1.1199509 0.62755775 1.7753868
1.336751 0.62474984 1.7866447
1.360433 0.62349218 1.7631333
1.1189716 0.66120857 1.7887115
1.333696 0.67653304 1.7868582
1.360496 0.67330909 1.7632225
1.1136872 0.71758646 1.7965697
1.3338065 0.72163677 1.7860821
1.3605423 0.72847497 1.7615217
1.3353646 0.7752946 1.7854755
1.3600309 0.779773 1.7607274
1.337257 0.82803226 1.7844702
1.3616006 0.82379365 1.7614464
1.3369416 0.8752479 1.785014
1.3621153 0.8732124 1.7602189
1.3352228 0.92689967 1.7881438
1.3621851 0.92237455 1.7624156
1.3339553 0.97726995 1.7880825
1.3611127 0.97253132 1.7621087
1.3362694 1.0294414 1.7873242
1.3618242 1.0257778 1.7624564
1.336938 1.07555 1.7900349
1.3630137 1.0734665 1.7634412
1.3392481 1.1247553 1.7880999
1.3640535 1.1189867 1.7623497
1.3401579 1.1770008 1.786103
1.3622581 1.1742632 1.7625275
1.3380991 1.2260979 1.7887045
1.3632309 1.2250909 1.7631379
1.3382936 1.2769005 1.7922012
1.3616853 1.2719598 1.7661605
1.3392237 1.318701 1.7905121
1.3634739 1.3210918 1.7666594
1.3403356 1.3664072 1.7921879
1.3665925 1.376367 1.7673408
1.3435595 1.4243695 1.7909569
1.3660818 1.4263936 1.766981
1.343264 1.4725652 1.7911491
1.3703947 1.4784961 1.7669824
1.343839 1.5291224 1.7959735
1.3660166 1.5252737 1.7710249
1.3466556 1.5829179 1.7964841
1.3683176 1.5730939 1.7706079
1.3723611 1.6260846 1.7745527
1.3708571 1.6763849 1.7725581
1.3407829 1.7014511 1.7992477
1.3693684 1.7245094 1.7774758
-1.091674 -0.50241035 1.8042572
-1.0239655 -0.50314659 1.821947
-0.97623003 -0.50365579 1.8227146
-0.94165015 -0.50326979 1.8255773
-0.86712289 -0.50380355 1.8227344
-0.82821238 -0.50673878 1.8272054
-0.77743757 -0.50485003 1.8224176
-0.72236753 -0.50531656 1.8166895
-0.6702956 -0.50712317 1.8212459
-0.62386996 -0.5090344 1.8187394
-0.58229488 -0.51051533 1.8309079
-0.52410907 -0.51063526 1.8212284
-0.47384188 -0.51114243 1.8334241
-0.42249963 -0.51345903 1.8249667
-0.38377872 -0.51304978 1.8312069
-0.33390602 -0.50743806 1.8247787
0.18221028 -0.50914389 1.8180803
0.2192495 -0.50902092 1.8147984
0.25033277 -0.50494379 1.8001777
-1.0663792 -0.49980652 1.8038608
-0.96656942 -0.49895498 1.8417635
-0.91210985 -0.49513224 1.8014549
-0.88122648 -0.4992401 1.8302991
0.17090598 -0.47041315 1.8160928
0.22642434 -0.47605821 1.8224995
0.25617409 -0.46792844 1.8058381
0.16148016 -0.42071208 1.8179601
0.22851449 -0.42533433 1.8331519
0.26335961 -0.42481804 1.8108975
0.095867097 -0.35398963 1.8161911
0.12735677 -0.3810778 1.8149594
0.15288916 -0.39868873 1.8252482
0.22896762 -0.37599501 1.838495
0.26725334 -0.37543985 1.8141431
0.09231133 -0.32645702 1.8151636
0.11177089 -0.3338241 1.8296063
0.19886972 -0.32165697 1.8483046
0.22967449 -0.32696253 1.8399748
0.2661607 -0.32533184 1.8177631
0.23781657 -0.2755439 1.8401939
0.27088031 -0.27612871 1.8155869
0.241859 -0.22793372 1.840991
0.27323052 -0.22348157 1.8164232
0.24337836 -0.17549059 1.8425531
0.27226606 -0.17388925 1.8202372
0.24414006 -0.12534159 1.8451306
0.27323532 -0.12697536 1.8220083
0.19434252 -0.078564323 1.8227968
0.2433455 -0.085052684 1.8463894
0.27400082 -0.073635958 1.8240675
0.19546497 -0.013119013 1.834357
0.24553679 -0.022083031 1.843811
0.27688432 -0.026797857 1.8211038
0.19622841 0.039714545 1.84124
0.24146177 0.025990808 1.8425423
0.27471527 0.020787904 1.8183032
0.1952239 0.070126355 1.8311745
0.22813061 0.076272808 1.8383067
0.26815882 0.074138574 1.814016
0.2280397 0.10503983 1.8229542
0.2674318 0.10439628 1.8081065
-0.084320523 0.16876055 1.8071582
0.4980627 0.18391572 1.8454376
0.52476484 0.17924307 1.8231304
0.5535959 0.16276133 1.8353617
0.89144444 0.17426008 1.8242817
0.91070473 0.17902642 1.81805
0.43286353 0.22108586 1.8327042
0.47562227 0.21515839 1.8302654
0.51527935 0.20817693 1.8105651
1.1785169 0.37707376 1.8117294
1.2195528 0.38917619 1.8263727
1.2769955 0.38432288 1.8216358
1.3124263 0.38578343 1.8090969
1.1489713 0.40554321 1.8012859
1.1749974 0.42426851 1.8189023
1.2268437 0.42816335 1.8413442
1.2792372 0.42304713 1.8430569
1.3112216 0.42120442 1.8149631
1.1499043 0.47924584 1.80998
1.1770835 0.47664702 1.8240452
1.225685 0.47468632 1.8454834
1.2813828 0.47637856 1.8417547
1.3140544 0.4754678 1.8108144
1.1403613 0.53932571 1.8023752
1.1780869 0.52056211 1.8259062
1.2174096 0.52918339 1.8443042
1.2899464 0.52621162 1.8407524
1.3113358 0.52314949 1.814146
1.1435241 0.56084538 1.8025692
1.1819085 0.57526135 1.8303349
1.2241107 0.5744825 1.842504
1.2885319 0.57428223 1.8372335
1.3141321 0.57178986 1.8111379
1.1687145 0.62357521 1.8166256
1.2222589 0.62822998 1.8463317
1.2821311 0.62522674 1.8395474
1.3104256 0.62299317 1.8120407
1.1351696 0.67116904 1.8030401
1.1790804 0.68058598 1.8307599
1.2238443 0.67110145 1.8426819
1.2842035 0.67569953 1.8349872
1.3125578 0.67123383 1.8091614
1.1317484 0.72398865 1.8084587
1.1787816 0.72482193 1.8373663
1.2155144 0.72396678 1.8467516
1.2860399 0.72907442 1.8369852
1.3106399 0.72326964 1.8115762
1.136423 0.77929974 1.8256656
1.1750209 0.77361566 1.8332032
1.2231016 0.77133906 1.8454496
1.2856038 0.77340066 1.8361487
1.3108251 0.77161044 1.8106722
1.1767589 0.82292801 1.8371439
1.2270272 0.82415217 1.8449675
1.2801547 0.8228609 1.8383751
1.3114927 0.82806563 1.810801
1.1473912 0.8511281 1.8366699
1.1776257 0.87353307 1.8358691
1.2172443 0.86954582 1.8410239
1.2823105 0.86957234 1.8365078
1.311235 0.88266724 1.8117466
1.1751491 0.92093617 1.8329809
1.2107712 0.9078995 1.8435116
1.2825292 0.92125958 1.8364512
1.3129396 0.93026489 1.811736
1.1668499 0.96136999 1.8341534
1.2857898 0.97111458 1.8358134
1.3105637 0.97754508 1.8132005
1.2855831 1.0235674 1.8374515
1.3097966 1.0212134 1.8125395
1.2871526 1.0760969 1.8348557
1.3146901 1.0735811 1.8118092
1.2872924 1.1275914 1.8396994
1.313745 1.1261476 1.8122449
1.2882779 1.1748646 1.8376473
1.3146329 1.1768616 1.8114092
1.2866179 1.2272606 1.8408743
1.3152283 1.2241617 1.8140404
1.2905591 1.2670753 1.8375732
1.3134048 1.2779505 1.8166363
1.2897416 1.3167646 1.8427413
1.3151201 1.3300666 1.819904
1.2896209 1.3771156 1.8451064
1.3146508 1.3767409 1.8199146
1.294103 1.4289036 1.8431436
1.3195616 1.4243389 1.8185811
1.2956532 1.4611492 1.8410767
1.3191165 1.4749355 1.8209883
1.2949185 1.5488079 1.8460033
1.320078 1.5269163 1.8245975
1.295523 1.5617437 1.8378495
1.3247842 1.5787584 1.8210407
1.3238819 1.624083 1.8236557
1.3260835 1.6717461 1.8253129
1.3254626 1.7260863 1.8260472
1.3513389 1.7274734 1.8033386
1.2989275 1.7543012 1.8468007
1.3192775 1.7560595 1.8371227
-1.0004413 -0.50123042 1.8852483
-0.98509663 -0.50341606 1.8543639
-0.86672425 -0.50477898 1.8589563
-0.82098752 -0.50450307 1.872804
-0.78485596 -0.50525743 1.8869042
-0.72376436 -0.50780439 1.8662586
-0.67653179 -0.50665462 1.8657011
-0.62610048 -0.50939447 1.8698266
-0.57084113 -0.5108481 1.8677456
-0.52714109 -0.51195306 1.8679789
-0.47561014 -0.51291436 1.8798466
-0.42620724 -0.51232463 1.8761848
-0.37538651 -0.51314873 1.8729481
-0.34310573 -0.51345724 1.8919852
0.19470264 -0.50376493 1.8698742
-1.011184 -0.49652627 1.8835719
-0.33028212 -0.49885744 1.8750129
0.18506426 -0.4978669 1.8665006
0.20329529 -0.49776185 1.8648309
0.21022931 -0.42487159 1.8559649
0.12539628 -0.36910558 1.8607082
0.15643959 -0.39888149 1.8689244
0.21019053 -0.37055629 1.8632908
0.12849665 -0.34250832 1.8665859
0.19964957 -0.33188865 1.8545151
0.21146888 -0.31674644 1.8541101
0.21604489 -0.2730512 1.8558489
0.21864231 -0.22424236 1.8591274
0.22087885 -0.17386691 1.8618711
0.22021003 -0.12427109 1.8629345
0.19773901 -0.093257695 1.8542531
0.222727 -0.074502178 1.8621396
0.22183187 -0.027587155 1.8609883
0.21798122 0.019147649 1.8563612
0.21072395 0.053256795 1.8512037
0.44098806 0.18620697 1.8922377
0.47338763 0.1791586 1.870735
0.84334493 0.17896751 1.8981094
0.86953121 0.17744522 1.8763291
0.38055339 0.21667486 1.8889786
0.42690092 0.21005844 1.8747044
0.46377355 0.20237081 1.8611566
1.2794025 0.44674912 1.8502197
1.2299161 0.48508459 1.8520725
1.2745581 0.47173619 1.8521441
1.2427486 0.51884604 1.8521001
1.2700018 0.52194947 1.8524609
1.2450889 0.59553564 1.8507564
1.2678849 0.57673681 1.8526837
1.2451061 0.61814862 1.8523065
1.272351 0.6221332 1.8535017
1.2423614 0.69677693 1.8520303
1.2715052 0.66449195 1.8515933
1.2387903 0.72858405 1.8524885
1.265198 0.71852458 1.8532015
1.2288778 0.78366131 1.8521175
1.2604477 0.77837229 1.8541063
1.23356 0.83268756 1.8509228
1.2639298 0.80552566 1.8521874
1.2442815 0.88041055 1.8516148
1.2653346 0.87570333 1.8528005
1.2322675 0.93043345 1.8569146
1.2570615 0.91736162 1.8542631
1.2335169 0.97813892 1.8740515
1.2612731 0.97658372 1.8589482
1.1819227 1.0256761 1.8780491
1.23048 1.0272303 1.8852556
1.2605786 1.0290613 1.8604178
1.1464713 1.0942531 1.8922684
1.2345589 1.075235 1.8875087
1.2629251 1.072304 1.8610048
1.1350703 1.132778 1.888
1.2364887 1.1267946 1.887188
1.2616189 1.1221268 1.8635815
1.2379882 1.1786735 1.8887494
1.2636249 1.1704917 1.8638349
1.2390645 1.2196363 1.8873738
1.2620468 1.2234026 1.868018
1.2407929 1.2751255 1.8879387
1.2666392 1.2760924 1.8661952
1.2385063 1.3230872 1.8916115
1.2664211 1.3254851 1.8646293
1.2416383 1.3696394 1.8936039
1.2662299 1.3740346 1.8714985
1.243343 1.4234974 1.8934745
1.2682698 1.4186722 1.8699386
1.2717478 1.4717418 1.872162
1.2490994 1.5279197 1.897082
1.2748253 1.5223045 1.8720402
1.2730272 1.5779501 1.8764055
1.2778844 1.6235445 1.8717103
1.3002307 1.6070436 1.8510849
1.2792301 1.673286 1.8767949
1.280897 1.7267314 1.8773316
1.308687 1.7249811 1.8554244
1.2805338 1.7651472 1.8812437
-1.0107101 -0.50127512 1.9298886
-0.99722874 -0.50468534 1.9021872
-0.81663936 -0.50492972 1.9251368
-0.76312888 -0.50614941 1.9292818
-0.74410141 -0.51065743 1.9210541
-0.66586244 -0.50983959 1.9293846
-0.62647098 -0.51346481 1.9338511
-0.57908845 -0.51360136 1.93093
-0.52413845 -0.51404417 1.9265248
-0.47320664 -0.51630986 1.9316521
-0.42562371 -0.51352811 1.9186112
-0.37530634 -0.5155881 1.927318
-0.34676453 -0.50949788 1.9138708
0.19848858 -0.50422305 1.9078958
-1.0094093 -0.49560621 1.9041203
0.20770262 -0.49458784 1.9077142
0.39832774 0.18386357 1.9437851
0.42267314 0.17612092 1.924304
0.81824249 0.17594726 1.9186106
0.32924819 0.2148912 1.9319023
0.37154913 0.21054369 1.9255649
0.41101596 0.20438802 1.9109211
1.1884618 1.0848771 1.9164138
1.2116867 1.0788677 1.9070543
1.1816223 1.1283525 1.9202282
1.211009 1.1237104 1.9098796
1.1459184 1.177608 1.9089702
1.1814535 1.171231 1.913147
1.2144251 1.1722002 1.9069424
1.1796201 1.2235918 1.9308618
1.2158264 1.2290649 1.9132762
1.1453229 1.2584431 1.9270834
1.190174 1.275654 1.9382921
1.2183416 1.2722965 1.9136382
1.1932222 1.3268429 1.940297
1.2158761 1.3255554 1.9180198
1.1970441 1.3798565 1.9425054
1.2189713 1.378324 1.9176477
1.1941879 1.4205335 1.9450361
1.2187303 1.4262794 1.9231495
1.2222623 1.4748656 1.9234195
1.2519833 1.4802011 1.9013538
1.2243283 1.5256187 1.9229845
1.2257016 1.5771015 1.927225
1.2230729 1.6241918 1.9267598
1.2519193 1.6306844 1.9035428
1.2284973 1.6748537 1.9278774
1.2515833 1.6782302 1.9054595
1.2288834 1.7259202 1.93007
1.2568574 1.7193995 1.9069544
1.2341018 1.7733871 1.9274002
1.2635863 1.7695436 1.9050313
-1.0101829 -0.50614411 1.9526016
-0.87391269 -0.50424242 1.9674282
-0.8371495 -0.50621116 1.9757273
-0.77352405 -0.50385082 1.9721819
-0.74484682 -0.50804794 1.9532614
-0.62904942 -0.51296985 1.9590137
-0.58228201 -0.51215458 1.9727135
-0.53777343 -0.51383775 1.9811258
-0.47013274 -0.51636147 1.9620268
-0.4181743 -0.51237845 1.9543252
-0.37666002 -0.51511741 1.970742
-0.34862024 -0.50705373 1.9825404
0.20289658 -0.50587589 1.9519304
-1.0285488 -0.49970886 1.9659253
-0.89381313 -0.49437249 1.9886256
-0.83340442 -0.49936584 1.9817194
0.37604889 0.17964813 1.9694693
0.78005415 0.17347682 1.9705524
0.80359179 0.17321792 1.9605794
0.27759269 0.21123181 1.9922328
0.32817388 0.20885207 1.9760309
0.35425594 0.20446944 1.9655403
1.1435597 1.2824274 1.975493
1.1695445 1.2909961 1.9645492
1.1472477 1.3236957 1.9948225
1.1689101 1.3255016 1.9691533
1.1423966 1.3559197 1.9994489
1.1735406 1.3749864 1.9694641
1.1725546 1.4235771 1.9743382
1.1760578 1.4769045 1.9750061
1.1777965 1.5244973 1.975774
1.2018268 1.5456101 1.9535733
1.1813061 1.5759785 1.9742593
1.1814501 1.6266212 1.9798424
1.1832613 1.6694028 1.9795979
1.2054514 1.6774487 1.9593225
1.1861484 1.7239953 1.9823852
1.2077346 1.7245198 1.9570844
1.1854119 1.7743105 1.9845338
1.2043828 1.7769405 1.9635596
1.1890306 1.8092004 1.9894745
1.2167917 1.8018215 1.9639734
-0.87807834 -0.50749791 2.0044775
-0.82737458 -0.50456846 2.0308762
-0.78395158 -0.50871849 2.0138426
-0.69378936 -0.5119006 2.0273964
-0.61887801 -0.51432872 2.0320072
-0.57191384 -0.5139057 2.0175388
-0.52383566 -0.51820058 2.0183864
-0.43587294 -0.51797146 2.014683
-0.36073813 -0.51246667 2.0234246
0.32501945 0.18088463 2.0268803
0.35129425 0.17931558 2.0058584
0.72842771 0.17654474 2.0227091
0.76117134 0.17597416 2.0070348
0.24885707 0.20697691 2.0488825
0.27794558 0.20706938 2.0310667
0.31822321 0.20409591 2.0136018
1.0629917 1.1650454 2.0306265
1.0640203 1.2481955 2.0035679
1.1136433 1.2864999 2.019978
1.1240796 1.3236296 2.0239611
1.1262399 1.37638 2.0263414
1.1516469 1.3911042 2.0014882
1.1268675 1.4252191 2.0279431
1.1516355 1.4425341 2.0064967
1.130897 1.4736899 2.0274465
1.1541842 1.4579859 2.0033131
1.1321647 1.521399 2.0326762
1.1547445 1.5336013 2.006485
1.1341767 1.5716922 2.0314565
1.1565762 1.5805449 2.0057805
1.1350938 1.6195205 2.0320511
1.154223 1.6343666 2.0159504
1.1363168 1.676728 2.0355871
1.1595613 1.67479 2.0085256
1.1367174 1.7238363 2.0364907
1.1615489 1.7306874 2.0110776
1.1445513 1.7695588 2.0325606
1.1622794 1.7771113 2.0152197
1.1422268 1.8127407 2.0379422
1.1622658 1.8152843 2.0193353
-0.85547507 -0.50834966 2.0644193
-0.6077987 -0.5119729 2.0696187
-0.46605179 -0.51947421 2.0588689
-0.3706305 -0.51220208 2.0711596
0.24309811 0.1803931 2.0865703
0.27910522 0.17477627 2.0829256
0.31496769 0.16992427 2.0753601
0.35055563 0.15914714 2.0609457
0.67914802 0.16797115 2.0774009
0.70793629 0.1751537 2.0747957
0.27365258 0.20088033 2.0869136
0.795008 0.34223127 2.0772274
0.81584179 0.34116882 2.0763612
0.78862822 0.36625955 2.0816655
0.80988199 0.36947632 2.0877604
1.0624571 1.184257 2.0819764
1.0640815 1.2271014 2.0881481
1.0746046 1.2850884 2.0759897
1.0787092 1.3245302 2.0772388
1.1022439 1.3353567 2.0531406
1.0802872 1.3726933 2.0781255
1.1043143 1.3757393 2.0542233
1.0836697 1.426511 2.0786643
1.1040754 1.4074782 2.0539691
1.0836173 1.4698579 2.0826504
1.1060089 1.4826463 2.0620117
1.0870172 1.5224745 2.08358
1.1096965 1.527913 2.0574906
1.0878698 1.5738698 2.0856743
1.1101229 1.5758091 2.0641472
1.0898161 1.6275712 2.0842402
1.1083858 1.6241529 2.0645409
1.0897448 1.6726351 2.0896339
1.1109672 1.6754173 2.0623085
1.0935657 1.7179207 2.0917079
1.1152878 1.7319722 2.0638986
1.0962194 1.7813164 2.0923111
1.11896 1.7771676 2.0621815
1.0965618 1.82077 2.0955448
1.1191789 1.827809 2.0719473
1.1043009 1.8537817 2.0948515
0.2456641 0.18237807 2.1086438
0.26054293 0.18720257 2.104672
0.64580899 0.17138231 2.1298447
0.66470689 0.17553797 2.1161866
0.25510928 0.20207463 2.1010163
0.78210068 0.37385443 2.1223021
1.0281843 1.1386906 2.1310081
1.0325477 1.176344 2.1289887
1.0520016 1.1806087 2.1091337
1.0340704 1.2243142 2.1288412
1.0560253 1.2150502 2.1035194
1.0327798 1.2755632 2.1325705
1.0544503 1.2755412 2.1060801
1.0317535 1.3239096 2.1300495
1.053894 1.3255261 2.1069891
1.0337864 1.3760856 2.1349232
1.0567725 1.3839737 2.1121609
1.0361822 1.4257399 2.1304843
1.0599557 1.4231902 2.1088443
1.0384654 1.4790474 2.1408107
1.0619534 1.4792634 2.1119978
1.040109 1.5191441 2.1360016
1.0633317 1.5285479 2.1119189
1.0416318 1.5776384 2.1406171
1.0634745 1.5784088 2.1120565
1.0419636 1.6213174 2.1433804
1.064428 1.6262705 2.119158
1.0441203 1.6746532 2.1415284
1.0689427 1.675482 2.1146007
1.0446587 1.7210228 2.146821
1.0648181 1.7219588 2.1214182
1.0462087 1.7924337 2.1499586
1.07253 1.7705344 2.1223884
1.069241 1.8216233 2.1268129
1.0754092 1.8588107 2.1266665
0.22589716 -0.49946114 2.1835279
0.5661568 0.15954749 2.1767597
0.6234377 0.1721406 2.1680686
0.8815614 0.99606043 2.1902461
0.98467702 1.140669 2.1828721
1.0080748 1.1430807 2.1535296
0.98685908 1.1711086 2.1822984
1.0080887 1.179057 2.1598973
0.9889558 1.2206579 2.1832609
1.0086569 1.2306796 2.1593642
0.98611474 1.2754072 2.1881971
1.0106802 1.2706946 2.1588256
0.98805547 1.3261478 2.1857402
1.0059187 1.3218008 2.1622145
0.99268562 1.3752477 2.1833131
1.0117201 1.3753687 2.1584704
0.99132586 1.4230375 2.1869156
1.0113983 1.4261159 2.1638896
0.99196172 1.4789802 2.1903751
1.013194 1.4737676 2.1659365
0.99235809 1.5211809 2.1896279
1.0161763 1.5297054 2.1672468
0.99340534 1.5797606 2.1921873
1.0160818 1.5771825 2.1683242
0.99559385 1.6262525 2.1938202
1.0173662 1.6259255 2.1702597
1.0183871 1.6729708 2.1711452
1.0195806 1.7255359 2.1751108
1.0254836 1.7728884 2.1784296
1.0330666 1.8252695 2.1770067
1.0364189 1.8735795 2.1766853
1.0617599 1.8854833 2.1581402
1.0236435 1.903432 2.1989019
-2.089318 2.3134229 2.1923945
0.54964125 0.16413422 2.2449369
0.572604 0.17069669 2.2304845
0.87920284 0.41587806 2.215517
0.91921306 0.43408692 2.2426884
0.92630118 0.47908011 2.2406962
0.92602134 0.52478915 2.2362621
0.92767686 0.57756364 2.2346959
0.9256953 0.62532675 2.2303255
0.92172205 0.67606795 2.2339871
0.89092898 0.73832089 2.2196677
0.90508038 0.71732891 2.2282252
0.88850355 0.78091151 2.2373519
0.88749683 0.80914283 2.2272661
0.8867538 0.86081189 2.2109385
0.89627111 0.97096336 2.2406602
0.8989675 1.0037762 2.2375464
0.93181044 1.131034 2.2216032
0.96167302 1.141047 2.2128389
0.93966067 1.173328 2.2365735
0.96333253 1.1750358 2.2143877
0.94204956 1.2235159 2.2396762
0.9622488 1.2240076 2.2183988
0.94490576 1.2762128 2.2386365
0.96288937 1.2760366 2.2169883
0.94279504 1.3222384 2.23892
0.96234566 1.320997 2.2148583
0.94208175 1.3773311 2.2388718
0.96650767 1.3733373 2.215601
0.94446582 1.4251527 2.2367742
0.96632659 1.4262671 2.216413
0.94339359 1.4816514 2.2487881
0.9674089 1.4765732 2.2209883
0.94345975 1.5308675 2.2453713
0.96772325 1.5273337 2.2191813
0.94536579 1.5838225 2.2452948
0.96869642 1.5750589 2.2225964
0.96914732 1.6244236 2.2256548
0.97630864 1.6745991 2.222719
0.97671831 1.7252738 2.2292905
1.0008239 1.7164229 2.2011199
0.97924978 1.7719331 2.2301977
1.0014634 1.7879112 2.2051916
0.98581773 1.8224206 2.231843
1.00571 1.8331453 2.2054214
0.99003649 1.8720846 2.2332411
1.0127552 1.8753511 2.2084131
0.99420941 1.9195311 2.247323
1.0120447 1.9206949 2.2272186
-2.1655476 2.3258188 2.238677
-2.1295984 2.3315687 2.2325606
-2.0735013 2.3153422 2.2252996
-2.0324779 2.3153234 2.2331619
0.53809941 0.1710972 2.2825065
0.55357128 0.17632382 2.2604272
0.88526982 0.43848017 2.2776904
0.91038907 0.44531214 2.259217
0.88941401 0.47242981 2.287163
0.91024494 0.47574967 2.2609873
0.88765061 0.52763128 2.2876058
0.91075969 0.52640486 2.2642212
0.88901585 0.57731605 2.2827618
0.91171134 0.57328099 2.2585537
0.88571286 0.6285004 2.2863917
0.90919578 0.62067091 2.2598398
0.88677961 0.67719764 2.2851017
0.91023445 0.66846341 2.2595637
0.88851172 0.72712559 2.2827418
0.90816432 0.71620816 2.2595408
0.89117485 0.77646738 2.2856827
0.89197171 0.82956457 2.2885251
0.89529324 0.87458348 2.2856581
0.90100777 0.89825469 2.2763932
0.89127904 0.92672628 2.2905443
0.90209949 0.92931277 2.2702188
0.89439279 0.97189343 2.2873785
0.90065372 0.99492884 2.2835612
0.89356762 1.0249903 2.2920179
0.90556884 1.0183182 2.2804091
0.89532161 1.072691 2.294167
0.9039427 1.0775336 2.2761824
0.89448684 1.1200058 2.2915218
0.91044658 1.1309907 2.2709391
0.89404428 1.1644564 2.293956
0.91639948 1.1765748 2.270973
0.89421797 1.2428482 2.2948701
0.9187991 1.2254846 2.2703576
0.89617842 1.2707653 2.2891762
0.91867167 1.2730223 2.2687504
0.89497179 1.3380792 2.2999337
0.9178623 1.3254128 2.2729049
0.89305574 1.3714875 2.2933896
0.91911435 1.3744824 2.27087
0.92140728 1.4256909 2.2703271
0.89798617 1.4592986 2.2981009
0.91978484 1.4778639 2.2745335
0.91996634 1.5237252 2.2729728
0.92301369 1.5769849 2.2759302
0.92508149 1.6253548 2.2754748
0.92937827 1.6722511 2.2753153
0.95050776 1.6815462 2.2534761
0.93585873 1.7238011 2.2794495
0.95418358 1.701455 2.2537272
0.9378953 1.7742233 2.2812545
0.96010119 1.7781199 2.2597599
0.94044834 1.8196826 2.288197
0.9626888 1.8299389 2.2657626
0.94086093 1.8709283 2.2926996
0.96447915 1.8788525 2.270817
0.94549161 1.9199424 2.2953658
0.96955013 1.9269699 2.2730691
0.95287561 1.9561971 2.2978184
-1.9179904 2.2885509 2.2674077
-2.2781789 2.3197908 2.293849
-2.2169955 2.3273671 2.2731669
-2.1686451 2.3214138 2.2796652
-2.1286089 2.3226945 2.2587347
-2.0665727 2.3147244 2.278074
-2.0239968 2.3217819 2.278121
-1.9807211 2.3233573 2.2798166
-1.9146065 2.3043923 2.2940083
0.5173707 0.1745903 2.3340778
0.82843024 0.39824921 2.3362381
0.84116644 0.43296894 2.3380158
0.86088061 0.44372401 2.3142984
0.84424901 0.47781256 2.3406794
0.86468917 0.47472492 2.3164268
0.84049767 0.53013194 2.3416557
0.86208761 0.52145475 2.3185751
0.83951402 0.57566273 2.3424537
0.86277384 0.57310081 2.3146303
0.84146738 0.62457836 2.3393054
0.86300772 0.6204192 2.3166776
0.84396994 0.67416596 2.3368936
0.86491233 0.67033857 2.3121562
0.84501916 0.72229707 2.3412585
0.86332458 0.72165233 2.3170006
0.84337449 0.78227633 2.3433378
0.86644143 0.77162462 2.3180077
0.84283131 0.82790619 2.3436098
0.86559862 0.82505661 2.3190825
0.84453583 0.88438243 2.3473077
0.86716169 0.87650746 2.3182607
0.84559721 0.91603154 2.3417225
0.87056184 0.92450172 2.3179631
0.84119093 0.98624521 2.3486214
0.8649618 0.97483701 2.326648
0.84720916 1.0429718 2.349607
0.87094247 1.0255351 2.3205535
0.84821606 1.0628643 2.3461874
0.87193948 1.0760524 2.3225873
0.87033194 1.1246331 2.3243425
0.84587908 1.1574795 2.3489909
0.87162119 1.1736348 2.323323
0.87332261 1.2237148 2.3238206
0.87330288 1.2748462 2.3232322
0.84944201 1.3081756 2.346714
0.87215787 1.3230746 2.3232841
0.86993879 1.373628 2.3230217
0.84889489 1.4054682 2.3497205
0.87783492 1.4257803 2.3184047
0.87258834 1.4711742 2.3267488
0.87860644 1.5232468 2.3231318
0.88085109 1.5762184 2.3265886
0.87991905 1.6245526 2.3297577
0.88407511 1.6758059 2.3283014
0.90526628 1.669795 2.3085833
0.88547337 1.7291454 2.3420274
0.90926063 1.72533 2.311111
0.89336777 1.7736262 2.3390274
0.91437924 1.773222 2.311096
0.89841753 1.8464862 2.3409066
0.91728675 1.8263991 2.318327
0.9174844 1.8768835 2.3272202
0.92298776 1.9246155 2.3242984
0.92866856 1.9689541 2.3308892
-2.3786564 2.3140001 2.3410292
-2.336216 2.3163044 2.3319743
-2.2742381 2.3089147 2.3245933
-2.2277076 2.3180733 2.3220499
-2.1780086 2.3235669 2.3280973
-2.1295547 2.3259788 2.3240502
-2.0759032 2.322871 2.3350413
-2.0255165 2.330833 2.3311043
-1.9865518 2.3244941 2.3370445
-1.9265749 2.3112307 2.3260379
-1.8833994 2.3081949 2.3331888
0.22424485 -0.51237524 2.3993299
0.18188769 -0.46743897 2.3856523
0.44349301 0.16236623 2.39992
0.47038949 0.16743994 2.3856242
0.77296215 0.35549411 2.3839252
0.79300165 0.42504963 2.398725
0.81650287 0.42473415 2.3728518
0.79487753 0.48004776 2.3973355
0.81832409 0.47466728 2.3705401
0.79318535 0.52132595 2.3940988
0.81788284 0.52455229 2.3678181
0.79779315 0.57213056 2.3923323
0.81655854 0.57643414 2.3699129
0.79206467 0.62293512 2.3960309
0.81549239 0.62677318 2.3735046
0.79264295 0.68649805 2.3960273
0.81623167 0.67484802 2.3704281
0.79057974 0.71870714 2.3966446
0.81879765 0.72408831 2.3693931
0.79788226 0.77666277 2.3933539
0.82038361 0.77159399 2.3710077
0.79114503 0.8498112 2.3966286
0.81603724 0.82544851 2.3768177
0.82224047 0.87620014 2.3729501
0.79838163 0.94459105 2.3951151
0.82334405 0.92538148 2.373522
0.85138476 0.9468919 2.3506439
0.82449877 0.97305316 2.3725202
0.79522318 1.0437617 2.3998125
0.82451445 1.0217546 2.3726223
0.82615733 1.0732341 2.3756685
0.85279596 1.0873494 2.3524797
0.829207 1.1238805 2.3721046
0.82458657 1.1757349 2.3775804
0.85076696 1.189481 2.3530302
0.82880652 1.2279971 2.3745344
0.85282177 1.2050413 2.3538241
0.82809985 1.2775903 2.3720839
0.82522583 1.3249567 2.3743856
0.83023167 1.3767369 2.3734183
0.82743567 1.4226568 2.3770881
0.85286093 1.4316622 2.3513851
0.83231074 1.4743958 2.3762043
0.82812816 1.5273303 2.3806076
0.85276133 1.5268332 2.3550699
0.83620471 1.5770618 2.3815506
0.85560656 1.5801467 2.3553102
0.83831471 1.6243145 2.3795404
0.85558414 1.6305392 2.3640585
0.83849418 1.6735127 2.3872981
0.85876691 1.6772621 2.363806
0.84377366 1.7156773 2.3838553
0.86126882 1.7217715 2.3674796
0.86507636 1.7725195 2.3753912
0.84954149 1.8336886 2.3964291
0.87676716 1.8257815 2.3707159
0.87737268 1.8807536 2.3764918
0.87753963 1.9200903 2.380224
0.90266073 1.9345529 2.3595645
0.88532782 1.966 2.3813257
0.90760422 1.9738799 2.3520627
0.88201237 2.0044048 2.3863518
0.90276366 2.0021331 2.3766482
-2.478636 2.3212664 2.3931684
-2.4303029 2.3105643 2.378931
-2.374629 2.3095179 2.3800786
-2.3312426 2.3200576 2.3781247
-2.2706914 2.3126831 2.3793421
-2.2277997 2.3136542 2.3824654
-2.1774035 2.3240256 2.3711166
-2.1156421 2.3174534 2.3713741
-2.0715191 2.3199549 2.374397
-2.0248668 2.32042 2.3819895
-1.9705023 2.3123558 2.3755159
-1.9274883 2.3062859 2.3673918
-1.871402 2.3124962 2.373848
-1.827341 2.3205631 2.3749793
0.23331566 -0.50999105 2.4218457
0.25047866 -0.50667745 2.4279401
0.22404854 -0.47658363 2.4390266
0.25126994 -0.47872004 2.4395239
0.34053031 0.16301402 2.4208455
0.36990482 0.16893171 2.4191866
0.42161715 0.17039132 2.4252427
0.45562553 0.17416762 2.4007885
0.77174568 0.38112158 2.4254594
0.77244329 0.42746332 2.4277611
0.74682987 0.49392968 2.4487808
0.77468073 0.47740787 2.4245996
0.77194494 0.52812833 2.424253
0.74960804 0.56921023 2.4468644
0.7748602 0.5775224 2.4217165
0.76766002 0.6247859 2.4262955
0.74238122 0.66549611 2.4499471
0.77200586 0.67410374 2.4238639
0.77355564 0.72657979 2.4234385
0.7733041 0.77535367 2.4224651
0.77599907 0.82514024 2.4228237
0.7767778 0.8757658 2.4223933
0.77651554 0.92305321 2.4255807
0.77831203 0.9742555 2.4276202
0.80326557 0.97538978 2.4024861
0.77742577 1.0239435 2.4254568
0.77831274 1.0768702 2.4282746
0.80477637 1.0803207 2.4052899
0.78025985 1.1237351 2.4256434
0.80336922 1.1243618 2.4010873
0.78303897 1.1742023 2.425739
0.7778272 1.2275735 2.4320223
0.80484968 1.2236778 2.4062881
0.77741855 1.2759316 2.4307466
0.80405772 1.2596842 2.4017968
0.78333396 1.32455 2.427438
0.80192637 1.3488873 2.4081192
0.78248584 1.3739003 2.4300201
0.80473155 1.3799137 2.4050455
0.78799939 1.4237382 2.4237933
0.81049579 1.4361314 2.4012504
0.78224468 1.4761845 2.4313977
0.80662394 1.4803476 2.4062085
0.78737926 1.5229689 2.4294186
0.80723727 1.521124 2.4024551
0.78618807 1.5728436 2.436132
0.80737984 1.5732896 2.4105489
0.79086435 1.6220257 2.4359388
0.81514221 1.6239973 2.4090078
0.7942825 1.6792642 2.4438782
0.81430453 1.6715164 2.4178283
0.82081354 1.7257633 2.4204514
0.82581627 1.7729819 2.4228032
0.83273876 1.8249719 2.422256
0.83456928 1.874648 2.4250424
0.85524786 1.8602154 2.4033775
0.83484888 1.9203501 2.429966
0.8611567 1.9392234 2.4087155
0.83784199 1.9747523 2.4294436
0.86346465 1.9780544 2.4088433
