ply
format ascii 1.0
comment PCL generated
element vertex 1472
property float x
property float y
property float z
element camera 0
property float view_px
property float view_py
property float view_pz
property float x_axisx
property float x_axisy
property float x_axisz
property float y_axisx
property float y_axisy
property float y_axisz
property float z_axisx
property float z_axisy
property float z_axisz
property float focal
property float scalex
property float scaley
property float centerx
property float centery
property int viewportx
property int viewporty
property float k1
property float k2
end_header
-0.4711543 -0.52252352 1.2743368
-0.43248585 -0.53301644 1.2831395
-0.37263876 -0.53736633 1.2737569
-0.32265866 -0.5427261 1.2734846
-0.27561992 -0.54011893 1.271068
-0.22569726 -0.53661525 1.2695068
-0.17493586 -0.5344308 1.2751759
-0.12651248 -0.53225899 1.2722076
-0.075073384 -0.53138727 1.2720684
-0.027126491 -0.52980727 1.2734115
0.022601992 -0.52800554 1.2728938
0.075544439 -0.5268361 1.274961
0.12615524 -0.52563506 1.2709953
0.17538628 -0.52415323 1.2758166
0.22294782 -0.52298123 1.2727274
0.27518675 -0.52119672 1.275236
0.32450873 -0.52048731 1.2728746
0.37329105 -0.51914603 1.2743047
0.42561951 -0.5175851 1.2748097
0.4748109 -0.51698959 1.2745316
0.52404803 -0.51656133 1.272127
0.57172596 -0.51499176 1.2735347
0.62351131 -0.51505297 1.2720929
0.67793077 -0.5148164 1.274236
0.72846758 -0.5121448 1.2702687
0.77900869 -0.51347774 1.2765495
0.82299227 -0.51225197 1.2697086
0.87326831 -0.51149637 1.275709
0.92072457 -0.50983304 1.2732474
0.97200561 -0.50795156 1.2708817
1.0247996 -0.50712705 1.278952
1.0711961 -0.50817984 1.2729783
1.1273088 -0.51314539 1.2750715
1.1743494 -0.51251662 1.2739267
1.2212729 -0.50977325 1.2718801
1.2797494 -0.50664043 1.274193
1.326874 -0.50839221 1.2821399
1.3716351 -0.50307322 1.2742702
1.4229534 -0.50186759 1.26793
1.4683901 -0.50160283 1.2646612
1.5286801 -0.50326788 1.2758605
1.5947785 -0.50665492 1.2579291
1.6046947 -0.50199419 1.2767061
-0.51504403 -0.47962099 1.2794253
-0.48346475 -0.4913345 1.2912267
1.3553344 -0.49917313 1.2924296
1.4275608 -0.49914551 1.2735136
1.4631442 -0.49697772 1.2781852
1.5211567 -0.49829689 1.2819082
1.5570984 -0.4990547 1.2520223
1.6270411 -0.49751616 1.2719676
-0.52058274 -0.44939107 1.2635976
-0.50782692 -0.36844936 1.298613
-0.5109911 -0.32031718 1.2983238
-0.52257663 -0.25739285 1.2987922
-0.53202718 -0.21923921 1.2979209
-0.53962934 -0.18840194 1.2871338
-0.55077958 -0.11250957 1.2923352
-0.54452223 -0.12873422 1.2877984
-0.55368412 -0.091349639 1.2898844
-0.56073904 -0.025474602 1.2751331
-0.56826741 0.024672816 1.2760675
-0.57278275 0.075202949 1.2751384
-0.57489884 0.124729 1.2759093
-0.57696104 0.17381299 1.276052
-0.57950157 0.22532375 1.271091
-0.5864746 0.27116406 1.2763635
-0.52963054 -0.51396549 1.3109425
-0.45073527 -0.50633061 1.300316
-0.4239867 -0.52175093 1.3181549
-0.37473005 -0.53771484 1.3268946
-0.32371101 -0.54476142 1.3274471
-0.27424935 -0.54036236 1.3270558
-0.22402132 -0.53618407 1.3222889
-0.17652452 -0.53529757 1.3279791
-0.12437666 -0.53358036 1.3248818
-0.075895689 -0.53218043 1.3247088
-0.023231661 -0.5306443 1.3271176
0.026833629 -0.52881467 1.3248701
0.075782061 -0.52798855 1.3275913
0.12368247 -0.52548808 1.3223835
0.17096007 -0.52450794 1.3239613
0.2260831 -0.52273375 1.3264982
0.27521402 -0.52112198 1.325181
0.32472897 -0.5205586 1.3241436
0.37532514 -0.51978546 1.3277407
0.42116654 -0.51877016 1.3260429
0.47305632 -0.51848674 1.3244851
0.52553487 -0.51703233 1.3234427
0.57358694 -0.51550764 1.3240536
0.62491477 -0.51614428 1.3230469
0.67422754 -0.51398849 1.3204824
0.72779316 -0.51496905 1.3231442
0.77045363 -0.51432234 1.3220342
0.82670343 -0.51259828 1.3225014
0.87855911 -0.51229179 1.3213034
0.92954135 -0.51269984 1.3243542
0.97515905 -0.50946337 1.3283038
1.0199233 -0.50723302 1.3226541
1.0727673 -0.508542 1.3294907
1.1243718 -0.51325238 1.3232579
1.1711756 -0.5145185 1.3085347
1.2219659 -0.51550269 1.3278232
1.2770634 -0.5151552 1.3238165
1.3268616 -0.50903833 1.3265324
1.3729721 -0.50380915 1.3154699
1.4323369 -0.50576812 1.3283427
1.473263 -0.50149775 1.3185966
1.5346854 -0.50058746 1.3351686
1.5664523 -0.50327826 1.3201029
-0.52128923 -0.46581694 1.3270688
-0.47595933 -0.47886649 1.3227364
-0.44665766 -0.49321312 1.3190858
1.430789 -0.49920151 1.3201041
1.4774904 -0.49876541 1.3254859
1.5305753 -0.49924865 1.3316184
1.5804802 -0.49590841 1.320768
1.6098495 -0.49717587 1.3000861
-0.5549528 -0.42686978 1.3450478
-0.52219057 -0.42360204 1.323593
-0.48074952 -0.41674256 1.3249795
-0.55771577 -0.3707962 1.3409172
-0.5220443 -0.37754735 1.312905
-0.4790391 -0.37593934 1.3171622
-0.55657804 -0.32299441 1.3367546
-0.51975811 -0.32442865 1.3075697
-0.48041025 -0.32658678 1.3191575
-0.55488127 -0.27531078 1.3263513
-0.51978189 -0.27647036 1.305498
-0.48211291 -0.27408412 1.3182656
-0.55130345 -0.23974288 1.3063928
-0.5231781 -0.22444148 1.3042011
-0.48520523 -0.22437836 1.3213475
-0.52946144 -0.19272661 1.3066885
-0.48921233 -0.19094071 1.3269675
-0.55312455 -0.10616477 1.3141329
-0.52660865 -0.11457407 1.3230919
-0.4906669 -0.1228608 1.3359041
-0.5565989 -0.080501527 1.3201836
-0.53080153 -0.087220058 1.3301194
-0.49360299 -0.065958321 1.3232144
-0.55716878 -0.026304256 1.3230603
-0.56531549 0.02267771 1.3250487
-0.56964749 0.074572213 1.3262792
-0.57192487 0.12449861 1.3283219
-0.57447201 0.17609443 1.3272779
-0.5760805 0.22397232 1.3227556
-0.58220452 0.26989105 1.3244396
-0.45900068 -0.53268951 1.3937298
-0.40821931 -0.53359467 1.3749595
-0.3761926 -0.53740817 1.3713843
-0.32514542 -0.54429018 1.3755542
-0.27532709 -0.54009002 1.3734171
-0.22385992 -0.5360083 1.3756363
-0.17507011 -0.5350014 1.379045
-0.12409309 -0.53326541 1.3711764
-0.073465303 -0.53148305 1.3785217
-0.027181709 -0.53063881 1.378505
0.023042034 -0.52850115 1.3749501
0.076025084 -0.52739501 1.3747262
0.12667169 -0.5249275 1.3774761
0.17519344 -0.52438241 1.3735024
0.22547735 -0.52370292 1.3797573
0.27664748 -0.52226865 1.3721908
0.3244347 -0.5212549 1.3754494
0.37695405 -0.52027059 1.3720165
0.42627442 -0.51803565 1.368402
0.47616556 -0.5193578 1.3724823
0.523471 -0.51784778 1.373475
0.57467347 -0.51887029 1.3779751
0.62580359 -0.51699233 1.3728957
0.68107164 -0.51810324 1.3785847
0.71925557 -0.51729351 1.3753327
0.77363056 -0.51548034 1.3721644
0.82146788 -0.51486528 1.3707558
0.87505794 -0.5155558 1.3769346
0.92576319 -0.51481712 1.3707172
0.97540015 -0.51302987 1.3841096
1.0213555 -0.5075407 1.3680494
1.0764806 -0.51012188 1.3818442
1.1158532 -0.50893247 1.3749857
1.1737285 -0.51707411 1.3730289
1.2234813 -0.52184731 1.3722287
1.2737311 -0.5207901 1.3766903
1.3275231 -0.51621646 1.3774414
1.3806086 -0.50781441 1.3606397
1.4213659 -0.51059663 1.3715099
1.4632958 -0.50778872 1.3870902
1.5148134 -0.50488406 1.3775259
1.5716212 -0.50312626 1.3701397
1.6359968 -0.5061332 1.3846066
-0.534482 -0.45883641 1.3529886
-0.48089913 -0.46712044 1.3700776
1.5562494 -0.49973401 1.3654673
-0.5553627 -0.41683823 1.3526815
-0.4759396 -0.43933669 1.3576555
-0.55736065 -0.37731713 1.3560896
-0.4728443 -0.25753221 1.3513175
-0.47952089 -0.18968062 1.3570466
-0.48466977 -0.11134186 1.3567029
-0.55157751 -0.054555159 1.358147
-0.53704125 -0.06702891 1.376073
-0.49850884 -0.097196512 1.3963438
-0.55401719 -0.028498854 1.3713758
-0.56100887 0.02368623 1.3733062
-0.56587285 0.075877115 1.372679
-0.56899601 0.1242846 1.3777854
-0.57095003 0.17501891 1.3738725
-0.57258588 0.22541513 1.3775718
-0.57729673 0.26831061 1.3732796
-0.45776588 -0.57181692 1.4265082
-0.33216155 -0.5504756 1.4459054
-0.46085322 -0.53787589 1.4249687
-0.40878472 -0.53355759 1.4297528
-0.37348884 -0.54150736 1.4268566
-0.32417169 -0.54443437 1.4241244
-0.27764502 -0.54149204 1.4225174
-0.22584465 -0.53696704 1.4272919
-0.17304757 -0.53466165 1.4241636
-0.12669751 -0.53333813 1.4235284
-0.078157112 -0.53164518 1.4266982
-0.026622545 -0.53097939 1.4247322
0.024909601 -0.52809685 1.4264485
0.072726019 -0.52699375 1.422357
0.12326581 -0.52748305 1.4311378
0.17487501 -0.52634394 1.4295971
0.22582503 -0.52433056 1.4253174
0.27367377 -0.5240494 1.4268168
0.32404011 -0.52188045 1.4238051
0.37696454 -0.52130455 1.4224
0.42667592 -0.520724 1.4210974
0.47419593 -0.52033162 1.4262733
0.52458441 -0.51988405 1.4263527
0.57464123 -0.51977921 1.4278966
0.62315482 -0.51876414 1.4214483
0.67514724 -0.51797968 1.4225829
0.72609109 -0.51705748 1.4239842
0.77802938 -0.51782459 1.4299513
0.82110441 -0.51803249 1.4306853
0.86962193 -0.51497883 1.4250997
0.92605001 -0.51494271 1.4251398
0.97246188 -0.51272392 1.4259808
1.0206755 -0.51303571 1.4276699
1.0748825 -0.50879914 1.4259154
1.1201838 -0.50678068 1.4261472
1.1726581 -0.51587671 1.4299589
1.2224338 -0.52181679 1.4412967
1.2814887 -0.52795112 1.4252201
1.3172765 -0.52538723 1.4219488
1.3645045 -0.52418053 1.4316648
1.4156785 -0.52036411 1.418151
1.4574912 -0.51394266 1.424898
1.5156913 -0.50999099 1.4230471
1.5552977 -0.50875759 1.4172708
-0.53828919 -0.060605969 1.430298
-0.55321908 -0.019619415 1.4214289
-0.54723507 -0.03987243 1.4209121
-0.55875242 0.023950085 1.4240923
-0.56320566 0.07671544 1.4234896
-0.56568635 0.12683949 1.4271917
-0.56741148 0.1719619 1.4269819
-0.56867802 0.22401839 1.4283583
-0.57638913 0.26615787 1.4261276
-1.8698119 0.48001376 1.4445766
-1.8733009 0.5290336 1.4400774
-1.8750674 0.57374442 1.4330239
-1.8756803 0.62587076 1.4243394
-1.8820966 0.67320907 1.4213692
-1.8822172 0.71934056 1.4285688
-1.8842164 0.76976013 1.4376101
-1.8829685 0.81199765 1.4471358
-0.46289504 -0.56823975 1.484255
-0.44323498 -0.56017846 1.4980395
-0.47322103 -0.53247231 1.4836497
-0.40619683 -0.53067154 1.4760829
-0.37500507 -0.5402267 1.4750923
-0.32562414 -0.54653865 1.4771448
-0.2735444 -0.54183161 1.4737452
-0.22390284 -0.53653431 1.4773792
-0.17676939 -0.53539759 1.4744161
-0.12235409 -0.53361416 1.4789908
-0.074957237 -0.5317784 1.4697273
-0.027454322 -0.53085238 1.4729979
0.022915469 -0.52874678 1.4753833
0.076530598 -0.52798915 1.4736286
0.12753464 -0.52723449 1.4704909
0.17493844 -0.52648008 1.4761962
0.22619881 -0.52604532 1.4767658
0.27510226 -0.524046 1.4785939
0.32559273 -0.52456003 1.476177
0.37302718 -0.52148998 1.4749137
0.42433149 -0.52168524 1.4749819
0.47930458 -0.52135473 1.4755541
0.51968944 -0.51948035 1.4705547
0.57174057 -0.52018017 1.4740276
0.62210745 -0.51972252 1.4707394
0.67159957 -0.51879227 1.4704692
0.72649693 -0.5192849 1.4758961
0.77476978 -0.51659685 1.4744961
0.82792574 -0.51645029 1.4739016
0.87736714 -0.5145117 1.4721352
0.92752713 -0.51382864 1.4749386
0.97387791 -0.51258647 1.4762797
1.0233901 -0.51095235 1.4769844
1.0750273 -0.50697052 1.4724495
1.1444607 -0.50771308 1.473526
1.178128 -0.51224977 1.4742281
1.2187195 -0.51798099 1.4689442
1.2777898 -0.53105611 1.4813702
1.3189956 -0.53250295 1.4764928
1.3675604 -0.53115934 1.4868962
1.4210447 -0.5272097 1.4731544
1.5456569 -0.51521969 1.4621832
-0.50280315 -0.48931593 1.4959294
-0.50234789 -0.41382718 1.4847906
-0.51121557 -0.35833246 1.4970913
-1.8617913 -0.31754646 1.4836925
-1.8619725 -0.27931646 1.4856908
-0.51257437 -0.26830119 1.4898281
-1.8630879 -0.22147945 1.4887514
-0.51929629 -0.2046594 1.4928304
-1.8642621 -0.184506 1.4937395
-1.8625044 -0.12605347 1.4970627
-0.51563817 -0.11370344 1.4773993
-1.8588041 -0.078209221 1.4966557
-0.53595221 -0.061606329 1.4759427
-0.55072707 -0.015599924 1.4714508
-0.54570144 -0.032282416 1.4769332
-0.55561668 0.025201693 1.4753135
-0.54934567 0.0050471551 1.4884065
-1.8611401 0.080530331 1.4981072
-0.55975616 0.07284417 1.4777968
-1.8643835 0.12840442 1.4978832
-0.56194454 0.1263032 1.4770418
-1.8624059 0.17600614 1.4922711
-0.56463861 0.17847255 1.4720309
-1.865721 0.22404823 1.4896328
-0.56733489 0.2233309 1.4775033
-1.8666053 0.2793344 1.4859735
-0.57484943 0.27171451 1.4700094
-1.8677974 0.32337257 1.4873148
-0.58324498 0.30730343 1.4917517
-1.868773 0.37665656 1.479618
-1.869486 0.427118 1.4734805
-1.8718243 0.47696179 1.4772216
-1.8712585 0.52241302 1.4755955
-1.8733791 0.57611626 1.4751164
-1.8747967 0.62187892 1.4727029
-1.8809425 0.6748839 1.4754335
-1.8810539 0.72379273 1.4724425
-1.8797772 0.77587235 1.4755222
-1.8832232 0.82915688 1.4755569
-1.8810772 0.8729583 1.4743254
-1.8829889 0.92372614 1.4840803
-1.8875693 0.96381521 1.4923699
-0.45611176 -0.56086963 1.5052609
-0.43959972 -0.55275345 1.5015216
-0.33134368 -0.55155516 1.5174603
-0.47037578 -0.51557058 1.5137241
-0.43563843 -0.52734905 1.5221668
-0.37876356 -0.53897995 1.5245786
-0.32710731 -0.54617852 1.530728
-0.27390656 -0.54179054 1.5247355
-0.2252973 -0.53827471 1.5276012
-0.1746894 -0.53556401 1.5261773
-0.12618019 -0.5334447 1.5225022
-0.073631659 -0.53231466 1.5215358
-0.024064112 -0.53022951 1.5255227
0.026742984 -0.52867484 1.5222445
0.0750774 -0.52865118 1.5259192
0.12307031 -0.5283829 1.5246474
0.17468302 -0.52753526 1.5248988
0.22502238 -0.52562803 1.5246398
0.27630949 -0.52571648 1.5288209
0.32566407 -0.52404255 1.5264425
0.37301257 -0.521106 1.5240092
0.42459065 -0.52206051 1.5269592
0.4714593 -0.52287066 1.5205476
0.52652258 -0.52223343 1.5234929
0.57259548 -0.52141702 1.520281
0.62790459 -0.51905978 1.5239395
0.67711508 -0.51925594 1.5228491
0.72365761 -0.51903129 1.5196431
0.77310377 -0.51608503 1.5243436
0.82587206 -0.51563311 1.5232613
0.86844379 -0.51417899 1.5237874
0.92727011 -0.51449502 1.5248039
0.97727668 -0.51138133 1.5270953
1.0225614 -0.50979745 1.534091
1.0707135 -0.50953072 1.5285237
1.1252902 -0.50916302 1.5270605
1.167974 -0.51088619 1.525906
1.22418 -0.51429731 1.5277342
1.2649862 -0.52533096 1.5207314
1.3231461 -0.53567642 1.5306889
1.3835269 -0.54608619 1.546253
1.439525 -0.54310119 1.5375863
1.453383 -0.52957141 1.5096898
1.5253706 -0.52979416 1.5034305
1.5773845 -0.5308314 1.5200632
-0.5079813 -0.48250121 1.5339801
-0.48244068 -0.49081966 1.5352297
-0.50610995 -0.42173409 1.5142529
-0.47849932 -0.41987044 1.5327659
-0.5060662 -0.37422538 1.5162803
-0.47545895 -0.37289432 1.53295
-0.449839 -0.38277131 1.5310954
-1.8602047 -0.31805915 1.5228819
-1.8386035 -0.33077854 1.5305873
-0.50795496 -0.32448974 1.5160651
-0.4773832 -0.3260414 1.5350308
-1.8608431 -0.27302933 1.5208359
-0.5085122 -0.27417114 1.5258473
-0.47995934 -0.27529198 1.5387446
-1.8623267 -0.22544594 1.5253122
-0.51244861 -0.22883756 1.5275764
-0.48904392 -0.22908118 1.5433536
-1.8623037 -0.17395589 1.5265704
-0.51726925 -0.15208802 1.5331858
-1.8621541 -0.1292281 1.5284244
-0.51790196 -0.12965703 1.5319831
-1.8615093 -0.071731098 1.52557
-0.52992213 -0.069473982 1.5241928
-1.8634883 -0.025575884 1.5212544
-0.55146271 -0.0076018143 1.5471424
-0.54287988 -0.028544372 1.5213337
-1.8626643 0.022399822 1.5205048
-0.55310208 0.027961694 1.5284797
-0.54835451 0.016722718 1.5244577
-1.8623794 0.073909812 1.5259019
-0.55603039 0.07600528 1.523887
-1.8641932 0.12411065 1.5272787
-0.55916482 0.12291291 1.5261471
-1.8632392 0.17331167 1.5273503
-0.56214672 0.1719307 1.5226357
-1.8648915 0.22648948 1.5278074
-0.56468505 0.22321637 1.5208292
-1.8661981 0.27368632 1.5242618
-0.5722723 0.26371294 1.5195209
-1.8667606 0.32437256 1.5245564
-0.6078313 0.32432643 1.5155302
-0.58330524 0.31969905 1.5188583
-1.8662486 0.37384439 1.5248228
-1.8677171 0.42768428 1.5268459
-1.8716513 0.47522065 1.5266689
-1.8693569 0.52874887 1.5276532
-1.8717798 0.57523549 1.5236862
-1.8761971 0.6269052 1.5262738
-1.8747412 0.67174333 1.5180602
-1.8803353 0.72551042 1.5285703
-1.8772234 0.77202988 1.5243888
-1.8806287 0.8246792 1.5235763
-1.8799945 0.87478429 1.5237617
-1.8801453 0.92479861 1.5240368
-1.8834362 0.97860909 1.5232476
-1.8853765 1.0241461 1.5258309
-1.8875235 1.072629 1.5411931
-1.8862273 1.120944 1.5425097
-0.46810937 -0.50188291 1.5729096
-0.42098764 -0.52824724 1.5709214
-0.37772384 -0.53672868 1.5779257
-0.32136592 -0.54594523 1.5698934
-0.27545911 -0.54168314 1.5780163
-0.2232139 -0.53638786 1.5711478
-0.17419164 -0.53259283 1.5679971
-0.12772153 -0.5323714 1.5742754
-0.07584434 -0.53090787 1.5720822
-0.025976723 -0.52954692 1.5791402
0.021738401 -0.52966768 1.5753663
0.07495936 -0.52910972 1.5809588
0.12585504 -0.52834481 1.5770556
0.17540771 -0.52619147 1.5719068
0.22388786 -0.52587497 1.5743464
0.27487123 -0.52415222 1.5795208
0.32558152 -0.52369237 1.5726689
0.37911585 -0.51935321 1.5728997
0.42662892 -0.51932412 1.5756521
0.47491792 -0.52119845 1.5710162
0.52110064 -0.52174968 1.5724325
0.57876867 -0.52119094 1.5731376
0.62583512 -0.51931918 1.5694995
0.67394322 -0.51690304 1.5808221
0.72696382 -0.51753682 1.570913
0.77417511 -0.51448435 1.5766109
0.82543331 -0.51334441 1.5709038
0.87348235 -0.51421362 1.5725449
0.92580217 -0.51393193 1.573433
0.97473979 -0.50936389 1.5750208
1.02916 -0.508681 1.5804871
1.0733064 -0.50847566 1.5709469
1.1154073 -0.50733072 1.5740497
1.1770902 -0.50824285 1.5704113
1.228073 -0.51316929 1.5765566
1.2825983 -0.5219211 1.5765166
1.329087 -0.54067707 1.5847615
1.4202484 -0.5469293 1.5716537
1.4536929 -0.54234076 1.574272
1.5377932 -0.54011488 1.5665735
1.5515347 -0.53582925 1.5698884
-0.51296645 -0.47905341 1.5646921
-0.47668421 -0.47725415 1.5716532
-0.44797403 -0.49326664 1.5624001
-0.45735368 -0.43377161 1.5596172
-1.8603445 -0.31395796 1.5623366
-0.4587428 -0.32732347 1.5597068
-1.8629506 -0.27448124 1.5747617
-0.46485606 -0.27995676 1.5700164
-1.8580716 -0.22221179 1.5692985
-0.47660604 -0.22011408 1.5591067
-1.8611937 -0.17285183 1.5811102
-0.48785725 -0.15677847 1.5623292
-1.8605123 -0.12354628 1.574371
-0.50659251 -0.13041562 1.5516938
-0.48791477 -0.13735674 1.5606967
-1.8606058 -0.073064908 1.5739001
-0.52603197 -0.071963541 1.5666419
-1.860724 -0.026062332 1.5782537
-0.53940475 -0.028691761 1.5740989
-1.8604063 0.022688752 1.5779256
-0.55170679 0.03930065 1.581093
-0.54594702 0.014990032 1.5712308
-1.8609923 0.076063827 1.5754659
-0.55257428 0.077414192 1.5691065
-0.54831892 0.066143237 1.5852838
-1.8609304 0.12562312 1.5740906
-0.55577886 0.12593323 1.5752231
-1.8627084 0.17375846 1.5732807
-0.55682313 0.17495653 1.5738167
-1.8626543 0.22403096 1.5761774
-0.56157845 0.22710268 1.571728
-1.8628261 0.27521658 1.5721269
-0.56981403 0.26176855 1.5733669
-1.8642343 0.32511184 1.5711255
-1.8637258 0.37558833 1.575716
-0.76035291 0.39799711 1.5848789
-0.74483693 0.39440805 1.5935789
-1.8670472 0.42329398 1.5779221
-0.8226676 0.42944285 1.5859452
-0.76461601 0.42036662 1.5982271
-0.74349731 0.41254973 1.5979165
-1.8699185 0.47618514 1.5763347
-1.8672845 0.52517265 1.5756869
-1.8698645 0.57678664 1.5758359
-1.8732657 0.62215382 1.5729861
-1.8747472 0.67732692 1.5717121
-1.8751581 0.7255857 1.5734869
-1.8802102 0.77612817 1.5751499
-1.8790836 0.82501894 1.5766212
-1.8772106 0.87699574 1.5729899
-1.8823469 0.92828 1.5758941
-1.8829829 0.9723509 1.5773486
-1.8857051 1.0279914 1.5750574
-1.8823873 1.0769352 1.5739607
-1.8853861 1.1226656 1.5778979
-1.890403 1.173631 1.5785534
-1.8886316 1.2213663 1.5900189
-1.882576 1.2546302 1.5953848
1.4278944 -0.55257243 1.6190599
1.4777645 -0.55129772 1.600275
1.5380241 -0.55204707 1.6102543
-0.45394221 -0.53884029 1.6396711
-0.40696502 -0.51419723 1.6110666
-0.3764666 -0.53806859 1.6273032
-0.3231453 -0.54637057 1.6238391
-0.27442324 -0.54133278 1.6313728
-0.22620705 -0.53442901 1.6254344
-0.17515504 -0.53153074 1.6261263
-0.12295378 -0.53147662 1.6274726
-0.073620193 -0.52936172 1.6300393
-0.026894297 -0.5304215 1.6289679
0.026500192 -0.52654791 1.6232686
0.078200996 -0.5251199 1.6247509
0.12836236 -0.52444965 1.6227174
0.17566325 -0.52392644 1.6239165
0.22343452 -0.5242945 1.6202728
0.2778053 -0.525594 1.6298138
0.32756528 -0.52390939 1.6223402
0.37541288 -0.51887107 1.6219112
0.42553291 -0.51815939 1.623668
0.47297606 -0.52193719 1.6257367
0.52506191 -0.52281475 1.6304523
0.56931806 -0.51953262 1.61983
0.62337953 -0.5192669 1.6215893
0.67468792 -0.51717532 1.6255803
0.73064446 -0.51612675 1.6253252
0.77718967 -0.5140543 1.6274309
0.81718487 -0.51275337 1.6213784
0.87288719 -0.51062 1.6233584
0.9194808 -0.51124853 1.6261086
0.96578479 -0.51110739 1.6238328
1.0146662 -0.51039165 1.6170101
1.0748086 -0.50709659 1.6197985
1.1237743 -0.50889617 1.6304849
1.1718609 -0.50765693 1.6186237
1.2206357 -0.51351535 1.6468683
1.272855 -0.51801193 1.6259239
1.337429 -0.53296828 1.6271721
1.4419897 -0.54727972 1.6081159
1.4882009 -0.54696256 1.6241189
1.5251907 -0.54890281 1.6233381
1.5676371 -0.5450666 1.6256809
1.6218961 -0.54597169 1.6244247
1.6883982 -0.53599787 1.6364613
-0.46847582 -0.48270124 1.6171545
-0.42537025 -0.41105533 1.6372223
-0.42571324 -0.39192456 1.638469
-1.8760642 -0.31945357 1.6058693
-0.43172491 -0.33233657 1.6408843
-1.8801174 -0.27302402 1.6165153
-0.43551108 -0.26733094 1.6471516
-1.8941783 -0.23329358 1.6341085
-0.47867501 -0.14176536 1.6012055
-1.8654493 -0.086397961 1.6006947
-0.52629167 -0.082136333 1.6244152
-0.53996545 -0.025187099 1.6191798
-0.5443579 0.025254758 1.6169196
-1.8855758 0.078560404 1.631754
-0.55001521 0.068560839 1.6279527
-0.5479008 0.080438659 1.6226865
-1.8745327 0.12241759 1.6265333
-0.55312943 0.1246442 1.613454
-0.54858446 0.12476756 1.6342043
-1.8679389 0.17689872 1.6129626
-0.55300462 0.17616956 1.622622
-0.54772925 0.16583912 1.6291394
-1.8631769 0.22517601 1.6110731
-0.55740833 0.22272189 1.6222333
-1.8717076 0.27422386 1.6168196
-0.56533849 0.2618205 1.626127
-0.54438382 0.2572355 1.6108907
-1.8676852 0.3272427 1.6224269
-1.87037 0.37234193 1.6105402
-0.73038745 0.38479814 1.6257886
-1.8759302 0.42827082 1.6308383
-0.81908208 0.43896919 1.6048774
-0.77707112 0.43258947 1.6044769
-0.73599994 0.42458391 1.623719
-1.8766099 0.48124489 1.6199344
-0.86343944 0.46819428 1.6162333
-0.82497925 0.46639979 1.6166734
-0.7754162 0.47064033 1.6127553
-0.74039364 0.46158883 1.6222306
-1.8676471 0.52127981 1.6206015
-1.0398216 0.54857892 1.6192505
-1.8683465 0.56913316 1.6258725
-1.1063595 0.59202397 1.6372274
-1.0718216 0.57960618 1.6296803
-1.047035 0.5746066 1.6364448
-1.8702433 0.62285781 1.6221899
-1.1047604 0.62299752 1.6406085
-1.0754451 0.62645799 1.6424383
-1.8730445 0.67238593 1.6252544
-1.1098105 0.67568994 1.6456583
-1.0840989 0.67500687 1.6464769
-1.8722241 0.72188264 1.6230373
-1.1067566 0.72876507 1.6454606
-1.0878861 0.72574681 1.6462548
-1.8732482 0.77238184 1.6254445
-1.0924972 0.77022123 1.6488218
-1.8750994 0.8249687 1.6268047
-1.8735218 0.87686986 1.6266552
-1.8777355 0.92701471 1.6226091
-1.8789017 0.97470039 1.6254556
-1.8799863 1.0226747 1.6221844
-1.8829831 1.0814387 1.6247686
-1.8835784 1.1255001 1.6268965
-1.8860672 1.1742083 1.6228563
-1.8823006 1.2218125 1.6255149
-1.8896884 1.2745901 1.6289197
-1.8857585 1.3211821 1.6342551
-1.889303 1.3614416 1.6453195
-1.8911504 1.4034739 1.6495037
-0.45922351 -0.56384778 1.6892478
1.4360785 -0.55600733 1.6687009
1.4809285 -0.55569661 1.6739089
1.536761 -0.55056947 1.6604218
1.5918503 -0.5501886 1.6727679
-0.45894819 -0.53219718 1.681371
-0.44169712 -0.53764004 1.6965497
-0.37557319 -0.53508705 1.6716368
-0.32767022 -0.54425806 1.6718547
-0.27486721 -0.53724468 1.6730934
-0.22708198 -0.53091073 1.6804695
-0.17438962 -0.52858847 1.6810322
-0.12410327 -0.52734363 1.663684
-0.077687241 -0.52603167 1.6811585
-0.026266502 -0.52671403 1.675246
0.023099827 -0.52446914 1.6772641
0.075589098 -0.524279 1.6769116
0.12205554 -0.52486664 1.6737107
0.17120145 -0.52158368 1.6751189
0.22225128 -0.52372688 1.6678424
0.27451754 -0.52434087 1.6721135
0.32712516 -0.52149487 1.668047
0.3687107 -0.51923102 1.6675839
0.42675552 -0.51373178 1.6614078
0.47424671 -0.5181368 1.6764328
0.52449107 -0.52052236 1.6682003
0.57810837 -0.51965213 1.6798713
0.62404323 -0.51791275 1.6697066
0.67665392 -0.51593184 1.6760535
0.72314161 -0.51372391 1.6755458
0.77180308 -0.51258254 1.6711807
0.82701737 -0.50911212 1.6709762
0.85784537 -0.50777596 1.6742483
0.93468821 -0.50913906 1.6639433
0.97391361 -0.51081473 1.6659554
1.01415 -0.50928044 1.6687047
1.0983356 -0.50548935 1.6785339
1.1354765 -0.51093358 1.6833242
1.1809059 -0.51353717 1.6816138
1.2166978 -0.51218772 1.6743852
1.2713919 -0.51492441 1.6700864
1.3474733 -0.5275141 1.6820053
1.3942064 -0.54736567 1.6782575
1.4190807 -0.54775596 1.6798817
1.510161 -0.54849231 1.6704745
1.5744034 -0.54874414 1.6790413
1.6213224 -0.54413438 1.6764725
1.6792512 -0.54445153 1.6771015
1.700662 -0.54688376 1.6890327
-0.4254379 -0.47725725 1.6602889
-0.43540758 -0.37142766 1.6666002
-0.43520609 -0.33060405 1.6603318
-0.45106742 -0.27182078 1.6733408
-0.44194949 -0.25656277 1.6566532
-0.44399765 -0.24549028 1.6656852
-0.45869499 -0.15627126 1.679427
-0.51344919 -0.10716189 1.675773
-0.53161895 -0.076177679 1.6787137
-0.55122155 -0.0083039654 1.6992409
-0.54394126 -0.030550707 1.6740242
-0.55293065 0.045646515 1.6766878
-0.54863667 0.016527051 1.6640434
-1.8994747 0.073738888 1.6509161
-0.55654091 0.072337382 1.6869526
-0.54988986 0.098945156 1.6658595
-0.55300838 0.12955196 1.6693827
-0.55531263 0.17811351 1.6777824
-1.893118 0.21415591 1.6554556
-0.55689126 0.22928868 1.6681852
-1.9020461 0.26026344 1.6576393
-0.56381583 0.2578648 1.687462
-1.9040426 0.37560582 1.6615787
-1.8965046 0.39674467 1.6504827
-0.7206881 0.38463911 1.6784339
-0.72669023 0.42685491 1.6739117
-1.9068065 0.46417493 1.6665461
-1.8994055 0.47948468 1.6559274
-0.95004427 0.49911135 1.6754901
-0.92528033 0.49553132 1.6711301
-0.85733819 0.49392492 1.6536465
-0.76307082 0.49434912 1.6710609
-0.73123354 0.46164808 1.6728376
-1.878597 0.53538477 1.6542346
-1.0200108 0.54246968 1.6885456
-0.9734295 0.52987349 1.6895939
-0.92439449 0.52706987 1.6868383
-0.87586629 0.52569681 1.6828657
-0.82545471 0.52602929 1.6791582
-0.77991444 0.52545619 1.6850147
-1.8689255 0.57918644 1.6763583
-1.0355997 0.57631981 1.6765147
-0.96862483 0.57640922 1.6853547
-0.9263413 0.57566684 1.6869779
-0.87500972 0.57411516 1.6863294
-0.82402033 0.57616878 1.6896935
-0.788908 0.56783038 1.6915208
-1.8644619 0.62443221 1.6759999
-1.0516922 0.64398545 1.6531119
-1.0373284 0.62539715 1.6757833
-0.97155297 0.61333692 1.6816244
-0.92326999 0.60970366 1.6818006
-0.87977529 0.6075927 1.690608
-0.82556254 0.60599333 1.6968969
-0.7911889 0.60434663 1.6984481
-1.8655087 0.67579657 1.6756378
-1.1159045 0.66380304 1.6514583
-1.0599384 0.68043774 1.6537464
-1.0402638 0.67644107 1.6754249
-1.8687358 0.72887397 1.6808475
-1.1058004 0.70909345 1.6508752
-1.0714147 0.72553861 1.6545497
-1.0425967 0.72423607 1.6769922
-1.8668088 0.77703327 1.6773921
-1.1167254 0.78136939 1.658362
-1.0724626 0.77487159 1.6586438
-1.0433599 0.77416843 1.6833473
-1.8648508 0.82690883 1.6781752
-1.8473402 0.80913615 1.6990188
-1.1097251 0.8261255 1.6573012
-1.0727006 0.82653439 1.6625296
-1.0436616 0.81943864 1.6819491
-1.8686416 0.87511456 1.6769614
-1.380583 0.88235664 1.6990123
-1.1093177 0.87873548 1.6554821
-1.0725453 0.87318343 1.6675415
-1.0471865 0.87057406 1.6936411
-1.8752874 0.92653871 1.6769192
-1.4380859 0.91466445 1.6993432
-1.3794637 0.92446226 1.6974887
-1.1100553 0.92520064 1.6611915
-1.0720999 0.9230004 1.6701005
-1.047658 0.92464966 1.6935017
-1.8739873 0.97670436 1.6769923
-1.3993996 0.99300522 1.6989371
-1.1130655 0.97183633 1.6648297
-1.0709881 0.9745515 1.6752932
-1.8766207 1.0275414 1.6731201
-1.4577878 1.0220945 1.699846
-1.4178556 1.0344111 1.697999
-1.3865808 1.0227573 1.6979144
-1.1101582 1.0249829 1.667961
-1.0719976 1.0237038 1.6801025
-1.8775326 1.0742589 1.6759987
-1.4065028 1.0659246 1.6967196
-1.3859217 1.0694996 1.697006
-1.1140903 1.0741894 1.6703641
-1.0727197 1.0724845 1.6822677
-1.877112 1.1292591 1.6763871
-1.1120483 1.1203936 1.6654164
-1.0729336 1.1225526 1.6804159
-1.8784734 1.1770222 1.6768453
-1.1143631 1.1681454 1.6716286
-1.0785896 1.1765574 1.6809818
-1.8800104 1.2276112 1.6781969
-1.1117436 1.2232523 1.6727102
-1.0771651 1.2249738 1.6848333
-1.8824458 1.2793556 1.6748977
-1.1189439 1.2760803 1.675525
-1.0795376 1.2718371 1.682899
-1.8803807 1.3259571 1.6769836
-1.1132891 1.3249297 1.6726938
-1.078656 1.3251573 1.685447
-1.8827 1.3787917 1.6767308
-1.1194389 1.3801132 1.6759087
-1.0829943 1.3797044 1.685714
-1.8827394 1.4251633 1.6747171
-1.1129204 1.424332 1.6770401
-1.0842233 1.4282086 1.6867877
-1.8866471 1.4706591 1.6936035
-1.115351 1.4785196 1.6784266
-1.0838816 1.4761515 1.6885967
-1.8910127 1.5067497 1.6960694
-1.1135312 1.504228 1.668727
-1.0726852 1.5054631 1.6852713
-0.45777988 -0.56704986 1.7115278
-0.44611514 -0.56025308 1.709659
1.4750851 -0.55484021 1.7290161
1.528205 -0.55550998 1.7217143
1.6563749 -0.55045271 1.746712
1.7836205 -0.55489069 1.7319326
-0.47143564 -0.52157056 1.7315738
-0.43270263 -0.52538651 1.7370319
-0.36900273 -0.53838331 1.7259498
-0.32769334 -0.54338396 1.7222009
-0.28021002 -0.53661275 1.7247351
-0.22182144 -0.52695084 1.7246315
-0.17383207 -0.52630877 1.7301807
-0.12643456 -0.52600604 1.714779
-0.07634604 -0.52519429 1.7188662
-0.026606651 -0.52592754 1.7339027
0.020749051 -0.52282369 1.7223238
0.072661608 -0.52277082 1.7266939
0.12425477 -0.52308267 1.7278209
0.17785005 -0.52103853 1.7222016
0.22796156 -0.52533299 1.7245244
0.27556363 -0.52500367 1.7251315
0.32141405 -0.52430069 1.7210752
0.37429726 -0.52120692 1.727325
0.43880188 -0.51358974 1.7079458
0.4880411 -0.51506984 1.7167835
0.52467513 -0.51843297 1.7225608
0.56586343 -0.52109587 1.7247819
0.62390846 -0.51723975 1.7182429
0.66732901 -0.51349634 1.7173328
0.72610021 -0.51214707 1.7238148
0.78505307 -0.5132035 1.728657
0.81989104 -0.50763434 1.7208142
0.98860478 -0.5139451 1.7347536
1.0187819 -0.5197196 1.7353027
1.1419897 -0.51675296 1.7059591
1.1776491 -0.51014614 1.7025878
1.2048033 -0.51350957 1.703033
1.2924054 -0.51749694 1.7193789
1.3758998 -0.53127241 1.7233932
1.4110847 -0.54236197 1.7119296
1.5472853 -0.54947066 1.7045101
1.5809968 -0.54875159 1.7343519
1.6021982 -0.54676121 1.7067522
1.6690521 -0.54363286 1.7304721
1.7171475 -0.54466659 1.7292687
-0.4720386 -0.46024185 1.7395279
-0.47967011 -0.42502719 1.7400309
-0.48618236 -0.3787035 1.7402
-0.50170648 -0.30736145 1.7250473
-0.49061802 -0.32925978 1.7384803
-0.50462651 -0.27905563 1.7384828
-0.49909878 -0.2937769 1.7495083
-0.50847876 -0.22970721 1.7254102
-0.50574875 -0.16081215 1.7212654
-0.47524589 -0.16398461 1.7274399
-0.51435548 -0.10363948 1.7231522
-0.5263195 -0.069982722 1.7266105
-0.54144257 -0.026085367 1.7227554
-0.55315882 0.025484797 1.7120599
-0.54747742 0.018047256 1.7327484
-0.55569601 0.072520711 1.7260489
-0.55844861 0.12421172 1.732572
-0.562172 0.17583278 1.736297
-0.56760448 0.21592586 1.7405167
-0.56742519 0.25743559 1.7457174
-0.71685803 0.38865283 1.7180129
-0.69519699 0.37737072 1.7198006
-0.72056842 0.42368707 1.7276386
-0.76061529 0.49682391 1.724504
-0.72856671 0.46314517 1.7167699
-1.0145988 0.54143709 1.7002016
-0.76422691 0.52846205 1.7279464
-1.8589251 0.58318627 1.7098697
-1.8329098 0.58702409 1.7214975
-1.0209953 0.57193446 1.7057253
-0.99720633 0.57482934 1.7025746
-0.77148271 0.57882452 1.7173334
-1.8569468 0.61903673 1.7081766
-1.8305846 0.6244958 1.7143705
-1.0266783 0.62798858 1.7070365
-0.98354512 0.62942219 1.7055857
-0.82119584 0.6258924 1.7257507
-0.7805022 0.61232871 1.7152363
-1.8562921 0.68663663 1.7080207
-1.8358815 0.67463416 1.7227831
-1.033659 0.67451203 1.7260922
-1.8542382 0.72995532 1.7077199
-1.8279737 0.72485864 1.7181277
-1.3132931 0.7465589 1.7433126
-1.2699865 0.73171866 1.7431856
-1.0333654 0.72536892 1.7221749
-1.8601239 0.76858139 1.7053703
-1.8370799 0.78160459 1.7201512
-1.3260362 0.75597906 1.7478336
-1.271081 0.75717187 1.7410851
-1.0359349 0.773238 1.722458
-1.8311346 0.82730854 1.7091346
-1.5648223 0.8371954 1.7345281
-1.5199199 0.83645296 1.728021
-1.4754008 0.83685535 1.7173187
-1.4223311 0.83541584 1.7115988
-1.3807892 0.83543736 1.7168722
-1.0375316 0.82441014 1.7235914
-1.8540125 0.88079625 1.7061781
-1.8313531 0.86902738 1.7197776
-1.5686543 0.87068331 1.7267973
-1.5229402 0.87730998 1.7168626
-1.4741155 0.87275285 1.7114969
-1.4257191 0.87552619 1.7048579
-1.3744048 0.87483585 1.7073295
-1.0398107 0.87708366 1.7294521
-1.8614722 0.92577952 1.7094114
-1.8346843 0.92081642 1.7227724
-1.5638479 0.92635077 1.717038
-1.5248125 0.9268316 1.7131436
-1.4758786 0.92637116 1.7099175
-1.4226081 0.92727983 1.7036479
-1.3658943 0.92722839 1.7029847
-1.050863 0.924142 1.7190528
-1.0419133 0.92399454 1.7262192
-1.8601608 0.97030997 1.709311
-1.8364609 0.97942811 1.7268295
-1.5580266 0.97430837 1.7100971
-1.530192 0.97300011 1.710821
-1.4778173 0.97720861 1.7083006
-1.4290018 0.97329342 1.7054724
-1.3788652 0.97469199 1.7052469
-1.0522482 0.98997939 1.7040923
-1.0440857 0.97400498 1.7273407
-1.86349 1.0199972 1.7098092
-1.8344284 1.0253408 1.7209073
-1.5684654 1.0280559 1.7199472
-1.5224229 1.0236585 1.7132061
-1.473441 1.0238802 1.7083324
-1.4289128 1.0158525 1.7042779
-1.3703384 1.0205252 1.7094046
-1.0512043 1.037333 1.7136279
-1.0456907 1.0258934 1.729004
-1.8643992 1.0701373 1.7118852
-1.8413496 1.0743265 1.7276423
-1.5711777 1.0785474 1.7224966
-1.5225688 1.0729277 1.7116215
-1.4776852 1.0746238 1.7106315
-1.4330084 1.0749189 1.7036121
-1.3681839 1.0803411 1.7132542
-1.3247563 1.0833526 1.7310205
-1.283116 1.0703851 1.7430931
-1.052662 1.0865287 1.7091249
-1.0468289 1.0720375 1.7279043
-1.8624882 1.1224192 1.7147108
-1.8343731 1.1202352 1.7298652
-1.608753 1.1221589 1.7432532
-1.572421 1.1224694 1.7353177
-1.5173885 1.1155798 1.7235602
-1.4797772 1.1185795 1.7243747
-1.4274294 1.1169374 1.7178872
-1.3672787 1.1150141 1.7212274
-1.0519707 1.1209486 1.730991
-1.0480727 1.130793 1.7216314
-1.8646305 1.1773666 1.7125286
-1.8388996 1.1664201 1.7260661
-1.0535868 1.1743912 1.7221279
-1.0442821 1.152179 1.73963
-1.8656363 1.22097 1.7170129
-1.8376875 1.219604 1.7303934
-1.0554233 1.228062 1.7206562
-1.0485064 1.2110544 1.7451465
-1.8652815 1.2739925 1.7147546
-1.8370994 1.2741522 1.7344788
-1.4827121 1.2843837 1.7391068
-1.4122699 1.2837648 1.7400166
-1.3921047 1.2927032 1.7360935
-1.0549074 1.273003 1.7115721
-1.0478239 1.2709019 1.7376862
-1.8671731 1.3284367 1.7157898
-1.8397864 1.3214419 1.730911
-1.4734268 1.3133249 1.7428834
-1.3767905 1.3217316 1.7298789
-1.3404802 1.3385663 1.715898
-1.0544482 1.3255264 1.7219671
-1.8674625 1.3759052 1.7154667
-1.8398832 1.3742698 1.7341133
-1.0567523 1.3770689 1.721782
-1.8669513 1.4239618 1.7088213
-1.8380318 1.4202629 1.7193851
-1.061095 1.4261919 1.7222606
-1.872969 1.4793553 1.7159774
-1.8390054 1.4702488 1.7302852
-1.0646845 1.4666833 1.7218847
-1.8777697 1.5228755 1.7313356
-1.0710949 1.5066162 1.7223853
-1.8959028 1.5697193 1.7399487
1.4684849 -0.55176312 1.7742529
1.5256758 -0.55526632 1.7763931
1.5614682 -0.55333257 1.7739
1.6340008 -0.5516215 1.7711307
1.7856464 -0.55122066 1.7797503
1.8117713 -0.55213308 1.7624266
1.8674471 -0.55368888 1.7976626
-0.4794853 -0.50370079 1.7636995
-0.4339031 -0.51406747 1.7701827
-0.37463218 -0.5337463 1.7758076
-0.32717577 -0.54386669 1.7785674
-0.27271515 -0.53321779 1.7786516
-0.22498561 -0.52714074 1.7626412
-0.16150226 -0.52545482 1.7500926
-0.075722203 -0.52656311 1.7628225
-0.031342618 -0.5267815 1.7726482
0.028175658 -0.52498454 1.7656921
0.08044254 -0.52106923 1.7698897
0.18778856 -0.51786226 1.7535496
0.22226384 -0.52234286 1.7788814
0.27491015 -0.52553201 1.7800437
0.32461721 -0.52177805 1.7709621
0.36783123 -0.51916665 1.7667823
0.47813782 -0.51543438 1.7559574
0.53686535 -0.52189964 1.7777674
0.58177441 -0.52409518 1.7729131
0.62579709 -0.51941019 1.7727025
0.67846942 -0.51717442 1.7683984
0.72769535 -0.51442355 1.775494
0.7782439 -0.51403666 1.7639457
0.82388306 -0.51615369 1.7962036
1.0298686 -0.51581204 1.7562814
1.0589159 -0.51339018 1.7766722
1.3237739 -0.53002512 1.7608624
1.4430523 -0.54616857 1.763518
1.4709058 -0.54734552 1.778638
1.6213102 -0.54982269 1.7712443
1.6650606 -0.54592091 1.779767
1.7316934 -0.54515123 1.7892423
1.7577512 -0.54614574 1.7732143
1.8525226 -0.54579371 1.7615284
-0.48257589 -0.48182586 1.7714664
-0.47850463 -0.44565865 1.7529634
-0.48023814 -0.36608213 1.7512848
-0.48816717 -0.32201529 1.753284
-0.50197756 -0.25742173 1.7554951
-0.48845148 -0.27366701 1.7554468
-0.50734168 -0.23563227 1.7587541
-0.48535568 -0.23505147 1.7583039
-0.50615752 -0.17035647 1.7639128
-0.48613915 -0.17391591 1.7747576
-0.52119046 -0.071817882 1.7689623
-0.53839415 -0.015510294 1.7624962
-0.54420847 0.021221098 1.7675889
-0.55198628 0.074019231 1.7650514
-0.54789728 0.073884763 1.7630557
-0.55423254 0.12458129 1.7670481
-0.54879487 0.11376937 1.7757152
-0.55813456 0.17851011 1.7655765
-0.54939657 0.15768866 1.7753834
-0.5701893 0.22463997 1.7770617
-0.57304162 0.26669151 1.7893972
-0.70487684 0.39400193 1.7546666
-0.6906051 0.39218658 1.7962335
-0.71510077 0.42184973 1.7700359
-0.75030988 0.49282268 1.7624598
-0.72803724 0.46527958 1.7655071
-0.75840342 0.52583015 1.775645
-0.76777822 0.56669438 1.7716223
-1.8564349 0.61942458 1.7917315
-1.8488592 0.63129598 1.7723109
-0.77493072 0.61093038 1.7578284
-1.8502557 0.6738022 1.7756882
-1.8426422 0.67981738 1.7747986
-1.023162 0.67733192 1.7655411
-0.9912647 0.65635079 1.7581803
-1.856739 0.72223854 1.789801
-1.8443085 0.70695871 1.7579275
-1.6758687 0.73422003 1.7845682
-1.6261927 0.7417348 1.7932488
-1.5661968 0.74060947 1.7904266
-1.5185415 0.73489934 1.7842537
-1.469907 0.73229849 1.7799628
-1.423924 0.74002522 1.7768388
-1.3759282 0.73283017 1.7651216
-1.3302447 0.73056865 1.7567532
-1.0307207 0.72408706 1.7776383
-1.8547453 0.76373255 1.7869844
-1.8393606 0.78382844 1.7637161
-1.7186546 0.76599216 1.793023
-1.6776453 0.76661766 1.7875828
-1.627696 0.75942153 1.7886904
-1.5748504 0.76713562 1.7907373
-1.5329838 0.76967132 1.7956632
-1.4762771 0.76201504 1.7898655
-1.4095812 0.75736117 1.7585356
-1.3766605 0.76650125 1.7713717
-1.3311969 0.75898933 1.754873
-1.0313554 0.77143329 1.7710224
-1.851887 0.84147131 1.7752411
-1.8451961 0.82245272 1.7752852
-1.3460611 0.80339193 1.7959108
-1.0344394 0.82616615 1.7759396
-1.8514032 0.88906181 1.7793868
-1.8481411 0.87363517 1.77966
-1.0352441 0.87459791 1.78065
-1.8557472 0.9122631 1.7868716
-1.8452326 0.92627072 1.7724148
-1.0380076 0.92494094 1.7710092
-1.8528061 0.96568185 1.7845689
-1.844623 0.97628498 1.7733984
-1.6321917 0.97499847 1.7756054
-1.0408529 0.97428727 1.7784598
-1.8577642 1.0240171 1.7886237
-1.8452129 1.0388955 1.7788589
-1.2423505 1.0417389 1.7627141
-1.0418534 1.0243288 1.7725222
-1.8539537 1.0700263 1.7871984
-1.847651 1.0657904 1.7640495
-1.6618077 1.0771588 1.7913492
-1.6198076 1.0749974 1.7587998
-1.3111993 1.0846927 1.7593617
-1.2686044 1.061429 1.7545226
-1.2430228 1.0530498 1.7581671
-1.044227 1.0711957 1.770505
-1.8521645 1.1119473 1.7766826
-1.8385358 1.1321615 1.7617874
-1.6750621 1.1237464 1.7919495
-1.5892692 1.1483042 1.7528727
-1.0456678 1.1249238 1.7707348
-1.8511254 1.1664348 1.7864981
-1.8447498 1.1862907 1.7740942
-1.6806291 1.1536 1.7902318
-1.6185101 1.1637957 1.7701391
-1.5731833 1.1757083 1.7804559
-1.5311611 1.1675123 1.7737629
-1.4970576 1.1962042 1.7986597
-1.3686745 1.1838958 1.7852581
-1.0504537 1.1866891 1.7639453
-1.0466236 1.1761891 1.7811122
-1.8529873 1.238737 1.7761589
-1.8442622 1.2077488 1.7819881
-1.5325427 1.241191 1.7741855
-1.0522033 1.2492975 1.7617543
-1.0453867 1.2219242 1.7708789
-1.8532606 1.2728585 1.7847452
-1.840312 1.2892706 1.7575547
-1.6269225 1.2953148 1.7936747
-1.5198973 1.2611189 1.7692405
-1.4827192 1.271845 1.7784095
-1.4388082 1.2798784 1.7613139
-1.0509393 1.2933036 1.7631016
-1.046774 1.266522 1.769632
-1.8592498 1.3307917 1.7871826
-1.0532976 1.3228037 1.774478
-1.0492156 1.3157225 1.7772849
-1.8571171 1.3708506 1.7887834
-1.8417898 1.3501672 1.751348
-1.3475881 1.3980309 1.7504698
-1.2803271 1.3880701 1.7757027
-1.0533208 1.3724576 1.7791443
-1.8429511 1.4474818 1.7502059
-1.420473 1.4486461 1.7974197
-1.3248049 1.422654 1.7816662
-1.291714 1.4368092 1.7990888
-1.0562567 1.4241084 1.7735558
-1.0498357 1.4005198 1.79057
-1.8601419 1.458115 1.7976887
-1.8428216 1.4810033 1.7874341
-1.4946579 1.4988849 1.7773281
-1.3756795 1.4996223 1.7676457
-1.058687 1.4710934 1.7823589
-1.8596106 1.5419872 1.7585118
-1.5869058 1.5282166 1.79949
-1.4625324 1.503358 1.7766522
-1.4461682 1.5240498 1.794783
-1.3634957 1.5118389 1.7773958
-1.3109711 1.5180366 1.7827597
-1.0623866 1.5042092 1.7864647
-1.8756125 1.5752206 1.7607855
-1.8487983 1.5759314 1.765135
-1.9039943 1.6328323 1.7657759
-1.8927786 1.6217872 1.7789516
-1.9051195 1.6655445 1.7815863
-0.44072843 -0.56295425 1.844978
-0.3237671 -0.55240518 1.8258413
1.5269077 -0.55108654 1.8176198
1.5722154 -0.55198383 1.8201513
1.6085666 -0.55495614 1.809242
1.7851995 -0.55027676 1.8476326
1.8539999 -0.55499899 1.8177239
-0.36766258 -0.54020309 1.8259479
-0.32617471 -0.5462898 1.8320423
-0.28031406 -0.53293127 1.8201495
0.024411984 -0.52316213 1.8100448
0.23768336 -0.5222975 1.8213868
0.27956665 -0.52736557 1.8269237
0.32230023 -0.52291673 1.8231586
0.35747084 -0.5206213 1.8219951
0.53324068 -0.5171994 1.8030264
0.57713336 -0.52123839 1.8231405
0.62109119 -0.51987046 1.8237549
0.66040081 -0.5225327 1.8303946
0.7327835 -0.51541454 1.8137047
1.4028022 -0.53389853 1.8401268
1.4744041 -0.54320902 1.8184872
1.5137435 -0.54139137 1.8358721
1.5808049 -0.54516822 1.8398714
1.6315551 -0.54533088 1.8248111
1.6824999 -0.54401326 1.8225271
1.7287992 -0.54287064 1.8313905
1.792184 -0.5488072 1.8328596
1.8050168 -0.54735923 1.8130746
1.8806273 -0.54542363 1.8274256
1.9179964 -0.54100841 1.8300806
1.9539031 -0.54767495 1.8415397
-0.47097012 -0.17850788 1.8266364
-0.56759214 0.22602546 1.8162702
-0.57415676 0.2613433 1.8165468
-0.60902154 0.31490299 1.8227268
-0.59719312 0.30893803 1.8230004
-0.71153784 0.42789435 1.8217307
-0.75045156 0.49275336 1.8015434
-0.73057747 0.47203517 1.8182436
-0.7558865 0.52649784 1.824596
-0.76356679 0.5620988 1.8112288
-1.8587773 0.63102782 1.8219349
-1.84781 0.63377422 1.8328437
-1.8536191 0.67030507 1.8197993
-1.8480456 0.6767109 1.8297899
-1.7592797 0.66460109 1.8409805
-1.0174329 0.69112229 1.817547
-0.97291875 0.67027843 1.8122396
-1.8544872 0.72330958 1.8157107
-1.8462893 0.73779547 1.8304135
-1.752726 0.72550201 1.8366439
-1.7052104 0.72124398 1.8284553
-1.678589 0.72499889 1.8298098
-1.6438894 0.73267633 1.819038
-1.586081 0.73059869 1.8038681
-1.3338089 0.73240453 1.8024271
-1.0239559 0.7249496 1.8263571
-1.85357 0.79066598 1.8095049
-1.8410655 0.77942878 1.8320198
-1.7548293 0.76770115 1.8241116
-1.7423921 0.75053865 1.815483
-1.6696157 0.79093683 1.806196
-1.63741 0.78077531 1.8168182
-1.5355815 0.77546072 1.8018689
-1.0307378 0.78060561 1.8282074
-1.8504858 0.83967245 1.8238182
-1.8419026 0.81942773 1.8300934
-1.3485731 0.82214969 1.8163705
-1.0306362 0.82596165 1.8217363
-1.8543026 0.85968006 1.8201175
-1.8461291 0.87877589 1.8318433
-1.6818066 0.8784638 1.8272815
-1.0321984 0.87641633 1.8157587
-1.8523629 0.90734708 1.8229592
-1.8458558 0.92640084 1.8268347
-1.712576 0.94210124 1.8229854
-1.6836191 0.92085886 1.8196177
-1.0379112 0.92481792 1.8202136
-1.8515214 0.97950476 1.8346354
-1.8458309 0.96235687 1.8118352
-1.7026839 0.95514065 1.8294747
-1.6935154 0.96863854 1.8366448
-1.038797 0.97264826 1.8271511
-1.8527374 1.0190591 1.8240724
-1.8473017 1.0388464 1.847401
-1.6699001 1.0153413 1.8079307
-1.0422201 1.0231559 1.8232555
-1.8538482 1.0694151 1.8192368
-1.8473511 1.0768527 1.8393562
-1.7002072 1.088176 1.8130927
-1.0428571 1.0752428 1.8204863
-1.8558743 1.1186414 1.807313
-1.8447081 1.1264646 1.8306092
-1.7157602 1.122601 1.8166662
-1.0455019 1.1252962 1.8202347
-1.8530149 1.1807389 1.8154353
-1.8449931 1.1678029 1.839415
-1.7364722 1.1731415 1.8183861
-1.3642503 1.1905777 1.8101609
-1.3323197 1.1761643 1.8304056
-1.0503941 1.1513748 1.8437365
-1.0447606 1.1745422 1.8181878
-1.8542179 1.228513 1.8226057
-1.8468307 1.2239602 1.8460652
-1.6605706 1.2304466 1.8137537
-1.628442 1.226261 1.8092719
-1.556125 1.2030073 1.8072054
-1.478435 1.2166891 1.8260827
-1.4386897 1.2197821 1.8268235
-1.3700814 1.228333 1.8422065
-1.3209895 1.2154937 1.8372506
-1.052182 1.2148594 1.8447223
-1.0453204 1.2303482 1.8259567
-1.8551602 1.2744383 1.8146168
-1.8479267 1.2769294 1.8412313
-1.5638599 1.2544873 1.817768
-1.3122009 1.292829 1.8108087
-1.0528668 1.2706797 1.8140645
-1.0464175 1.2807478 1.8357149
-1.8532581 1.3274245 1.8238852
-1.6295885 1.3146021 1.8004811
-1.3618997 1.3419954 1.8479007
-1.0520146 1.3416512 1.8347955
-1.0486542 1.3166198 1.8216934
-1.8635954 1.3838918 1.8308878
-1.0545259 1.3832552 1.8318847
-1.0461919 1.3638389 1.8229229
-1.8649378 1.4107836 1.8193417
-1.0531657 1.423979 1.8277346
-1.0493845 1.4189665 1.8480071
-1.8333266 1.48792 1.8289992
-1.4637239 1.4678584 1.8042645
-1.4455386 1.4992179 1.8445419
-1.0558436 1.4718223 1.8245466
-1.0424972 1.4850906 1.8392333
-1.8248349 1.500805 1.8077749
-1.5420862 1.5087043 1.8276559
-1.4834026 1.525035 1.8282341
-1.4351139 1.523729 1.8281431
-1.3706325 1.5137248 1.8346224
-1.3313175 1.5250478 1.8268085
-1.2980531 1.5309477 1.8131925
-1.0480006 1.5020672 1.8235286
-1.8724664 1.6211002 1.8020321
-1.8333967 1.6171346 1.8060305
-1.9022418 1.6739296 1.8207675
-1.8903737 1.6751437 1.8410389
-1.9104894 1.7128382 1.820889
-1.9204005 1.7576393 1.8383355
-0.45209414 -0.56800544 1.8945217
-0.43757239 -0.57088119 1.8724748
-0.32047564 -0.55203009 1.8918647
1.8647562 -0.55163068 1.8649017
-0.45719224 -0.52511746 1.8824593
-0.44983673 -0.54633081 1.8888624
-0.36569893 -0.5403741 1.8799164
-0.33946767 -0.54496604 1.8649006
-0.28556633 -0.53851664 1.8826946
0.28608429 -0.52164346 1.8569965
0.32598042 -0.52679598 1.8711853
0.35220292 -0.52470303 1.8604366
0.58299959 -0.52808195 1.8886263
0.62665838 -0.52534604 1.887529
0.65898013 -0.52322292 1.8715963
0.74695867 -0.51527542 1.8563372
1.493413 -0.53651863 1.8541299
1.5827507 -0.5456984 1.8737204
1.6317192 -0.54354024 1.8812981
1.6764934 -0.53747171 1.8760468
1.7297608 -0.53461444 1.883741
1.7782283 -0.54001039 1.865296
1.8306444 -0.54684526 1.8640234
1.8766757 -0.54306471 1.8797808
1.9375176 -0.5429635 1.8811954
1.9743624 -0.53806859 1.8725682
-0.56699789 0.23415342 1.8634338
-0.56070703 0.25388664 1.8686671
-0.62500137 0.33469903 1.859864
1.9501711 0.39279243 1.8936261
-0.70915949 0.42188925 1.877705
1.9282687 0.42167836 1.8866084
-0.7528286 0.49730057 1.860623
-0.72545552 0.4689177 1.8659703
1.9101626 0.46064419 1.8905426
-0.7556482 0.52949715 1.8736422
-0.74857551 0.52477252 1.8833129
-1.8680331 0.63537735 1.870471
-1.85148 0.65119237 1.8553113
-1.8369006 0.67051166 1.8688157
-0.99862099 0.69810194 1.8572155
-1.8518496 0.7162202 1.8587755
-1.8340886 0.71979815 1.8663816
-1.710849 0.72176808 1.8828701
-1.6712319 0.72658199 1.879373
-1.6494941 0.74549586 1.8690277
-1.0175557 0.72410148 1.8791713
-1.825527 0.76976699 1.8611609
-1.0281066 0.77630818 1.8783301
-1.8369097 0.82202446 1.8622248
-1.7759591 0.82994533 1.8753103
-1.5281938 0.82952648 1.8910949
-1.0356754 0.82478416 1.8811902
-1.8389115 0.86963522 1.8734545
-1.7291164 0.87414283 1.8738238
-1.0381347 0.87139297 1.8711817
-1.8383626 0.92331946 1.8695308
-1.0390595 0.92263764 1.8715954
-1.8507001 0.97774142 1.8540759
-1.8386043 0.97279596 1.8718578
-1.0404183 0.97132379 1.8707647
-1.8399752 1.0212201 1.8665214
-1.046088 1.026009 1.8748366
-1.8378544 1.0754787 1.8671283
-1.0517383 1.071175 1.8789482
-1.0487493 1.0918741 1.8797873
-1.8365277 1.1261283 1.8709346
-1.4085386 1.1345334 1.850009
-1.0532193 1.1221411 1.8803725
-1.0454072 1.1253217 1.8809986
-1.8539801 1.1923633 1.8591681
-1.8276749 1.1764823 1.8647465
-1.3596122 1.1785053 1.8512858
-1.0506209 1.1746339 1.8627033
-1.0452762 1.1773502 1.8799857
-1.8277091 1.2246627 1.8570915
-1.3528802 1.2058992 1.8522656
-1.0455846 1.2209438 1.873324
-1.8340267 1.2712126 1.8586293
-1.3827027 1.2771895 1.8791058
-1.0428745 1.2720263 1.8789313
-1.8511388 1.3268058 1.8650563
-1.843886 1.3233 1.8744128
-1.3855233 1.3055609 1.8858216
-1.0445722 1.3254936 1.8771079
-1.8588985 1.380942 1.8785783
-1.0504112 1.3597039 1.8537464
-1.0477304 1.3710083 1.8746556
-1.8556278 1.4038401 1.8698095
-1.8405397 1.4406457 1.8700218
-1.05186 1.4244211 1.8691251
-1.0453758 1.4255122 1.8876319
-1.8442984 1.4768687 1.8527396
-1.0511183 1.4601537 1.8615131
-1.0467417 1.4740021 1.8699837
-1.3312237 1.5058186 1.8534794
-1.8946955 1.6982361 1.8645591
-1.8279963 1.6689981 1.8580947
-1.9068508 1.7333803 1.8684998
