ply
format ascii 1.0
comment PCL generated
element vertex 1498
property float x
property float y
property float z
element camera 0
property float view_px
property float view_py
property float view_pz
property float x_axisx
property float x_axisy
property float x_axisz
property float y_axisx
property float y_axisy
property float y_axisz
property float z_axisx
property float z_axisy
property float z_axisz
property float focal
property float scalex
property float scaley
property float centerx
property float centery
property int viewportx
property int viewporty
property float k1
property float k2
end_header
1.9057097 0.46437272 1.9038537
-0.75359172 0.52772611 1.9279847
-0.74860448 0.5140869 1.9318163
-1.7692246 0.73773491 1.9376036
-1.7377677 0.73312443 1.9124953
-1.6696994 0.73020184 1.9270821
-1.0182867 0.73524749 1.9179356
-1.6537483 0.75484812 1.931874
-1.6177297 0.76683354 1.9284487
-1.5901321 0.76206857 1.9290704
-1.0291171 0.78021389 1.9293301
-1.7421784 0.84309453 1.9115149
-1.5497715 0.84123915 1.9177966
-1.038431 0.8361271 1.923195
-1.7617819 0.87866056 1.9334143
-1.5538623 0.85517192 1.9184028
-1.5266603 0.86801118 1.9363649
-1.0403156 0.87808079 1.9193435
-1.5485517 0.91266388 1.9387451
-1.0424962 0.92617011 1.9208241
-1.0547729 0.98709548 1.9299467
-1.0398841 0.95702243 1.9092569
-1.0553282 1.0238971 1.9254955
-1.0574946 1.0552045 1.93647
-1.0429758 1.0783736 1.9254794
-1.0421077 1.1293216 1.9244148
-1.0409358 1.1758474 1.9196222
-1.0412544 1.2286396 1.9260811
-1.0507274 1.2694057 1.9083229
-1.0413826 1.2810689 1.9265921
-1.5670737 1.3199377 1.932874
-1.0400289 1.3251488 1.9264185
-1.0429699 1.3736986 1.9164439
-1.0509839 1.4454348 1.9458218
-1.0421792 1.4199073 1.9231794
-1.0434614 1.4680638 1.9231739
-1.8935865 1.7295693 1.9075111
-1.9028773 1.7724921 1.9272109
-1.9135555 1.820603 1.9231461
-1.9195614 1.8699383 1.9184538
-1.9241409 1.9223838 1.9279432
-0.43953457 -0.55361205 1.9533484
-0.33428371 -0.55155772 1.9786918
-0.46418831 -0.52663475 1.9689903
-0.43361148 -0.53889811 1.9758174
-0.36482507 -0.5421859 1.9667648
-0.32481727 -0.54855204 1.9501818
-0.29578969 -0.53865641 1.9540911
0.64017791 -0.52846503 1.9635687
0.65565765 -0.52435124 1.9573195
1.5940461 -0.53365767 1.964929
1.6205287 -0.52946752 1.9694443
1.6632538 -0.51158708 1.9659115
1.7757069 -0.51868796 1.9663596
1.8310695 -0.51855868 1.9771198
1.8710021 -0.51954079 1.9802988
1.9237963 -0.52007812 1.9841242
1.969804 -0.50730747 1.9695301
-0.4657703 -0.47733393 1.9845963
-0.44298121 -0.46359834 1.9885228
1.6436728 -0.47276315 1.9746307
1.6527529 -0.49080631 1.9572933
1.8287752 -0.48605788 1.9579155
1.8710068 -0.47802854 1.9560192
1.9239693 -0.47518921 1.9539223
-0.46645886 -0.42523956 1.9682162
-0.44410643 -0.42449951 1.9903905
1.6411003 -0.42711407 1.9825007
1.6588006 -0.41967574 1.9595723
1.8702908 -0.40733796 1.9535673
-0.46725455 -0.3776491 1.9708446
-0.44533974 -0.36985642 1.985972
1.6493044 -0.39923602 1.9930433
1.6787627 -0.38978201 1.9739422
1.7157787 -0.37620142 1.9713469
1.7744238 -0.37251312 1.9731604
1.8245953 -0.36811769 1.9803123
1.8714164 -0.37455946 1.9720707
1.9207411 -0.37596518 1.9682732
1.9685979 -0.37183374 1.9673194
2.011322 -0.37282473 1.9719011
-0.47087213 -0.32448381 1.9773215
-0.44592381 -0.32158914 1.9942192
1.8835062 -0.34561011 1.9968697
1.9344234 -0.34917271 1.9917867
-0.50092018 -0.25161329 1.9776745
-0.4756808 -0.27316424 1.9852942
-0.44631112 -0.29261807 1.998971
-0.49353129 -0.22370777 1.990778
-0.47359139 -0.19228192 1.9730613
-0.56223589 0.23242252 1.9678965
-0.5591231 0.25183138 1.9672432
1.8870425 0.34782416 1.9993691
1.9251962 0.34500289 1.9815736
1.969643 0.34393731 1.9767476
1.8340175 0.38829622 1.9813311
1.8679922 0.37263253 1.9720385
1.9165125 0.35882989 1.9584633
1.9856545 0.35223857 1.960037
-0.70854592 0.43179977 1.9781573
1.8256167 0.42380849 1.9688946
1.8507395 0.40192947 1.9508175
-0.7567293 0.49968204 1.9564906
-0.72714221 0.47671711 1.9539438
-0.75415176 0.53493237 1.9729753
-0.74884534 0.51110899 1.9628968
-1.8262643 0.69514006 1.9917603
-1.8119009 0.72215557 1.9763099
-1.7765568 0.72651905 1.9709506
-1.6601834 0.7332288 1.9720354
-1.0156533 0.74071133 1.9788016
-1.6593713 0.7658177 1.9643784
-1.6400337 0.76209927 1.9809378
-1.0326679 0.77154046 1.9750187
-1.0357726 0.82292646 1.9716438
-1.7692212 0.88080537 1.9747182
-1.5754077 0.8829174 1.9773014
-1.0443257 0.87800139 1.973742
-1.6004021 0.92392164 1.9849768
-1.5773283 0.91182357 1.9905628
-1.0500534 0.93257999 1.9697344
-1.0426822 0.92048019 1.9784962
-1.056963 0.97836006 1.9733257
-1.0494545 0.96404243 1.9856273
-1.0598183 1.0311888 1.9778715
-1.0450199 1.0482721 1.9713827
-1.0514487 1.0546985 1.9530195
-1.039712 1.0766524 1.9775658
-1.0363744 1.1222322 1.9700603
-1.0380554 1.1778342 1.9722868
-1.0374724 1.2257766 1.9706165
-1.0404661 1.2734324 1.9766556
-1.5619259 1.3376303 1.9649612
-1.5234694 1.3445764 1.9649816
-1.042706 1.3245702 1.9868683
-1.5267024 1.3537823 1.9654151
-1.4896772 1.3557265 1.9593436
-1.043653 1.3749349 1.9767182
-1.043931 1.4213119 1.9700314
-1.0459211 1.46082 1.9601815
-1.882373 1.7868034 1.9692999
-1.834022 1.7961208 1.9852221
-1.9047873 1.8302474 1.9685729
-1.8953736 1.8206676 1.9857237
-1.9130493 1.8774278 1.9725978
-1.8976778 1.888359 1.9958773
-1.91405 1.9238424 1.9733816
-1.9204816 1.9783667 1.9718524
-1.9161266 2.0210307 1.9777349
-1.9126846 2.0701656 1.9908615
-0.35896075 -0.55221343 2.0360045
-0.33749148 -0.55662465 2.0288413
1.5778437 -0.55389237 2.0204968
-0.47011742 -0.51576239 2.0145683
-0.43868613 -0.52108711 2.0222921
-0.37150478 -0.54348409 2.0214145
0.71101445 -0.53285235 2.0363967
1.6193709 -0.53686613 2.0129945
1.6577899 -0.51315594 2.0170498
-0.43754745 -0.48227674 2.0165091
1.6362977 -0.47879514 2.0081122
-0.43947899 -0.4075166 2.0006514
1.6338278 -0.42424816 2.0104313
-0.44276875 -0.38082936 2.0195076
1.6720514 -0.38041297 2.0205469
1.7281091 -0.36086756 2.023329
1.7645525 -0.35404018 2.0091546
1.7447951 -0.3404046 2.0497346
1.7773482 -0.33037063 2.0293777
1.8231179 -0.32222718 2.0221186
1.8739532 -0.32567197 2.0197403
1.9140844 -0.3244462 2.0151639
1.9638083 -0.33544123 2.0248568
-0.45217687 -0.26765245 2.018724
1.7960222 -0.28791505 2.0468726
1.8275802 -0.27951008 2.0418575
1.8766681 -0.27521756 2.0429704
1.9145243 -0.28214884 2.0389338
-0.47193086 -0.22400168 2.0186505
1.8851495 -0.24935654 2.0460308
1.8724976 -0.19867453 2.0485959
-0.56566799 0.23724177 2.010222
1.8854455 0.34223238 2.0300388
1.9209222 0.32598603 2.023365
1.981006 0.33261681 2.030282
-0.69001985 0.37421304 2.0195909
1.7920421 0.39014223 2.0034716
1.823185 0.38679546 2.004514
1.8664622 0.36346254 2.0255682
-0.70320696 0.43526065 2.0097637
-0.69780999 0.42645794 2.019408
1.8146523 0.41691467 2.0013409
-0.75456905 0.52289921 2.0212853
-1.8501941 0.68164867 2.016268
-1.8178663 0.69053018 2.0196826
-1.8053888 0.72678494 2.0320253
-1.7968109 0.72576368 2.0131493
-1.7075378 0.72161829 2.0009136
-1.6668849 0.72476846 2.0249398
-1.6386154 0.74521601 2.0386484
-1.6303608 0.75547642 2.0214248
-1.0325755 0.78078258 2.022701
-1.0382025 0.8243311 2.0285461
-1.7710247 0.89741516 2.0101206
-1.6043624 0.89644498 2.0278676
-1.5688446 0.89544135 2.0017774
-1.0410546 0.87088484 2.0197706
-1.8068031 0.92829549 2.0186677
-1.0511885 0.93666387 2.0293479
-1.0463599 0.91894937 2.0347631
-1.8084093 0.95507115 2.0370579
-1.0548778 0.97070152 2.0326715
-1.0644891 1.0223327 2.0269015
-1.044875 1.0405971 2.0257471
-1.0404711 1.0722876 2.0252917
-1.0392646 1.1326624 2.0261352
-1.0404392 1.1728023 2.0215464
-1.0404347 1.2249483 2.0303175
-1.0370169 1.2823861 2.0180111
-1.0392348 1.3220552 2.0120277
-1.0510726 1.3900917 2.0173705
-1.0433513 1.3620338 2.012784
-1.0552704 1.4289372 2.034358
-1.0587753 1.4775076 2.024189
-1.048016 1.4550583 2.0473793
-1.8864477 1.8331423 2.0154271
-1.8231536 1.8283442 2.0154109
-1.8792777 1.8732092 2.023098
-1.9074324 1.9428151 2.0110111
-1.8779153 1.9281048 2.0339336
-1.9086311 1.9742393 2.0091801
-1.8847262 1.9743398 2.0297904
-1.9050318 2.0265999 2.0086389
-1.8866228 2.0225425 2.0363517
-1.9043994 2.0857251 2.0152321
-1.888818 2.0700755 2.0364709
-1.9082382 2.1261215 2.0316586
-1.8808235 2.1173847 2.0452206
-0.35388333 -0.560072 2.0661712
-0.33104688 -0.55507922 2.0701315
1.6187313 -0.55823535 2.0872221
-0.36388764 -0.54961514 2.0657916
0.67534101 -0.54220641 2.0684071
0.71294588 -0.5378052 2.0776386
1.6516275 -0.54892719 2.0849988
1.72162 -0.35605645 2.0583313
1.7365872 -0.34119782 2.0630903
1.7643143 -0.3174836 2.0702908
1.9756005 -0.30857238 2.0773823
-0.46132189 -0.25204208 2.0706735
1.7839072 -0.27528945 2.0742521
1.9370186 -0.25998774 2.0657516
-0.45734587 -0.21987955 2.0550883
-0.44827715 -0.21534061 2.0611637
1.7902019 -0.23183911 2.0810387
1.8249316 -0.22675642 2.0609002
1.8737327 -0.22265956 2.0529687
1.9239166 -0.23378581 2.0660908
1.7925614 -0.18166502 2.0895898
1.8232023 -0.17759794 2.068646
1.8725668 -0.17549832 2.0581446
1.9122677 -0.1635554 2.0711238
1.8214778 -0.13138697 2.0857303
1.8729981 -0.12475428 2.0773976
1.9166933 -0.12012476 2.0902092
1.8391234 -0.084848262 2.0959053
1.8759243 -0.087555237 2.0940933
1.9046404 -0.088008046 2.0903742
1.8220128 0.2124552 2.0840015
1.7990452 0.29997271 2.0953395
1.7862196 0.3406755 2.0905831
1.8192524 0.33070102 2.081022
1.8729331 0.33632043 2.0757611
1.9147284 0.32464707 2.0687923
-0.69700801 0.39109316 2.055043
1.6697307 0.3533617 2.0945742
1.7228458 0.37390003 2.0759935
1.7791717 0.37201881 2.0884981
1.8330851 0.37127081 2.0856647
1.865181 0.37058607 2.0747616
-0.70668346 0.42432141 2.0797341
-1.821979 0.73280805 2.0745223
-1.6568226 0.72378731 2.0660839
-1.6377407 0.74310499 2.0676098
-1.8004411 0.75017458 2.0611236
-1.0361109 0.78793752 2.0732341
-1.0408337 0.82516944 2.0726852
-1.0541352 0.88687807 2.0830388
-1.0440459 0.87839681 2.0630217
-1.8067584 0.93826789 2.064378
-1.7455398 0.91374254 2.0899189
-1.0531827 0.93659627 2.0792611
-1.0472016 0.9313581 2.0674067
-1.8083382 0.96329361 2.0840461
-1.0551735 0.97836632 2.0709212
-1.0487483 0.99427384 2.0947738
-1.0571791 1.0191977 2.06092
-1.0450586 1.0302507 2.0814626
-1.0439798 1.0764313 2.0835683
-1.0508347 1.1010615 2.0899904
-1.045792 1.122236 2.0770297
-1.0517123 1.173677 2.0943029
-1.0472002 1.1833606 2.0785341
-1.0529126 1.2484332 2.0974147
-1.0487332 1.2412971 2.0548995
-1.0460377 1.2700934 2.0689547
-1.0560902 1.3345944 2.0863435
-1.0548463 1.3746322 2.0737767
-1.0590982 1.4374081 2.0690694
-1.8511097 1.8860992 2.062573
-1.8411587 1.8910922 2.0786779
-1.8529766 1.9255663 2.0563552
-1.8445324 1.9247476 2.0797336
-1.8590888 1.9800705 2.0599241
-1.8473414 1.958106 2.0799227
-1.8578708 2.0244153 2.0665507
-1.8618915 2.0759025 2.0677071
-1.8468019 2.0511987 2.088944
-1.8620826 2.1223421 2.0653811
-0.36192912 -0.55714893 2.1159575
-0.34955382 -0.55925858 2.1044223
-0.37759489 -0.54919612 2.1473138
0.33289507 -0.54692441 2.1003702
0.68331838 -0.54222184 2.1121311
0.74103975 -0.53877264 2.1312938
0.77332699 -0.53497928 2.1069524
-0.46011665 -0.45218036 2.141834
-0.46475363 -0.32751799 2.1380234
-0.44933894 -0.30807519 2.1075332
1.7640482 -0.32606271 2.1174779
-0.44954267 -0.2979396 2.1094651
1.7810907 -0.27478644 2.1250479
1.7853739 -0.22183049 2.1211004
1.7816867 -0.17759407 2.1207156
1.7496452 -0.11169533 2.1463807
1.7822723 -0.12849243 2.1209023
1.9372652 -0.12732984 2.1004601
1.9743786 -0.12943554 2.1283321
2.033886 -0.11819994 2.143343
1.6999824 -0.060935061 2.1334331
1.7232122 -0.079772875 2.1336751
1.7780831 -0.081993051 2.1309295
1.8151518 -0.075765766 2.1104233
1.8791199 -0.066741638 2.1022687
1.9271516 -0.063589774 2.1237495
1.9877601 -0.084367052 2.1447945
2.0247893 -0.068391249 2.1386094
1.6895278 -0.030099336 2.1324401
1.7208309 -0.030847864 2.1207695
1.7807693 -0.031859316 2.1340799
1.826041 -0.032496978 2.1234567
1.8722651 -0.031021159 2.1209235
1.9123541 -0.024967223 2.1321385
2.0235932 -0.038807373 2.1472955
1.6921304 0.0097819762 2.1417162
1.7128931 0.025266446 2.1382875
1.7897762 0.00060639973 2.1499193
1.8323294 0.0091132717 2.1446447
1.8726164 0.017100681 2.1376407
1.904773 0.0071257073 2.1398292
1.6907616 0.079269685 2.1398885
1.7169363 0.074729122 2.1406066
1.862371 0.063916706 2.1149952
1.6934553 0.13010147 2.1459389
1.7191015 0.12239035 2.1431644
1.8848233 0.13752051 2.1454904
1.9088571 0.14234528 2.140249
1.684598 0.19374622 2.1463101
1.7150621 0.19444506 2.1376617
1.8273731 0.17798035 2.1404953
1.8660419 0.15723281 2.1448386
1.6497556 0.2200792 2.1308072
1.6741668 0.22826935 2.1358626
1.7174964 0.22957455 2.133812
1.7971839 0.24066876 2.1473525
1.815413 0.22162986 2.1348436
1.6433607 0.27998614 2.1166692
1.6782358 0.27483368 2.1339777
1.7205683 0.27957636 2.1326978
1.7816265 0.27729857 2.1390672
1.8105155 0.26858589 2.1227331
1.6873381 0.32468539 2.1311402
1.730801 0.32995507 2.1275575
1.773252 0.31868336 2.1169877
1.6954124 0.3562133 2.1033032
1.7271928 0.3635439 2.1105144
1.75532 0.36720878 2.105083
-1.8570032 0.71627659 2.1169951
-1.8340319 0.73308522 2.1266067
-1.657908 0.73400509 2.120038
-1.6437484 0.74577737 2.1224799
-1.8195498 0.75324368 2.1238008
-1.6375639 0.75209671 2.1247001
-1.0361357 0.79085177 2.101759
-1.0521009 0.84318614 2.1223431
-1.0425581 0.81878203 2.1281946
-1.0535352 0.86732113 2.1181569
-1.8053451 0.94447297 2.1058979
-1.7802707 0.94502413 2.1263454
-1.0596896 0.91855752 2.1155374
-1.8030766 0.97150069 2.1129582
-1.7769094 0.97663087 2.137295
-1.0559045 0.97751933 2.1255903
-1.0464603 0.98384446 2.1251705
-1.0428612 1.0211823 2.1211979
-1.0462539 1.0756267 2.1225321
-1.0514289 1.1219782 2.1160076
-1.0474294 1.1271029 2.1313109
-1.0531101 1.1886244 2.1257825
-1.0481652 1.194995 2.1104019
-1.0552996 1.2278719 2.125221
-1.0488917 1.2197441 2.1008072
-1.0611691 1.2788717 2.1401896
-1.0747468 1.3385941 2.1459668
-1.062031 1.3753272 2.1309314
-1.070981 1.4352975 2.1302621
-1.0713172 1.4738685 2.1277688
-1.8353809 1.9311739 2.1164119
-1.8537861 1.997427 2.1431546
-1.8442518 1.966132 2.1209736
-1.8598638 2.0295293 2.1242876
-1.853323 2.0756102 2.1243134
-1.8445199 2.0744078 2.1283631
-1.8549019 2.1221538 2.1170139
-1.8588567 2.1711833 2.1253099
-0.36552843 -0.56125051 2.1818752
-0.45508054 -0.53220588 2.1580234
-0.40750289 -0.5289045 2.1973588
-0.37441939 -0.54947811 2.1936245
0.73562229 -0.5412631 2.1676877
-0.45793065 -0.4819282 2.1799271
-0.4614051 -0.42672148 2.1777551
-0.46683276 -0.38942191 2.1821098
-0.46323261 -0.32924938 2.1543634
-0.42565683 -0.25377664 2.1806405
1.7987263 -0.22066046 2.1515605
1.7788124 -0.16022602 2.1617732
1.738073 -0.108381 2.1798677
1.7688248 -0.13183413 2.1690485
1.9958659 -0.10479196 2.1651912
2.0230834 -0.11580471 2.1593094
2.0728755 -0.13400742 2.1838255
1.7114779 -0.076811776 2.1711078
1.9934678 -0.065232016 2.1721132
2.0138426 -0.071943432 2.1608582
1.6988078 -0.018172076 2.1798263
1.7017423 -0.043181926 2.1833353
1.7735966 -0.011963598 2.1541498
1.9556695 -0.01237052 2.1723528
2.0203791 -0.023013731 2.1588569
2.0609212 -0.032573469 2.1618943
1.6955409 0.031525124 2.1635308
1.7057498 0.019310977 2.188684
1.7774395 0.01950739 2.1634159
1.8189392 0.030229801 2.1565983
1.863296 0.039015867 2.1524343
1.9427122 0.026925776 2.1823022
2.0283034 0.022967521 2.168906
1.6826321 0.074586123 2.1579328
1.783314 0.070285089 2.1768556
1.8276799 0.068366483 2.1750107
1.8713522 0.074018583 2.1681099
1.9064777 0.052482866 2.1653991
2.0321922 0.071468487 2.1753943
2.0591271 0.080931246 2.158736
1.6828532 0.13053884 2.1639516
1.72984 0.13143456 2.1561365
1.7867724 0.12557973 2.1830027
1.8271071 0.12019976 2.174423
1.8729055 0.11940965 2.1578717
1.9264479 0.11790526 2.1694574
2.0357037 0.12113738 2.1822367
2.0709374 0.10824778 2.1700895
1.6786091 0.17707171 2.1579559
1.7203426 0.1700446 2.1586151
1.7776932 0.17101195 2.1750052
1.8166822 0.17009659 2.1603465
1.7793791 0.22226024 2.1593735
1.8015735 0.20958766 2.1553867
1.7688709 0.2564356 2.1513488
-1.8343637 0.73846579 2.1739795
-1.0582589 0.84931904 2.196336
-1.0402197 0.81857032 2.1739419
-1.0772874 0.88476521 2.1979234
-1.0848837 0.93883359 2.1982496
-1.0660222 0.97286642 2.184855
-1.0459148 0.98405117 2.1724362
-1.0538206 1.0091944 2.1992476
-1.0469526 1.0264949 2.1762993
-1.0521924 1.0796136 2.1691005
-1.049104 1.0742102 2.1772778
-1.0561687 1.1327416 2.1924288
-1.0492269 1.1010766 2.1877384
-1.0616113 1.1809404 2.1741688
-1.0612552 1.2203946 2.179904
-1.0645694 1.2612056 2.1698148
-1.0729415 1.3192072 2.169914
-1.0740665 1.3822699 2.1791389
-1.0657352 1.4300658 2.1706016
-1.0618786 1.4803039 2.17256
-1.8439415 1.9879581 2.1718237
-1.854658 2.0305436 2.1611135
-1.8463417 2.0224192 2.1784146
-1.8514723 2.0759957 2.1761765
-1.8536798 2.1427538 2.1578465
-1.8441387 2.1168222 2.1725004
-1.860103 2.1660085 2.1531351
-1.8443946 2.1754129 2.1782224
-0.35885864 -0.57523561 2.23051
-0.40379184 -0.5438379 2.2370744
0.76521367 -0.53798294 2.2220507
-0.41147697 -0.4958905 2.2247167
-0.42476687 -0.41651905 2.2470844
-0.43143666 -0.35813767 2.2297921
1.7268099 -0.075501129 2.2148485
2.0322537 -0.02948991 2.2128806
2.0306432 0.014200903 2.204896
1.7115185 0.089109808 2.2188065
2.0287297 0.090404473 2.2095695
2.1100106 0.055570647 2.2128842
1.7056882 0.10770772 2.2105417
2.0310953 0.14850642 2.200979
-1.0380478 0.82960451 2.202353
-1.064842 0.87455034 2.236187
-1.0789686 0.92338914 2.2217932
-1.0631884 0.97578436 2.2334194
-1.0554171 1.0305001 2.2294881
-1.0484346 1.0156056 2.2176545
-1.0568514 1.0664062 2.2199845
-1.0615922 1.1332406 2.2414865
-1.0680863 1.17134 2.2426159
-1.0655267 1.2207087 2.2335808
-1.0701971 1.2747492 2.2216034
-1.0786723 1.3267505 2.2290647
-1.0763426 1.3719052 2.2272031
-1.0613893 1.4211867 2.2240479
-1.0632375 1.473582 2.2261047
-1.8392632 2.0408759 2.2277019
-1.8547488 2.0808606 2.2075052
-1.8442736 2.0703986 2.2227123
-1.851313 2.1106563 2.2208524
-1.8478775 2.129468 2.2284508
-1.8500431 2.1594303 2.2244627
-1.841897 2.1927423 2.2257833
-1.8376704 2.2193296 2.2259517
0.70496309 -0.55228138 2.2991865
1.8191204 -0.50671285 2.2894368
2.586827 -0.54320425 2.2976336
2.6431844 -0.53266966 2.2923927
2.6722186 -0.53530335 2.2884171
2.7222624 -0.53248626 2.2887197
2.7835197 -0.52519637 2.2886269
2.8204772 -0.50962144 2.2880299
2.8848894 -0.50851256 2.297123
1.820874 -0.48047996 2.2963555
2.8435068 -0.47967082 2.2975895
2.8301365 -0.43682683 2.2932653
-0.42513791 -0.39493236 2.2516849
1.8694279 -0.36182913 2.2982471
1.8708391 -0.34617075 2.2762482
-1.0424408 0.84150094 2.2579484
-1.0556946 0.87981403 2.2654595
-1.0476019 0.88190854 2.2587552
-1.0626584 0.92512673 2.2708991
-1.0637145 0.96517861 2.2683165
-1.0598814 1.0201298 2.2788494
-1.0612679 1.0754853 2.2779589
-1.0630699 1.1216352 2.2715023
-1.0721818 1.1833071 2.2850578
-1.0761932 1.2752788 2.2850363
-1.0784501 1.3269154 2.2772794
-1.0712568 1.3750196 2.2747178
-1.0688517 1.4322608 2.2805536
-1.061716 1.4732423 2.2812335
-1.0606409 1.5242974 2.2502987
-1.8395267 2.0834687 2.2609003
-1.8396227 2.1210189 2.2766907
-1.85095 2.1984215 2.2861986
-1.8417307 2.164017 2.2628942
-1.8356305 2.2240868 2.2788646
-1.8253542 2.2558606 2.2774498
2.1758831 2.3582733 2.2707155
2.2204103 2.3576708 2.279907
0.77264094 -0.55793405 2.3365583
1.8215299 -0.50438392 2.3193846
2.5329638 -0.53843343 2.3066914
2.5904248 -0.53161478 2.3329022
2.621851 -0.52843189 2.3231676
2.6736813 -0.51718569 2.3289371
2.7183609 -0.51090622 2.3192041
2.777272 -0.50772852 2.3113627
1.8337686 -0.49239212 2.324429
2.6807756 -0.47329044 2.3446493
2.7247965 -0.48003408 2.3303745
2.7737191 -0.47154838 2.3166618
2.8274744 -0.46681809 2.3086863
2.9159939 -0.48071957 2.3274529
2.3789754 -0.41984066 2.3499849
2.6489322 -0.44206223 2.3433998
2.6722503 -0.42802864 2.344316
2.7243059 -0.4318175 2.3377926
2.7703221 -0.41780248 2.320085
2.8175051 -0.42054099 2.3074679
2.8829117 -0.42247728 2.3166306
-0.4356328 -0.39343968 2.3085568
1.8774923 -0.36603141 2.3339205
2.6802397 -0.38886103 2.3498461
2.7199407 -0.37200952 2.3375151
2.7718787 -0.37264305 2.3247609
2.8290596 -0.37631184 2.3188167
2.8750916 -0.3720212 2.31708
1.8773012 -0.34987411 2.3096316
1.9104147 -0.33987468 2.3260667
2.2550263 -0.34259742 2.3446493
2.7246697 -0.3208808 2.3380589
2.7747781 -0.31706992 2.3295362
2.8242483 -0.3234444 2.3182583
2.8679082 -0.3255569 2.3093109
1.9364861 -0.27350041 2.3391178
2.2133741 -0.27346089 2.3355596
2.7262061 -0.27074516 2.3447523
2.7680113 -0.27244696 2.3358703
2.8228385 -0.27457282 2.3221734
2.8666191 -0.27637079 2.3133543
2.2230401 -0.24569741 2.3485122
2.7711973 -0.22741683 2.3395696
2.8243749 -0.22594565 2.3277009
2.8672314 -0.22729029 2.318099
-0.5337528 -0.19403534 2.3489671
2.7400506 -0.16418035 2.3450813
2.7782471 -0.17587431 2.3372602
2.8190138 -0.17999813 2.3235095
2.8718529 -0.17853285 2.3252406
-0.56289244 -0.13189927 2.3252466
2.7341657 -0.12337055 2.3440292
2.7804666 -0.13051382 2.3296723
2.8265502 -0.12429125 2.3281932
2.861532 -0.12895261 2.3194339
2.2618532 -0.057346191 2.3449888
2.7396674 -0.082606405 2.345753
2.7819138 -0.082226992 2.332644
2.8205237 -0.075372815 2.324872
2.8630743 -0.080054134 2.3223903
2.2657125 -0.042850565 2.3492374
2.735595 -0.030523878 2.3432388
2.7813125 -0.027428318 2.3330991
2.8299668 -0.034105662 2.3259213
2.8701196 -0.031005207 2.3289528
2.748811 0.049645197 2.3467557
2.7803726 0.025735851 2.34412
2.820112 0.01784477 2.33272
2.8592415 0.018003982 2.3201511
2.7842658 0.066196144 2.3467126
2.8269949 0.055808146 2.3328755
2.8563609 0.058735892 2.3171959
-1.0540552 0.87439901 2.3215077
-1.0548958 0.92428571 2.3252108
-1.0587428 0.97237313 2.3270667
-1.063799 1.0296409 2.3208127
-1.0633012 1.0769827 2.3322508
-1.0657014 1.1266071 2.3277359
-1.0715772 1.1775976 2.3233798
-1.0724423 1.2269381 2.3221002
-1.0726761 1.270826 2.3264246
-1.0743569 1.3224106 2.3253181
-1.0674282 1.3625709 2.327415
-1.0737125 1.4315081 2.3299129
-1.0640761 1.47 2.324358
-1.8543259 2.1371069 2.3409956
-1.8457527 2.143481 2.3176692
-1.8448251 2.1941624 2.322403
-1.8518012 2.2387438 2.3498583
-1.8400916 2.2229834 2.3128252
-1.8186936 2.2616005 2.3290195
-1.7758651 2.2666728 2.3351274
-1.7349434 2.2656353 2.3496034
2.1950758 2.3561614 2.3220851
2.2250991 2.3547306 2.3266892
2.2667708 2.3616538 2.3093343
2.3010516 2.3521082 2.3116095
2.3522382 2.3681872 2.3452516
1.8233515 -0.562527 2.3784075
2.5674918 -0.51034719 2.354836
2.6212003 -0.51044434 2.3557546
1.8477383 -0.47752786 2.3586054
2.4994006 -0.46379882 2.376152
2.5222719 -0.46510363 2.368758
2.5633507 -0.47300524 2.3645985
2.6236618 -0.47348925 2.3596337
2.6691575 -0.48532021 2.3546078
1.9042448 -0.40170786 2.3898847
2.3629613 -0.40466768 2.3644505
2.4352262 -0.42073786 2.3923106
2.4686828 -0.42142558 2.3877537
2.5177727 -0.42370424 2.387846
2.5701773 -0.42193538 2.3709073
2.6167235 -0.42464572 2.3581443
2.6607192 -0.41222256 2.3587317
1.8999405 -0.37311956 2.3881371
1.9157405 -0.37347907 2.3814151
2.2986665 -0.3691681 2.3593321
2.3329556 -0.37308311 2.3757074
2.377969 -0.37385875 2.3912506
2.4183509 -0.36567834 2.397608
2.4884477 -0.37808871 2.3930779
2.5198562 -0.37191296 2.385381
2.5668385 -0.37473321 2.3779488
2.619931 -0.37801543 2.370856
2.6603227 -0.37580654 2.3560193
1.9452417 -0.34157699 2.3957293
1.9588041 -0.32054242 2.3881707
2.2784715 -0.31662655 2.3725572
2.3169386 -0.33056176 2.3761895
2.3879447 -0.34063148 2.3986478
2.4417493 -0.33621463 2.3959153
2.478847 -0.32268491 2.390631
2.5302684 -0.3279317 2.3876846
2.5817056 -0.32801646 2.3742561
2.6179252 -0.3298637 2.3677506
2.6655622 -0.3276158 2.3572485
2.7058358 -0.31829393 2.3517401
1.9594938 -0.27876398 2.3933039
2.2562246 -0.27699021 2.3532922
2.3328366 -0.27610859 2.3916142
2.3788226 -0.25614008 2.398371
2.4859276 -0.27293676 2.3956032
2.5325468 -0.27888408 2.388978
2.5829217 -0.28092095 2.3776035
2.6322517 -0.27389482 2.3667932
2.6772838 -0.26909393 2.3612523
2.7010694 -0.27784407 2.3518333
-0.54212093 -0.20867394 2.3851461
1.9479769 -0.24756873 2.3555236
1.9648182 -0.22271399 2.391259
2.2403631 -0.21836078 2.3692257
2.2719748 -0.23472297 2.3737936
2.3308294 -0.2235101 2.3942325
2.3731751 -0.2328997 2.39464
2.4855349 -0.23427445 2.3987317
2.5298369 -0.22741148 2.3889623
2.5792003 -0.22573809 2.3791294
2.6313035 -0.21959431 2.3686707
2.6793015 -0.22420533 2.3551557
2.7274196 -0.21916293 2.3576984
2.761621 -0.20812933 2.3508363
-0.55639315 -0.16222134 2.3844824
-0.54379451 -0.18605343 2.3937705
1.9374292 -0.19274764 2.3730376
2.237942 -0.17433789 2.3697548
2.2671041 -0.17582029 2.3821437
2.3251076 -0.1744827 2.3917761
2.5333829 -0.17303495 2.3953857
2.5782855 -0.17089941 2.382205
2.628309 -0.17204572 2.3692596
2.676892 -0.17002377 2.3568172
2.718612 -0.18521041 2.3549693
-0.56332594 -0.12274826 2.3686404
2.3233421 -0.13061945 2.3876481
2.3669496 -0.11189193 2.3957038
2.5327868 -0.12013616 2.3975644
2.5788193 -0.12397455 2.3851449
2.6271672 -0.12472504 2.3707254
2.6779337 -0.12556346 2.3570969
2.7223699 -0.14245918 2.3508327
-0.56331098 -0.074208453 2.3884687
2.3308344 -0.073626608 2.3881435
2.3594599 -0.089023776 2.3889208
2.5768311 -0.076958142 2.3849506
2.6283681 -0.077500917 2.3734641
2.6715257 -0.081857502 2.3604176
2.7172742 -0.070593372 2.363853
-0.57867181 -0.029020678 2.3928211
2.2909055 -0.021182146 2.375577
2.3163872 -0.028671576 2.3741019
2.5394051 -0.029934132 2.3945596
2.5786312 -0.030082116 2.3874366
2.6318548 -0.030249819 2.3774619
2.6775839 -0.030338459 2.3593342
2.723726 -0.030579301 2.3552623
-0.57899618 0.011693789 2.3942189
2.2865653 0.02306274 2.3709559
2.3309493 0.023373308 2.3889365
2.3636882 0.0010025016 2.3945076
2.5397809 0.016761029 2.3949473
2.5770891 0.024716085 2.3859341
2.6321638 0.025002301 2.3776672
2.6789091 0.01990057 2.3654053
2.7197883 0.030772453 2.3615935
2.7555149 0.017592283 2.3529024
2.2749355 0.059548903 2.3583386
2.332684 0.060691323 2.3901811
2.5806398 0.063899681 2.3885775
2.620887 0.064356618 2.3815503
2.6664391 0.064937457 2.378253
2.7200427 0.065530613 2.3661382
2.7538588 0.065818228 2.350698
2.8361948 0.067080662 2.3602519
2.8878345 0.084525049 2.3722584
-1.0460117 0.84962928 2.3662138
-1.0561113 0.887959 2.3691323
-1.0483099 0.87556696 2.3826909
-1.0581051 0.92058307 2.3766229
-1.0610791 0.97566158 2.3797226
-1.0608411 1.0233264 2.3720474
-1.0603844 1.0768266 2.3693588
-1.0640435 1.1191592 2.363822
-1.0709105 1.1750118 2.377516
-1.06612 1.2176753 2.3704813
-1.0678452 1.2780097 2.3674197
-1.064376 1.3298687 2.3668542
-1.0691925 1.3890592 2.3729661
-1.0744802 1.4243248 2.3748553
-1.0750029 1.488539 2.3997381
-1.0772893 1.5122397 2.3944168
-1.8777045 2.1999013 2.3897164
-1.8675057 2.2354681 2.3872907
-1.8294687 2.2602994 2.3786945
-1.7802726 2.2666035 2.3741348
-1.7268521 2.2641823 2.3810811
-1.6760316 2.2635655 2.3824115
-1.6272521 2.2526946 2.3952081
2.1919403 2.3485205 2.3813069
1.8896585 2.3564944 2.3905959
1.9477079 2.3581069 2.3956094
1.9767232 2.3517704 2.3667321
2.0458376 2.3550093 2.3664801
2.0803058 2.3571541 2.3878691
2.1841795 2.3578281 2.3598819
2.2331343 2.3641977 2.378823
2.2773948 2.3644075 2.3698404
2.3224337 2.356143 2.3673587
2.3830574 2.3629227 2.3724082
2.4162424 2.3598454 2.3727856
1.8665575 -0.5596782 2.4238603
-0.44004345 -0.53280795 2.4471333
1.8939934 -0.5354172 2.4373884
-0.44902873 -0.45791212 2.4391208
1.8872663 -0.40404558 2.4216242
1.9067506 -0.42230511 2.4446688
-0.45558393 -0.35852611 2.4198484
1.8915541 -0.37837642 2.4102325
1.905696 -0.36993599 2.4228559
2.4271643 -0.3772634 2.404911
2.4623024 -0.37173975 2.4021118
1.8991007 -0.32233903 2.4469299
1.9207896 -0.3262499 2.4160874
1.9533319 -0.321969 2.4080734
2.3787599 -0.31762218 2.4062095
2.4324651 -0.31781006 2.4060588
2.4719808 -0.30738285 2.4002175
1.8981302 -0.27908808 2.4363976
1.9256715 -0.27367237 2.4144197
1.9636155 -0.25134933 2.4008851
2.386878 -0.27977979 2.4043067
2.4303443 -0.27160054 2.4087906
2.4642756 -0.28652748 2.4044762
-0.52892232 -0.21034715 2.4068389
1.921357 -0.22432765 2.4254682
1.9600359 -0.23076095 2.4114838
2.297838 -0.20761316 2.4031835
2.3937101 -0.21208297 2.4171729
2.4279153 -0.2315613 2.4099355
2.4652789 -0.21985608 2.4114621
2.5219851 -0.20089376 2.4002435
-0.53553998 -0.17338133 2.4198406
1.898788 -0.15269609 2.4327753
1.9219878 -0.17678893 2.4209373
2.2956855 -0.19253765 2.4019814
2.3344057 -0.18635546 2.4006581
2.3830955 -0.1732979 2.4089713
2.4361808 -0.17875816 2.4211948
2.4772749 -0.17372185 2.407079
2.5225134 -0.15430023 2.4036789
-0.55541664 -0.12335566 2.4208879
-0.53407031 -0.12385722 2.4342527
1.8984685 -0.12480514 2.4336231
1.90499 -0.13870004 2.4280405
2.3823895 -0.13533664 2.4103615
2.4293039 -0.1213601 2.4152896
2.4787374 -0.12224803 2.4064181
2.5206764 -0.13865364 2.4027295
-0.55545342 -0.077365167 2.4170492
-0.53759444 -0.076651849 2.4349694
1.8669466 -0.068463869 2.4212596
2.3771601 -0.06699495 2.4074388
2.4312761 -0.075508423 2.4188161
2.4785101 -0.075960346 2.4077816
2.5354915 -0.076777384 2.4074514
2.5516984 -0.076954618 2.4053502
-0.56372035 -0.027997 2.4244523
-0.53633267 -0.032044031 2.4424474
2.3870878 -0.029334798 2.4180765
2.4298041 -0.029576795 2.418144
2.4808145 -0.029742425 2.4108279
2.5172234 -0.029870182 2.4025519
-0.56636095 0.023702633 2.431509
-0.54273027 0.02380706 2.4477012
2.3465478 0.023498461 2.4050047
2.3931875 0.03143096 2.4241402
2.4308636 0.020771673 2.4212482
2.4795475 0.026843624 2.4142978
2.5266774 0.029203957 2.405606
-0.57105654 0.077005342 2.4368911
2.3729513 0.061368827 2.4031188
2.4347391 0.062592432 2.4368207
2.470376 0.062948696 2.4288359
2.5316947 0.063583396 2.4156034
-0.57207417 0.12049243 2.4330149
2.8734264 0.13542265 2.4347568
2.9098237 0.13601075 2.4190111
-0.5829317 0.17169183 2.4318974
2.882473 0.15640099 2.4258525
-0.57821858 0.22149076 2.4352391
-1.0410215 0.82803994 2.4305406
-1.0519707 0.86421114 2.4217892
-1.056482 0.92916584 2.4208744
-1.0611618 0.97644717 2.4288523
-1.0701649 1.0345756 2.4466026
-1.0634102 1.0735221 2.4162405
-1.0656419 1.1249564 2.4140723
-1.0682786 1.1670917 2.4273798
-1.0644075 1.2229875 2.4238586
-1.0698938 1.2771392 2.4295633
-1.0691963 1.3277704 2.4146123
-1.0685543 1.380199 2.4217296
-1.0706711 1.4213643 2.4197054
-1.0744438 1.4679655 2.4262688
-1.0759923 1.5159879 2.4343204
-1.868911 2.2275317 2.4206228
-1.8555475 2.2502289 2.4459355
-1.8281953 2.2651329 2.4308844
-1.7689807 2.2622306 2.4239452
-1.7260134 2.2598584 2.4330115
-1.6831266 2.2635577 2.4258978
-1.6166525 2.2721405 2.4301991
-1.5789272 2.2651849 2.4414413
-1.5485628 2.2567945 2.4460988
2.0182729 2.345777 2.4112592
1.8470291 2.3564517 2.4176569
1.8677621 2.3525138 2.4185114
1.9364529 2.3566606 2.4209981
1.9752887 2.3548038 2.4335947
2.012949 2.3598557 2.4373505
2.0978231 2.3593686 2.4213943
2.2301629 2.3619857 2.4201198
2.2667875 2.366544 2.4313385
2.3280413 2.3620162 2.4244826
2.3817728 2.361412 2.4223604
2.4148748 2.3577857 2.4297266
2.4719059 2.3654864 2.4174483
2.5461824 2.3759389 2.44366
1.0823696 -0.56169558 2.4817064
1.8860929 -0.55347109 2.4655359
-0.42845076 -0.51562279 2.4623466
1.8956923 -0.53284478 2.4681368
1.9052734 -0.50805968 2.4759264
-0.43447074 -0.47762898 2.4697828
1.9132023 -0.47524074 2.4850767
-0.45220295 -0.42520753 2.4606352
-0.43587056 -0.42682859 2.4721606
1.8886396 -0.41880593 2.4671123
1.9041277 -0.43905833 2.46645
-0.45242476 -0.37747991 2.467
-0.43919915 -0.38212985 2.4749839
1.9128808 -0.37603521 2.4771578
-0.45714003 -0.32576284 2.4679337
-0.44130725 -0.32415977 2.4783359
1.904817 -0.32475796 2.4705589
-0.46458572 -0.29969442 2.4735057
1.8967596 -0.26183784 2.4587164
1.9063824 -0.27795032 2.479002
-0.52296114 -0.21510896 2.4638677
1.899891 -0.23820151 2.4556689
1.9094326 -0.21905109 2.4831657
1.9097112 -0.17472431 2.478102
1.909543 -0.12646468 2.4747579
1.4117657 -0.071423605 2.468827
1.9060479 -0.074911483 2.4899452
-0.53113604 -0.011802085 2.4507856
1.9056001 -0.042002361 2.4990702
-0.53122979 0.023816237 2.4510992
-0.55594021 0.083326578 2.4510002
-0.53791898 0.077357963 2.4529238
-0.55701071 0.1311457 2.4543076
-0.53946435 0.1252697 2.4586418
2.8573239 0.13579281 2.4674993
2.919627 0.12093127 2.4904349
-0.56641644 0.17531167 2.4576132
-0.54075319 0.17338702 2.4625494
2.8486459 0.15297626 2.4902704
2.8773663 0.1695936 2.4517679
-0.56493342 0.22076714 2.4615524
-0.54211944 0.21574938 2.4665782
-0.80890638 0.52488232 2.4971023
-0.87304902 0.57598275 2.4794745
-0.898911 0.67362583 2.4980018
-1.0554007 0.87737846 2.4692917
-1.0576074 0.92017591 2.4784775
-1.0607342 0.97795135 2.4832923
-1.0640146 1.0306356 2.4859788
-1.0678619 1.0826908 2.4768891
-1.062505 1.1251991 2.4691215
-1.0631208 1.1806102 2.4669161
-1.0639119 1.2247282 2.4698093
-1.0641705 1.2707275 2.4664698
-1.0702446 1.3282855 2.4772332
-1.0682435 1.3759471 2.4711053
-1.0770917 1.4343994 2.4767876
-1.0753897 1.4667094 2.4566472
-1.0803292 1.5278568 2.4878948
-1.8406751 2.2526948 2.4594729
-1.7876675 2.2560925 2.4581223
-1.7121973 2.2510717 2.4570904
-1.664404 2.2686808 2.4607852
-1.6277184 2.2711139 2.4602084
-1.575819 2.2560456 2.4671688
-1.5236821 2.2581201 2.470927
-1.4889199 2.2654493 2.4908428
1.7394874 2.3608482 2.4904346
1.7936269 2.3760097 2.4804544
1.9279619 2.3587306 2.4500852
2.183538 2.369473 2.465086
2.2276719 2.3743997 2.4756954
2.2752013 2.3591328 2.4828463
2.3177779 2.3641465 2.48018
2.3615065 2.3683999 2.4714794
2.420944 2.3631842 2.4806356
2.4761789 2.3624942 2.470221
2.5224206 2.3706577 2.4670019
-0.4391641 -0.55276126 2.5111341
0.78954756 -0.57056588 2.5370564
0.81789094 -0.57265455 2.5408037
0.88535041 -0.56232584 2.5389082
0.92278552 -0.5656538 2.5459492
1.0881871 -0.55846477 2.5308766
1.107602 -0.55841029 2.524627
1.9191122 -0.54348767 2.5265522
-0.430177 -0.49514014 2.5404992
1.9236826 -0.47938532 2.5432105
1.8973351 -0.44413245 2.5125835
1.9069446 -0.42503366 2.5094068
-0.4357315 -0.37167299 2.5130072
1.9133682 -0.37274766 2.5153284
-0.43854564 -0.33729899 2.5326533
1.9276218 -0.32487774 2.5396338
1.9166518 -0.27574706 2.5227096
1.918684 -0.23294491 2.5287967
1.9116316 -0.17978199 2.5021734
1.9097248 -0.12744051 2.5022268
1.9115484 -0.091973528 2.5058451
1.9146066 -0.020803239 2.5110657
1.9265494 0.022156633 2.5335655
2.8354132 0.085957825 2.5285952
2.8643045 0.12062571 2.5371368
2.8343027 0.15897034 2.5191066
-0.56308538 0.24626027 2.5315464
-0.53894287 0.21566567 2.5392132
-0.60795295 0.29636854 2.5287032
-0.57961953 0.29146412 2.5263965
-0.70547765 0.34821385 2.5260425
-0.66816223 0.33781609 2.5281229
-0.62171715 0.3285726 2.524518
-0.58358449 0.32498217 2.5317731
-0.76638991 0.38491583 2.5354235
-0.72532797 0.37571213 2.5302188
-0.67469513 0.37946248 2.5297008
-0.62303716 0.37830749 2.5306175
-0.58621556 0.37854266 2.5382378
-0.77440375 0.42428124 2.5282028
-0.72973478 0.41983172 2.5347862
-0.6777944 0.42494512 2.5366151
-0.6265083 0.43029836 2.539345
-0.59023249 0.42147249 2.5456791
3.1683333 0.41774604 2.5424414
-0.81014442 0.47627306 2.5322053
-0.7723664 0.47306183 2.5376964
-0.72194761 0.47310379 2.5377076
-0.67810726 0.46896285 2.5433481
-0.62905198 0.47585189 2.5443583
-0.59212047 0.467848 2.5485034
3.184051 0.46526459 2.5485983
-0.81528085 0.52737582 2.533246
-0.77762556 0.52555329 2.5451052
-0.72147447 0.52357596 2.5463102
-0.67236871 0.5209778 2.5469189
-0.62742811 0.51894367 2.5481486
3.1900084 0.51165438 2.5462871
-0.86908966 0.58458167 2.5412214
-0.82956868 0.57099837 2.5415297
-0.76993191 0.56730515 2.5481815
-0.73413491 0.56942105 2.5482531
-0.67911714 0.56241679 2.5489006
-0.61325955 0.55367154 2.5496213
-0.90054929 0.64578319 2.5488138
-0.88186181 0.61549854 2.5444784
-0.82894796 0.60830939 2.5479424
-0.78449887 0.62183857 2.5490627
-0.72878987 0.63669235 2.5483658
3.2133105 0.62545663 2.5451088
-0.90629423 0.67753297 2.5393674
3.1882448 0.6698668 2.5486546
-0.97592163 0.73684174 2.5310228
-0.93259162 0.7151376 2.5470238
-1.0574507 0.8580693 2.5018992
-1.0475044 0.87380385 2.5101156
-1.0556802 0.92700171 2.5175216
-1.0567212 0.97045451 2.527885
-1.0550474 1.0213727 2.5203621
-1.0601408 1.0692663 2.5111356
-1.0578724 1.122551 2.5243394
-1.0619074 1.1782941 2.5191045
-1.0617236 1.2298517 2.5251024
-1.0625169 1.2725044 2.5211754
-1.0674334 1.3229752 2.5268157
-1.0650696 1.3743528 2.5134234
-1.0720581 1.4362253 2.5221195
-1.0767421 1.4762659 2.5254629
-1.080265 1.5193887 2.5393839
-1.0847738 1.5543559 2.5361266
-1.5515364 2.2520816 2.5123425
-1.5218567 2.2588577 2.5232437
-1.4743146 2.2633619 2.5175164
-1.4296573 2.2648077 2.5293741
-1.3836353 2.267561 2.5466709
1.732632 2.3866861 2.5330629
1.8230761 2.3747444 2.5005903
1.908417 2.3599954 2.5058804
2.224571 2.3676782 2.5220315
2.2619853 2.3600664 2.5277197
2.3242402 2.3679781 2.5432904
2.3745842 2.3721502 2.5301306
2.4117484 2.3629639 2.5178349
2.5441048 2.3807526 2.5249009
2.5736523 2.3723977 2.5116971
0.82390249 -0.56847847 2.5829904
0.92356515 -0.5640893 2.5821731
1.112685 -0.55774933 2.589879
1.2868582 -0.55361372 2.5839036
1.9344484 -0.57416391 2.5712833
0.83812177 -0.51578701 2.5961361
1.1321315 -0.51677674 2.5929809
1.9431709 -0.51359922 2.5643597
1.1345652 -0.4921613 2.5976346
1.9459738 -0.47022915 2.5748734
0.82805496 -0.42513558 2.5928912
0.8696208 -0.40068328 2.595602
1.9581181 -0.42875427 2.5971303
0.8419584 -0.38694215 2.5972977
0.8597858 -0.39269409 2.5876737
1.9502097 -0.32381573 2.5985575
1.9476362 -0.2040329 2.5762539
1.9528543 -0.17527097 2.5848193
1.9419739 -0.13787325 2.5721767
1.945153 -0.057805214 2.5787539
1.9421934 -0.028561434 2.5751677
1.9427985 0.00058360427 2.576087
1.9559264 0.022614066 2.5933831
2.8229008 0.086297996 2.5646374
2.8324215 0.13770624 2.5712531
2.8605204 0.11261039 2.5659094
2.8284762 0.15452816 2.5668058
-0.59628356 0.28732789 2.5620859
3.171629 0.28320521 2.5769851
-0.57185644 0.31674591 2.5660105
3.1685612 0.32827321 2.5699785
-0.57416499 0.37037247 2.5716727
3.17627 0.37451744 2.5710549
-0.57655489 0.42425007 2.5651755
3.1741626 0.42351663 2.5740857
-0.58195943 0.47220436 2.5621934
3.1694572 0.47618279 2.5848944
3.215481 0.49738389 2.5695558
-0.77182037 0.53377616 2.5503864
-0.73809493 0.53236163 2.5500998
-0.65918517 0.53634536 2.5522394
-0.60570425 0.53101856 2.5540781
-0.58508718 0.52120483 2.5642791
3.1693311 0.52696294 2.5732751
3.2007992 0.5316577 2.5518734
-0.80465889 0.57815218 2.5516062
-0.77477759 0.58429754 2.552809
-0.71934623 0.58614737 2.5527539
-0.67326432 0.57803726 2.5530751
-0.62218422 0.57586116 2.5544679
-0.58499539 0.57568479 2.5657506
3.174118 0.5722239 2.576097
3.2086461 0.56961179 2.5517225
-0.86830157 0.63347346 2.5517213
-0.82062989 0.63027579 2.5526509
-0.77052975 0.62430489 2.5549335
-0.724392 0.61949533 2.5535295
-0.67689389 0.62941915 2.5553327
-0.62478518 0.62815267 2.5590084
-0.58707893 0.62853158 2.566766
3.1797173 0.62419772 2.5675759
-0.87225533 0.67712981 2.5534093
-0.82722121 0.67593682 2.5570459
-0.77401263 0.67465889 2.5580626
-0.72386545 0.67509061 2.5622799
-0.67623425 0.67580295 2.5604091
-0.62698966 0.67490369 2.5602241
-0.58785039 0.67384428 2.5624373
3.1672935 0.67117047 2.581223
3.2469947 0.66909468 2.5643592
-0.96043652 0.74158353 2.5533965
-0.92086452 0.72884166 2.5559022
-0.87615192 0.72457999 2.5598552
-0.82318276 0.72692615 2.5611329
-0.77407789 0.72377712 2.560847
-0.72394472 0.72739279 2.563375
-0.6731239 0.72695464 2.5642273
-0.62621129 0.71992493 2.5606837
-0.59113491 0.72236568 2.5683823
-1.000035 0.79239309 2.558881
-0.97504216 0.77528912 2.5590308
-0.92478722 0.77627575 2.5612488
-0.87745178 0.7764464 2.5636957
-0.8229503 0.77440965 2.5642607
-0.77567333 0.77327293 2.5639989
-0.72778147 0.77653652 2.5677822
-0.67125851 0.77684355 2.5659797
-0.62383503 0.77835792 2.5639501
-0.59204501 0.77314985 2.5667245
-1.0049627 0.82287216 2.5654335
-0.973692 0.82467848 2.5626636
-0.92753607 0.82563287 2.5668159
-0.87719476 0.82818192 2.5690987
-0.82764411 0.82462794 2.5688393
-0.77176881 0.82640654 2.5691876
-0.72615677 0.8235873 2.5691986
-0.67835265 0.82516903 2.5685811
-0.62206912 0.82535934 2.5663095
-0.58731031 0.83170998 2.5835986
-1.0139946 0.87043619 2.5789261
-0.97685832 0.8763833 2.565834
-0.92629403 0.87296182 2.5690899
-0.87198335 0.87462634 2.5704572
-0.82432723 0.87386876 2.5696614
-0.77861089 0.87486851 2.5733964
-0.72322756 0.87631315 2.5728114
-0.67425251 0.87506205 2.5713546
-0.62592673 0.87591058 2.5717473
-0.58948892 0.87545204 2.5855844
-1.0622563 0.94457251 2.5695295
-1.0008243 0.93085808 2.5679688
-0.97353905 0.91980439 2.5683095
-0.9248094 0.92750198 2.5719769
-0.87701982 0.92260844 2.5718594
-0.8234669 0.92545933 2.5712163
-0.77573478 0.9201107 2.5740089
-0.72445047 0.92469507 2.5728071
-0.67575783 0.92784828 2.5743868
-0.6264286 0.92348856 2.5705414
-0.59013039 0.92396921 2.5859876
-1.058538 0.96816576 2.5531034
-1.004645 0.9680357 2.5686777
-0.97528368 0.97589874 2.5733669
-0.9241963 0.9752751 2.5728648
-0.8734439 0.97436601 2.5750501
-0.82280457 0.97246206 2.5761898
-0.77406436 0.97532737 2.5781562
-0.72485209 0.97510558 2.5773597
-0.67284065 0.97179693 2.5741241
-0.62241548 0.97650892 2.5762343
-0.59117502 0.97236347 2.5784838
-1.0133667 1.0103495 2.5814309
-0.97523898 1.0262018 2.5738394
-0.9253968 1.0233254 2.5793419
-0.873101 1.0241996 2.5786924
-0.8268339 1.0270287 2.5813713
-0.77509522 1.0248871 2.5792363
-0.72214395 1.0258552 2.5785697
-0.67590326 1.0230905 2.5787828
-0.62402302 1.025879 2.5782964
-0.58778036 1.0182406 2.5776401
-1.0606171 1.091704 2.5625994
-1.0038835 1.0757308 2.5775697
-0.97398686 1.0727665 2.5781257
-0.92208892 1.0715785 2.582834
-0.87332779 1.0793611 2.5822411
-0.82489991 1.0765713 2.5831106
-0.77443826 1.0726848 2.5843992
-0.72597903 1.077618 2.5833647
-0.6744563 1.0767845 2.5806041
-0.62629044 1.0739719 2.5822499
-0.59382927 1.0884539 2.5868552
-1.0599078 1.1046115 2.5565038
-1.0100278 1.1234151 2.580327
-0.97488463 1.1214423 2.581727
-0.92468673 1.1190008 2.5849195
-0.87632912 1.1285404 2.586642
-0.82607657 1.1210207 2.5873759
-0.77658755 1.1281978 2.5846784
-0.72627246 1.1265006 2.585314
-0.67340016 1.1241801 2.5834043
-0.62433976 1.1215056 2.5800283
-0.59573609 1.1252735 2.5849133
-1.008378 1.1705797 2.5820031
-0.97644734 1.1662831 2.5841138
-0.92518502 1.1760483 2.5930874
-0.87259656 1.1724907 2.5892966
-0.82202321 1.174274 2.5885737
-0.77377886 1.177806 2.5879312
-0.72479892 1.1735358 2.5850675
-0.67309994 1.1729037 2.5835404
-0.6243338 1.1789598 2.5843735
-0.59271085 1.179101 2.5939498
-1.0641735 1.2136099 2.5738485
-1.0075765 1.2192425 2.5852349
-0.97499961 1.2232015 2.593683
-0.92562079 1.2241127 2.5925243
-0.87591439 1.2232472 2.5934007
-0.82425565 1.2248137 2.5914595
-0.77339798 1.2269105 2.589972
-0.72436309 1.222754 2.5878735
-0.67539281 1.224071 2.5862336
-0.62385398 1.2278641 2.5867999
-0.59053355 1.2287029 2.5943654
-1.0670114 1.2794919 2.5574963
-1.0080431 1.2701106 2.5911813
-0.97973591 1.2642926 2.5966752
-0.92330283 1.2684836 2.5967209
-0.87288374 1.2597048 2.5955489
-0.82567441 1.2744062 2.5951107
-0.77423185 1.2786088 2.5954161
-0.72187471 1.2721452 2.592597
-0.6774109 1.2814507 2.5934062
-0.62627774 1.2758006 2.5908942
-0.5935691 1.2621441 2.5982468
-1.063488 1.3342104 2.5706418
-1.0067153 1.3123544 2.5945811
-0.99307203 1.3269029 2.5942676
-0.91105151 1.3268919 2.5991364
-0.875799 1.3221395 2.5982394
-0.82812738 1.3217053 2.5974386
-0.77268261 1.3241452 2.5962265
-0.72795635 1.3216581 2.5969174
-0.67414302 1.3306178 2.5956595
-0.62996662 1.325837 2.595823
-1.0627666 1.3684354 2.5545747
-1.0186069 1.3917663 2.5997272
-0.77318656 1.3595403 2.5976315
-0.72838116 1.3781885 2.5980515
-0.66507381 1.3719404 2.5950782
-0.63860095 1.3754668 2.5971634
-1.0711119 1.4249532 2.5739205
-1.070215 1.4823612 2.5741491
-1.0723526 1.5315067 2.5823722
-1.0767161 1.5562568 2.5593734
-1.5411005 2.2482002 2.5689373
-1.47569 2.2459304 2.5803833
-1.5224653 2.2536833 2.5679488
-1.4709443 2.2553194 2.5593379
-1.4207458 2.262789 2.5766158
-1.3667185 2.2680244 2.5824325
-1.3258139 2.2669814 2.5727532
-1.284762 2.2669022 2.5908973
2.2284935 2.3729942 2.5738952
2.2789056 2.3688071 2.5770829
2.3289845 2.3636549 2.5788593
2.3683491 2.3658485 2.5781465
2.4281132 2.3693223 2.564796
2.4755447 2.3782711 2.578722
2.5199795 2.3752589 2.5565441
2.5830877 2.3690407 2.596483
2.6323264 2.379487 2.5630734
0.7970469 -0.57238102 2.6077006
0.82309276 -0.56388116 2.6264925
0.85831499 -0.56113321 2.6050808
0.92592299 -0.56654328 2.6162417
1.1405483 -0.56164449 2.6017997
1.2714875 -0.56022131 2.6258662
1.3088003 -0.57376921 2.6095705
1.9566828 -0.56585908 2.6034837
0.82430881 -0.53271079 2.6118968
0.85293239 -0.54881781 2.6119645
1.1241226 -0.54506749 2.6101143
1.1690197 -0.54188377 2.6356206
1.9537671 -0.53525156 2.6046669
0.82925165 -0.48235524 2.6196394
0.85643172 -0.48297343 2.6171949
1.1219076 -0.47625566 2.6188509
1.1533808 -0.48115456 2.6077485
1.9248216 -0.47228378 2.6037924
1.9537899 -0.48317716 2.6128404
0.82807446 -0.43186963 2.6367733
0.87277538 -0.42547432 2.6197181
0.90441453 -0.41120014 2.614794
1.9781313 -0.41067174 2.6265526
0.87909293 -0.39198783 2.62532
1.9728409 -0.3723627 2.6239412
1.9708524 -0.32716304 2.6260359
1.9827193 -0.27675554 2.6465969
2.7755432 0.13732173 2.6138971
2.7686045 0.15394032 2.6066141
3.1717653 0.28557026 2.627037
3.1736209 0.33153048 2.6239843
3.1691074 0.37683707 2.6150479
3.1683674 0.41334575 2.6097841
3.1648204 0.47952548 2.6311657
3.1608744 0.52485025 2.6205347
3.1730385 0.5729422 2.6225412
3.1623952 0.63126314 2.6159458
3.1677189 0.67705679 2.6316984
-0.58524019 0.7718702 2.624583
-0.58421272 0.80961281 2.6118314
-1.0333203 0.91428393 2.6213057
-1.0236367 1.0411174 2.6016154
-0.59455442 1.0499102 2.601712
-1.0356696 1.0672157 2.6280718
-0.59812164 1.0829507 2.6095383
-0.5883134 1.1298928 2.6153686
-1.0287794 1.1861262 2.6143453
-0.58722675 1.1546637 2.6021225
-1.0273609 1.2996643 2.6153073
-0.96784174 1.2862284 2.6024528
-0.91885674 1.2905635 2.6037025
-0.87288207 1.2844396 2.6021187
-0.59605044 1.287868 2.6017656
-1.0723029 1.31697 2.6031384
-1.0297107 1.3370099 2.6237514
-0.9721992 1.3201498 2.6034942
-0.92861915 1.3262811 2.6049955
-0.87101305 1.3243701 2.604079
-0.82304341 1.329358 2.6032436
-0.77071267 1.3275704 2.6001425
-0.72855788 1.3401424 2.6013296
-0.60971761 1.3411278 2.6037681
-0.59920001 1.3220819 2.6054242
-1.0072858 1.3709183 2.6019719
-0.97205216 1.3719563 2.6072741
-0.92648059 1.3743194 2.6073337
-0.87348956 1.3755825 2.6064513
-0.8253898 1.3695148 2.6058626
-0.7769376 1.3841013 2.603147
-0.72108567 1.3683548 2.6027033
-0.68932438 1.3790936 2.6045856
-0.61391461 1.3831247 2.6054482
-1.0735657 1.4151773 2.613657
-1.0195472 1.4305996 2.6158099
-0.97742575 1.4278091 2.611937
-0.9240399 1.4183477 2.6144001
-0.87111115 1.4263773 2.6113214
-0.8267895 1.4218358 2.6090226
-0.77174109 1.427591 2.6064343
-0.72237498 1.4242873 2.6041219
-0.6762594 1.4226251 2.6069746
-0.62574965 1.4236701 2.6078522
-0.59796762 1.4271764 2.6333244
-1.0662915 1.4897485 2.6074839
-1.0200628 1.4746845 2.6183901
-0.97602713 1.4785856 2.6164432
-0.92597497 1.4734772 2.6171069
-0.87451351 1.4786878 2.6171649
-0.82149494 1.4733498 2.6134439
-0.77612752 1.4749743 2.6144288
-0.72154808 1.4788392 2.6138773
-0.67348909 1.473846 2.6139302
-0.62409079 1.472821 2.6148942
-0.59947097 1.4658468 2.6255195
-1.0672221 1.5055276 2.6032126
-1.0169088 1.5204979 2.6132858
-0.97642219 1.5305718 2.6201375
-0.92377776 1.5265294 2.6207366
-0.87425673 1.5264881 2.6212897
-0.82425004 1.5205431 2.6157026
-0.77396661 1.5270575 2.6231241
-0.7256828 1.5210577 2.6187236
-0.67392206 1.5253087 2.6181147
-0.62514567 1.5263354 2.6200688
-1.0135895 1.5813932 2.6264293
-0.9774726 1.574289 2.6240149
-0.92628461 1.577044 2.6269169
-0.87619972 1.5722272 2.6244617
-0.82547569 1.5721885 2.627738
-0.77336711 1.5760288 2.6307204
-0.72377419 1.5769813 2.6239953
-0.6751762 1.5721552 2.6251543
-0.62296391 1.573988 2.6260519
-1.020193 1.6299757 2.6339309
-0.97264963 1.6229029 2.6298699
-0.92124379 1.6216027 2.6254709
-0.87637925 1.6203198 2.631175
-0.82253313 1.623867 2.6318185
-0.77882934 1.6234349 2.6322
-0.7237888 1.6287758 2.6324086
-0.67290562 1.6270519 2.629411
-0.63617563 1.6251391 2.6332252
-1.0153165 1.6643844 2.6321259
-0.97160459 1.6630545 2.6345265
-0.9208349 1.6700528 2.6313965
-0.87691426 1.6663631 2.6336482
-0.83068222 1.6668321 2.6354659
-0.77576715 1.6686445 2.6303504
-0.72229022 1.6677603 2.6302681
-0.67727023 1.6738306 2.6288311
-0.6333555 1.6726578 2.6354325
-1.5446765 2.2403915 2.6125505
