ply
format ascii 1.0
comment PCL generated
element vertex 297
property float x
property float y
property float z
element camera 1
property float view_px
property float view_py
property float view_pz
property float x_axisx
property float x_axisy
property float x_axisz
property float y_axisx
property float y_axisy
property float y_axisz
property float z_axisx
property float z_axisy
property float z_axisz
property float focal
property float scalex
property float scaley
property float centerx
property float centery
property int viewportx
property int viewporty
property float k1
property float k2
end_header
-0.19544479 -0.37591627 0.39288175
-0.18321955 -0.41029575 0.43480009
-0.18582535 -0.39726785 0.42314926
-0.10166923 -0.36662397 0.40777519
-0.099249557 -0.36083728 0.40623203
0.59068257 0.19032614 0.4487457
0.58966202 0.22350395 0.44790947
0.58057404 0.26040837 0.44870698
0.38999647 -0.53779805 0.49503431
0.4236477 -0.53617859 0.4920184
0.46881431 -0.52509868 0.49752691
-0.16420501 -0.45316064 0.49442294
0.50846195 -0.49937177 0.49980068
-0.17172393 -0.43321365 0.47732529
-0.11483163 -0.42210642 0.46442702
0.54619771 -0.43571672 0.49594668
0.56767267 -0.41313064 0.49810445
-0.17041138 -0.39433372 0.48390615
0.57555306 -0.37202004 0.49479517
0.54767627 -0.30852509 0.49915051
0.57532036 -0.32423422 0.4910599
0.60438293 -0.31596529 0.48129293
0.54741126 -0.2788159 0.49840364
0.57461625 -0.27520004 0.48719674
0.6081931 -0.27339366 0.47559533
0.54783601 -0.21619134 0.4968299
0.57636362 -0.2259655 0.48243597
0.61075532 -0.22552566 0.46967945
0.54691195 -0.17947336 0.49489203
0.58569878 -0.17751113 0.47463173
0.6051538 -0.18239145 0.46809155
0.42458108 -0.10543096 0.48665696
0.58796698 -0.13748053 0.47111502
0.43407482 -0.080047771 0.49441248
0.44338217 -0.044694997 0.49646014
0.45036343 -0.026987735 0.49968258
0.46015766 0.037346654 0.49694777
0.46714243 0.12460768 0.49413067
0.57513291 0.14309432 0.46065888
0.46571097 0.17606321 0.49622688
0.57943904 0.18174163 0.45639127
0.45537531 0.22513643 0.496364
0.54385507 0.23943527 0.47073311
0.57084656 0.22733894 0.45631507
0.44576383 0.26515716 0.49597096
0.45314303 0.25207347 0.49820769
0.5424149 0.28052875 0.46688417
0.56460935 0.27370876 0.45682821
0.43539631 0.31566095 0.49830878
0.49561357 0.33317789 0.48678988
0.53022504 0.32871211 0.46946794
0.55799598 0.31715107 0.45736915
-0.15992963 0.37535977 0.46226889
-0.14246494 0.36050895 0.47855267
0.4262552 0.35757881 0.49793059
0.48575529 0.38183051 0.48745221
0.52105707 0.37272677 0.47071123
-0.1759918 0.40665039 0.48503792
0.47776195 0.42658299 0.48788685
0.51111025 0.41782662 0.47258803
0.4484053 0.47707355 0.4989796
0.47209963 0.47234926 0.48926809
0.50180078 0.4553206 0.47624829
0.44928902 0.50441384 0.49942416
0.46314827 0.50851935 0.49329305
0.28816569 -0.53162032 0.54385084
0.32965341 -0.52852064 0.5339666
0.37573791 -0.52317101 0.52609646
0.41981032 -0.51695985 0.5201028
0.47325653 -0.51363933 0.50815111
0.50395322 -0.50631833 0.502554
-0.15424269 -0.46736667 0.51906449
-0.13695046 -0.47213104 0.5393762
0.39108309 -0.49292311 0.54701054
0.42922482 -0.48072276 0.53900629
0.47842744 -0.47610688 0.52238864
0.52034265 -0.47123408 0.51016146
0.55147308 -0.45656005 0.50432688
-0.15656459 -0.43899205 0.52038878
-0.14778936 -0.43766657 0.54321539
0.43680111 -0.43683147 0.54519022
0.47829524 -0.42613369 0.53119576
0.52292466 -0.42266211 0.51297224
0.55793005 -0.42259026 0.50260961
0.48175168 -0.37611723 0.53256869
0.52546155 -0.37576219 0.5131501
0.55536765 -0.37665257 0.5015648
0.47733688 -0.32810915 0.53383231
0.52892065 -0.3278203 0.510261
0.55194956 -0.33289963 0.50081986
0.46734208 -0.27701953 0.53404868
0.53521019 -0.28062752 0.5049206
0.46508399 -0.22620593 0.53200829
0.53489071 -0.24431828 0.50624561
0.4489612 -0.16138324 0.52186847
0.46303257 -0.17719188 0.52795613
0.44815564 -0.12580684 0.52105516
0.4645595 -0.12828557 0.52664399
0.44597712 -0.07399115 0.51134443
0.46947828 -0.075474903 0.52705556
0.44840303 -0.034207795 0.50465494
0.46700567 -0.023418901 0.51808751
0.47648099 0.023642626 0.51456887
0.47826666 0.075563543 0.50824642
0.47657657 0.12701319 0.50483811
0.47093391 0.17686422 0.50889122
0.46320605 0.22654057 0.50664574
0.44697133 0.28917614 0.50613117
0.45493743 0.27538642 0.50810778
0.44145444 0.32732049 0.50872493
0.45534679 0.31430361 0.51401722
-0.12601887 0.36396328 0.53096592
0.43485281 0.37352279 0.5093596
0.45762998 0.38152537 0.50198901
-0.18200767 0.43852973 0.52803516
0.39300206 0.43895236 0.53121936
0.43099687 0.42780888 0.51049966
0.45364788 0.41349354 0.50205106
0.34967679 0.47851038 0.54738438
0.37872311 0.48013452 0.53457916
0.42493722 0.47495934 0.51214683
0.45099011 0.45409366 0.50199276
0.34750822 0.50013804 0.54805136
0.37677431 0.50571245 0.5347032
0.425906 0.50781173 0.51106286
-0.10505036 -0.51521444 0.58466583
-0.074513458 -0.51617545 0.58798367
-0.026159951 -0.52800691 0.59620893
0.013413242 -0.52917737 0.59704804
0.13691184 -0.53214198 0.59267104
0.17810051 -0.52762169 0.5933823
0.23660594 -0.52439642 0.57819659
0.27999675 -0.51636928 0.57296389
0.32300523 -0.51187438 0.56248695
0.36204344 -0.50661618 0.55445784
-0.11938817 -0.47800288 0.57544249
0.28275013 -0.49044618 0.59220552
0.32746089 -0.48077545 0.58109093
0.37308845 -0.47392759 0.56600958
0.41402143 -0.46296954 0.55511189
-0.13558604 -0.43416879 0.57074034
0.34451413 -0.44297621 0.59062624
0.37392247 -0.44344512 0.57526726
0.41826427 -0.43957421 0.55741674
0.4540962 -0.40537184 0.55194914
-0.13835086 -0.39671463 0.56959379
-0.1108778 0.36477578 0.57849234
-0.17692994 0.44793862 0.56090897
-0.18118767 0.45608291 0.55886185
0.28148195 0.48438802 0.58132631
0.33010295 0.48970133 0.55601752
0.29023555 0.50564969 0.57637626
0.32410648 0.50360191 0.56022537
-0.10741006 -0.51839978 0.62726569
-0.075113982 -0.51628554 0.62451577
-0.026366349 -0.52088064 0.62713569
0.022526801 -0.51969141 0.63082284
0.07460279 -0.51731384 0.63594973
0.12657252 -0.5111416 0.63623565
0.17515703 -0.51028597 0.62217236
0.21600169 -0.50718689 0.61370134
-0.11461252 -0.46900725 0.61179727
-0.059365138 -0.49960679 0.60698009
0.14039508 -0.49035591 0.6466313
0.17518303 -0.48919713 0.63497943
0.22462854 -0.48852545 0.61702609
0.26720843 -0.48132798 0.60620272
0.30459732 -0.47093689 0.60190374
-0.11670063 -0.42661923 0.6176281
0.25799429 -0.44786549 0.63182563
0.30470687 -0.44633386 0.61178511
-0.11493603 -0.38851741 0.63148862
0.044254452 -0.10554303 0.64426327
0.046937793 -0.033837229 0.64333349
0.056564797 0.058886703 0.64616507
-0.10618264 0.35839605 0.60352445
-0.15398118 0.44380659 0.61052221
-0.13413395 0.42946112 0.62631494
-0.15818441 0.45285574 0.61202729
0.13063237 0.49116278 0.64506221
0.16596869 0.49166289 0.63339818
-0.20117316 0.50727916 0.61050612
0.099153079 0.52140582 0.64920378
0.12241457 0.51289219 0.64368278
0.17892112 0.51010108 0.6291191
0.21480858 0.50724852 0.61023664
-0.10786036 -0.51278579 0.6737842
-0.076669551 -0.51078326 0.67490178
-0.027328411 -0.50873739 0.67168945
0.022739137 -0.50673497 0.66537035
0.072473921 -0.50549161 0.65931016
0.11047883 -0.50305343 0.65219474
-0.068746544 -0.47397023 0.68265891
-0.020209689 -0.48946807 0.69472128
0.02558269 -0.48149782 0.68994528
0.072518855 -0.4774923 0.67871976
0.11708054 -0.48260379 0.66127783
0.16523033 -0.47271228 0.65818787
-0.08652775 -0.4487386 0.69991601
0.040275771 -0.42690092 0.69936359
0.075170301 -0.44309446 0.69549042
0.12246654 -0.4471949 0.68547601
0.051483996 -0.1687642 0.69298303
0.046945684 -0.11312348 0.65658492
0.047057576 -0.025112201 0.66239727
0.052887663 -0.014760514 0.68060017
0.057583962 0.021217119 0.68514609
0.056618981 0.064485125 0.66683072
0.056812976 0.12579833 0.68487871
0.047614228 0.19177234 0.69170862
0.052585423 0.1721732 0.68629652
0.045683533 0.22749101 0.68344462
0.051373154 0.20546818 0.68450427
0.044897024 0.27353939 0.68027145
0.043228026 0.37455797 0.67356586
-0.11781636 0.42739707 0.65560353
-0.013593498 0.43434808 0.69592774
0.030389566 0.42908135 0.67761803
0.052506 0.44956511 0.67191029
-0.016100409 0.47513998 0.69437915
0.023950599 0.47511417 0.67810595
0.071819827 0.48160341 0.66282654
0.10524594 0.48304287 0.65349483
-0.017479867 0.52513021 0.69337636
0.022539061 0.520904 0.67767489
0.070361964 0.51603794 0.66065127
0.10340768 0.50628048 0.65097952
-0.032376654 0.55431372 0.6968509
-0.10951264 -0.5033527 0.71060646
-0.085269302 -0.50340241 0.70836395
-0.11223909 -0.48073462 0.73344624
-0.074876383 -0.47162232 0.72579044
-0.028225861 -0.46795383 0.71287578
0.017110759 -0.45916125 0.70637137
-0.11154868 -0.44441596 0.73421872
-0.068498053 -0.43547761 0.74344325
-0.029027028 -0.4294214 0.73171282
0.025943646 -0.43235466 0.71097308
0.053394731 -0.44219637 0.70249587
-0.053797323 -0.39908734 0.74988008
-0.035768591 -0.39192533 0.74586326
0.045523316 -0.37392461 0.71393806
0.044745859 -0.32490969 0.71467596
0.045606993 -0.27540034 0.7142204
0.050896589 -0.26775143 0.71473658
0.047079861 -0.22773854 0.71545702
0.051929105 -0.22295488 0.71524745
0.049770527 -0.17635112 0.71671164
0.054661196 -0.18204992 0.70549053
0.049149178 -0.14824572 0.71174389
0.044942722 -0.077975489 0.70710951
0.055108745 0.13054898 0.70131791
0.048854358 0.18510856 0.70132411
0.051952001 0.15498197 0.70143723
-0.11179706 0.33845818 0.74549216
-0.080996357 0.34033954 0.74081933
-0.11371993 0.37591928 0.7433216
-0.077681892 0.37848616 0.73009497
-0.03501318 0.3857699 0.71186388
-0.11136428 0.42561173 0.73639208
-0.074776076 0.42456862 0.72271633
-0.035433762 0.42302209 0.70603406
-0.11432256 0.47706833 0.7333253
-0.075569451 0.47522724 0.71877789
-0.040252712 0.47194165 0.70435464
-0.15671167 0.53723645 0.74722826
-0.1230311 0.52545333 0.73619294
-0.073310755 0.52473712 0.71460366
-0.040977307 0.52343363 0.70268738
-0.15569593 0.5793848 0.74762064
-0.12673853 0.57144392 0.73598719
-0.079215094 0.56189561 0.71458709
-0.043343194 0.55262208 0.70121777
-0.23931238 0.61467677 0.74099636
-0.15676163 0.60533565 0.74740928
-0.14684023 0.60064983 0.74311006
-0.1151371 -0.46162456 0.75309342
-0.099506952 -0.45023543 0.7503897
-0.11486398 -0.4246825 0.76333308
-0.083218195 -0.41677669 0.75559211
-0.1116762 -0.37567556 0.77239054
-0.078515798 -0.37791738 0.76165354
-0.044066686 -0.37031657 0.75366783
-0.11755802 -0.32523885 0.78010005
-0.093154095 -0.33153769 0.77458596
-0.045610044 -0.34939364 0.76088101
-0.1151299 0.24000618 0.7816323
-0.11928114 0.29019088 0.76513094
-0.096750066 0.28937835 0.76330948
-0.11627952 0.32751352 0.75442863
-0.092730701 0.32704845 0.75116324
-0.11920696 0.35482991 0.75149608
-0.16286997 0.54306483 0.75192499
-0.20604351 0.58952659 0.76027852
-0.1771085 0.57763064 0.75588995
-0.21784024 0.62110227 0.76725239
-0.18399169 0.60969192 0.75733793
0 0 0 1 0 0 0 1 0 0 0 1 0 0 0 0 0 297 1 0 0
