ply
format ascii 1.0
comment PCL generated
element vertex 296
property float x
property float y
property float z
element camera 1
property float view_px
property float view_py
property float view_pz
property float x_axisx
property float x_axisy
property float x_axisz
property float y_axisx
property float y_axisy
property float y_axisz
property float z_axisx
property float z_axisy
property float z_axisz
property float focal
property float scalex
property float scaley
property float centerx
property float centery
property int viewportx
property int viewporty
property float k1
property float k2
end_header
-0.19620301 -0.37803411 0.39299551
-0.1832726 -0.41042185 0.43493322
-0.18700354 -0.38959503 0.42227527
-0.10100542 -0.36178035 0.40696603
-0.099394262 -0.36392251 0.41184083
0.59017235 0.18703727 0.44928843
0.58946192 0.22274727 0.44776338
0.57815695 0.26945412 0.44883767
-0.15638202 0.35505444 0.43262264
0.38801256 -0.53808361 0.49590746
0.42336443 -0.53662008 0.49158198
0.46563959 -0.52614552 0.49695286
-0.165989 -0.45148134 0.49315315
-0.17185555 -0.43237725 0.47647661
-0.11441123 -0.42058906 0.46275914
0.54272151 -0.4344452 0.49592918
0.5659101 -0.41581935 0.49791852
-0.16983426 -0.39299822 0.48226732
0.57528538 -0.37168488 0.49465877
0.54818439 -0.31059161 0.49873012
0.57521886 -0.32473111 0.49097013
0.60496271 -0.31626397 0.48175561
0.54793233 -0.28095049 0.49802178
0.57556778 -0.27501211 0.48692825
0.60880774 -0.27322108 0.47557607
0.54894149 -0.23587745 0.49728733
0.57779068 -0.22528264 0.48195779
0.6110822 -0.22593814 0.46949843
0.54784214 -0.18456775 0.49418837
0.5869714 -0.17769983 0.47407553
0.60542041 -0.18262708 0.46771798
0.414372 -0.11267062 0.47292486
0.58918685 -0.13598053 0.47008047
0.43106323 -0.082651295 0.4923569
0.44470081 -0.029661141 0.49585631
0.45793736 0.033469066 0.49475968
0.46708551 0.11881969 0.49419785
0.5728519 0.14086486 0.46332833
0.46519011 0.17567487 0.49647251
0.57849908 0.1831332 0.45621362
0.44893992 0.2353477 0.49305677
0.45682463 0.22275758 0.49691039
0.54386336 0.23688422 0.47031415
0.57144701 0.22800852 0.45606834
0.44494963 0.27098337 0.49723968
0.4542264 0.25534594 0.49817458
0.54169726 0.28105086 0.4673118
0.56482375 0.27345327 0.45662931
0.43325517 0.32738438 0.49764284
0.495922 0.33194908 0.48766026
0.52938789 0.32869083 0.4697901
0.55714881 0.31743023 0.45712969
-0.169544 0.38530439 0.45869899
-0.14234596 0.36021042 0.47815794
0.4255335 0.35780731 0.49654743
0.48502719 0.38194129 0.48752216
0.52099806 0.37281922 0.47047171
0.55001718 0.3502582 0.45736375
-0.17401418 0.40208083 0.47958753
0.44901571 0.44140399 0.49839631
0.47698447 0.42695168 0.48793453
0.51043719 0.41831666 0.47293633
0.44803494 0.48417178 0.49870101
0.47221485 0.47259492 0.48889393
0.50165606 0.4575659 0.47592187
0.44600785 0.50862336 0.49955142
0.4641085 0.50874799 0.49270448
0.28953236 -0.53109521 0.54428244
0.330266 -0.52869475 0.53362638
0.37640512 -0.52244264 0.52700323
0.420865 -0.51739633 0.51913929
0.4740802 -0.51344627 0.50797945
0.50462967 -0.50412488 0.50141412
-0.15491989 -0.4668541 0.51785368
-0.13627113 -0.47205541 0.53902483
0.39343572 -0.49216229 0.54639131
0.4295848 -0.48076385 0.53874123
0.47807798 -0.47562945 0.52216893
0.51997244 -0.47114199 0.5101651
0.55155474 -0.45662609 0.50439936
-0.15625666 -0.44005075 0.52222079
-0.1473498 -0.43555942 0.54499763
0.43602669 -0.43679678 0.54470921
0.47814798 -0.42585516 0.53094959
0.52363467 -0.42260212 0.51272058
0.55827159 -0.42111045 0.50218368
0.48269653 -0.3760508 0.53234684
0.52584171 -0.37562284 0.51309127
0.55598885 -0.37713534 0.50151688
0.47792354 -0.32830521 0.53370082
0.52963632 -0.32857952 0.5099737
0.55269122 -0.33210382 0.50059915
0.46690282 -0.27676219 0.53355223
0.53458571 -0.28130516 0.50545532
0.46564639 -0.22638711 0.53206384
0.53802156 -0.24582879 0.5044741
0.46246418 -0.17589432 0.52799058
0.4481447 -0.12184217 0.52070785
0.46341759 -0.12826137 0.52629936
0.44539934 -0.072891586 0.50963897
0.46785367 -0.077916816 0.52623332
0.44805324 -0.037750639 0.50500357
0.46437818 -0.023866292 0.51575255
0.47452393 0.025496829 0.51228356
0.4782533 0.07556773 0.50822616
0.47703847 0.12851721 0.50523174
0.47071338 0.17349085 0.5072791
0.46241063 0.22644836 0.50610942
0.44673553 0.29042661 0.50646812
0.4550446 0.27615583 0.50898421
0.4419392 0.32366541 0.50905633
0.45754957 0.31423405 0.50718886
-0.12714466 0.36329773 0.52703607
0.43575478 0.37516433 0.50936741
0.45696232 0.38768503 0.50107515
-0.1801661 0.43680972 0.5292592
0.3947013 0.43867126 0.53112441
0.43106827 0.42829069 0.51051766
0.45366213 0.41047832 0.50163889
0.34668168 0.48917037 0.54855961
0.37925735 0.47955295 0.53431344
0.42527464 0.47487554 0.51201171
0.45178396 0.45850778 0.50025523
0.34883401 0.50571519 0.54720676
0.37716725 0.50547689 0.5347864
0.42419302 0.50762838 0.51187134
0.45135489 0.50860345 0.50031352
-0.10487494 -0.51437157 0.58370465
-0.074590035 -0.51614982 0.58930838
-0.026343117 -0.52776158 0.5966565
0.013420739 -0.52940875 0.59730905
0.13684405 -0.5319435 0.59244496
0.18227941 -0.52745318 0.58870935
0.23516317 -0.52347982 0.57993579
0.28034806 -0.51611382 0.57327062
0.3232162 -0.51192451 0.56264633
0.36273855 -0.50698835 0.55420041
-0.11974755 -0.47757259 0.57487977
0.28173527 -0.48987836 0.59232193
0.32843667 -0.47982013 0.58127958
0.3733387 -0.4739477 0.56588566
0.41375166 -0.4640384 0.55501461
-0.13564615 -0.43047673 0.57040662
0.34423208 -0.44258419 0.59010142
0.37518975 -0.44329962 0.57479566
0.41973045 -0.43954346 0.55677724
0.45460549 -0.40582651 0.5525682
-0.13172121 -0.3942599 0.58033001
-0.11106449 0.36551988 0.57828319
-0.16911739 0.44608435 0.57911056
-0.18098092 0.45474651 0.55603218
0.24881411 0.49601778 0.59521389
0.2894502 0.4835521 0.57689697
0.33179328 0.48621887 0.55621326
0.2901746 0.50554353 0.57625514
0.32281092 0.50387841 0.56096405
-0.10743151 -0.51774979 0.62670511
-0.075134687 -0.51632357 0.62542111
-0.026647687 -0.520778 0.62793148
0.023026057 -0.51966619 0.63133317
0.075414576 -0.51642823 0.6375711
0.12707213 -0.51166403 0.6354413
0.17492059 -0.5102312 0.62148523
0.21767791 -0.50664669 0.6131106
-0.1142718 -0.46873242 0.61197352
-0.059330516 -0.49931541 0.60662609
0.14112662 -0.49070233 0.6466347
0.17567876 -0.48926589 0.63486058
0.22475992 -0.48841837 0.61668527
0.26645714 -0.48115656 0.60643083
0.30891019 -0.4617708 0.6020081
-0.11664778 -0.42617714 0.61832589
0.30823126 -0.4497906 0.6076982
-0.11491651 -0.38845122 0.63137233
0.044181053 -0.10536798 0.64319474
0.046114832 -0.037072033 0.64608341
-0.10616762 0.35833636 0.60344315
-0.15505411 0.44367146 0.60661364
-0.13084662 0.42894235 0.63249862
-0.15803759 0.45490095 0.61673719
-0.14941478 0.45467395 0.63079619
0.12586884 0.4932684 0.64497685
0.18034752 0.49545392 0.62738061
-0.20463562 0.51601011 0.62101376
0.099193737 0.52161962 0.64946997
0.12485004 0.51239496 0.64308745
0.17127863 0.51138127 0.62883914
0.21557614 0.50903964 0.61239284
-0.10797065 -0.51307517 0.67482692
-0.076569147 -0.51064676 0.67420363
-0.027025962 -0.50850588 0.67204869
0.021951854 -0.5070858 0.66470677
0.071838677 -0.50521642 0.65924138
0.10998516 -0.5022825 0.65188837
-0.070028119 -0.47165909 0.68315274
-0.022234855 -0.4889679 0.69543499
0.026140461 -0.48181146 0.68957925
0.072531871 -0.47760981 0.67878664
0.11817461 -0.48296335 0.66056204
0.16205423 -0.47074175 0.66075826
0.040273111 -0.4268719 0.69931602
0.074254349 -0.44329518 0.69574273
0.11974983 -0.44687894 0.68923604
0.051415712 -0.16514285 0.69261366
0.04683318 -0.11098512 0.6538347
0.04705707 -0.025804916 0.66236627
0.053029023 -0.015776664 0.68240422
0.057370272 0.022097135 0.68632716
0.056379139 0.053986851 0.66262895
0.056783061 0.12601118 0.68546677
0.04787549 0.19097577 0.69285458
0.052641191 0.17251922 0.68490756
0.04570616 0.22462822 0.68399125
0.051250841 0.20666201 0.68252766
0.044986472 0.27974331 0.6804617
0.045343786 0.32355303 0.67512494
-0.010122661 0.39439407 0.69930887
0.042996716 0.37506911 0.67469245
-0.12142325 0.43187758 0.65273428
-0.013580847 0.43422571 0.6960122
0.029788865 0.42972663 0.67799145
0.054336451 0.44578838 0.67354095
-0.01602979 0.47535467 0.69399446
0.024726743 0.47509912 0.67769831
0.070250779 0.48188889 0.66355717
0.10111984 0.48254555 0.65582496
-0.018534768 0.52622706 0.69382983
0.022149457 0.52074963 0.67821038
0.070849903 0.51573074 0.66041875
0.10249303 0.50979888 0.65204942
-0.033170395 0.55348343 0.69693488
-0.11018696 -0.50351036 0.71234953
-0.085571058 -0.50361174 0.70773232
-0.11156912 -0.48181042 0.73304605
-0.07449314 -0.47156072 0.72506225
-0.027636256 -0.46735686 0.71331143
0.016203152 -0.4597815 0.70627999
-0.10973928 -0.44563881 0.73522848
-0.068656161 -0.43438804 0.74394888
-0.028933719 -0.42859513 0.73183542
0.025111461 -0.43216997 0.71169114
0.053941995 -0.44165665 0.70123273
-0.053794105 -0.39906344 0.74983513
-0.036822386 -0.39069811 0.74644971
0.045413733 -0.37391442 0.71376151
0.044690054 -0.32384592 0.71400172
0.045627378 -0.27552682 0.71453822
0.050833106 -0.26920584 0.71339732
0.047108993 -0.22786075 0.71589869
0.051892191 -0.22221172 0.71576005
0.049775697 -0.17006847 0.71782893
0.053620569 -0.18183465 0.70668131
0.049210075 -0.14670864 0.71285832
0.048909176 0.18188615 0.70272022
0.052072708 0.16218001 0.70203191
-0.11229574 0.33963522 0.74492949
-0.079978809 0.33931112 0.74083722
-0.032403421 0.3408992 0.72337759
-0.11364372 0.37662292 0.74260306
-0.077514678 0.37927312 0.72990561
-0.034677569 0.38789189 0.71095932
-0.11148888 0.42603606 0.73641866
-0.074860409 0.42480922 0.72258073
-0.035219502 0.4232479 0.70608872
-0.11441099 0.47609836 0.73280132
-0.075356476 0.47501129 0.71863085
-0.040461116 0.47204468 0.70447457
-0.15599726 0.53741091 0.74761182
-0.12286796 0.52556396 0.73628491
-0.073642157 0.52463722 0.71460921
-0.041670106 0.52196431 0.70270205
-0.1573973 0.57847768 0.74801946
-0.12686963 0.57161957 0.73590988
-0.079062343 0.56206185 0.71436995
-0.047448985 0.55349636 0.70212257
-0.23920222 0.61439383 0.74065524
-0.157958 0.60463595 0.74844331
-0.14679895 0.60048097 0.74290115
-0.11610804 -0.46226731 0.75290042
-0.11471397 -0.42438319 0.76342404
-0.084060512 -0.41729063 0.75577241
-0.11161284 -0.37633035 0.77218521
-0.079026841 -0.37805951 0.76170778
-0.043171309 -0.36565343 0.75492316
-0.11756953 -0.3260158 0.77988714
-0.094053864 -0.33036157 0.77573967
-0.11875946 0.29124439 0.76423794
-0.094869643 0.29524642 0.76225954
-0.11743335 0.32793084 0.75445646
-0.090814359 0.32893524 0.75068718
-0.11755586 0.35763603 0.75289035
-0.16337392 0.54374915 0.75196111
-0.20356652 0.59429288 0.76290965
-0.1771735 0.57697135 0.75565225
-0.21755008 0.62055498 0.76708335
-0.18321759 0.61006534 0.75714624
0 0 0 1 0 0 0 1 0 0 0 1 0 0 0 0 0 296 1 0 0
