ply
format ascii 1.0
comment PCL generated
element vertex 301
property float x
property float y
property float z
element camera 1
property float view_px
property float view_py
property float view_pz
property float x_axisx
property float x_axisy
property float x_axisz
property float y_axisx
property float y_axisy
property float y_axisz
property float z_axisx
property float z_axisy
property float z_axisz
property float focal
property float scalex
property float scaley
property float centerx
property float centery
property int viewportx
property int viewporty
property float k1
property float k2
end_header
-0.19569224 -0.37958199 0.39337212
-0.18371299 -0.40858656 0.43202156
-0.18733418 -0.39483854 0.41954851
-0.10143358 -0.36578116 0.40682483
-0.09915974 -0.36050817 0.40991831
0.59065592 0.1936722 0.44921184
0.58897549 0.22416289 0.44775262
0.58045858 0.26035938 0.44861686
-0.15693 0.35433403 0.42985979
-0.14978227 0.35381559 0.44432503
0.42571896 -0.55098981 0.48785251
0.38967296 -0.53837752 0.49563658
0.42574173 -0.53524399 0.49212176
0.46660295 -0.52489007 0.49669167
-0.16439131 -0.45261925 0.49460378
-0.17173432 -0.43101895 0.47674066
-0.11463396 -0.42145005 0.46370888
0.54328161 -0.43583417 0.49586686
0.56743598 -0.41480982 0.49814734
-0.16999176 -0.3933627 0.48271456
0.575499 -0.37140793 0.4946337
0.548181 -0.31423253 0.4993588
0.57459456 -0.32497552 0.49116319
0.6039263 -0.31371164 0.48077476
0.54735047 -0.28520948 0.49777898
0.57506788 -0.27488187 0.48661384
0.60888898 -0.2725645 0.47555161
0.54805523 -0.23489022 0.49674845
0.5772689 -0.22561522 0.48170465
0.61084688 -0.22551733 0.46953434
0.54757875 -0.17968725 0.49549696
0.58616227 -0.17897534 0.47465774
0.60566092 -0.18064144 0.46787
0.41384089 -0.11289713 0.47508642
0.58601052 -0.13535935 0.47181863
0.43468723 -0.08016517 0.49511424
0.44507757 -0.029651979 0.49627173
0.45945612 0.034622464 0.49632093
0.46790874 0.12244081 0.4952676
0.57186115 0.14478227 0.46363741
0.46550629 0.17910169 0.49593008
0.57871646 0.18015763 0.45646104
0.44842216 0.24067134 0.49347132
0.45592383 0.22382604 0.49623719
0.54344469 0.23692526 0.47037923
0.57100701 0.22703239 0.45629331
0.44429174 0.26295486 0.49492833
0.45378941 0.25403967 0.49820462
0.54158342 0.28015128 0.46736494
0.56426203 0.27412197 0.45662761
0.43786037 0.32242227 0.49809968
0.4932332 0.33228457 0.48856682
0.52899599 0.32881364 0.47004905
0.55722684 0.31876391 0.45727178
-0.16871159 0.38341269 0.45644695
-0.14230357 0.36011502 0.47804502
0.42877167 0.3566213 0.49871689
0.48445293 0.38121337 0.48794645
0.52111375 0.37285349 0.47038409
-0.17320426 0.40020943 0.47735539
0.4470892 0.44067588 0.49841812
0.47744778 0.42640483 0.48764497
0.51071888 0.41811308 0.47237813
0.44680244 0.48064843 0.49895984
0.47217304 0.47268128 0.48908564
0.50206923 0.45264143 0.47567862
0.4479613 0.51456702 0.49892548
0.46369249 0.50900084 0.49260092
0.28692484 -0.53193665 0.54374397
0.33090705 -0.52815539 0.5335927
0.37639567 -0.52252293 0.52691817
0.41994947 -0.51711226 0.51921886
0.47398567 -0.51349169 0.50794917
0.50565243 -0.5051527 0.50243437
-0.15419634 -0.46825939 0.52036339
-0.13616173 -0.47157085 0.53896576
0.39118215 -0.4932816 0.54661489
0.42985091 -0.48057464 0.53911942
0.47877264 -0.47516713 0.52215415
0.52029067 -0.47104827 0.51009005
0.55096877 -0.45911723 0.50480556
-0.15654568 -0.4403705 0.52003813
-0.14799556 -0.43605462 0.54351962
0.43691584 -0.43681827 0.54489201
0.47811112 -0.42510906 0.53131783
0.52355188 -0.42249742 0.51258391
0.55624294 -0.42163888 0.50237864
0.48137355 -0.37680066 0.53269273
0.52492571 -0.37608948 0.513291
0.55619681 -0.37714988 0.50167316
0.47824049 -0.32829878 0.53319579
0.52850443 -0.32876295 0.51038909
0.55112863 -0.32788324 0.50086391
0.46752113 -0.27715138 0.53395563
0.53471178 -0.27977255 0.50544786
0.44947413 -0.21283494 0.52310008
0.46589252 -0.22559011 0.53201401
0.53563285 -0.24464603 0.5069527
0.44884723 -0.17140849 0.5222466
0.46240541 -0.1746641 0.52789217
0.44710302 -0.12155706 0.51949787
0.46347949 -0.1292612 0.52611434
0.44613996 -0.074027292 0.5115301
0.46899822 -0.076695621 0.52662551
0.44760358 -0.037715316 0.50449753
0.46340334 -0.024246244 0.51536608
0.47559145 0.023126043 0.51369888
0.47779527 0.075502545 0.50774473
0.47660527 0.12776127 0.50490779
0.470186 0.17269218 0.50687951
0.46319193 0.2252972 0.50697654
0.44576514 0.29037696 0.50510645
0.45475113 0.27468562 0.50816393
0.44125548 0.32584301 0.50827229
0.45534027 0.31178892 0.50969023
-0.12660749 0.36396796 0.53018105
0.43549281 0.37379912 0.50954747
0.45576015 0.38220742 0.50203764
-0.18253943 0.43959346 0.52832568
0.39360541 0.43805918 0.53070086
0.4303216 0.4273572 0.51069087
0.45320562 0.41118494 0.5018273
0.34730148 0.49275488 0.54742819
0.3786732 0.47974095 0.53418094
0.42499825 0.47464374 0.51189226
0.45194012 0.47702867 0.50098228
0.37662682 0.50521016 0.53474277
0.42382979 0.50735968 0.51143074
0.45050421 0.50577813 0.50077492
-0.10497346 -0.51574039 0.58347327
-0.076072656 -0.51591986 0.58924788
-0.028170571 -0.52764738 0.59572226
0.012809623 -0.52876359 0.59658933
0.13953488 -0.53150445 0.59453273
0.18606125 -0.52704269 0.59178674
0.23814897 -0.52414411 0.57718426
0.27867952 -0.51653171 0.57328057
0.32343656 -0.51212412 0.562204
0.36134192 -0.50695074 0.55456781
-0.11941158 -0.47801363 0.57588977
0.28208426 -0.49002829 0.59238225
0.32677794 -0.4809438 0.58096266
0.37342572 -0.47423378 0.56555384
0.41345659 -0.46380115 0.55479121
-0.13651195 -0.43248874 0.56883252
0.34372982 -0.44195762 0.58926815
0.37364194 -0.44355974 0.57514745
0.4182834 -0.44048515 0.55689245
0.45434704 -0.40559578 0.55225408
-0.1316189 -0.39395365 0.57987922
-0.11183952 0.33817077 0.58464992
-0.11093264 0.36495641 0.57876861
-0.17554009 0.44553947 0.55858302
-0.1752924 0.45527059 0.57450861
0.24889962 0.49618822 0.59541845
0.27721113 0.48421496 0.58280832
0.32220885 0.48790115 0.56065226
0.29021955 0.50562179 0.57634443
0.32402608 0.50432479 0.56059182
-0.1075991 -0.51789159 0.62748057
-0.074284695 -0.5163793 0.62594992
-0.026377652 -0.52068555 0.62788707
0.022130916 -0.51951665 0.63191432
0.074307874 -0.51559198 0.63850033
0.12690787 -0.51101625 0.63585663
0.17434131 -0.51108652 0.6211133
0.21766062 -0.50699621 0.61281085
-0.11426046 -0.47027844 0.61286253
-0.059157796 -0.49786183 0.60486013
0.14149731 -0.49069545 0.64619654
0.17575406 -0.48926285 0.63495398
0.22544298 -0.48842558 0.61631578
0.26585737 -0.48100445 0.60635674
0.30419484 -0.47031367 0.60110694
-0.11681844 -0.42712641 0.61787951
-0.11490947 -0.38842726 0.63133353
0.044517517 -0.10773437 0.64792347
0.047106825 -0.033959083 0.64565027
0.056597553 0.058920804 0.64653927
-0.10662346 0.341959 0.61379284
-0.10599327 0.35776579 0.60244411
-0.15318406 0.4438189 0.60954976
-0.13267966 0.42926294 0.62918121
-0.15744489 0.45403323 0.61386091
0.12604517 0.49228013 0.64549214
0.17970592 0.49416691 0.62825203
-0.20157167 0.50828403 0.61171544
0.099205524 0.52168161 0.6495471
0.12504055 0.51228416 0.64276952
0.1736621 0.50960475 0.62931323
0.2104695 0.50800127 0.61374611
-0.10778192 -0.51252609 0.67512119
-0.07633125 -0.51064944 0.67414773
-0.027176535 -0.50838816 0.67264718
0.022441408 -0.50658071 0.66463834
0.072190687 -0.50522637 0.65922505
0.11264684 -0.50167996 0.65175116
-0.068474256 -0.47533864 0.68571323
-0.021693867 -0.48870862 0.69435108
0.025994677 -0.48179868 0.68933886
0.072358645 -0.47704002 0.67876726
0.1178652 -0.4833346 0.66038924
0.16397658 -0.46827874 0.65992033
0.042117208 -0.42657724 0.69875282
0.073285334 -0.44442174 0.69655788
0.12251106 -0.44736052 0.68573302
0.051867716 -0.17680524 0.69701803
0.047310945 -0.11365686 0.65745014
0.04699083 -0.025117036 0.66151124
0.052693561 -0.014199306 0.67809528
0.057616118 0.022225358 0.68557203
0.056108497 0.054850485 0.66203439
0.056749046 0.12566857 0.68413717
0.048044585 0.18958166 0.69472086
0.05261635 0.17331071 0.68321943
0.045822091 0.22351179 0.68518114
0.051221743 0.20654155 0.68214083
0.04409036 0.27403238 0.68280447
-0.010138504 0.39869952 0.69884753
0.042795479 0.3753556 0.6740905
-0.11710776 0.42567131 0.65112102
-0.014188911 0.43581608 0.69590557
0.031187085 0.42898679 0.67738652
0.052462742 0.44919473 0.67135668
-0.015893465 0.4761987 0.69394982
0.024465449 0.47541681 0.67750806
0.070771962 0.48155305 0.66340369
0.10562692 0.48509994 0.65437758
-0.018638058 0.5259378 0.69365627
0.02239036 0.52058583 0.67763096
0.069834895 0.51622474 0.66048372
0.10356613 0.51142633 0.65216452
-0.032153707 0.55354452 0.69706994
-0.10952517 -0.50332451 0.71116614
-0.086385474 -0.50368172 0.70808738
-0.11253933 -0.48104334 0.73388988
-0.074719399 -0.47145987 0.72547901
-0.027756711 -0.46773815 0.71288979
0.015877903 -0.4595286 0.70588964
-0.11015818 -0.44624582 0.73409289
-0.066859372 -0.43427867 0.74354541
-0.02850695 -0.4291932 0.73135155
0.025657991 -0.43234944 0.71134001
0.053306784 -0.44145143 0.70131391
-0.05367396 -0.39622551 0.74890751
-0.036670379 -0.39173779 0.74616802
0.04563937 -0.3740983 0.71410877
0.044558771 -0.32369667 0.71369445
0.045653664 -0.27565736 0.71491045
0.050958771 -0.26986757 0.71516174
0.047483645 -0.22569659 0.71496004
0.052005839 -0.22487995 0.71472049
0.049705353 -0.17348975 0.71620989
0.054355267 -0.18474942 0.7086969
0.049366727 -0.14890191 0.71489429
0.045006163 -0.083179124 0.70773125
0.055053983 0.1304197 0.70062095
0.048806489 0.1832104 0.70095009
0.052020442 0.1603086 0.70158446
-0.11234403 0.33752626 0.74689841
-0.079766259 0.33825451 0.74023247
-0.11343856 0.37739018 0.74286759
-0.077565901 0.37821633 0.72997177
-0.034627877 0.38567048 0.71122438
-0.11175221 0.42643234 0.73587668
-0.075130738 0.42441195 0.7225408
-0.034803562 0.42323932 0.70580643
-0.11352423 0.47653893 0.73303086
-0.075760745 0.47493407 0.71861213
-0.040082008 0.4718779 0.70415521
-0.15555093 0.53628558 0.74763286
-0.12324961 0.52504236 0.73644507
-0.073154815 0.52477878 0.71425694
-0.042089485 0.52297461 0.70273536
-0.15441462 0.57973814 0.74707317
-0.12671469 0.5713135 0.73582655
-0.079657227 0.56211179 0.7147361
-0.046125248 0.5564782 0.70080018
-0.23864737 0.61296868 0.73893726
-0.15774634 0.6037975 0.74740851
-0.14680365 0.60050023 0.74292493
-0.11352985 -0.46089396 0.75377029
-0.099460267 -0.45002416 0.75003761
-0.11470716 -0.42435753 0.76338124
-0.084129795 -0.41785339 0.75545371
-0.11189955 -0.37588295 0.77210921
-0.079415642 -0.37823728 0.76204985
-0.04388627 -0.3673963 0.7545777
-0.11759459 -0.32601222 0.77968103
-0.092208892 -0.3304345 0.77465278
-0.045524612 -0.34873918 0.75945574
-0.11882238 0.2877923 0.7658878
-0.094729543 0.29481041 0.76113385
-0.1162931 0.32803726 0.75454175
-0.092762381 0.32526407 0.75206017
-0.11909663 0.35352656 0.75111401
-0.16423111 0.54378098 0.75186074
-0.20693319 0.59434944 0.76223689
-0.17541464 0.57723182 0.75530893
-0.21780962 0.62160486 0.7676087
-0.18356156 0.61036491 0.75700742
0 0 0 1 0 0 0 1 0 0 0 1 0 0 0 0 0 301 1 0 0
