ply
format ascii 1.0
comment PCL generated
element vertex 1455
property float x
property float y
property float z
element camera 0
property float view_px
property float view_py
property float view_pz
property float x_axisx
property float x_axisy
property float x_axisz
property float y_axisx
property float y_axisy
property float y_axisz
property float z_axisx
property float z_axisy
property float z_axisz
property float focal
property float scalex
property float scaley
property float centerx
property float centery
property int viewportx
property int viewporty
property float k1
property float k2
end_header
2.0286117 -0.17866786 1.8942959
2.0769901 -0.17782757 1.8856106
2.1306856 -0.17161006 1.8749564
2.1808937 -0.17125615 1.8677225
2.2224858 -0.17243367 1.8556299
2.2630129 -0.1869977 1.8526862
1.9451413 -0.12659362 1.8981985
1.9827013 -0.12766248 1.8964754
2.0243022 -0.1288383 1.8937016
2.0722976 -0.1275073 1.8847487
2.1256828 -0.12986428 1.8782303
2.1741476 -0.11980938 1.8652164
2.2121606 -0.12449771 1.8571818
2.2779677 -0.1288989 1.8529539
1.9754012 -0.07846795 1.8955488
2.024925 -0.076798573 1.8896812
2.0762115 -0.082534641 1.8810889
2.125422 -0.080775201 1.8715113
2.1713665 -0.075143903 1.864741
2.2122707 -0.073076889 1.8547684
2.282372 -0.076804593 1.8509991
1.9419487 -0.017314339 1.89858
1.9737152 -0.029607436 1.8950547
2.0213304 -0.027357072 1.8874285
2.0743577 -0.032614432 1.8806559
2.1223555 -0.030339412 1.8699973
2.1740921 -0.033147257 1.8609283
2.200763 -0.017949302 1.8555878
1.9306724 0.021571379 1.8970292
1.9791412 0.029382072 1.8906063
2.0280225 0.020164117 1.8865027
2.0754843 0.017632201 1.8786856
2.1218157 0.01923986 1.8656412
2.172332 0.020195371 1.8547567
1.8902941 0.092574239 1.8978306
1.926479 0.07923764 1.893111
1.9759208 0.079560287 1.886348
2.0253046 0.07359229 1.8783814
2.076407 0.070657603 1.867491
2.1290522 0.068967111 1.8584152
2.1783915 0.064639397 1.8511735
1.8139328 0.11833542 1.8996063
1.876199 0.12440398 1.8947537
1.927756 0.12756851 1.891991
1.9782861 0.12894383 1.884079
2.0332921 0.12710115 1.8773284
2.072577 0.12259132 1.8698726
2.122647 0.12038388 1.8597902
2.1522822 0.12124979 1.8576255
1.7961124 0.16480677 1.8997443
1.8302641 0.16221486 1.8990459
1.8786807 0.17404431 1.8958246
1.9314597 0.17617775 1.8921533
1.9789442 0.17777638 1.8811418
2.0302796 0.17967564 1.8719937
2.0768776 0.17179629 1.8673834
2.119499 0.17054197 1.8576509
2.1581395 0.17519994 1.8529998
1.8733953 0.21171695 1.894585
1.9268478 0.21354814 1.8909686
1.9753969 0.21302423 1.8791087
2.0173135 0.21591111 1.8680596
2.0769851 0.21436687 1.8652489
2.1212201 0.21470758 1.8557755
-0.26103199 -0.56514239 1.9436747
-0.22614667 -0.56187588 1.9352325
-0.17650293 -0.56397855 1.9286826
-0.12129277 -0.5631339 1.9164159
-0.074524105 -0.56228369 1.9249545
-0.02599128 -0.56484169 1.9326705
0.023165811 -0.56321698 1.9279597
0.078065984 -0.56267858 1.9285996
0.12536773 -0.56264269 1.9268271
0.17663966 -0.56463146 1.9214753
0.22612929 -0.56599855 1.9188254
0.27636391 -0.56960827 1.9327459
0.32578814 -0.57113254 1.9359304
0.37668887 -0.5674637 1.9284112
0.42381993 -0.56483084 1.9232043
0.47205266 -0.56284118 1.9214463
0.52168113 -0.56020647 1.9310273
0.57989031 -0.56057179 1.9268386
0.62895137 -0.56444377 1.925807
0.67557722 -0.56483245 1.9289078
0.72833407 -0.5621323 1.9247246
0.77836484 -0.55597091 1.9190794
0.82980251 -0.55510217 1.9318229
0.87347955 -0.55621606 1.9216546
0.92934048 -0.55417621 1.9218096
0.97259408 -0.55378819 1.9207739
1.0244548 -0.55428791 1.9219259
1.0737916 -0.5534243 1.9270188
1.1268553 -0.55656552 1.9116431
1.1804259 -0.55385333 1.920091
1.2324463 -0.55089617 1.9099423
1.2645808 -0.55334264 1.9048002
1.3410662 -0.55223876 1.9114997
1.3724838 -0.55395943 1.9019631
-0.57544804 -0.51457822 1.9178606
-0.52691758 -0.5291791 1.9176718
-0.47401133 -0.53874201 1.9241573
-0.43600357 -0.54779083 1.9144498
0.92941618 -0.54633498 1.9391991
0.97080362 -0.54781502 1.9379797
1.0037951 -0.54677683 1.9439425
1.1424139 -0.54844403 1.9415568
1.1572628 -0.54796755 1.9327006
1.2236882 -0.54606438 1.9332088
1.2732309 -0.5427717 1.9259012
1.3207226 -0.54189605 1.9277964
1.3722434 -0.5400188 1.9272845
1.4260576 -0.53496081 1.9271076
1.4832573 -0.53032404 1.930755
1.5309566 -0.528862 1.9243697
1.5796895 -0.5270946 1.9222819
1.6284313 -0.52063566 1.9278758
1.6727521 -0.51435018 1.9240863
1.7175778 -0.51264399 1.9165872
1.7704239 -0.5147295 1.9132299
1.8218507 -0.5074181 1.910308
1.8901615 -0.51046818 1.9022064
1.9289147 -0.51591283 1.9064311
-0.60338557 -0.46248046 1.9315134
-0.59544057 -0.48501459 1.9276174
1.6301727 -0.49025235 1.9443017
1.6749053 -0.47416106 1.9401795
1.7249932 -0.47699046 1.9330789
1.7728361 -0.47519982 1.9257631
1.8197633 -0.45490077 1.9194301
1.8611319 -0.45915821 1.9173938
1.9189602 -0.45908308 1.9061644
-0.6122936 -0.42200288 1.9259555
1.6349962 -0.42192513 1.948614
1.6733677 -0.42702138 1.9445112
1.7237858 -0.42468217 1.9370968
1.7725587 -0.4234145 1.9248338
1.8220085 -0.42433718 1.9142262
1.8731755 -0.42639291 1.9096502
1.9260681 -0.42358774 1.9065826
1.9769315 -0.42599171 1.9038353
-0.61747825 -0.3772811 1.9308754
1.6805224 -0.37634003 1.9468988
1.7239157 -0.37336066 1.9381284
1.7778113 -0.3737368 1.9255219
1.8269324 -0.37599593 1.9189572
1.8763267 -0.37987337 1.9137112
1.9234388 -0.37101114 1.9063941
1.9682508 -0.3748661 1.9044266
2.002985 -0.37997243 1.9027456
-0.62247151 -0.32582793 1.9205863
1.6780497 -0.32743517 1.9454111
1.7250742 -0.32151377 1.9377235
1.7759796 -0.32434851 1.927642
1.8268455 -0.32561764 1.9174141
1.8767567 -0.32953531 1.9130366
1.9259307 -0.3196069 1.9099878
1.9751271 -0.32533532 1.9035243
-0.62478375 -0.27531382 1.9244484
1.6710957 -0.27304423 1.9455783
1.7203983 -0.27391651 1.9385191
1.7713428 -0.27635634 1.9288402
1.8245239 -0.27902791 1.9191433
1.8764492 -0.27042556 1.9132037
1.9272621 -0.27524456 1.9080626
1.9776074 -0.27588722 1.9049821
2.0352845 -0.28575775 1.9011524
-0.625664 -0.22703487 1.9225253
1.6336337 -0.21438676 1.9473017
1.6810045 -0.22507489 1.9423319
1.7292956 -0.22641072 1.9336826
1.7776711 -0.22742532 1.9270493
1.8209035 -0.22570334 1.9177827
1.8756336 -0.22127475 1.9115709
1.928074 -0.22382793 1.9078308
1.970361 -0.22586881 1.9035429
2.029002 -0.23517197 1.9011332
-0.62641102 -0.19367653 1.9184334
-0.58251083 -0.15334319 1.9496282
1.6437106 -0.17537439 1.9463114
1.6780087 -0.17846631 1.942832
1.7280762 -0.17578495 1.9331244
1.7765133 -0.17296004 1.925892
1.8232044 -0.17477211 1.917037
1.8754123 -0.17151336 1.9136628
1.9228182 -0.17224717 1.908788
1.9641832 -0.18496285 1.903616
-0.61189491 -0.10549904 1.9477541
-0.58004153 -0.1259923 1.9482861
1.5875548 -0.11266894 1.9470192
1.6246978 -0.12026867 1.9467427
1.6715717 -0.12600552 1.9387077
1.7213976 -0.12357406 1.932199
1.775324 -0.12256622 1.9244417
1.8276559 -0.1221128 1.9160702
1.872703 -0.12677777 1.9084522
1.9232862 -0.12556298 1.9069364
1.9654255 -0.12937854 1.9026514
-0.61791426 -0.063869543 1.9463867
-0.5771724 -0.076436028 1.9482927
1.625753 -0.075094394 1.9438275
1.6705905 -0.074636415 1.9377729
1.7230607 -0.073493756 1.9311278
1.7726856 -0.077045053 1.9215375
1.8252364 -0.076176062 1.9134709
1.8740224 -0.076926462 1.908303
1.9261979 -0.077777021 1.9043678
-0.6164394 -0.035884231 1.9475291
-0.57478571 -0.028534021 1.9444714
1.5811807 -0.023469053 1.9442542
1.6229343 -0.027390875 1.9414322
1.6745641 -0.027307885 1.9344646
1.7283673 -0.031013228 1.9274825
1.7740548 -0.027425939 1.9217196
1.8241304 -0.028825777 1.9133765
1.8767363 -0.031084329 1.9083712
1.9234167 -0.030072382 1.9052444
-0.6160841 0.026224034 1.9450077
-0.57651305 0.019179819 1.9460948
1.5334425 0.045175303 1.9456815
1.5742201 0.022308828 1.9457481
1.6257541 0.022643432 1.9398999
1.6777496 0.023570472 1.9316467
1.7235856 0.026713759 1.9250846
1.7701582 0.023237554 1.9202753
1.8238219 0.024387361 1.9129933
1.8709764 0.024652449 1.9062364
1.9130095 0.027944762 1.9036134
1.9703546 0.00089292228 1.9034798
-0.61650759 0.076871581 1.9468704
-0.57744348 0.078417592 1.9456049
1.5391165 0.069236696 1.9461771
1.579295 0.072897322 1.9434441
1.6283032 0.077415235 1.9382535
1.6785741 0.073961467 1.9304631
1.7272359 0.075395674 1.9244175
1.7695755 0.077217184 1.9179511
1.8213143 0.077478319 1.9090894
1.8704803 0.075812839 1.9061038
1.903331 0.066967607 1.904444
-0.6172598 0.12019467 1.9477462
-0.5757491 0.12432264 1.9450878
1.5225776 0.128245 1.9476585
1.5712435 0.1224336 1.9423876
1.6254234 0.12640527 1.9360629
1.6778494 0.12439251 1.9307101
1.7243097 0.12467744 1.9225061
1.7712768 0.12345306 1.9141344
1.8226086 0.12473635 1.9059979
1.8594612 0.14359064 1.9009836
-0.61318517 0.15399899 1.9495069
-0.57636982 0.15315498 1.9458137
1.4910941 0.17261517 1.9493176
1.5217284 0.17207232 1.9461734
1.5694937 0.17521839 1.9419512
1.6256595 0.17708194 1.9348773
1.68089 0.17740251 1.9279735
1.724929 0.17532764 1.9197165
1.7751663 0.16989323 1.9105843
1.8262534 0.18014275 1.9044644
-0.57653594 0.23041509 1.9468573
1.4920936 0.20607467 1.9479716
1.5252481 0.21159178 1.9448347
1.5716465 0.21496704 1.9413027
1.6220919 0.21723478 1.93803
1.6735092 0.21677423 1.927233
1.7296817 0.21418686 1.9151634
1.7809242 0.21609928 1.9156495
1.827655 0.21273689 1.913083
1.8703432 0.22473697 1.9126124
1.9230973 0.23174433 1.912816
-0.58474255 0.2696442 1.9482594
-0.45068127 -0.55159092 1.9820992
-0.44384921 -0.55414987 1.9736903
-0.26549864 -0.5676164 1.9788173
-0.22320251 -0.56126004 1.9844389
-0.17240542 -0.56196386 1.9657857
-0.12492982 -0.562832 1.9643604
-0.071184881 -0.56087655 1.978762
-0.026548723 -0.55802751 1.9748453
0.022658877 -0.55746198 1.9769863
0.069326423 -0.55856204 1.9768658
0.12847218 -0.56194264 1.9769008
0.17531094 -0.56400412 1.9715865
0.22326493 -0.56642234 1.9736178
0.27485046 -0.56773901 1.9738858
0.32640296 -0.56571603 1.9669775
0.37355453 -0.56134689 1.9722202
0.42373544 -0.55724812 1.9728708
0.47601524 -0.55720103 1.9797474
0.52300471 -0.55849493 1.9792135
0.57063842 -0.55640918 1.9725809
0.62528777 -0.55651575 1.9716525
0.67561281 -0.55558515 1.9710339
0.73321021 -0.55535918 1.9697775
0.77581227 -0.55299658 1.9655892
0.81629086 -0.55245495 1.9715332
0.87327689 -0.55078655 1.9615208
0.90700018 -0.55162042 1.953908
1.0384836 -0.55148005 1.9505298
1.1352668 -0.55010015 1.9521236
-0.5754627 -0.51632714 1.974684
-0.52330428 -0.53224045 1.9705552
-0.48201105 -0.5418061 1.9792719
0.6116758 -0.54908735 1.9824851
0.72034961 -0.54868299 1.9899069
0.77466029 -0.5484066 1.981353
0.82510644 -0.54586464 1.9855666
0.87530178 -0.54776227 1.9800793
0.92886919 -0.54479688 1.9779848
0.97507352 -0.54317898 1.975405
1.0210704 -0.5415526 1.9776124
1.0750824 -0.54115731 1.9748574
1.1229249 -0.53893584 1.9756439
1.1767133 -0.53823018 1.9771132
1.225475 -0.53373176 1.9715832
1.2735323 -0.52755922 1.9783325
1.3226444 -0.52307111 1.9791671
1.3735647 -0.51564538 1.9818342
1.4197737 -0.51493043 1.969822
1.4723586 -0.51381671 1.9645406
1.5259088 -0.51219851 1.9628255
1.5722157 -0.5079478 1.9556135
1.6142703 -0.50946552 1.9505172
-0.60256284 -0.45698038 1.9738131
-0.59415388 -0.4763433 1.9795482
1.3400265 -0.48054039 1.9991065
1.373921 -0.47521347 1.9922092
1.4262269 -0.47576421 1.9839509
1.474727 -0.47504658 1.9756786
1.5259628 -0.47293711 1.9671006
1.5784832 -0.47671172 1.9566711
1.6232455 -0.46436685 1.9534755
1.6604748 -0.45461267 1.9513683
-0.60749471 -0.42503044 1.9762244
-0.59963989 -0.44408736 1.9777334
1.3843656 -0.4238942 1.9968315
1.4250119 -0.4271237 1.9909897
1.4725275 -0.42347205 1.9820348
1.5239658 -0.42676583 1.9730084
1.5751241 -0.42407915 1.9622726
1.6182789 -0.42117715 1.9548597
1.6612998 -0.41884819 1.9514642
-0.61222816 -0.37663224 1.9725752
1.3879499 -0.3758347 1.997853
1.4260578 -0.37500033 1.9915533
1.4751067 -0.37747934 1.9817785
1.5270085 -0.3748585 1.9744478
1.5743157 -0.3698304 1.9638337
1.6223122 -0.37711677 1.9583801
1.6552569 -0.37587765 1.9544216
-0.61705482 -0.32439333 1.9766244
1.3839147 -0.32668531 1.9967992
1.4273261 -0.32260609 1.9911318
1.4758271 -0.32734638 1.9815544
1.5248137 -0.32090327 1.9728738
1.5769119 -0.32684067 1.9638587
1.6293248 -0.32817557 1.9565247
1.6590865 -0.30631983 1.9513702
-0.61783713 -0.27344269 1.9725701
1.3825393 -0.27155039 1.9964274
1.4242345 -0.27361944 1.9885436
1.4749345 -0.27325001 1.9807305
1.5246853 -0.27765188 1.9710681
1.5768942 -0.27657649 1.9621829
1.6223857 -0.27511147 1.9547369
1.6552547 -0.25361887 1.9530498
-0.61970592 -0.22278596 1.9745353
1.3772159 -0.22592752 1.9940257
1.4279276 -0.22573438 1.9834009
1.4774729 -0.22417957 1.9777622
1.5263016 -0.22522764 1.969813
1.573094 -0.22319615 1.9604656
1.6194427 -0.2285361 1.9533647
1.6522539 -0.23010246 1.951839
-0.62254864 -0.17644525 1.967409
-0.57928568 -0.16560723 1.9586922
1.3384085 -0.16386415 1.9965442
1.3727182 -0.17569762 1.9913327
1.4243664 -0.17498916 1.9813493
1.4746983 -0.17389043 1.9741628
1.523288 -0.17260265 1.966789
1.5740564 -0.17632955 1.956569
1.6245779 -0.17751895 1.9521351
-0.61478502 -0.12737729 1.9694899
-0.57281947 -0.12215584 1.9526184
1.3300229 -0.12223116 1.9946115
1.3755211 -0.12591623 1.9873888
1.4250101 -0.12787873 1.9792439
1.4783585 -0.12660629 1.9699067
1.5277572 -0.12437718 1.9598603
1.5723978 -0.12676962 1.9543787
1.6221023 -0.14421822 1.951435
-0.61495245 -0.080537967 1.9638017
-0.58769935 -0.077045761 1.9629622
1.2935014 -0.059328459 1.9988683
1.3257052 -0.075879321 1.9923519
1.3789713 -0.076395527 1.9833657
1.4252673 -0.076789126 1.9730194
1.4757364 -0.07738696 1.9661939
1.5256509 -0.072309457 1.9565835
1.5739198 -0.072950661 1.9530808
1.6066108 -0.062021311 1.9505999
-0.61472297 -0.026310872 1.9645748
-0.59587938 -0.028837916 1.9639406
1.2819102 -0.022677552 1.9979174
1.3231515 -0.026831359 1.9894521
1.3753207 -0.026973207 1.9790668
1.4237903 -0.027131835 1.9719702
1.4729071 -0.027297208 1.963448
1.5240164 -0.027489208 1.9553471
1.5627851 -0.033309098 1.9507834
-0.60685909 0.020748237 1.9615368
-0.5867669 0.027932178 1.9572725
1.2727523 0.022491576 1.996443
1.3212786 0.022046359 1.9866092
1.3732783 0.022205321 1.9761145
1.4257749 0.024245376 1.9674644
1.4749595 0.020661155 1.9605248
1.5212923 0.019366831 1.9535114
1.5551063 0.00049889617 1.9522027
-0.60800344 0.076166682 1.9746763
-0.58898282 0.074646324 1.9570346
1.2381152 0.074409619 1.9956565
1.2788239 0.074742682 1.989108
1.3249391 0.076202922 1.9801341
1.3710045 0.076686934 1.9717205
1.4262052 0.0773568 1.9633207
1.4741338 0.074511901 1.9549664
1.5167968 0.07583902 1.9529616
-0.61391568 0.12761946 1.9621891
-0.59788126 0.11629179 1.9682895
1.1990374 0.14982657 1.9998318
1.2294781 0.12618181 1.9948621
1.2791708 0.12419514 1.9851058
1.324502 0.12494174 1.97754
1.3713235 0.12578115 1.970188
1.4260194 0.12680256 1.9609751
1.4774822 0.12393221 1.9541798
1.5205326 0.11595365 1.951645
-0.62257075 0.17695795 1.9691113
-0.57816619 0.17865983 1.9562116
1.1882281 0.17792919 1.9974929
1.2286019 0.17260681 1.9890052
1.2782209 0.1725522 1.9808114
1.3251075 0.17224368 1.9728911
1.3714943 0.17591918 1.9656469
1.4261128 0.17627423 1.9580084
1.4739404 0.17476557 1.9536827
1.5269288 0.19100098 1.9515359
-0.62401223 0.22146194 1.9740795
-0.57813054 0.22429794 1.9646515
1.1780756 0.21472603 1.9948418
1.2265358 0.2140644 1.9843335
1.2768869 0.21536811 1.9755062
1.3231711 0.21681327 1.9693004
1.3708121 0.21840645 1.9630111
1.4244925 0.2194068 1.9587952
1.4733588 0.21596727 1.9528953
1.5311615 0.23175192 1.9641104
1.7340857 0.23697713 1.9689238
-0.62757474 0.27578402 1.9864054
-0.57616895 0.27573827 1.9628993
-0.63159931 0.31221801 1.995661
-0.57786238 0.31982169 1.9633399
-0.57647836 0.36989424 1.9614391
-0.58064181 0.42155534 1.9688072
-0.58483559 0.47395885 1.9855521
-0.57831591 0.526353 1.9801573
-0.58376211 0.56843704 1.9878521
-0.45906341 -0.55183631 2.0209072
-0.43535578 -0.5581066 2.0217052
-0.35793439 -0.5692811 2.0471487
-0.27740008 -0.56789821 2.0186846
-0.22434407 -0.5596534 2.0248861
-0.17627674 -0.56108844 2.0269265
-0.12595631 -0.55819237 2.018909
-0.077936836 -0.55591786 2.0203505
-0.027378794 -0.55695403 2.0434222
0.022394732 -0.55705935 2.0361774
0.075258903 -0.55724758 2.0297332
0.12114327 -0.55839193 2.0197997
0.17502587 -0.55864823 2.0212743
0.22513771 -0.55852336 2.0239336
0.27355197 -0.55728066 2.0249109
0.32221171 -0.55814159 2.0233083
0.37287521 -0.5554207 2.026752
0.42188242 -0.55399102 2.0148184
0.47497082 -0.55268252 2.0216353
0.52504075 -0.55248964 2.012434
0.57769382 -0.55229914 2.0120335
0.67566508 -0.55054814 2.0151279
-0.57319331 -0.51502627 2.0220075
-0.52650845 -0.53407604 2.0294659
-0.47705889 -0.54518712 2.0330021
0.032449059 -0.54836649 2.0425863
0.26210216 -0.54899627 2.0338781
0.37604538 -0.54498506 2.0465775
0.43054178 -0.54859751 2.0330381
0.47931358 -0.547638 2.0421784
0.52400213 -0.54593754 2.0339611
0.5795247 -0.54474884 2.0369301
0.62244648 -0.54372871 2.0269041
0.67428225 -0.54392856 2.0189319
0.73047292 -0.54184854 2.0316567
0.77648973 -0.53812182 2.0266972
0.82561558 -0.53837097 2.0275292
0.87731463 -0.53750163 2.0239697
0.92152405 -0.53424001 2.0215611
0.97317952 -0.5299809 2.0326102
1.0296098 -0.52269328 2.0292203
1.0758847 -0.52045745 2.0308874
1.1259384 -0.51571918 2.0248535
1.1747327 -0.51390427 2.0197294
1.2245171 -0.51425439 2.0128279
1.273904 -0.50939047 2.0056844
1.3344445 -0.50104809 2.0039306
-0.58994561 -0.47867692 2.0260539
1.03615 -0.4841657 2.0477996
1.0780985 -0.47527066 2.0433619
1.1253541 -0.47352645 2.0360878
1.1761498 -0.47449848 2.0285664
1.2278824 -0.47562352 2.0204332
1.2775567 -0.47422433 2.01121
1.3239444 -0.46958327 2.0048816
-0.60408348 -0.41812992 2.0194056
-0.59714174 -0.44457617 2.030154
1.0864815 -0.43215418 2.0478294
1.1274186 -0.4237566 2.0439205
1.175719 -0.425244 2.0359466
1.2247181 -0.42622617 2.0273328
1.2771676 -0.42444041 2.0190897
1.3295275 -0.42705867 2.0094264
1.3671434 -0.42093682 2.0017962
-0.60803771 -0.37097049 2.0256388
1.1285723 -0.37251657 2.0468519
1.1734675 -0.37542576 2.0392358
1.2236766 -0.37745556 2.0309768
1.2731146 -0.37362999 2.0201306
1.3250116 -0.37583351 2.0102477
1.3666742 -0.37269446 2.0024095
-0.61144954 -0.32130486 2.0293338
1.1257077 -0.32541654 2.0467236
1.1696056 -0.32535535 2.0387449
1.2221432 -0.32562628 2.0297348
1.2726297 -0.32497376 2.0208027
1.3210133 -0.32505929 2.0108531
1.359779 -0.3273941 2.003607
-0.61307961 -0.27516192 2.0259585
1.1344032 -0.27294549 2.0459242
1.1762606 -0.2774443 2.0385313
1.2294521 -0.27445352 2.0271144
1.2780795 -0.27334765 2.0173144
1.3276569 -0.27306738 2.0081892
1.3619751 -0.28568602 2.0022044
-0.61360157 -0.22788954 2.0296626
1.0925803 -0.20701993 2.0499229
1.1282339 -0.22464333 2.0442071
1.1753448 -0.22669432 2.0350037
1.2220114 -0.22511715 2.0243425
1.2736053 -0.22331604 2.014838
1.3246762 -0.22454159 2.0044801
-0.6092447 -0.19389445 2.0194979
1.0868738 -0.17490001 2.0483556
1.1246889 -0.17518376 2.0410326
1.173002 -0.17110434 2.0321014
1.2227795 -0.17292359 2.0222816
1.2734743 -0.1742554 2.0112507
1.3200184 -0.17763861 2.003181
1.0429491 -0.10593846 2.0499201
1.0785031 -0.12492953 2.0474346
1.1214842 -0.12603953 2.0387001
1.1752672 -0.12417553 2.0271914
1.2291667 -0.12397067 2.0172484
1.2792007 -0.1246142 2.007601
1.3116403 -0.13600588 2.0018363
1.0366443 -0.061243743 2.0486455
1.0743186 -0.072148539 2.0453103
1.1246146 -0.075392023 2.0335014
1.176883 -0.074796036 2.0226102
1.2261294 -0.075167686 2.0140147
1.2736654 -0.07732854 2.0043511
1.0328658 -0.022282273 2.0472667
1.0752596 -0.026335349 2.0405734
1.1270669 -0.026403526 2.0289979
1.1741192 -0.026487043 2.0187373
1.2228401 -0.026590763 2.0094972
1.2639585 -0.03075221 2.002986
1.027723 0.021794287 2.0439954
1.0766933 0.02039369 2.0341036
1.1250474 0.021511193 2.0253549
1.1718434 0.021612262 2.0148034
1.2210519 0.021755662 2.0065393
1.2518495 0.016457163 2.0005708
0.98067737 0.078036651 2.0458353
1.0244414 0.073933057 2.0387979
1.0760499 0.074242584 2.0290809
1.1223711 0.074527793 2.0195508
1.1738715 0.074917935 2.009798
1.2133996 0.078436129 2.0018785
0.94126493 0.13874151 2.0477593
0.97470939 0.1281036 2.0433774
1.0237879 0.12554203 2.0335822
1.0743269 0.12691912 2.0238805
1.1232632 0.12790518 2.0138078
1.175809 0.12667803 2.005065
1.2121991 0.10732318 2.0012002
0.89286757 0.19799159 2.0491958
0.93065292 0.18041417 2.0467463
0.97725278 0.17833798 2.0383079
1.0259709 0.17766196 2.0267534
1.0731021 0.17423467 2.0189812
1.1252744 0.17499164 2.0083823
1.1681746 0.17349255 2.0012987
-0.64115506 0.2179582 2.0009878
0.88259763 0.22274745 2.0480785
0.92997199 0.2176356 2.0456619
0.97674125 0.22365421 2.0340145
1.0263295 0.222496 2.0264509
1.0726025 0.21808963 2.0170465
1.1243739 0.22089048 2.0119936
1.1592945 0.23478937 2.0059667
1.4895536 0.23877625 2.0071549
1.5011981 0.23883258 2.0007603
1.6489514 0.24922626 2.0345955
1.6511073 0.24778438 2.014806
-0.6221236 0.27772689 2.0026674
1.1406211 0.29286113 2.0499718
1.173937 0.28325438 2.0481279
1.2205206 0.27768552 2.0437245
1.6984297 0.26511982 2.0483873
1.7227995 0.2617389 2.0265558
1.7649044 0.261004 2.0246191
-0.63854802 0.33568728 2.0153923
1.2317926 0.30756265 2.0413156
-0.64191115 0.36769712 2.0223634
-0.63931394 0.41786522 2.042403
-0.58144754 0.47334671 2.0196049
-0.57942849 0.50182551 2.0075693
-0.45892718 -0.5544309 2.085536
-0.43004534 -0.56529588 2.0897934
-0.36520359 -0.5720318 2.0695269
-0.31875667 -0.56783408 2.0724289
-0.26905024 -0.56225687 2.0680943
-0.22478721 -0.55654871 2.0784733
-0.17712708 -0.55491996 2.0798523
-0.1288923 -0.55311662 2.0691457
-0.078464322 -0.55320686 2.0747435
-0.025257643 -0.55400091 2.0736752
0.016045913 -0.55272925 2.0722301
0.072850317 -0.55227375 2.0564241
0.12250143 -0.55335128 2.0702784
0.17433858 -0.55341405 2.0646083
0.22115056 -0.55248523 2.0661011
-0.5677979 -0.51577896 2.0705903
-0.53034776 -0.53110605 2.0668383
-0.48643449 -0.54561454 2.0748441
-0.1600706 -0.5488798 2.0802293
-0.10915863 -0.5484677 2.0808558
-0.099086277 -0.54894376 2.0830004
-0.038099561 -0.5491488 2.085099
0.033077568 -0.54896158 2.0844533
0.073666871 -0.54837328 2.0815079
0.12976515 -0.54675382 2.0836959
0.17602552 -0.54559749 2.0872529
0.22930019 -0.54381728 2.0820773
0.27622798 -0.54440618 2.0810099
0.32729095 -0.5429073 2.070267
0.37552798 -0.54116511 2.0763764
0.42267662 -0.54131907 2.0740802
0.47697905 -0.53733027 2.074158
0.52523589 -0.53620583 2.0740259
0.57435596 -0.53245521 2.0769031
0.62766343 -0.52958262 2.0780804
0.67899799 -0.52972168 2.076242
0.72734386 -0.52340376 2.0777106
0.7760607 -0.51867402 2.0803399
0.82814521 -0.51752371 2.0741663
0.87469 -0.5146969 2.0700321
0.92474043 -0.51256275 2.0625103
0.97463894 -0.5098834 2.0593567
1.0132596 -0.51040161 2.0535512
-0.58590072 -0.47401991 2.0715444
0.6898998 -0.48170316 2.0980439
0.72957432 -0.47414336 2.0952778
0.77558905 -0.47630069 2.090333
0.82271218 -0.47429937 2.0798805
0.87378055 -0.47252569 2.0714145
0.92548788 -0.47451159 2.0653107
0.97321647 -0.47494137 2.0598168
1.0192226 -0.46782851 2.0539985
-0.60150123 -0.41456568 2.0622568
-0.59322989 -0.42499796 2.0786672
0.74243188 -0.44370449 2.0993404
0.78521127 -0.43103898 2.0966525
0.82531106 -0.42440677 2.0907764
0.87539619 -0.42551821 2.0825472
0.92538917 -0.42647642 2.0725248
0.97094345 -0.42697665 2.0668945
1.0246522 -0.42466697 2.0597289
1.0716548 -0.41842529 2.0525255
1.1094266 -0.41202691 2.0511217
-0.60342228 -0.37992635 2.0734944
-0.59782028 -0.37776032 2.0924959
0.79729348 -0.38125941 2.0998139
0.82772577 -0.37595573 2.0969589
0.87473279 -0.3720375 2.0881128
0.92538768 -0.3731499 2.0797939
0.97338831 -0.3727968 2.0714319
1.0259368 -0.37745517 2.064466
1.0754713 -0.37626395 2.0552776
1.1066465 -0.37853727 2.0505579
-0.60627627 -0.32992521 2.0725274
0.83274972 -0.32424548 2.0981975
0.87328625 -0.32365125 2.0902386
0.92332113 -0.32443285 2.0808368
0.97486371 -0.32562694 2.0729651
1.027459 -0.32705191 2.0653696
1.073868 -0.32272118 2.0567636
1.1035776 -0.31813619 2.0522213
-0.60656708 -0.27634177 2.0767341
0.83860677 -0.27379102 2.0971272
0.87553972 -0.27711791 2.092452
0.92338997 -0.27569062 2.0826325
0.9745037 -0.27765515 2.0749147
1.0251582 -0.27815208 2.0657935
1.0708449 -0.27351317 2.0560491
1.1074207 -0.27458277 2.0517328
-0.6066134 -0.22493567 2.0788965
0.83348358 -0.22075406 2.0954628
0.87489587 -0.22187784 2.088999
0.92437172 -0.22229788 2.0787928
0.97646379 -0.2233083 2.0727606
1.0235822 -0.22299403 2.0642962
1.0726893 -0.22836933 2.0546753
1.1124003 -0.24754407 2.0513737
-0.60454869 -0.19379842 2.0760283
0.81994146 -0.17539479 2.0959558
0.87252599 -0.17257312 2.0822854
0.924164 -0.17522445 2.0786397
0.97356296 -0.17489496 2.0698464
1.0246615 -0.17544653 2.0600505
1.0668697 -0.17736539 2.052861
0.78528214 -0.11698701 2.09747
0.82347435 -0.12714642 2.0899637
0.87530661 -0.12601329 2.0812614
0.9262892 -0.12650385 2.0751839
0.97546959 -0.12682028 2.065429
1.0258429 -0.12836391 2.0573454
1.0628909 -0.13631262 2.0529342
0.74002004 -0.062422022 2.0991879
0.77665132 -0.072156467 2.0953979
0.82712859 -0.071731947 2.0847421
0.87658381 -0.074754655 2.0783675
0.92401254 -0.073557325 2.0718346
0.97436827 -0.073759019 2.0627122
1.0212269 -0.078215122 2.0540116
1.0563526 -0.095571898 2.0517888
0.69781601 -0.010273079 2.0994933
0.72885782 -0.020700777 2.0978041
0.77449358 -0.0259584 2.0928798
0.8280161 -0.02598465 2.0825844
0.87701398 -0.026028221 2.0738435
0.92540592 -0.026117686 2.0682518
0.97489113 -0.026177321 2.0588965
1.0136212 -0.030201821 2.0523341
0.64267069 0.041384522 2.0997138
0.67835534 0.024920516 2.0975223
0.72475207 0.020883929 2.0962353
0.77271509 0.020928226 2.0880456
0.82635671 0.020979546 2.0783808
0.87540472 0.021039259 2.0700305
0.92587799 0.021137252 2.0633461
0.97596371 0.021222848 2.0540123
1.0048833 0.026568815 2.0503483
0.6298539 0.086010419 2.0985937
0.67678022 0.073852919 2.0962031
0.72534895 0.074067734 2.0896935
0.77366579 0.071525514 2.0844779
0.82553178 0.073049352 2.0754602
0.87404424 0.07318873 2.0659606
0.92466325 0.073503964 2.0597568
0.96292007 0.067073509 2.0514526
0.59205335 0.12573858 2.0982041
0.62774265 0.12545009 2.0962303
0.6740216 0.12403522 2.0919507
0.72580636 0.12529431 2.0861297
0.77470821 0.12391721 2.0825617
0.82407516 0.12490057 2.070045
0.87262809 0.1251751 2.0608163
0.91959709 0.12318271 2.0556302
0.95697433 0.1050495 2.050602
0.53850615 0.19238269 2.0991671
0.58112192 0.17725936 2.0970571
0.62547177 0.17510757 2.0922778
0.67326415 0.17550296 2.0870485
0.72753525 0.17615555 2.0829499
0.7757026 0.17652543 2.0756085
0.82324922 0.17672916 2.0653138
0.87362587 0.17612599 2.0559046
0.90942961 0.16725242 2.0529153
0.53271985 0.22174892 2.0978823
0.57790118 0.22095335 2.0937569
0.62515116 0.22132826 2.0882053
0.67334878 0.22196159 2.0843053
0.72669935 0.22250696 2.0774724
0.77520144 0.22308162 2.0711527
0.8233574 0.22350419 2.0623925
0.86381257 0.22392306 2.0547605
0.91464388 0.23346364 2.0610421
0.96558475 0.24490628 2.0738358
1.0391809 0.24597917 2.0585389
1.0691401 0.24714358 2.0588453
1.1022521 0.24817409 2.0563304
0.74299878 0.25038382 2.0898044
0.77336204 0.25178593 2.0949068
0.88454551 0.25515592 2.0949531
1.0764555 0.27818787 2.0753825
1.123451 0.27510628 2.0659952
1.1752036 0.27016631 2.0575421
1.2120388 0.27516145 2.0583255
1.6782713 0.26476818 2.0580759
1.0745026 0.32414392 2.0712161
1.125966 0.3219955 2.0685403
1.1768724 0.3254652 2.0781848
1.2210391 0.32861921 2.0772512
1.0422914 0.37479752 2.0828457
1.075924 0.37789544 2.0882161
1.1267874 0.3629927 2.0932281
1.1670898 0.3587237 2.0967784
1.2295467 0.36197463 2.0866108
0.60045564 0.57695615 2.0898418
-0.45495886 -0.55221498 2.1274319
-0.42715365 -0.56241983 2.1281955
-0.37389079 -0.56992251 2.1216083
-0.32625011 -0.56801277 2.1284952
-0.27861726 -0.5600698 2.1239986
-0.23021765 -0.55300903 2.1247513
-0.17903097 -0.5501281 2.1252298
-0.13689363 -0.55268115 2.1164451
-0.058937978 -0.55382925 2.102571
-0.562751 -0.51393604 2.1215606
-0.52316171 -0.53201783 2.1239245
-0.48231131 -0.5434202 2.1225886
-0.25991976 -0.54610211 2.1466913
-0.2164828 -0.54608315 2.1355469
-0.16951695 -0.54464602 2.1286032
-0.11976299 -0.5449028 2.1311674
-0.075216293 -0.54490948 2.1302154
-0.028448682 -0.54374075 2.1263721
0.025056822 -0.54075485 2.1253541
0.07509803 -0.53820795 2.1252446
0.12616172 -0.53758723 2.1242077
0.17448601 -0.53516495 2.1220543
0.2251343 -0.53059644 2.1273391
0.27510852 -0.52814782 2.1259987
0.32580784 -0.5254541 2.1270084
0.37538108 -0.51795262 2.1307261
0.42502046 -0.51749504 2.1249089
0.47354126 -0.51572812 2.1214292
0.5274815 -0.51418757 2.1171162
0.57446581 -0.51427627 2.1134408
0.62224525 -0.51051193 2.1098344
0.67148834 -0.51163691 2.1051905
0.7132349 -0.50889367 2.1043956
-0.5745545 -0.47663009 2.1258016
0.33210611 -0.47387117 2.1468415
0.37611765 -0.46950373 2.1436231
0.42227253 -0.47198781 2.1382165
0.4749513 -0.47219962 2.1317875
0.52758372 -0.4723368 2.1240852
0.57524759 -0.47265869 2.1172597
0.62307858 -0.47308269 2.1099894
0.67382538 -0.47173801 2.1058226
0.71635669 -0.48072115 2.1035058
-0.58652276 -0.42573085 2.1294761
0.38304552 -0.4380126 2.148639
0.42240644 -0.42490464 2.1454825
0.47485614 -0.42488065 2.1380212
0.52755862 -0.42506424 2.1306932
0.57542509 -0.42551085 2.1247029
0.6231181 -0.42578068 2.1169689
0.6772719 -0.42149025 2.111501
0.72539151 -0.42125583 2.1054242
0.76596189 -0.41545966 2.102056
-0.59274036 -0.37374997 2.1264005
0.43247214 -0.37957475 2.1475787
0.47448844 -0.3773841 2.1422584
0.52710253 -0.3775143 2.1347907
0.57474792 -0.3777892 2.1282032
0.62253022 -0.37811261 2.1210341
0.67685795 -0.37384224 2.1162961
0.72601944 -0.37473735 2.1106439
0.7742883 -0.37534738 2.1042984
0.82079476 -0.37171078 2.1012998
-0.60064077 -0.30154464 2.1108792
-0.59692591 -0.32578766 2.1170671
0.43243656 -0.31704596 2.1479871
0.4734309 -0.32423651 2.1431506
0.52614599 -0.32448006 2.1366363
0.57524461 -0.32389957 2.1311042
0.62279969 -0.32615089 2.1245818
0.67574549 -0.32590908 2.1181321
0.72492802 -0.32674381 2.1128423
0.77436036 -0.3275668 2.1066003
0.81236225 -0.33055735 2.1010091
-0.60259289 -0.25035334 2.1222951
-0.59704673 -0.27365357 2.1224699
0.4290992 -0.27054581 2.1481607
0.47184634 -0.27310637 2.1427586
0.52514434 -0.27162856 2.1374335
0.57743472 -0.27163413 2.1285119
0.62565023 -0.27213639 2.1235986
0.67437249 -0.27277392 2.1188211
0.72289592 -0.27325851 2.1119895
0.77268904 -0.27412319 2.1072035
0.81746048 -0.27321792 2.1008627
-0.60475945 -0.22312555 2.1126606
-0.5981006 -0.22101791 2.1281483
0.38720948 -0.22052369 2.1488388
0.42496234 -0.22334413 2.1463058
0.47279924 -0.22707514 2.1414876
0.52351707 -0.22390524 2.1344085
0.57618994 -0.22412029 2.1275644
0.62435824 -0.22455846 2.1229048
0.67304683 -0.22510242 2.1183841
0.72465545 -0.22441155 2.1118062
0.7734167 -0.22735909 2.1060188
0.80745333 -0.2300552 2.1007488
-0.60883516 -0.18969128 2.1486263
-0.59782356 -0.19661248 2.1091411
0.38216126 -0.17263493 2.1477926
0.42823261 -0.17642017 2.1434853
0.4753074 -0.17654379 2.1385884
0.52232987 -0.17662656 2.1324484
0.57515788 -0.17688352 2.1266801
0.62731141 -0.17627968 2.1202843
0.67547196 -0.17855765 2.1155958
0.7256099 -0.17800838 2.1101692
0.7748065 -0.17847273 2.1042891
0.83795279 -0.17960072 2.1025412
0.33558249 -0.1074938 2.1488051
0.37520173 -0.12414952 2.145762
0.42717513 -0.12420783 2.1405306
0.47716525 -0.12285447 2.1336873
0.52387691 -0.12577192 2.1291187
0.57391578 -0.12456844 2.1245072
0.62666422 -0.12472641 2.1173894
0.67502081 -0.12500259 2.1125779
0.72381765 -0.12531883 2.1075008
0.76763409 -0.13088386 2.1026828
0.32657322 -0.071731605 2.1470349
0.37402397 -0.072174095 2.1405356
0.42602646 -0.072244354 2.1363351
0.47800091 -0.072282046 2.1305799
0.52516657 -0.072369657 2.1260338
0.57251501 -0.072459929 2.1209011
0.62543386 -0.072577029 2.1148367
0.67666703 -0.071329355 2.1080177
0.72122979 -0.076910764 2.1033297
0.75506431 -0.093933687 2.1008775
0.2914958 -0.020594282 2.1497376
0.32214934 -0.025730258 2.1448197
0.37325317 -0.025694599 2.1368308
0.42513102 -0.02571868 2.1325023
0.477072 -0.025726562 2.1271303
0.52561229 -0.024838043 2.1221409
0.57244235 -0.02659462 2.1171198
0.62399781 -0.025806945 2.110692
0.67487013 -0.026434807 2.1047506
0.71585965 -0.03633599 2.1030204
0.28235838 0.024920413 2.1463149
0.3214933 0.02060801 2.1404693
0.37272182 0.02059962 2.1338019
0.42391232 0.020591922 2.126374
0.47605315 0.020637803 2.1225851
0.52792919 0.020653343 2.1161928
0.57561302 0.020718219 2.1130385
0.62164301 0.019872015 2.105818
0.6636132 0.0042413305 2.1035867
0.24987072 0.077304371 2.1491325
0.27531725 0.072071269 2.1448202
0.32096517 0.071925156 2.1361976
0.37192672 0.07185664 2.1284921
0.42328292 0.071871132 2.1224623
0.47496951 0.071930714 2.1169918
0.52725333 0.072073549 2.1126759
0.57419145 0.072158352 2.1070399
0.61909336 0.067971967 2.1030848
0.65404165 0.056964599 2.1006713
0.24414952 0.12938777 2.147903
0.27510819 0.12343498 2.1416664
0.32060596 0.12313716 2.1321864
0.37137708 0.12296766 2.1237941
0.42242694 0.12292597 2.1165831
0.47401863 0.12303115 2.1111364
0.52653837 0.12333944 2.1081834
0.57092124 0.12222627 2.103349
0.61076003 0.10831501 2.1010332
0.23522201 0.17626257 2.1463034
0.27705908 0.17553931 2.1360395
0.32201663 0.17333506 2.1272624
0.37104294 0.1740353 2.1194575
0.42207843 0.17398304 2.1124456
0.47334245 0.17402622 2.1056933
0.52362865 0.17112705 2.104459
0.56280231 0.16197008 2.1014488
0.14701599 0.24756947 2.149298
0.18815616 0.24741071 2.1457841
0.23108886 0.22762546 2.1437998
0.27723938 0.22472142 2.1343954
0.32204217 0.22683826 2.1241269
0.37099746 0.22519553 2.1159632
0.42223376 0.22523937 2.1099761
0.47412336 0.22560285 2.1058946
0.51669276 0.22910143 2.1056144
0.58880788 0.24908382 2.1116338
0.61552542 0.24940348 2.1092963
0.56599587 0.25045729 2.1280835
0.63832176 0.25020128 2.1118367
0.67342913 0.25356635 2.1345878
0.7394011 0.2545349 2.1283188
0.759758 0.25249076 2.1047785
1.0444813 0.27330178 2.1291013
1.0575136 0.27156276 2.1084542
1.5657707 0.28897947 2.1294432
1.074706 0.32069913 2.122366
1.5665127 0.31014025 2.128056
0.58555347 0.3816115 2.1471443
1.1253202 0.38181433 2.1030118
1.1761225 0.38019636 2.1042647
1.2151874 0.37258562 2.1039817
0.58518702 0.42372611 2.140332
0.60969037 0.44204009 2.1458607
0.58195621 0.47798988 2.1302145
0.6081627 0.4781189 2.1349647
0.58027941 0.52474535 2.1275063
0.61017251 0.52771103 2.1342449
0.58156222 0.57343769 2.1271598
0.61086154 0.56558424 2.1300585
-0.41746289 -0.55724543 2.1747208
-0.37719366 -0.55853081 2.1810212
-0.32447088 -0.55855602 2.165895
-0.28890574 -0.55129135 2.1648331
-0.5556494 -0.5099231 2.1656818
-0.53017795 -0.52197999 2.178926
-0.47815922 -0.5374279 2.176652
-0.44446045 -0.54407775 2.1857009
-0.32597446 -0.54954118 2.1990089
-0.26914924 -0.5424726 2.1801715
-0.22365847 -0.53980827 2.1772857
-0.17755936 -0.53753412 2.1752608
-0.12481561 -0.53118712 2.1833968
-0.072998457 -0.52891654 2.1788621
-0.024078997 -0.52652186 2.1756079
0.023882203 -0.51802707 2.1809919
0.075731635 -0.51459485 2.1809642
0.12600848 -0.51757687 2.1689591
0.17294212 -0.51600826 2.1669602
0.2213558 -0.51363426 2.1622632
0.2740382 -0.50988525 2.1564457
0.32379377 -0.50528586 2.1529083
-0.56126136 -0.4723126 2.1791036
-0.54909432 -0.49762979 2.1867218
-0.061204281 -0.47924852 2.1985428
-0.022127084 -0.47157633 2.1973455
0.023927758 -0.47251877 2.1931605
0.077845186 -0.47262064 2.1867456
0.12427489 -0.47577605 2.1806974
0.17138453 -0.47445542 2.1725359
0.22381531 -0.47383255 2.1664894
0.27602306 -0.47306868 2.1590216
0.32259274 -0.46980903 2.1532478
0.36601955 -0.49490333 2.1506863
-0.57508987 -0.42449704 2.1744645
0.030745046 -0.42982641 2.1977646
0.076822966 -0.42359623 2.1928892
0.1242521 -0.42280164 2.1873651
0.17135768 -0.42165238 2.1793244
0.22278577 -0.42512512 2.1729572
0.27593067 -0.42558685 2.1647224
0.32814202 -0.42515239 2.1576602
0.37258419 -0.4205682 2.1523552
-0.58162153 -0.37518081 2.1761622
0.045070134 -0.37603879 2.1997809
0.080995932 -0.37883446 2.1964581
0.12404737 -0.37462676 2.189481
0.17124173 -0.37396866 2.1835303
0.22429453 -0.37750527 2.1749203
0.27569982 -0.3779926 2.1686606
0.32774022 -0.37745026 2.1607528
0.37450311 -0.37701893 2.1532414
0.40864193 -0.37446225 2.1512427
-0.58665144 -0.32539731 2.1728888
0.084650472 -0.32911316 2.1961513
0.12721802 -0.32509249 2.1898415
0.17373084 -0.32728928 2.1833522
0.22307424 -0.32533711 2.1770754
0.27501017 -0.32468823 2.1688521
0.32704914 -0.32434809 2.1617827
0.37624332 -0.32267579 2.1550536
0.41685614 -0.33114293 2.1514566
-0.58673579 -0.27596441 2.1772621
0.082531966 -0.27281609 2.1968446
0.12881999 -0.27332038 2.1904223
0.17567179 -0.27259189 2.1824508
0.22243378 -0.27206898 2.1754956
0.2743336 -0.27163929 2.168175
0.32611752 -0.27125171 2.1603515
0.37717623 -0.27512604 2.1537807
0.40981427 -0.28181943 2.1512644
-0.58777982 -0.22231741 2.1755173
0.079976231 -0.22509588 2.1956325
0.12845278 -0.22535367 2.187571
0.17527159 -0.22489308 2.1809471
0.22190461 -0.22444579 2.173841
0.27367344 -0.22408319 2.1665006
0.32511199 -0.22360587 2.1571944
0.37236977 -0.23232965 2.1520867
0.41966158 -0.23971926 2.1502306
-0.60349005 -0.19134147 2.1693008
-0.58674985 -0.19283949 2.1901541
0.041206103 -0.16461276 2.198766
0.076140784 -0.17843585 2.1950243
0.12830518 -0.17797223 2.187752
0.17487991 -0.17742421 2.1788957
0.22131373 -0.17699015 2.1708415
0.27289012 -0.17667069 2.1630433
0.32427055 -0.17634374 2.1544142
0.363291 -0.18416829 2.1505682
0.037332967 -0.11970603 2.1993499
0.076016635 -0.12574774 2.1937706
0.12806983 -0.12539834 2.1861973
0.17574115 -0.12397638 2.1765368
0.22172786 -0.1255434 2.1686943
0.27217296 -0.12437063 2.1596861
0.32061994 -0.12839958 2.1532423
0.036740139 -0.074249052 2.1968615
0.075877115 -0.073208719 2.1912262
0.12776658 -0.072964214 2.1824679
0.17755394 -0.071383774 2.1736498
0.22317113 -0.073961519 2.1649489
0.27167693 -0.072408386 2.1573052
0.30221063 -0.074859872 2.1508656
0.033233013 -0.027059311 2.1970897
0.075763419 -0.026088674 2.188643
0.12763961 -0.026019067 2.180994
0.1791712 -0.025935248 2.171936
0.22521719 -0.025852768 2.1624856
0.26753566 -0.02670167 2.1543009
-0.0099160597 0.029386189 2.197753
0.023591399 0.020958601 2.1943319
0.075728916 0.020904146 2.1875215
0.12751852 0.020835597 2.1789153
0.1788885 0.020765983 2.1685026
0.22487393 0.020701708 2.1591825
0.25975639 0.016696058 2.1523926
-0.015978124 0.081592299 2.1969194
0.023565287 0.073239565 2.1912715
0.075595431 0.07297945 2.1829891
0.12730831 0.072767109 2.1747134
0.1787429 0.072549894 2.1659327
0.22465472 0.072320119 2.1563363
0.2500653 0.051587306 2.151346
-0.063364349 0.13060386 2.1989694
-0.028800748 0.12585548 2.195389
0.02354563 0.12546293 2.1885633
0.07555937 0.12503475 2.1803248
0.12721254 0.12461662 2.1714525
0.1785589 0.12421962 2.1621771
0.2211691 0.12059087 2.1525552
-0.070904143 0.18356942 2.1973548
-0.028815128 0.1783371 2.1936038
0.02354678 0.17769508 2.1857367
0.075524606 0.1770446 2.1769948
0.12718119 0.17647949 2.1684453
0.17856032 0.17598572 2.1599107
0.21070904 0.17201561 2.1516201
-0.075184576 0.22727031 2.1965587
-0.028807063 0.22551546 2.1905015
0.023556013 0.22478279 2.1834061
0.075545087 0.22396655 2.1747143
0.12713206 0.22646858 2.1644807
0.17760319 0.22585714 2.1561844
0.20913231 0.21687591 2.1505437
-0.071016006 0.25266203 2.1961086
-0.028845495 0.25218597 2.1925788
0.02354772 0.25091314 2.1815553
0.065327413 0.25072694 2.1794002
0.58374578 0.2800107 2.1630087
0.61616677 0.27994773 2.1876252
0.68917215 0.2732124 2.181191
0.72336191 0.27620083 2.1793165
0.7581405 0.28101838 2.1890132
1.0341245 0.27101469 2.1597965
1.5998329 0.29302618 2.1519787
1.6339912 0.29082417 2.1745636
1.6696393 0.28528708 2.1774406
0.58039874 0.30676302 2.1781032
0.61137366 0.32534894 2.184144
1.0900865 0.3028686 2.155127
1.547814 0.3021715 2.1504886
1.566825 0.30352584 2.1530855
1.6091173 0.30582666 2.1511884
1.6741138 0.30811763 2.1777637
0.58674139 0.3814646 2.1622014
0.61568415 0.37462205 2.181211
0.72595948 0.39459169 2.195261
0.57422239 0.42059159 2.1844833
0.63340318 0.42303461 2.1863046
0.65730071 0.40920433 2.1976042
0.56655675 0.47540936 2.1763682
0.64122272 0.47485656 2.192786
0.6904524 0.47931007 2.1950233
0.71656758 0.47558355 2.1956286
0.56004667 0.52251339 2.1830058
0.63937807 0.5102942 2.1848497
0.68875188 0.51368946 2.1969054
0.71327364 0.51235461 2.1940303
0.56037962 0.57400101 2.1728599
0.72518498 0.57365316 2.1837153
-0.35914761 -0.55084699 2.2008963
-0.32663429 -0.55067396 2.2035794
-0.52095264 -0.5126819 2.2225618
-0.4767305 -0.52702802 2.2286341
-0.42331392 -0.53770864 2.2280955
-0.37900361 -0.53874874 2.2295744
-0.32214463 -0.53775072 2.2269621
-0.27289674 -0.52196991 2.226011
-0.22689526 -0.51654047 2.2242975
-0.17498481 -0.51688695 2.2142928
-0.12625413 -0.51040924 2.2124953
-0.072274268 -0.50880671 2.2071309
-0.027590731 -0.50620931 2.2045085
0.002716701 -0.50219578 2.2032187
-0.55360019 -0.46352497 2.2102981
-0.53648192 -0.47927704 2.2275383
-0.27401182 -0.46660018 2.232619
-0.22354504 -0.47210613 2.2294166
-0.17519002 -0.47441435 2.2231545
-0.12693454 -0.47291967 2.2140524
-0.074030876 -0.47484353 2.2076402
-0.026248526 -0.47699073 2.2029004
-0.56045979 -0.42333481 2.214258
-0.54715323 -0.43434721 2.234777
-0.27418056 -0.42345652 2.2396724
-0.22529308 -0.42560264 2.2322459
-0.17496556 -0.42532098 2.2267907
-0.12499621 -0.42495131 2.2201986
-0.072108231 -0.42740589 2.2127471
-0.02393375 -0.42608696 2.2066109
0.015250021 -0.41816819 2.201441
-0.5640099 -0.37441599 2.221411
-0.27404115 -0.37441051 2.2442605
-0.2231489 -0.37700531 2.2359445
-0.17486352 -0.37666583 2.2312837
-0.12584123 -0.37489092 2.2228374
-0.072033688 -0.37361345 2.2168136
-0.023908261 -0.37247628 2.2107954
0.020195579 -0.37399691 2.20382
0.064131662 -0.36645335 2.2001984
-0.56838429 -0.32548115 2.2224066
-0.27352935 -0.32497427 2.2450688
-0.22359188 -0.32326001 2.2367146
-0.17558905 -0.32437721 2.2304952
-0.1256462 -0.32618067 2.2243695
-0.071937196 -0.32514516 2.2188337
-0.023878155 -0.32414007 2.2126379
0.025254784 -0.32653791 2.2051144
0.059540737 -0.32388633 2.2013588
-0.56645447 -0.27493548 2.2269528
-0.27292898 -0.27562132 2.2443995
-0.22315845 -0.2742216 2.2365651
-0.17289059 -0.27616784 2.2307928
-0.12552854 -0.27778983 2.2265186
-0.071806833 -0.27666321 2.2189257
-0.023819396 -0.27563339 2.2114236
0.023833644 -0.27498874 2.2061782
0.057219207 -0.27791509 2.2007811
-0.7910369 -0.21231839 2.2466602
-0.57054496 -0.22882189 2.2201536
-0.27054605 -0.23001981 2.2466743
-0.22357523 -0.22625104 2.2443669
-0.1746695 -0.22573015 2.2419453
-0.12557216 -0.22439601 2.2306228
-0.071608484 -0.2228546 2.2168665
-0.023774903 -0.22223346 2.2113097
0.023781138 -0.22160123 2.2050271
0.055404257 -0.23193885 2.2020662
-0.56888533 -0.19592214 2.2298813
-0.26539451 -0.17097116 2.2478468
-0.22338426 -0.17224218 2.2455387
-0.17520311 -0.17281443 2.2409341
-0.12532301 -0.17596045 2.2291095
-0.071476027 -0.17476997 2.2154491
-0.023725726 -0.17425346 2.2095857
0.020645812 -0.17540729 2.2045407
-0.26999536 -0.12245732 2.2483113
-0.22304766 -0.1235991 2.2442176
-0.17308789 -0.12473421 2.2389085
-0.12514122 -0.12778731 2.2279317
-0.071377017 -0.12692744 2.214577
-0.023704045 -0.12658766 2.2092731
0.014594869 -0.13043128 2.2028251
-0.27024204 -0.075391777 2.247323
-0.22289304 -0.075170867 2.2440372
-0.17380589 -0.074859656 2.2372875
-0.12487566 -0.07437408 2.2247436
-0.071260527 -0.073903374 2.212311
-0.023643821 -0.073661551 2.2057061
0.011561099 -0.0727285 2.2018785
-0.27199727 -0.026899058 2.2475328
-0.22263384 -0.02679437 2.2420793
-0.1737601 -0.026709307 2.2373607
-0.12477253 -0.026518077 2.2235367
-0.07494282 -0.027299754 2.211632
-0.027779942 -0.025440101 2.204524
0.0092352936 -0.024917807 2.2014794
-0.27167985 0.021562045 2.2448697
-0.22252643 0.021486472 2.2410538
-0.17361258 0.021405576 2.2355094
-0.12458932 0.021231836 2.2201486
-0.07638672 0.021102075 2.2085938
-0.033608582 0.018953796 2.2038221
-0.27165002 0.075358354 2.2438133
-0.22241992 0.075079173 2.2391493
-0.1735045 0.07478182 2.2332947
-0.12455563 0.074236743 2.2189867
-0.076301225 0.073733903 2.2053332
-0.036087498 0.069008082 2.2023985
-0.27168661 0.1237937 2.2426803
-0.22140038 0.12460247 2.2377605
-0.17355299 0.12822309 2.2323241
-0.12446433 0.12714589 2.2156603
-0.08323162 0.12403006 2.2051139
-0.27184585 0.17232034 2.2418504
-0.22333811 0.17247979 2.2357433
-0.17356519 0.17630321 2.2302771
-0.12442897 0.17476228 2.2128201
-0.085090958 0.16503303 2.2024956
-0.27215117 0.22642162 2.2411916
-0.22267801 0.22543852 2.2349861
-0.17360198 0.22443497 2.227845
-0.12455375 0.222651 2.2122822
-0.09216854 0.20554245 2.2015314
-0.10663028 0.26410773 2.2241993
-0.073577136 0.27727008 2.2334764
0.087879695 0.25555292 2.2208741
0.10821295 0.25330731 2.2007434
0.4839564 0.27345917 2.2474318
0.51404214 0.27762088 2.2469423
0.57376641 0.28741005 2.2269142
0.6419943 0.28419343 2.2179339
0.67255187 0.28576049 2.2154534
0.73617762 0.29567102 2.2012348
-0.06350781 0.30819184 2.2462423
-0.026538547 0.32682642 2.2460175
0.58285463 0.32846805 2.2287157
0.62320244 0.33502701 2.2283711
0.6758793 0.32566106 2.2306252
0.72754085 0.32686272 2.2282784
0.75758076 0.32757062 2.2267623
0.58459651 0.36893278 2.2312202
0.63028318 0.37526926 2.2206187
0.67638403 0.37496716 2.2269008
0.72353202 0.37360054 2.2180932
0.75661916 0.37335661 2.2188671
0.54369372 0.43611556 2.2431586
0.5637545 0.42688656 2.2293022
0.67894822 0.42602164 2.2056489
0.7239539 0.42501432 2.2069612
0.75918293 0.41168863 2.2219052
0.54290265 0.47939411 2.2419126
0.55733013 0.47058615 2.2211204
0.67873019 0.4737024 2.2070458
0.72027236 0.45544803 2.206141
0.54028451 0.51542836 2.2417188
0.55273008 0.51155186 2.222116
0.67544389 0.51179177 2.2049437
-0.50934684 -0.50650966 2.2733159
-0.47196487 -0.51630598 2.2745092
-0.42904994 -0.51921999 2.2767575
-0.37298277 -0.5211727 2.2741802
-0.32463914 -0.51602167 2.2740138
-0.28625038 -0.50916946 2.2592828
-0.51844198 -0.47271886 2.2785041
-0.49361446 -0.49638233 2.2961507
-0.30916667 -0.473499 2.2906623
-0.27795571 -0.49530438 2.2615166
-0.55036527 -0.40925351 2.251406
-0.52919888 -0.42608607 2.2781074
-0.30854571 -0.42807642 2.2918391
-0.55044872 -0.38719341 2.2543507
-0.53601992 -0.37380818 2.2764223
-0.30818984 -0.38314882 2.2943671
-0.55951399 -0.31965956 2.2514315
-0.54021746 -0.32413295 2.2763226
-0.30726546 -0.32665294 2.293098
-0.55330032 -0.27246961 2.2614646
-0.53889817 -0.27327481 2.2816093
-0.30674797 -0.27634534 2.2934937
-0.86804771 -0.20612156 2.2887836
-0.81948835 -0.20769782 2.2650878
-0.79334152 -0.2031621 2.2713084
-0.55638325 -0.22890846 2.2553666
-0.54074031 -0.22424293 2.2811341
-0.30609694 -0.22611114 2.2921786
-0.2860727 -0.20935094 2.252372
-0.86703843 -0.19444886 2.2869852
-0.82262731 -0.17420013 2.2740808
-0.79412889 -0.17770278 2.2775128
-0.64893681 -0.17409395 2.291656
-0.56611466 -0.17668915 2.2778199
-0.53405857 -0.1739419 2.283535
-0.30546641 -0.17612132 2.2902598
-0.28634188 -0.17619562 2.2521951
-0.8190589 -0.12456729 2.2782357
-0.79105252 -0.12465825 2.2861347
-0.56862777 -0.12539642 2.2892582
-0.52870208 -0.12450093 2.2789912
-0.30487952 -0.12632728 2.2879789
-0.28918278 -0.135113 2.2518663
-0.82076073 -0.075689979 2.2741847
-0.7950812 -0.073447615 2.2815857
-0.64792699 -0.067264222 2.2917857
-0.56516093 -0.072327755 2.2884758
-0.52718621 -0.075747333 2.2773869
-0.30486736 -0.076879151 2.289278
-0.2888813 -0.075581223 2.2512321
-0.82274473 -0.028146563 2.2735353
-0.79556251 -0.016872615 2.2837591
-0.64828062 -0.027984478 2.2935524
-0.56358546 -0.027698956 2.2827613
-0.52711326 -0.027532315 2.2742665
-0.30419809 -0.027368937 2.2849681
-0.87525827 0.017245423 2.2809885
-0.82467651 0.020804463 2.2675331
-0.79312521 0.02271327 2.2766213
-0.64673579 0.022436123 2.2880793
-0.56303096 0.022263682 2.2805159
-0.52760655 0.022161821 2.2762868
-0.30801865 0.023599327 2.289716
-0.87408358 0.070694588 2.2881236
-0.82367986 0.073439531 2.265588
-0.79454499 0.073454283 2.2741191
-0.6455512 0.072737776 2.283165
-0.56397259 0.074444383 2.2835379
-0.52700293 0.075855516 2.2764833
-0.30816597 0.07858526 2.2899468
-0.82109451 0.12615107 2.2733731
-0.79528081 0.11999388 2.277169
-0.65031695 0.11834174 2.2987123
-0.64753777 0.11222605 2.2891226
-0.56899667 0.12174628 2.2896101
-0.5268659 0.12265699 2.2754591
-0.30488428 0.12641238 2.2878499
