ply
format ascii 1.0
comment PCL generated
element vertex 1419
property float x
property float y
property float z
element camera 0
property float view_px
property float view_py
property float view_pz
property float x_axisx
property float x_axisy
property float x_axisz
property float y_axisx
property float y_axisy
property float y_axisz
property float z_axisx
property float z_axisy
property float z_axisz
property float focal
property float scalex
property float scaley
property float centerx
property float centery
property int viewportx
property int viewporty
property float k1
property float k2
end_header
-0.60148317 -0.22607011 0.45966223
-0.57758451 -0.22357985 0.46780756
-0.52509141 -0.22472496 0.46067461
-0.47651154 -0.22516012 0.47413874
-0.60132575 -0.18802652 0.45763671
-0.57975143 -0.17622729 0.4663364
-0.5254072 -0.17474279 0.46011305
-0.4736419 -0.17854542 0.47326717
-0.60055232 -0.14994328 0.4657107
-0.57306451 -0.12639645 0.46679881
-0.52530432 -0.1247427 0.45995784
-0.47462487 -0.12802544 0.47534645
-0.56917816 -0.074861631 0.46609434
-0.52515239 -0.075459935 0.45957243
-0.48930851 -0.074237682 0.4569295
-0.56656355 -0.025720468 0.46471825
-0.52435255 -0.025336178 0.4583911
-0.491606 -0.030702513 0.45394588
-0.56579459 0.023941444 0.46389508
-0.52384573 0.024264622 0.45724711
-0.48970526 0.019319979 0.45524749
-0.56808287 0.075814083 0.46351692
-0.52623212 0.07389693 0.45634514
-0.48380888 0.071398258 0.46316782
-0.56910521 0.12772062 0.46207225
-0.52998728 0.12681581 0.45437446
-0.4541519 0.12856756 0.48767653
-0.57378864 0.17723894 0.4590621
-0.53146046 0.17498693 0.45352185
-0.45368695 0.17913434 0.48446816
-0.44934484 0.17800076 0.49811095
-0.56543273 0.22503054 0.45376027
-0.53502959 0.2263343 0.4522416
-0.45467404 0.2259721 0.4770737
-0.57264775 0.27295899 0.45718819
-0.53536159 0.27221251 0.45196715
-0.45511374 0.27471796 0.47335133
-0.44910517 0.27934331 0.49353135
-0.56454581 0.31309423 0.45682943
-0.53978807 0.32088676 0.45183408
-0.45478204 0.32463211 0.47218043
-0.44922134 0.32614684 0.49730712
-0.53559494 0.35121638 0.450021
-0.45428851 0.3745043 0.47296518
-0.44928721 0.37127653 0.49773449
-0.45399791 0.42403817 0.47212076
-0.4489679 0.42607525 0.49483922
-0.45297465 0.47095037 0.47641221
-0.44907388 0.47996971 0.49208167
-0.45124447 0.50517815 0.48489162
-0.44856581 0.50761253 0.49443951
-0.36428455 -0.50156301 0.51778245
-0.3241435 -0.50371057 0.52381581
-0.27714071 -0.50505328 0.52756655
-0.22792955 -0.50297207 0.53745544
-0.18728153 -0.50089186 0.53917545
-0.56692833 -0.48112941 0.53915697
-0.51813221 -0.48271757 0.52570069
-0.47550163 -0.49286452 0.52449131
-0.42400613 -0.49568096 0.52426869
-0.37968147 -0.49809667 0.52871519
-0.34899452 -0.49919245 0.54074997
-0.17662998 -0.49847898 0.5427537
-0.13029382 -0.49611846 0.54673749
0.040437941 -0.48833212 0.54984301
0.082171239 -0.49005568 0.54778355
0.12790687 -0.4901002 0.54368651
0.17692766 -0.49003881 0.53820479
0.22600654 -0.48998642 0.52939045
0.27500662 -0.49051401 0.52422601
0.32497633 -0.49107894 0.52524912
0.37432003 -0.49097338 0.52485335
0.42450166 -0.49132365 0.52382439
0.47343907 -0.49030417 0.5236544
0.52184886 -0.49109852 0.52616346
0.56901777 -0.4912928 0.5383966
-0.60305738 -0.40997961 0.51253653
-0.58285475 -0.41909981 0.51885396
-0.52423614 -0.42524314 0.53005129
-0.60170954 -0.38555995 0.50451559
-0.59247172 -0.38590813 0.51143062
-0.53114384 -0.3909359 0.5280053
-0.48667344 -0.35139292 0.50589776
-0.4716067 -0.32129613 0.52444738
-0.46940812 -0.27449614 0.52514839
-0.46494693 -0.2250466 0.52410012
-0.45975006 -0.17495473 0.52555132
-0.45705155 -0.12682667 0.52491045
-0.45431691 -0.079631105 0.53007931
-0.44952294 -0.075231798 0.54767936
-0.45229259 -0.034788482 0.53111994
-0.44893789 -0.02594156 0.5464474
-0.45203042 0.030444995 0.52424991
-0.44790211 0.031268563 0.54220718
-0.45156834 0.078839295 0.51114297
-0.44680598 0.078239873 0.53534687
-0.45106977 0.12876138 0.5071044
-0.44618699 0.12558937 0.53070122
-0.45089644 0.16879418 0.50623775
-0.44557458 0.17732422 0.52940035
-0.45059898 0.22437064 0.50372571
-0.44562745 0.22494498 0.52557051
-0.4506909 0.27062693 0.50251234
-0.44518465 0.27465296 0.52556324
-0.45073247 0.30679601 0.50004429
-0.44501728 0.32383314 0.52467328
-0.45078397 0.37832627 0.50098705
-0.44468907 0.37407377 0.52597749
-0.4449088 0.4246695 0.52473676
-0.45074326 0.47399122 0.50080466
-0.44470379 0.47420621 0.52503777
-0.44378886 0.51663744 0.52878183
-0.35742298 -0.50068122 0.56606537
-0.32067174 -0.501481 0.56993461
-0.27477631 -0.50279093 0.57307279
-0.22751686 -0.50159031 0.5719862
-0.18794879 -0.50065243 0.56322837
-0.14888701 -0.5000608 0.55396283
-0.5683642 -0.4693757 0.56537801
-0.52456653 -0.49285135 0.57962734
-0.47470587 -0.49313465 0.57452714
-0.42537591 -0.49339914 0.57468879
-0.37544554 -0.49659768 0.57561481
-0.33167693 -0.4987652 0.58550829
-0.27506316 -0.49943781 0.59508508
-0.218246 -0.499006 0.5802117
-0.17350394 -0.49796179 0.57446259
-0.12480337 -0.49603119 0.57474637
-0.075405568 -0.49426255 0.57470375
-0.025561608 -0.49248713 0.57659143
0.024613677 -0.49079633 0.57545769
0.075123623 -0.49000052 0.57426202
0.12480923 -0.48913127 0.57392746
0.17437968 -0.48871207 0.57516748
0.22428457 -0.48871458 0.57466328
0.27419773 -0.48889783 0.5750162
0.32426956 -0.48874766 0.57446414
0.37374938 -0.48896229 0.57452828
0.42438003 -0.48883566 0.57487434
0.47491238 -0.48884246 0.57506698
0.52494675 -0.48959768 0.57511491
0.57439905 -0.48965883 0.57335609
0.62124139 -0.48920542 0.57749689
0.66793531 -0.49035004 0.59023619
0.70236403 -0.48978168 0.59975612
-0.56859916 -0.42972264 0.56235033
-0.5412696 -0.42454889 0.56433415
-0.53456819 -0.39886281 0.55242324
-0.46243417 -0.32157442 0.57399738
-0.45989484 -0.27489564 0.57508552
-0.45599619 -0.22453476 0.5735383
-0.44935358 -0.20407309 0.59617049
-0.45300955 -0.17802213 0.56730211
-0.44806626 -0.16938935 0.59004295
-0.45163462 -0.12607159 0.55773163
-0.44720173 -0.1235438 0.5813024
-0.45119646 -0.078462511 0.55394971
-0.44609496 -0.075488538 0.57816285
-0.45081311 -0.043399759 0.55528307
-0.44418034 -0.025308123 0.57682198
-0.44264749 0.024422374 0.575284
-0.44079095 0.075304665 0.57450211
-0.43942037 0.12517804 0.57435948
-0.43801457 0.17487669 0.57439041
-0.43750885 0.22474363 0.57403451
-0.43682364 0.27450994 0.57462192
-0.43615136 0.32498211 0.57446533
-0.43598813 0.37431493 0.57525057
-0.43567753 0.42421925 0.57474375
-0.43560132 0.47464466 0.57437384
-0.43558377 0.52451473 0.57510751
-0.43565065 0.55477268 0.58179128
-0.30484638 -0.50185883 0.60751456
-0.27459884 -0.50064635 0.61494356
-0.23191766 -0.50071746 0.60951239
-0.18365711 -0.50054187 0.61561239
-0.5614208 -0.46914729 0.6262821
-0.52582437 -0.49041677 0.62508398
-0.47436923 -0.49257088 0.62457061
-0.42391598 -0.49148652 0.62570512
-0.37498078 -0.49394464 0.6247263
-0.32525292 -0.49759597 0.62567544
-0.27426139 -0.49858585 0.62868559
-0.22392784 -0.49797553 0.6240446
-0.17504512 -0.49757606 0.62561023
-0.12458743 -0.49516037 0.62520081
-0.074843012 -0.49326435 0.62384003
-0.025243642 -0.49165171 0.62499821
0.024280557 -0.49041614 0.62466705
0.074816197 -0.48941687 0.62492567
0.12481163 -0.48902002 0.62503642
0.17490178 -0.48794255 0.62561595
0.2257202 -0.48756644 0.62443173
0.27525857 -0.48749888 0.62393582
0.32448965 -0.48724934 0.62443501
0.37471202 -0.48667201 0.62412775
0.42523146 -0.4863947 0.62483013
0.47444084 -0.48645836 0.62438774
0.52544695 -0.4873569 0.6251744
0.57444823 -0.48770288 0.62292635
0.62610364 -0.48859718 0.62543261
0.67473638 -0.48837236 0.62437207
0.72296047 -0.48859671 0.63003117
0.75924587 -0.48770151 0.64113599
-0.56945741 -0.43400323 0.63415021
-0.45435205 -0.32194379 0.61878246
-0.44841418 -0.31961036 0.64300734
-0.45273426 -0.27761045 0.61405617
-0.44782045 -0.27099699 0.63663429
-0.45148608 -0.23439708 0.60642678
-0.44585121 -0.223242 0.62882352
-0.4429616 -0.17483714 0.62536675
-0.4406794 -0.1251941 0.62391233
-0.43863291 -0.075452805 0.62517339
-0.4365699 -0.025866827 0.6252079
-0.43456113 0.024455842 0.62482184
-0.43320131 0.075284168 0.62405694
-0.43149444 0.12479988 0.62406147
-0.43018216 0.17481928 0.6246171
-0.42910191 0.22461696 0.62391138
-0.42833626 0.27467659 0.62469053
-0.42725796 0.32456887 0.62471807
-0.42671582 0.37460464 0.62439018
-0.42661601 0.42532951 0.62562954
-0.42602399 0.47521681 0.62421232
-0.42623359 0.52467752 0.62454617
-0.46090209 0.59625268 0.61566621
-0.42858323 0.55650944 0.62381381
-0.30321547 -0.50015491 0.67358518
-0.23770818 -0.50025803 0.65399891
-0.55544633 -0.46178293 0.67062968
-0.5290153 -0.4841269 0.67616546
-0.47481823 -0.49154103 0.67601502
-0.42384392 -0.49018016 0.6762436
-0.37394887 -0.49112856 0.67327368
-0.325894 -0.49508852 0.67490608
-0.27468467 -0.49654937 0.67455798
-0.22466481 -0.49580705 0.67399508
-0.17469808 -0.49569625 0.67532253
-0.12537162 -0.49484864 0.67523938
-0.074996307 -0.49305552 0.67490721
-0.025706328 -0.4918409 0.67532766
0.024710666 -0.49041128 0.67420441
0.07504674 -0.4893291 0.67581135
0.12512079 -0.48799729 0.67383552
0.17467953 -0.48745069 0.67439175
0.22422442 -0.48658735 0.67471898
0.274391 -0.48622221 0.67368215
0.32426414 -0.48571494 0.67385727
0.37460503 -0.48544297 0.67446131
0.4242923 -0.48485902 0.67497975
0.47458601 -0.48468497 0.67477703
0.52386379 -0.48559105 0.67415357
0.57397693 -0.48615631 0.67485332
0.6241253 -0.48677197 0.67461282
0.67567086 -0.48670396 0.67580885
0.72381431 -0.4872236 0.67606401
0.77417672 -0.48801652 0.67394799
0.81988668 -0.48749644 0.68256378
0.86321157 -0.48875564 0.69800156
-0.56080574 -0.43530378 0.67428446
-0.44260943 -0.31987464 0.67464924
-0.44120374 -0.27504027 0.67434317
-0.43786007 -0.22478957 0.67486048
-0.43464151 -0.17450227 0.67491192
-0.43268546 -0.12408794 0.67410195
-0.4304927 -0.074119069 0.67465341
-0.42859933 -0.025516482 0.67444789
-0.42649001 0.024535762 0.67466724
-0.42541352 0.07425984 0.67468268
-0.42398953 0.12471058 0.67365527
-0.4222486 0.17505065 0.67510498
-0.42104512 0.22500396 0.67394513
-0.42003909 0.27445644 0.67478204
-0.41878226 0.3247619 0.67500377
-0.41795689 0.37492925 0.67464429
-0.41744757 0.42482325 0.67535269
-0.41721988 0.47501591 0.67529768
-0.4172065 0.52463013 0.67393607
-0.41935253 0.55730629 0.67551577
-0.55012178 -0.45681363 0.70553285
-0.52915841 -0.47481537 0.72442943
-0.47546849 -0.48938224 0.72425812
-0.42417583 -0.48908958 0.72506946
-0.37419176 -0.48914996 0.72430366
-0.324238 -0.49178937 0.72472137
-0.27451625 -0.49296466 0.72454613
-0.22471286 -0.49307537 0.72482049
-0.17465606 -0.49385551 0.72584075
-0.12431432 -0.49311623 0.72484589
-0.075267978 -0.49216303 0.72444701
-0.025134306 -0.49137315 0.72425187
0.025556343 -0.49027079 0.7249763
0.07544332 -0.48925391 0.72436947
0.12495004 -0.48846883 0.7242772
0.17519042 -0.48680374 0.72270244
0.22595015 -0.4861204 0.72353059
0.2744377 -0.48512021 0.72399688
0.32431802 -0.48441157 0.72424573
0.37500218 -0.48390889 0.72340715
0.42441216 -0.48333535 0.7261622
0.47421503 -0.48326021 0.72485316
0.52463645 -0.4835642 0.72288764
0.57521898 -0.48408175 0.72575134
0.62428707 -0.48395529 0.72413802
0.67481321 -0.48501593 0.72617757
0.7242499 -0.48524106 0.72534662
0.77500623 -0.48679516 0.72278076
0.82258719 -0.48773521 0.72418064
0.86882931 -0.48747396 0.72573799
0.91724598 -0.4898164 0.73987079
-0.55316269 -0.43271333 0.70993072
-0.54667097 -0.4345223 0.73312169
-0.43275818 -0.32042596 0.7248255
-0.43147519 -0.27500111 0.72406709
-0.42904761 -0.2243275 0.72491109
-0.42623809 -0.17397763 0.7242322
-0.42394248 -0.12467282 0.72474343
-0.42215952 -0.075471126 0.72482687
-0.42030054 -0.0259731 0.72502196
-0.41838396 0.023209833 0.72411335
-0.4168514 0.074949853 0.7247659
-0.41626152 0.1249216 0.72483373
-0.41476557 0.17498362 0.72536534
-0.41333348 0.22503407 0.72445387
-0.41208667 0.27580509 0.72430873
-0.41072956 0.32476577 0.72414303
-0.40953839 0.37416986 0.72418082
-0.40870938 0.42379329 0.72529268
-0.40825802 0.4741278 0.72568023
-0.40776291 0.52362818 0.7247752
-0.40907231 0.55489767 0.72566056
-0.52229488 0.69271529 0.72929347
-0.52442241 0.70483708 0.74032575
-0.52278823 -0.47086573 0.77427369
-0.47505867 -0.48743975 0.7750988
-0.42487934 -0.48758429 0.77415866
-0.37389737 -0.48708534 0.77601862
-0.32479095 -0.4883602 0.77469981
-0.2752226 -0.48961717 0.77494377
-0.22497956 -0.49069527 0.77544343
-0.17606965 -0.49143434 0.77466661
-0.12573971 -0.49100032 0.77524281
-0.075443156 -0.49068272 0.77427888
-0.026527822 -0.49003205 0.77396548
0.023735475 -0.48975116 0.77371317
0.074328065 -0.48886183 0.77440089
0.12452598 -0.48781282 0.77357244
0.17402598 -0.48686987 0.77475774
0.22450708 -0.48597127 0.77426916
0.27497777 -0.48488781 0.77418429
0.32557663 -0.48377886 0.77526331
0.3752239 -0.48311353 0.77434611
0.42475435 -0.48232794 0.77418399
0.47396076 -0.48150262 0.77488911
0.52399343 -0.48222399 0.77452034
0.57466269 -0.48263773 0.77436626
0.62458724 -0.48218328 0.77407444
0.67527276 -0.48287785 0.77495813
0.72616398 -0.48465183 0.77457792
0.77375376 -0.48513639 0.77466148
0.82423031 -0.48589355 0.77502573
0.87244081 -0.48643443 0.77496374
0.92216092 -0.48672032 0.7730543
0.97120887 -0.48616341 0.7810815
1.015252 -0.48492318 0.79147726
-0.53794366 -0.43412817 0.77410388
-0.42257816 -0.32006276 0.77521372
-0.42180654 -0.27532679 0.77512372
-0.41955265 -0.22509168 0.77501428
-0.41746494 -0.17488052 0.77318609
-0.4152101 -0.125111 0.77530372
-0.41342342 -0.074843779 0.77492934
-0.41159666 -0.02639308 0.77556682
-0.40991941 0.024637459 0.77441567
-0.40892285 0.074962616 0.77558261
-0.40839547 0.12462421 0.77474928
-0.40688479 0.17418042 0.77535355
-0.40554634 0.22450078 0.77362621
-0.39989227 0.23224065 0.79653949
-0.40451548 0.2739222 0.7734617
-0.39894727 0.27797845 0.7959826
-0.40387058 0.32324797 0.76906049
-0.39887524 0.32858384 0.79262263
-0.40317822 0.37305343 0.76528347
-0.39835197 0.37728176 0.78796703
-0.40258715 0.42342156 0.76404387
-0.39801544 0.42590791 0.78468865
-0.402064 0.47280976 0.76180315
-0.39747488 0.47616124 0.78526348
-0.40167251 0.52613991 0.760481
-0.39702496 0.52220058 0.78364313
-0.40256914 0.55309367 0.76028717
-0.39663434 0.55250388 0.78882152
-0.51191282 0.6901421 0.77986366
-0.51902044 0.71628141 0.77919251
-0.51544011 -0.46736318 0.82289368
-0.47595307 -0.48479587 0.82590926
-0.42522076 -0.4863345 0.82402366
-0.37506023 -0.48507708 0.82590574
-0.32493037 -0.48554853 0.82418418
-0.27516136 -0.48669532 0.82565254
-0.22536416 -0.4878912 0.82507271
-0.17492422 -0.4888241 0.82395232
-0.12533191 -0.48871762 0.82452947
-0.074280605 -0.48848638 0.82413948
-0.024618085 -0.4888244 0.82560575
0.024552172 -0.48801908 0.82312989
0.075348243 -0.48732802 0.82420802
0.12517349 -0.48661175 0.82233006
0.17509638 -0.48571208 0.8247332
0.22325714 -0.48469234 0.82578647
0.27471286 -0.48405707 0.82364953
0.32541922 -0.48288521 0.82519001
0.37511176 -0.48214614 0.82399714
0.42403936 -0.48141482 0.82347733
0.47484383 -0.48052937 0.82471156
0.52434671 -0.48045039 0.82532579
0.57378399 -0.48017645 0.82399786
0.62608606 -0.48086566 0.82649285
0.67276907 -0.48066977 0.82377571
0.72389358 -0.48225039 0.82652408
0.77549201 -0.48283464 0.82491922
0.82399064 -0.48265365 0.82408047
0.8746171 -0.48413929 0.82310027
0.92446834 -0.48514694 0.82247716
0.9754203 -0.48471901 0.82596058
1.027819 -0.48523039 0.82611835
1.0731816 -0.48381716 0.83511132
-0.52712309 -0.43309 0.82354355
-0.41282156 -0.31985143 0.82462245
-0.4116177 -0.27474096 0.82491893
-0.40997151 -0.22455764 0.82426673
-0.40806741 -0.17557712 0.82425165
-0.40555158 -0.12514918 0.82539171
-0.40485689 -0.074675322 0.82374692
-0.39972979 -0.084445611 0.84906232
-0.40370363 -0.025981918 0.82116169
-0.39841798 -0.019956 0.84418106
-0.40306467 0.022203151 0.8168816
-0.39848155 0.025260743 0.84067172
-0.40237081 0.07499373 0.81450969
-0.39801809 0.074719071 0.83534837
-0.40247551 0.12118366 0.81411541
-0.39791754 0.12999527 0.83674377
-0.40164816 0.17213604 0.81062752
-0.39716104 0.17709331 0.83282572
-0.40121505 0.22010326 0.80676723
-0.39647755 0.22581217 0.82855684
-0.4009206 0.29406509 0.80529225
-0.39520925 0.27406496 0.82617158
-0.39414835 0.32489631 0.82423615
-0.39268011 0.37418082 0.82523519
-0.39157072 0.42438415 0.82388008
-0.39038128 0.47475207 0.82404333
-0.39026707 0.52392542 0.82369238
-0.39189416 0.55454808 0.82048661
-0.50533462 0.69275248 0.82339525
-0.49778324 0.68733549 0.84970134
-0.51122183 0.72497684 0.82559097
-0.51095772 0.75794846 0.83539808
-0.50852054 -0.46389613 0.87090576
-0.47620934 -0.48216069 0.87538189
-0.42451304 -0.48515567 0.87398446
-0.37364128 -0.48355114 0.87629223
-0.3242211 -0.48272726 0.87273484
-0.2753222 -0.48414809 0.87563211
-0.22485797 -0.48488185 0.87520891
-0.17455958 -0.48584759 0.87600803
-0.12441125 -0.48647469 0.87456173
-0.075650878 -0.48666444 0.8738125
-0.025974451 -0.48709175 0.87449729
0.024143578 -0.48712173 0.87495923
0.074545607 -0.48634619 0.87320524
0.12401877 -0.48602268 0.87298566
0.17472404 -0.48455924 0.87316823
0.2266217 -0.48371539 0.87556702
0.27619404 -0.48328042 0.87422705
0.32372731 -0.48233804 0.87496549
0.37418777 -0.48146605 0.87388074
0.42498922 -0.48060781 0.87333691
0.47465399 -0.4803251 0.87429613
0.52536142 -0.48015797 0.87491465
0.57463169 -0.47975665 0.87514645
0.62293553 -0.47929978 0.87777686
0.67394036 -0.4799284 0.87476802
0.72446585 -0.48024449 0.8757382
0.77842826 -0.48205566 0.87643719
0.82475972 -0.4808473 0.87662834
0.87268937 -0.48208174 0.87141889
0.92408079 -0.48426214 0.87347198
0.97372794 -0.48572508 0.8771382
1.0251933 -0.48495042 0.87256891
1.0771027 -0.48505047 0.87783402
1.122046 -0.48448911 0.87858522
1.1600486 -0.4868364 0.89328265
-0.51643288 -0.43184954 0.87298822
-0.40380895 -0.31912556 0.86500907
-0.39867282 -0.31792614 0.88888514
-0.40336454 -0.27511317 0.8673597
-0.39803523 -0.27534035 0.89022636
-0.40256837 -0.22643131 0.86215997
-0.39733878 -0.22412682 0.88601834
-0.40148115 -0.18213141 0.86030221
-0.39618227 -0.17233181 0.87931973
-0.40076992 -0.13147472 0.85614133
-0.39535376 -0.12462965 0.87656951
-0.40094635 -0.06402006 0.85287428
-0.39457756 -0.075328171 0.87567461
-0.40047497 -0.043574624 0.85284448
-0.39352912 -0.026748085 0.87430787
-0.39202529 0.024499532 0.87362528
-0.39081892 0.07563284 0.8745755
-0.39191386 0.12527119 0.87416196
-0.34728953 0.1456034 0.87123102
-0.39028257 0.17518272 0.87544191
-0.38848931 0.2246543 0.873743
-0.38667497 0.27496031 0.87587661
-0.38507637 0.32327032 0.87586123
-0.38385928 0.37423179 0.87503374
-0.38302633 0.42490533 0.87397254
-0.38191795 0.47378603 0.87453991
-0.38178974 0.52494341 0.87386799
-0.38258877 0.55638611 0.87841034
-0.49784321 0.69817007 0.8860333
-0.50344652 0.72694165 0.86979806
-0.49820456 0.71730918 0.88880962
-0.50504273 0.77198493 0.87514544
-0.49956748 0.76436019 0.89634824
-0.50306904 0.80071193 0.89221656
-0.50329387 -0.4587709 0.91532958
-0.47985482 -0.47542715 0.92641133
-0.42512518 -0.48404238 0.92510211
-0.3740899 -0.48170099 0.92563313
-0.32388976 -0.48129866 0.92447418
-0.2735875 -0.48157331 0.92441565
-0.22304969 -0.48216492 0.92475671
-0.17453825 -0.48294657 0.92551023
-0.12496439 -0.48435882 0.92615068
-0.074252769 -0.48543239 0.92284375
-0.026058221 -0.48593381 0.92356771
0.025204053 -0.48641849 0.92558646
0.075662829 -0.48577657 0.92474449
0.12524481 -0.4848415 0.92257929
0.17370597 -0.48385942 0.92354506
0.22295912 -0.48297349 0.92373294
0.27369002 -0.48260802 0.92467409
0.32647631 -0.48209688 0.92423791
0.37559831 -0.48120749 0.92449903
0.42435268 -0.48133358 0.92467183
0.47457373 -0.4801915 0.92260677
0.5256592 -0.47946182 0.92514342
0.57557607 -0.47941479 0.9245888
0.62613136 -0.47954503 0.92700058
0.6749748 -0.47986981 0.92316836
0.72406083 -0.48022124 0.92403609
0.77463359 -0.48005077 0.92561305
0.8241843 -0.48026338 0.92307824
0.87576318 -0.48226625 0.92569101
0.92605382 -0.48260796 0.9245711
0.97380847 -0.48548958 0.92797023
1.0242976 -0.48558423 0.92573828
1.0795186 -0.48509774 0.92298931
1.1272281 -0.48513073 0.92214572
1.1728505 -0.4858844 0.92571932
1.2241825 -0.48753521 0.94145012
-0.5059287 -0.43220574 0.92266923
-0.49927029 -0.44798493 0.94266844
-0.40006441 -0.33905247 0.90174085
-0.39233902 -0.31922907 0.923796
-0.39150867 -0.27500704 0.92263556
-0.3906185 -0.22515173 0.92069834
-0.38823062 -0.17495823 0.91901791
-0.3869122 -0.12556636 0.9194507
-0.38368437 -0.073941037 0.91705513
-0.38254341 -0.02583559 0.91572404
-0.38112119 0.023098681 0.91334265
-0.38065833 0.073446095 0.91521871
-0.38205746 0.12445287 0.91806066
-0.38055676 0.1747023 0.91762298
-0.37847796 0.22479057 0.91585654
-0.37708294 0.27417776 0.91747588
-0.37549019 0.32600585 0.9163183
-0.37411985 0.37453416 0.91537815
-0.37371027 0.42345247 0.91437674
-0.3727029 0.47488755 0.91461271
-0.37184089 0.52452624 0.91400397
-0.37327188 0.55488765 0.91122848
-0.48797739 0.69249344 0.91661596
-0.49413091 0.72605705 0.92450058
-0.50037003 0.77848536 0.90631306
-0.49535829 0.77178413 0.92674202
-0.50061232 0.80788291 0.91012371
-0.4958581 0.81354713 0.93045026
-0.47622469 -0.46976879 0.97496486
-0.42638648 -0.48236835 0.97696239
-0.37591001 -0.48046309 0.97538513
-0.32502452 -0.47940022 0.97269803
-0.2751621 -0.47889465 0.97432184
-0.22560181 -0.47959542 0.97574234
-0.17570877 -0.48042887 0.97358459
-0.12577017 -0.48261163 0.9762677
-0.076700591 -0.48405731 0.97414887
-0.025656238 -0.48482481 0.97476631
0.023580655 -0.48543957 0.97601146
0.074024953 -0.484981 0.97470421
0.12561674 -0.48495421 0.97422969
0.17425169 -0.48392493 0.97327536
0.22519177 -0.48307604 0.97415221
0.27511534 -0.48332936 0.97608578
0.32336095 -0.48246506 0.97410911
0.3749893 -0.48208821 0.97194678
0.42667419 -0.481823 0.97670895
0.47412616 -0.48145404 0.97452515
0.52346015 -0.4804804 0.97593641
0.5750078 -0.48024446 0.97392881
0.62382811 -0.4806931 0.97331244
0.67531639 -0.480735 0.97242016
0.72550309 -0.48079893 0.97428334
0.77406073 -0.48132309 0.97825927
0.825207 -0.4806374 0.97414428
0.87589455 -0.4821817 0.97143239
0.92648005 -0.48353291 0.97462171
0.97988051 -0.48562145 0.97602063
1.0207535 -0.48641843 0.97111928
1.0716558 -0.48768875 0.97245324
1.1230351 -0.48501778 0.97397625
1.1800846 -0.48669225 0.97184908
1.2252264 -0.48756754 0.97501659
1.2793274 -0.49022999 0.97231305
1.3141742 -0.48922524 0.99284273
-0.50142962 -0.43001142 0.95733464
-0.49315467 -0.43096888 0.97752011
-0.39471185 -0.34574434 0.95676702
-0.38872066 -0.29608235 0.95303035
-0.38955736 -0.23194361 0.95370293
-0.47713363 0.69066817 0.98038638
-0.48674524 0.72445589 0.97485167
-0.48820627 0.77383572 0.97432029
-0.48993313 0.82315719 0.96967059
-0.48758411 0.85644072 0.98863411
-0.46983787 -0.46690336 1.0249468
-0.4262937 -0.48031384 1.0268871
-0.37381107 -0.47986022 1.0226781
-0.32415164 -0.4780966 1.0245229
-0.27427754 -0.47746304 1.025664
-0.22547139 -0.47728431 1.0272422
-0.17341457 -0.47860047 1.0242789
-0.1237964 -0.48122165 1.0253551
-0.073026702 -0.48246574 1.0264261
-0.024903065 -0.48382378 1.0253265
0.024856817 -0.48458681 1.0241201
0.075617731 -0.48454231 1.0223378
0.12369084 -0.48497057 1.0233265
0.17511344 -0.48432228 1.0234716
0.22312354 -0.48425061 1.0229484
0.27422819 -0.48431951 1.0263066
0.325596 -0.48369455 1.021487
0.37466696 -0.48393133 1.0223143
0.42130929 -0.48203537 1.0248415
0.47417966 -0.48295876 1.0260875
0.52433115 -0.48142684 1.0238448
0.57654673 -0.48187312 1.0254128
0.62252158 -0.48128736 1.0199903
0.67491049 -0.48257786 1.0230604
0.72302991 -0.48243293 1.0241294
0.77375621 -0.48297533 1.0233732
0.82435215 -0.48379523 1.0242349
0.87493241 -0.48416302 1.0236638
0.92828578 -0.48569244 1.0241911
0.97250664 -0.4898811 1.0282773
1.0218154 -0.49034688 1.0269605
1.073437 -0.48930359 1.0239179
1.1249106 -0.48948929 1.0249349
1.1831263 -0.49173909 1.0274884
1.2242221 -0.49085349 1.0215518
1.2708752 -0.49138165 1.0204351
1.3155696 -0.49693146 1.0260494
1.3636023 -0.49693272 1.0197737
-0.48347798 -0.4319503 1.0258092
-0.47472247 0.69677013 1.0188254
-0.47980651 0.72647446 1.0219505
-0.48050258 0.77534014 1.0234001
-0.4816325 0.82346517 1.021421
-0.48094133 0.8703841 1.0264872
1.2304227 -0.50286031 1.0943154
1.3452359 -0.50475395 1.0722256
-0.46266088 -0.46358311 1.0735875
-0.42632762 -0.478964 1.0768058
-0.37683105 -0.47980854 1.0740392
-0.32304183 -0.47645125 1.0758617
-0.27411321 -0.47554263 1.0762538
-0.2256439 -0.47469616 1.0736271
-0.17614272 -0.47625387 1.0724624
-0.12546317 -0.4792937 1.0729971
-0.075395651 -0.48259827 1.0779154
-0.026662776 -0.48424512 1.0756394
0.024336129 -0.48523971 1.0759084
0.074442804 -0.48532763 1.0730642
0.12610945 -0.48606318 1.0755411
0.17665003 -0.48657626 1.0729554
0.22603267 -0.4856824 1.0727856
0.27665815 -0.4854359 1.0759089
0.32383969 -0.48569369 1.0753343
0.37389314 -0.48462364 1.0730679
0.42526445 -0.4845877 1.0741619
0.47589406 -0.48367 1.0733584
0.52262133 -0.48332492 1.0729978
0.5732469 -0.48461229 1.0757024
0.62781519 -0.48595765 1.0712787
0.67569166 -0.48489615 1.0763363
0.72936773 -0.48591796 1.0727518
0.77367467 -0.48689634 1.0754554
0.82160014 -0.48783627 1.0731113
0.87480634 -0.48863021 1.0703353
0.92698753 -0.49008751 1.0691019
0.9766767 -0.49127236 1.0766625
1.0260463 -0.49173427 1.0746536
1.0720164 -0.49027705 1.0690882
1.1257358 -0.49341416 1.0700095
1.1664981 -0.49335 1.0696963
1.2251381 -0.49453211 1.062241
1.2567595 -0.49053416 1.0515029
-0.47436133 -0.43215558 1.0729021
-0.459636 0.68896508 1.0802559
-0.47252482 0.72527802 1.0740508
-0.47291285 0.77221924 1.0718009
-0.47315934 0.82663697 1.0728185
-0.47364351 0.87464428 1.0764705
-0.47249281 0.91424197 1.0802668
1.0215702 -0.50133359 1.1334999
1.0793869 -0.50067914 1.1316854
1.1306437 -0.50269294 1.1356372
1.1811626 -0.50310457 1.139998
1.2304918 -0.50458157 1.1242232
1.258122 -0.50638527 1.1218837
-0.46207801 -0.4659372 1.1259962
-0.42509726 -0.47858837 1.1257837
-0.37339455 -0.47878233 1.1250004
-0.3252092 -0.47477266 1.1224691
-0.27616474 -0.47281232 1.1266308
-0.22452062 -0.47387376 1.1271635
-0.17577197 -0.47606713 1.1237731
-0.12532499 -0.47898653 1.1242729
-0.075613193 -0.48310864 1.1242245
-0.025643256 -0.48483959 1.1233065
0.024262223 -0.4861466 1.1245185
0.074913405 -0.48663294 1.1240468
0.12541302 -0.4869062 1.1255679
0.17478582 -0.48790088 1.121496
0.22708438 -0.48809811 1.1263722
0.27529448 -0.48746872 1.1219047
0.32554549 -0.48752096 1.1245866
0.37263131 -0.48729384 1.1259776
0.42605799 -0.48766902 1.1239964
0.47298864 -0.48717672 1.123093
0.52733952 -0.48844951 1.1264644
0.57497364 -0.48789117 1.123484
0.62545913 -0.48876309 1.1236702
0.66815209 -0.48892415 1.1244607
0.71930289 -0.48990703 1.1225328
0.77110749 -0.49071011 1.1252207
0.8241604 -0.49412349 1.1283826
0.87066585 -0.49311867 1.1234021
0.92707944 -0.49485472 1.1198854
0.97663152 -0.49750501 1.1296401
1.0386593 -0.49724245 1.1272904
1.0751262 -0.4961856 1.1170874
1.1276376 -0.49763522 1.1113803
1.1544651 -0.49831295 1.1193627
-0.46835041 -0.43451872 1.1111954
-0.45564166 0.69547409 1.1077081
-0.46226645 0.72583568 1.1117029
-0.46578273 0.7738533 1.1116974
-0.46631578 0.82226145 1.1135662
-0.46562517 0.87657315 1.1156659
-0.46341723 0.92254364 1.1141757
-0.4628832 0.9574067 1.1257615
0.70355415 -0.50108802 1.1973845
0.82677889 -0.50204557 1.1928487
0.89111882 -0.50133473 1.1824292
0.92920935 -0.50239825 1.1821377
0.9679988 -0.50433505 1.1916157
1.0236458 -0.50313348 1.1694098
1.0569803 -0.50478506 1.1819872
1.1357977 -0.50758368 1.1630411
1.1673656 -0.50599313 1.1735998
1.2286705 -0.50998276 1.1775254
1.2612921 -0.51426446 1.1933031
-0.46844548 -0.47370362 1.1764035
-0.4240973 -0.48033229 1.1765753
-0.37065974 -0.47730392 1.1714932
-0.32336572 -0.47430858 1.1716467
-0.27317768 -0.47378665 1.1772091
-0.22474742 -0.47329304 1.1763127
-0.17295037 -0.47729412 1.1793114
-0.12328928 -0.4802914 1.1753334
-0.074612685 -0.48415551 1.1720642
-0.024416301 -0.48586908 1.1727983
0.022378275 -0.48702991 1.1719314
0.075071909 -0.48867634 1.1784053
0.12428583 -0.4897528 1.1779232
0.17682369 -0.49040446 1.1712986
0.22400032 -0.49028432 1.1768695
0.2755653 -0.49061513 1.1745406
0.3251943 -0.49157885 1.1749088
0.37821853 -0.4898603 1.172899
0.42371589 -0.49122474 1.1744757
0.47491616 -0.49065962 1.1736956
0.5248071 -0.49187276 1.1778424
0.57262719 -0.49276263 1.1751453
0.62449557 -0.49289525 1.1726397
0.67636073 -0.49439493 1.1676435
0.72446668 -0.49441624 1.1687741
0.77303857 -0.49533081 1.1703938
0.83443528 -0.49677899 1.1667281
0.86736214 -0.49745426 1.1704527
1.0243212 -0.4979496 1.1798983
0.36735004 -0.50034285 1.2441134
0.44140938 -0.50151122 1.2491522
0.58363259 -0.50148845 1.2469918
0.6154893 -0.50201076 1.2367393
0.67551857 -0.50280309 1.2272029
0.73151374 -0.50317073 1.2341466
0.77497351 -0.50382948 1.2303947
0.82549268 -0.50460672 1.2104774
0.86891049 -0.50636917 1.226532
0.92041779 -0.50552285 1.2060418
0.97396421 -0.50873768 1.2258303
1.0897803 -0.51641774 1.2360066
1.2382512 -0.5225575 1.2376696
-0.50354612 -0.46617621 1.2329829
-0.47464436 -0.47700247 1.2236966
-0.42434514 -0.48126894 1.2239724
-0.37564307 -0.47917011 1.2223666
-0.32325786 -0.47599456 1.2261691
-0.27618954 -0.4736141 1.2231022
-0.22549526 -0.47502983 1.2228329
-0.17690317 -0.47763649 1.22544
-0.12659569 -0.48108593 1.2231623
-0.075800471 -0.48482609 1.2221038
-0.027907372 -0.48795736 1.2248837
0.025196381 -0.48829204 1.2197859
0.074681282 -0.48990279 1.2238767
0.12418423 -0.49104494 1.2240213
0.17425455 -0.49353868 1.2222017
0.22750883 -0.49465027 1.2292547
0.27169684 -0.49394739 1.2267424
0.32451123 -0.49408996 1.2247357
0.37350807 -0.49502036 1.2288078
0.42597824 -0.49496397 1.221885
0.47460455 -0.49457425 1.2173992
0.52623409 -0.49679154 1.2271845
0.56983721 -0.49538583 1.2194765
0.61276811 -0.49715286 1.2238932
0.67252004 -0.49828243 1.2138844
0.70801467 -0.49754724 1.2071726
0.76237464 -0.4999727 1.2121824
0.82446325 -0.49956542 1.2027869
0.22307894 -0.50135982 1.289253
0.26511168 -0.50080085 1.2822423
0.32027754 -0.50059235 1.2728213
0.37724677 -0.5017814 1.2844576
0.41747153 -0.50113285 1.2688649
0.47033861 -0.50090271 1.2724334
0.5245406 -0.50248772 1.278542
0.58008045 -0.50249481 1.2776027
0.62046808 -0.50336361 1.2777224
0.67363822 -0.50579703 1.275334
0.71697968 -0.50584447 1.2719001
0.78451031 -0.50821656 1.2724462
0.97830552 -0.51034307 1.2591029
-0.51114994 -0.47426364 1.2763994
-0.4702934 -0.48210198 1.276328
-0.42663521 -0.48418832 1.2763082
-0.37532809 -0.48082206 1.2773583
-0.32481316 -0.47745839 1.2764083
-0.27392414 -0.47643021 1.2716476
-0.22608741 -0.47874197 1.2743
-0.17466077 -0.48118827 1.2753448
-0.12394635 -0.48428175 1.2733057
-0.077198118 -0.48709637 1.2779068
-0.025297983 -0.48926717 1.2726789
0.025233289 -0.49151522 1.2750251
0.075396985 -0.49258024 1.2707213
0.12706459 -0.49559861 1.272953
0.17692015 -0.49563295 1.2687466
0.22255565 -0.49687862 1.2659919
0.27799121 -0.49657923 1.2730243
0.3256245 -0.49734455 1.2720495
0.37651354 -0.49821526 1.2788904
0.43166766 -0.49813721 1.2732034
0.48273227 -0.49851063 1.2632908
0.52511352 -0.49857995 1.2718873
0.56991863 -0.49849325 1.2754188
0.60824347 -0.49851778 1.2511363
0.085106701 -0.50042045 1.3363463
0.13837604 -0.50221515 1.3316522
0.17691025 -0.50255209 1.3268597
0.22628102 -0.50182712 1.3197219
0.28089952 -0.50362712 1.3338151
0.32329625 -0.50276941 1.3274705
0.37468433 -0.50303721 1.324834
0.42786252 -0.50509846 1.3298416
0.47349891 -0.50460517 1.3236076
0.52328372 -0.50447929 1.3293971
0.56764877 -0.50561839 1.3275359
0.62588054 -0.50354469 1.3049389
0.66686189 -0.50917721 1.3069122
0.78000069 -0.51608855 1.3052396
-0.51395285 -0.48098612 1.3279756
-0.47782058 -0.48577139 1.3284669
-0.42367712 -0.48656756 1.3245037
-0.37717566 -0.48456517 1.3304273
-0.3268885 -0.48145288 1.3245188
-0.27220502 -0.48092857 1.322697
-0.2266884 -0.48149249 1.3212557
-0.17229877 -0.48537338 1.3215922
-0.12289599 -0.48920512 1.3279716
-0.071251675 -0.49059165 1.3285753
-0.02474072 -0.49214077 1.3256277
0.02113568 -0.49431992 1.325268
0.073206723 -0.49642253 1.3193167
0.12157411 -0.49763912 1.3256236
0.16711544 -0.49867424 1.3200188
0.22247428 -0.49732435 1.3073015
0.25593334 -0.49952662 1.3123103
0.33164373 -0.49815273 1.3032117
0.36747193 -0.49939775 1.3066343
0.52883887 -0.49956545 1.3023521
-0.067817517 -0.50092804 1.3994768
0.090369441 -0.50120187 1.3682549
0.12047716 -0.50596052 1.3865803
0.17685898 -0.50615662 1.376083
0.22420131 -0.50685024 1.3724926
0.27510628 -0.50808817 1.3783723
0.32806331 -0.50667536 1.3686526
0.38148242 -0.50588161 1.3648165
0.42112565 -0.50739717 1.3697075
0.47120222 -0.50765675 1.3670024
0.52024662 -0.50937253 1.3732008
0.59163857 -0.51052165 1.361323
-0.52717549 -0.48459366 1.3769408
-0.47086108 -0.48784682 1.3670233
-0.42366186 -0.48858568 1.3741329
-0.3733311 -0.48610222 1.3747185
-0.32684007 -0.48407897 1.3689612
-0.27383348 -0.4863373 1.3734891
-0.22577533 -0.48783207 1.3768781
-0.18032232 -0.49110204 1.3726665
-0.12250149 -0.49379748 1.3712474
-0.074167594 -0.4956736 1.3741996
-0.025146393 -0.4970929 1.3785176
0.029526642 -0.4977631 1.3737873
0.070508301 -0.49815452 1.3632035
0.10976471 -0.49965233 1.3528987
-0.16998215 -0.50107431 1.4375796
-0.11384483 -0.50232488 1.436166
-0.078280225 -0.50176293 1.4339882
-0.031932849 -0.50364846 1.429639
0.021400588 -0.50192684 1.4200047
0.071672954 -0.50432587 1.4178203
0.13693227 -0.51003712 1.4143862
0.17224099 -0.50645787 1.4110574
0.22828658 -0.50944769 1.4118032
0.2729134 -0.51092362 1.4105214
0.37686849 -0.5142597 1.4033122
-0.52409303 -0.48979273 1.4187499
-0.47704074 -0.49471062 1.423499
-0.42719978 -0.49447289 1.4307325
-0.37473947 -0.49256569 1.4246813
-0.31817576 -0.489627 1.4217635
-0.28206894 -0.49386644 1.4303113
-0.22221015 -0.49385846 1.4266956
-0.1711044 -0.49586943 1.4126455
-0.13180287 -0.49653065 1.413501
-0.071726359 -0.4982191 1.4193197
-0.027698046 -0.49798983 1.4134362
0.01231802 -0.49907762 1.4167109
-0.52966094 -0.50065541 1.4996054
-0.48357219 -0.50449669 1.4964294
-0.43471417 -0.5004608 1.4815066
-0.31944025 -0.50058955 1.4896171
-0.16207846 -0.50264794 1.4656088
-0.13480477 -0.50468135 1.4677336
-0.027015885 -0.50510615 1.4558864
0.012690196 -0.50531256 1.4566127
0.15477835 -0.5169633 1.4619838
-0.57010859 -0.48666152 1.4744843
-0.52709699 -0.49609593 1.4677624
-0.47577435 -0.49849337 1.4689053
-0.41949904 -0.4951905 1.4554485
-0.37630081 -0.49487698 1.468951
-0.32786652 -0.49468693 1.470118
-0.27628216 -0.4973262 1.4710959
-0.23944815 -0.49711105 1.4652926
-0.56480199 -0.50018477 1.5163805
-0.51597482 -0.50223404 1.5135946
-0.47202045 -0.50681722 1.5263245
-0.42680174 -0.50977206 1.5251791
-0.36400712 -0.50306529 1.5154405
-0.33867964 -0.5050844 1.5257924
-0.57642621 -0.49336985 1.5280256
-0.53856379 -0.49761742 1.514641
1.6927605 -0.58371043 1.5848316
1.7716527 -0.58681774 1.5908735
1.8224504 -0.58343303 1.5889393
1.860921 -0.57745451 1.5850523
1.9314321 -0.577353 1.5865333
1.9848644 -0.57486111 1.5924211
2.0591068 -0.57431579 1.5928367
-0.57491571 -0.50212157 1.5704825
-0.52914387 -0.50689489 1.5741541
-0.47313064 -0.50912631 1.5636576
-0.42884719 -0.51217967 1.5727043
-0.39427748 -0.51506555 1.5745766
-0.61351335 -0.47599047 1.5773827
-0.57759267 -0.49686083 1.5768225
-0.62279481 -0.43398911 1.5823345
-0.62624061 -0.37037367 1.5791999
-0.63136005 -0.34499788 1.5966277
0.76099288 -0.55595487 1.6295025
0.81035805 -0.55891621 1.6380649
0.92561603 -0.5570932 1.6316457
0.99652117 -0.56007487 1.632799
1.0085057 -0.55733395 1.6412128
1.5858339 -0.57781911 1.6472018
1.6292551 -0.58011812 1.6222699
1.6758053 -0.58364487 1.6299092
1.7216775 -0.58723706 1.6266098
1.7651895 -0.58283633 1.6260681
1.8267902 -0.58242983 1.6191279
1.8780928 -0.57677114 1.6338081
1.9221634 -0.57498735 1.6289319
1.9735655 -0.57437503 1.6299355
2.0317838 -0.5720281 1.6237628
2.0703018 -0.57223064 1.6462952
-0.57559115 -0.50470215 1.6283745
-0.52339089 -0.51181805 1.6272814
-0.48419073 -0.51548666 1.6232461
-0.41783842 -0.51794523 1.6261492
-0.61733019 -0.4732253 1.6256084
-0.59625185 -0.49504173 1.6083326
-0.62938708 -0.42304781 1.6319325
-0.63246942 -0.37813529 1.6242373
-0.63736963 -0.32698071 1.6255805
-0.64010602 -0.27567181 1.628655
-0.64285791 -0.2225036 1.6355852
-0.63959587 -0.18991688 1.6242368
0.69934213 -0.56455868 1.6941922
0.73110193 -0.560794 1.6877395
0.75893241 -0.55736059 1.6832278
0.82138169 -0.5628947 1.6857395
0.87012351 -0.56366259 1.6898924
0.92907304 -0.55847198 1.6751865
0.9682554 -0.55722255 1.6808439
1.5797039 -0.57690728 1.6858898
1.6295751 -0.57732528 1.6783346
1.674564 -0.57456458 1.6830952
1.7261606 -0.57724327 1.6752511
1.7826289 -0.57557029 1.6699098
1.8204399 -0.57613373 1.6610159
1.8701767 -0.57259822 1.6733019
1.9163097 -0.56914246 1.6782768
1.971251 -0.56701642 1.6694365
2.0197794 -0.56224948 1.6706673
2.0795438 -0.56609029 1.6781923
2.117038 -0.57474732 1.6713319
2.1635482 -0.57876182 1.6800717
-0.57372963 -0.50815248 1.6821287
-0.52506155 -0.51750553 1.6809235
-0.47440109 -0.52290362 1.6764811
-0.43555292 -0.52718252 1.6730744
-0.61492515 -0.47514877 1.6748276
-0.5959788 -0.49875823 1.664519
-0.62793744 -0.42509484 1.6781534
-0.63398355 -0.37332827 1.6707838
-0.6399262 -0.32163015 1.671038
-0.64220339 -0.27683875 1.675563
-0.64458525 -0.22495456 1.6807435
-0.64737737 -0.1918017 1.6799276
0.2932153 -0.55630618 1.7198342
0.39201418 -0.55435032 1.7295216
0.47990999 -0.55574185 1.7186757
0.54428709 -0.55953968 1.7332889
0.57470822 -0.55901778 1.7402525
0.62154454 -0.56158817 1.7216866
0.67820024 -0.55959332 1.7264832
0.72741193 -0.56037599 1.7220929
0.78306097 -0.5645867 1.722752
0.82567763 -0.56150478 1.7240362
0.87592924 -0.5606817 1.7222731
0.92525536 -0.56213236 1.7328502
0.97718692 -0.5648191 1.7339584
1.0366902 -0.56385142 1.703536
1.438983 -0.57397038 1.7401052
1.4776503 -0.57885587 1.7362155
1.5190454 -0.57398313 1.7369466
1.5757782 -0.57325757 1.7227671
1.6225402 -0.56889051 1.7240816
1.6765091 -0.56814581 1.7320412
1.733867 -0.57242233 1.7397337
1.7699322 -0.56771457 1.7200683
1.8289769 -0.56726199 1.7223063
1.877098 -0.56372416 1.7251354
1.9285798 -0.56425154 1.7307962
1.964079 -0.56172395 1.7203792
2.0247278 -0.56437206 1.7195562
2.0822592 -0.56649995 1.7335254
2.1223457 -0.56089383 1.728556
2.1597595 -0.56154591 1.7113796
2.2134106 -0.56687099 1.7251723
-0.60777384 -0.50378245 1.7363404
-0.57633644 -0.51011014 1.7290941
-0.5233019 -0.51963526 1.7179369
-0.47476238 -0.52798688 1.7313936
-0.42325532 -0.53169239 1.7205653
0.40304217 -0.54576421 1.7000166
-0.6132772 -0.47285739 1.7257327
-0.62492478 -0.42647395 1.7192942
-0.63370597 -0.37622663 1.7255892
-0.63757515 -0.32543728 1.7211031
-0.64102578 -0.27234963 1.7265681
-0.65034521 -0.2145329 1.7104733
-0.64427811 -0.225457 1.7314072
-0.64343578 -0.19129576 1.7106857
-0.1161263 -0.55216688 1.7796338
-0.024278589 -0.55552036 1.7928416
0.022781985 -0.55441159 1.7892942
0.076632395 -0.55663478 1.7804266
0.12015728 -0.55604136 1.7859104
0.17577267 -0.55805898 1.7816539
0.22000773 -0.55829698 1.7728047
0.28480008 -0.56062841 1.7638855
0.3243531 -0.56015468 1.7729427
0.37566963 -0.56008273 1.7708281
0.43130451 -0.56302822 1.7820876
0.47564974 -0.55734152 1.755446
0.52760744 -0.56282598 1.7698463
0.5736627 -0.55763131 1.7735099
0.62368041 -0.56223708 1.7718096
0.67580968 -0.56328255 1.778843
0.72508508 -0.56540698 1.782624
0.77883434 -0.56299889 1.7734358
0.82304293 -0.56347895 1.7755952
0.87390137 -0.56293875 1.7802241
0.92436349 -0.56425965 1.7765242
0.97210979 -0.56615442 1.7799133
1.0195138 -0.56739867 1.7746459
1.0866411 -0.56732893 1.7640929
1.1089623 -0.56771159 1.7865841
1.2902031 -0.56610495 1.7981522
1.3324373 -0.56618965 1.7833989
1.3766885 -0.57199651 1.7723584
1.4271119 -0.57318437 1.7775092
1.4772894 -0.56972867 1.7778513
1.5280201 -0.56754303 1.7778847
1.5730437 -0.56603289 1.7785964
1.6292789 -0.56121743 1.7720363
1.6815326 -0.55876172 1.7731822
1.7250944 -0.55820733 1.767241
1.7772777 -0.55619317 1.7737644
1.8248165 -0.55897391 1.7742469
1.8647325 -0.55521894 1.7715757
1.9290603 -0.55366504 1.773029
1.9759369 -0.55398285 1.7797837
2.0278256 -0.55992633 1.7699295
2.0736794 -0.55718207 1.7761062
2.1672425 -0.55386853 1.7699218
2.2210362 -0.55938071 1.7565845
-0.57400304 -0.51169068 1.7767822
-0.52816236 -0.52435941 1.7762045
-0.475876 -0.53346741 1.7836813
-0.42604923 -0.53355801 1.7551361
1.7201917 -0.54512888 1.7986783
1.8767638 -0.54946351 1.7626932
1.9974999 -0.54616368 1.7911834
2.1165235 -0.54897332 1.7846199
2.2235668 -0.54661089 1.7759297
2.2621689 -0.54222584 1.7838746
-0.61059552 -0.47526065 1.7756355
-0.62297338 -0.4266679 1.7721472
-0.63021457 -0.37642625 1.772889
-0.63539034 -0.3252086 1.7729453
-0.63983572 -0.27690342 1.7731488
-0.64064902 -0.226584 1.7754
-0.64382786 -0.19019377 1.7725855
-0.39240962 -0.55069488 1.8438699
-0.21525815 -0.55360365 1.8215237
-0.18205202 -0.55667335 1.8305054
-0.12498436 -0.55563873 1.8212383
-0.070297316 -0.5625447 1.845884
-0.026174476 -0.55945939 1.8313893
0.025144333 -0.55848998 1.8229909
0.075768769 -0.55805075 1.8171926
0.1216879 -0.55805731 1.8189777
0.15556124 -0.55890518 1.8304609
0.23299406 -0.56196427 1.8115165
0.27897012 -0.5644539 1.8152331
0.31972134 -0.56558442 1.8262471
0.37299272 -0.56420439 1.8213695
0.42707872 -0.56399089 1.8225181
0.47705242 -0.56422496 1.824721
0.52400297 -0.56411624 1.8187211
0.5802123 -0.56181806 1.8238875
0.62786144 -0.5628891 1.8215843
0.66915154 -0.56379038 1.8225867
0.73178405 -0.56538486 1.8289685
0.77085131 -0.56220984 1.820136
0.83059967 -0.56081337 1.8274899
0.87661541 -0.56251007 1.8337071
0.92078775 -0.56657654 1.8280458
0.97305584 -0.56341738 1.8289934
1.0208859 -0.56356776 1.8224342
1.0770028 -0.56564665 1.830678
1.1186398 -0.56576908 1.8306053
1.1730143 -0.56947684 1.840274
1.2210038 -0.5666678 1.8292605
1.2705636 -0.5661636 1.8259062
1.3265667 -0.56442755 1.8275932
1.3807558 -0.56662506 1.8226042
1.418777 -0.56233925 1.8228188
1.4747517 -0.56022078 1.8298193
1.5277932 -0.55817735 1.8153986
1.5746752 -0.55284262 1.8229731
1.6212893 -0.55556309 1.819011
1.6756604 -0.55310059 1.8121684
1.7596394 -0.55212706 1.8073232
1.8484919 -0.55157459 1.8012983
1.9251903 -0.55163425 1.8113627
2.0355206 -0.5531652 1.8024582
-0.60389686 -0.50352877 1.8462059
-0.57916814 -0.51134127 1.8255045
-0.51924986 -0.52690512 1.8238966
-0.47301778 -0.53529781 1.8254423
-0.43210262 -0.54184753 1.8167126
-0.3949483 -0.54607588 1.811119
-0.20507598 -0.54988605 1.8289824
1.5927516 -0.54800016 1.8468058
1.6261921 -0.54917532 1.8283806
1.6777798 -0.5446654 1.8302708
1.7145923 -0.54306066 1.8263568
1.7750626 -0.54337335 1.8289398
1.8251525 -0.54204893 1.827938
1.8709037 -0.54041708 1.8277617
1.9265242 -0.54223508 1.830608
1.978953 -0.54182208 1.8303719
2.0302591 -0.53845894 1.8294853
2.0740314 -0.54150176 1.8182293
2.1189601 -0.53559673 1.8257748
2.1738253 -0.53599477 1.8236459
2.2240613 -0.52304786 1.827136
2.2767911 -0.52060294 1.8233347
2.3191817 -0.51559597 1.8338356
-0.60634691 -0.47485396 1.8277267
2.2813487 -0.49896896 1.8457952
2.3289561 -0.47028422 1.8432696
-0.61914957 -0.42444161 1.8190542
2.3219905 -0.42253518 1.8465738
-0.62639701 -0.37323266 1.8274711
2.2851527 -0.36581862 1.8496295
-0.63165843 -0.32370469 1.8222113
2.3055649 -0.32749945 1.8481811
-0.63522631 -0.2731469 1.8240101
2.2926588 -0.26682344 1.845376
2.3002748 -0.28737798 1.8491708
-0.63622046 -0.22470538 1.8252516
2.2873542 -0.23357183 1.844611
-0.63742328 -0.19301772 1.8183041
2.2838519 -0.17459629 1.8469198
2.2488141 -0.10840654 1.8460071
2.2761118 -0.12205379 1.8439648
2.2386763 -0.063084036 1.8471274
2.2670951 -0.068646073 1.8435087
2.2270546 -0.028038772 1.8437718
2.2578955 -0.024466246 1.8321766
2.1826615 0.02020655 1.8460188
2.2284586 0.02049618 1.8432195
2.2662005 0.020755038 1.8388383
2.1398516 0.051415324 1.8497884
2.1841102 0.064703226 1.846315
2.2275779 0.069593459 1.8374786
2.2587779 0.078650422 1.8314271
2.1173747 0.13873011 1.8494836
2.1824763 0.12459577 1.8463705
2.224751 0.12291037 1.8366313
2.2569501 0.12367505 1.8277863
2.1275969 0.18515575 1.8470541
2.1788864 0.17247702 1.8416407
2.2227516 0.17398335 1.8314283
2.2596784 0.17543298 1.8264339
2.1464338 0.20919478 1.845685
2.1783202 0.2104861 1.8377857
2.2223792 0.21233478 1.8277037
2.2592192 0.21405236 1.8226552
-0.42759231 -0.5513584 1.8750387
-0.38664308 -0.55560142 1.8616266
-0.22860865 -0.55857432 1.8893452
-0.17315991 -0.56155246 1.87686
-0.12622873 -0.5601573 1.868111
-0.079416595 -0.56159043 1.8710878
-0.025373574 -0.56230581 1.878027
0.025404854 -0.56321484 1.8810587
0.072378166 -0.56186879 1.8851759
0.12734514 -0.56463867 1.8830489
0.18280132 -0.56763226 1.8792032
0.22499439 -0.57037818 1.8797756
0.27159199 -0.57016474 1.8773215
0.33023059 -0.57120407 1.8884938
0.37730238 -0.57004875 1.8842462
0.42739353 -0.56606895 1.8674415
0.477689 -0.56541055 1.8851488
0.5304774 -0.56370842 1.8811411
0.57178599 -0.56186837 1.8701804
0.62838054 -0.56382668 1.8743916
0.68048346 -0.56449443 1.8774502
0.72495407 -0.56527233 1.8672523
0.77869117 -0.56277317 1.8836491
0.82083946 -0.55880821 1.8739252
0.87946147 -0.55871576 1.8722471
0.92646337 -0.55916423 1.8734139
0.97697228 -0.56309557 1.8802933
1.0256226 -0.55924875 1.8808664
1.0745232 -0.56003845 1.8712549
1.1265298 -0.56088108 1.8802019
1.1714339 -0.56334597 1.8729386
1.2255176 -0.56041282 1.878639
1.2727665 -0.55747169 1.878546
1.3214998 -0.55790246 1.8691559
1.3800608 -0.5576427 1.8786736
1.4202639 -0.55706477 1.8699864
1.4736649 -0.55191994 1.8677907
1.5240513 -0.55259866 1.857443
-0.57620555 -0.51249337 1.8729674
-0.52726305 -0.52600574 1.8732158
-0.47351453 -0.536578 1.8720235
-0.4433521 -0.54417121 1.8821535
1.4393067 -0.54779404 1.8879887
1.4769697 -0.54487729 1.888842
1.524851 -0.54206276 1.8833171
1.5723858 -0.54125214 1.8727331
1.6216186 -0.53607368 1.8743471
1.6786009 -0.53646457 1.8710929
1.721378 -0.52621615 1.8760018
1.775673 -0.5284546 1.8718482
1.8296356 -0.52145356 1.880769
1.8731403 -0.51856083 1.8761584
1.917802 -0.51829499 1.8745174
1.9771981 -0.52184039 1.8754014
2.0249236 -0.51819438 1.8755815
2.076519 -0.51523387 1.8718748
2.1243865 -0.51888692 1.8613049
2.1774812 -0.50843197 1.8616123
2.2155721 -0.50622588 1.8598351
2.3501406 -0.50807691 1.8532592
-0.60582691 -0.46514741 1.8778869
-0.59604007 -0.49178228 1.8663071
1.7977875 -0.49843234 1.8972219
1.8015896 -0.49618876 1.8789572
1.9331106 -0.47091323 1.8971881
1.9746956 -0.47492003 1.8915401
2.0243425 -0.47232512 1.8872702
2.0761931 -0.4748598 1.8788185
2.1300201 -0.47785324 1.8733289
2.1767509 -0.47215006 1.8670981
2.2232947 -0.47394827 1.8613708
2.2723575 -0.47610983 1.8567073
2.3250575 -0.47511917 1.8536503
-0.61445272 -0.42631361 1.8760687
1.956073 -0.43511778 1.8928851
2.0234077 -0.42778647 1.892352
2.0811739 -0.42210224 1.8871293
2.1231117 -0.42539465 1.8776174
2.1713011 -0.42724743 1.8746542
2.2235627 -0.42294535 1.8655972
2.2705839 -0.42518115 1.8572767
2.3152821 -0.42808241 1.8544372
-0.621104 -0.37740824 1.8779904
1.9486215 -0.35394508 1.8999847
1.9856807 -0.38503599 1.8964876
2.0298972 -0.3794204 1.8935505
2.0748971 -0.37300226 1.8883476
2.1219535 -0.37105843 1.8790916
2.1760302 -0.3785271 1.871161
2.2335503 -0.37609041 1.8673588
2.2762582 -0.37020776 1.8574781
2.3192117 -0.38014039 1.8562685
-0.62753791 -0.3300887 1.8764096
1.9779345 -0.32370344 1.8964722
2.0232456 -0.32566553 1.8940954
2.0732896 -0.32175067 1.8894285
2.1240706 -0.32488194 1.8787372
2.1761291 -0.32572964 1.8702427
2.2218604 -0.32600829 1.8637865
2.2748663 -0.32598475 1.8589643
2.3137283 -0.31543922 1.8565435
-0.62825739 -0.27549839 1.8769145
1.9131781 -0.26511765 1.899807
1.9846008 -0.28215349 1.8994641
2.0255909 -0.27508783 1.893154
2.073216 -0.27596056 1.8855985
2.1231346 -0.27100754 1.8780257
2.1690657 -0.273561 1.8710322
2.2224936 -0.27388489 1.8622942
2.2712357 -0.28379378 1.8575096
-0.63170606 -0.22400387 1.8794223
1.9751078 -0.21037579 1.8981626
2.027729 -0.2303931 1.8925471
2.0727515 -0.22774483 1.8858947
2.1190557 -0.21763277 1.8762811
2.1767075 -0.22417825 1.869089
2.2313325 -0.22210218 1.8604791
2.2708256 -0.2267205 1.8554794
-0.63671237 -0.19116946 1.8792906
1.9473081 -0.19354369 1.8955783
1.9882255 -0.18120594 1.8980874
2.0244024 -0.17830054 1.8903788
2.0740809 -0.18008566 1.88276
2.130933 -0.16883788 1.8753943
