ply
format ascii 1.0
comment PCL generated
element vertex 1499
property float x
property float y
property float z
element camera 0
property float view_px
property float view_py
property float view_pz
property float x_axisx
property float x_axisy
property float x_axisz
property float y_axisx
property float y_axisy
property float y_axisz
property float z_axisx
property float z_axisy
property float z_axisz
property float focal
property float scalex
property float scaley
property float centerx
property float centery
property int viewportx
property int viewporty
property float k1
property float k2
end_header
-1.5882217 -0.50799394 1.7533451
-1.6556107 -0.46942011 1.7909173
-1.6308208 -0.48378563 1.7876841
-1.5732448 -0.47973293 1.7635037
-0.12072144 -0.49313954 1.77605
-0.086528853 -0.49038333 1.7777951
-0.084396996 -0.28573969 1.7994628
1.5340647 -0.17371477 1.7754519
1.5610859 0.073311619 1.7736214
-0.17191477 0.12741135 1.7715875
-0.12916212 0.13220622 1.7701104
-0.099258609 0.13523865 1.7661742
1.1882591 0.20443691 1.767724
1.3955438 0.24808432 1.7963318
1.4206696 0.24798682 1.7787704
1.541747 0.246381 1.7969397
1.3855569 0.27460104 1.7708615
1.4235955 0.27650249 1.7624146
1.4755883 0.27099094 1.7626784
1.5228484 0.27347273 1.7633406
1.5527887 0.2553955 1.7682279
1.3838414 0.3085407 1.7832346
1.4304665 0.31248504 1.7753158
1.4776454 0.32338038 1.7752035
1.5253842 0.31693247 1.7737395
1.1871886 0.38549539 1.7521183
1.4331409 0.38903025 1.7873598
1.4579909 0.39456806 1.7841151
1.1837443 0.4334617 1.768548
1.2700682 0.43458045 1.7554226
1.4219919 0.40810123 1.7617359
1.4736304 0.40648425 1.7810788
1.5015587 0.40451381 1.7854637
1.1930122 0.46729636 1.7644011
1.2099777 0.49341422 1.7973884
1.4245013 0.46756354 1.7567825
1.4780269 0.4870711 1.769556
1.5103495 0.49962404 1.7548378
1.2099737 0.50638855 1.7839655
1.4995768 0.54204291 1.7516099
1.514358 0.52417493 1.7643048
1.1912802 0.59977847 1.7627985
1.5080497 0.58332157 1.7832909
1.190246 0.62699348 1.7643629
1.3734963 0.63000977 1.7653376
1.4215031 0.61241978 1.7681801
1.4772471 0.61676621 1.7657555
1.5002282 0.62104428 1.7513276
1.1832347 0.65580368 1.7552575
1.3478971 0.68880802 1.7597691
1.3547499 0.67075032 1.7729936
1.476804 0.65222847 1.7544515
1.1839213 0.71733373 1.7591034
1.3390032 0.73131949 1.7710891
1.3250529 0.76119733 1.7598928
1.240272 0.81643295 1.7645836
1.2565874 0.83650196 1.7683543
-0.64498067 0.9859342 1.7672284
-1.6405573 -0.47121966 1.8019603
-0.12057775 -0.4842979 1.824646
-0.088503763 -0.47691673 1.8236125
-0.13099836 -0.40414909 1.8304338
-0.09092059 -0.41679665 1.8270607
-0.090335727 -0.356902 1.8235826
-0.095589004 -0.32024619 1.8451672
-0.089961372 -0.28734568 1.8236117
-0.085493922 -0.210509 1.8298737
1.5315502 -0.17113136 1.8231573
1.5288045 0.096247464 1.8038664
1.5557268 0.07268028 1.8248982
-1.566277 0.13129927 1.8461725
-0.10581906 0.12965655 1.8063955
1.3865718 0.24831626 1.8045583
1.4672598 0.24283953 1.8080927
1.5187374 0.24609144 1.8101264
1.3811165 0.28302342 1.806477
1.3722527 0.31054649 1.807827
1.4385248 0.32539836 1.8015007
1.4596314 0.34080982 1.8263098
1.4316899 0.38042873 1.8165699
1.4706126 0.36141768 1.8222507
1.4430132 0.4486104 1.8270502
1.1969585 0.4721109 1.8025258
1.2060332 0.48248875 1.8147336
1.4364096 0.46292531 1.8294004
1.2131747 0.51197243 1.8089974
1.3936714 0.64252037 1.8187904
1.4150789 0.62650275 1.809654
1.3704799 0.66841453 1.8143362
1.346282 0.72207838 1.8136735
1.3595552 0.71773833 1.8181565
2.4333689 0.8348996 1.8326887
2.4550047 0.84238523 1.8489937
2.4340079 0.8629902 1.8240762
2.4561028 0.88485581 1.8359523
2.4415915 0.91268867 1.8389572
2.4533746 0.93119073 1.8429087
2.4434915 0.96805 1.8463793
-0.1211051 -0.48185793 1.8744379
-0.097908653 -0.47828558 1.8687407
-0.10804437 -0.44147131 1.8930253
-0.097214147 -0.42515856 1.8634419
-0.11586861 -0.36694422 1.8815879
-0.096883208 -0.39214575 1.861701
-0.11708627 -0.32514337 1.8862001
-0.096150182 -0.33103392 1.8550333
-0.10722078 -0.28751016 1.8975923
-0.096015066 -0.26352334 1.8594058
-0.11856949 -0.22977106 1.8897072
-0.096613869 -0.22473918 1.8744317
1.5486649 -0.16276892 1.8545735
1.5642756 -0.1632507 1.852561
1.7210565 -0.17173144 1.8945496
1.775649 -0.1699636 1.8925743
1.8355683 -0.17658319 1.8966175
1.5937313 0.044899061 1.8823397
1.6246916 0.045018345 1.8660688
1.8305722 0.012543077 1.8982239
1.5560569 0.071893282 1.8783052
-1.5583014 0.13886584 1.8734848
-1.5446547 0.13268009 1.892755
-1.1204207 0.14125961 1.8899186
-1.0091535 0.14898841 1.8996912
-0.86677819 0.14502935 1.8908917
-0.83290422 0.14334598 1.8766606
-0.67973906 0.14961314 1.8743316
-1.0072005 0.15859985 1.8954229
-0.819399 0.15875307 1.894725
-0.71741533 0.15639935 1.8923091
-0.68623972 0.16462046 1.8844398
1.4707507 0.38940126 1.896379
1.4445961 0.4416739 1.8518119
1.4541302 0.44085079 1.8755838
1.4514662 0.46343502 1.8782516
1.2297109 0.51814342 1.8556529
2.4513054 0.68010092 1.8940878
2.4492428 0.72848684 1.8788404
2.4534705 0.72040242 1.8847017
2.4461875 0.77162337 1.8762223
2.4536963 0.7792244 1.8778112
2.4467289 0.83032721 1.8710895
2.4571259 0.82435519 1.8819793
2.4480009 0.8708111 1.8844833
2.4556022 0.88039994 1.868715
2.4478436 0.94855523 1.8573489
2.4545443 0.92369968 1.8765208
2.4390268 0.96475828 1.869298
2.4570162 0.97854662 1.8893467
2.456172 1.0150518 1.88195
2.459157 1.0687863 1.8920795
2.4636745 1.1017904 1.8920599
-0.11646485 -0.46862054 1.9219682
-0.12032671 -0.42332429 1.9253247
-0.12021547 -0.37481487 1.9272842
-0.12431397 -0.32424319 1.9304848
-0.1238295 -0.27291852 1.9281602
-0.12584651 -0.22267994 1.9343318
1.5983907 -0.15675998 1.9148989
1.625315 -0.15771838 1.914912
1.6789112 -0.16010107 1.9234619
1.7293243 -0.15805374 1.9228387
1.7624334 -0.16051345 1.9169457
1.8281256 -0.1609825 1.9176927
1.575727 -0.12211609 1.9276561
1.622102 -0.12554492 1.9221042
1.6756177 -0.12852873 1.9270011
1.7217355 -0.12154833 1.9259759
1.7753063 -0.12301695 1.9223874
1.8304111 -0.12553975 1.9187926
1.8529178 -0.10664983 1.9190451
1.5757686 -0.070506841 1.9287447
1.6217408 -0.073480614 1.923462
1.6719285 -0.073700987 1.919686
1.7221831 -0.074640363 1.9226383
1.7754922 -0.075633131 1.9266194
1.8254969 -0.076452412 1.9248784
1.8543026 -0.076887801 1.9216293
1.5725902 -0.025126692 1.9309996
1.623546 -0.027727058 1.9231383
1.6717333 -0.031415634 1.9204109
1.7242994 -0.026009405 1.9259783
1.7690716 -0.03090677 1.9206553
1.8272891 -0.027536472 1.9201014
1.5713669 0.024020219 1.9204806
1.6278042 0.016572166 1.9175587
1.6749495 0.017075967 1.917053
1.724851 0.020303534 1.9200636
1.7717832 0.017593376 1.9212384
1.8205147 0.017474722 1.9151758
0.13662146 0.069461241 1.9371388
0.17382909 0.069522195 1.9367514
0.20633659 0.074206121 1.935437
0.38163137 0.073701873 1.9456545
0.42573482 0.070613943 1.9408615
0.47525311 0.075712942 1.9434245
0.68978357 0.077551439 1.9486917
0.7142607 0.077586196 1.9434264
1.5496407 0.056542274 1.9446063
1.5550547 0.075240955 1.9252924
-1.5515567 0.14484711 1.9110541
-1.5241611 0.13750914 1.9152626
-1.4821225 0.13196312 1.9187664
-1.4072081 0.14140411 1.9342597
-1.374313 0.14023952 1.9307257
-1.3201872 0.14110394 1.909619
-1.2550813 0.14705963 1.9249312
-1.2161572 0.14552407 1.9177322
-1.1700426 0.14428492 1.9185963
-1.0284214 0.14963256 1.901969
-0.96898812 0.14965855 1.925227
-0.92118073 0.14757316 1.9107374
-0.89540917 0.14656535 1.9044231
-1.4169331 0.15213867 1.9257619
-1.3796239 0.15158474 1.9375772
-1.1642537 0.154487 1.9193499
-1.1401404 0.15400118 1.9226782
-1.0547428 0.1512728 1.9167091
-1.0036023 0.15460229 1.9115227
-0.97781426 0.15804301 1.9226893
-0.9196856 0.15798035 1.9189032
-0.87044561 0.16076054 1.9155138
-0.82367367 0.15956171 1.904456
-0.77588838 0.15867814 1.9066627
-0.74208814 0.15761843 1.9020028
-0.67120653 0.1643175 1.9142792
-0.63061613 0.16543297 1.907724
0.22676393 0.19637705 1.9446893
1.7288351 0.2863799 1.9237828
1.7535596 0.28853586 1.9291489
1.7392299 0.31157309 1.9322114
1.7505411 0.30563921 1.9234877
2.4342151 0.3487429 1.9494449
1.4695339 0.39750424 1.9150529
1.5009086 0.38061208 1.9380463
1.4808893 0.43232745 1.9285942
2.4436226 0.41986504 1.9457755
2.4544618 0.44972724 1.9494212
1.483166 0.46030337 1.9442012
2.4458685 0.48306203 1.9358931
2.453537 0.4635655 1.9460583
2.4426079 0.53125012 1.9231416
2.4530239 0.50548446 1.9373097
2.4473226 0.57631838 1.9340019
2.4545174 0.57697022 1.9313341
2.4471633 0.63003784 1.9037174
2.4555547 0.62225729 1.9255363
2.4488969 0.67625684 1.918637
2.4569287 0.67285502 1.9264389
2.4490418 0.7155295 1.9337122
2.4545636 0.72941834 1.9137852
2.449029 0.77788091 1.9283111
2.4513116 0.76248217 1.930643
2.4493952 0.80761516 1.9063272
2.4585629 0.82559663 1.926119
2.4552014 0.87750202 1.9260226
2.4499888 0.93716621 1.9421985
2.4526389 0.92318743 1.922966
2.4496179 0.98024112 1.9260528
2.4572196 0.97234333 1.92539
2.4489675 1.0002151 1.9448762
2.4546392 1.0285754 1.9258742
2.456686 1.0771494 1.9267629
2.4572461 1.1267341 1.9220024
2.4471426 1.1942521 1.9463061
2.4561763 1.1711178 1.9264972
2.4546633 1.221998 1.9347274
2.4483931 1.2688251 1.9423741
-0.12913448 -0.26772183 1.9547493
-0.12181066 -0.21556951 1.9547402
-0.13390347 -0.19736874 1.9611559
1.5799446 -0.12819161 1.982851
1.5828722 -0.073711023 1.9805884
1.5737154 -0.02690978 1.9841133
1.5620421 0.020642729 1.970396
0.12360656 0.06996949 1.9514477
0.21063793 0.066287801 1.9760107
0.63015264 0.077346534 1.9571453
0.68050933 0.077595346 1.9521769
0.74576581 0.078360625 1.9563822
0.77515686 0.078866392 1.9622111
0.80514061 0.079407915 1.968642
1.2750624 0.09736158 1.9909425
1.3282471 0.097739369 1.9735401
1.3543363 0.097686164 1.9578252
1.5455042 0.090574525 1.9597461
1.559011 0.068505168 1.9722354
-1.5206581 0.14610426 1.9572247
-1.4599667 0.14395294 1.9525907
-1.4362757 0.14322957 1.9527285
0.23708096 0.1971826 1.9519279
2.4268551 0.18639971 1.970252
0.23353556 0.20758457 1.961231
0.30038753 0.22110237 1.9918683
0.40892887 0.24200748 1.9916899
2.4353175 0.22710034 1.9752823
-1.5604603 0.29257697 1.9843647
1.8147683 0.29059809 1.9745216
2.4360318 0.27242443 1.9754009
2.4529402 0.28141636 1.9736735
-1.5678978 0.3112241 1.9916687
-1.0279088 0.33332983 1.9896935
1.7988921 0.32613674 1.9749259
2.4379406 0.32234108 1.9689542
0.21530969 0.36770421 1.998333
1.5009574 0.39473745 1.9578958
2.4409401 0.3779169 1.9732867
1.4865587 0.43324018 1.9539335
1.518947 0.42545494 1.999579
2.4430761 0.42332423 1.9832782
2.4551916 0.42182752 1.9550312
2.4459686 0.47392818 1.974461
2.4515538 0.46846148 1.9951502
2.4451108 0.52533472 1.9676632
2.4500642 0.50773299 1.9600427
2.4446747 0.56443965 1.9794226
2.453922 0.58320391 1.9791076
2.4552596 0.62694639 1.9761105
2.4465942 0.66571283 1.9804021
2.4551094 0.6797455 1.9665142
2.4482443 0.73072338 1.9813671
2.4547627 0.72578096 1.9752885
2.4459734 0.76578325 1.9688554
2.4563246 0.79286265 1.9833045
2.4469478 0.84967363 1.9697713
2.4550557 0.8249982 1.9699477
2.4465103 0.88344169 1.9849879
2.4514773 0.87411427 1.9724673
2.4491205 0.92975026 1.9803463
2.4537897 0.9296174 1.9755416
2.4463503 0.97092003 1.9739795
2.4533184 0.98649186 1.972463
2.4490285 1.0267804 1.9896889
2.4544075 1.0229594 1.9686694
2.4464993 1.0751585 1.9791152
2.4536257 1.0591376 1.9537065
2.4491503 1.1237468 1.9879127
2.453378 1.1220924 1.9624169
2.448292 1.1676213 1.968412
2.4542444 1.1728759 1.9815592
2.4469383 1.2272524 1.9738727
2.4546003 1.2050955 1.9773079
2.4449899 1.2748502 1.9768001
2.4426639 1.3227953 1.9829407
2.4502697 1.314841 1.9514676
2.4444423 1.3773266 1.9879199
2.4516943 1.3537056 1.9633353
2.4517884 1.4161505 1.9916383
0.12896813 -0.24321854 2.0276811
1.5769677 -0.12209378 2.0123127
1.5813246 -0.076490067 2.0132327
1.578528 -0.032238439 2.0179684
1.578668 0.02746748 2.0217965
1.3271834 0.088998936 2.0385609
1.3687849 0.088851832 2.011879
1.5821503 0.058554992 2.0294321
2.4333355 0.19262025 2.0229239
0.23725741 0.24455558 2.0314722
0.28113854 0.24342461 2.0347848
0.32878882 0.23418729 2.0346158
0.36753923 0.23686907 2.0375636
0.49080142 0.23923369 2.0412385
0.52246672 0.23929362 2.0362546
0.56198037 0.23339546 2.04439
2.4383202 0.22495392 2.0264766
-1.6171865 0.29404405 2.0233924
-1.5761557 0.2929326 2.0385258
0.23722604 0.27388108 2.0287013
0.27584797 0.26848432 2.0437305
0.32637033 0.26270026 2.041563
0.37428415 0.27976346 2.0416198
0.49013573 0.25762683 2.0477598
0.508255 0.2804724 2.0453935
1.8164687 0.28063059 2.0006533
2.4386759 0.27667943 2.0268788
-1.6204832 0.31229937 2.0253134
-1.0541263 0.34898341 2.0146577
-1.0125904 0.3288694 2.0091031
0.23457852 0.31655329 2.0388114
0.27499676 0.31214127 2.0491261
0.38778472 0.32070762 2.0435824
2.4360867 0.32576421 2.0185425
-1.0560514 0.36020967 2.0169642
-1.0276014 0.35765895 2.0106547
-0.57385564 0.37427124 2.0448084
0.22998582 0.37584722 2.0418458
0.41234878 0.37989759 2.0450323
2.4419808 0.37583202 2.0255866
0.22616428 0.41254333 2.0480967
2.4452269 0.42855892 2.0365565
2.4460292 0.47531602 2.0266502
2.4436097 0.52077317 2.0171735
2.4529438 0.54578537 2.0331957
2.4438179 0.5765112 2.0288391
2.4460158 0.61713022 2.0209069
2.4516306 0.63869637 2.0276496
2.4451056 0.68116987 2.0262561
2.4514303 0.67108953 2.0278878
2.4455936 0.71937567 2.0294704
2.4543757 0.72960335 2.0141201
2.4457989 0.77214712 2.0344379
2.453954 0.77028608 2.0083704
2.4455211 0.81312871 2.0213065
2.4515498 0.84021074 2.0227001
2.4451981 0.8738271 2.0311947
2.4503813 0.89005643 2.0138454
2.4466586 0.91928864 2.0222421
2.4554343 0.94127405 2.0282943
2.445786 0.96622771 2.0209591
2.4512501 0.98956358 2.0344064
2.4463496 1.0215214 2.0266645
2.4500606 1.0395585 2.042264
2.4462099 1.0794514 2.0223122
2.4516444 1.0550845 2.0376432
2.4459369 1.1238437 2.0226581
2.4446979 1.1804115 2.0297801
2.4507191 1.1731167 2.0159984
2.4433169 1.2253903 2.0287735
2.4415898 1.2765616 2.0239997
2.4407771 1.3188053 2.0269067
2.4410551 1.3715662 2.0266819
2.4395256 1.4222568 2.0198915
2.4460056 1.4812479 2.0276628
2.451386 1.4599015 2.0142422
2.444371 1.5222968 2.0403736
2.450953 1.5199475 2.0285978
2.4524772 1.56177 2.0393441
-2.0133805 -0.44581705 2.0963726
0.072576366 -0.26682138 2.0858576
0.13626203 -0.25752434 2.0633681
0.15326077 -0.2712284 2.0911713
0.14038615 -0.24617782 2.0519319
0.27216503 -0.22950853 2.0730419
-0.16284862 -0.10521992 2.0954525
-0.16293226 -0.070181385 2.0974762
-0.16290273 -0.025041904 2.0977564
-0.16325742 0.021181371 2.0951414
-0.32280999 0.063873276 2.0752549
-0.16510442 0.080098696 2.0928071
0.20355031 0.060331397 2.0996156
2.4185379 0.19000228 2.0661862
0.27971324 0.24754384 2.0529952
0.370157 0.24514413 2.0513694
0.53077638 0.24155064 2.0550897
0.58512723 0.24173588 2.0696449
0.60383511 0.23957109 2.0696633
2.4313431 0.22518554 2.0804198
0.27468571 0.2906335 2.0543911
0.32216921 0.28648549 2.0600712
0.3624965 0.27709076 2.0531783
0.52849835 0.2721248 2.0558293
0.57501799 0.27516797 2.0638826
0.60710794 0.27677494 2.0778067
2.4320054 0.2759169 2.0719388
0.23835629 0.33765891 2.0542197
0.27219576 0.3290109 2.0575411
0.3231996 0.32469437 2.0638235
0.36746424 0.32691547 2.0632384
0.53260678 0.32437998 2.0724065
0.57306427 0.3257446 2.0699608
0.60907006 0.31361562 2.0810738
2.4348972 0.32540303 2.0720501
-0.57958424 0.36904451 2.0742042
0.24164625 0.38862112 2.0551007
0.27306193 0.37574214 2.0657008
0.32526433 0.37320286 2.0750434
0.37613079 0.37371808 2.0722382
0.41039872 0.387793 2.0603724
0.54098827 0.37481573 2.0764093
0.57337064 0.37546444 2.0819139
0.60351127 0.36273408 2.0943553
1.5906042 0.39150724 2.055752
1.635416 0.39055252 2.0838716
2.4386783 0.37318659 2.0722814
-0.583601 0.42172208 2.0740678
0.23546237 0.43083704 2.0615265
0.27630636 0.42535007 2.0777233
0.32790208 0.4270699 2.0855
0.37792188 0.42486545 2.0837994
0.4181726 0.42871258 2.0711932
0.54736346 0.4318161 2.0781157
0.57279462 0.42056862 2.0853827
2.4399757 0.42830798 2.0834558
-0.58177733 0.4676812 2.0739534
0.2365239 0.45785728 2.0716789
0.27436456 0.46128586 2.0820801
0.32342061 0.46348339 2.0847483
0.37318179 0.45855281 2.094691
0.42395282 0.46499407 2.0855818
0.5656274 0.46712697 2.0912521
2.4379532 0.47534943 2.0749116
-0.58098173 0.54206645 2.0855665
2.4418011 0.52317077 2.066633
-0.58379608 0.57959151 2.0891187
2.4426961 0.57606113 2.082783
2.4529612 0.56337512 2.0561419
2.4445813 0.62437457 2.0747657
-0.60374212 0.69171697 2.0985787
2.4441671 0.67149353 2.0712388
2.4516215 0.68633419 2.0786698
-0.60378039 0.7396729 2.0871391
2.4403765 0.72501183 2.0730958
-0.60539055 0.76295972 2.0872617
2.4372573 0.77616948 2.0807118
-0.61017811 0.81202006 2.092206
2.4446216 0.82497162 2.0722067
2.4521 0.83726609 2.0612793
2.4423938 0.87478334 2.0796027
2.4416142 0.92507035 2.0773938
2.4500377 0.93006265 2.0553582
2.4428389 0.97642291 2.075994
2.4419374 1.0306221 2.0809944
2.4422762 1.0788658 2.0764754
2.4387405 1.1292154 2.0726464
2.4367995 1.1768526 2.0731397
2.4386866 1.2306181 2.0809164
2.4419684 1.2756801 2.0666327
2.4384761 1.3260939 2.0682209
2.4414639 1.3745983 2.0794024
2.4402578 1.425137 2.0805807
2.4402502 1.4726634 2.0770848
2.441268 1.5254203 2.0768833
2.4442081 1.5800651 2.0776701
2.4461522 1.6215078 2.0841761
2.4547961 1.6308204 2.0680845
2.443224 1.6695049 2.0891497
-2.0309663 -0.46448618 2.1246986
0.069080271 -0.26861107 2.1338236
0.15578011 -0.26547554 2.1263893
0.2070922 -0.25557154 2.1269357
0.26016793 -0.25750098 2.1393311
0.62126946 -0.26424372 2.1475308
-0.14889482 -0.20191519 2.1070769
-0.084630817 -0.24114086 2.1415927
0.2116833 -0.2447806 2.1224704
0.28456131 -0.2220457 2.1295409
-0.16681463 -0.17625661 2.1436181
0.28557354 -0.1702565 2.1306131
-0.16514054 -0.13298456 2.1376059
0.28485262 -0.13939388 2.1234071
0.33270657 -0.11342063 2.1436267
0.37399349 -0.11342435 2.1393147
0.40639102 -0.11382689 2.143255
1.1317731 -0.14507194 2.1446183
1.1694217 -0.14487067 2.1265426
1.2015998 -0.14537528 2.1226735
1.6576757 -0.13430265 2.14726
1.4679651 -0.064577498 2.1469545
0.14013085 -0.03052998 2.132206
0.22652343 -0.015236833 2.1258273
0.72084475 -0.010376429 2.1177559
0.75708658 -0.010435199 2.1238499
1.4633305 -0.029080698 2.1407142
-0.1583975 0.010090122 2.1048341
0.16533917 0.010198499 2.1280448
0.22011101 0.016919473 2.129215
0.69341964 0.0001012257 2.1201024
0.72207284 0.0053639826 2.1213813
0.75882548 0.0054155113 2.1287
1.4600134 0.035644535 2.1357346
-0.32095575 0.07081449 2.1025696
-0.16281459 0.058530163 2.1093123
0.11472412 0.081579365 2.1337347
1.4604819 0.073994115 2.1414866
2.4084442 0.18626584 2.1016736
0.79214311 0.22695002 2.1386049
0.81448179 0.2366914 2.144208
2.4175527 0.22634313 2.1176443
0.79977679 0.27479488 2.1491294
0.8077175 0.27780539 2.1448028
1.9309465 0.2659744 2.1304388
2.4306819 0.27498233 2.1262019
0.52319121 0.32282329 2.1242778
0.81248617 0.32405937 2.1467071
2.4318256 0.32555243 2.1209445
-1.6703769 0.35739627 2.1303434
-0.56807894 0.37630603 2.1345375
-0.54586625 0.36930707 2.1451197
0.6067766 0.39070821 2.1025033
0.81353211 0.37312937 2.1439569
1.6323671 0.38962486 2.1116021
1.9018551 0.36237344 2.1343462
2.4353719 0.3767795 2.1194806
-1.6793574 0.42736214 2.1314287
-0.57471317 0.42563295 2.1278379
0.58262169 0.44945464 2.1064944
0.81535614 0.42272329 2.1424003
1.5860451 0.43553638 2.1132929
1.6443944 0.42011669 2.1470108
1.9415455 0.41985559 2.1458893
2.4356651 0.42567 2.1265125
-0.57546324 0.47430214 2.1317289
0.28579468 0.4840591 2.1095614
0.30128974 0.47899911 2.1092229
0.37894294 0.47434163 2.1038706
0.40473428 0.47437605 2.100806
0.58397776 0.46308276 2.1026993
0.79467094 0.482925 2.1419277
0.8138181 0.47561821 2.1442695
1.5886708 0.47257829 2.1104157
2.4334853 0.47610703 2.1270058
-0.57976002 0.5217815 2.1384904
0.23374097 0.54625058 2.1479018
0.79873699 0.52719986 2.1458926
0.80906099 0.5258981 2.1416578
2.4335802 0.52661306 2.1252108
-0.58262563 0.57486308 2.1279337
0.24458317 0.59960979 2.1406329
0.80817318 0.57782978 2.1408062
2.4333 0.57145602 2.1253505
-0.58497548 0.62963128 2.1261802
0.23767298 0.61628294 2.1220493
0.41406763 0.63302249 2.1229577
0.80883199 0.62530673 2.1386962
2.4346428 0.62531364 2.1225421
-0.58197731 0.67193896 2.1333172
0.013169327 0.65118241 2.1362741
0.25819814 0.69207591 2.1483688
0.79677862 0.6765663 2.1445768
0.81232834 0.67745018 2.1395774
1.4470876 0.67436832 2.1297095
1.6687801 0.68200135 2.1499031
2.437113 0.67443264 2.1276095
-0.586151 0.7280224 2.1307225
0.32280797 0.72316533 2.1409709
0.52575469 0.73239493 2.1441319
0.79802734 0.72548991 2.1367071
0.80660951 0.7223323 2.134407
1.4265983 0.72414494 2.1351173
1.6205711 0.71988028 2.1312926
1.661695 0.7132231 2.1443634
2.4365919 0.7256285 2.1213145
-0.60104585 0.76568508 2.1130462
-0.5870316 0.77215725 2.1319106
0.30979171 0.75200558 2.1174963
0.43366453 0.79738039 2.1316345
0.79982215 0.75296098 2.135093
0.80827338 0.77239895 2.1369882
2.4321342 0.77297348 2.1312706
-1.044764 0.80622017 2.1468666
-0.60519052 0.83612865 2.1099749
-0.58765799 0.82207566 2.135112
0.0027186559 0.80874324 2.1451254
0.79568082 0.82101732 2.1404059
0.80577981 0.819933 2.1345327
1.4194461 0.81857407 2.1494391
2.4356654 0.82551688 2.1221917
-0.60332739 0.87116909 2.115005
-0.59023547 0.87548268 2.1397078
0.38595515 0.89791161 2.1491518
0.79674202 0.88405484 2.1374648
0.80665785 0.87423754 2.1348486
2.4339828 0.87849045 2.1295235
-0.60576582 0.93245077 2.1286633
-0.58928859 0.92663831 2.1423724
0.36396956 0.90863657 2.1480622
0.79270643 0.92551357 2.137044
0.80880862 0.9305045 2.1344118
2.439234 0.9269979 2.1273496
-0.60611749 0.97307879 2.1326149
-0.59434879 0.96019554 2.1445975
0.18886526 0.97441882 2.1438146
0.79799253 0.97147006 2.1382346
0.80738544 0.98313379 2.1376936
2.4325945 0.97309452 2.1230466
-0.61063755 1.0040991 2.1245117
0.024635276 1.0175875 2.1337903
0.79714185 1.0235146 2.1407166
0.80675626 1.0236974 2.1278307
2.4313755 1.0202671 2.1267643
0.79313666 1.0539731 2.1326096
0.8054238 1.0665488 2.1272213
2.4325185 1.0726897 2.1281018
-0.65087008 1.1472826 2.1364958
-0.64654517 1.1218123 2.141489
0.7936269 1.1340733 2.1435695
0.80981398 1.1265066 2.1375551
2.4346905 1.1224433 2.1245518
-0.65422273 1.1647258 2.1427858
0.79714489 1.1566132 2.1459138
0.8108874 1.1713232 2.1430809
2.4295495 1.1727295 2.1274228
2.4330628 1.2252969 2.1280029
2.4317763 1.2781293 2.1238203
2.436446 1.3300825 2.1235626
2.4363492 1.3811662 2.1265426
2.4365032 1.4317394 2.1307173
2.4435351 1.4814358 2.1346531
2.4368427 1.5177938 2.1268706
2.4391448 1.5765972 2.1272945
2.4511046 1.5751952 2.1262577
2.4410977 1.6268406 2.1184416
2.4385886 1.6754923 2.1345448
2.4383445 1.7226282 2.1219711
2.4423902 1.7755932 2.1246338
2.4372075 1.8599993 2.1481397
-2.0069318 -0.53884447 2.1862738
-2.0413797 -0.46324384 2.1619847
-2.1806233 -0.41638151 2.187923
-2.1332266 -0.41432148 2.1810088
0.030280141 -0.26096052 2.1865954
0.074023291 -0.25843239 2.1959422
0.12679017 -0.25519097 2.1868629
0.1758156 -0.25180712 2.1858277
0.23305865 -0.26700988 2.176563
0.25604165 -0.2672554 2.1625512
0.58673304 -0.26204652 2.1723266
0.62384146 -0.26121205 2.1833789
0.65784502 -0.25976962 2.1958125
-0.11704969 -0.21540321 2.1868644
-0.078301176 -0.22634268 2.1913321
0.023725918 -0.23584367 2.1963105
0.13942069 -0.23559467 2.1942036
0.16838957 -0.22875151 2.1913693
0.23343813 -0.23951004 2.1990216
0.26920372 -0.225463 2.1850164
0.58270943 -0.22542906 2.1936622
0.62972283 -0.24853277 2.1983359
0.66201639 -0.2377301 2.1923006
-0.15833534 -0.16611321 2.1694067
-0.13402198 -0.17521946 2.1970527
0.016690245 -0.1821474 2.1983612
0.16565834 -0.17872164 2.1954813
0.27727416 -0.18201497 2.1738572
0.58230001 -0.17165077 2.1953316
0.66442078 -0.1671275 2.1919355
1.5952795 -0.1587519 2.1813097
1.6043835 -0.15843198 2.1698968
-0.21397087 -0.11646099 2.1836121
-0.16238269 -0.12524931 2.1824441
-0.12501605 -0.13216761 2.1994629
-0.086539164 -0.10492125 2.1973147
0.019170834 -0.13345613 2.1981339
0.14151293 -0.11664632 2.1962538
0.16534999 -0.12589116 2.1937029
0.28041732 -0.12073904 2.1797011
0.31359577 -0.11229547 2.1746168
0.37339908 -0.10586387 2.1979594
0.42873019 -0.1103757 2.1764755
0.47067958 -0.11374314 2.174376
0.52247137 -0.12190585 2.1810699
0.55872488 -0.13230534 2.1708765
0.66801637 -0.11821212 2.1861579
0.99118006 -0.1003276 2.1932988
1.0329112 -0.10467874 2.1951754
1.0828526 -0.13508025 2.1864855
1.1416173 -0.14633915 2.1633372
1.1620443 -0.14177436 2.1764998
1.2292652 -0.13855903 2.1973257
1.2775085 -0.13938396 2.1935
1.3211775 -0.13905266 2.1679926
1.381951 -0.14108729 2.1807568
1.4270153 -0.14262626 2.1902356
1.4728233 -0.12865449 2.1756196
1.6684356 -0.11666343 2.1620409
-0.22351068 -0.073602475 2.1970801
-0.19704212 -0.077033952 2.1967733
-0.14428335 -0.062947139 2.1966755
-0.0846496 -0.09077397 2.1941283
0.013167371 -0.052455038 2.1998959
0.1414887 -0.073466979 2.1970789
0.17371818 -0.078740463 2.1960921
0.22490013 -0.070528939 2.1993804
0.27160293 -0.073787987 2.1988399
0.32212913 -0.060679778 2.1977441
0.36808881 -0.084676623 2.1990626
0.43301964 -0.053068787 2.1990943
0.49344137 -0.053276286 2.1999128
0.53191149 -0.053384174 2.1988211
0.67950416 -0.089887738 2.1942062
0.7266202 -0.087432057 2.1805246
0.75664264 -0.078036688 2.19119
0.82048959 -0.092518054 2.1839182
0.87562579 -0.091702431 2.1872451
0.93170661 -0.094001524 2.1921022
0.96277148 -0.088748604 2.1916349
1.4819016 -0.083317474 2.1748316
1.672219 -0.079841785 2.1682329
-0.22750513 -0.030355789 2.1965985
-0.19692636 -0.036732286 2.1961787
0.018412625 -0.010466985 2.1998372
0.13375978 -0.02225383 2.195827
0.15935197 -0.01563569 2.18595
0.27834857 -0.022134189 2.1922331
0.32082841 -0.02278935 2.1952703
0.62652653 -0.04293406 2.1961277
0.89232403 -0.04405012 2.1978831
1.1985129 -0.011240669 2.1958046
1.2133996 -0.034323443 2.197176
1.6776297 -0.030492561 2.1762111
-0.23956446 0.031635009 2.1991284
-0.19690093 0.026288543 2.1959362
0.017639196 0.026958352 2.1960416
0.14373308 0.024513254 2.1962688
0.15904567 0.01563389 2.1817124
0.27446702 0.021041488 2.1904314
0.32317203 0.015853485 2.1961396
1.4660552 0.048160404 2.1800346
1.6749358 0.019095337 2.172766
-0.23418219 0.071972676 2.1977096
0.028104438 0.058408014 2.1957948
0.079647139 0.068450853 2.1899004
0.11365958 0.067013279 2.1921191
0.24307816 0.062754706 2.1817517
0.27542856 0.062979624 2.1870182
0.30759677 0.063129358 2.1894181
1.2281858 0.081182323 2.1973121
1.2690715 0.081598572 2.1935008
1.4608716 0.071987323 2.1797574
1.5725983 0.0977825 2.1762984
1.6861093 0.056615151 2.1867251
-0.1060915 0.14504351 2.1662939
-0.080810055 0.13042486 2.183382
0.6843698 0.21920589 2.1910715
0.72396523 0.21701342 2.18817
0.77981544 0.22344142 2.185189
0.84767878 0.23057131 2.1847706
1.0640429 0.22481003 2.1762013
1.2754685 0.22211181 2.1972518
1.3247833 0.223548 2.19292
1.3517109 0.22317304 2.1756544
2.382 0.23044637 2.1541753
2.4133217 0.24221908 2.1635685
0.79861057 0.26724046 2.1789978
0.82027286 0.27754325 2.1667299
1.425313 0.27527401 2.1897767
1.732949 0.27834249 2.1847191
1.7975307 0.28257686 2.1921318
1.8641843 0.2849831 2.1742201
1.942822 0.26623532 2.1849697
1.9551518 0.26363659 2.1701336
2.0124826 0.25527471 2.1972926
2.2638366 0.28357711 2.1969559
2.3770459 0.28888112 2.1703496
2.4162214 0.27655423 2.1670618
-1.7687743 0.3384088 2.1862595
-1.6748124 0.34358048 2.1743121
-0.2082383 0.31642905 2.1891661
-0.19777136 0.30600387 2.1916747
-0.070768535 0.30415216 2.1834908
-0.044063583 0.30093306 2.16084
0.033824593 0.31704813 2.1632605
0.66496444 0.30950373 2.1956489
0.79694289 0.32781371 2.1781125
0.81890553 0.32464042 2.1671693
1.4513029 0.32356933 2.175632
2.0388401 0.33107829 2.1920562
2.4186678 0.32403129 2.1744344
-1.7231323 0.37222055 2.1794491
-1.691781 0.38690624 2.1540647
-1.177634 0.37841192 2.1912799
-1.1495887 0.39963973 2.1678739
-0.55561787 0.38827443 2.1597388
-0.53261805 0.38156164 2.1800606
-0.46884075 0.36447051 2.1940587
-0.40393403 0.36391968 2.1992986
-0.37500134 0.36178735 2.1895421
-0.34621778 0.35954285 2.178896
0.64849252 0.3875699 2.1701794
0.79732281 0.37548146 2.1828127
0.82606453 0.37521046 2.1734769
1.4627466 0.38037202 2.1858971
1.9368185 0.39010566 2.1830263
1.9707708 0.39423382 2.1960506
2.0439086 0.35217693 2.194766
2.4204702 0.3747094 2.1741693
-1.7509413 0.44234455 2.1976652
-1.7169113 0.41894111 2.1902151
-1.6947865 0.44077954 2.1740308
-1.1517889 0.41596264 2.1966782
-1.0835838 0.40052003 2.1984301
-1.0278106 0.4224866 2.174999
-0.56237376 0.42550957 2.1633999
-0.54196888 0.42619988 2.1901028
0.023971688 0.44668183 2.1992488
0.65499169 0.40232611 2.1905794
0.79827458 0.4238112 2.1798191
0.80527723 0.42631871 2.1562142
1.8693812 0.43133512 2.1848836
1.9028227 0.40682882 2.1784768
1.9581796 0.43418396 2.1793919
2.4238391 0.4227348 2.174973
-1.0334305 0.47525319 2.1880527
-0.55733395 0.47327659 2.1605654
-0.54285252 0.47547761 2.1868618
-0.018616775 0.49060389 2.1994545
0.021281723 0.47529647 2.1922188
0.79897684 0.4730683 2.1756465
0.8031227 0.46647882 2.1794703
1.4432733 0.46849787 2.1672196
2.42137 0.47606653 2.1689377
-1.0231609 0.52161062 2.1778398
-0.56315386 0.52654517 2.1699524
-0.54034036 0.51292765 2.184752
-0.0079517672 0.50119525 2.1975729
0.0027075403 0.50063187 2.1951115
0.24014035 0.53091246 2.1858876
0.28205088 0.52649271 2.1988864
0.57604414 0.53559542 2.1744032
0.7958706 0.52339351 2.1722288
0.8147471 0.52235198 2.165391
1.4093578 0.54130596 2.1757658
1.6350186 0.52459699 2.1897526
2.4162154 0.52337241 2.1789575
-1.0217981 0.57523865 2.1796944
-0.5623939 0.57295793 2.1708536
-0.54306507 0.5732581 2.1953986
-0.015096483 0.58448976 2.1897531
0.0053600683 0.58643591 2.1726215
0.24699366 0.58423966 2.1656635
0.27396682 0.58118117 2.1855941
0.32527336 0.58601463 2.1863196
0.37441516 0.58723372 2.185638
0.42411226 0.58892781 2.1858778
0.46740565 0.58544207 2.1810174
0.58241028 0.57976061 2.184149
0.62393165 0.59378362 2.193768
0.67827082 0.59460825 2.1933305
0.71694595 0.59452581 2.195092
0.79379064 0.5882706 2.1793568
0.82087529 0.56862658 2.174912
0.86455405 0.59718573 2.1965013
1.3983955 0.57178891 2.1774282
1.4035676 0.59201795 2.1816974
1.6652975 0.5546149 2.1752982
2.4188836 0.57391715 2.1739323
-1.0230643 0.62148911 2.1732142
-0.56482464 0.62553495 2.1744356
-0.54570508 0.62543857 2.1967754
-0.013403568 0.62385285 2.1962368
0.0086098509 0.62722075 2.1774683
0.27745914 0.62495846 2.188256
0.32625735 0.62460351 2.1894336
0.37589511 0.6220367 2.1881642
0.42302269 0.62269872 2.1827435
0.46215338 0.61086506 2.177803
0.58765656 0.62503636 2.1785817
0.6231972 0.62314016 2.1891363
0.67289907 0.62345821 2.1902437
0.72672999 0.6269213 2.1895242
0.78000796 0.62507677 2.1818099
0.84127653 0.62066609 2.1790626
0.87780476 0.62678385 2.1925564
0.92889416 0.63081563 2.1931982
0.97552514 0.629583 2.1974421
1.0210688 0.6330049 2.1959851
1.0709019 0.63461143 2.1959343
1.1177518 0.62756985 2.1959503
1.1822144 0.63997585 2.1979318
1.2304715 0.64075959 2.1986885
1.2519312 0.6367085 2.1988406
1.3255364 0.63759071 2.1968985
1.3859539 0.63388354 2.1917026
1.4179835 0.62991101 2.1737986
1.7164538 0.6398983 2.174799
1.8183018 0.61582452 2.1687107
2.4178245 0.62215579 2.1726446
-1.0526165 0.6730504 2.198437
-1.0359284 0.68521297 2.1583211
-0.5627777 0.67073494 2.1680267
-0.54269928 0.67195225 2.1907153
-0.011669536 0.67906499 2.1962469
0.0027405426 0.67435288 2.1934078
0.27842429 0.67574739 2.1859431
0.32428402 0.67575717 2.1921253
0.36937854 0.67228699 2.1843622
0.40328303 0.65504146 2.1803608
0.58798456 0.6714018 2.1759937
0.62701565 0.676911 2.1905603
0.67411923 0.67147547 2.190522
0.7216121 0.67438662 2.18999
0.77723366 0.67657351 2.184108
0.84304744 0.67408246 2.1792502
0.87815386 0.67246026 2.1909001
0.92316788 0.68027699 2.1933796
0.9715215 0.6736843 2.1938269
1.0246109 0.675623 2.1947117
1.0711031 0.67790979 2.1963038
1.1220722 0.67591435 2.1948278
1.1742388 0.6747961 2.1961615
1.2146139 0.66095912 2.1983831
1.2880799 0.6849364 2.1998496
1.3137592 0.68736875 2.197861
1.3841223 0.67703819 2.1974447
1.4226621 0.67798805 2.185859
1.4615425 0.67763793 2.177938
1.7224725 0.67369127 2.1830051
1.9285389 0.66927397 2.1794541
2.4214513 0.67418736 2.1797662
-1.0593112 0.71614528 2.1732733
-0.56501079 0.72290921 2.1651626
-0.54737931 0.72489822 2.1925511
-0.010255963 0.71795797 2.1960578
0.0027529898 0.726376 2.1933424
0.28545061 0.71914679 2.1813135
0.32032636 0.7175228 2.1830876
0.35098806 0.7074545 2.1877503
0.5208106 0.74169433 2.1613798
0.57681346 0.72838789 2.1791413
0.62555057 0.72854114 2.1931674
0.67659265 0.72385275 2.190599
0.72478557 0.72212863 2.1894903
0.77813923 0.7253167 2.182143
0.83550447 0.73165208 2.1725023
0.87291574 0.72242332 2.1918254
0.92474908 0.72733408 2.1944509
0.9735828 0.72168344 2.1944444
1.0266298 0.72221053 2.1975965
1.0751928 0.72776985 2.1979263
1.124135 0.72339672 2.1975706
1.1759425 0.7254284 2.1960018
1.2346317 0.72060943 2.1969457
1.2701387 0.73373115 2.1985021
1.3288611 0.72215432 2.19788
1.3860613 0.72349268 2.1961062
1.4267404 0.7259782 2.1819177
1.6784449 0.71309882 2.1636097
1.7093761 0.71258152 2.1721153
1.7595849 0.73192763 2.1961384
1.9346683 0.72337091 2.1988809
1.9524277 0.70464659 2.1990988
2.4219956 0.72964424 2.1756635
-1.0617706 0.78564376 2.1756959
-0.56162149 0.77818036 2.1727903
-0.54318792 0.76513445 2.1923013
-0.01415662 0.76974732 2.1907241
0.0027470458 0.77632403 2.1771932
0.30889443 0.76007533 2.1630328
0.48036364 0.78184688 2.1774476
0.52514654 0.78123236 2.1857471
0.57566464 0.77284217 2.1879418
0.62242615 0.77606046 2.1920927
0.67442346 0.77682722 2.192064
0.725519 0.77351779 2.1903348
0.78140134 0.77542704 2.1832814
0.83888578 0.78180659 2.1763039
0.87797183 0.77236658 2.1932008
0.92568219 0.77603573 2.1950684
0.97260356 0.77323323 2.1946378
1.0223012 0.77999532 2.1963201
1.0745528 0.77661151 2.1965673
1.1226057 0.77756351 2.1959286
1.1857671 0.76636153 2.1981094
1.2123756 0.78465933 2.1983895
1.2789412 0.7731657 2.1971228
1.3147653 0.76417029 2.1952214
1.3933897 0.78173018 2.1976352
1.4221307 0.77468508 2.1895068
2.4203227 0.77468735 2.1786239
-0.56397802 0.82441711 2.1720641
-0.54483724 0.82727623 2.1964152
-0.013657517 0.8272664 2.1941092
0.44499433 0.83482283 2.1829154
0.47530144 0.82757205 2.1884248
0.52357543 0.82831329 2.1897511
0.57500356 0.82369775 2.1904039
0.62516248 0.82434881 2.1901326
0.67379832 0.82902753 2.1929896
0.7223081 0.82146299 2.192107
0.77622938 0.82499325 2.1882777
0.83797807 0.82393199 2.173028
0.87795705 0.82051092 2.1924267
0.92408717 0.82883984 2.1952796
0.97557354 0.82514858 2.1964583
1.0286486 0.82678914 2.1955271
1.0794528 0.82022488 2.1982498
1.1139938 0.82397437 2.1970263
1.1719612 0.83445358 2.1972799
1.222435 0.82068092 2.1984122
1.2666625 0.83472568 2.1980903
1.412969 0.82403374 2.183033
1.8398252 0.81625652 2.170877
1.885379 0.80738384 2.1925564
2.4207408 0.82325894 2.1746898
-1.0477531 0.8759231 2.1640191
-0.5642696 0.87230051 2.1714087
-0.54686439 0.86963731 2.1938095
-0.01295484 0.87583989 2.1964252
0.43527094 0.87944257 2.1792896
0.47761059 0.87712657 2.1924427
0.52391803 0.87986749 2.1920166
0.57349277 0.87238598 2.1925676
0.62494653 0.87526417 2.1927896
0.67551297 0.8800385 2.1957231
0.72588414 0.87125921 2.1943307
0.77836466 0.87495893 2.1886373
0.83617318 0.87351239 2.1717486
0.87495708 0.87372017 2.1942258
0.92929733 0.87932229 2.1944692
0.97684956 0.87182689 2.1957724
1.0199418 0.88054466 2.1961107
1.0695798 0.87732142 2.1981754
1.1431814 0.87343955 2.1976159
1.1638105 0.86198986 2.1945505
1.2277769 0.88059646 2.1977472
1.2746629 0.8725394 2.1981635
1.3042648 0.89653808 2.1989586
1.3878709 0.87596339 2.1936383
1.4173585 0.8791244 2.1787577
1.7929151 0.85609502 2.1627114
1.8398974 0.85873049 2.1981826
2.4243939 0.86749631 2.1757245
-1.0653846 0.90253812 2.196748
-0.56928372 0.92145836 2.1747053
-0.54968363 0.90231025 2.1970441
-0.013018733 0.92738473 2.1930916
0.33049682 0.94266462 2.1638947
0.3794947 0.9316476 2.1814582
0.42428795 0.92837018 2.1925526
0.47466773 0.927001 2.1924524
0.52584231 0.92646956 2.1936193
0.57536167 0.92345375 2.1945987
0.6229772 0.92733598 2.1970742
0.67265427 0.92314857 2.195245
0.7236324 0.92101192 2.1954598
0.78133458 0.92584753 2.1924784
0.83707708 0.92237663 2.1716127
0.87610883 0.92932194 2.1964395
0.92143542 0.92754906 2.1969974
0.97513568 0.9237377 2.195852
1.0250928 0.92641765 2.1960266
1.0587722 0.90784156 2.1956205
1.1126662 0.92194366 2.1964195
1.1679208 0.92389745 2.1988983
1.2338593 0.92899704 2.1978102
1.2774637 0.9225682 2.1972482
1.3139335 0.92503023 2.1982596
1.3780435 0.91296232 2.1974111
1.4272728 0.92785102 2.1885371
1.7930799 0.92561543 2.1798916
1.8028613 0.92054337 2.1814806
2.4237638 0.92274314 2.1735449
-1.0544645 0.96277833 2.1837561
-0.60452503 0.99003762 2.1524057
-0.58372432 0.96735173 2.181685
-0.013083727 0.97508293 2.1911108
0.19002365 0.99141413 2.153388
0.21011199 0.99169916 2.1948371
0.27988091 0.98114109 2.185667
0.32469645 0.97807777 2.1916656
0.37546152 0.97465694 2.1962035
0.4262526 0.97682047 2.1969206
0.47264412 0.97939485 2.1960676
0.52675349 0.972552 2.1951344
0.57708627 0.97395462 2.1965692
0.62783021 0.97657478 2.1978264
0.67751563 0.96889085 2.1972778
0.71775776 0.97258991 2.1984565
0.78169411 0.97834378 2.1911132
0.82236463 0.98130256 2.1713035
0.87250239 0.97734648 2.1974421
0.93191934 0.970474 2.1980991
0.9713667 0.96989119 2.196641
1.0239179 0.97190475 2.1988025
1.0736536 0.97676224 2.1985755
1.1213835 0.96688569 2.1983936
1.1958308 0.96193153 2.1994455
1.2260164 0.96168751 2.1966434
1.2780981 0.97934717 2.1990645
1.3280293 0.97012341 2.1972306
1.3778614 0.97497678 2.1957371
1.4251462 0.96988851 2.1903405
1.4597276 0.98143387 2.1821206
1.7830299 0.98434544 2.1860688
1.8007941 0.96658713 2.1897271
2.4223478 0.9771024 2.1722972
-1.0543187 1.0337121 2.1916363
-0.61423004 1.0271957 2.1797183
-0.012094469 1.0116857 2.1940801
0.025140945 1.0452662 2.1781518
0.075110652 1.0459975 2.1653769
0.10841428 1.0451455 2.1626232
0.19374494 1.0333232 2.1880758
0.22163521 1.0233375 2.1966147
0.26574963 1.0196875 2.1985109
0.31935224 1.0231978 2.1977232
0.37266955 1.0114971 2.1995747
0.43304101 1.0228946 2.1974995
0.47349739 1.0211444 2.1973479
0.51662701 1.0204513 2.1975923
0.57170665 1.0180541 2.1984479
0.63551116 1.0095187 2.1983902
0.68924969 1.0233388 2.1971045
0.71971226 1.0209311 2.1979568
0.78833884 1.0180614 2.1854215
0.84149772 1.0257148 2.1831448
0.87649983 1.0166117 2.1951158
0.92615288 1.0275224 2.1983182
0.95182443 1.0084697 2.1988056
1.0607289 1.0099987 2.1988773
1.1388227 1.0146935 2.198524
1.1762027 1.0269246 2.1968753
1.2054828 1.0187963 2.1998005
1.2664597 1.0284908 2.1985872
1.3358101 1.0265937 2.1991868
1.3737676 1.0228496 2.1974912
1.4251163 1.0218171 2.1950059
1.4711677 1.0238574 2.1899247
1.5123944 1.033411 2.1754975
1.7970681 1.012296 2.1953468
2.4192879 1.0313154 2.1759393
-1.011524 1.09952 2.197933
-0.63473272 1.0706985 2.1790919
-0.014090909 1.0687714 2.1997671
0.025435269 1.0747267 2.1940715
0.077110045 1.0785081 2.1935666
0.12271531 1.0845672 2.1855636
0.18869156 1.0834023 2.1940353
0.22336628 1.0676818 2.1980569
0.26218882 1.06662 2.1978118
0.32656747 1.0564485 2.1980677
0.44826421 1.0508528 2.1989226
0.47808558 1.0718429 2.1984172
0.51399696 1.0626299 2.1994727
0.62843275 1.0659399 2.19943
0.68479598 1.0684503 2.1983552
0.70625228 1.0688666 2.1982059
0.78311723 1.0652069 2.1906259
0.82622224 1.078604 2.178092
0.86614567 1.0684141 2.1951945
0.91882479 1.058866 2.199403
0.99813229 1.0554259 2.1975968
1.18051 1.0631756 2.1979754
1.220587 1.0634551 2.1994166
1.2716149 1.0859572 2.1973116
1.3416692 1.0562463 2.1991835
1.3798565 1.0651866 2.1976287
1.4207714 1.0755465 2.1951625
1.4748391 1.0751325 2.195544
1.5221879 1.0761895 2.1897411
1.5682296 1.0774777 2.1805995
1.618971 1.0909537 2.1824155
1.7944961 1.0727879 2.1960406
2.4186809 1.0759598 2.1774652
-0.8191148 1.1418259 2.1819415
-0.79007208 1.1399895 2.1714847
-0.63459527 1.1343946 2.1895926
0.03003357 1.1203532 2.1988521
0.079195142 1.1222367 2.1986165
0.12606134 1.1145031 2.1951387
0.17190464 1.1188167 2.1969163
0.22773033 1.124369 2.1998014
0.30145627 1.1427755 2.1982386
0.79553586 1.127861 2.185802
0.824718 1.1188036 2.1809831
0.86007643 1.1133561 2.1994648
1.242085 1.1393327 2.1989381
1.2616045 1.1212244 2.1994095
1.3799351 1.1287537 2.1975021
1.4299514 1.1281289 2.1965456
1.4715198 1.1188905 2.1922584
1.5231206 1.1262598 2.191344
1.5806943 1.1276193 2.189908
1.6256338 1.122584 2.1882617
1.6759387 1.1317356 2.1884708
1.7574657 1.1072593 2.1851864
2.4243004 1.1277883 2.1741292
-0.80021363 1.1579062 2.1766841
-0.65694243 1.1905447 2.1929858
-0.64530551 1.1737208 2.190321
0.037466507 1.1980097 2.1995287
0.090929233 1.1752306 2.199188
0.1059297 1.1621991 2.1959295
0.15279052 1.199235 2.1981285
0.22121643 1.160722 2.1999958
0.33650097 1.1505611 2.1963067
0.79562581 1.1597331 2.1818554
0.82789469 1.1729367 2.1559374
1.1991942 1.1591834 2.1953719
1.3138949 1.1529605 2.1982641
1.383446 1.1507905 2.1949675
1.4257493 1.1777093 2.1974721
1.471445 1.174325 2.1943521
1.524465 1.1772765 2.1926186
1.5732796 1.1749208 2.1897199
1.624061 1.1697929 2.1861854
1.668837 1.1827475 2.1929524
1.7142617 1.1790299 2.1965334
2.4210508 1.1756719 2.178354
-0.81632495 1.2263579 2.1797495
-0.72548807 1.2322276 2.1734767
-0.65736109 1.2148976 2.1845484
-0.64723504 1.2062021 2.1978123
0.095243916 1.2119956 2.1980951
0.15390188 1.2428206 2.1998777
0.74522257 1.2333766 2.1988142
0.83023298 1.2292291 2.1899819
1.0284346 1.2481502 2.1984293
1.4305634 1.220065 2.1967316
1.4839935 1.2193795 2.1970129
1.5269672 1.2317377 2.1975029
1.5752684 1.2267003 2.1963627
1.623433 1.2191862 2.193054
1.6777763 1.2219436 2.1969872
1.7116015 1.2258989 2.1959252
2.4217303 1.2221586 2.1789677
0.11930816 1.2803017 2.1911125
0.15412079 1.2562261 2.1981161
0.2305513 1.2781196 2.1930556
0.2922259 1.2963839 2.1563783
0.32012171 1.292412 2.1969099
0.82360291 1.26301 2.1987312
1.0436603 1.2516017 2.1998496
1.3852214 1.2913548 2.1984029
1.4263401 1.2540112 2.1995623
1.4902498 1.2710984 2.1968346
1.524395 1.2633042 2.1946688
1.5844624 1.2683643 2.1963842
1.6205971 1.2676325 2.1962759
1.6797181 1.2819443 2.1945035
1.7146702 1.2603517 2.1998353
2.424176 1.2725757 2.1792722
0.15585408 1.3292004 2.197017
0.24313095 1.3125436 2.1881533
0.27517298 1.3132706 2.1889305
0.32109147 1.3080666 2.1982083
1.3087541 1.3061384 2.1999147
1.474564 1.3390312 2.1962643
1.5078936 1.3055872 2.1999605
1.6424558 1.3394156 2.1978729
1.7100754 1.3152933 2.1962979
2.4232261 1.3282434 2.179383
1.4313414 1.375628 2.1984062
1.4512365 1.3556658 2.1978135
1.5031111 1.3532344 2.199537
1.6278306 1.3522681 2.1981051
1.6942215 1.3868052 2.1967423
1.7137396 1.3914179 2.1945989
2.4298725 1.3759959 2.1726975
2.4273667 1.4212651 2.1791408
2.429872 1.475976 2.1770635
1.3302546 1.5287198 2.1996577
2.4310131 1.5297531 2.1757119
2.4320583 1.5802242 2.1661744
2.4372714 1.6304504 2.1728475
2.43487 1.6684152 2.179472
2.4387693 1.720238 2.1805527
2.4413974 1.7735367 2.1760409
2.441365 1.8254086 2.1685884
2.4366145 1.8794787 2.1796005
2.4355335 1.9174275 2.1817796
-2.0316463 -0.51427263 2.2195289
-2.1229746 -0.45623261 2.2129555
-2.0677955 -0.46129304 2.2110052
-2.0270817 -0.47307459 2.2194567
-1.9938788 -0.46796462 2.237232
-2.2640481 -0.41518396 2.2471464
-2.1785843 -0.43264803 2.2096775
-2.1262178 -0.42362368 2.2131526
-2.0745664 -0.42178902 2.2130389
-2.0229063 -0.42599231 2.2278159
-1.9971395 -0.44832414 2.2444329
-2.2217338 -0.37103227 2.2239397
-2.1708405 -0.37406522 2.2183712
-2.1176116 -0.37221611 2.2206376
-2.0678861 -0.37701109 2.2138202
-2.0195312 -0.37419349 2.2271669
-1.9602717 -0.39998445 2.2094462
-2.2122869 -0.33071584 2.2331953
-2.1674943 -0.327912 2.2189388
-2.1273689 -0.32633263 2.2211759
-2.0734174 -0.31970727 2.2217577
-2.0203812 -0.32409665 2.2242844
-1.993858 -0.32982656 2.23211
-2.1258101 -0.28947547 2.2269254
-2.0704505 -0.2856853 2.2196383
-2.0275877 -0.27509853 2.2273493
-1.9971819 -0.28310975 2.2412987
0.097635433 -0.2531662 2.2008369
0.10816827 -0.25312534 2.2001631
-2.0260241 -0.23874629 2.2354105
-0.10797594 -0.20547172 2.201323
-0.087957159 -0.20864284 2.2018142
0.031852793 -0.21309155 2.2015479
0.076510638 -0.22143282 2.2026374
0.12072693 -0.21825057 2.2027259
0.18121614 -0.21651213 2.2025654
0.22201519 -0.21648498 2.2029045
0.25937057 -0.21164781 2.2023878
0.59671295 -0.22669435 2.2037821
0.62495995 -0.22610807 2.2042475
0.65818328 -0.21992357 2.2025974
-0.11619239 -0.17526484 2.2014511
-0.086851336 -0.17376512 2.2024481
0.031830907 -0.17161992 2.2019429
0.076435663 -0.1738136 2.2032602
0.12403783 -0.17407425 2.2052383
0.17508735 -0.17411369 2.2034712
0.22472557 -0.1744158 2.2044311
0.26177034 -0.1744452 2.2022028
0.59595984 -0.17249827 2.2042356
0.62479794 -0.17300667 2.2057781
0.65442455 -0.17682123 2.202636
1.6476327 -0.16146272 2.20415
1.6773772 -0.15623668 2.2077334
-0.22923312 -0.11065038 2.2002234
-0.19771515 -0.11598473 2.2032437
-0.11471644 -0.12303197 2.2020648
-0.086850509 -0.13163604 2.2043159
0.034230176 -0.12213673 2.2022371
0.076369397 -0.12629871 2.2034702
0.11997484 -0.13061149 2.2037711
0.18378186 -0.12836882 2.202039
0.22432151 -0.12661645 2.2025452
0.26370871 -0.12677285 2.2026219
0.33073345 -0.10577357 2.2004578
0.43174639 -0.1063151 2.2006481
0.47955135 -0.1066883 2.2021825
0.53166378 -0.11107157 2.2020738
0.58166188 -0.12083881 2.2049131
0.62423074 -0.12420838 2.2059343
0.65588468 -0.12800856 2.2033813
1.0273077 -0.10112724 2.201879
1.0774409 -0.10894684 2.203403
1.1286793 -0.11977112 2.2047658
1.1782842 -0.11906889 2.2053428
1.2258924 -0.12031022 2.2055206
1.2785964 -0.11674576 2.2089095
1.3230884 -0.11755291 2.2091928
1.3741672 -0.11743253 2.2093906
1.429281 -0.120883 2.2117634
1.4680582 -0.12019836 2.2051337
1.5495301 -0.13457578 2.2148137
1.5746845 -0.12517655 2.217772
1.622478 -0.1319159 2.2177038
1.6725434 -0.12290219 2.2150338
-0.20794195 -0.057885434 2.2006688
-0.19767599 -0.068511248 2.2040663
-0.11970586 -0.074197307 2.2050502
-0.087604798 -0.066167064 2.2062395
0.029790796 -0.074690476 2.2032862
0.076259233 -0.073557884 2.2018185
0.11837454 -0.076606646 2.2018468
0.18966089 -0.065800205 2.2022808
0.22336298 -0.075862765 2.2016106
0.27977839 -0.073889583 2.201555
0.32728982 -0.082867458 2.2019351
0.3749955 -0.072185628 2.2021301
0.42316207 -0.075531565 2.202534
0.47218534 -0.076481737 2.2028205
0.52371317 -0.075965866 2.2034507
0.57456172 -0.076140322 2.2046587
0.62326735 -0.075457163 2.2039933
0.67176163 -0.071130432 2.202111
0.72419727 -0.070190772 2.2024324
0.77815646 -0.07004042 2.201601
0.822411 -0.067466989 2.2017925
0.87174374 -0.064286232 2.202255
0.92707407 -0.06876304 2.2024498
0.97778422 -0.073095873 2.2042291
1.0209361 -0.072930969 2.2027795
1.074245 -0.07348761 2.2046309
1.1264595 -0.073609427 2.2044737
1.175022 -0.075009279 2.2069585
1.2264178 -0.075117104 2.2070506
1.2768598 -0.075672403 2.2071786
1.3237182 -0.076342277 2.2115424
1.3745435 -0.075728305 2.2104177
1.4279048 -0.078952596 2.2098963
1.467922 -0.077992246 2.2063427
1.5459614 -0.085288219 2.2115641
1.571609 -0.080719732 2.2177432
1.6221313 -0.078733884 2.2191701
1.6738479 -0.077423394 2.2208037
-0.21867013 -0.021038709 2.2023342
-0.19796559 -0.015816102 2.2079194
-0.12378695 -0.026317397 2.2067707
-0.086881883 -0.02632066 2.2075219
0.030460441 -0.028504241 2.2031155
0.076296106 -0.026258817 2.2036569
0.11380769 -0.023997735 2.2016609
0.28770578 -0.010516435 2.2005701
0.32539985 -0.013183186 2.2022078
0.64268494 -0.043295968 2.2126546
0.67654651 -0.043373395 2.2103739
0.72843379 -0.043542758 2.2090292
0.77354145 -0.043612484 2.2029703
0.82217693 -0.043862842 2.2052996
0.86400342 -0.044022605 2.203716
0.92570955 -0.044317219 2.2036467
0.97052175 -0.044574954 2.2053063
1.0211958 -0.044820249 2.2039003
1.0734589 -0.045107812 2.2035697
1.1276262 -0.045446381 2.2046554
1.1768556 -0.045790344 2.2069809
1.2266068 -0.031910513 2.2066817
1.2678622 -0.03670856 2.2090909
1.3250831 -0.040994052 2.2145007
1.3766338 -0.035367403 2.2161801
1.4261039 -0.032056294 2.2164428
1.4678547 -0.02975175 2.2071047
1.5468615 -0.030209966 2.2138872
1.5776511 -0.030431557 2.2211893
1.6198553 -0.030613579 2.2191346
1.6720504 -0.030879304 2.2168572
-0.22129525 0.019267552 2.2036035
-0.19742811 3.3367596e-05 2.2019558
-0.12388485 0.021128394 2.2085001
-0.08693362 0.021123571 2.2088304
0.035020616 0.017823007 2.2030287
