ply
format ascii 1.0
comment PCL generated
element vertex 1547
property float x
property float y
property float z
element camera 0
property float view_px
property float view_py
property float view_pz
property float x_axisx
property float x_axisy
property float x_axisz
property float y_axisx
property float y_axisy
property float y_axisz
property float z_axisx
property float z_axisy
property float z_axisz
property float focal
property float scalex
property float scaley
property float centerx
property float centery
property int viewportx
property int viewporty
property float k1
property float k2
end_header
-2.3762941 1.0289801 2.2054036
-2.3221591 1.0259385 2.2072229
-2.2688551 1.022827 2.2082999
-2.2214065 1.031566 2.2067914
-2.1739843 1.0234636 2.210207
-2.1241753 1.0253435 2.2150083
-2.0702429 1.0251333 2.2102494
-2.02614 1.0249693 2.2165656
-1.9710979 1.0224265 2.2166035
-1.923622 1.0305787 2.2193699
-1.8717042 1.0253947 2.2194018
-1.8216347 1.0225496 2.2200847
-1.7777716 1.0294983 2.2218862
-1.7239324 1.0216386 2.2203827
-1.6767433 1.0280974 2.2227917
-1.6245891 1.0243373 2.223357
-1.574122 1.0233562 2.2245214
-1.526692 1.0240581 2.2240107
-1.4776464 1.0246122 2.2249734
-1.4263777 1.0260794 2.2246621
-1.376574 1.0247645 2.2271507
-1.3234856 1.0260636 2.2271807
-1.2736806 1.0236918 2.2242618
-1.2245047 1.0234855 2.2226462
-1.1747755 1.028373 2.222527
-1.1262419 1.0217915 2.218853
-1.0828557 1.0256511 2.2128246
-0.60950214 1.040229 2.20574
-0.57565367 1.0280014 2.2125733
-0.52069741 1.0260165 2.2141511
-0.47350356 1.027684 2.2166562
-0.42662415 1.025347 2.2183201
-0.37666392 1.0240161 2.2186158
-0.3251169 1.0190816 2.2199962
-0.27628919 1.0257462 2.2218266
-0.22252537 1.0262215 2.2203996
-0.17153895 1.0256414 2.2209191
-0.12765935 1.0274593 2.2208581
-0.076496109 1.0263009 2.2200308
-0.036714014 1.0308124 2.2117867
0.24002141 1.0278891 2.2011728
0.2771461 1.0294653 2.2013483
0.32638943 1.0388535 2.202702
0.37518781 1.0375692 2.2013948
0.42336273 1.0296354 2.203234
0.47526497 1.0325561 2.2029161
0.5279929 1.0332154 2.2004871
0.56985527 1.0276618 2.2015109
0.62659705 1.0281421 2.2050161
0.67479467 1.0302619 2.201884
0.72073615 1.0267591 2.2028267
0.77412361 1.0285432 2.2020078
0.88456786 1.0357202 2.2038603
0.92674035 1.0327559 2.2045729
0.97758716 1.0278118 2.2042582
1.0307839 1.03216 2.2040479
1.0771571 1.0241817 2.202487
1.123397 1.0198746 2.2037086
1.1761599 1.0255653 2.2063069
1.230656 1.0302806 2.2068899
1.2720838 1.0244468 2.2057981
1.3242521 1.0237205 2.2039497
1.3585625 1.0290544 2.2025723
1.4122499 1.0414865 2.2020669
1.7907404 1.0057614 2.2032323
1.8262821 1.0299317 2.2245631
1.8775088 1.0243565 2.2320111
1.92032 1.0255634 2.2320127
1.9747851 1.0236151 2.2399845
2.0192528 1.0287576 2.2418313
2.071058 1.0215718 2.2450244
2.1194444 1.0317605 2.2445912
2.1744139 1.0229307 2.2481029
2.2830637 1.0187149 2.2473109
2.3188252 1.0292212 2.2455459
2.3757713 1.0218632 2.2327876
2.4046426 1.0271361 2.207402
-2.4826365 1.0705301 2.211715
-2.422359 1.080642 2.2042949
-2.3678226 1.0773627 2.2068989
-2.311774 1.0781262 2.2075739
-2.2653868 1.0745922 2.2057672
-2.2226458 1.0775683 2.2073293
-2.1728556 1.0748469 2.2090914
-2.1210577 1.0719057 2.2118475
-2.0773265 1.0754405 2.2188928
-2.0268362 1.0768105 2.2194803
-1.9741781 1.0764486 2.2158971
-1.9236312 1.0754451 2.2193394
-1.8729401 1.0741131 2.2196705
-1.8279358 1.0745749 2.2206426
-1.7771485 1.0750006 2.2219718
-1.7250487 1.0765432 2.2228601
-1.6708026 1.0761377 2.2236822
-1.627183 1.0705816 2.2227781
-1.5782186 1.0757838 2.2227824
-1.5231881 1.0740026 2.2252636
-1.4737909 1.0760043 2.2248104
-1.4246427 1.0747125 2.227005
-1.3756436 1.0729997 2.227406
-1.3296536 1.0759465 2.2266145
-1.2768317 1.0760843 2.2251389
-1.2248672 1.0729158 2.2245359
-1.1760579 1.076721 2.2231414
-1.1242601 1.0741004 2.2208822
-1.0829762 1.0760008 2.21629
-0.99935496 1.0994153 2.2020109
-0.8791182 1.0970534 2.2039981
-0.61654359 1.0793253 2.2087343
-0.57367861 1.0735995 2.2147355
-0.5259065 1.0745037 2.2165875
-0.47703949 1.0758334 2.219281
-0.42322361 1.0767801 2.2202673
-0.37313792 1.0762459 2.2227802
-0.32460845 1.0747181 2.2225995
-0.27809563 1.0726202 2.2227397
-0.22795932 1.0724851 2.2219138
-0.17597611 1.071824 2.2226295
-0.12634102 1.0762488 2.2220616
-0.075764172 1.077299 2.2209048
-0.031210899 1.0754247 2.2077944
0.03691927 1.0896107 2.2014647
0.22617364 1.0853651 2.2016039
0.27279127 1.0824078 2.201937
0.32568696 1.0786527 2.2028186
0.37280264 1.0746242 2.2029674
0.42426288 1.0701858 2.2040372
0.47398466 1.0759765 2.2022014
0.53066945 1.0851461 2.2015097
0.578821 1.0758251 2.2039642
0.624789 1.0759332 2.2041421
0.67166305 1.0762434 2.2050285
0.7224471 1.0715841 2.2031548
0.76408911 1.0738893 2.2029874
0.87829417 1.0805868 2.2053945
0.92266464 1.0778762 2.2069767
0.97330219 1.0779935 2.2054031
1.0257059 1.0774834 2.2072093
1.0734085 1.0727868 2.2036035
1.1272961 1.0776652 2.2060325
1.1715221 1.0740829 2.2041883
1.2229769 1.0724944 2.2046266
1.2763627 1.0785868 2.2057707
1.3243188 1.0755323 2.2065604
1.3737223 1.0756844 2.2042212
1.4093391 1.0738406 2.2011364
1.4696859 1.0811577 2.2004218
1.8251452 1.0732523 2.2259653
1.8706468 1.0698463 2.2334769
1.9132096 1.076198 2.2341878
1.9647131 1.0734332 2.2369571
2.0257089 1.0753465 2.2442503
2.0735476 1.0782028 2.2451289
2.1380112 1.0774773 2.2491746
2.1775379 1.0696585 2.2481959
2.2360272 1.0782762 2.2467587
2.2846613 1.0852809 2.2477126
2.3310931 1.0778402 2.2429411
2.3821537 1.0697691 2.2319806
2.4049947 1.0698205 2.2110281
-2.5771761 1.1339302 2.2076378
-2.52932 1.1285927 2.2095349
-2.4734066 1.128474 2.2057776
-2.4180465 1.1128135 2.2016058
-2.3778727 1.1300129 2.2061529
-2.3283453 1.1183971 2.2063856
-2.2778118 1.1234163 2.2070427
-2.2254372 1.1294464 2.2137921
-2.1759934 1.1167479 2.2101576
-2.1251287 1.1247202 2.2156305
-2.0687041 1.1291584 2.2136974
-2.026895 1.1236664 2.2187014
-1.9728284 1.1286732 2.2201717
-1.9207083 1.1245981 2.2204118
-1.8739588 1.1234614 2.220921
-1.8230542 1.1219491 2.2217588
-1.7719088 1.1211798 2.2244012
-1.7256258 1.1314082 2.2268059
-1.6731403 1.1251706 2.2255983
-1.6224859 1.1246383 2.2225695
-1.5716617 1.1256824 2.2238815
-1.5254983 1.1304591 2.226665
-1.4713085 1.1234977 2.2253938
-1.4245505 1.1250151 2.2270117
-1.3721347 1.1216427 2.226615
-1.3214297 1.1250284 2.2284532
-1.2769102 1.1285341 2.2285223
-1.2239206 1.1270823 2.224633
-1.1714344 1.1251636 2.2236512
-1.1274133 1.1217026 2.2229321
-1.0760294 1.1277245 2.2215793
-1.0294615 1.124601 2.2165575
-0.97766358 1.1260682 2.2170837
-0.92389303 1.1243687 2.2143707
-0.87767011 1.1255069 2.2137544
-0.65193784 1.1171334 2.2016454
-0.61994272 1.1227959 2.2058725
-0.57628387 1.1236681 2.2164176
-0.52518135 1.1249901 2.2203498
-0.47479603 1.1247039 2.2220387
-0.42460176 1.1225756 2.2223527
-0.37411204 1.1256107 2.2240355
-0.32682207 1.1225408 2.2232718
-0.27442053 1.1269621 2.2235348
-0.22366454 1.1237148 2.2235754
-0.17566252 1.123585 2.2240429
-0.12479665 1.1223637 2.2219722
-0.072253771 1.1250985 2.2218957
-0.03015884 1.1312907 2.2069066
0.03561464 1.1145804 2.2010326
0.071246989 1.1167864 2.2014148
0.1171959 1.1350591 2.201628
0.17798108 1.1325878 2.2013936
0.22742668 1.1290461 2.2013793
0.26870671 1.1270329 2.2032759
0.32633969 1.125813 2.2059588
0.37569275 1.1216677 2.2030616
0.42634341 1.1252065 2.2047513
0.47010991 1.1267023 2.2059455
0.51910633 1.1290872 2.2068872
0.57733309 1.1249695 2.2064531
0.62606293 1.1256144 2.2056611
0.68006742 1.1240804 2.2069547
0.72841108 1.1274501 2.2083712
0.77503037 1.1286948 2.2110369
0.87780023 1.1267701 2.208123
0.92194754 1.1240096 2.2098093
0.97719502 1.1257898 2.2052748
1.025649 1.1260234 2.2093446
1.0748212 1.1242131 2.20714
1.123957 1.1254162 2.2075317
1.17881 1.12655 2.204042
1.2279328 1.1252956 2.2067044
1.2750072 1.1282558 2.2055509
1.3221108 1.1245457 2.2045469
1.3736223 1.1215516 2.2056367
1.4286196 1.1247457 2.2030408
1.4598095 1.1091601 2.2013772
1.6973825 1.1301336 2.2019696
1.71854 1.135244 2.2028964
1.7861018 1.1287599 2.2192264
1.8223162 1.1225743 2.223279
1.873973 1.1221565 2.2348232
1.9281662 1.1282376 2.2335408
1.9780127 1.1272384 2.2386165
2.0301545 1.1210494 2.2407422
2.075413 1.1314985 2.2450876
2.1115766 1.1283056 2.247448
2.1704357 1.125255 2.2463944
2.2205346 1.1245952 2.24683
2.2679436 1.127377 2.2440066
2.3257432 1.127364 2.2437901
2.3807704 1.1219239 2.2305686
2.4108083 1.1206995 2.2064641
-2.660814 1.1970255 2.2048867
-2.5714016 1.166589 2.2035558
-2.5145693 1.1797413 2.205405
-2.4767587 1.1756229 2.2079177
-2.4281013 1.1839849 2.2131014
-2.3706656 1.1683351 2.2071555
-2.3285542 1.1736788 2.2102191
-2.2697117 1.1756523 2.2081983
-2.2187791 1.1735545 2.2095962
-2.1795547 1.1723105 2.2128003
-2.1278055 1.1693307 2.2115972
-2.0757089 1.1727604 2.2138543
-2.0276561 1.1750116 2.2183905
-1.9753875 1.1698666 2.2203929
-1.9215907 1.1754493 2.22054
-1.8754119 1.1747797 2.2244329
-1.8262404 1.1730441 2.2269616
-1.7728132 1.1758459 2.2271106
-1.7272825 1.1774544 2.2281001
-1.6768951 1.1751922 2.2249174
-1.621845 1.1759956 2.2258012
-1.5709374 1.175185 2.2281089
-1.5215393 1.1756997 2.2223949
-1.4775771 1.1772467 2.2257357
-1.4219044 1.1745946 2.2271125
-1.3753175 1.1738172 2.2272565
-1.3248173 1.1746314 2.2274563
-1.2740057 1.1716571 2.2262034
-1.2253144 1.1734011 2.2239795
-1.1777877 1.1751809 2.2244198
-1.1258465 1.1762322 2.222822
-1.0784839 1.1733364 2.2220175
-1.0238358 1.174072 2.2196238
-0.9717232 1.1755633 2.2152488
-0.92712772 1.1737833 2.2168798
-0.87292641 1.1754016 2.2142889
-0.84191632 1.1657063 2.210706
-0.61687076 1.1820711 2.2129471
-0.57375675 1.1739784 2.2204251
-0.52456033 1.1731285 2.2242196
-0.4723101 1.1738201 2.2232201
-0.42570341 1.176192 2.223768
-0.37696373 1.1751412 2.2254684
-0.32645565 1.1745944 2.2272749
-0.27505383 1.1747456 2.2279775
-0.22382033 1.1747869 2.2265427
-0.17548384 1.1770172 2.2263455
-0.12265728 1.1751112 2.2240007
-0.072381347 1.176229 2.2233245
-0.027843708 1.1727673 2.2110069
0.026675101 1.1775454 2.2029803
0.076907009 1.1702662 2.2018375
0.11463862 1.1717894 2.2043455
0.1772321 1.1753079 2.2023063
0.22533312 1.1734126 2.2026651
0.27567402 1.1744545 2.2056761
0.32326502 1.17314 2.2043822
0.37505066 1.1773927 2.2055135
0.42801395 1.1764629 2.2077374
0.47573757 1.1735069 2.2083452
0.52360582 1.1730881 2.2090111
0.57365954 1.1769391 2.2116215
0.62400967 1.1762644 2.2112703
0.67023587 1.1736833 2.2085936
0.72291309 1.1783456 2.2099185
0.77291739 1.1760968 2.2069678
0.87948835 1.1786401 2.2085264
0.92759931 1.1717722 2.2083325
0.97140211 1.1749812 2.2083914
1.0266737 1.1741546 2.2071695
1.073485 1.1744107 2.2079685
1.1252806 1.1743628 2.2077322
1.1723841 1.1739155 2.2068086
1.2261195 1.1815128 2.2085323
1.2702084 1.1824952 2.2079451
1.3231133 1.1769978 2.2066586
1.3736175 1.1720364 2.205987
1.4216605 1.1734879 2.2033291
1.4858223 1.1702093 2.201812
1.5316103 1.1930001 2.20138
1.6875962 1.1960442 2.2177453
1.7211657 1.1777549 2.2061079
1.7742889 1.1682951 2.2226341
1.826998 1.1741467 2.230145
1.876961 1.1775955 2.2324042
1.9266523 1.1790068 2.2354801
1.974226 1.1782511 2.2381654
2.0263267 1.1727515 2.2433553
2.0736454 1.1776955 2.2436903
2.1253419 1.1687878 2.2471683
2.1723678 1.1760036 2.2469995
2.2095094 1.1677091 2.2453389
2.2735634 1.1797771 2.2479503
2.3244042 1.1807948 2.2427835
2.3775823 1.1707774 2.2320077
2.407248 1.1724374 2.2111988
-2.7231865 1.2317394 2.2114503
-2.6621094 1.2270454 2.2040138
-2.62327 1.2209517 2.211071
-2.5771737 1.2404191 2.2092929
-2.5157983 1.2273699 2.2068131
-2.4734442 1.2188097 2.2087603
-2.4237089 1.2270263 2.2044353
-2.3761976 1.2269447 2.2099919
-2.311964 1.2162573 2.2056267
-2.2744749 1.22978 2.2140691
-2.2259643 1.2272874 2.2111442
-2.1734977 1.2223622 2.2140672
-2.1250341 1.2239625 2.2203879
-2.0706828 1.2268225 2.2202353
-2.0221925 1.2206215 2.2188351
-1.9801873 1.2238736 2.2225003
-1.9277195 1.2216192 2.2203906
-1.8761694 1.2299298 2.2217586
-1.8263953 1.2208642 2.2265334
-1.7744894 1.229803 2.227354
-1.7239588 1.2218248 2.2266338
-1.6724904 1.2270943 2.2248619
-1.6272433 1.2271377 2.2253983
-1.5769893 1.2190958 2.2266021
-1.5279516 1.2257563 2.2270243
-1.474558 1.2275594 2.2274849
-1.4240795 1.2228706 2.2258484
-1.3749862 1.2228485 2.2264929
-1.3305213 1.2269936 2.2293322
-1.277158 1.2249461 2.2299931
-1.2233344 1.2247434 2.2256374
-1.1754743 1.2247015 2.2253156
-1.1277348 1.2192208 2.2222338
-1.0737031 1.2240188 2.2203743
-1.02481 1.226769 2.2204778
-0.97309178 1.2227229 2.2170622
-0.92352718 1.2266129 2.2184477
-0.87613946 1.2229114 2.2176015
-0.8431077 1.2270769 2.2213261
-0.65713555 1.2292482 2.2120478
-0.62559021 1.2282431 2.2191665
-0.57448411 1.2267272 2.2246058
-0.52549517 1.2235399 2.2276478
-0.47476771 1.2230432 2.2273929
-0.42722484 1.2281761 2.2290297
-0.37787703 1.227205 2.2277052
-0.32470265 1.2227958 2.2296922
-0.27182883 1.2263337 2.2289584
-0.22572945 1.2258242 2.2291732
-0.18025704 1.2268013 2.2284288
-0.1277165 1.2252882 2.2270057
-0.072991326 1.2270409 2.225909
-0.02478417 1.2263715 2.2096405
0.025431521 1.2242537 2.2049198
0.07710366 1.2285986 2.2029004
0.12428001 1.2260939 2.2046247
0.17563204 1.2235932 2.2047298
0.22662632 1.2251693 2.2069032
0.27706036 1.2250078 2.210371
0.32445729 1.2277786 2.2106378
0.3734737 1.2264044 2.2098918
0.42556912 1.2211381 2.2121184
0.47979835 1.2260538 2.2149186
0.52780575 1.2229337 2.2124536
0.57832193 1.2221395 2.2151546
0.62785965 1.2262138 2.2127821
0.67818248 1.2252195 2.2135708
0.72716838 1.2253984 2.2118685
0.77834624 1.2301408 2.2096231
0.84073204 1.2386876 2.2116022
0.87450576 1.2285022 2.2105646
0.92785531 1.2241814 2.2121277
0.97847486 1.2227455 2.2115903
1.0262051 1.2249402 2.2102296
1.0775203 1.2206241 2.2108271
1.1263707 1.2275337 2.2089794
1.17204 1.2234794 2.2107708
1.2239423 1.2259032 2.2093542
1.2725724 1.2232374 2.2060256
1.3242567 1.2246397 2.2078106
1.3748838 1.2187313 2.2045839
1.4224086 1.2247225 2.2015512
1.4551563 1.2302158 2.201664
1.5133761 1.2334507 2.2021744
1.5576289 1.2229521 2.2025237
1.6240869 1.2314563 2.204102
1.6861981 1.2222172 2.2030749
1.7245245 1.2211993 2.2096817
1.7824807 1.2223587 2.2273324
1.8299172 1.2269498 2.2349248
1.873251 1.2285914 2.2369576
1.9258063 1.2260993 2.2367101
1.9745499 1.2297928 2.2411458
2.0206313 1.2188158 2.2464767
2.0714867 1.2257122 2.2435329
2.1410427 1.2108986 2.2483454
2.1848831 1.2296935 2.2454927
2.2316062 1.2247237 2.2467561
2.2623081 1.2332746 2.2492485
2.3250299 1.2350379 2.2452064
2.3764627 1.2264979 2.2372561
2.4073613 1.2207615 2.2132273
-2.8566689 1.2896471 2.2033525
-2.8338213 1.2724081 2.2118886
-2.773962 1.2557836 2.2100027
-2.7113285 1.281812 2.2045326
-2.6732528 1.2689559 2.2058361
-2.6087017 1.2840514 2.2076511
-2.5807314 1.2700616 2.2157428
-2.5278525 1.2696919 2.2141907
-2.4803886 1.2816725 2.2083626
-2.416079 1.2777359 2.2038283
-2.3767571 1.2730126 2.2080278
-2.3288181 1.2693492 2.2086127
-2.2797725 1.278808 2.2107613
-2.2182136 1.2762063 2.2105465
-2.1764383 1.2742922 2.2153368
-2.12168 1.2709707 2.2179248
-2.0761311 1.2799612 2.2227421
-2.0280974 1.2755502 2.2223494
-1.9788184 1.276204 2.2212431
-1.9268717 1.2753054 2.2258496
-1.8720537 1.2790939 2.2230968
-1.8255115 1.2742599 2.2268918
-1.7747205 1.276553 2.2293
-1.7231201 1.2733458 2.2283375
-1.6765324 1.2730702 2.2276456
-1.6216557 1.2779285 2.2273505
-1.5744346 1.2731442 2.2284093
-1.5242558 1.273741 2.2298415
-1.4763016 1.2741958 2.229198
-1.425228 1.2757028 2.2272627
-1.3726168 1.2718403 2.2280052
-1.3221831 1.2740817 2.2270243
-1.2749158 1.2744555 2.2272358
-1.225971 1.2772505 2.2273316
-1.1765405 1.2736515 2.2245665
-1.1274775 1.2713163 2.224972
-1.0754974 1.2765393 2.2232289
-1.0245357 1.2720329 2.22035
-0.97251606 1.2761477 2.219239
-0.9240278 1.2690821 2.2190452
-0.87605435 1.2752329 2.2182636
-0.8196646 1.2825903 2.2157259
-0.77447361 1.2787811 2.2146852
-0.72483397 1.2791109 2.2169495
-0.67685199 1.2812775 2.2199595
-0.62750757 1.2757125 2.2254252
-0.57676923 1.2735263 2.227226
-0.52317864 1.2747593 2.230725
-0.47528023 1.2740917 2.2291746
-0.42194092 1.2733358 2.2303212
-0.36997604 1.2760681 2.2295144
-0.32301638 1.2747372 2.229965
-0.27658758 1.2770774 2.2297778
-0.22747201 1.2767262 2.2293427
-0.17586684 1.276757 2.2310102
-0.12318872 1.2738252 2.2322955
-0.073550589 1.2717994 2.2284124
-0.027658777 1.2735931 2.2107384
0.026348587 1.2746137 2.2086401
0.078926437 1.2740864 2.2068002
0.12576459 1.2750927 2.2069399
0.17294937 1.2780272 2.2096655
0.22589523 1.27338 2.2107167
0.27764505 1.2775211 2.2113085
0.32591259 1.2778443 2.2118585
0.37525132 1.2766474 2.2142508
0.42380953 1.2746141 2.2171011
0.47206876 1.2709742 2.2164948
0.52157468 1.2758338 2.2169065
0.56914967 1.2711644 2.2156646
0.61978 1.269796 2.213721
0.67198545 1.2779801 2.217222
0.72101051 1.2721695 2.2154281
0.77387148 1.2749519 2.2140057
0.82659107 1.2773787 2.2082109
0.87518424 1.2723333 2.2109249
0.92251962 1.2725981 2.2154627
0.97747189 1.2751083 2.2147036
1.0227547 1.2687727 2.2116969
1.0703517 1.2702168 2.2137356
1.123909 1.2723856 2.2113662
1.1766927 1.2755636 2.2121477
1.2246954 1.2773905 2.2114727
1.2728508 1.2702329 2.207468
1.3240434 1.2720735 2.2088571
1.3732759 1.273033 2.2079148
1.4237694 1.2725444 2.207392
1.471297 1.2818797 2.2029741
1.5276152 1.2757266 2.2049463
1.5583744 1.2706476 2.2021677
1.6348969 1.2795419 2.2071843
1.6752529 1.2769022 2.2054441
1.7201257 1.2712371 2.203382
1.7782367 1.2730703 2.2289674
1.8302643 1.2723813 2.2324307
1.8713938 1.2722594 2.2350898
1.9221841 1.2759941 2.2388206
1.9768587 1.2763282 2.2402861
2.0299981 1.2720071 2.2466691
2.0741973 1.2753389 2.242254
2.1220059 1.2647684 2.245101
2.1670372 1.2652792 2.2457449
2.2454078 1.2975488 2.2453117
2.2867787 1.2731482 2.2445889
2.3263745 1.280092 2.244791
2.3764198 1.2772908 2.2386529
2.4083722 1.2754921 2.215981
-2.8211663 1.3281907 2.2051637
-2.7774217 1.3372597 2.2104273
-2.7278562 1.3226666 2.20362
-2.6716638 1.3251303 2.2111397
-2.6219246 1.3338467 2.2098129
-2.5778172 1.3185313 2.2097111
-2.5275106 1.3273976 2.2109571
-2.4854097 1.3336278 2.2087476
-2.4291928 1.324773 2.2060342
-2.3796935 1.3192087 2.2084231
-2.3295741 1.330188 2.2106271
-2.2663937 1.323172 2.2095251
-2.221324 1.3225441 2.2106013
-2.173744 1.3213249 2.2149746
-2.1289124 1.3225795 2.2165542
-2.0801063 1.3264616 2.2141106
-2.0294635 1.3265898 2.2235775
-1.9789639 1.3209429 2.2288318
-1.9275635 1.3269587 2.2274334
-1.8721069 1.3275757 2.2237504
-1.8306217 1.3246096 2.2308643
-1.7730826 1.324381 2.2283957
-1.7238922 1.3223274 2.2319319
-1.6753876 1.3273772 2.2285461
-1.6265723 1.3232362 2.2320154
-1.5721159 1.3240573 2.231204
-1.5253156 1.3251343 2.2299898
-1.4790955 1.3239359 2.2295153
-1.4203285 1.3264798 2.2269673
-1.3701508 1.3214246 2.2303212
-1.321107 1.3250459 2.2303085
-1.2760189 1.3261589 2.2281499
-1.2256459 1.3237492 2.2257285
-1.1753328 1.3240348 2.2255058
-1.1273836 1.3282479 2.2255495
-1.0748298 1.3202801 2.2229533
-1.0239674 1.3250208 2.2225001
-0.97639138 1.3220693 2.2200632
-0.92500865 1.3257079 2.2203329
-0.87754631 1.3226957 2.2192893
-0.82971275 1.3274591 2.2219992
-0.77610773 1.3256477 2.2228682
-0.72415346 1.3238487 2.2230837
-0.67272002 1.3276297 2.2248209
-0.62189025 1.3230907 2.2281034
-0.57192844 1.3258631 2.2297142
-0.5237413 1.3271103 2.23171
-0.47250596 1.3246592 2.2320685
-0.42293179 1.3201927 2.2318606
-0.37462071 1.3281434 2.2325454
-0.32590711 1.32801 2.2316055
-0.27765861 1.3260936 2.2332742
-0.22725855 1.3251017 2.2338674
-0.17385589 1.3208104 2.2339783
-0.12187911 1.3264788 2.2315898
-0.074248254 1.3254009 2.2313249
-0.026568703 1.323612 2.2165797
0.023181155 1.321179 2.2107322
0.075418666 1.3219268 2.211127
0.12550272 1.3235937 2.2101367
0.17418164 1.3225931 2.2098634
0.22007583 1.3243527 2.2097509
0.27081448 1.3290137 2.2069521
0.33721811 1.3319545 2.2113943
0.37694874 1.3273734 2.217099
0.42769369 1.3281889 2.2189078
0.47524583 1.3235415 2.2191811
0.52685887 1.3249016 2.2232873
0.57788777 1.3265042 2.2204578
0.62622404 1.3227712 2.2188659
0.67681104 1.3235768 2.216671
0.72855055 1.3233339 2.2172811
0.77987325 1.3232827 2.2202046
0.82807314 1.3303043 2.2168009
0.88078296 1.3279384 2.2189023
0.92782092 1.3239548 2.2184296
0.97476566 1.3255304 2.2162395
1.023802 1.3223212 2.2155302
1.0767666 1.3269807 2.2176337
1.1255246 1.320305 2.2161698
1.1769642 1.3277733 2.2130475
1.2249898 1.325237 2.2126536
1.2756351 1.3188663 2.2122076
1.3290381 1.3249816 2.2074986
1.3810626 1.3184413 2.2100775
1.4195112 1.3245699 2.206538
1.4752595 1.3262986 2.2055414
1.5275623 1.3237514 2.2070978
1.5731578 1.3251053 2.2070444
1.618394 1.3223819 2.2062509
1.6766152 1.3222718 2.2048376
1.7037578 1.3418007 2.2043571
1.7766222 1.324193 2.2329049
1.8284674 1.3235705 2.2360241
1.8700396 1.3223146 2.2345784
1.9258553 1.3283249 2.2409353
1.9755304 1.3278794 2.2419181
2.0221364 1.3190511 2.2463305
2.0718658 1.3321668 2.2449493
2.1272364 1.3303185 2.2463944
2.1764636 1.3248637 2.2457974
2.2327211 1.329578 2.2455654
2.2696919 1.322544 2.2475538
2.3250456 1.3249432 2.2450626
2.3724329 1.3237846 2.2383945
2.4103119 1.3275286 2.216841
-2.8012857 1.3629452 2.2127304
-2.775569 1.3836958 2.2094646
-2.7179627 1.3730767 2.2059963
-2.6653936 1.3819287 2.207454
-2.6253078 1.3709522 2.2069621
-2.5719218 1.3722492 2.2101429
-2.5205112 1.3802799 2.2100286
-2.4776418 1.383348 2.2188389
-2.4222822 1.3762957 2.2114615
-2.3793609 1.3784027 2.2131557
-2.3211663 1.3795296 2.2116163
-2.2715735 1.3740718 2.2161386
-2.2256584 1.3710487 2.2140553
-2.1766343 1.3724393 2.2173188
-2.1257801 1.3760571 2.2185516
-2.0784631 1.3735292 2.2197745
-2.0284457 1.3706945 2.2222803
-1.9754291 1.3741349 2.2250102
-1.9223416 1.3767984 2.2259181
-1.866874 1.3752438 2.2264676
-1.8274161 1.3752843 2.2335153
-1.7766192 1.3714174 2.2283013
-1.7234216 1.3772165 2.2312384
-1.6719958 1.3774506 2.2295856
-1.6285524 1.3763217 2.2317264
-1.5798715 1.3727807 2.2310166
-1.5267136 1.3744944 2.2337332
-1.4728796 1.3758895 2.230258
-1.4235969 1.3756788 2.2285383
-1.3761722 1.3735658 2.2323303
-1.3227134 1.3755177 2.2304425
-1.2756103 1.3779221 2.2311196
-1.2232897 1.3741672 2.2277873
-1.1735462 1.3778155 2.2279129
-1.1280003 1.3760602 2.2277403
-1.0777558 1.3761566 2.2258856
-1.0225804 1.3779761 2.226419
-0.97538769 1.3768157 2.2263017
-0.92726517 1.3773347 2.2201104
-0.87590533 1.3720354 2.2212803
-0.82075655 1.3773626 2.2217033
-0.77500874 1.3714222 2.2215805
-0.72940779 1.3700815 2.2243302
-0.67822433 1.3753124 2.2255776
-0.6272043 1.3711199 2.2299566
-0.57671779 1.3799092 2.2312326
-0.52691191 1.3771434 2.2336292
-0.4768821 1.3733956 2.235934
-0.42556971 1.3710847 2.2359493
-0.37959117 1.3782862 2.2363651
-0.32898572 1.3768207 2.2361155
-0.27795479 1.3756579 2.2374933
-0.22155657 1.3727328 2.2346323
-0.17109393 1.3728315 2.2356646
-0.12317318 1.3826996 2.2361801
-0.074962236 1.380143 2.2336714
-0.026814071 1.3713794 2.2203286
0.021734944 1.3763678 2.2159495
0.073020399 1.3717946 2.2142987
0.12967423 1.3710781 2.214823
0.17567924 1.3750647 2.2172942
0.22367656 1.3720332 2.2129424
0.27170292 1.3735943 2.2113822
0.32087824 1.3797188 2.2163284
0.37609851 1.3705128 2.2154131
0.42698157 1.3746567 2.2198887
0.47869459 1.3779888 2.2213094
0.52901709 1.3698281 2.2233505
0.57405537 1.3802524 2.2273393
0.62069482 1.3766621 2.2244067
0.67263579 1.3740512 2.2223291
0.72326636 1.3792032 2.2213075
0.77323079 1.3725684 2.2198477
0.8271805 1.3776307 2.2203982
0.87374038 1.3749704 2.2216706
0.92370766 1.3781805 2.2171421
0.97703916 1.371478 2.2185652
1.026552 1.3785543 2.2170262
1.0726004 1.3754929 2.2179537
1.1225455 1.3748752 2.2157004
1.1753424 1.3790609 2.2176502
1.2242113 1.3732231 2.2157481
1.2747736 1.3725612 2.2138951
1.3278375 1.377781 2.2121136
1.376081 1.3734589 2.2102764
1.4244581 1.3752563 2.210362
1.4746903 1.3767869 2.2067585
1.5310394 1.3720224 2.209451
1.5781758 1.37621 2.2116811
1.6244946 1.3792197 2.210937
1.6734248 1.3779474 2.2096977
1.7209558 1.3727822 2.2171526
1.7740496 1.373798 2.2302382
1.8278533 1.371026 2.2353444
1.8776909 1.371369 2.2361364
1.9275316 1.3749661 2.240922
1.9779161 1.3718885 2.2415302
2.0258718 1.3809067 2.2435124
2.0742502 1.3683416 2.2458904
2.1270645 1.3700372 2.241899
2.1698101 1.3645822 2.2427862
2.2566955 1.3902031 2.2456439
2.3276331 1.376537 2.2441864
2.3883448 1.3731549 2.2353511
2.4118369 1.3647344 2.2137609
-2.7704778 1.4188454 2.2043991
-2.7304761 1.4236495 2.2087827
-2.6810551 1.4148812 2.2088728
-2.619874 1.4219425 2.2070243
-2.5705545 1.4298793 2.2045362
-2.5326736 1.4251068 2.2116418
-2.4705467 1.4163398 2.207588
-2.4238582 1.4229271 2.2092881
-2.3714383 1.4262415 2.2094004
-2.3250425 1.4269779 2.213697
-2.2722023 1.4232893 2.210779
-2.2214332 1.4238173 2.2134168
-2.1720724 1.4246732 2.2162032
-2.1292744 1.4203588 2.2194233
-2.076051 1.4267807 2.2160861
-2.0288079 1.4237556 2.2215817
-1.9750475 1.423872 2.2233748
-1.9233412 1.4266949 2.2268083
-1.8780109 1.4219398 2.2319763
-1.8233725 1.4286767 2.2296276
-1.7744001 1.4233805 2.2297935
-1.7210503 1.4235604 2.2331901
-1.671815 1.4242533 2.232054
-1.6276819 1.4291464 2.2355998
-1.5783179 1.4237888 2.2373626
-1.5213188 1.4230144 2.2317355
-1.4692043 1.4249151 2.2341301
-1.4208282 1.427225 2.2365339
-1.3729146 1.42216 2.2308218
-1.330516 1.4278158 2.233896
-1.2766861 1.430105 2.2319674
-1.2258551 1.4267244 2.231858
-1.1759603 1.4214853 2.2283235
-1.1250213 1.4267155 2.2280054
-1.0781544 1.4295722 2.2252626
-1.0270228 1.4250094 2.2256155
-0.97429121 1.4273274 2.2271571
-0.92131472 1.4243975 2.2248623
-0.87541932 1.4241176 2.2255645
-0.82885987 1.4263263 2.2258852
-0.77682686 1.4231328 2.2277129
-0.72274822 1.4212179 2.2251346
-0.67340475 1.425549 2.2285998
-0.62263161 1.421922 2.2324002
-0.57127386 1.426847 2.2336798
-0.52532923 1.4259336 2.2361722
-0.4767237 1.4215094 2.2373755
-0.42539716 1.420262 2.2368691
-0.3731682 1.4281205 2.2374823
-0.32170969 1.4231026 2.2375586
-0.27015647 1.4210829 2.2376344
-0.22543959 1.4255767 2.2393789
-0.17113791 1.4238089 2.2402692
-0.12427142 1.4312342 2.2384036
-0.075593375 1.428041 2.23507
-0.027503682 1.4218452 2.2224011
0.018659165 1.4247068 2.2184241
0.076994076 1.4206125 2.2196
0.13081588 1.4226429 2.2208474
0.17667823 1.4244351 2.2188528
0.22624004 1.4239049 2.2207761
0.27503398 1.4267145 2.220962
0.32236502 1.4271388 2.2251623
0.3730751 1.4197513 2.2241373
0.42302206 1.4245616 2.2249532
0.47386754 1.4310483 2.2274618
0.52458483 1.4217982 2.2255557
0.57485014 1.4266709 2.2279446
0.62634563 1.4262642 2.226011
0.67741138 1.4232217 2.2262657
0.72659791 1.4287524 2.2260642
0.77207214 1.4261785 2.2232914
0.82328159 1.4278741 2.2226579
0.87664717 1.4206767 2.2221348
0.9230997 1.4296695 2.2199256
0.97442031 1.4256254 2.2197642
1.028771 1.4259056 2.2196317
1.0755432 1.4232095 2.2146921
1.122238 1.4276637 2.2141447
1.1733055 1.4245667 2.2178457
1.2229018 1.4249933 2.2177649
1.2740693 1.4252079 2.2136946
1.3235388 1.4266759 2.2097244
1.3725814 1.4232113 2.2115703
1.4269589 1.4243768 2.2109668
1.4779049 1.4234296 2.2149351
1.5240654 1.4261643 2.2122817
1.5772301 1.4236664 2.2124069
1.6251751 1.4288958 2.2121301
1.6778408 1.4264611 2.2133205
1.7224005 1.424346 2.2193797
1.7740977 1.4214321 2.234158
1.8272878 1.4245458 2.2388442
1.8763949 1.4220014 2.2411849
1.9241248 1.4268665 2.2408609
1.9743541 1.4238905 2.2413621
2.0229294 1.425442 2.2434211
2.0760529 1.424099 2.2463713
2.1223619 1.4238057 2.2454829
2.2349529 1.4016632 2.2442434
2.2838855 1.4255186 2.2458301
2.3787119 1.4260695 2.2399051
2.4091945 1.4196229 2.2155342
-2.7657359 1.4600827 2.2073905
-2.7173548 1.4784305 2.214541
-2.6585867 1.474016 2.2049634
-2.6250379 1.4785157 2.2091093
-2.5907533 1.4769565 2.2150474
-2.5231049 1.4690365 2.2046912
-2.4703422 1.474867 2.2119923
-2.4290156 1.4774525 2.2170267
-2.3749566 1.4719384 2.2095242
-2.319351 1.4743675 2.2109783
-2.2677479 1.4746374 2.2138882
-2.2143176 1.4751564 2.2091064
-2.1735067 1.4741825 2.2153831
-2.1243598 1.4726256 2.2170262
-2.0735035 1.4779457 2.2173963
-2.0221059 1.4759586 2.2216215
-1.972145 1.4744688 2.2258644
-1.9298929 1.4734176 2.2311559
-1.8755821 1.4724516 2.2336433
-1.8244417 1.4750576 2.2336452
-1.7799066 1.4804921 2.2354939
-1.7289879 1.4702868 2.2362919
-1.6723882 1.4734198 2.2333782
-1.628746 1.4788556 2.2378864
-1.5798677 1.474869 2.2394049
-1.5305601 1.4796157 2.2361653
-1.4755297 1.4729234 2.235723
-1.4255804 1.4705616 2.2362313
-1.372702 1.4791216 2.2362051
-1.3251801 1.4747502 2.2323933
-1.2720389 1.4756379 2.2310085
-1.2257925 1.4743023 2.2298651
-1.174076 1.475356 2.2304039
-1.1226107 1.4742973 2.2277482
-1.0716151 1.4757744 2.2293398
-1.0278329 1.4747864 2.2292356
-0.9735198 1.4733784 2.2266433
-0.92424089 1.4727371 2.2281361
-0.87465936 1.470808 2.2267535
-0.82380319 1.4796609 2.2289505
-0.77400988 1.47311 2.2270994
-0.7305575 1.4679408 2.2300127
-0.67651516 1.4746131 2.2328665
-0.62601691 1.473682 2.2339151
-0.57572371 1.4760538 2.2351811
-0.52336085 1.4745936 2.2364807
-0.47280833 1.471429 2.2402725
-0.42256841 1.4718418 2.2423074
-0.3727262 1.4790813 2.2413175
-0.32266882 1.4756204 2.2420118
-0.27293432 1.4725432 2.2423804
-0.2214603 1.4732069 2.2415221
-0.1743089 1.4716238 2.2422981
-0.12538572 1.4810113 2.2404931
-0.076346293 1.4788207 2.2388692
-0.026800204 1.4729034 2.2285607
0.021868568 1.4726574 2.2282393
0.07218124 1.4688385 2.2257457
0.12454546 1.4722044 2.2233908
0.18091841 1.4716493 2.2211189
0.22841327 1.4742287 2.2238975
0.27802864 1.4789578 2.2267253
0.32699355 1.4702657 2.2270083
0.37653515 1.4696404 2.2262588
0.42743087 1.4763039 2.2294483
0.47823635 1.4813336 2.2292013
0.52490813 1.475508 2.2276905
0.57771593 1.4740819 2.2275546
0.62441158 1.4758414 2.231199
0.67225474 1.4736378 2.2275381
0.72056222 1.472811 2.225605
0.77719599 1.47304 2.2289786
0.82300061 1.4772367 2.2254932
0.87595874 1.473336 2.2250931
0.92255962 1.4765955 2.2246003
0.97522247 1.4763746 2.2219713
1.0242906 1.4735203 2.2218356
1.0732369 1.4761717 2.2208145
1.1272843 1.4727327 2.2192423
1.1757758 1.4754291 2.2164476
1.2283176 1.4759725 2.2158391
1.2762254 1.4722332 2.2144167
1.3237408 1.4726561 2.2123199
1.3760394 1.4741404 2.2135456
1.4250191 1.4765153 2.2135277
1.4787606 1.4761704 2.2181826
1.5236553 1.4685611 2.2109771
1.5744007 1.4750606 2.2142212
1.6231941 1.478899 2.2158358
1.6723118 1.4729012 2.2230504
1.7229843 1.4792868 2.2224717
1.7698349 1.472481 2.2323501
1.8214631 1.4717764 2.2425318
1.876711 1.4778967 2.240211
1.9283117 1.4778036 2.2438681
1.9719025 1.4714375 2.2404022
2.0278392 1.4776162 2.2422178
2.0784056 1.4716927 2.2460392
2.1242979 1.4793669 2.2457438
2.2349505 1.4862821 2.2490263
2.2693107 1.4857894 2.2446654
2.3766649 1.482077 2.2413392
2.4075241 1.4682517 2.2185602
-2.7638345 1.5174811 2.2162228
-2.7153571 1.5214679 2.211256
-2.6803153 1.526569 2.2162414
-2.6219158 1.5286764 2.2156889
-2.5728309 1.531682 2.2218759
-2.5309601 1.5251074 2.2205331
-2.4762375 1.5229681 2.2138839
-2.4290416 1.5289601 2.214709
-2.3780229 1.5261805 2.2108722
-2.3245249 1.5237975 2.2107339
-2.2783988 1.5257279 2.2165186
-2.2390778 1.5244976 2.220912
-2.1779785 1.5251554 2.2153487
-2.1231282 1.5280641 2.2176116
-2.0715377 1.5182278 2.2198107
-2.0202625 1.530565 2.2214313
-1.9713163 1.521199 2.227284
-1.9207573 1.5183427 2.2318814
-1.8775724 1.5300262 2.2336638
-1.8281698 1.5242282 2.2356319
-1.7761289 1.5281348 2.2330935
-1.7228324 1.5228888 2.2360134
-1.6749905 1.5254344 2.2382352
-1.6227938 1.5265359 2.2361071
-1.5776311 1.5260174 2.2381961
-1.5263063 1.5237144 2.2382472
-1.4779083 1.5256914 2.241724
-1.4195601 1.5197045 2.2413447
-1.3752407 1.5313231 2.2388377
-1.3256915 1.5283108 2.2381263
-1.2744203 1.5253453 2.2376132
-1.2259388 1.5254173 2.2351475
-1.1785791 1.5274113 2.2334793
-1.1249584 1.5284458 2.2312922
-1.074231 1.521462 2.2307196
-1.0235665 1.5213774 2.2293406
-0.97437733 1.5285755 2.2304091
-0.92451429 1.5215557 2.2302594
-0.87390977 1.5243335 2.2288156
-0.82445014 1.5283641 2.2283411
-0.77613771 1.523403 2.2313917
-0.72197968 1.5212955 2.2323968
-0.6721189 1.5278288 2.2360344
-0.62389946 1.5241874 2.2356277
-0.57496458 1.5231501 2.2386172
-0.52671313 1.5252932 2.239187
-0.47732791 1.522977 2.2420721
-0.42624748 1.5220162 2.2423203
-0.37634802 1.5308017 2.2435293
-0.32584861 1.527393 2.244622
-0.27343324 1.5203958 2.241962
-0.22624113 1.5227219 2.2449732
-0.17764495 1.520589 2.2452066
-0.12580226 1.5279299 2.2469208
-0.076963186 1.5213879 2.2407637
-0.027562149 1.5204951 2.2280064
0.021529242 1.5236274 2.2326577
0.070665918 1.523939 2.2323184
0.12214299 1.5225021 2.2303448
0.17493948 1.5224947 2.225744
0.22490816 1.5272462 2.2316861
0.27711603 1.5238361 2.230649
0.33022374 1.518708 2.2312253
0.37600246 1.5209106 2.2287748
0.42597482 1.530136 2.2355878
0.47217414 1.5344509 2.2324386
0.52322555 1.52739 2.2321966
0.57310528 1.5286852 2.2330728
0.6270836 1.5219419 2.232125
0.67706043 1.5245968 2.2298563
0.72757983 1.5209088 2.229171
0.77438176 1.5238793 2.2275398
0.82657307 1.5276694 2.2254119
0.87504929 1.5205013 2.2251172
0.92438895 1.5284199 2.2241876
0.97388428 1.5223774 2.2231669
1.0238906 1.5262595 2.2215803
1.0753992 1.5240309 2.2197654
1.1253633 1.5229868 2.2216225
1.175493 1.5292851 2.217186
1.2228492 1.5255384 2.2180619
1.2733727 1.5194559 2.2108932
1.3296922 1.5201833 2.2129078
1.3763187 1.5223552 2.2094624
1.422259 1.5263691 2.2138655
1.467718 1.5198791 2.2105353
1.527213 1.5246482 2.2168427
1.5733666 1.5185486 2.2179539
1.6250315 1.5218734 2.2176993
1.6809795 1.5222824 2.2264857
1.7211086 1.5304068 2.2253449
1.7752117 1.5187256 2.2356319
1.8284446 1.5259484 2.24106
1.8733547 1.5245224 2.2383575
1.92278 1.5210991 2.2375083
1.975413 1.5248444 2.2427089
2.0252419 1.5257032 2.2431304
2.071002 1.5251856 2.2433782
2.1217577 1.5222421 2.2463834
2.1778259 1.5332983 2.245892
2.2125704 1.5336175 2.2429359
2.2539361 1.5015676 2.2493567
2.3757274 1.5269935 2.2425261
2.4101315 1.5228319 2.2171896
-2.7149558 1.5680845 2.2042892
-2.6696823 1.5707601 2.2131522
-2.6132267 1.5791812 2.2109463
-2.5849347 1.5736732 2.2198684
-2.5327625 1.580569 2.2180908
-2.4720807 1.5768503 2.2168994
-2.4293437 1.579209 2.2244918
-2.3677533 1.5829126 2.2172065
-2.3243437 1.5737183 2.216619
-2.2709911 1.574448 2.2129693
-2.2226555 1.5759921 2.220084
-2.1663845 1.5770305 2.2204149
-2.1161995 1.5704107 2.2206769
-2.0778279 1.5730963 2.2228777
-2.03072 1.5740263 2.2185369
-1.9731265 1.5737973 2.2266774
-1.9302056 1.5746224 2.2346795
-1.872272 1.5796646 2.2286859
-1.829008 1.5723648 2.2365203
-1.7721537 1.5803818 2.2391462
-1.7191772 1.5724794 2.238003
-1.6784322 1.5768787 2.242785
-1.6182076 1.5800687 2.241854
-1.575758 1.5717763 2.2436988
-1.5245512 1.5710253 2.2434428
-1.4751277 1.5770304 2.2433343
-1.4240456 1.5735196 2.2430944
-1.3710265 1.5791587 2.2449238
-1.3226305 1.5778427 2.241596
-1.2768515 1.5730088 2.2375484
-1.2245538 1.573752 2.2360201
-1.1704845 1.5734904 2.2375205
-1.1249936 1.5792087 2.2361264
-1.0789526 1.5763656 2.2348528
-1.0233797 1.5706154 2.23242
-0.97703856 1.5757048 2.2349792
-0.92512953 1.5717379 2.2323978
-0.8725518 1.5796577 2.2342062
-0.8269242 1.5739987 2.2325511
-0.77179444 1.5762678 2.2346244
-0.72947031 1.5729145 2.2345629
-0.67649817 1.5788238 2.236079
-0.62548548 1.5754031 2.2404759
-0.57226211 1.5719304 2.2401183
-0.51867068 1.5774555 2.244535
-0.47071129 1.576448 2.2430725
-0.43055663 1.5719737 2.2461553
-0.37945911 1.5747761 2.2449167
-0.33365253 1.584166 2.2474744
-0.27886611 1.5743572 2.2461367
-0.22462256 1.5714818 2.2470963
-0.17301998 1.5749196 2.2464042
-0.12754443 1.5685532 2.2457976
-0.078220099 1.56536 2.2452543
-0.027837614 1.5728143 2.2300434
0.021733753 1.5748495 2.2329788
0.071359858 1.5760823 2.2339327
0.12114599 1.5780554 2.2350588
0.17064519 1.5762323 2.2299073
0.21925169 1.5766014 2.2360528
0.27116504 1.5711654 2.2395515
0.32089493 1.5705088 2.2333906
0.37197909 1.575812 2.2348011
0.42301491 1.5795941 2.2330744
0.4736574 1.5750002 2.2310126
0.52641231 1.5764781 2.236527
0.57538527 1.5768827 2.2326484
0.62706697 1.5665606 2.2292516
0.674577 1.5785166 2.2310948
0.72360569 1.5751798 2.2296226
0.77417433 1.5744779 2.2309585
0.82337546 1.5779982 2.2284777
0.87893724 1.5776166 2.2261829
0.92719042 1.5725729 2.2250428
0.97313708 1.5758462 2.2222786
1.0265502 1.5757371 2.2229619
1.0705967 1.5744615 2.2230616
1.1244003 1.5763891 2.2228992
1.1771594 1.5813713 2.2238815
1.2207016 1.577876 2.2225964
1.2669886 1.572119 2.222276
1.321831 1.5771567 2.2233613
1.3766509 1.5756072 2.2212386
1.4285053 1.5714498 2.2142267
1.4752041 1.5790612 2.2281888
1.5154921 1.5743191 2.2264616
1.5677265 1.5815698 2.2327645
1.6180105 1.572992 2.2276216
1.6733855 1.5709523 2.2260423
1.7268499 1.5801188 2.2295697
1.7823385 1.5757276 2.2426982
1.8296363 1.5830479 2.2423062
1.8810936 1.5735976 2.2431777
1.9256755 1.5730453 2.2393389
1.9739566 1.5766804 2.2447124
2.0218399 1.5774173 2.2434666
2.075048 1.5758522 2.2442036
2.1300061 1.5819315 2.2468939
2.1772971 1.5713505 2.2462635
2.323612 1.5800037 2.2476301
2.3759065 1.5712793 2.2422717
2.4121003 1.5719537 2.2131002
-2.6804018 1.6156645 2.2112751
-2.6334786 1.6289619 2.210753
-2.5742342 1.6197668 2.2108705
-2.5234356 1.6238933 2.2207057
-2.4695091 1.6274289 2.2143254
-2.4362502 1.6219851 2.2237806
-2.3802762 1.6299769 2.2172573
-2.3214827 1.6263756 2.2170286
-2.2693377 1.6237651 2.2166529
-2.2165151 1.6200048 2.2144296
-2.1776328 1.6259943 2.2250981
-2.1245642 1.6229061 2.225033
-2.068989 1.6229917 2.2232528
-2.0244212 1.625201 2.2271056
-1.9741066 1.6264585 2.2243261
-1.9256328 1.6190633 2.2282674
-1.8741684 1.6350902 2.2323203
-1.8274188 1.6233754 2.2321699
-1.7750638 1.6250296 2.2375066
-1.7269669 1.6226262 2.2396507
-1.6806229 1.6213315 2.2425609
-1.6305327 1.6159903 2.2439909
-1.5762167 1.6214402 2.2439628
-1.5229464 1.6263694 2.2438686
-1.4741566 1.622466 2.2468643
-1.4255223 1.6250656 2.2438705
-1.3827075 1.622696 2.2455354
-1.3250591 1.6253353 2.2465832
-1.2725583 1.6201959 2.2417176
-1.2233347 1.6273924 2.2439551
-1.1760278 1.6222311 2.2436795
-1.1217655 1.6236631 2.2375102
-1.0714371 1.6262348 2.2372935
-1.0246745 1.6221985 2.2392702
-0.97672725 1.6223534 2.2379057
-0.92307246 1.6255105 2.2367079
-0.87761891 1.6221423 2.2360597
-0.82630235 1.6272732 2.236383
-0.77975023 1.6183171 2.2362623
-0.72579759 1.6263777 2.2391021
-0.67416203 1.6270264 2.238035
-0.62497562 1.6287769 2.2408218
-0.57852077 1.6208748 2.2423449
-0.52814972 1.6213448 2.2449906
-0.47163031 1.6270705 2.2456381
-0.42123994 1.6209587 2.2446415
-0.36836433 1.6260128 2.2483108
-0.32105559 1.621838 2.2481849
-0.27459067 1.6265225 2.2485933
-0.23214363 1.6266341 2.2470217
-0.18217866 1.6274024 2.2482164
-0.1289556 1.6257941 2.2483442
-0.074970789 1.6204934 2.2470298
-0.028121235 1.6212094 2.2366376
0.019877059 1.6255106 2.2385447
0.072035424 1.6224819 2.2376206
0.12236068 1.631547 2.2360706
0.16982934 1.6270378 2.2323165
0.22540085 1.6227459 2.2372463
0.27350351 1.6224736 2.2375288
0.32440707 1.6255625 2.236408
0.3733983 1.6244434 2.2370985
0.42682436 1.6254402 2.2350793
0.47649306 1.6208329 2.2354138
0.52451301 1.6280549 2.2347569
0.57540834 1.6246468 2.2359169
0.62339771 1.6245087 2.2350249
0.67416549 1.6244642 2.2317884
0.72764945 1.6208664 2.2305195
0.7729156 1.6304779 2.2324181
0.82599002 1.6201618 2.2285123
0.87086391 1.6273837 2.2254288
0.92553484 1.6227204 2.228071
0.97292435 1.6279602 2.2276819
1.0183463 1.6230578 2.227273
1.0737143 1.6232495 2.2283182
1.122468 1.6278217 2.227524
1.1694517 1.6231906 2.2250226
1.2256879 1.6254436 2.2265723
1.2732209 1.6241931 2.2255681
1.3235261 1.6284209 2.2294238
1.3712577 1.6284599 2.2284098
1.4248285 1.6259569 2.2288227
1.4764061 1.6276439 2.2260678
1.5272181 1.6252785 2.2290957
1.5752409 1.6233041 2.2273915
1.6246977 1.6242269 2.2246888
1.6722701 1.6265678 2.2259028
1.7293543 1.6251638 2.2317967
1.774914 1.6223541 2.2367127
1.8224677 1.6255617 2.2408531
1.8688828 1.6143558 2.23311
1.9312074 1.6280565 2.2435279
1.9795674 1.6213446 2.2444129
2.0203395 1.6304758 2.2432101
2.0859685 1.6179008 2.2444048
2.1341999 1.6342465 2.2454417
2.1677039 1.626343 2.2466908
2.3473241 1.6067666 2.2468593
2.3919034 1.6207385 2.2458065
2.4091945 1.6206104 2.2221882
-2.6657228 1.6751955 2.2104914
-2.6291666 1.6764449 2.2177191
-2.5847936 1.6793139 2.2226753
-2.5288374 1.6700031 2.2191501
-2.469564 1.6687968 2.2140856
-2.4248343 1.6663216 2.2155128
-2.3760376 1.6769291 2.2192495
-2.3220625 1.67819 2.222466
-2.2752018 1.676075 2.2218747
-2.2215896 1.6747783 2.2241173
-2.1727929 1.6772072 2.2222838
-2.1223598 1.6770432 2.2252755
-2.0795279 1.6720397 2.2270932
-2.0275097 1.6717733 2.2244225
-1.9770576 1.6782652 2.2279019
-1.9220484 1.6735445 2.2302215
-1.8685598 1.6813703 2.2372217
-1.8149419 1.6788319 2.2359872
-1.7743254 1.6759157 2.2380843
-1.7295936 1.6757761 2.2406356
-1.6726353 1.6690857 2.2394946
-1.6267042 1.671846 2.2463069
-1.5755466 1.65873 2.2379932
-1.521274 1.663088 2.2426732
-1.477496 1.6706353 2.246619
-1.4290582 1.6652161 2.2465391
-1.3819805 1.6751229 2.244221
-1.324809 1.6611446 2.243901
-1.279111 1.6764308 2.2440135
-1.2294716 1.6720903 2.2444351
-1.1794595 1.6662956 2.2420199
-1.1314791 1.671777 2.2411416
-1.0766186 1.6726286 2.2416761
-1.0266577 1.6782144 2.2424946
-0.97246832 1.6775919 2.2428052
-0.92811286 1.6699905 2.239718
-0.87734205 1.6762873 2.2387414
-0.82402551 1.673332 2.2366426
-0.77606523 1.6745331 2.2398233
-0.72168255 1.680254 2.2419767
-0.67686021 1.6736219 2.2432132
-0.62519199 1.6785643 2.2467427
-0.58198678 1.6820047 2.2479815
-0.52794129 1.6669354 2.2462862
-0.48426381 1.6681936 2.2474561
-0.42817262 1.6694018 2.2474625
-0.37922132 1.660924 2.247376
-0.32112023 1.6603352 2.2475536
-0.26992935 1.6615493 2.248378
-0.16152723 1.66038 2.2489638
-0.13707629 1.6967528 2.2497363
-0.085203089 1.6545799 2.2444363
-0.029002987 1.6682534 2.2416031
0.023880601 1.6710035 2.2408938
0.072819754 1.6714607 2.2428973
0.12362747 1.6802566 2.2406471
0.17652194 1.6732037 2.2356904
0.22505833 1.6740144 2.2382028
0.27622095 1.676705 2.2372048
0.32648939 1.678022 2.2385402
0.37892222 1.6690502 2.2397041
0.42254129 1.6765597 2.2411299
0.47079638 1.6786853 2.2388165
0.52109486 1.6782849 2.2377701
0.57574534 1.6730118 2.23664
0.62517869 1.6782212 2.239006
0.67437184 1.6719213 2.2329435
0.72204357 1.67421 2.2322752
0.77880645 1.6722535 2.2315001
0.82602113 1.6781636 2.2329116
0.87543464 1.6762495 2.2298141
0.92344087 1.6773902 2.231379
0.9756906 1.6714202 2.2285662
1.0245038 1.6684011 2.2262301
1.0711426 1.6753438 2.230727
1.1260114 1.6712346 2.227504
1.1780161 1.6755719 2.2321658
1.2219818 1.6756506 2.2314124
1.2760987 1.6748145 2.2332051
1.3254331 1.6765459 2.2327869
1.3739403 1.6751332 2.2318449
1.4182819 1.6795267 2.2325561
1.4713495 1.6718761 2.2274783
1.5300545 1.6819967 2.2319884
1.5684913 1.669335 2.2261832
1.6232284 1.6783797 2.2339871
1.6701578 1.6749159 2.2284222
1.7206507 1.6829946 2.2380457
1.7772036 1.6741804 2.2450442
1.8223536 1.6799834 2.2417252
1.8705086 1.6708741 2.2417364
1.9202505 1.678556 2.2430296
1.9714347 1.6770496 2.2445605
2.0239334 1.6686581 2.2445459
2.0534935 1.6658335 2.2452018
2.1368549 1.6953824 2.2478926
2.1564112 1.6827276 2.2493029
2.3958673 1.6696532 2.2405131
2.4106421 1.6699604 2.2160954
-2.6227679 1.7253776 2.2177482
-2.5763607 1.731866 2.2207251
-2.5354631 1.7173835 2.2182784
-2.4755447 1.7222588 2.2191558
-2.427947 1.731469 2.2286046
-2.3699169 1.7254435 2.224669
-2.3211968 1.7148288 2.222944
-2.2797823 1.7246164 2.2239423
-2.2272494 1.7241116 2.2259493
-2.1751261 1.7238727 2.2207184
-2.1331394 1.7237487 2.2233024
-2.080889 1.722792 2.2261662
-2.0265899 1.7238014 2.2262349
-1.9706503 1.7252798 2.2286639
-1.9192641 1.7272632 2.2288213
-1.8797207 1.724848 2.236069
-1.8233258 1.7260156 2.2392466
-1.7715966 1.724542 2.2390151
-1.7210859 1.7235006 2.2385716
-1.6701555 1.7188654 2.2439635
-1.6322517 1.7207838 2.2468977
-1.5786167 1.7133274 2.2479293
-1.5118979 1.702334 2.2495723
-1.4797642 1.719642 2.2464602
-1.2543449 1.7009559 2.2491529
-1.2074941 1.7071496 2.2496386
-1.1915069 1.733533 2.2473505
-1.1168028 1.7289524 2.2472768
-1.0771672 1.727006 2.245563
-1.0182372 1.7178307 2.2430358
-0.97427744 1.7255504 2.2454145
-0.92303222 1.7247487 2.2455645
-0.86512572 1.7199005 2.2449012
-0.82316244 1.7295102 2.2454882
-0.7756328 1.7235522 2.245244
-0.72793889 1.7292937 2.2440093
-0.67398077 1.7265223 2.2452197
-0.62659442 1.7256029 2.2463686
-0.57733148 1.723799 2.247313
-0.52175635 1.7363458 2.2483425
-0.48012242 1.7182282 2.2485631
-0.4393498 1.7193285 2.248425
-0.37645775 1.7124186 2.2485209
-0.31919083 1.7330284 2.2495127
-0.064943328 1.7174755 2.2467535
-0.028729429 1.7257532 2.2416708
0.022386229 1.725057 2.2408097
0.073498257 1.7255059 2.2405283
0.12465892 1.7260518 2.2393968
0.17579652 1.7262076 2.236809
0.22750778 1.7307186 2.2389095
0.27704248 1.7289796 2.2404158
0.32534677 1.7266659 2.2362132
0.37141836 1.7246541 2.2379622
0.42077819 1.7281116 2.2400243
0.47454634 1.7243419 2.2366037
0.52759141 1.7224455 2.2370901
0.57077098 1.7291361 2.2374513
0.62417442 1.7243441 2.2365375
0.67407632 1.7233139 2.2342851
0.72868723 1.7232153 2.2366331
0.77526575 1.7264824 2.2334235
0.8270272 1.7207028 2.2327197
0.87635237 1.725244 2.2268729
0.92483503 1.7237321 2.2318497
0.9721759 1.7240448 2.2330248
1.0247627 1.7221582 2.2332158
1.0790114 1.7234689 2.2357242
1.1214969 1.7228054 2.2326934
1.1748363 1.720209 2.2388871
1.2288551 1.7228581 2.2390661
1.2768605 1.7171797 2.2331221
1.3244364 1.720329 2.2339444
1.3743519 1.7226921 2.236064
1.4256502 1.7273345 2.2387877
1.4772124 1.7313495 2.239805
1.5248016 1.7303238 2.2395656
1.5829711 1.7250942 2.2417426
1.6218898 1.7272995 2.2340462
1.6774812 1.731186 2.2378919
1.7256371 1.7231658 2.2365279
1.7771865 1.7275978 2.2416418
1.8246728 1.7248027 2.2430897
1.8709265 1.723706 2.2405567
1.9281803 1.7336044 2.2446237
1.9807628 1.7235711 2.2438428
2.0313783 1.7233186 2.2463646
2.0674794 1.737645 2.2464488
2.1201098 1.7102032 2.2492137
2.2703264 1.721589 2.2492301
2.3246324 1.7179941 2.2446873
2.3949299 1.7213968 2.2444038
2.4153159 1.7229246 2.221312
-2.61234 1.7778037 2.2280045
-2.5800431 1.7900057 2.2333398
-2.5235944 1.7694861 2.2172246
-2.4798417 1.7801441 2.226404
-2.4248979 1.7715298 2.2245567
-2.3735452 1.774231 2.2241962
-2.3192186 1.7735201 2.2250772
-2.2728977 1.7631899 2.2324374
-2.224256 1.7728258 2.2249169
-2.1748195 1.7771084 2.2279058
-2.1272457 1.7776254 2.2348971
-2.0798585 1.7759476 2.2346399
-2.0289245 1.7763608 2.2330668
-1.9730251 1.7778733 2.2355933
-1.9223696 1.7785203 2.2303541
-1.8742396 1.7730902 2.2371278
-1.8264418 1.777161 2.2414472
-1.7769597 1.7729807 2.2437701
-1.7218796 1.7714297 2.2469115
-1.6743575 1.775346 2.2473724
-1.6216445 1.7582083 2.2493229
-1.5906204 1.7855438 2.2449253
-1.1042004 1.775874 2.2491269
-1.0510284 1.7810609 2.248909
-1.0240337 1.769578 2.2481925
-0.94029218 1.7532731 2.2495284
-0.86439914 1.7603321 2.2457447
-0.8225112 1.7694584 2.2482691
-0.75605601 1.7793024 2.2472527
-0.72516513 1.7622874 2.2458649
-0.67499185 1.7742585 2.2483661
-0.62718821 1.7734401 2.2482588
-0.56639493 1.755507 2.2480617
-0.43946514 1.7585387 2.2497106
-0.08720991 1.7710758 2.2494633
-0.01610234 1.7675698 2.2463379
0.042003639 1.770184 2.2493994
0.06775745 1.7680957 2.246233
0.13899404 1.7716072 2.2480195
0.17132016 1.7716826 2.246279
0.21099973 1.7922724 2.2447572
0.2807813 1.763047 2.2384644
0.32037246 1.7744153 2.2361431
0.37234619 1.7616352 2.2383757
0.42944002 1.7649279 2.2393055
0.47625902 1.7623553 2.2399912
0.52458733 1.7599989 2.2365851
0.57587761 1.7627662 2.2349536
0.62200981 1.762763 2.2368727
0.6739552 1.7627102 2.2331126
0.72451115 1.7672266 2.2393956
0.77080828 1.7606317 2.2308779
0.82196134 1.7644023 2.2344692
0.8766498 1.7639441 2.2372243
0.92583627 1.7715969 2.2384374
0.97645015 1.7689577 2.2353926
1.0288368 1.7698004 2.2335641
1.0801002 1.7688229 2.2366741
1.1242039 1.7703453 2.2361045
1.1782477 1.7708226 2.2436514
1.2300646 1.7702861 2.2423344
1.2745432 1.7735835 2.2391455
1.3274072 1.7741492 2.2460132
1.3808643 1.778224 2.2428808
1.4317648 1.7735194 2.2368484
1.4781756 1.7772384 2.2383027
1.5235108 1.7787286 2.2377288
1.5782677 1.7710205 2.2369885
1.626997 1.7858671 2.2351801
1.6660445 1.775553 2.2383683
1.7280731 1.7726709 2.2390251
1.7794664 1.7770125 2.238472
