ply
format ascii 1.0
comment PCL generated
element vertex 1549
property float x
property float y
property float z
element camera 0
property float view_px
property float view_py
property float view_pz
property float x_axisx
property float x_axisy
property float x_axisz
property float y_axisx
property float y_axisy
property float y_axisz
property float z_axisx
property float z_axisy
property float z_axisz
property float focal
property float scalex
property float scaley
property float centerx
property float centery
property int viewportx
property int viewporty
property float k1
property float k2
end_header
-1.4738574 1.1733484 2.2253771
-1.4235369 1.1730026 2.2256439
-1.3785871 1.1754241 2.2287431
-1.3229381 1.1739384 2.2283399
-1.2702043 1.1720729 2.2289419
-1.2241768 1.1772661 2.2265663
-1.1786066 1.1760105 2.2259765
-1.1240751 1.1746768 2.2232289
-1.0760461 1.1750319 2.22138
-1.0235368 1.1737407 2.2190008
-0.97483063 1.1739037 2.2169299
-0.92758083 1.1743662 2.2179649
-0.8746525 1.1735826 2.2147551
-0.83642942 1.1741955 2.212049
-0.61488181 1.1820933 2.2133844
-0.57611191 1.175895 2.2204978
-0.52192885 1.1770444 2.2255371
-0.47264412 1.1746355 2.2247488
-0.42360505 1.1768483 2.225354
-0.3771041 1.1755577 2.2262547
-0.32633114 1.1741199 2.2263889
-0.27321535 1.1766686 2.2281539
-0.22382917 1.17479 2.2265484
-0.17834337 1.1745608 2.2250078
-0.12394053 1.1741482 2.224741
-0.072354987 1.1758921 2.2226737
-0.026419656 1.1723824 2.208539
0.024471026 1.1793547 2.2021565
0.075355485 1.1763929 2.2026341
0.11349653 1.1796407 2.2049384
0.17793544 1.1758162 2.2024472
0.22771621 1.1741682 2.203001
0.27623391 1.1761044 2.2057428
0.32403484 1.1717658 2.2038295
0.37792996 1.1734424 2.2065907
0.42786932 1.1761051 2.2070754
0.47692293 1.1743228 2.2097437
0.52352309 1.17493 2.2126465
0.57462907 1.174358 2.2106271
0.62259436 1.1746306 2.2111211
0.67063022 1.1743795 2.2099092
0.72463447 1.1750084 2.2109437
0.77072179 1.1749543 2.2094443
0.87429166 1.1731762 2.2098405
0.92578542 1.178081 2.2111533
0.97216821 1.1749575 2.2104902
1.0258373 1.1748639 2.2097483
1.0711833 1.177494 2.2086437
1.1274337 1.1754054 2.2081609
1.1790128 1.1763566 2.2096066
1.2228476 1.1720586 2.2062633
1.2759923 1.1758379 2.2066982
1.3242203 1.1767337 2.2046361
1.3767923 1.1713516 2.204582
1.4363196 1.1684681 2.2019489
1.4629307 1.1701356 2.20134
1.7359232 1.1740891 2.21278
1.7764425 1.1755337 2.2262626
1.8223641 1.1744297 2.227406
1.8761692 1.182196 2.2328596
1.9231794 1.1748981 2.2354877
1.9735824 1.1699511 2.2374725
2.0237546 1.1712731 2.2405288
2.0770011 1.1733805 2.243907
2.1360006 1.1743343 2.242872
2.1884825 1.1718942 2.2484503
2.2204075 1.1620301 2.2458119
2.2903433 1.1699373 2.24383
2.3294125 1.1795443 2.2440846
2.3766313 1.1734427 2.2348025
2.4066625 1.1721474 2.2106626
-2.776473 1.2434279 2.2071719
-2.7227809 1.2321705 2.2135086
-2.6893859 1.2343855 2.2182631
-2.6164889 1.2237378 2.2106972
-2.5508718 1.2236204 2.2043605
-2.5244055 1.2184639 2.2095792
-2.4695406 1.2168777 2.205287
-2.4229226 1.2242957 2.2079892
-2.3651481 1.2258809 2.2038856
-2.3236821 1.2246771 2.2125409
-2.2731371 1.2268542 2.2170048
-2.2237868 1.2313057 2.2171068
-2.1750305 1.2268057 2.2154284
-2.1283097 1.2279122 2.2196414
-2.0717666 1.2285223 2.2170775
-2.0221901 1.2238193 2.223599
-1.9709233 1.2238591 2.2236073
-1.9191227 1.2213365 2.2198179
-1.8717335 1.2276384 2.2252746
-1.825635 1.2259393 2.2253029
-1.775329 1.2203443 2.2196939
-1.7270331 1.2243899 2.2252984
-1.6733739 1.227751 2.2260067
-1.6245781 1.2212896 2.2276466
-1.5751251 1.2254685 2.2278748
-1.5224644 1.2224842 2.2276843
-1.4759828 1.2246356 2.2275107
-1.4262919 1.2247683 2.2293143
-1.3740966 1.2258143 2.2266312
-1.3308108 1.227277 2.2298381
-1.2751623 1.2230109 2.2264826
-1.2276523 1.222918 2.2258182
-1.1772728 1.2234993 2.2243145
-1.125201 1.2256334 2.2248809
-1.0735854 1.2245382 2.2206595
-1.028368 1.2216426 2.2212911
-0.97468936 1.2245064 2.2181304
-0.92538249 1.2265384 2.2174125
-0.8759051 1.2238526 2.2184687
-0.84413493 1.222528 2.2253892
-0.6568132 1.2286066 2.2109268
-0.62454295 1.2288499 2.2227056
-0.57486933 1.2275597 2.2261219
-0.52525687 1.2230282 2.2267187
-0.47453493 1.2224294 2.226284
-0.42744431 1.2283295 2.2270751
-0.37418652 1.2261046 2.2281861
-0.32266152 1.2222977 2.2291493
-0.2730332 1.2276118 2.2285507
-0.22554635 1.2248218 2.2273381
-0.17721237 1.224054 2.2265542
-0.12633435 1.2242886 2.2277827
-0.072990753 1.2269279 2.2257357
-0.02611124 1.2217509 2.2106543
0.024680104 1.2280267 2.2059236
0.079901166 1.2252096 2.2040231
0.12223163 1.2239401 2.205755
0.17547217 1.2234627 2.2048326
0.22397122 1.2286291 2.2061126
0.27671704 1.2234954 2.2076454
0.3247394 1.2253791 2.2102666
0.37158468 1.2231597 2.2097948
0.42219883 1.2248492 2.2116299
0.47691599 1.223641 2.2131104
0.52856648 1.2266667 2.2142541
0.57628387 1.2225754 2.2121534
0.62775296 1.2260119 2.2124107
0.67821521 1.2252914 2.2136962
0.72884685 1.2240447 2.2131908
0.77701604 1.2280422 2.2058313
0.84098208 1.2285913 2.2060101
0.87883663 1.2293406 2.2136047
0.92397368 1.2238764 2.2108724
0.98098314 1.2251735 2.2107768
1.0268859 1.2269993 2.2111382
1.0763135 1.2214743 2.2093511
1.1245095 1.2260777 2.2098622
1.1692609 1.2249421 2.209651
1.2230308 1.2249947 2.2077057
1.2749747 1.2293966 2.2094195
1.3236946 1.2242037 2.203114
1.3735613 1.228734 2.2045462
1.4221305 1.2242664 2.2052431
1.4652941 1.2331952 2.2032781
1.5179453 1.2375643 2.2034001
1.5732695 1.2433231 2.2047756
1.600358 1.248854 2.2021642
1.6786751 1.2284631 2.2032628
1.7271817 1.2369797 2.2158344
1.7785892 1.2212703 2.2269516
1.8279002 1.2255877 2.2324624
1.8656781 1.2282902 2.2320168
1.9246709 1.2228841 2.2394068
1.9799069 1.2257199 2.2374728
2.0271769 1.2181641 2.2417133
2.0695655 1.2277404 2.2462749
2.1344826 1.2299628 2.2465262
2.1869812 1.2391746 2.2469125
2.2739995 1.2247006 2.2453036
2.3214421 1.2254391 2.2453403
2.3751225 1.2258126 2.2360022
2.4073181 1.2207341 2.2131863
-2.8576794 1.2901099 2.2041297
-2.8243141 1.2742079 2.2097886
-2.768873 1.2743012 2.2056446
-2.7222493 1.2869289 2.2134175
-2.6788812 1.2861732 2.216876
-2.6237552 1.2793599 2.2097595
-2.5738246 1.272018 2.2073686
-2.5267015 1.2686676 2.2085576
-2.4743252 1.2738913 2.211586
-2.4227347 1.2789466 2.2142048
-2.3741865 1.2873812 2.2141581
-2.3226771 1.2749221 2.2064176
-2.280201 1.2757194 2.21174
-2.2255065 1.274141 2.2144291
-2.1712868 1.2752745 2.2145267
-2.122411 1.274937 2.2131054
-2.0731204 1.2780997 2.2195199
-2.0267298 1.2746698 2.2208655
-1.9811212 1.280076 2.2226031
-1.9275051 1.2741377 2.2220142
-1.8772923 1.2698601 2.2235117
-1.8264018 1.2772032 2.2267349
-1.773982 1.2781596 2.2286365
-1.7285435 1.2756307 2.2307706
-1.6735773 1.2796404 2.2291987
-1.6254524 1.2734832 2.2285049
-1.5771952 1.2751468 2.228333
-1.5242517 1.2737461 2.2297938
-1.4716448 1.2763617 2.2273855
-1.4210945 1.2734112 2.2292345
-1.3717303 1.2774506 2.227711
-1.3233211 1.2751848 2.2289231
-1.2746848 1.2742373 2.2268569
-1.2253337 1.2758039 2.2290716
-1.1742697 1.2734665 2.2251503
-1.1265705 1.2740893 2.2255137
-1.0764027 1.2790698 2.2237687
-1.0274886 1.2715719 2.2233236
-0.97613257 1.2817115 2.2205131
-0.924963 1.2717816 2.2185948
-0.87440151 1.2767878 2.2172651
-0.82372165 1.2779558 2.2184923
-0.77840495 1.2759068 2.2144804
-0.72420138 1.2806375 2.2150366
-0.67542583 1.2808678 2.2217026
-0.6269154 1.2744762 2.2232859
-0.57760429 1.2742288 2.2262626
-0.52806818 1.2766768 2.2282183
-0.47717482 1.2752972 2.23053
-0.42182881 1.2729914 2.2297168
-0.37080905 1.2700778 2.2292635
-0.32305464 1.2748948 2.2302303
-0.27556708 1.2805042 2.2319362
-0.2276154 1.2774688 2.2306473
-0.17415969 1.2757443 2.2311816
-0.12081185 1.2735515 2.2299588
-0.073565744 1.2719811 2.228719
-0.027710995 1.2759378 2.2147958
0.026322003 1.2736951 2.2070398
0.078915007 1.2739209 2.2065217
0.1258833 1.2764987 2.2093794
0.17260714 1.2754909 2.205265
0.22610672 1.2780764 2.2112832
0.27754962 1.2770338 2.2104754
0.325425 1.2765796 2.212631
0.37522873 1.2765335 2.2140586
0.42387685 1.2777984 2.2162492
0.4719114 1.2705178 2.2157125
0.52119505 1.2749234 2.2153206
0.57491028 1.2724246 2.2150292
0.62318206 1.2744834 2.2141738
0.67121053 1.2765095 2.2146795
0.72019517 1.2702249 2.2147062
0.77346712 1.2743077 2.2129014
0.82762486 1.2804606 2.209343
0.87622124 1.2717191 2.2096376
0.92503345 1.276124 2.2147558
0.97507477 1.2757694 2.2121584
1.0231605 1.2734505 2.2106895
1.0741457 1.2727776 2.212466
1.1215614 1.2750854 2.2115555
1.1759912 1.2747637 2.2107763
1.227136 1.275564 2.2106485
1.2739885 1.2713647 2.2051597
1.3236859 1.2771525 2.2050235
1.3733605 1.2753471 2.2041421
1.4242835 1.2759213 2.2067497
1.4700173 1.2770185 2.2029269
1.5261738 1.2759906 2.20311
1.5769659 1.2784741 2.2102604
1.6205033 1.2796159 2.2062392
1.6783239 1.2860597 2.2060096
1.7153785 1.29864 2.2138305
1.7740855 1.2712663 2.2325878
1.8247861 1.2782261 2.2355492
1.8727659 1.278435 2.2373435
1.9220698 1.2738783 2.2397168
1.976419 1.2782298 2.239985
2.0275574 1.2651638 2.2433574
2.0683613 1.2805271 2.244523
2.1247482 1.2778301 2.2477129
2.1603289 1.2667775 2.2469449
2.2264385 1.2873554 2.2475832
2.2861042 1.2728112 2.2438924
2.3304932 1.2775581 2.2445493
2.3756077 1.2728342 2.2328575
2.4074619 1.2773049 2.2108276
-2.8216691 1.3248599 2.2096746
-2.777359 1.3317202 2.2128255
-2.7253108 1.3295609 2.2138462
-2.6784797 1.3105519 2.2057166
-2.6179328 1.324211 2.2056179
-2.5760574 1.321386 2.208595
-2.5238204 1.3231339 2.2120697
-2.4671509 1.3280275 2.2066066
-2.4238021 1.3251166 2.2060244
-2.3823135 1.3206756 2.2108464
-2.3339336 1.3307966 2.2054889
-2.2801354 1.324393 2.215435
-2.2243159 1.3286444 2.2124176
-2.1772313 1.3261316 2.2160382
-2.1245143 1.3274153 2.2216687
-2.0716753 1.3232647 2.2269108
-2.0209916 1.3313863 2.2257032
-1.978536 1.3226029 2.2240951
-1.9283026 1.3274549 2.2282794
-1.8757925 1.3213496 2.227278
-1.8234814 1.3299447 2.2276068
-1.7792019 1.3221782 2.2310207
-1.7266045 1.3264133 2.2344725
-1.6713036 1.3284638 2.227958
-1.627592 1.3240929 2.2334061
-1.5750844 1.3230025 2.2288008
-1.5213513 1.3233407 2.2287474
-1.469468 1.3262588 2.231971
-1.4225163 1.3232269 2.2301753
-1.3744738 1.3256365 2.2312381
-1.3257464 1.3231257 2.2282457
-1.2760248 1.3236524 2.2282953
-1.2243375 1.3250748 2.2291813
-1.1741092 1.324116 2.226186
-1.123077 1.3249595 2.2264807
-1.0739264 1.3310802 2.2239008
-1.0256126 1.3235921 2.2213013
-0.9767729 1.3248588 2.219867
-0.92311728 1.3220571 2.2191954
-0.8748799 1.3236395 2.2189817
-0.8284989 1.3248684 2.2208304
-0.77584386 1.3252091 2.2221556
-0.72379929 1.3232461 2.2220395
-0.67302084 1.3281951 2.2257509
-0.62165004 1.3225902 2.2272336
-0.5748018 1.3233083 2.2327602
-0.52252078 1.3293544 2.2317827
-0.47283044 1.3255758 2.2335968
-0.42373416 1.3227113 2.2361331
-0.37323979 1.3233067 2.2334621
-0.32611737 1.3288549 2.2330258
-0.2778534 1.3269733 2.2347386
-0.22929005 1.3225547 2.2313647
-0.17389846 1.3219112 2.2308104
-0.12002995 1.3224846 2.2303574
-0.074197955 1.3184584 2.2323189
-0.026581755 1.3236498 2.2166488
0.020662921 1.3201529 2.2108338
0.073765829 1.3215373 2.2122748
0.12696217 1.3228757 2.2127521
0.17287931 1.3247896 2.2097666
0.22009386 1.3244973 2.2099798
0.26473007 1.3275272 2.2041461
0.33426979 1.3254027 2.2119954
0.37659588 1.3257746 2.2114615
0.42918205 1.3266562 2.2200525
0.47668689 1.3253559 2.2194669
0.5255335 1.3216276 2.217798
0.57772177 1.3260953 2.2197747
0.62807304 1.3248941 2.2195768
0.6776374 1.3252038 2.2193849
0.7286483 1.3229768 2.2198267
0.7765767 1.3209674 2.2170942
0.82341081 1.3310423 2.2169921
0.87579876 1.3234925 2.2159042
0.9274559 1.3243608 2.2157509
0.97461939 1.325339 2.2159324
1.0257418 1.3242173 2.2134078
1.0758529 1.3256137 2.2124021
1.1236143 1.3239298 2.2107465
1.1756289 1.3248564 2.2120063
1.2249594 1.3251934 2.2126017
1.2713536 1.3204353 2.2114089
1.3231416 1.3291974 2.2080159
1.3680999 1.3243721 2.2044985
1.4236579 1.3256688 2.2068093
1.4678046 1.3296547 2.2034886
1.5291042 1.3269918 2.2041636
1.5742711 1.3266069 2.2043357
1.6209754 1.3220983 2.2052355
1.6796454 1.3198709 2.2072415
1.7212307 1.3238097 2.2105346
1.7758645 1.3221923 2.227411
1.8287818 1.3238384 2.2326088
1.8765137 1.3269413 2.2378807
1.9228518 1.3286635 2.2362018
1.9724696 1.3214626 2.2357857
2.02157 1.3219745 2.2385807
2.0773723 1.3226463 2.2466865
2.1280084 1.3225602 2.2469983
2.156714 1.3261997 2.24492
2.2187483 1.325801 2.2455518
2.2749383 1.324124 2.2479522
2.3268085 1.3239028 2.2450058
2.3755302 1.3264526 2.2364943
2.4055672 1.324914 2.212486
-2.8025484 1.3888112 2.2026649
-2.7794437 1.3709738 2.2110243
-2.7265425 1.3774107 2.2129576
-2.6772575 1.3736092 2.2158971
-2.6295471 1.3731617 2.2105188
-2.5693858 1.3709084 2.2079644
-2.5229635 1.3792716 2.2165761
-2.4782269 1.3836581 2.2193534
-2.4314244 1.3745331 2.2123289
-2.3803699 1.3774328 2.2093468
-2.3258176 1.3714923 2.2106519
-2.2794635 1.3720758 2.2141557
-2.2210953 1.3832279 2.2114615
-2.1754034 1.3716656 2.2160735
-2.1212773 1.3780689 2.2178462
-2.071821 1.3750235 2.2208438
-2.0212004 1.3728212 2.2199943
-1.9764671 1.3748649 2.2262063
-1.921982 1.3765314 2.2255008
-1.8734828 1.3729529 2.2292678
-1.8265837 1.3748244 2.2308524
-1.7721516 1.3690884 2.2316511
-1.7278637 1.3785652 2.236845
-1.6751751 1.3735043 2.2317126
-1.6262953 1.3750917 2.2330971
-1.5731937 1.3763659 2.2359934
-1.5229398 1.3756864 2.2331808
-1.4769206 1.3745717 2.2332842
-1.4233969 1.3739731 2.2304904
-1.3748395 1.3722391 2.2301667
-1.3250017 1.3729688 2.2308655
-1.2748929 1.3771783 2.2298937
-1.2244529 1.3726392 2.228981
-1.1738379 1.3714273 2.2271743
-1.1248248 1.3765993 2.2269645
-1.0733609 1.3792653 2.2247636
-1.0258211 1.3734257 2.2256851
-0.9739334 1.3747679 2.22298
-0.92478424 1.3718959 2.2237422
-0.87438339 1.3711934 2.2228861
-0.82140386 1.3784499 2.2234468
-0.77324879 1.373925 2.2236557
-0.72765118 1.3716675 2.2252657
-0.67800093 1.3748904 2.2249014
-0.62732571 1.3713984 2.2304113
-0.57718152 1.3747193 2.23313
-0.52728683 1.3781227 2.2352045
-0.47691369 1.3734695 2.2360685
-0.42680052 1.3686085 2.2356341
-0.37937927 1.3775311 2.2351372
-0.32912824 1.3773961 2.2370508
-0.27771321 1.374529 2.2356505
-0.22363879 1.3698699 2.2363741
-0.1726827 1.3701121 2.2360811
-0.12476099 1.3779032 2.2354724
-0.074881926 1.3726051 2.233906
-0.025095552 1.3742357 2.2178068
0.02170288 1.3716804 2.2136996
0.072387472 1.3731502 2.2165027
0.12811774 1.3705879 2.2163341
0.17736624 1.3714105 2.2128599
0.22376908 1.3725449 2.2137651
0.27194199 1.3748862 2.2134361
0.32141069 1.3746651 2.2143486
0.37299693 1.3710998 2.2167742
0.42542589 1.3760772 2.2224801
0.47508508 1.3802009 2.2216175
0.52312917 1.3727661 2.2203753
0.57109016 1.3778167 2.2240222
0.61928338 1.3755796 2.2228911
0.67231578 1.3733726 2.2212431
0.72516984 1.3781803 2.2232783
0.77478057 1.3709053 2.2207797
0.82557386 1.3749648 2.2160883
0.87771988 1.3696642 2.2194161
0.92393553 1.3785111 2.217706
0.97435415 1.3704695 2.2179031
1.0245095 1.3788192 2.2177527
1.0745165 1.3734086 2.2162716
1.1261615 1.3782763 2.2154701
1.1761013 1.3755925 2.2128305
1.2205865 1.373211 2.211091
1.2766382 1.3700891 2.2104526
1.3247412 1.3779284 2.2114449
1.3770182 1.3744251 2.2073731
1.4274797 1.3716514 2.2098529
1.4736391 1.3734291 2.2086904
1.5279552 1.3804471 2.2087302
1.5763429 1.3697852 2.20609
1.6269411 1.3771398 2.2098241
1.6702305 1.3719271 2.2095528
1.7141161 1.3745484 2.2155945
1.7717935 1.3713461 2.2318065
1.82669 1.3733685 2.2333055
1.8698418 1.3755848 2.2347441
1.9195124 1.3799735 2.2369573
1.9710538 1.3742146 2.2388234
2.029731 1.3782295 2.2428331
2.085458 1.3592135 2.244585
2.1362784 1.3927454 2.2483449
2.1779692 1.3773104 2.2471049
2.224227 1.3719664 2.2456083
2.2612426 1.374404 2.2487106
2.3221474 1.3722147 2.2449934
2.3886859 1.3733404 2.2356591
2.4117391 1.3646832 2.2136734
-2.7767839 1.4221165 2.2094371
-2.7312486 1.4339466 2.2156441
-2.6838608 1.4150438 2.2171879
-2.6225657 1.4234 2.2092888
-2.572798 1.4325874 2.2111592
-2.5257537 1.4167928 2.2034342
-2.4764929 1.4245082 2.2132044
-2.4197576 1.4211171 2.2101917
-2.3828368 1.4274232 2.2196674
-2.32551 1.4216497 2.2138009
-2.274976 1.4243691 2.2088447
-2.2246177 1.4273335 2.2133725
-2.16536 1.4138368 2.2151349
-2.1251643 1.4231392 2.2154491
-2.0727663 1.4273876 2.2154841
-2.0274911 1.4283129 2.2227743
-1.9745306 1.423522 2.222805
-1.9220157 1.4290171 2.2245796
-1.8746201 1.419392 2.2279658
-1.8235798 1.4242579 2.2340901
-1.7705805 1.4215587 2.2340593
-1.7222772 1.4277892 2.2341259
-1.6762899 1.4224385 2.2345576
-1.6304498 1.4259548 2.2359538
-1.5797385 1.4261278 2.2362673
-1.5243275 1.4258431 2.2361634
-1.4721352 1.4220105 2.233242
-1.428952 1.4215196 2.2337184
-1.3771057 1.4213501 2.2313194
-1.3271184 1.4242952 2.232686
-1.2785122 1.4278688 2.2299812
-1.2272328 1.4265555 2.229507
-1.1731379 1.4220082 2.2282963
-1.1224821 1.4239353 2.2276793
-1.0742832 1.4301302 2.2278605
-1.023429 1.4209081 2.2249446
-0.9755072 1.4241204 2.2239146
-0.92610574 1.4229077 2.224179
-0.87302703 1.4234626 2.2254226
-0.82731837 1.4281197 2.2274165
-0.77594644 1.4215153 2.2251759
-0.72320008 1.4249196 2.2275467
-0.6717267 1.42444 2.2295628
-0.62023592 1.4230256 2.2322214
-0.57103318 1.4301977 2.2368095
-0.52280712 1.4270136 2.2357755
-0.47700426 1.4223046 2.238641
-0.42385909 1.4218657 2.23875
-0.37346283 1.4292154 2.2392075
-0.32371101 1.4253086 2.2389033
-0.27264777 1.4210187 2.2392335
-0.22139962 1.4199295 2.2398846
-0.17138045 1.4226981 2.2375436
-0.12223779 1.4272236 2.2405441
-0.075656988 1.429171 2.2368495
-0.027580852 1.4246832 2.221663
0.020248612 1.4296077 2.2207386
0.076799646 1.4246705 2.2198317
0.12977381 1.421229 2.2186887
0.17765771 1.4212427 2.2199957
0.22625576 1.4239601 2.2208774
0.27513963 1.4272724 2.221858
0.32358801 1.4256132 2.2233541
0.37284639 1.4189066 2.2228272
0.42253923 1.4228791 2.2223356
0.47332868 1.4294314 2.2249415
0.52339053 1.4235013 2.2231188
0.57400995 1.4246012 2.2246745
0.62554067 1.4270922 2.2245405
0.676826 1.4220027 2.2243378
0.72531986 1.4262488 2.222127
0.77494282 1.4196094 2.2222879
0.8256067 1.4300911 2.223264
0.87429899 1.4185252 2.2216299
0.92420179 1.4256933 2.2211547
0.97548634 1.4226555 2.2187123
1.0247014 1.424437 2.2164717
1.0755212 1.4260044 2.2198801
1.1241727 1.4275894 2.2184186
1.1714444 1.4237477 2.2135532
1.2297659 1.4282717 2.216944
1.2745031 1.426277 2.2122507
1.3252666 1.4217988 2.2117226
1.3738352 1.4245126 2.2136061
1.4257419 1.4231523 2.2090745
1.4779587 1.4212497 2.2163117
1.5256692 1.4238161 2.2150924
1.5774311 1.4238038 2.2141521
1.6249331 1.4263387 2.2142599
1.6705233 1.4176271 2.2100022
1.7211648 1.4189962 2.214536
1.7725326 1.4256868 2.2370872
1.8233531 1.4207519 2.2384622
1.8744527 1.4290367 2.2348418
1.923913 1.4249003 2.2359738
1.9755539 1.4218678 2.239799
2.0243077 1.4296255 2.2414491
2.0770466 1.4285411 2.2453792
2.1246023 1.4253085 2.247849
2.1820736 1.4230015 2.2451084
2.2348061 1.4150738 2.2480638
2.2781422 1.4141786 2.2443283
2.3269072 1.4162399 2.2449071
2.3759143 1.4243866 2.2372744
2.4075801 1.4186556 2.2140567
-2.7690301 1.4689269 2.2120826
-2.7256782 1.4759959 2.211591
-2.6756122 1.4705558 2.2089138
-2.6355438 1.4844378 2.2179792
-2.5880704 1.4656544 2.2121279
-2.5266576 1.4765738 2.2127438
-2.4642742 1.4624887 2.2067037
-2.4214611 1.4805925 2.2160904
-2.3758159 1.4722185 2.2205777
-2.3200488 1.4726315 2.2162087
-2.2682722 1.4749771 2.2143953
-2.2168097 1.4747493 2.2161403
-2.1711004 1.47426 2.2176378
-2.1250558 1.4730974 2.2177532
-2.078752 1.4748992 2.2211878
-2.0280571 1.4784732 2.2234459
-1.9738344 1.4757389 2.2277734
-1.9254757 1.4810734 2.2265244
-1.8801163 1.4748456 2.2298017
-1.8253212 1.4712354 2.229856
-1.7717988 1.4733542 2.2363167
-1.723978 1.4780772 2.2351189
-1.6814919 1.4758589 2.2386734
-1.6248455 1.4750521 2.2400715
-1.5752021 1.4752851 2.2376792
-1.5244017 1.4769305 2.2388144
-1.4731684 1.471549 2.2368016
-1.4255787 1.4705615 2.2362273
-1.3760922 1.474799 2.2362339
-1.3242118 1.4758345 2.2350202
-1.2718967 1.4754643 2.2307591
-1.2245928 1.4748367 2.2314446
-1.1769083 1.4751 2.2334054
-1.1242719 1.4764698 2.2310255
-1.0746207 1.4747794 2.2277567
-1.0236919 1.4746326 2.2251904
-0.97332096 1.4730736 2.226186
-0.92336512 1.477224 2.2274926
-0.87498176 1.4713641 2.2276053
-0.82346231 1.4790452 2.2280166
-0.77441919 1.473882 2.2282977
-0.72606987 1.4746418 2.2292979
-0.6762504 1.4740261 2.2319777
-0.62786907 1.4720978 2.2351732
-0.57495683 1.4792068 2.2378125
-0.52377415 1.4757366 2.2381997
-0.47289982 1.4717566 2.2407558
-0.42248365 1.4746343 2.2402811
-0.37251064 1.4782453 2.2400651
-0.32240996 1.4743972 2.2401562
-0.27285069 1.4721208 2.2417176
-0.22034389 1.4716064 2.2411973
-0.17433429 1.4749444 2.2411685
-0.12670846 1.4771863 2.244523
-0.074639849 1.47729 2.2388608
-0.026873171 1.4762851 2.2264278
0.021297188 1.4761939 2.2235651
0.072628088 1.471173 2.2251384
0.12566248 1.4742706 2.2264776
0.1797961 1.4750147 2.2285259
0.22862349 1.4756498 2.2260315
0.27644739 1.4783767 2.2282741
0.32633632 1.4749351 2.2279928
0.37683216 1.4708848 2.2281563
0.42674276 1.4739305 2.2258577
0.47838852 1.4789115 2.2277391
0.5294708 1.4706692 2.2268496
0.57784659 1.4744194 2.2280729
0.62571347 1.4797248 2.2291775
0.67311853 1.4755139 2.2303793
0.72322464 1.4781789 2.2246225
0.77620858 1.4711518 2.2260969
0.82225579 1.4744655 2.2263126
0.87475467 1.4746723 2.228013
0.9280327 1.4770765 2.224344
0.97628456 1.4729708 2.2221634
1.0262771 1.474015 2.220294
1.0772214 1.4756796 2.218354
1.1265278 1.4717541 2.2177668
1.1738589 1.4751557 2.2178326
1.2238779 1.4751198 2.2130919
1.2730647 1.4754583 2.2098141
1.3252426 1.4731953 2.2126431
1.376103 1.4748631 2.2101655
1.4218512 1.4777869 2.2105258
1.4775517 1.4749708 2.2163751
1.5257819 1.4729067 2.2127161
1.5783209 1.4730157 2.2148271
1.6258509 1.4780623 2.2201381
1.6711292 1.4739466 2.2185597
1.725248 1.4811841 2.2253845
1.7708206 1.4732883 2.2335935
1.8243448 1.474661 2.2384434
1.8733759 1.4799659 2.2364938
1.9264643 1.4763993 2.2416978
1.973496 1.4692804 2.2429774
2.0136242 1.4806869 2.2410185
2.0739167 1.4796187 2.2462895
2.1232522 1.4739828 2.2444587
2.1603596 1.4543871 2.2485657
2.2160075 1.4788349 2.244246
2.2979226 1.494269 2.2440937
2.3357606 1.4807247 2.244411
2.3722107 1.4727443 2.2368143
2.4157624 1.4781297 2.214587
-2.7570724 1.5007581 2.2007968
-2.7188041 1.5174638 2.2060115
-2.6737804 1.5288289 2.2111866
-2.6187975 1.524519 2.2175751
-2.5675528 1.5285994 2.2173254
-2.5299194 1.5244989 2.2196326
-2.4743149 1.5194969 2.2167149
-2.4277477 1.5288525 2.2182555
-2.3747559 1.5313855 2.2174735
-2.3263798 1.5246785 2.2194841
-2.2723897 1.5253403 2.2154651
-2.2231612 1.5285425 2.2148461
-2.1752961 1.5259311 2.2179856
-2.1206131 1.526263 2.2149796
-2.0728877 1.5248739 2.2214026
-2.0204771 1.5282084 2.223141
-1.9746922 1.5222528 2.2250214
-1.9330432 1.5292931 2.2312398
-1.8759097 1.5263323 2.2316329
-1.8247371 1.5239544 2.2345941
-1.7727487 1.5247059 2.2380457
-1.7220861 1.5262035 2.2352505
-1.6736739 1.5218753 2.2379124
-1.6205677 1.5263125 2.2377529
-1.5695964 1.5295992 2.243118
-1.5295343 1.5222958 2.2457621
-1.4788285 1.5266192 2.2431133
-1.4200059 1.5199335 2.2328057
-1.3742516 1.5283425 2.2390611
-1.3276887 1.5210539 2.2363675
-1.2778585 1.5265882 2.2327783
-1.2274766 1.5203565 2.2343223
-1.1744387 1.5230125 2.2352977
-1.1249267 1.5283904 2.2312176
-1.0750598 1.5257493 2.2335138
-1.0267311 1.5252831 2.231164
-0.97697347 1.5310477 2.2309725
-0.92827684 1.5209398 2.230134
-0.87179965 1.5225296 2.2290893
-0.82195491 1.5312095 2.2316496
-0.77582937 1.5228096 2.2305193
-0.72495294 1.526441 2.2340426
-0.66995519 1.5256642 2.2356009
-0.62297851 1.5231158 2.2373824
-0.57264459 1.5285573 2.2387259
-0.52735358 1.5270985 2.2418747
-0.47752801 1.5236312 2.2430513
-0.42935339 1.5235177 2.2454488
-0.37460402 1.5295147 2.2441313
-0.32583699 1.5273551 2.2445712
-0.27565691 1.5244074 2.245435
-0.2274311 1.5232273 2.2456317
-0.1775271 1.5196311 2.2437992
-0.12661418 1.5278054 2.2453558
-0.077036381 1.5260485 2.2414072
-0.03006435 1.5259697 2.231112
0.021466166 1.5193878 2.2264359
0.070511699 1.5202664 2.2269411
0.12200144 1.5206877 2.2277067
0.17319058 1.5250438 2.2295914
0.22479264 1.5276536 2.2298367
0.27564943 1.526957 2.2310843
0.32798448 1.5223901 2.2319396
0.37417996 1.5218323 2.2304235
0.42291531 1.5266309 2.2307603
0.46967039 1.5269029 2.2314668
0.52184832 1.5215045 2.229697
0.57209212 1.5259771 2.2291176
0.62192559 1.5251846 2.2267785
0.6764276 1.5231389 2.2277386
0.72503614 1.5247672 2.2281075
0.77444589 1.5240059 2.2277257
0.8253358 1.5242615 2.2266839
0.87611276 1.5223591 2.2278152
0.92154706 1.5257494 2.2226889
0.97384918 1.522308 2.2230594
1.0271297 1.5219932 2.2226365
1.0722309 1.5265331 2.2231653
1.1243314 1.5215971 2.2196007
1.1750643 1.5273225 2.2180631
1.223821 1.5267601 2.2198296
1.2742538 1.5205115 2.2124314
1.3268358 1.5195915 2.2079079
1.3744204 1.5263296 2.2102408
1.4240048 1.5304968 2.2140098
1.4757854 1.5281951 2.2180622
1.5277774 1.5271567 2.2158015
1.5769916 1.5242422 2.2199898
1.6241632 1.5232979 2.2196612
1.6672962 1.5235374 2.2145164
1.7178341 1.5274569 2.2210975
1.7725601 1.5301144 2.2384717
1.8152531 1.5204786 2.2317269
1.8886118 1.525357 2.2422113
1.923036 1.523168 2.2397068
1.9750977 1.5226628 2.2376068
2.0254858 1.528904 2.2416034
2.0677896 1.5265956 2.2447176
2.1211555 1.5304333 2.2453458
2.156487 1.5082915 2.2470655
2.2197211 1.5233734 2.2449236
2.2833912 1.5107511 2.2498076
2.3933277 1.5331843 2.2447233
2.409271 1.5200962 2.2209873
-2.726835 1.5765425 2.2186434
-2.6823268 1.5721518 2.2156351
-2.62257 1.5801148 2.2167811
-2.5741079 1.5762106 2.2225425
-2.5285683 1.5740999 2.2283275
-2.4884322 1.574 2.2217722
-2.4239354 1.5695341 2.2115231
-2.3725753 1.5781324 2.2262449
-2.3257685 1.5848678 2.223711
-2.2725182 1.5755599 2.2144728
-2.2252572 1.5798997 2.215615
-2.1742165 1.5762901 2.2217369
-2.1272001 1.5792693 2.2259634
-2.0781293 1.5719903 2.2222149
-2.0275874 1.5739199 2.2208152
-1.9787244 1.5762959 2.2282643
-1.923317 1.5715963 2.2298601
-1.8821626 1.5764652 2.2355778
-1.8305787 1.5786253 2.2354047
-1.781563 1.5761845 2.2379558
-1.7215852 1.5676823 2.2393162
-1.6746479 1.5788743 2.2416365
-1.6204691 1.5766729 2.2410235
-1.5757114 1.5741408 2.2400005
-1.5283306 1.574878 2.2442954
-1.4731462 1.5750332 2.2450776
-1.421065 1.5775077 2.2436616
-1.3733933 1.5783098 2.2431767
-1.3319628 1.5735694 2.2448113
-1.2724851 1.5815157 2.2378893
-1.2259767 1.5755875 2.2386062
-1.1738164 1.5702868 2.237143
-1.1228411 1.5788567 2.2364142
-1.0762107 1.5737441 2.2344871
-1.0234766 1.5736082 2.2325981
-0.97274417 1.5775893 2.2334199
-0.92320633 1.5702792 2.2333014
-0.87342656 1.5730734 2.2315049
-0.82926595 1.5729504 2.2315388
-0.77360857 1.5799414 2.2367799
-0.72932756 1.5721501 2.2368224
-0.67829245 1.57692 2.2369862
-0.6250214 1.5742115 2.2387705
-0.57525098 1.5725253 2.2417319
-0.52134675 1.5804369 2.2432747
-0.47554767 1.5752622 2.2437482
-0.43009582 1.567739 2.2450833
-0.38446927 1.5761788 2.2462463
-0.33035901 1.5790362 2.2471042
-0.28029251 1.5732203 2.2471242
-0.227705 1.5711961 2.2464919
-0.17547853 1.5691439 2.2468855
-0.12969369 1.569633 2.247261
-0.079806194 1.5722847 2.2446976
-0.026169956 1.5739895 2.2339392
0.021724062 1.574705 2.2327726
0.071296595 1.5745469 2.2317245
0.12111872 1.5775458 2.2343078
0.17076218 1.5773559 2.2314959
0.22090913 1.5808463 2.2329972
0.27308229 1.5743659 2.235708
0.32103822 1.571201 2.2343903
0.37177351 1.5748914 2.2334635
0.42339328 1.5810413 2.2351258
0.47642225 1.5721128 2.2339294
0.52555567 1.5738975 2.2328696
0.57647139 1.5790787 2.2328413
0.62814057 1.5715967 2.2309504
0.67181289 1.5767837 2.2294023
0.72598171 1.5709835 2.2306182
0.77518028 1.5723733 2.2271502
0.82103002 1.5799468 2.2264819
0.87251276 1.5736985 2.2273982
0.92833698 1.5698075 2.2283072
0.97339725 1.5759883 2.2256393
1.0245099 1.5717371 2.2255168
1.0745797 1.5739092 2.2259459
1.1232285 1.5747694 2.2206187
1.1786505 1.5779531 2.2239566
1.2224321 1.5751487 2.2183943
1.2699387 1.5772333 2.2207713
1.3232511 1.5738057 2.2206297
1.3803514 1.5770111 2.220659
1.4290406 1.5693161 2.2167563
1.4706517 1.576511 2.2199209
1.5184082 1.5716207 2.2192938
1.571722 1.5832534 2.2274444
1.627797 1.5802706 2.2300627
1.6750644 1.574905 2.2267854
1.7118567 1.566227 2.2164931
1.7823597 1.5781714 2.2412314
1.8343334 1.5761865 2.2403297
1.8786653 1.5681887 2.2411273
1.9279959 1.5749587 2.242084
1.9734863 1.5800927 2.241878
2.0234351 1.581274 2.242414
2.0735259 1.574708 2.2425652
2.1350787 1.5767733 2.2457607
2.1587119 1.5750217 2.2464104
2.2329967 1.5792197 2.245353
2.2792721 1.56587 2.2474906
2.3814025 1.5902914 2.2434366
2.4110322 1.5751598 2.2197366
-2.7068455 1.6204382 2.2187171
-2.6791232 1.6291411 2.2246647
-2.6247175 1.626325 2.2220564
-2.569649 1.6226127 2.2179823
-2.5235946 1.6240113 2.2208369
-2.4793794 1.6229863 2.2292254
-2.4299843 1.6178311 2.2180567
-2.37729 1.6250569 2.2172453
-2.3243775 1.6284052 2.2197738
-2.2743754 1.6303675 2.2268133
-2.2181637 1.6276494 2.2240136
-2.1768565 1.6254381 2.2243104
-2.1270223 1.6228069 2.2228274
-2.0762386 1.6219893 2.2243273
-2.0190153 1.6267377 2.2259014
-1.9655279 1.6239604 2.2311318
-1.9201989 1.6257508 2.233077
-1.8732049 1.6233712 2.2349494
-1.8196301 1.6218703 2.2345319
-1.7747529 1.6185563 2.2384086
-1.7233566 1.6201283 2.2396989
-1.6764768 1.6290915 2.2435029
-1.6273257 1.6199831 2.2413676
-1.5782201 1.6255016 2.2455366
-1.5274153 1.6309685 2.2428393
-1.4709866 1.6299108 2.2450023
-1.4263072 1.6259683 2.2451718
-1.3763468 1.61571 2.2429273
-1.3297551 1.6250702 2.2437394
-1.2716415 1.6315963 2.244838
-1.2226019 1.6263921 2.242578
-1.1759584 1.6221234 2.2435415
-1.1212164 1.6206607 2.2378099
-1.0739901 1.6224123 2.2386057
-1.0265541 1.6258031 2.2377834
-0.97595471 1.6211021 2.2361612
-0.92353505 1.6262779 2.2377934
-0.87776631 1.6192411 2.2354307
-0.82708442 1.6287798 2.2384536
-0.77990043 1.6219308 2.2379041
-0.72612387 1.6271328 2.2401295
-0.67141265 1.6261119 2.2392459
-0.62246472 1.6296655 2.2426994
-0.57507837 1.6192763 2.2430408
-0.52551979 1.6217475 2.2447958
-0.47379696 1.6286578 2.2446542
-0.42173699 1.6133627 2.2457643
-0.36367941 1.6219343 2.2473974
-0.33875653 1.6342511 2.2469604
-0.27229807 1.6239601 2.248018
-0.21510966 1.6207947 2.2485845
-0.176495 1.6191109 2.2476587
-0.076734953 1.6201541 2.2464905
-0.029624663 1.6279145 2.2373259
0.020246159 1.6281323 2.2361815
0.072022989 1.6219733 2.2369173
0.1198077 1.6284382 2.2368112
0.16994408 1.6281885 2.2338932
0.2231255 1.628086 2.2374399
0.2736797 1.6235398 2.2390025
0.32445687 1.6258055 2.2367556
0.37606552 1.627391 2.2347863
0.42481124 1.627932 2.2346773
0.47661027 1.6211861 2.235904
0.52264893 1.6249702 2.2332649
0.56966239 1.6305177 2.2322485
0.62279409 1.6229358 2.2328503
0.67448086 1.627396 2.2295687
0.72622949 1.6202095 2.2325819
0.77265632 1.6299267 2.2316616
0.82726449 1.6227289 2.2289741
0.87265587 1.6258271 2.2304671
0.92304647 1.6202998 2.2277112
0.97362423 1.6283906 2.225585
1.0227003 1.6235005 2.2255247
1.078427 1.6251547 2.2261901
1.1259739 1.6221097 2.2230413
1.1718465 1.6258806 2.2246194
1.2260759 1.6254256 2.2223623
1.2815748 1.621179 2.2229118
1.3243479 1.625177 2.2247698
1.3699123 1.6268808 2.2262323
1.4227537 1.6231738 2.2291436
1.4728335 1.623917 2.2258053
1.5238099 1.6221391 2.2293808
1.5720965 1.620491 2.2248707
1.6251981 1.6288036 2.2282219
1.6750733 1.626995 2.2248826
1.7231764 1.6263462 2.2304807
1.7704495 1.6215237 2.2413704
1.8240148 1.6269326 2.2427607
1.8712907 1.6232764 2.2427053
1.926666 1.62405 2.2410679
1.9719614 1.6222081 2.2374105
2.0217402 1.6315994 2.2447572
2.0691926 1.6260538 2.2463338
2.1567097 1.6239445 2.2497256
2.2249498 1.6309047 2.2474725
2.2787554 1.6242553 2.2481182
2.3391218 1.6443994 2.2491317
2.3841591 1.6226946 2.2402811
2.4117341 1.6259174 2.216723
-2.6621413 1.6644845 2.2119699
-2.633944 1.6733774 2.221621
-2.5811586 1.6838411 2.2243614
-2.5208192 1.6720825 2.2287114
-2.4664383 1.6744872 2.2184467
-2.4267316 1.6740798 2.2251952
-2.3747077 1.6767085 2.2246866
-2.3305116 1.6704116 2.2210145
-2.2772069 1.6775442 2.2238312
-2.2217166 1.6767998 2.2290108
-2.1726253 1.6840174 2.22685
-2.1243505 1.6714598 2.2245388
-2.0747242 1.6681526 2.2219355
-2.0300732 1.6738889 2.2272537
-1.9808885 1.681517 2.2322309
-1.9193732 1.6686542 2.2300503
-1.8736448 1.6692314 2.2354243
-1.8319721 1.6731755 2.2393191
-1.780529 1.6697673 2.241184
-1.7255514 1.6717167 2.2430513
-1.6735691 1.6783159 2.2462471
-1.6275482 1.6805171 2.2476497
-1.5843673 1.6752315 2.2458472
-1.5449389 1.6929228 2.2484963
-1.4826618 1.6664287 2.2477052
-1.4295129 1.6755518 2.2476621
-1.3781577 1.6662904 2.2474978
-1.3286546 1.6706209 2.2474267
-1.2651991 1.6797465 2.2483759
-1.225826 1.6773516 2.2485936
-1.1721885 1.6689402 2.2465215
-1.1176996 1.6679209 2.2429698
-1.0760056 1.6722796 2.2439504
-1.0269144 1.6786637 2.2430809
-0.96769243 1.6688615 2.2382941
-0.92596257 1.6737759 2.2416747
-0.87575263 1.6772549 2.2409601
-0.82468289 1.6763171 2.2443774
-0.77704829 1.676712 2.2427428
-0.7231909 1.67895 2.2440333
-0.67688209 1.6749696 2.2449152
-0.6251961 1.6745027 2.2453375
-0.57220066 1.6771715 2.2469523
-0.53160602 1.6731396 2.2456563
-0.4784027 1.6763792 2.247015
-0.42974725 1.6683602 2.2481902
-0.32704037 1.6517123 2.2475564
-0.27702671 1.6756468 2.2481997
-0.21260886 1.6634961 2.2498012
-0.16154218 1.6605337 2.249172
-0.071131542 1.6769193 2.2467132
-0.028445007 1.6768608 2.2386796
0.024258189 1.6738151 2.2387321
0.072768234 1.6704588 2.2415385
0.12606108 1.6752701 2.2412195
0.17660849 1.6740007 2.2367549
0.22507089 1.6740508 2.2382443
0.27586031 1.6769443 2.2398252
0.32404345 1.6731257 2.2365365
0.37827343 1.6734337 2.2374251
0.42865857 1.6725644 2.2372463
0.47221038 1.6786743 2.236254
0.52471441 1.6718252 2.2366524
0.57868278 1.6767502 2.2361095
0.62463629 1.6767497 2.237025
0.67291516 1.6784136 2.2333531
0.72499627 1.6780902 2.2346711
0.77859664 1.6717842 2.2308736
0.82357907 1.6761231 2.2306814
0.87733269 1.6698463 2.2320268
0.92100811 1.6729671 2.2255197
0.97565514 1.6762203 2.2277601
1.0204799 1.6768916 2.2284901
1.0707828 1.674776 2.22996
1.1230215 1.6744292 2.2252839
1.1728849 1.6717314 2.2296484
1.2210325 1.6743162 2.2296455
1.275082 1.6734418 2.235656
1.3257425 1.6735873 2.2280736
1.3776629 1.6773456 2.2305601
1.4294561 1.6752307 2.2325177
1.4773932 1.6722609 2.2322724
1.5259447 1.6798837 2.2356861
1.5721617 1.6675121 2.2308977
1.6296189 1.6761202 2.2304826
1.671963 1.6766956 2.2307956
1.7156242 1.6781085 2.2315397
1.7774004 1.6715933 2.2395482
1.828759 1.6772988 2.2438776
1.8694537 1.6693256 2.2433476
1.9214474 1.6749099 2.2412534
1.9780215 1.6783414 2.2424638
2.0226271 1.6748142 2.2446296
2.0714338 1.6672674 2.2435143
2.1138561 1.6677277 2.2478194
2.3737042 1.6736364 2.2436886
2.4124398 1.6780732 2.2225416
-2.6205456 1.7239369 2.2158842
-2.5727072 1.7312772 2.2222934
-2.5266955 1.722656 2.228579
-2.4674332 1.730451 2.2225986
-2.4274914 1.7200646 2.225908
-2.3757291 1.7240341 2.2263522
-2.3337102 1.7166663 2.233387
-2.2741694 1.7288024 2.224051
-2.2241812 1.7357218 2.2335238
-2.1656435 1.7299272 2.226795
-2.1265612 1.7177066 2.2261252
-2.0795622 1.7216984 2.2247491
-2.0251403 1.7225592 2.2246597
-1.9740825 1.731778 2.2314615
-1.9285727 1.7210296 2.2341342
-1.8775254 1.7193452 2.2345018
-1.8224423 1.7226902 2.2398434
-1.7709261 1.7164336 2.2431245
-1.7233051 1.7257156 2.241452
-1.6749197 1.7348146 2.246264
-1.6252546 1.7172401 2.2446332
-1.587131 1.732097 2.2469146
-1.5369341 1.7287412 2.247196
-1.4835731 1.7312514 2.2474477
-1.432618 1.7357597 2.2495258
-1.3229005 1.7112558 2.2488012
-1.2717341 1.7057506 2.2487516
-1.1754522 1.7097238 2.2474773
-1.1237659 1.7325866 2.246942
-1.0746934 1.7240359 2.2457325
-1.0202311 1.724143 2.2426178
-0.977642 1.7280847 2.2479808
-0.92271966 1.7241729 2.2447975
-0.8705098 1.7184763 2.2433908
-0.82656074 1.7253463 2.2463324
-0.77235931 1.7275473 2.2459934
-0.72600657 1.7187864 2.2454529
-0.67445534 1.7249223 2.2454231
-0.62728375 1.7225789 2.2458262
-0.57839113 1.7196411 2.248857
-0.50246489 1.7187703 2.2497313
-0.46981314 1.7277329 2.248301
-0.43505645 1.7065444 2.2488604
-0.3582516 1.7306076 2.2499707
-0.30559802 1.7248995 2.2487414
-0.27417776 1.7032919 2.248275
-0.21543567 1.7370712 2.2482424
-0.02699865 1.7266541 2.2428386
0.022384427 1.725865 2.2418461
0.073466294 1.7246513 2.2393894
0.12463691 1.7261146 2.2394619
0.17584692 1.7267758 2.2375491
0.22945115 1.7249254 2.2394781
0.28028768 1.7257338 2.2399671
0.32836488 1.7203439 2.2400386
0.3715066 1.725051 2.2384598
0.42199662 1.7271506 2.2362347
0.47292805 1.7284231 2.2381089
0.5275045 1.7221719 2.2367134
0.57727736 1.7265755 2.2351732
0.62431985 1.7276816 2.2352686
0.67383075 1.7226772 2.2334757
0.72374076 1.7231444 2.2321365
0.77573526 1.727537 2.2347839
0.82655156 1.7234609 2.2314336
0.87652528 1.7271898 2.2303634
0.9284603 1.7225957 2.2334528
0.97071052 1.7262372 2.2308395
1.0241499 1.7273257 2.2340007
1.0767361 1.7197951 2.2309995
1.124933 1.7204815 2.2305648
1.1721172 1.7231129 2.2291532
1.2241901 1.7256578 2.2360177
1.2755843 1.7219006 2.2375281
1.3252652 1.7273769 2.2350199
1.3785247 1.7267314 2.229569
1.4227167 1.7238021 2.234211
1.4730951 1.7290509 2.2397285
1.5214814 1.7265517 2.2346897
1.5779053 1.7216346 2.2352927
1.6235983 1.7227896 2.2378194
1.6701789 1.7237316 2.2346539
1.7230695 1.7205639 2.2331812
1.7699698 1.7180494 2.2407084
1.8176689 1.7228988 2.2441156
1.8737526 1.7262795 2.2438974
1.9292244 1.728691 2.2446973
1.9710484 1.7233778 2.2450202
2.031147 1.7231312 2.2461109
2.0770488 1.723984 2.2458415
2.1111684 1.7471478 2.2485151
2.2227776 1.7256603 2.2496164
2.3783574 1.7153021 2.2432559
2.4151473 1.7316955 2.2230017
-2.6090784 1.7755747 2.2252283
-2.5724604 1.7838845 2.2331126
-2.5190725 1.7773533 2.2273767
-2.4803915 1.7711927 2.227649
-2.4295871 1.7749443 2.2288704
-2.3772693 1.776467 2.2328093
-2.327626 1.7750212 2.2313204
-2.2753584 1.7768644 2.2304239
-2.2176259 1.7758189 2.2277145
-2.1727946 1.7663145 2.2268236
-2.130662 1.7734445 2.2305481
-2.0779481 1.7708244 2.2273135
-2.0305405 1.7758447 2.2285519
-1.9832106 1.7787451 2.2297027
-1.9236466 1.7733618 2.2361667
-1.8676511 1.7667124 2.2358434
-1.8271408 1.7778513 2.2423177
-1.779454 1.7657671 2.2457023
-1.7219511 1.7739967 2.2452834
-1.6901227 1.7990561 2.2433665
-1.6195387 1.7559251 2.246402
-1.5755166 1.774614 2.2466264
-1.5455858 1.7529684 2.24999
-1.444509 1.7788748 2.2485375
-1.0014637 1.766081 2.2459528
-0.96562701 1.7849035 2.2479706
-0.92024386 1.7671182 2.2480426
-0.87409323 1.7636385 2.2472768
-0.81602108 1.7593372 2.2429156
-0.77232951 1.7603601 2.2481506
-0.74086905 1.7681673 2.2497613
-0.6691708 1.7756262 2.2472754
-0.63157761 1.7863181 2.2487016
-0.56480175 1.7617432 2.2480371
-0.54753888 1.7712288 2.2467322
-0.31452763 1.7646402 2.2495241
-0.0096626543 1.7699035 2.2493417
0.029047104 1.7678238 2.2465456
0.074245214 1.7689741 2.2471747
0.13891135 1.7706081 2.2467518
0.17604403 1.7800604 2.2483056
0.22226031 1.7526056 2.243017
0.27790835 1.7516056 2.2366211
0.32582176 1.7553252 2.2361667
0.37256771 1.7627656 2.2398143
0.42493919 1.765119 2.2351887
0.47716612 1.7633636 2.2394803
0.52346027 1.7562548 2.2318289
0.57166827 1.7644775 2.2329421
0.62632507 1.7671976 2.2401128
0.67337972 1.7612466 2.2312624
0.72368109 1.7651385 2.236743
0.77841425 1.7628438 2.2317162
0.83068115 1.7688097 2.2379751
0.87618214 1.7596958 2.2242289
0.93005323 1.7705829 2.2383556
0.97224635 1.7740579 2.2347443
1.0267256 1.7716494 2.236109
1.0742329 1.7673069 2.2337823
1.1261201 1.7734321 2.2399709
1.1739254 1.7731392 2.2329526
1.2283295 1.7754885 2.2395344
1.2810333 1.7771132 2.2389038
1.329509 1.778324 2.242342
1.3775913 1.7833358 2.2419472
1.4300144 1.7790534 2.2434013
1.4733642 1.7814468 2.243696
1.5233339 1.7789084 2.2441304
1.5759816 1.7748804 2.2410266
1.6224893 1.7660935 2.2338705
1.675935 1.7768383 2.2419331
1.7259645 1.7704979 2.2362852
1.783337 1.7748855 2.2435174
1.8272043 1.7704315 2.2440972
1.8821837 1.7731419 2.245774
1.9216585 1.7752569 2.2434688
1.9709768 1.7757543 2.2417636
2.0233741 1.7720797 2.2462256
2.0665123 1.7672974 2.2380214
2.1358638 1.7545483 2.2456226
2.175441 1.7899725 2.2475386
2.306294 1.7528484 2.2456367
2.385519 1.7798277 2.2444174
2.4115856 1.7686297 2.2211413
-2.575422 1.8239939 2.2327724
-2.5207715 1.820138 2.2283683
-2.4751122 1.8232194 2.2315838
-2.4190552 1.818041 2.2245619
-2.3752196 1.8214351 2.2278032
-2.3278852 1.8265765 2.2301176
-2.2748587 1.8256018 2.2376337
-2.2287383 1.825627 2.2374501
-2.1771913 1.8241999 2.2384439
-2.1187718 1.822965 2.2366545
-2.0689511 1.8301592 2.2374673
-2.0234203 1.8256077 2.2338917
-1.9729592 1.8291337 2.2391961
-1.9254017 1.8265388 2.2418513
-1.8757207 1.8197362 2.2417138
-1.8228197 1.8218906 2.243088
-1.7774048 1.8278564 2.2463772
-1.7196285 1.8220206 2.2473536
-1.6533642 1.8062037 2.2427158
-1.6377652 1.8127091 2.2458587
-0.87812287 1.8180565 2.24965
-0.71756589 1.8029902 2.2495186
0.30349356 1.8018548 2.2481472
1.1398304 1.8024013 2.2439539
1.3742985 1.8302326 2.2483103
1.4270124 1.8126054 2.2469397
1.4977094 1.8142974 2.2441998
1.5317367 1.8105739 2.2411776
1.584396 1.8014315 2.2410975
1.6264018 1.8107486 2.2437036
1.6759109 1.8222914 2.2453005
1.7291667 1.8165051 2.2406449
1.7734081 1.8161987 2.2458298
1.8258785 1.8082603 2.2471416
1.8781017 1.820612 2.2421894
1.9188086 1.8087355 2.2427542
1.9806757 1.8226386 2.2462387
2.0297971 1.8084424 2.2443004
2.0512033 1.8284062 2.2479937
2.113349 1.8097086 2.2488167
2.1596131 1.8060497 2.2497816
2.3407972 1.8285309 2.2485261
2.3993919 1.8026118 2.2378328
2.4224038 1.8208193 2.2224972
-2.5608101 1.8791342 2.234122
-2.5233243 1.8808588 2.238812
-2.4650033 1.8821001 2.2367449
-2.4259446 1.8791329 2.2453537
-2.3822474 1.8728642 2.2426391
-2.31796 1.8734272 2.2340674
-2.2737863 1.8710154 2.2392778
-2.2278259 1.8761654 2.2408135
-2.179358 1.8709418 2.2376177
-2.127156 1.8764192 2.2451515
-2.0754886 1.8807986 2.2411575
-2.0212505 1.869357 2.2390432
-1.9710222 1.8763396 2.2423816
-1.9209808 1.8720034 2.241574
-1.8772852 1.8733091 2.2469399
-1.8241999 1.878499 2.2459998
-1.770406 1.8821621 2.2465792
1.5067196 1.8708127 2.2465358
1.6665056 1.8662786 2.2491324
1.73567 1.853716 2.2378418
1.7777176 1.8743408 2.2471032
1.8370968 1.8756824 2.2481234
1.8790175 1.8766474 2.2471719
1.9254168 1.853249 2.2435267
1.9512904 1.8710594 2.2388327
2.4215832 1.8743612 2.2310379
-2.5211365 1.9153894 2.2261608
-2.4792964 1.9263067 2.2355564
-2.4289262 1.9216621 2.2416749
-2.3773868 1.9240117 2.2406085
-2.3239734 1.9163359 2.2355075
-2.272552 1.9169354 2.2390261
-2.2227039 1.9277948 2.2418659
-2.1736898 1.920137 2.2403605
-2.1301394 1.9184837 2.241056
-2.0731382 1.928385 2.2435486
-2.0119524 1.9068122 2.2426653
-1.9748917 1.9252404 2.2429068
-1.9258146 1.9233915 2.2441888
-1.8744192 1.9159737 2.2434049
-1.8395835 1.9301286 2.2474017
-1.6763262 1.9236052 2.2492018
1.7471503 1.9282421 2.249146
1.7616339 1.9120687 2.2491138
1.8460214 1.9210486 2.2466547
1.8745836 1.9397563 2.2476749
2.4247925 1.925965 2.2268872
-2.4750013 1.9822459 2.2411892
-2.4208107 1.9703687 2.2430334
-2.3718193 1.9746275 2.2440341
-2.3266544 1.9736673 2.2465875
-2.2739472 1.9974018 2.2456176
-2.2345064 1.968956 2.2409086
-2.1757398 1.9693846 2.242702
-2.1284871 1.9721626 2.2406206
-2.0784287 1.9873533 2.2434368
-2.027698 1.9693785 2.2467272
-1.9995327 1.9574381 2.2447557
-1.7871737 1.9863309 2.2466018
1.8427156 1.9650227 2.2495575
1.8793291 1.9710226 2.2480173
1.90684 1.96742 2.2488337
2.3948708 1.9551224 2.2473841
2.4222286 1.9767479 2.2253115
-2.4673097 2.0120256 2.2397177
-2.4280713 2.0253789 2.2437694
-2.3754365 2.0209103 2.2448709
-2.2659853 2.022357 2.2421675
-2.233896 2.0162039 2.2470484
-2.1682663 2.0102701 2.2416382
-2.1255188 2.0172069 2.2439742
-2.0731938 2.0303698 2.2440608
-1.9298587 2.0309684 2.2459197
-1.8902291 2.0277288 2.2480404
1.7980789 2.0141482 2.2491374
1.8063232 2.0390871 2.2475567
2.4178257 2.02842 2.234292
-2.4278998 2.0906963 2.2459993
-2.3603103 2.0860739 2.2434807
-2.3302257 2.0659037 2.249094
-2.277483 2.0656366 2.2444386
-2.2461123 2.0522642 2.2423375
-2.1597521 2.0666883 2.2479711
-2.0786328 2.0682154 2.2471571
-1.7355421 2.0685341 2.2478192
-1.6823267 2.0589015 2.2478907
-2.3656232 2.1322992 2.2469788
-2.2877247 2.1413221 2.2491183
-2.1830232 2.1391449 2.2369246
-2.0771034 2.1242669 2.2452741
-2.3251119 2.1732101 2.2477911
-2.2748547 2.1706614 2.2478824
-2.2767847 2.2318628 2.2493184
-2.2303815 2.2368352 2.2493296
-2.1830242 2.240268 2.2474153
-2.0651197 2.2381716 2.2451429
-2.0384867 2.2272727 2.2455795
-1.9322464 2.2335727 2.249305
-2.2195694 2.2731318 2.2463288
-2.1723528 2.2765307 2.2442131
-2.1197381 2.2868469 2.2470956
-2.0787628 2.2740026 2.244324
-2.0309246 2.2880216 2.2433398
-1.9733696 2.2868328 2.2475185
-1.8964883 2.2628944 2.2419884
-2.1820962 2.3081646 2.238929
-2.1265981 2.3195581 2.2287161
-2.0728085 2.321914 2.2320197
-2.0220916 2.3130155 2.2364848
-1.9982466 2.3047943 2.239574
-2.0158505 -0.50745505 2.2555714
-2.2654994 -0.32930484 2.2608633
-2.0211072 -0.34120858 2.2617958
-2.0863662 -0.24830154 2.2668405
2.1911647 0.32556611 2.2513676
2.2184153 0.31331149 2.2545116
2.1835835 0.3764773 2.2523639
2.20137 0.39798304 2.2518818
2.3282652 0.36431026 2.2501256
2.0577836 0.40755439 2.253979
2.1856666 0.44020551 2.2553682
2.2592788 0.43923274 2.251018
2.3124046 0.43670034 2.2505016
2.110806 0.46141985 2.2510555
2.1777687 0.47898534 2.2534332
2.1706271 0.52503681 2.2503629
2.2387898 0.54004526 2.251586
2.273982 0.51442051 2.2521737
2.12607 0.58790511 2.2512836
2.1686373 0.57593477 2.2508974
2.2248242 0.57547098 2.2521057
2.2766232 0.58929306 2.2526603
2.3107281 0.57058191 2.2502675
-2.029866 0.6414901 2.2682464
2.1140528 0.60593766 2.2518654
2.1899607 0.60832202 2.2530851
2.2944393 0.61393011 2.251519
2.167356 0.67939085 2.2519908
2.216254 0.67930359 2.2546806
2.2505381 0.65340096 2.2516999
2.1365685 0.71197718 2.2503526
2.1904161 0.70598286 2.2566261
2.2235963 0.71530372 2.2530248
2.2703881 0.72647941 2.2533081
2.3224859 0.72491252 2.2519574
2.0586221 0.78214854 2.250721
2.1272247 0.77066261 2.2507763
2.230423 0.77974516 2.2513797
2.2628703 0.77739942 2.2518425
2.300854 0.75216019 2.2500336
-2.287828 0.81427997 2.260113
2.0682938 0.82119113 2.2503014
2.1315794 0.82498688 2.2532616
2.1851501 0.82635862 2.2528193
2.2303724 0.81878316 2.2535963
2.2667949 0.82912219 2.2545588
2.318316 0.80984062 2.2512729
2.1668029 0.8619892 2.2536547
2.2250929 0.87504649 2.2533903
2.2674916 0.8689127 2.2524569
2.3063486 0.86284298 2.2504594
2.0107172 0.94799346 2.2500486
2.0756741 0.92986888 2.2512734
2.1297221 0.92830724 2.2535877
2.1729443 0.92704707 2.2528419
2.2212441 0.92491084 2.2560809
2.266618 0.90339398 2.251503
2.315424 0.92888999 2.2523861
2.0798731 0.97808397 2.2533312
2.1367559 0.97498012 2.2582953
2.1628489 0.97860247 2.2514269
2.2362976 0.98234403 2.2549539
2.2740402 0.96517348 2.2524323
2.3119688 0.96052301 2.2520866
1.9698594 1.0336156 2.251827
2.1314182 1.0248827 2.2548034
2.1849597 1.0158221 2.2537596
2.2267087 1.0138627 2.2540605
2.260797 1.0401006 2.2535856
2.3048015 1.0164505 2.2529662
2.3531709 1.0017129 2.2523472
2.1308892 1.0683829 2.2516451
2.1930094 1.0662519 2.253377
2.2022564 1.0856158 2.2566609
2.2936616 1.063395 2.2519534
2.3315578 1.0967717 2.2512212
2.1332927 1.1100228 2.252461
2.1811893 1.1295289 2.2529309
2.3384724 1.1152984 2.251415
2.1132274 1.1960862 2.2502937
2.1817937 1.1798078 2.2521162
2.2238092 1.1903217 2.2530007
2.265152 1.1793666 2.2537918
2.3153925 1.1954511 2.2519658
2.1196067 1.2277169 2.2517076
2.1797092 1.2189894 2.2524397
2.2284203 1.2212913 2.2523887
2.2512393 1.2313637 2.2524145
2.0329745 1.2951949 2.2523451
2.0902331 1.259024 2.2531583
2.1218662 1.2839873 2.2514801
2.1892197 1.2853702 2.2543089
2.2309213 1.2667685 2.2526164
2.2792609 1.2797292 2.2536297
2.3191144 1.2671187 2.2551982
2.0806046 1.3336983 2.2510853
2.1283572 1.3029569 2.2509947
2.1823409 1.3357581 2.2525828
2.2783511 1.3352908 2.2522392
2.3379133 1.3241259 2.2506106
2.009259 1.3578789 2.2513998
2.0697439 1.3753003 2.2524652
2.1244962 1.373248 2.2533655
2.153842 1.3640341 2.2545142
2.2135642 1.3978424 2.2511442
2.2843132 1.3821591 2.2525446
2.3640237 1.3861761 2.2518308
2.0296748 1.4164174 2.2501335
2.0851226 1.4063728 2.2523689
