ply
format ascii 1.0
comment PCL generated
element vertex 1532
property float x
property float y
property float z
element camera 0
property float view_px
property float view_py
property float view_pz
property float x_axisx
property float x_axisy
property float x_axisz
property float y_axisx
property float y_axisy
property float y_axisz
property float z_axisx
property float z_axisy
property float z_axisz
property float focal
property float scalex
property float scaley
property float centerx
property float centery
property int viewportx
property int viewporty
property float k1
property float k2
end_header
-1.2802823 2.2590714 2.5819654
1.6643543 2.387845 2.5740621
1.7185674 2.3956153 2.5812111
1.7507814 2.3941879 2.5736861
1.8089082 2.3959141 2.5823984
2.1270289 2.3988318 2.5975487
2.4763086 2.3978424 2.5818274
1.7379699 2.4060082 2.5586576
1.7830307 2.402374 2.5669029
1.8238301 2.4011612 2.5609069
1.8752844 2.4045246 2.5758173
1.9223324 2.410171 2.5762007
1.9715962 2.4080167 2.5731301
2.0287528 2.4146562 2.5789883
2.0621257 2.4130144 2.5760224
2.1187384 2.4077475 2.5734491
2.1743672 2.4200182 2.5785224
2.2206161 2.4165809 2.574697
2.2702587 2.4163115 2.5738394
2.3220975 2.4130566 2.5778606
2.3679433 2.407686 2.570833
2.4353819 2.413934 2.5927134
2.5271645 2.4096475 2.5906005
2.5713487 2.4055963 2.575069
2.6174319 2.4118915 2.5775175
2.6998715 2.4047003 2.5774024
2.7371802 2.4204745 2.5796843
0.91939414 -0.30084386 2.6274352
0.92874676 -0.2754938 2.6356895
0.89471376 -0.20656939 2.6028092
0.91336203 -0.22737983 2.6150429
0.89930218 -0.19464388 2.6168292
0.92213142 -0.17880511 2.6252961
0.92259395 -0.12638313 2.6229041
0.91152811 -0.084829316 2.6357045
-0.30528814 0.64291936 2.6319652
-0.31983933 0.67712516 2.6175427
-0.32473961 0.72266895 2.6181076
-0.32130811 0.77482671 2.6342604
-0.32211328 0.83323216 2.629142
-0.32044274 0.87335873 2.6345778
-0.32497919 0.92603028 2.6329482
-0.32529682 0.97949767 2.6223493
-0.32508594 1.0248752 2.6084051
-0.32773897 1.0663247 2.6204562
-0.3231881 1.1332802 2.6204286
-0.32143477 1.1571875 2.6175499
-0.3273204 1.2287462 2.6278896
-0.33060351 1.2642493 2.6251993
-0.32308277 1.3199717 2.6204622
-0.32943749 1.3800949 2.6259551
-0.33277345 1.4276441 2.6057444
-0.3388555 1.4763759 2.6221058
-0.34068829 1.5312647 2.6250451
-0.34181282 1.5685406 2.6102288
-0.35041222 1.6287714 2.6195521
-0.34438223 1.6303941 2.6302495
-0.34231713 1.6695948 2.6265929
-0.35543191 1.7311373 2.6180892
-0.35565871 1.7609913 2.6047964
-0.34520468 1.7739316 2.6400471
-0.36078244 1.8301319 2.6186395
-0.36223319 1.8740863 2.6086853
-0.36536598 1.9124343 2.6184244
-0.36962616 1.9870405 2.6175356
-0.36756399 2.0280981 2.6234188
-0.3681348 2.0732198 2.6283767
-0.36451977 2.1189067 2.6428142
-1.3882545 2.238939 2.6125615
1.522177 2.3816166 2.6410854
1.5686421 2.386821 2.6246557
1.6262312 2.3959675 2.6228585
1.6710191 2.3923898 2.6167102
1.7366157 2.3932672 2.621047
1.7701417 2.3941371 2.623282
1.8191215 2.389653 2.6217747
1.924242 2.3991003 2.6426246
2.5725651 2.395875 2.6220734
1.7115128 2.4037757 2.6310291
1.8061074 2.4097326 2.6467261
1.8702446 2.4038756 2.6269016
1.9121335 2.4019465 2.6119521
1.9689227 2.4096799 2.6313729
2.0231051 2.4138346 2.6294062
2.0790403 2.411885 2.6218307
2.1280921 2.414643 2.6384819
2.1835735 2.4126813 2.6277993
2.2247958 2.4081743 2.6222849
2.2859704 2.4145882 2.6216965
2.3275259 2.4065328 2.625181
2.3717597 2.4070482 2.6261904
2.409972 2.4074273 2.6234498
2.4820004 2.4026592 2.6353366
2.524914 2.4066932 2.6277931
2.6209478 2.4135184 2.6278877
2.6646769 2.4080918 2.6101534
2.736181 2.408515 2.6083512
0.94177443 -0.25097415 2.6541793
0.96881944 -0.27473068 2.6879525
0.94475895 -0.22527933 2.66418
0.96665376 -0.22060108 2.6852877
0.9440769 -0.15884639 2.6654899
0.96485204 -0.17343633 2.6826127
0.96699131 -0.12528682 2.6822155
0.94056237 -0.092256486 2.6576447
0.95329154 -0.080126554 2.693897
-0.31059611 0.68019867 2.673337
-0.3113462 0.72129631 2.6728249
-0.31451994 0.76981276 2.6685174
-0.31490064 0.82894665 2.6838293
-0.31390744 0.87268925 2.6653061
-0.31523734 0.92279649 2.6658721
-0.31403878 0.97931671 2.6722002
-0.31788954 1.0242755 2.6646383
-0.31903255 1.0749578 2.6613171
-0.32074481 1.1145529 2.6658659
-0.3120738 1.1663909 2.698705
-0.31896091 1.2135186 2.6705563
-0.3259804 1.283798 2.6610694
-0.32092863 1.3119539 2.6698866
-0.31767923 1.3899202 2.678154
-0.32170966 1.4273217 2.6689796
-0.32925034 1.4724146 2.667639
-0.32841462 1.5191952 2.6633639
-0.3333292 1.5704832 2.6907053
-0.33364213 1.6079456 2.6774569
-0.33045757 1.6783408 2.686954
-0.34566745 1.7326229 2.6659713
-0.34592834 1.7557824 2.6568942
-0.35025603 1.8294011 2.6630011
-0.34891483 1.8076967 2.6606693
-0.35378888 1.8776425 2.6735294
-0.35617766 1.9278684 2.6703844
-0.35953578 1.9838861 2.6733487
-0.36113065 2.0383446 2.657378
-0.35663235 2.0795295 2.667275
-0.34991553 2.0695577 2.6848726
-0.35826194 2.1120274 2.6644602
-0.35459316 2.1518118 2.6855936
1.4326149 2.3760486 2.6770031
1.4707875 2.3821039 2.6672866
1.5291319 2.3886843 2.6864347
1.5754308 2.3885164 2.6723795
1.6211886 2.3870327 2.6857073
1.6778924 2.3927431 2.6635656
1.723876 2.3945372 2.6710234
1.765779 2.3975949 2.6931469
1.8399875 2.3948958 2.6875269
1.9077535 2.3942387 2.6882477
2.3423102 2.3966236 2.6767037
1.5367109 2.4043832 2.6664033
1.6151422 2.4000633 2.6585391
1.7958038 2.4019158 2.6824636
1.8131381 2.4011726 2.6711123
1.8655983 2.402983 2.6707537
1.91977 2.4069326 2.6796854
1.97685 2.4076791 2.677727
2.0180259 2.4104629 2.6891797
2.0559816 2.4119532 2.6669645
2.1238806 2.4185307 2.6782572
2.1696513 2.4094975 2.6779315
2.2236526 2.4084053 2.6700733
2.2807252 2.4196601 2.6656952
2.3148429 2.4167066 2.6841569
2.3797998 2.4057546 2.6663747
2.4345982 2.4126511 2.6884913
2.4565682 2.4056363 2.6843555
2.5331309 2.4135113 2.6846387
2.5991929 2.4197693 2.681339
2.6698878 2.4097347 2.6865606
2.7165101 2.4223588 2.6673129
0.99107391 -0.2704393 2.709265
1.0181329 -0.28090852 2.7418172
0.98977953 -0.22281413 2.7086344
1.0167794 -0.21893758 2.7419717
0.99058628 -0.17564422 2.7132089
1.0145035 -0.17061415 2.7381291
0.98972434 -0.13048153 2.7125349
1.0177195 -0.12319249 2.7485514
0.98390567 -0.087737888 2.7178984
1.0172235 -0.088880807 2.7481031
-0.30184695 0.67692995 2.715492
-0.29114485 0.6695236 2.7428725
-0.30506089 0.72437543 2.7374504
-0.30611911 0.77399433 2.7382302
-0.30648494 0.82877177 2.7308016
-0.30764097 0.87930155 2.7310183
-0.30709338 0.91817731 2.7170269
-0.30829149 0.96922481 2.7162759
-0.30956414 1.0345181 2.7118542
-0.31143281 1.0818305 2.7170801
-0.29996175 1.0623 2.7459824
-0.30658874 1.1280996 2.7246475
-0.30840036 1.1652796 2.7084706
-0.30953896 1.2177899 2.7269096
-0.31028032 1.2724528 2.7308245
-0.3156749 1.3264971 2.7170262
-0.31327116 1.3753694 2.7256751
-0.31155166 1.432941 2.7457807
-0.32413748 1.52402 2.7277064
-0.32926843 1.5926516 2.7137685
-0.32429069 1.6257632 2.7239299
-0.33482856 1.737347 2.7046602
-0.34111232 1.8074443 2.7365603
-0.34476331 1.8798714 2.7380004
-0.34663877 1.9281954 2.7319298
-0.34273168 1.9731379 2.7202151
-0.35205328 2.0280073 2.7344611
-0.34310645 2.0210333 2.725915
-0.35213023 2.0594258 2.7163117
1.275759 2.3722048 2.7403765
1.3256021 2.3846288 2.7368402
1.3772287 2.3874919 2.7277832
1.4201201 2.38975 2.7210751
1.4704684 2.3880417 2.7237897
1.52403 2.3880777 2.7172937
1.5737724 2.3906021 2.725668
1.6348505 2.3939028 2.7187505
1.6727229 2.3939743 2.7257302
1.7249523 2.3907611 2.7223041
1.7769153 2.3946779 2.7240496
1.8202367 2.39536 2.7212229
1.9786513 2.3999972 2.7415769
2.2305841 2.3975351 2.7090747
2.4397726 2.3984137 2.7080872
2.5938704 2.3935587 2.7383399
1.883378 2.4093997 2.7274497
1.9239259 2.4076457 2.7436953
1.9740719 2.4066856 2.7257869
2.0329454 2.4097443 2.7232752
2.069587 2.4108248 2.72403
2.1199179 2.41184 2.7270904
2.1733627 2.4156058 2.7326934
2.2143958 2.4098287 2.7183061
2.2777636 2.4078712 2.7105896
2.3344429 2.4082134 2.7196691
2.3793359 2.4054365 2.7151892
2.5377548 2.4172785 2.7222869
2.5872087 2.4071643 2.7176306
2.633497 2.4126568 2.7196438
2.6814871 2.409193 2.7294483
2.7323711 2.4081075 2.7330601
2.8151374 2.4170194 2.7236745
1.0369968 -0.27035499 2.7730114
1.0523033 -0.2655088 2.7939961
1.0364559 -0.2303769 2.7672091
1.0443006 -0.15944293 2.7781234
1.058589 -0.18148157 2.7948253
1.0433455 -0.12456195 2.7767596
1.0497985 -0.097483359 2.7947009
-0.2883094 0.68543625 2.7797477
-0.29598531 0.7283051 2.7803435
-0.29728138 0.77931345 2.7837868
-0.29617026 0.82410342 2.764039
-0.29735383 0.87529284 2.7650893
-0.29886487 0.92097616 2.7700014
-0.30216318 0.97284579 2.7908306
-0.30099773 1.0197905 2.7675107
-0.29384494 1.0168906 2.7668238
-0.30173469 1.0686201 2.7621717
-0.30294475 1.1146674 2.7617438
-0.29182866 1.1114515 2.7936575
-0.30631906 1.1975284 2.7718725
-0.29247662 1.1632805 2.7857759
-0.30777133 1.2456746 2.7717707
-0.2941153 1.2194241 2.7864287
-0.30767944 1.2877594 2.7570915
-0.30887628 1.3283037 2.7557297
-0.29763281 1.3272929 2.789465
-0.29819298 1.3657087 2.7822292
-0.30447674 1.4256111 2.7766991
-0.29995704 1.402723 2.7883306
-0.30877024 1.4682068 2.7804885
-0.31451872 1.518326 2.7830901
-0.31853789 1.5676388 2.7662661
-0.32137147 1.6111493 2.7782433
-0.32290745 1.6708347 2.7684069
-0.32627374 1.7183032 2.783376
-0.32851765 1.7980942 2.7696033
-0.32917124 1.8168137 2.7674842
-0.33900619 1.8672715 2.7658489
-0.33426026 1.9141135 2.7739599
-0.33435994 1.9531207 2.7535987
-0.34328577 2.0684288 2.7905617
-0.34242091 2.1808002 2.7746909
-1.3161374 2.2646432 2.7924619
-1.2562622 2.2665708 2.7822223
-1.2226634 2.284481 2.784343
1.1192375 2.3680694 2.7936704
1.1718351 2.3704793 2.778187
1.227181 2.3778627 2.7673986
1.275503 2.382879 2.7828214
1.3307611 2.3788567 2.7788396
1.3770553 2.388047 2.7757988
1.4241565 2.3849742 2.7696064
1.4684334 2.3868542 2.7810655
1.5228331 2.3903241 2.7701771
1.5722098 2.3929784 2.7796991
1.6319554 2.3978596 2.7666626
1.677148 2.3934209 2.7771332
1.7261118 2.3911412 2.7749472
1.7783394 2.3926868 2.7765017
1.8144463 2.3943551 2.7728236
1.8683057 2.3976283 2.7828174
1.9044368 2.3993685 2.786077
1.9916745 2.397191 2.7736745
2.0461066 2.3989143 2.7877653
2.0629554 2.3967583 2.7732544
2.5807321 2.3996758 2.7601919
1.6205748 2.4031305 2.7603016
1.8856056 2.4055691 2.7634926
1.9372764 2.4058199 2.776792
1.9727757 2.4060187 2.7777555
2.023221 2.4016104 2.7611675
2.0921407 2.4088454 2.7750483
2.1268783 2.4072297 2.7806408
2.1737971 2.4076409 2.7657509
2.2132559 2.4101994 2.7674527
2.2719913 2.4125962 2.7552795
2.3214009 2.415035 2.7740772
2.3737488 2.4097154 2.7769299
2.412292 2.4093945 2.7992804
2.4700763 2.4277909 2.7920768
2.5385103 2.4164538 2.7980485
1.0871506 -0.26357609 2.8453863
1.0802443 -0.2194486 2.8297715
1.0825945 -0.17410827 2.8243272
1.0682056 -0.12635706 2.8120894
1.1007707 -0.11381091 2.8467021
0.93635654 -0.069995984 2.8392816
0.96014035 -0.070192695 2.8426914
1.0355918 -0.070523642 2.8398821
1.0752481 -0.084991381 2.8419952
-0.28583181 0.725743 2.8173466
-0.29137412 0.78077966 2.8289008
-0.28745276 0.8106966 2.818496
-0.28980857 0.87083668 2.8307621
-0.29075605 0.92513919 2.8289139
-0.29139894 0.97635877 2.8238244
-0.29073715 1.0161747 2.8072033
-0.29241422 1.0784339 2.8088117
-0.2958374 1.1409822 2.8280451
-0.2955021 1.1539357 2.8207934
-0.29843345 1.2085474 2.8361256
-0.29910076 1.2761406 2.8223155
-0.30044949 1.3036251 2.8279941
-0.29868531 1.3103713 2.8066242
-0.30438688 1.4968181 2.8017969
-0.2924282 1.4812067 2.8406034
-0.30751759 1.5418673 2.818836
-0.30812123 1.5746342 2.8121822
-0.3108575 1.6335541 2.8181429
-0.31522804 1.7223948 2.8282635
-0.33179319 1.7854968 2.8122714
-0.32066011 1.8242788 2.8426232
-0.32361865 1.9268672 2.8249249
-0.32789057 1.9918339 2.8407614
-0.33631003 2.026706 2.8268623
-0.33152834 2.0778859 2.8358104
-0.3328208 2.1180749 2.8278182
-0.33735982 2.2445695 2.8047481
-1.3979007 2.2515643 2.8142028
-1.3287604 2.2688999 2.8311095
-1.2510902 2.2710431 2.8274467
-1.22119 2.2805896 2.815758
-0.32609466 2.2794812 2.8499713
0.94803101 2.3688381 2.8486044
0.98275816 2.3699107 2.8398988
1.0764915 2.3728054 2.8287263
1.1311725 2.3760571 2.8361957
1.177527 2.382112 2.8281472
1.2221788 2.375787 2.8213336
1.2822738 2.3818514 2.8251207
1.3273816 2.3777902 2.8263595
1.371666 2.3828077 2.8277414
1.4263309 2.3875031 2.826298
1.4811301 2.3807716 2.8249969
1.5250764 2.3849173 2.8304899
1.5784595 2.3936765 2.8279452
1.6287295 2.3924875 2.8214285
1.6746218 2.3884118 2.8329895
1.7243865 2.3945208 2.8161421
1.776938 2.3970854 2.8269117
1.8287293 2.3967657 2.8260336
1.8688574 2.3965409 2.8318851
1.922443 2.3971193 2.830898
2.1250975 2.3977637 2.8282371
2.3341894 2.3994064 2.8362141
1.6964674 2.4027839 2.8228891
1.7264222 2.4009407 2.8461981
1.9394605 2.4014449 2.8129127
1.9747719 2.4017885 2.8221025
2.032548 2.416132 2.825655
2.0690632 2.4068792 2.8331337
2.105356 2.4051034 2.80671
2.1665277 2.4015839 2.8076091
2.2102244 2.4123189 2.8296556
2.2716756 2.4088137 2.82219
2.337666 2.4124789 2.8077314
2.3810306 2.407424 2.8180103
2.4350309 2.4123127 2.8398356
2.4832296 2.4208539 2.821101
2.5139089 2.4114387 2.8328962
2.6250105 2.4206536 2.8215504
1.1115937 -0.27773148 2.8774419
1.0895115 -0.2427139 2.85287
1.1122668 -0.22295819 2.8721011
1.116385 -0.17325071 2.8851051
1.1150414 -0.13695848 2.8829639
0.84055358 -0.070811212 2.893682
0.87450653 -0.070493534 2.8734512
0.91500181 -0.070521355 2.8665485
0.98626643 -0.065977253 2.8597841
1.0232393 -0.061617609 2.8700173
1.0763896 -0.069155648 2.8600178
1.1156225 -0.068169333 2.8757544
0.99168378 -0.042809803 2.890738
1.0234052 -0.030305257 2.8872237
1.0695052 -0.029802775 2.8748138
1.1087819 -0.025018442 2.8791275
1.0321918 0.00015814131 2.8956065
1.0716164 0.019857068 2.8920431
1.1027393 0.021880165 2.8944135
1.1047146 0.10158911 2.8984046
-0.29117143 0.7299338 2.8716276
-0.27804545 0.76752841 2.8758087
-0.28427672 0.82600421 2.8813856
-0.28698596 0.87189287 2.8755693
-0.2827608 0.94525844 2.8914478
-0.28149569 0.9624368 2.8736615
-0.28348219 1.0122969 2.883811
-0.28049076 1.0766774 2.8883607
-0.28583151 1.1220475 2.8817792
-0.28407159 1.1658148 2.8827302
-0.28833824 1.2340584 2.8777835
-0.2878781 1.275879 2.8596947
-0.28657997 1.3195828 2.8731978
-0.2918424 1.3747689 2.8722703
-0.29324108 1.4333559 2.8677449
-0.28995019 1.4640781 2.8766558
-0.2974236 1.5291405 2.8804238
-0.30056009 1.5985225 2.8895979
-0.29896492 1.567311 2.8834338
-0.2991547 1.6289327 2.8603215
-0.30426222 1.6952772 2.8925588
-0.30583912 1.7350495 2.8937576
-0.31548691 1.8237603 2.8743939
-0.31172401 1.8789744 2.8969352
-0.31424877 1.9419514 2.8960314
-0.32813489 1.9774956 2.8515651
-0.31752849 2.0185225 2.8961303
-0.31914708 2.0773466 2.883682
-0.32342598 2.1625125 2.8886626
-0.32552764 2.226043 2.8768654
-1.3734066 2.2508144 2.8617294
-1.2638202 2.2767618 2.8681216
-0.3279821 2.2760582 2.8773408
-0.31423232 2.3137195 2.8943191
0.73133051 2.361593 2.8928094
0.77623934 2.3681307 2.8914292
0.8275404 2.3677351 2.8788509
0.88024902 2.3667698 2.8729668
0.92262536 2.3725917 2.8815362
0.97869784 2.3783829 2.8786659
1.0281537 2.3825946 2.8695445
1.0736238 2.3741755 2.8707819
1.1243571 2.3809226 2.8813686
1.1810272 2.3752847 2.8687358
1.2252649 2.3725047 2.8710377
1.2780372 2.3890343 2.8743613
1.3191987 2.3862543 2.8827994
1.3785648 2.392431 2.8770914
1.416389 2.3826301 2.8760614
1.4610322 2.378118 2.859699
1.5406126 2.3866625 2.875963
1.5796189 2.3864846 2.8672643
1.6186643 2.3904595 2.8851285
1.6582978 2.3819633 2.8521442
1.7180232 2.3939774 2.8679771
1.7876849 2.3973172 2.893311
1.8068336 2.3981016 2.8840995
1.8746668 2.3950167 2.8850572
1.929325 2.3954942 2.8766513
1.9807404 2.3934383 2.8881884
2.0582018 2.3972695 2.8702896
2.1343069 2.3997414 2.8735476
2.1643114 2.392514 2.8894606
2.2345805 2.396244 2.8741097
2.2842581 2.3980622 2.8684769
2.3042603 2.3986359 2.8557143
1.0482515 2.4019434 2.8624034
1.6538923 2.4019394 2.8853447
1.7721465 2.4074168 2.8745837
1.8387661 2.4034505 2.874975
1.9881366 2.4005105 2.872678
2.0286925 2.4049587 2.8708515
2.0861149 2.4075673 2.8705623
2.1113379 2.4049754 2.8737421
2.1656184 2.4025927 2.8581185
2.2114742 2.4019127 2.8752296
2.2732985 2.4070549 2.8926048
2.3701994 2.4165606 2.8941345
2.4146857 2.4116893 2.853302
2.4665937 2.4137702 2.872041
2.5521946 2.4088697 2.8527665
1.146953 -0.27096653 2.9173303
1.1463258 -0.21221477 2.9190495
1.1640341 -0.23626271 2.9420819
1.1448972 -0.17539574 2.9170444
1.1512717 -0.17635302 2.9333122
1.1348045 -0.12395775 2.9135365
1.153245 -0.11034148 2.940521
0.7680437 -0.071337886 2.9291229
0.8767004 -0.06037242 2.9344413
0.92534804 -0.057472471 2.9231899
0.96592623 -0.057307098 2.9058115
1.1472301 -0.07311444 2.9259553
1.1506579 -0.08803679 2.9344285
0.88318384 -0.030567061 2.9422798
0.92481434 -0.027289784 2.9315457
0.97378391 -0.027349485 2.9127665
1.0108066 -0.014235097 2.9013286
1.1441984 -0.014435309 2.9187839
0.93542445 0.016710442 2.9413321
0.97541004 0.020223984 2.9273794
1.0233238 0.026897784 2.9163976
1.0601461 0.043581553 2.9075241
1.1344341 0.022111328 2.9142971
1.1640476 0.014919423 2.9278989
0.99382114 0.05839055 2.9425344
1.0281352 0.072829537 2.9278743
1.0767189 0.072685398 2.9090896
1.1240458 0.071225002 2.91289
1.1510209 0.088441312 2.9352183
1.031824 0.11697567 2.9405062
1.0751333 0.12410937 2.9251604
1.1249416 0.1261948 2.9190624
1.1554176 0.12568107 2.9454179
1.0443873 0.16139236 2.9490247
1.0800432 0.18119721 2.9437342
1.1187754 0.17470783 2.9381452
1.1576018 0.17031184 2.9494655
-0.27443907 0.72270387 2.9225044
-0.28071386 0.77490592 2.9033542
-0.27289268 0.82617092 2.926827
-0.28255552 0.88016778 2.9031549
-0.27953085 0.92501277 2.9246716
-0.27731478 0.9788456 2.9312975
-0.27353659 1.0275047 2.9327569
-0.27286065 1.0554204 2.9176579
-0.2753709 1.1312596 2.9273758
-0.27151334 1.1848989 2.9256773
-0.27331787 1.2193619 2.9225118
-0.27409402 1.2706048 2.9315789
-0.2728495 1.3274355 2.928834
-0.28020945 1.3754325 2.9110348
-0.28223744 1.4305878 2.9164915
-0.28630701 1.5199094 2.9334946
-0.28565869 1.5545834 2.9122322
-0.28895864 1.6342151 2.9210637
-0.29438347 1.7591434 2.9351599
-0.30974239 1.8199565 2.9015214
-0.32186228 2.0216112 2.948946
-0.31973371 2.0568349 2.9027891
-0.31653601 2.1386971 2.9210854
-0.31595734 2.1864779 2.9216425
-0.31163293 2.2197404 2.9180386
-0.31471086 2.2752352 2.9258671
-0.30554473 2.3216369 2.9266698
-0.28525221 2.3511465 2.944021
0.62689316 2.3872404 2.946084
0.67783284 2.3840368 2.9325438
0.73189884 2.3797348 2.9388878
0.77847689 2.3794725 2.9227555
0.81868207 2.3702497 2.9273374
0.87299716 2.3721941 2.9254081
0.92735648 2.3693089 2.924943
0.97883463 2.3689322 2.9244454
1.0302365 2.3769882 2.9239974
1.0731598 2.3809583 2.9198506
1.1284877 2.3785512 2.9255273
1.1688807 2.3793342 2.9229
1.2304311 2.37748 2.9228916
1.2750187 2.3815033 2.9254215
1.3269745 2.3779371 2.9156063
1.3761477 2.3843453 2.9285457
1.4197229 2.3808107 2.9209905
1.4793226 2.3925011 2.9226232
1.528536 2.3920565 2.930202
1.5690118 2.3889899 2.9273441
1.6253719 2.3841748 2.9240224
1.6687564 2.3917527 2.9039288
1.7381343 2.3910329 2.9240291
1.7677473 2.3913968 2.9234669
1.8231465 2.3947036 2.9282093
1.8704594 2.3948207 2.9318361
1.9221258 2.3918107 2.9276383
1.9680396 2.3915672 2.915565
2.0901253 2.3957748 2.9427269
2.112355 2.3991189 2.9347043
2.2596798 2.3937256 2.9274952
1.5222354 2.4004073 2.9051259
1.6978343 2.4014871 2.9470568
1.7119303 2.4044638 2.9232271
1.824967 2.4033754 2.926671
2.0313838 2.4052687 2.9321725
2.0815713 2.4052403 2.9168317
2.1341269 2.4018879 2.9257998
2.1966746 2.4086885 2.9467309
2.2248611 2.4074507 2.9259
2.2853084 2.4000802 2.9219813
2.3221779 2.4077935 2.9111152
2.3967671 2.4135702 2.921701
2.4070547 2.4038785 2.9483886
2.5354624 2.410933 2.9232666
2.5836785 2.4175527 2.9282327
2.6002412 2.413275 2.9349051
2.6634209 2.4130976 2.9430635
1.1790683 -0.27588451 2.9673986
1.1801987 -0.20828009 2.9636786
1.1834123 -0.1789974 2.9730585
1.1797141 -0.12815392 2.9738517
0.77536267 -0.063003212 2.986294
0.82672644 -0.058156937 2.9786739
1.184724 -0.074558228 2.9793613
0.78935599 -0.032782264 2.9962502
0.82548362 -0.02897788 2.9744542
0.85730249 -0.028819731 2.9517949
1.1706741 -0.033226307 2.9651351
0.79290426 0.0074169263 2.9953015
0.82973582 0.015922299 2.9805071
0.8747012 0.023672581 2.9668493
0.91894013 0.026008664 2.9576712
1.1870142 0.030115362 2.9855766
0.8343727 0.063632958 2.9967155
0.87552381 0.073403291 2.9872618
0.92412305 0.073183164 2.9682665
0.97209203 0.073304579 2.9617867
1.0026264 0.088287696 2.9680898
1.1818348 0.074760087 2.9719799
0.83173835 0.10269931 2.9957094
0.88360035 0.12116627 2.9873972
0.9268142 0.12346987 2.9873796
0.97140503 0.12479085 2.9681461
1.0140116 0.13072737 2.964195
1.1788663 0.12848285 2.9714797
0.91102791 0.16978213 2.9991531
0.97247684 0.17590426 2.989011
1.0265019 0.17844914 2.9717689
1.0667477 0.16672099 2.9518318
1.1778574 0.1859697 2.958513
-0.26326865 0.72878337 2.9582319
-0.2657038 0.77643818 2.9615493
-0.25973403 0.81974989 2.9869869
-0.2737374 0.87635428 2.9679406
-0.27014664 0.91960269 2.9746473
-0.26489887 0.97206432 2.9589083
-0.26082256 1.0191802 2.9582644
-0.26168928 1.0619025 2.9586365
-0.26357588 1.1240048 2.9660492
-0.26387632 1.1674407 2.9581532
-0.26452079 1.2224803 2.9506519
-0.26707602 1.2568507 2.9725246
-0.27500057 1.3115069 2.9603708
-0.27052236 1.448432 2.9540257
-0.27284864 1.5070233 2.9627907
-0.30805901 2.0216827 2.9831467
-0.30136952 2.2421076 2.9978924
-0.30137205 2.2761278 2.9770892
-0.30099043 2.3071532 2.9520307
-0.28701165 2.3227949 2.9898171
-0.012732691 2.3490913 2.9527628
0.021301486 2.3491235 2.9527652
-0.26677349 2.3582304 2.9740925
-0.22191469 2.3588972 2.9713993
-0.16281599 2.3626018 2.9742899
-0.12406297 2.3627238 2.9677777
-0.081477888 2.3690102 2.9768772
-0.038433544 2.3603978 2.9667814
0.015756534 2.3596957 2.9769394
0.072898775 2.3650289 2.9720647
0.12406391 2.3617775 2.9665887
0.17624982 2.3663621 2.983336
0.22755471 2.3636353 2.9770808
0.27976429 2.3672245 2.981307
0.33257321 2.3847384 2.9824209
0.36842784 2.3933074 2.9897587
0.42079461 2.3952143 2.9864674
0.47695479 2.3897071 2.9808965
0.52178276 2.3921719 2.9862616
0.57759422 2.3892126 2.9739525
0.62559515 2.3928413 2.9762299
0.68715119 2.399224 2.9846323
0.72190928 2.3895299 2.9824405
0.77416778 2.3802283 2.976577
0.83376652 2.3779869 2.9717972
0.87082797 2.3775871 2.9741545
0.92473364 2.3739047 2.9815655
0.97370797 2.3774638 2.9859114
1.0285596 2.3751194 2.9762006
1.0693895 2.3704224 2.9757922
1.1231143 2.3771117 2.9720654
1.1753473 2.3784616 2.9716806
1.2256716 2.3803647 2.9759772
1.2738268 2.3775849 2.9737372
1.3288461 2.3829136 2.9704916
1.3786583 2.3852534 2.9838419
1.4267942 2.3896563 2.9707947
1.4751663 2.3921814 2.9783089
1.5294569 2.384836 2.9698546
1.5750984 2.3845632 2.9796371
1.6301664 2.3869002 2.9715087
1.6771976 2.3949902 2.9755735
1.7168608 2.3964205 2.9723601
1.7830231 2.3912005 2.9734385
1.8223282 2.3849332 2.9717796
1.8751328 2.3843801 2.9795532
1.9139202 2.3973212 2.9797959
1.9751383 2.3926132 2.9594822
2.1235394 2.392354 2.9640951
2.2745106 2.3896692 2.9606895
0.52750361 2.4071641 2.9876568
0.66148758 2.4013741 2.9922347
1.7616661 2.400533 2.9997847
1.9444056 2.4018984 2.9932604
2.0359645 2.4001384 2.9835815
2.0658641 2.4011979 2.9672937
2.1744442 2.4063237 2.9734352
2.2717028 2.4075804 2.9961429
2.3055675 2.4014912 2.9619625
2.3984416 2.4153302 2.9765372
2.4268203 2.4034035 2.9867315
2.473856 2.4099712 2.9661472
0.76633257 -0.058560383 3.0104744
1.2171514 -0.075628683 3.0185859
0.77125096 -0.026267692 3.0060582
1.1986747 -0.03005185 3.0149777
0.78016555 0.025135506 3.0168047
0.81639624 0.039276209 3.0063982
0.7805106 0.074091375 3.0355208
0.81615436 0.077090092 3.0177128
0.78233117 0.11502842 3.0417171
0.8227976 0.12908344 3.0268867
0.87147421 0.12479477 3.0107856
0.91198039 0.14781028 3.003109
0.78273416 0.18555921 3.0409133
0.82710898 0.17995843 3.0327621
0.87302053 0.17670023 3.0220878
0.92345464 0.17986165 3.0063148
0.96749663 0.18547922 3.0026035
1.2005078 0.16682486 3.0163589
-0.26161742 0.82570815 3.0086164
-0.26190031 0.87087631 3.0034437
-0.26217246 0.90132535 3.0006788
-0.31180581 2.0795479 3.0015876
-0.29536811 2.064265 3.0138638
-0.30718946 2.1388178 3.0206001
-0.29593378 2.1015804 3.001503
-0.30013919 2.1821995 3.0155473
-0.29899389 2.1570189 3.0136793
-0.30230117 2.2235007 3.0223484
-0.27797738 2.3343527 3.0221508
-0.25505251 2.3527095 3.0142748
-0.2167092 2.3631623 3.0218141
-0.17256112 2.366854 3.023896
-0.12574443 2.3688247 3.0249734
-0.082211614 2.3641367 3.0202036
-0.030279497 2.3650019 3.0221055
0.025132295 2.3638012 3.0239458
0.073571175 2.3630373 3.0189934
0.12553962 2.3639579 3.0187798
0.17780033 2.3636463 3.0245621
0.2302219 2.3676729 3.0268202
0.27708629 2.3600073 3.0137606
0.32481772 2.3725984 3.0277588
0.37099564 2.3835862 3.0274665
0.4238281 2.3861959 3.0251474
0.47480863 2.3947382 3.0333591
0.53131038 2.3953688 3.0287068
0.56388342 2.3927233 3.040421
0.62433159 2.3879056 3.0244119
0.68489891 2.3956537 3.0324528
0.72379291 2.3883057 3.0239589
0.78148556 2.3849843 3.0163376
0.82203788 2.3792644 3.0209427
0.87674886 2.3694627 3.0233598
0.91825724 2.3741999 3.0292161
0.97331792 2.3715956 3.0323596
1.0219152 2.3724284 3.0330071
1.087225 2.3775792 3.026654
1.1284035 2.3745985 3.0190601
1.1777564 2.3744206 3.0217581
1.2251745 2.3817465 3.0227013
1.2808712 2.3894966 3.0271366
1.3221945 2.3807583 3.0226104
1.3704618 2.3844125 3.0254452
1.4197029 2.3890083 3.028872
1.4781034 2.385318 3.0316854
1.5164015 2.3846793 3.0267463
1.5700718 2.3865068 3.0266888
1.6229866 2.3864982 3.0236201
1.675944 2.3859746 3.018966
1.7293892 2.3930748 3.0186825
1.7714869 2.3948922 3.029664
1.8325124 2.3936059 3.0406852
1.9251959 2.3945575 3.0379529
1.9708179 2.3927481 3.0247447
2.0151911 2.3905067 3.0266356
2.0519228 2.3994272 3.0206664
2.4018128 2.3984604 3.0482004
0.30895239 2.4026005 3.007051
0.65726364 2.400403 3.0263445
1.8139627 2.400862 3.0175195
2.0760472 2.4048126 3.0157008
2.1214352 2.4034908 3.0344901
2.1752796 2.4093113 3.028127
2.2410607 2.4173667 3.0344975
2.2563794 2.4124272 3.0153115
2.3291588 2.4059966 3.0063448
2.3782082 2.4152298 3.0169363
2.4973001 2.4123478 3.0084543
0.7868188 0.13806702 3.0585577
0.785712 0.16393998 3.0533948
0.8106516 0.17942706 3.0587058
-0.28912085 2.2276037 3.0795689
-0.29059988 2.2823634 3.0699282
-0.27250251 2.3299651 3.0785465
-0.24134332 2.344264 3.088325
-0.1357732 2.3488789 3.0826554
0.030693289 2.3477864 3.0835123
-0.25714469 2.3545663 3.0500329
-0.21959443 2.3563724 3.0682716
-0.17094523 2.3592656 3.0779505
-0.11476089 2.3601766 3.0778728
-0.074527077 2.3602614 3.0823689
-0.026250886 2.3632064 3.0783849
0.017497329 2.3563843 3.0695643
0.074489906 2.3571546 3.0783176
0.13052733 2.3581519 3.0747437
0.17493379 2.3577969 3.0674324
0.23199524 2.3598559 3.06704
0.27658775 2.3623545 3.07582
0.32104817 2.3663468 3.0775399
0.37452456 2.3709404 3.0786254
0.42958975 2.3922083 3.0834875
0.48192158 2.3880904 3.0717556
0.50937188 2.3836927 3.0796685
0.58054185 2.3937778 3.0652504
0.62745988 2.3946526 3.0763125
0.66976231 2.3945961 3.0747373
0.77870238 2.3915157 3.0826154
0.82903725 2.3849285 3.0771017
0.86385936 2.3819835 3.06514
0.91920704 2.3682883 3.0691335
0.96333498 2.3679457 3.0696499
1.0185288 2.3728654 3.0864513
1.0736855 2.3747671 3.0734971
1.1249137 2.3781712 3.082016
1.16904 2.380074 3.0804679
1.2269893 2.390573 3.0864513
1.2718809 2.3793805 3.0741184
1.3333147 2.3769093 3.0780087
1.3831933 2.3787522 3.0720949
1.425531 2.3784113 3.0752635
1.4664598 2.3846223 3.0682955
1.5324898 2.3831775 3.0659187
1.5807672 2.3821292 3.074064
1.6157253 2.3752346 3.0729461
1.6733165 2.3902245 3.0703428
1.7192006 2.3870811 3.0761151
1.7815131 2.3914359 3.0784531
1.8125591 2.3955288 3.0769861
1.8533664 2.3889859 3.0674245
1.9268584 2.3892503 3.0744994
1.9679593 2.3920674 3.0565658
2.0254357 2.3946197 3.0758817
2.0767293 2.3987594 3.077652
2.141567 2.3953009 3.0568023
0.53981191 2.4097345 3.0923591
0.72180176 2.4036837 3.0889847
0.75933075 2.4090374 3.0887804
1.8435777 2.401298 3.0933745
2.0975285 2.4099259 3.0606556
2.1310239 2.4057081 3.082238
2.2376671 2.425272 3.0770364
2.2765133 2.4142072 3.0742552
2.3282137 2.4160898 3.0787795
2.3721335 2.4094105 3.0719573
2.4439678 2.4201221 3.0615547
2.4572766 2.4126632 3.09234
-0.28961891 2.1795416 3.1141529
-0.27843177 2.2242253 3.118315
-0.27709267 2.2881 3.1299963
-0.26590124 2.3164065 3.1234815
-0.24437837 2.3470888 3.1433606
-0.11996096 2.347326 3.1494677
0.022106852 2.3483589 3.1182647
-0.21681991 2.355335 3.1215487
-0.17308231 2.3622477 3.1329253
-0.11954281 2.3566213 3.127466
-0.075197801 2.3548412 3.1262314
-0.034458451 2.3615735 3.1220529
0.02211757 2.3501763 3.1207182
0.075469166 2.3619728 3.1356924
0.12406971 2.3612199 3.1248991
0.18550527 2.3684282 3.1268425
0.22329079 2.3661892 3.1241961
0.26605219 2.3638155 3.1211956
0.32441431 2.368901 3.1234798
0.38225526 2.3635018 3.1335483
0.42947942 2.3863671 3.1243215
0.47314563 2.386909 3.1269205
0.52963603 2.3929911 3.1329246
0.57830304 2.3944752 3.1190732
0.63514781 2.3971133 3.1313283
0.67057818 2.3949416 3.1223061
0.73639232 2.3950753 3.128314
0.82094669 2.395519 3.1297143
0.88077915 2.393126 3.1276736
0.93010408 2.3736935 3.1199961
0.97654176 2.3782632 3.1333609
1.0275514 2.375576 3.1253822
1.0754123 2.3804667 3.1190104
1.1020293 2.3786697 3.108659
1.176949 2.3825293 3.1298926
1.2137706 2.3823137 3.1177444
1.2822399 2.3710093 3.1172273
1.3392354 2.3807411 3.131793
1.3764817 2.3828423 3.1281335
1.4189124 2.3798499 3.1209621
1.4730111 2.3917329 3.1179361
1.5212096 2.3941884 3.1335287
1.5700819 2.3821874 3.1257169
1.6208899 2.3917699 3.1403344
1.6733387 2.386795 3.1194041
1.7274811 2.3878314 3.1287856
1.7758175 2.3903615 3.1245577
1.8165704 2.3845372 3.1246367
1.870379 2.393219 3.1272135
1.931599 2.3998137 3.137439
1.964234 2.3917146 3.1054709
2.2807791 2.3991652 3.1301105
2.4443388 2.399523 3.1302574
0.52494681 2.4055154 3.1238921
0.61769533 2.4083052 3.1314731
0.70836282 2.4010162 3.1237202
1.9974529 2.4081628 3.1158268
2.0692005 2.4146385 3.1350784
2.1233363 2.4045446 3.1222045
2.1807084 2.4077821 3.1058834
2.2228005 2.4147348 3.1268253
2.2686589 2.4174371 3.1201649
2.3311353 2.4198372 3.1371827
2.3707833 2.4081984 3.1153333
2.4347119 2.4106932 3.1040204
2.4833593 2.4073272 3.1189451
2.5192139 2.4119329 3.1030769
0.17327429 0.57409382 3.1901538
0.22374208 0.58244669 3.1938422
0.25137591 0.58775979 3.1999817
0.18116653 0.6012255 3.1905658
0.2201881 0.60252398 3.1958392
0.129694 1.0057679 3.1880744
-0.27308306 2.2269261 3.1951675
-0.26257363 2.2796247 3.1887369
-0.26209986 2.3110483 3.1626048
-0.2459621 2.335422 3.1796679
-0.15687695 2.3499351 3.1864338
-0.1386532 2.3450205 3.180434
-0.21931736 2.3554492 3.1735258
-0.178266 2.3586369 3.1763873
-0.12031084 2.3545032 3.1590581
-0.073000304 2.3565781 3.174649
-0.031303819 2.3636816 3.173111
0.022377597 2.3601286 3.1684055
0.071577951 2.3572996 3.1727111
0.12986594 2.3649249 3.172786
0.1749869 2.3603373 3.182354
0.21973175 2.3590219 3.1783504
0.26860338 2.3598902 3.1677701
0.32445353 2.3660207 3.1771278
0.36977038 2.3597987 3.1740742
0.42334151 2.3726125 3.183753
0.47466293 2.3801262 3.1810384
0.50910652 2.3794203 3.161577
0.5831697 2.3875532 3.1622524
0.62619847 2.3919148 3.1704719
0.67809057 2.3944376 3.1742771
0.72377419 2.3949685 3.1667919
0.75521338 2.3990686 3.1847403
0.84547305 2.3954811 3.1610806
0.86746711 2.3920207 3.1791825
0.91235477 2.3848302 3.1679716
1.2807122 2.3840537 3.1774545
1.3215207 2.3805857 3.1783564
1.3707089 2.3749413 3.1725371
1.4250424 2.3823156 3.1741011
1.4718556 2.3840582 3.1733584
1.5246948 2.3908157 3.1797934
1.5737332 2.3856001 3.1832979
1.630495 2.3866718 3.1714292
1.6722118 2.3885534 3.1779404
1.7360022 2.3838506 3.1855338
1.7699436 2.3891335 3.1707313
1.8217696 2.384618 3.1680892
1.8684721 2.3845925 3.1677771
1.933076 2.3941052 3.1742115
1.962864 2.3943052 3.1585927
2.2002208 2.3794942 3.1950836
0.53319073 2.4067967 3.1955328
0.55963129 2.4029489 3.1866226
0.72022241 2.4044778 3.1988437
0.78184539 2.4056551 3.1702502
0.82228661 2.4078808 3.183383
1.9920377 2.4056737 3.1627319
2.0283535 2.4040191 3.1721628
2.0783741 2.4052904 3.1624308
2.1213169 2.4112663 3.1986532
2.1763487 2.4162838 3.1753066
2.21468 2.4045019 3.1816516
2.2721424 2.4224443 3.179997
2.3380446 2.4170401 3.1809726
2.3933766 2.4105656 3.1865361
2.5147548 2.406709 3.1520574
0.097836874 0.57887095 3.2442553
0.12848711 0.5760175 3.2274375
0.1744881 0.55817509 3.2147803
0.21836968 0.56558824 3.2193046
0.26942691 0.58034468 3.2310801
0.13093236 0.6232307 3.2346947
0.17265551 0.62608528 3.2140539
0.21639474 0.62699312 3.2132614
0.027501587 0.68213296 3.2395322
0.051146649 0.67591101 3.2481906
0.13264403 0.66539079 3.2425931
0.088229351 1.0195466 3.2328231
0.1272772 1.005847 3.2288275
-0.27208838 2.2219076 3.2294347
-0.23051271 2.3380389 3.2281911
-0.19411379 2.3485818 3.2180951
-0.21238099 2.350867 3.2203159
-0.16758177 2.3566408 3.2303448
-0.11868608 2.3636324 3.22751
-0.079962812 2.3619795 3.2285821
-0.031650115 2.3673685 3.2271638
0.02262482 2.3605554 3.221453
0.080569945 2.3607342 3.2245231
0.1276008 2.363821 3.220443
0.16806632 2.3626802 3.2386134
0.22251932 2.3615701 3.2344873
0.28013289 2.3647106 3.2210498
0.33146739 2.367851 3.2238226
0.36800528 2.3630822 3.2259636
0.42257395 2.3632946 3.2209034
0.47175324 2.3729331 3.2167871
0.52128232 2.3898964 3.2316525
0.56905901 2.3913665 3.2326531
0.62523967 2.3950131 3.223856
0.67283654 2.3807425 3.2108264
0.74010473 2.3910706 3.2132804
0.78641754 2.392128 3.2057824
0.83467478 2.3986764 3.2050459
0.91489094 2.3971016 3.2225797
1.0737797 2.3921132 3.2328656
1.1271162 2.3965344 3.244154
1.1966221 2.3846157 3.2455804
1.22405 2.3922303 3.2284698
1.2787387 2.3790343 3.2108738
1.3208884 2.3851175 3.2469568
1.3780504 2.385175 3.2270882
1.4204274 2.3778179 3.2315574
1.4765756 2.3865676 3.2348051
1.5290531 2.388613 3.2281654
1.5733128 2.3827808 3.2332306
1.6246728 2.3758974 3.214962
1.6736407 2.3840828 3.2218869
1.7199663 2.3813031 3.2264023
1.7827995 2.3879519 3.2159574
1.8217359 2.3807297 3.2311888
1.938862 2.3936651 3.218358
2.0408492 2.3999372 3.2236295
2.090842 2.390867 3.2291691
2.1256502 2.3959007 3.2185473
0.58160281 2.4002934 3.2159069
0.72556508 2.403811 3.2338176
0.76148385 2.4005096 3.222461
0.81723702 2.4016304 3.2128799
0.9204793 2.4116862 3.2421312
1.8491027 2.4005542 3.228528
1.8697752 2.4016547 3.2201104
1.9932716 2.411289 3.2207179
2.0247254 2.404706 3.241107
2.1771235 2.4080005 3.2108943
2.2040017 2.4057839 3.242712
2.2799172 2.4158421 3.2288761
2.3268495 2.4061089 3.2208154
2.3972466 2.4145575 3.2471483
2.4209015 2.4172537 3.2370563
0.03583698 0.58826905 3.2977858
0.074852914 0.58438015 3.2665553
0.028921297 0.62279469 3.2839017
0.074903749 0.63032341 3.2621613
0.11404087 0.64462471 3.2521322
0.23027225 0.64202732 3.2621138
0.27320465 0.63324046 3.2706866
0.014537732 0.66150266 3.2705371
0.077359945 0.68030792 3.2687559
0.12618655 0.68982762 3.2551813
0.16611242 0.67595088 3.2655351
0.20925024 0.66316015 3.2607703
0.0756808 0.71608734 3.2834775
0.13419522 0.72073263 3.2735138
0.16859211 0.72730523 3.2823505
0.1482109 0.75282806 3.2987037
0.28774863 0.82976079 3.2892094
0.11652879 0.89969653 3.285248
0.23807725 0.88761389 3.2986259
0.28424373 0.88249934 3.2896752
0.31005079 0.88579971 3.287837
0.07375022 0.93801767 3.2819643
0.11794094 0.92706728 3.2743173
0.23829845 0.90459704 3.2987566
0.2774854 0.90073818 3.2825716
0.030959643 0.97565371 3.2849839
0.068227135 0.97870135 3.2662003
0.12423873 0.97747493 3.2609603
0.028214378 1.0179156 3.2691894
0.060156763 1.0099306 3.2569201
0.16424593 1.009262 3.2523429
-0.27573964 2.2340376 3.2829461
-0.24881937 2.2449074 3.2825222
-0.24856718 2.2697971 3.2645102
-0.25024647 2.3124073 3.2715297
-0.24131432 2.3324578 3.2644107
-0.18256436 2.3606765 3.2853329
-0.1234931 2.361639 3.2744629
-0.068561658 2.3609393 3.2747724
-0.025832944 2.3635213 3.2669384
0.022869965 2.3568394 3.2695954
0.077801682 2.3616056 3.2755423
0.1233744 2.3574057 3.2686234
0.16965146 2.3708444 3.276654
0.22545989 2.3740225 3.2873847
0.27965751 2.3664477 3.2735395
0.32475156 2.3606596 3.2621865
0.37566051 2.3594732 3.265249
0.42821273 2.3670447 3.2797749
0.4717212 2.3730936 3.2774503
0.52185518 2.3832197 3.2733123
0.58832538 2.390934 3.2751184
0.62517411 2.390234 3.2686396
0.65404522 2.3848193 3.2750647
1.0376881 2.3941453 3.27824
1.0696092 2.3951883 3.2713404
1.1358384 2.3761611 3.2508574
1.322974 2.3870373 3.2907681
1.378691 2.3835917 3.2662189
1.428593 2.3835196 3.290596
1.4764967 2.3826721 3.2714212
1.5214984 2.3779509 3.2789667
1.6952034 2.3792562 3.2643492
1.7173461 2.3827233 3.2603202
1.7633903 2.3918133 3.2546866
1.8175892 2.3913851 3.2750123
1.8921582 2.3902078 3.2842119
1.9319396 2.389786 3.2633896
2.057904 2.3996434 3.263674
0.56274098 2.4003589 3.2919655
0.69847077 2.4195054 3.2980154
0.7198568 2.4135821 3.2734478
0.77437574 2.4222705 3.2881591
0.82969087 2.4148121 3.2760725
0.88198417 2.419523 3.2748897
0.92884231 2.4148164 3.2831378
0.95847881 2.4087579 3.2868018
1.0033488 2.4031112 3.2676101
1.7929704 2.4050045 3.2633314
1.8050406 2.4011726 3.2978735
1.8785279 2.4056845 3.2702188
1.9805633 2.4014633 3.2753937
2.0293169 2.4018588 3.2832332
2.0845449 2.4069571 3.2623441
2.1299539 2.4032941 3.281074
2.1969478 2.4102683 3.2816038
2.225457 2.4084275 3.2876778
2.2671046 2.408632 3.2630134
2.3367441 2.417007 3.2905278
2.3865087 2.4038401 3.2883167
0.020085733 0.59257275 3.3220005
0.084361017 0.56201774 3.3337607
0.3173905 0.59456795 3.3232164
-0.012005394 0.63600779 3.3349013
0.0040643536 0.62343496 3.3118579
0.26634118 0.631598 3.3191798
0.327645 0.61479968 3.3434114
0.19818442 0.67934418 3.3410099
0.085078225 0.7449441 3.3390651
0.11747853 0.79363823 3.3314106
0.19928995 0.78074086 3.3454583
0.2347558 0.78943729 3.33797
0.27171308 0.79481006 3.3303213
0.12745622 0.8409363 3.3314137
0.18073833 0.82929313 3.3298693
0.23026511 0.82402378 3.3140903
0.26903486 0.8207289 3.3125064
0.036822349 0.89857155 3.3450444
0.074810982 0.88637525 3.3416405
0.12330856 0.87283379 3.3167243
0.17915952 0.87694776 3.31828
0.22816585 0.86867088 3.3096788
0.27549824 0.86600435 3.3044643
0.032645226 0.93294394 3.3298531
0.063668929 0.92030448 3.3200057
0.1009474 0.90401614 3.3013785
0.17510933 0.92823058 3.3251102
0.22876067 0.92850274 3.3136885
0.27051285 0.92416811 3.326786
-0.012212333 0.99881667 3.3338156
0.0082045412 0.97432339 3.3242033
0.17823762 0.96277839 3.325711
0.23389263 0.95184761 3.3455904
-0.012207758 1.0229738 3.3274317
0.012355376 1.0342326 3.3356581
-0.26926082 2.2369568 3.3243408
-0.23550496 2.3376408 3.3265297
-0.21751371 2.3613739 3.3245988
-0.18085839 2.3626537 3.3342524
-0.12034198 2.3665586 3.3266616
-0.069183335 2.3629582 3.3136566
-0.023053043 2.3657379 3.3180828
0.018523617 2.3640585 3.324852
0.082314894 2.3596039 3.3233104
0.12206247 2.3671513 3.3305404
0.17522983 2.3658459 3.3292656
0.23174839 2.3683484 3.3245671
0.27413428 2.3792338 3.3281803
0.3250289 2.3730972 3.3250844
0.37260509 2.3681755 3.3270333
0.42274004 2.3603806 3.3259802
0.47522014 2.3718786 3.327477
0.52678615 2.3779812 3.3207209
0.57563549 2.3872874 3.3275468
0.6246798 2.3940272 3.3338788
0.6644401 2.3944607 3.3434927
0.72168857 2.3967669 3.33727
0.79765773 2.3983464 3.3256516
0.81507999 2.3940749 3.3160367
0.89843988 2.396524 3.341032
0.91741639 2.3964336 3.3367231
0.96547824 2.3977714 3.3276763
1.076538 2.3930595 3.3326693
1.3228697 2.3849123 3.3293583
1.3823618 2.3823915 3.3158937
1.4195759 2.3814893 3.333468
1.4808941 2.3859935 3.318429
1.5276088 2.3783205 3.332015
1.5640997 2.374095 3.3107705
1.7569503 2.3901355 3.3010988
1.8407516 2.3915443 3.3355052
1.8760772 2.3952906 3.3011072
1.9935744 2.3996444 3.3480453
2.0218902 2.3968029 3.3281088
2.090301 2.3960831 3.34111
0.62341142 2.4004862 3.3207037
0.69980609 2.4053268 3.3153684
0.72921634 2.4093995 3.316072
0.77483797 2.4091384 3.3225944
0.82525599 2.4056358 3.3115745
0.87168467 2.4122145 3.3152988
0.92802197 2.4036882 3.3189957
0.98580772 2.4058678 3.3085861
1.0316839 2.4192321 3.3434277
1.789786 2.4075403 3.3159528
1.9750056 2.4100199 3.3265357
2.0785832 2.4032035 3.3095188
2.1210668 2.4066217 3.326767
2.1727345 2.4074132 3.3164399
-0.017642939 0.58317012 3.394048
0.018011559 0.57944041 3.3678303
0.05807041 0.57205176 3.3610363
-0.17611197 0.63925666 3.3929739
-0.020325303 0.6108861 3.378056
0.31216016 0.61616409 3.3518586
0.23980826 0.68271261 3.3558068
0.29292151 0.6593563 3.3757575
0.085437357 0.7643531 3.3507249
0.18890655 0.77719694 3.3548775
0.21606869 0.78259772 3.3528228
0.080564499 0.84068543 3.3630486
0.11851921 0.81968278 3.3576481
0.16432376 0.80750787 3.3598568
0.037327878 0.89434057 3.3939035
0.060051657 0.86815423 3.3726761
0.016524473 0.92266464 3.370513
0.22008529 0.97984159 3.3831487
-0.028944332 1.0445518 3.3688772
0.0042307689 1.0660899 3.3811696
-0.26759824 2.2386649 3.3733864
-0.23738247 2.2724774 3.3979712
-0.22851351 2.3328931 3.3754368
-0.20120569 2.3594902 3.378006
-0.16986823 2.3636944 3.3730333
-0.13005444 2.3670011 3.3766656
-0.069842875 2.3682382 3.3576431
-0.02016318 2.3651087 3.3660657
0.032626726 2.3646612 3.3530412
0.074908867 2.3635087 3.378561
0.13551711 2.3643961 3.3691363
0.16875336 2.3669963 3.3808985
0.22595778 2.3702178 3.3773148
0.27650672 2.3716345 3.3727
0.31977648 2.3709466 3.3724122
0.37930861 2.3605556 3.367491
0.42797527 2.3707886 3.3776705
0.47346118 2.3631015 3.3617494
0.5210014 2.3660941 3.3605313
0.56585479 2.3724365 3.3734577
0.62939161 2.3761404 3.3794496
0.7347827 2.3897886 3.3632011
0.77485132 2.3964965 3.3658109
0.80417055 2.3988786 3.3637905
0.88487661 2.3922215 3.3768263
0.90351564 2.3909247 3.3709152
0.98073137 2.3927348 3.3561468
1.0097696 2.3970971 3.3958817
1.1026686 2.3890626 3.3600588
1.3267155 2.3899395 3.37848
1.3721622 2.3820999 3.3795621
1.4323428 2.3831675 3.3750105
1.4793091 2.3955069 3.3783112
1.5234754 2.3800852 3.369761
1.5780178 2.3903797 3.3771214
1.602652 2.3874531 3.3851449
1.7719078 2.3937933 3.3710976
1.8341838 2.3992522 3.3761117
1.8820367 2.398258 3.376153
2.0489926 2.3960221 3.3630912
2.0884864 2.3970079 3.3954949
2.109709 2.3974707 3.3849964
0.67250937 2.4044452 3.3949485
0.84069461 2.4062424 3.3804836
0.87183911 2.4018135 3.3544991
0.93617725 2.4011455 3.3789816
1.0361197 2.4103274 3.3690825
1.0706556 2.4036553 3.3907316
1.6998349 2.4019692 3.3929772
1.7308426 2.4030342 3.3815067
1.7792605 2.4003038 3.3553846
1.8218303 2.4065266 3.3705659
1.8978022 2.4026546 3.3519409
1.9156415 2.4046757 3.3959868
2.0237093 2.4027405 3.3886604
2.1768622 2.4026582 3.3577604
2.2404389 2.405216 3.3798654
-0.16688311 0.57954651 3.4358971
-0.12357043 0.58218944 3.4382987
-0.078385763 0.57819104 3.4297209
-0.03968307 0.58106256 3.4141691
-0.16086419 0.62735981 3.4197662
-0.1285381 0.63075155 3.4392996
-0.078598961 0.6292538 3.4321682
-0.045169383 0.61700451 3.4116235
-0.17536549 0.67975742 3.4276316
-0.12887599 0.67395049 3.4428949
-0.095560424 0.66534883 3.4432716
-0.21625687 0.73229867 3.4325795
-0.17697236 0.73116207 3.438838
-0.18336162 0.76307088 3.4370646
0.037486654 0.84823358 3.4168282
0.062232248 0.82893986 3.4083872
-0.012439596 0.88408267 3.421315
0.019032765 0.87783271 3.4196079
-0.063113675 0.9268133 3.4499266
-0.029339574 0.92296112 3.4358051
0.0042309151 0.91577858 3.4092348
-0.029446172 0.97754234 3.4413843
0.0042408537 0.95975709 3.409934
0.1718954 0.98919284 3.4173906
-0.080343865 1.0328119 3.4466639
-0.03428451 1.0261774 3.4334939
0.18052931 1.0072539 3.418179
0.20660099 1.0117331 3.4324231
-0.11402178 1.0734301 3.4318075
-0.082021698 1.0698903 3.4384046
-0.031892236 1.0849998 3.4246564
-0.077004798 1.1115097 3.4327354
-0.046401415 1.1323106 3.4190378
-0.27489302 2.2378359 3.4188306
-0.2384719 2.2548137 3.4279604
-0.22046518 2.3279459 3.405894
-0.20371018 2.3509452 3.4405692
-0.17457724 2.3606882 3.4182639
-0.12771098 2.3665502 3.4283705
-0.07081452 2.3724825 3.4194727
-0.026746998 2.3724587 3.4262245
0.023693047 2.3762031 3.42536
0.080493338 2.3667722 3.429826
0.12438887 2.3676479 3.4175599
0.1750205 2.3652484 3.4248686
0.22268869 2.3691773 3.428427
0.26991788 2.3678997 3.4238987
0.32701048 2.3698862 3.422889
0.37104261 2.3625023 3.4213016
0.42300063 2.3690462 3.4286752
0.47947082 2.3740611 3.4148483
0.52364028 2.371171 3.4246783
0.58117497 2.3747859 3.4265447
0.62653005 2.3727274 3.4326816
0.66609848 2.3870854 3.4286413
0.87159669 2.3891897 3.4146013
1.3364339 2.3876853 3.4146147
1.4163545 2.3863268 3.4294901
1.4694214 2.3917737 3.4199924
1.533591 2.3787322 3.4196811
1.5806022 2.3893967 3.419795
1.6767657 2.3920159 3.4321766
1.7236528 2.3893669 3.4237862
1.7511042 2.396745 3.4090052
1.9662856 2.395792 3.4049239
0.72590756 2.4042845 3.4248357
0.77497667 2.4073563 3.4207735
0.82296634 2.4070029 3.4112911
0.92544603 2.4039383 3.4255023
0.95491654 2.4049387 3.4205155
1.0343789 2.4094138 3.4086084
1.0531026 2.4078195 3.4015315
1.2678028 2.4081497 3.4258645
1.6732543 2.4072719 3.4131238
2.0541751 2.405582 3.4295177
2.2273586 2.4138703 3.4041619
-0.16207972 0.56552714 3.4532719
-0.1454297 0.57376468 3.4523926
-0.084868073 0.67969018 3.4585292
-0.034966622 0.66143024 3.4830863
-0.16307838 0.70289034 3.458277
-0.12984091 0.72098994 3.4633448
-0.096682303 0.72370338 3.4769394
-0.13278276 0.76656669 3.4609697
-0.097440809 0.76324111 3.4994347
-0.063798353 0.88577187 3.4963138
-0.032953415 0.88645917 3.471416
0.0042685028 0.85656798 3.4505363
-0.063308358 0.94657326 3.4574816
-0.11471196 0.98640764 3.4714739
-0.078537837 0.97687525 3.470161
-0.12166452 1.0182078 3.4693913
-0.082926936 1.0177615 3.4564109
0.19270797 1.0446795 3.48332
0.23245038 1.0323882 3.4809024
0.27797443 1.0176265 3.4798775
-0.13198695 1.0565972 3.4646189
0.20996839 1.0625019 3.4814236
-0.27885601 2.2412324 3.4815483
-0.24093843 2.2498021 3.477659
-0.2223022 2.2619336 3.4780493
-0.20557901 2.3533812 3.4822628
-0.17989314 2.3635972 3.4729068
-0.12893121 2.3695214 3.4706008
-0.071441613 2.3648109 3.4649918
-0.02382292 2.369107 3.4718173
0.023942107 2.3727682 3.4771678
0.071476191 2.3631308 3.4625549
0.12438688 2.3680909 3.4782269
0.17178701 2.362174 3.4679546
0.22363299 2.3601637 3.4531531
0.27179307 2.365098 3.4576912
0.33056891 2.3768804 3.4710226
0.37445715 2.3672771 3.4823251
0.43778396 2.3673682 3.4863939
0.47583503 2.3747647 3.4740982
0.52479815 2.3741031 3.4773083
0.56687075 2.3842485 3.497087
0.63364321 2.3803239 3.4821687
0.67182511 2.3784862 3.473763
1.3743324 2.3896089 3.4709079
1.4147629 2.3973722 3.4925756
1.4510993 2.3909004 3.4695656
1.5753194 2.3917499 3.471602
1.6194649 2.38853 3.4801934
1.6845267 2.3971896 3.4850626
1.7015046 2.3922787 3.4696035
2.0229347 2.3971472 3.4812684
0.7707684 2.4049811 3.4575424
0.83757102 2.4104884 3.4936337
1.007201 2.4179752 3.4690967
1.2640234 2.4189184 3.4870148
1.3849763 2.4007936 3.463685
1.4375429 2.4017963 3.4922602
1.6540399 2.4031372 3.4605062
1.7312528 2.4052269 3.4798782
1.7921468 2.4042609 3.452121
1.8064177 2.4026833 3.491694
1.8853798 2.4110422 3.4712367
1.9049304 2.4018135 3.4954681
1.9725511 2.4079585 3.4747264
2.0498796 2.4041169 3.4808445
2.0748429 2.4086456 3.4766712
2.1218543 2.403491 3.4688852
2.1590018 2.4107952 3.4898438
2.2221262 2.4099398 3.4537406
-0.063627303 0.68807793 3.5161927
-0.28269917 2.2434044 3.5436475
-0.23465827 2.2615876 3.5354409
-0.18767144 2.3495307 3.5159454
-0.16250628 2.3637781 3.5253172
-0.12637566 2.3672333 3.5212448
-0.072314881 2.3739629 3.5168693
-0.024027657 2.3701825 3.5118012
0.019366514 2.3713996 3.5233071
0.072426684 2.3651247 3.5232046
0.10772747 2.3665721 3.518162
0.17882484 2.3682272 3.5248549
0.22742271 2.3810306 3.5222583
0.27504209 2.3743882 3.509737
0.32459575 2.3741617 3.5256643
0.37421659 2.3719914 3.5381978
0.41961563 2.3786483 3.5311544
0.51980019 2.3712757 3.5227613
0.58037204 2.380528 3.5293717
0.62287748 2.3800554 3.5129874
1.3323683 2.3940244 3.5134575
1.3544713 2.3975616 3.5123758
1.4469075 2.3971171 3.526396
1.597276 2.3891664 3.5052712
1.6784059 2.3971989 3.5350845
1.7197995 2.3973241 3.5187411
0.78398198 2.4264333 3.5275893
0.81516314 2.4312763 3.5293171
0.93819606 2.42308 3.5335972
0.98044652 2.4094641 3.5450273
1.2378492 2.4461584 3.5379889
1.2724671 2.4149423 3.5215919
