ply
format ascii 1.0
comment PCL generated
element vertex 1561
property float x
property float y
property float z
element camera 0
property float view_px
property float view_py
property float view_pz
property float x_axisx
property float x_axisy
property float x_axisz
property float y_axisx
property float y_axisy
property float y_axisz
property float z_axisx
property float z_axisy
property float z_axisz
property float focal
property float scalex
property float scaley
property float centerx
property float centery
property int viewportx
property int viewporty
property float k1
property float k2
end_header
-0.095929332 0.98049676 4.1607161
0.98553836 0.97014964 4.1763639
1.0244445 0.96429795 4.1756644
1.0710701 0.97288465 4.1741157
-0.23312847 1.0147206 4.1974478
-0.16797374 1.0288616 4.1849656
-0.12690514 1.026111 4.1748333
-0.096211277 1.0137771 4.1680865
0.97735697 1.0240226 4.1787868
1.0245847 1.040325 4.1943207
1.0569792 1.0107205 4.1545501
-0.15818147 1.0722945 4.1888638
-0.12701546 1.0881975 4.1687622
-0.15840773 1.1453888 4.1821342
-0.13091756 1.1160175 4.1799221
-0.30425233 1.238156 4.1982608
-0.2007007 1.2357711 4.1943631
-0.30331233 1.254903 4.1811476
-0.2213814 1.2568638 4.1911783
-0.12984613 1.4346116 4.1956153
-0.11966299 1.4579836 4.1983666
1.8348997 1.5526528 4.1959772
1.8849375 1.5573828 4.1941118
2.0744805 1.566218 4.1541238
2.1191328 1.5744996 4.163188
2.156508 1.5854592 4.1833229
2.4453747 1.5888271 4.1515393
2.416842 1.6235772 4.1959238
2.4807382 1.6159289 4.1829739
2.5243168 1.621552 4.180964
2.574127 1.632362 4.1787739
2.621917 1.6300268 4.1758657
2.6831808 1.6285076 4.1685543
2.7229321 1.6311555 4.1568069
2.7577386 1.6378134 4.1611233
2.4819467 1.6593263 4.1993241
2.5322671 1.6746749 4.1973252
2.5780299 1.6790409 4.1893048
2.6251619 1.6762744 4.1850238
2.6773791 1.6676486 4.1727123
2.7269995 1.6778923 4.1665063
2.7797835 1.679584 4.1583757
2.5497739 1.7203373 4.1970448
2.5651197 1.7345517 4.1932859
2.6251123 1.7207413 4.1886678
2.6771703 1.7224057 4.1814504
2.7275867 1.7228245 4.1706004
2.7687118 1.7366714 4.1650834
2.8142433 1.7322623 4.1544623
2.5763006 1.7670482 4.1939607
2.6260467 1.7674234 4.1838713
2.6836901 1.7742132 4.1755152
2.7270832 1.7792678 4.1685801
2.7674708 1.7822397 4.156179
2.8245392 1.7641344 4.1518865
2.54001 1.8244872 4.19944
2.5804124 1.8161031 4.194087
2.6290467 1.8157333 4.1819444
2.6687071 1.8291464 4.175375
2.7179024 1.8288763 4.1622376
2.7725067 1.8320564 4.1562743
2.8193984 1.8165531 4.1516533
2.4872608 1.867801 4.1963124
2.5451624 1.8519309 4.1996298
2.5793874 1.8833522 4.1965861
2.6183953 1.8737992 4.1882133
2.6762004 1.8809288 4.1795206
2.7264383 1.8813367 4.1675477
2.7857723 1.8662641 4.1577034
2.8238418 1.876945 4.1553197
2.8982911 1.8725752 4.1552649
2.5689163 1.9201847 4.1916733
2.6274819 1.928215 4.185111
2.6786137 1.9294556 4.1752582
2.7264519 1.9270195 4.1691399
2.7725449 1.9219286 4.1691179
2.8311834 1.929001 4.1574607
2.5355203 1.957764 4.1998239
2.5822196 1.9780815 4.1953182
2.625566 1.9837074 4.1890602
2.6612079 1.9823952 4.1797519
2.7205911 1.9676194 4.1711168
2.7875631 1.9821224 4.1630702
2.8273733 1.971175 4.1624417
2.8757463 1.9793824 4.1588283
2.5769489 2.0313303 4.1936369
2.62063 2.0252175 4.1923976
2.6780245 2.0211451 4.1766515
2.7241611 2.0275331 4.1826124
2.7681677 2.0331407 4.1743016
2.8320351 2.0208333 4.1695867
2.8810892 2.0185726 4.1617126
2.9048572 2.0401468 4.1562066
2.643995 2.0702748 4.1897073
2.6722567 2.073452 4.1834583
2.7171745 2.0800192 4.1772814
2.7752192 2.0749221 4.1699886
2.8208923 2.069433 4.1680818
2.867758 2.0768015 4.1618562
2.9154782 2.0969484 4.1507363
2.5774295 2.1371095 4.1910172
2.6261771 2.1238499 4.1924572
2.6708784 2.1304905 4.1865015
2.7201722 2.1301513 4.171669
2.7799556 2.1141918 4.1718516
2.8233025 2.13047 4.1659303
2.8759723 2.1320491 4.1528029
2.9228518 2.1269858 4.1506157
2.9789782 2.1406865 4.1548414
2.5419466 2.150512 4.1950631
2.6255534 2.1745234 4.1896625
2.669677 2.177479 4.174119
2.7352276 2.1673217 4.1740608
2.7793686 2.1836429 4.1799607
2.8278341 2.1812437 4.1715732
2.9717975 2.1694312 4.1588821
-0.32080111 2.2411361 4.1546373
-0.28891605 2.2470107 4.1672745
-0.21357517 2.2355354 4.1986108
-0.18061936 2.2344389 4.1976671
2.6319046 2.2238855 4.1907911
2.6867285 2.2166352 4.1797514
2.7274904 2.2307158 4.1812387
2.7714853 2.2356806 4.1820164
2.8154912 2.2288728 4.1771302
2.8658683 2.2245548 4.1620774
2.9820688 2.2269793 4.1507316
-0.25649336 2.2603958 4.1691418
-0.22373149 2.2602649 4.1702623
-0.18000768 2.2596321 4.1706347
-0.13659106 2.2745271 4.1747923
2.4813519 2.2821996 4.1982884
2.5233717 2.2751532 4.1951227
2.5809855 2.2953293 4.1797762
2.6187117 2.2708247 4.1946874
2.671031 2.2730827 4.1845722
2.7315755 2.2826767 4.1755943
2.7695563 2.2711654 4.1623287
2.8228989 2.2720017 4.1711869
2.8767102 2.2744808 4.1588702
2.9014375 2.2975388 4.1530266
2.5331597 2.320622 4.1949072
2.581284 2.331039 4.1951652
2.6276903 2.3277838 4.1866183
2.6769922 2.3268702 4.1818042
2.7140391 2.3381393 4.1771207
2.7805793 2.3284299 4.1766734
2.827018 2.3243084 4.1644845
2.8766115 2.3225994 4.1561351
-0.10479483 2.3957632 4.1747274
-0.082655892 2.39396 4.171926
0.038834363 2.3930745 4.1948118
0.071600407 2.3996706 4.1580977
0.2386094 2.3970721 4.1969404
0.27178684 2.3961072 4.1937637
0.33873239 2.3989606 4.1951628
0.58401978 2.3919737 4.1871324
0.6263144 2.3947325 4.1629481
2.3264933 2.393991 4.1943803
2.367497 2.3988223 4.1861143
2.4263868 2.3848829 4.1927729
2.4836564 2.3932309 4.1837797
2.5256026 2.3860893 4.1802011
2.569433 2.3682122 4.1848459
2.6290252 2.3777828 4.1761703
2.6748333 2.385736 4.1703844
2.7250068 2.3729854 4.171627
2.7739251 2.3712413 4.1640315
2.8213799 2.3680508 4.1533761
-0.016492095 2.4071224 4.1714401
0.027597887 2.4013565 4.1613774
0.093799062 2.4044983 4.1661386
0.11592779 2.4060369 4.1683941
0.17114387 2.4070401 4.1687126
0.26981598 2.4007695 4.1539645
0.33611408 2.4024692 4.1533203
0.3587859 2.4067369 4.1593251
0.41407609 2.4073427 4.1565394
0.48248109 2.4070594 4.174696
0.52801049 2.4013009 4.1847129
0.56148028 2.4018636 4.1824665
0.68492019 2.4058928 4.1758156
0.77574611 2.4113088 4.1734929
0.81222719 2.4202929 4.1842523
0.86551046 2.4127231 4.162694
0.92351663 2.418499 4.163538
0.98444343 2.4193401 4.1796494
1.0164242 2.4264426 4.1613736
1.0729374 2.4206924 4.173954
1.123528 2.4168377 4.1737561
1.1733036 2.4264641 4.1808681
1.2208927 2.4310164 4.1787558
1.2715278 2.440959 4.1853981
1.3287956 2.4415438 4.1727157
1.3755208 2.4434721 4.1645856
1.4830433 2.4474051 4.1966348
1.5301633 2.4489548 4.1863523
1.6343355 2.4435074 4.1999798
1.6572734 2.4430373 4.192008
1.7296691 2.4467719 4.1761179
1.770862 2.4422283 4.17239
1.8182514 2.4329658 4.1757565
1.8647195 2.4219868 4.1759324
1.9215076 2.4218035 4.1742887
1.9689994 2.4224515 4.1578264
2.0321088 2.4180951 4.1838307
2.0838103 2.4231415 4.1737022
2.1233189 2.4156947 4.1723952
2.1721129 2.4184105 4.1884222
2.2234149 2.4101543 4.1800728
2.2769301 2.4160886 4.1691976
2.3310897 2.4104424 4.1640563
2.3729579 2.4163013 4.1573153
2.4193239 2.4022181 4.1691127
2.4774842 2.4116488 4.1617365
2.5797019 2.4031937 4.1578202
2.6089876 2.4076214 4.1526213
2.7083178 2.4059103 4.1644988
1.4145253 2.4517412 4.1697416
1.4653692 2.4601867 4.1717525
1.5207968 2.4604831 4.1701903
1.5695386 2.4563782 4.1889734
1.6752257 0.42573389 4.2283831
1.7223607 0.44821486 4.2262106
1.7739453 0.447781 4.2065053
1.821076 0.44891042 4.2042122
1.9328156 0.43106222 4.2095175
1.9854847 0.42519912 4.2073703
2.0452397 0.43439671 4.2088695
2.0672004 0.43446028 4.2017961
1.7343826 0.47898915 4.2436075
1.7784754 0.47935084 4.2340908
1.8213273 0.48122597 4.2400041
1.8818918 0.46770015 4.2306557
1.9197341 0.4762561 4.2318358
1.9759439 0.47678587 4.2186379
2.0332835 0.47754502 4.2068882
2.0680892 0.46721739 4.2010574
1.782474 0.5388152 4.2483654
1.9408884 0.52229893 4.2472863
1.9803338 0.53041154 4.2416034
2.0251336 0.53145236 4.2223215
2.0725887 0.52263707 4.2055044
2.1137581 0.52859521 4.2052836
1.6436641 0.59602892 4.2234588
1.6878139 0.57895613 4.2475681
1.7384344 0.57320029 4.2453947
1.7820387 0.58175462 4.2432938
1.814992 0.59395903 4.2149835
1.9448813 0.58872962 4.2499442
1.9827763 0.58193374 4.2420564
2.0215433 0.5779655 4.2263675
2.0648963 0.57792592 4.2107067
2.1008286 0.57883704 4.2055674
-0.30231476 0.984218 4.2151947
-0.28127229 0.97211325 4.2096252
0.97961181 0.95381469 4.2001052
1.0500381 0.96136445 4.2230625
-0.30317676 1.0281432 4.2206316
-0.27162349 1.0254523 4.2108121
-0.23066917 1.0462446 4.2103786
-0.19966242 1.0347394 4.2080135
-0.30358362 1.0810132 4.2176876
-0.27251953 1.080259 4.2161508
-0.22490749 1.0809162 4.2122202
-0.18609017 1.0727781 4.2040105
-0.30415952 1.1243179 4.2184467
-0.272948 1.1231701 4.2155638
-0.22097218 1.1208388 4.2088146
-0.16934913 1.1194061 4.2050562
-0.3039389 1.1750299 4.205904
-0.27333099 1.1763958 4.2121205
-0.22184917 1.1742579 4.2162442
-0.17996334 1.162761 4.2054987
-0.30426338 1.2175642 4.2024918
-0.27397501 1.2308964 4.2121735
-0.22583562 1.2245497 4.2173524
-0.27501935 1.2770782 4.2197351
-0.24334016 1.2742727 4.211792
-0.27507311 1.3188442 4.2118216
-0.3089408 1.3724736 4.2387466
-0.27871433 1.3743211 4.22504
-0.22900656 1.3693928 4.2153149
-0.18221986 1.3961244 4.2132053
-0.30865765 1.4235239 4.2230492
-0.27553168 1.4296603 4.2292719
-0.22501424 1.4239659 4.2278118
-0.17571366 1.4343094 4.2156472
-0.31063995 1.4959141 4.2352419
-0.27820453 1.480948 4.2265787
-0.22531141 1.4782852 4.221127
-0.17246675 1.474732 4.2126584
-0.13409989 1.4780401 4.2122846
-0.09954951 1.4789799 4.2264509
-0.31085646 1.5285897 4.2304125
-0.27920493 1.5284327 4.2315044
-0.22634713 1.5272068 4.2302232
-0.17314056 1.522439 4.2187529
-0.1250225 1.5270599 4.2263517
-0.099799864 1.5142311 4.229423
1.3804067 1.5498645 4.2416539
1.5704913 1.5433153 4.2456899
1.6165127 1.5451835 4.2387915
1.6762137 1.5493922 4.2346492
1.7171037 1.5463785 4.2134199
1.7639196 1.548712 4.2063303
-0.31165034 1.5747703 4.230526
-0.27953279 1.5724665 4.2258506
-0.22704501 1.5741773 4.2326226
-0.17383537 1.5707564 4.2251186
-0.12540796 1.5735953 4.2277575
-0.099888988 1.5576761 4.222662
1.4046979 1.5525982 4.2439895
1.4964933 1.5571482 4.2348204
1.5357286 1.5636134 4.2438469
1.5809898 1.5648513 4.2354569
1.6295929 1.5692178 4.235076
1.6814058 1.5763884 4.2417593
1.7701377 1.5863216 4.2451468
1.8005575 1.5517148 4.2041073
1.8737197 1.5985056 4.2491641
2.1930337 1.5955734 4.2009726
-0.31247708 1.610732 4.2334905
-0.28053683 1.6204304 4.2298269
-0.2273391 1.6186075 4.227282
-0.17218831 1.6235813 4.2238493
-0.1243842 1.6207483 4.222785
2.137116 1.6278034 4.2456989
2.1769609 1.6319141 4.2430449
2.225544 1.6234642 4.2233162
2.2717414 1.6225379 4.214757
2.3274598 1.62936 4.2129765
2.3778265 1.631044 4.2100568
2.4554076 1.633827 4.2118168
-0.31432894 1.6735924 4.2442408
-0.28177068 1.6700712 4.236866
-0.22806504 1.6708243 4.2282171
-0.17458777 1.6727935 4.2179756
-0.11910239 1.6771955 4.2230177
2.1419282 1.6544465 4.248498
2.1816788 1.6584795 4.2453995
2.2220111 1.6744113 4.2393074
2.2750502 1.6795163 4.2332463
2.3711452 1.6786025 4.2292118
2.4214711 1.6695461 4.2186575
2.4700544 1.677392 4.207829
2.5182881 1.69143 4.2026682
-0.31521744 1.7210822 4.2443285
-0.27625006 1.7200743 4.2378492
-0.22174831 1.7252649 4.2293816
-0.17760625 1.7282178 4.2264466
-0.12201079 1.7307205 4.2165675
2.2732246 1.7332524 4.2417793
2.3217449 1.7201815 4.2362862
2.3761342 1.7171773 4.227087
2.4298563 1.7221934 4.2184954
2.4806533 1.7237759 4.213459
2.5203855 1.7374171 4.2102609
-0.31593007 1.7999595 4.2321334
-0.27558744 1.774752 4.2385359
-0.21977712 1.7805519 4.2475615
-0.17623049 1.7847044 4.2301898
-0.12272828 1.7839813 4.2297873
2.2813907 1.7861768 4.2419806
2.3280811 1.7745337 4.2260523
2.3763149 1.7630392 4.2222466
2.4190063 1.7793036 4.2258625
2.4662824 1.7784388 4.2146721
2.5223062 1.7847921 4.2074652
-0.31677502 1.8262596 4.2369862
-0.27364212 1.8251034 4.2363229
-0.21986021 1.8241315 4.2363
-0.17665729 1.8319293 4.2276835
-0.12303766 1.831368 4.2277112
2.2403123 1.8381389 4.2461042
2.2820704 1.8326397 4.2378478
2.3399293 1.8196383 4.2258153
2.3775706 1.8206775 4.2248726
2.4203489 1.8263869 4.2222662
2.4736018 1.830965 4.2111011
2.5148787 1.8352622 4.204236
-0.27201164 1.8780129 4.2388391
-0.2204406 1.8827659 4.2309628
-0.17733353 1.8820033 4.2306824
-0.12356939 1.8821491 4.232327
2.1740468 1.8891648 4.2448583
2.2164311 1.8838263 4.2489734
2.2630305 1.8830379 4.2397313
2.3198264 1.8683922 4.2360415
2.3767304 1.8762472 4.2332454
2.428256 1.8796501 4.2196202
2.4749877 1.8862103 4.2039218
2.5204885 1.8749548 4.2010546
2.5635564 1.8685597 4.2002831
-0.27565923 1.935867 4.237
-0.22100718 1.9307514 4.2280645
-0.17762455 1.9281065 4.2237272
-0.12393188 1.9310964 4.2316289
2.1844068 1.9450386 4.2486181
2.2246161 1.9377544 4.248251
2.2899506 1.9198813 4.2445288
2.3291411 1.9230914 4.2364101
2.3795984 1.925024 4.2317233
2.4246078 1.9334368 4.2222338
2.4804986 1.9281852 4.2190723
2.5207059 1.9207053 4.2040329
-0.27091622 1.9785547 4.2351828
-0.22173142 1.9803497 4.2276449
-0.17814425 1.9770091 4.2219667
-0.12430079 1.980083 4.2299018
2.2450094 1.9806345 4.2470789
2.2861047 1.9738196 4.2472301
2.3174028 1.9809715 4.240828
2.367718 1.9828417 4.2356749
2.4193671 1.9863167 4.2216282
2.4692101 1.9643694 4.2124238
2.520493 1.9743619 4.2029042
-0.27991915 2.0255656 4.2343469
-0.22243737 2.0301206 4.2265062
-0.1788957 2.0287271 4.2250776
-0.12469393 2.0293846 4.2278218
2.1837113 2.0373402 4.2446079
2.2689941 2.0273504 4.2413077
2.3204889 2.030535 4.2390771
2.3695116 2.0313196 4.2312889
2.4250727 2.026757 4.2179766
2.4773855 2.0186539 4.2081861
2.5309954 2.0225704 4.2051048
2.5534682 2.0437589 4.2017288
-0.27777532 2.0815709 4.2253132
-0.22298373 2.0786495 4.2217131
-0.17952125 2.079392 4.2247047
-0.12960057 2.079922 4.2323065
2.2303712 2.0714693 4.242763
2.2736115 2.0785558 4.2422972
2.3233447 2.0801709 4.2364235
2.3846166 2.069294 4.2281585
2.4313908 2.0679145 4.2149501
2.48312 2.0705786 4.2094054
2.5248079 2.0866125 4.2070222
2.5773411 2.0773458 4.2054319
2.6198673 2.0703163 4.2022381
-0.30121872 2.1259074 4.2357812
-0.26425979 2.1297476 4.2279553
-0.22411208 2.1329453 4.227416
-0.18023288 2.1312728 4.2256255
-0.12240129 2.1256888 4.2270346
2.2420058 2.129873 4.2462273
2.2809854 2.1210251 4.241971
2.3350096 2.1149569 4.237709
2.3746512 2.1183593 4.2285037
2.4212158 2.1282461 4.2203593
2.4728985 2.1309309 4.2145123
2.5255499 2.1226997 4.2038088
2.5831113 2.1062191 4.2050381
-0.30206814 2.1758726 4.2315211
-0.27113706 2.1788785 4.2287011
-0.22454239 2.1808093 4.2192178
-0.18048288 2.1780236 4.2153502
-0.12589288 2.1807711 4.2220826
2.2274969 2.1985018 4.2497678
2.2686472 2.1759155 4.2452617
2.315794 2.167098 4.2373419
2.3688724 2.1719 4.2253652
2.4276111 2.1816082 4.222106
2.4819446 2.174957 4.2148905
2.5197968 2.1643071 4.205174
2.5686078 2.187098 4.2026391
2.6177206 2.1977794 4.2045898
-0.30190125 2.2295718 4.2083549
-0.26915443 2.2311764 4.2130084
-0.22837257 2.2227166 4.2070699
-0.18066335 2.2130702 4.207139
-0.12619795 2.2299645 4.2155752
2.1794484 2.2459924 4.2490096
2.2121394 2.2309325 4.2441902
2.2733843 2.2203872 4.2375598
2.3249805 2.2237813 4.2341018
2.3798192 2.2301822 4.2245884
2.4349735 2.2244878 4.2195663
2.4819224 2.2107546 4.2099319
2.5254304 2.2287784 4.2094951
2.5836523 2.2289934 4.2044168
-0.11538392 2.2659245 4.2085848
0.68602496 2.2759223 4.2380266
0.72152495 2.28234 4.2458816
2.1317294 2.2938139 4.2480307
2.1716118 2.2861669 4.2466273
2.2247391 2.2675369 4.2361412
2.2787464 2.2736602 4.2379174
2.3324327 2.2791512 4.226934
2.3755989 2.2859211 4.2231069
2.4205997 2.2702014 4.2215457
2.4608278 2.2620122 4.20579
2.5276089 2.2789564 4.2022371
2.5730562 2.2624454 4.2094469
2.1234908 2.3337402 4.244554
2.1751833 2.3258741 4.2378955
2.2265944 2.3175454 4.2297878
2.2804649 2.3236125 4.2309856
2.3247585 2.3317928 4.2189102
2.3657317 2.3364844 4.2109642
2.4247575 2.322464 4.217865
2.4779532 2.326575 4.2132344
-0.10572173 2.3835979 4.2257581
-0.068635426 2.3914797 4.2240658
-0.031480361 2.3916945 4.2247624
0.0056547481 2.3911569 4.2401423
0.21796897 2.3919368 4.2373896
0.27370611 2.3899364 4.2314148
0.33048975 2.3975101 4.24191
0.49698287 2.3902113 4.2168603
0.53138959 2.3942437 4.2209239
0.56438118 2.3919098 4.213583
0.61970598 2.3897905 4.2039905
0.66629398 2.3967638 4.211153
2.0367603 2.3900247 4.2444882
2.0754259 2.38133 4.2417369
2.1255291 2.3838801 4.2272258
2.179214 2.3782337 4.2242417
2.2343831 2.3738596 4.2229605
2.2767239 2.3803587 4.2188654
2.312752 2.3802834 4.2133875
2.3773024 2.3722713 4.2095361
2.4287992 2.3628912 4.2082844
2.4724638 2.3697736 4.2029715
2.5152645 2.3511319 4.2066884
-0.016599121 2.4006133 4.2081428
0.0056247376 2.4009988 4.2088418
0.08353357 2.4039059 4.2133207
0.12860771 2.4148242 4.2316284
0.17289212 2.4090159 4.220274
0.20578092 2.4023776 4.2075467
0.29512033 2.4055018 4.2090931
0.31719261 2.4040196 4.2052989
0.3731609 2.4060917 4.2055202
0.4232243 2.408926 4.2233338
0.46579906 2.4021606 4.2407746
0.72519249 2.4063909 4.2211156
0.78158087 2.4069934 4.214674
0.82889962 2.413765 4.2200665
0.87468785 2.4156756 4.2165537
0.92043543 2.4173439 4.2122211
0.96827984 2.4126227 4.2209902
1.0359099 2.4232836 4.2026596
1.0775405 2.4178421 4.2362328
1.1249241 2.4216523 4.2338567
1.1855189 2.4288139 4.2345047
1.2352865 2.4366755 4.2381883
1.2813213 2.4368112 4.2279577
1.3269856 2.4363163 4.2161994
1.3931944 2.4401393 4.2336793
1.4254878 2.4476342 4.2125058
1.471876 2.4389389 4.21978
1.5220451 2.4499438 4.2450752
1.5765932 2.4441237 4.2183857
1.6130205 2.4464536 4.2120891
1.7210354 2.444315 4.2304072
1.7774652 2.4307897 4.2234383
1.8294543 2.4217207 4.2262368
1.8626506 2.4133782 4.2367783
1.9271584 2.414217 4.230289
1.9778261 2.4122577 4.2224722
2.0184455 2.4063263 4.2248707
2.0710056 2.4121044 4.2164626
2.1914537 2.4025488 4.2087178
1.3692845 2.4503131 4.2319093
1.5470521 2.4526193 4.2431445
1.6922506 2.4600821 4.213913
1.7131506 2.4564772 4.2002764
1.6307607 0.43869099 4.264637
1.6677854 0.44394016 4.2531204
1.6302974 0.48133129 4.2602043
1.6763705 0.48229608 4.2570615
1.7219565 0.49380469 4.251133
1.7716541 0.49571654 4.255127
1.8427478 0.49748626 4.2508101
1.8818034 0.49925631 4.2557902
1.6203105 0.52431679 4.2613277
1.6662072 0.52530742 4.2578559
1.7247313 0.52683461 4.255177
1.7827425 0.51735127 4.2508936
1.832862 0.52760941 4.2632179
1.8762851 0.53330797 4.2684588
1.9212883 0.53374928 4.2580986
1.969591 0.54596102 4.2532845
1.6195649 0.56682783 4.2555351
1.661912 0.56435114 4.253459
1.7123659 0.5585463 4.2513514
1.7721251 0.5604884 4.2505908
1.8314435 0.56925684 4.2608051
1.8763316 0.57682431 4.2645655
1.9191821 0.57576782 4.2605872
1.969409 0.56773371 4.2508397
1.2112378 0.63486236 4.2924476
1.2101353 0.67658824 4.2841125
1.2039804 0.73621446 4.2552352
1.215795 0.77531224 4.2931356
1.217775 0.80846709 4.2961206
1.0811659 0.97055453 4.2598143
1.1078943 0.97551954 4.2778902
1.2495937 1.5499885 4.2708588
1.2923425 1.5489179 4.2586608
1.3143324 1.5491349 4.2544966
1.2219877 1.5565202 4.2955775
1.2782323 1.5582999 4.2891545
1.3388376 1.5522617 4.2582207
1.3646173 1.5567423 4.2655411
1.4323592 1.5589163 4.2559972
1.4676492 1.5614467 4.254807
1.7219958 1.5831136 4.2500453
1.7742403 1.5899799 4.2548742
1.8252095 1.5954305 4.255486
1.8519466 1.5991298 4.2581458
1.8932045 1.6378769 4.2869349
1.9305373 1.6196933 4.2570486
1.9730802 1.626767 4.2638741
2.0272551 1.6223607 4.2695308
2.0735524 1.6334916 4.2612944
2.1138532 1.6275263 4.2536874
0.23136559 1.6784618 4.2906952
0.26358038 1.6780691 4.2884102
2.0479608 1.6527152 4.2782731
2.0814586 1.6738455 4.2726412
2.1216187 1.6680303 4.2591419
2.1629796 1.6848817 4.2559891
2.3396242 1.6810532 4.250546
0.22645134 1.7250435 4.2877865
0.27868202 1.71136 4.2913933
2.035017 1.7185355 4.2905235
2.0770411 1.7167037 4.277215
2.125351 1.7271423 4.2698121
2.171864 1.7265726 4.2627683
2.2243724 1.7314038 4.2562299
0.2220571 1.7869282 4.2917447
0.26515096 1.7638501 4.2928391
2.0432496 1.7718242 4.2935958
2.0792656 1.7729293 4.2835598
2.1294382 1.7761539 4.2738953
2.1803257 1.7798203 4.2646713
2.2317719 1.7837954 4.2555532
0.2081179 1.8310976 4.2910008
0.26582685 1.800885 4.2943683
1.8129177 1.8077267 4.2937403
2.0468755 1.8097601 4.2901855
2.0773239 1.8260086 4.2808347
2.1338625 1.8263772 4.2677026
2.184974 1.8302507 4.2585268
2.2222409 1.8205012 4.2528906
1.8510761 1.8920112 4.2997174
2.0308161 1.8743459 4.2946424
2.07304 1.8723526 4.2807808
2.1277363 1.8777876 4.2676744
2.1625977 1.8776804 4.2538567
2.2194884 1.8864419 4.2549367
1.9321035 1.9153183 4.2991443
1.9651407 1.9134822 4.2943473
2.0222557 1.9238425 4.2895808
2.0693617 1.9243016 4.2734814
2.1230919 1.9307866 4.2701283
2.1702585 1.9194338 4.2567492
2.2092009 1.9228072 4.2501502
2.2697644 1.934497 4.2565508
1.941226 1.9826688 4.2992988
1.9775096 1.9723178 4.2939911
2.0279446 1.9760383 4.2853031
2.0748935 1.9762185 4.2683816
2.1289988 1.9830964 4.2652988
2.1751709 1.976038 4.2634783
2.2345433 1.9700038 4.2587285
2.2738879 1.9616475 4.2557874
1.9452152 2.0218215 4.2955952
1.9837062 2.025341 4.2907004
2.0326042 2.0274239 4.2893214
2.0783062 2.0355644 4.2746096
2.1287367 2.0296106 4.2583599
2.1832507 2.0133471 4.2525082
2.2284856 2.0224087 4.2571445
2.2524331 2.0108426 4.2523794
1.9170924 2.0757196 4.2945461
1.9653635 2.0775118 4.2927809
2.0165172 2.081908 4.2849479
2.0714223 2.0803981 4.267447
2.1151657 2.0864825 4.258842
2.1623156 2.0706177 4.2570758
2.2055826 2.0703926 4.2503328
1.8796483 2.1086745 4.2996817
1.9182429 2.1124992 4.2954807
1.9719194 2.1315675 4.2892208
2.0210378 2.1337204 4.276495
2.0749569 2.1288915 4.2774496
2.1270416 2.1219394 4.2625885
2.1769667 2.1243858 4.2596612
2.2175789 2.1292486 4.2548766
1.9427291 2.1855538 4.2968946
1.9748874 2.1823709 4.2887435
2.0255241 2.1739025 4.2720499
2.0783775 2.1679759 4.270525
2.1323278 2.1747046 4.2653136
2.1866496 2.181524 4.2595844
2.225065 2.1722269 4.254899
2.2526166 2.1758063 4.2518859
1.8986088 2.2482977 4.2966514
1.9299599 2.232311 4.2916737
1.9887737 2.2206001 4.2862129
2.0308335 2.2155094 4.2803097
2.0752411 2.2247028 4.2738104
2.1186161 2.2326233 4.264338
2.1609943 2.2274492 4.2571158
0.62272239 2.2891741 4.2703257
0.66457713 2.2766559 4.2762694
0.7266674 2.2760642 4.2850146
1.837292 2.2810888 4.296958
1.8636549 2.2844348 4.2953362
1.9249533 2.2672536 4.2879062
1.9696273 2.2732592 4.2851758
2.0160964 2.2726223 4.2771292
2.0664501 2.2756944 4.2649269
2.1140728 2.2759988 4.2576275
2.1581819 2.2726328 4.2537374
0.75157571 2.305907 4.2868433
1.8307636 2.3351121 4.2934766
1.8666881 2.3237293 4.2873926
1.9173486 2.3158362 4.2833357
1.969177 2.3209567 4.2757993
2.0210369 2.325917 4.2673302
2.0712109 2.3287249 4.25424
-0.10627078 2.3735943 4.2569919
-0.073266611 2.3929882 4.2922907
0.00571723 2.3946869 4.2958102
0.065628104 2.3971732 4.2669182
0.11848716 2.3914118 4.2887383
0.23163672 2.395262 4.292254
0.2994054 2.3952129 4.2890754
0.3210012 2.387809 4.2746148
0.41296029 2.3986986 4.2883844
0.57984281 2.387202 4.2532806
0.6271081 2.3957596 4.2637711
0.67418051 2.3910608 4.2752237
0.70872676 2.3929648 4.2745552
0.77532828 2.3999321 4.2531548
1.7730026 2.3963723 4.2909522
1.8207589 2.384932 4.2813044
1.8718107 2.3794065 4.2703519
1.9183899 2.3746793 4.2681603
1.9725779 2.3726637 4.2624679
2.020247 2.3733828 4.2563825
0.028103538 2.4002485 4.2561998
0.095490634 2.4028986 4.26018
0.1294671 2.4083343 4.2691512
0.17462444 2.4106014 4.2719884
0.27500761 2.4020405 4.2528939
0.37796742 2.414712 4.2695684
0.42347991 2.4051952 4.2743816
0.47089386 2.4057121 4.2965946
0.52847934 2.4096472 4.2987437
0.73082727 2.4024541 4.263608
0.75867736 2.4190087 4.2900229
0.838552 2.4191034 4.2790489
0.8878727 2.4111331 4.2741885
0.932073 2.4248686 4.2750273
0.97638798 2.4156256 4.285152
1.0203899 2.418896 4.2661872
1.0709605 2.4220638 4.280067
1.1208017 2.4146328 4.2740517
1.1695919 2.4203575 4.2748108
1.2271864 2.4203949 4.2625566
1.2742513 2.422224 4.2554736
1.3254697 2.4315681 4.2610331
1.4269416 2.4468198 4.2646656
1.4558454 2.4445534 4.2802448
1.5309565 2.4408119 4.2803736
1.5711117 2.4345596 4.2756352
1.6212744 2.4394472 4.2705278
1.6684031 2.4413884 4.2695818
1.7251701 2.4297602 4.2765894
1.7636532 2.420583 4.2651939
1.8029716 2.4126115 4.25559
1.3828053 2.4511569 4.2840424
1.1146455 0.33222485 4.3416395
1.1732701 0.329281 4.3396039
1.2138857 0.33940211 4.3246436
1.1227503 0.36790285 4.3424983
1.1716846 0.37126949 4.3314352
1.2229331 0.37074506 4.3153763
1.1223586 0.42910632 4.3429203
1.1728463 0.42469788 4.3323679
1.2271357 0.42163152 4.3350534
1.0780209 0.46288115 4.3046899
1.1199585 0.47784203 4.3387938
1.1736015 0.47808185 4.3314519
1.2291619 0.47902367 4.3301921
1.1260052 0.51791692 4.344831
1.1760818 0.52166814 4.3372974
1.2283194 0.52126563 4.3239269
1.1351033 0.57568389 4.3464379
1.1768062 0.57524598 4.3354111
1.2262716 0.57018006 4.3203497
1.1351056 0.61831272 4.3425074
1.1739517 0.62711418 4.3365884
1.2073632 0.62783539 4.3196373
1.1738269 0.66988248 4.3429418
1.2035322 0.67413759 4.3416815
1.1846771 0.72917998 4.3491135
1.2073175 0.72669011 4.3292713
1.1848754 0.76147783 4.3460789
1.2065635 0.78308922 4.3403597
1.2108856 0.83970755 4.3490586
1.2105025 0.88248527 4.3418517
1.2126763 0.92720127 4.3434701
0.96250492 0.95729643 4.3189397
1.1364549 0.98188126 4.3019695
1.1819704 0.98298997 4.3328686
1.211724 0.98032618 4.331954
0.040477242 1.0260102 4.3391361
1.2086203 1.0207821 4.3140221
1.1982621 1.106269 4.3457594
1.2001088 1.1296982 4.3486032
1.2304854 1.5894413 4.3197889
1.2791939 1.595117 4.3260655
1.3260188 1.598175 4.3248281
1.3678844 1.5952339 4.3069787
1.4266455 1.6228138 4.3377924
1.4670115 1.6183699 4.3270493
1.521432 1.6284822 4.3309078
1.5753803 1.6302203 4.3339124
1.6171098 1.6344284 4.3350902
1.6731837 1.6338995 4.3422136
1.7199863 1.6352723 4.3328576
1.7665956 1.6363966 4.3223839
1.8178487 1.6416676 4.3223619
1.8659651 1.6439062 4.3138256
0.23185684 1.6605176 4.3057594
0.28802407 1.662714 4.3403072
0.3205319 1.6839589 4.3315697
1.4941504 1.680594 4.3456125
1.5286466 1.6813314 4.3389721
1.5765229 1.6842818 4.3348036
1.6277777 1.6792113 4.3419638
1.6881404 1.671541 4.3388157
1.7240264 1.6732681 4.3334379
1.7760158 1.6794223 4.3357401
1.8196191 1.677205 4.3281503
1.8750391 1.6748497 4.3282757
1.9230337 1.6767282 4.3180962
1.9731351 1.6802742 4.3116589
2.0269985 1.6759812 4.3051534
0.20024168 1.7097602 4.310596
0.32451019 1.7328736 4.3230863
1.5315282 1.7297552 4.3342695
1.5831057 1.7253819 4.3432064
1.628232 1.7137561 4.3334908
1.6773858 1.7176239 4.3305416
1.7281965 1.7229552 4.3307452
1.7836136 1.732482 4.3409529
1.833514 1.7272457 4.3322024
1.8821409 1.7157472 4.3345933
1.9302615 1.717618 4.3241234
1.9810231 1.721693 4.3186932
2.0156851 1.7217106 4.306675
0.3207559 1.7611721 4.3133564
1.5173135 1.7961764 4.3472834
1.5750616 1.7517498 4.3486905
1.6233234 1.7661872 4.3404884
1.6768986 1.7721269 4.3347211
1.73241 1.7729065 4.327621
1.7838334 1.7785919 4.3276954
1.8356671 1.7843889 4.3274469
1.8787506 1.7694578 4.3432884
1.9205517 1.7673336 4.3307714
1.9677415 1.7771562 4.3231549
2.0126028 1.775408 4.3147249
0.24487287 1.8281094 4.3018546
0.28147027 1.8230139 4.3075142
0.32345805 1.8418373 4.3306103
1.6205341 1.8133157 4.3427072
1.6724077 1.8182732 4.3367815
1.728987 1.8245939 4.3234568
1.7843031 1.8249803 4.3145599
1.8351098 1.8298799 4.3117185
1.8687583 1.8289332 4.3155732
1.9148232 1.8170401 4.3206544
1.9654605 1.8210948 4.3145456
2.0174289 1.82619 4.3103023
0.23172958 1.8681155 4.3190002
0.27920955 1.8611753 4.3201485
0.31331986 1.8687831 4.3362341
1.5857248 1.8781403 4.3429823
1.6216216 1.868489 4.3414011
1.6711892 1.8726952 4.3382092
1.7195561 1.875349 4.3309813
1.7718748 1.8724635 4.3143921
1.8257432 1.8781273 4.3055282
1.8815656 1.8879287 4.313014
1.9171872 1.8656412 4.3110585
1.9694617 1.8712921 4.3082342
2.0087748 1.875478 4.3056145
1.6840072 1.9328007 4.3440814
1.7275306 1.9302802 4.3358946
1.7743102 1.9309156 4.3232923
1.8203936 1.9309912 4.3201189
1.8720104 1.9247551 4.3098459
1.9086699 1.9150753 4.3064861
1.9894315 1.9375643 4.3027
1.6470699 1.9769979 4.3449388
1.6818553 1.9771442 4.3352904
1.7308613 1.9803262 4.3285618
1.7759185 1.9793855 4.3233109
1.8335952 1.9677925 4.3200765
1.8776108 1.9654083 4.3107495
1.9259795 1.9674258 4.3107238
1.6107864 2.0221891 4.3471508
1.6683738 2.024359 4.3317575
1.724849 2.0332136 4.3298278
1.7785877 2.0292885 4.3231096
1.8337119 2.0147805 4.3157578
1.8842019 2.0189939 4.3094683
1.922637 2.0226412 4.3053942
1.5847672 2.0903311 4.3470821
1.6207426 2.0802007 4.344666
1.6702673 2.0840292 4.3393602
1.7186601 2.074604 4.3345051
1.7698272 2.0832078 4.3179345
1.8153232 2.0669222 4.3180923
1.8640405 2.0692022 4.3076267
1.9000243 2.0585189 4.3023329
1.5884721 2.1301613 4.34447
1.6240262 2.1193452 4.3407583
1.6787678 2.1325912 4.3344626
1.7227294 2.1145864 4.3319316
1.7682155 2.12168 4.3238072
1.8222612 2.1217346 4.3172545
1.8672768 2.1279786 4.3063693
1.9259286 2.1445332 4.3036785
1.595209 2.1742539 4.3498139
1.6362232 2.1692145 4.3472819
1.6771985 2.1717596 4.3410568
1.7294289 2.1697502 4.3311343
1.7774498 2.171124 4.3193421
1.8279266 2.1753716 4.3126774
1.8812115 2.1826408 4.3114529
1.9200335 2.1865928 4.3071795
1.6480567 2.2058241 4.3437696
1.67556 2.2229412 4.3428288
1.7298329 2.2285974 4.3327761
1.7809839 2.2234395 4.3218122
1.8252822 2.2394526 4.3171668
1.8727493 2.2279229 4.3067656
0.62759614 2.2845702 4.3127985
0.66523612 2.2745695 4.3419271
0.70675266 2.2845144 4.3037004
0.75454372 2.29231 4.3127217
1.669978 2.2784212 4.3436928
1.7186221 2.2803483 4.3332057
1.7676145 2.2826161 4.3228116
1.8105267 2.2781565 4.3095479
0.59755027 2.3107476 4.339859
0.6670379 2.3491747 4.3268633
0.78187335 2.3174188 4.3309698
1.6888807 2.3354802 4.3391647
1.7266957 2.3292587 4.324553
1.7709002 2.3342636 4.3112211
1.807647 2.335855 4.3026686
-0.073602967 2.382534 4.3234959
-0.028438969 2.3952405 4.3469501
0.017156053 2.3929515 4.3428421
0.051402409 2.3959353 4.3480716
0.48414817 2.3924515 4.322073
0.6449936 2.3861783 4.3206358
0.68386263 2.3699553 4.329185
0.72859728 2.3748555 4.3259339
0.7656368 2.3951228 4.3484831
0.90414077 2.3960946 4.3304496
1.1463159 2.397866 4.3441434
1.3432949 2.3938551 4.3485217
1.3810263 2.3982623 4.3481059
1.6832578 2.3679342 4.3488026
1.7275378 2.3753259 4.3210735
1.7736857 2.373544 4.3028765
-0.028297924 2.4072008 4.318181
0.028440516 2.4062629 4.3165107
0.073761158 2.4055691 4.3148293
0.14258668 2.4175911 4.3351812
0.17639929 2.4127879 4.325634
0.21036269 2.4103599 4.3201685
0.26669765 2.4056354 4.3093786
0.3475492 2.4043553 4.3280978
0.38173327 2.4044235 4.3260784
0.46385309 2.4053347 4.3471956
0.51969343 2.4099774 4.3255382
0.56251764 2.4103823 4.3308043
0.61261761 2.4049513 4.3328466
0.7746464 2.4103413 4.3234348
0.82117903 2.4122548 4.3205466
0.86775684 2.4139986 4.3169537
0.92653316 2.4174736 4.3142262
0.96523017 2.4162841 4.3319464
1.0309063 2.4155967 4.3324766
1.0837867 2.4114552 4.328269
1.1309876 2.4132915 4.3226089
1.1801449 2.4072754 4.3282228
1.2284735 2.410872 4.3248787
1.2805922 2.4213817 4.3333826
1.3298733 2.4259634 4.3308487
1.3768098 2.426065 4.3198347
1.4295967 2.4361951 4.3261652
1.4823129 2.4337406 4.3356667
1.5370423 2.4314747 4.3353705
1.577763 2.4255271 4.3313241
1.6281966 2.4300611 4.3258247
1.6843691 2.4171355 4.3314075
1.7182517 2.4145803 4.3159242
1.4899262 2.4504874 4.3101544
1.5153487 2.4535196 4.3091335
1.1338326 0.31952304 4.3593597
1.1103586 0.38264349 4.3509855
1.1110352 0.40414017 4.3523388
1.091419 0.48992991 4.3566103
1.0945446 0.52338517 4.3665657
1.1129711 0.5326491 4.3506341
1.0963937 0.55634242 4.3712773
1.1146537 0.57613188 4.3535156
1.0964762 0.64196432 4.3636789
1.126557 0.63573438 4.3654728
1.0977664 0.67483789 4.3655291
1.1305112 0.67522597 4.3624058
1.1632168 0.68627805 4.3576784
1.0860664 0.72486734 4.36694
1.1331365 0.72482759 4.3585081
1.1705993 0.71500987 4.3541183
1.0721533 0.7798661 4.3582687
1.1223843 0.77651757 4.3630276
1.1703447 0.77859962 4.3528237
0.93147182 0.8400324 4.397265
0.97521329 0.84062129 4.3940182
1.0275248 0.82860082 4.3804889
1.0756857 0.82544231 4.3673558
1.1271207 0.8296212 4.3573666
1.1797626 0.8297649 4.3607721
1.2104943 0.81791484 4.3504534
0.77789617 0.85842454 4.3980389
0.92098445 0.87260383 4.3958483
0.9751358 0.87288338 4.3893986
1.028486 0.8724426 4.3789024
1.0719025 0.87272966 4.373312
1.1260277 0.87295407 4.36515
1.1824521 0.87484753 4.3649349
1.213993 0.86344606 4.3573341
-0.036838703 0.91806388 4.3599033
0.84571517 0.92659134 4.3992634
0.92742789 0.92752737 4.3926792
0.97443962 0.92607009 4.3787303
1.0294769 0.92719954 4.3755803
1.0749584 0.92307347 4.3696771
1.1229929 0.92356282 4.3639245
1.1719307 0.91826493 4.3619094
-0.057978809 0.97144443 4.3549685
-0.026360216 0.97375083 4.3654394
0.022333115 0.98830092 4.3718505
0.91261369 0.95050746 4.398407
0.99284202 0.96612406 4.3554835
1.0276556 0.96858859 4.3614998
1.0697931 0.96383947 4.3671365
1.1173587 0.96096361 4.3629522
1.1722106 0.96169424 4.3565536
-0.058209404 1.0283107 4.3641739
-0.026419293 1.0287342 4.366138
0.012437587 1.0236752 4.3602881
0.82672065 1.0375296 4.3993611
0.89451319 1.084356 4.3982954
0.91748643 1.1076039 4.3977857
0.89852887 1.1981473 4.3988099
0.96530265 1.1781211 4.3999424
1.1318307 1.1919495 4.3671584
1.1754156 1.1701666 4.3632622
1.2052412 1.1672828 4.3612237
0.96601838 1.2008281 4.3991685
1.0825039 1.2304802 4.3882046
1.1310292 1.2350316 4.3710747
1.1767811 1.2262236 4.3728232
1.2088453 1.2254378 4.3638668
1.0373499 1.2844987 4.3989182
1.0701598 1.2843628 4.3929882
1.121459 1.2791737 4.3833113
1.1785758 1.2829369 4.3686123
1.2121537 1.2836788 4.364872
0.91518766 1.3372821 4.3991728
1.0313915 1.3264971 4.3976231
1.0728272 1.331585 4.3948846
1.1227157 1.3285452 4.3838091
1.1764662 1.3340614 4.3768973
1.2152196 1.3309119 4.3667393
0.90467954 1.3598903 4.398334
1.0751022 1.3785293 4.3947945
1.1180084 1.3770585 4.3824549
1.1738535 1.3779656 4.3753009
1.2187355 1.3788819 4.3698173
0.041547853 1.442037 4.3778305
1.0774727 1.4257699 4.3946643
1.1219711 1.4261656 4.388145
1.1759549 1.4246397 4.3733201
0.03146521 1.4854567 4.372973
0.075938873 1.4682332 4.3804398
1.0791417 1.4722596 4.3912845
1.1248617 1.4741699 4.3892174
1.1749576 1.4708869 4.3771706
1.2122551 1.4727058 4.3682299
-0.066797264 1.533586 4.3717928
-0.027140684 1.5355926 4.389019
0.027245156 1.5332212 4.3822074
0.070529103 1.5283338 4.3679476
1.0856457 1.5167894 4.3924003
1.1274376 1.5219847 4.3886161
1.1717405 1.5218426 4.3800354
1.205507 1.5224117 4.3753161
-0.067144342 1.5777026 4.3849945
-0.027186681 1.5824409 4.3875155
0.027333109 1.5815382 4.3849969
0.070984319 1.5818636 4.38556
1.0889969 1.573431 4.3931618
1.1310462 1.5714412 4.3916407
1.1761639 1.5721982 4.3854918
1.2074664 1.5694137 4.3713207
-0.070818834 1.6261035 4.3762188
-0.02726759 1.6305833 4.3885918
0.027436428 1.6305199 4.3883934
0.071275897 1.6321886 4.3925982
1.0993009 1.6073288 4.3958497
1.1273341 1.6225398 4.3924518
1.1798207 1.6218154 4.3875771
1.2230335 1.6285013 4.38658
1.2686155 1.6321681 4.3646665
1.3156002 1.6350102 4.3628082
1.3738352 1.6377023 4.357595
1.4932306 1.6457341 4.3523064
-0.07119377 1.6783578 4.387289
-0.023735529 1.6855284 4.3958797
0.027503381 1.6787609 4.3887153
0.071444355 1.6799946 4.3916082
0.2133202 1.6623125 4.3736992
0.32237044 1.6717954 4.3623695
0.96508765 1.6737642 4.3989625
1.0795019 1.6558421 4.398324
1.1255071 1.6689105 4.3922796
1.1842184 1.6727614 4.3919659
1.2306815 1.6749301 4.3888593
1.2737489 1.6724482 4.3732047
1.3220497 1.6767877 4.3749819
1.3726342 1.6731377 4.3605146
1.4265976 1.680676 4.3622227
1.4657345 1.6862663 4.3568769
1.567699 1.6529814 4.3541794
1.6409334 1.6583828 4.3501225
1.667647 1.6737733 4.351079
-0.071377188 1.7266328 4.3867126
-0.027458373 1.7290654 4.3932095
0.027550226 1.7254022 4.3839092
0.071487755 1.7249825 4.3825269
1.1216847 1.7155586 4.3967233
1.1744901 1.7198567 4.3873324
1.2330341 1.7231731 4.3847737
1.2775414 1.722464 4.373724
1.325947 1.7268789 4.375319
1.3706186 1.7263198 4.3638487
1.420046 1.7315761 4.3666883
1.4672663 1.7339014 4.3617096
1.5100344 1.7315574 4.3561115
-0.071578749 1.7755296 4.3866053
-0.027522538 1.77771 4.3923545
0.027602831 1.7736009 4.3821883
0.071539126 1.7702296 4.3735404
1.1330514 1.7590389 4.3999329
1.1717931 1.765296 4.3828321
1.2289556 1.7743324 4.3821187
1.2844698 1.7771065 4.384469
1.3290406 1.7761736 4.3724699
1.377121 1.7798538 4.3713884
1.4238555 1.7816138 4.3651938
1.4723235 1.7853806 4.363441
1.5164995 1.7724839 4.3517523
1.5620831 1.7693857 4.354218
1.6006709 1.7548991 4.3504186
-0.071827412 1.8257936 4.3887711
-0.027599312 1.8272804 4.3927021
0.027716154 1.824494 4.3859739
0.07181327 1.8212049 4.3777261
1.0889578 1.8057966 4.3990402
1.1362746 1.8092805 4.3993549
1.1755046 1.8192267 4.3957944
1.2179415 1.8243983 4.3899002
1.2665777 1.8292044 4.3922133
1.3235823 1.8295187 4.3808398
1.3818568 1.8314775 4.3728027
1.4297947 1.8346286 4.3696723
1.4726753 1.8322368 4.3640647
1.523066 1.8257993 4.3567848
1.5718802 1.8181019 4.3572426
1.6085258 1.8322248 4.3509541
-0.072120875 1.877553 4.3932447
-0.027666982 1.8763089 4.3906994
0.027803876 1.8754588 4.3886952
0.072128087 1.8735529 4.3838987
1.1867085 1.8740718 4.3930798
1.2232529 1.8778815 4.3952293
1.270368 1.880268 4.3914666
1.3158102 1.8801013 4.3813314
1.3691716 1.8791435 4.3734341
1.4270494 1.8879124 4.3689451
1.486526 1.8705239 4.3711381
1.5285492 1.8667569 4.3618073
1.5718489 1.8645072 4.3557315
-0.083516911 1.9175172 4.3982692
-0.024047665 1.9231867 4.3924232
0.016777273 1.9264523 4.3902807
0.061322693 1.926493 4.3901005
1.0959374 1.9082528 4.3997607
1.1454493 1.9378997 4.3999887
1.2258834 1.927564 4.3904228
1.2738281 1.9311012 4.3890162
1.320061 1.9319193 4.3810287
1.3682874 1.9354625 4.3788252
1.4218954 1.9344685 4.3701806
1.482283 1.9130424 4.3708663
1.5272934 1.9219332 4.3642588
1.5819223 1.9217671 4.3559527
1.6323361 1.9269922 4.3551326
1.6678966 1.9165596 4.3517275
-0.076176755 1.9793617 4.3850479
-0.027870167 1.978968 4.3939838
0.01680121 1.9750826 4.3854003
0.061465807 1.9756296 4.3863435
1.0991206 1.9593697 4.3981056
1.1229943 1.9612885 4.3982501
1.2772188 1.9820852 4.3858571
1.3238543 1.9833108 4.3786225
1.3704765 1.9844571 4.3707781
1.4192083 1.9769504 4.3726411
1.4734399 1.965053 4.3684955
1.5251203 1.9687396 4.3579745
1.5799475 1.9762738 4.3553257
1.6242671 1.9773809 4.3522472
-0.072675325 2.0263894 4.3850288
-0.027972994 2.0310073 4.3953576
0.016862741 2.0268629 4.3864121
0.061672159 2.0272248 4.3869076
1.2244594 2.0353997 4.398613
1.2798333 2.0321033 4.3795033
1.3232974 2.03036 4.376112
1.3729892 2.0225701 4.3671856
1.4236805 2.0178177 4.3748274
1.4708153 2.0192218 4.3665881
1.5195975 2.022759 4.3624749
1.5681486 2.025795 4.3568296
1.6312389 2.0439303 4.3508859
-0.073042773 2.0815995 4.3920965
-0.028045001 2.0816569 4.3925872
0.01691632 2.0784364 4.3858309
0.06187959 2.0789144 4.38657
1.2494047 2.0501065 4.3968959
1.2743155 2.0762107 4.3905506
1.3358274 2.0685618 4.3798194
1.3812735 2.0694537 4.3815322
1.4280913 2.0703421 4.3723969
1.477192 2.0743496 4.3693981
1.5234022 2.0741849 4.3571897
1.5677686 2.0728376 4.3525887
-0.076981716 2.1280286 4.3885846
-0.016857006 2.1342044 4.392693
0.016989451 2.131587 4.3873334
0.062046498 2.1299641 4.3836699
1.2316762 2.1283789 4.3964596
1.2733749 2.1146345 4.3928728
1.3246191 2.1175694 4.382194
1.3778635 2.1235051 4.377152
1.4306442 2.1222649 4.3778229
1.4768416 2.1326013 4.3733163
1.5299833 2.1296983 4.35921
1.5652752 2.1302519 4.3510232
-0.084931731 2.1766527 4.3975859
0.017051762 2.1848111 4.387671
0.051030185 2.1857715 4.3894339
1.1866522 2.1653328 4.3978786
1.2222252 2.1668425 4.3939023
1.2711598 2.1712687 4.3931398
1.3194177 2.174305 4.3890848
1.366653 2.1754906 4.3808918
1.4118013 2.1754704 4.3800197
1.4912171 2.1759992 4.3813353
1.5342937 2.1706913 4.3584886
1.5712984 2.1735008 4.3547297
1.6183441 2.150564 4.3514519
-0.085134573 2.2159331 4.3957777
0.017101888 2.2271938 4.3920245
0.051232375 2.2285795 4.394578
1.1430506 2.2284961 4.3959723
1.1789823 2.2189856 4.3975863
1.226333 2.2206643 4.3914804
1.2731957 2.2212946 4.382906
1.3219805 2.2251344 4.3801861
1.3712879 2.229579 4.3782139
1.4246769 2.2283764 4.3921824
1.4878283 2.2234559 4.3955073
1.5209426 2.2203341 4.3801813
1.5671753 2.21929 4.3655953
1.6156578 2.221386 4.356719
-0.07772103 2.2624843 4.3900113
-0.02841414 2.2682176 4.3927302
0.017157441 2.2671144 4.3906784
0.051344477 2.2677021 4.3916111
0.68496585 2.2745593 4.3751578
0.73302871 2.289248 4.3803334
0.76501191 2.2895622 4.3859119
1.1339502 2.2799971 4.3902798
1.1947055 2.2733111 4.3928432
1.2314352 2.276556 4.3918858
1.281002 2.2817452 4.3918877
1.3274627 2.2811666 4.3803368
1.3736775 2.2685542 4.3723574
1.4267939 2.2669544 4.385139
1.4807742 2.2777607 4.3942738
1.5297902 2.280488 4.387238
1.5782275 2.2822578 4.3779078
1.6243944 2.2806921 4.3617058
-0.074194439 2.3200326 4.3868237
-0.032332372 2.3262947 4.390368
0.017213775 2.3206456 4.3884215
0.062981993 2.3219426 4.3905749
0.62685162 2.3006086 4.3966112
0.78916609 2.3044517 4.3848867
1.1754509 2.3279755 4.3944211
1.2347574 2.329541 4.3853865
1.2836268 2.3333039 4.3823495
1.3325187 2.3368347 4.3784089
1.378854 2.3232942 4.3800616
1.4304985 2.3223979 4.3925052
1.4768513 2.3323467 4.385757
1.5308434 2.3314188 4.3853154
1.5835416 2.3254943 4.3783259
1.633221 2.3287201 4.3710318
1.6651582 2.3235738 4.3510594
-0.07428769 2.3685963 4.3742514
-0.028512944 2.3674107 4.3724523
0.01722501 2.3673589 4.3724065
0.070649318 2.3763142 4.3714027
0.12095393 2.3950996 4.3966184
0.38578713 2.3953815 4.3859282
0.62293303 2.3815594 4.3713598
0.78322458 2.3865836 4.3651757
0.82584989 2.3816886 4.3783994
0.87732226 2.382494 4.3884249
0.92137522 2.3823593 4.3904057
1.0259345 2.3787429 4.38416
1.0660588 2.3772023 4.3740678
1.1186565 2.3778317 4.3744884
1.1800845 2.3723378 4.3754616
1.235101 2.3770525 4.3677006
1.2831287 2.3792882 4.361599
1.3280058 2.3788226 4.3597832
1.3847564 2.3665831 4.3596072
1.4312786 2.3788054 4.3724518
1.4801631 2.3802307 4.3780694
1.5387481 2.3781347 4.3699141
1.5861403 2.3768616 4.3659034
1.6369168 2.3697264 4.3661404
1.6731639 2.382405 4.3521166
0.097385876 2.4047384 4.3634758
0.13209119 2.4109094 4.3739996
0.17773031 2.4077599 4.367095
0.22368068 2.4085321 4.3669481
0.27009073 2.4137373 4.3744798
0.32041362 2.409632 4.3816156
0.43565941 2.4105616 4.3760242
0.52439165 2.4087646 4.374157
0.57130122 2.4008696 4.381145
0.83713645 2.4020967 4.3516564
0.87342536 2.4066527 4.3548183
0.93565375 2.4063518 4.3711772
0.96860379 2.4073317 4.3765244
1.0076878 2.4002521 4.3743935
1.1241491 2.4002242 4.3529954
1.4345245 2.4091625 4.3562088
1.4860585 2.4161997 4.3567791
1.5225165 2.4177053 4.3500772
1.6375356 2.4063566 4.3526945
0.52213359 0.82897282 4.4420257
0.57397413 0.82609969 4.4222498
0.62808681 0.82672387 4.4207358
0.67877871 0.831038 4.4192519
0.72893828 0.83106774 4.4141121
0.76790583 0.83776665 4.4062786
0.82390243 0.84012252 4.4121404
0.91027832 0.84034425 4.4019346
0.52297091 0.87339061 4.4434729
0.57567257 0.87158877 4.4298754
0.62804484 0.86964798 4.4151115
0.68286681 0.8710835 4.4171009
0.72631907 0.87162638 4.4152555
0.76633477 0.87587261 4.4135394
0.82468897 0.87325573 4.4120898
0.87853116 0.87323046 4.4049339
0.47301185 0.92081648 4.4443226
0.52843088 0.92205894 4.4372149
0.57623887 0.91551268 4.4283352
0.62646395 0.92228997 4.4162579
0.67676777 0.92630512 4.4174113
0.72962242 0.92260283 4.4152784
0.76824439 0.92237455 4.4098468
0.82513756 0.92461145 4.4076028
0.87921929 0.91705871 4.4024367
0.91171026 0.90640604 4.4002018
0.48097813 0.97272807 4.4437523
0.52791202 0.98003501 4.4444203
0.57847285 0.97314793 4.4378867
0.62171495 0.98397386 4.4324007
0.67820126 0.97834712 4.4230294
0.72800291 0.97792894 4.4246445
0.77524108 0.9774915 4.4171758
0.82435983 0.97974259 4.4127274
0.88149428 0.9735291 4.405951
0.91572654 0.98627901 4.4085627
0.46748564 1.0251904 4.4459863
0.54066914 1.0270694 4.4486561
0.58067763 1.0311093 4.4465551
0.62334347 1.029896 4.4374285
0.6759482 1.0274922 4.4217048
0.73039305 1.0279999 4.4181004
0.77417773 1.0286965 4.4161563
0.82742673 1.0254266 4.4050827
0.88574874 1.0325456 4.4188337
0.53767538 1.0753348 4.4466848
0.58546185 1.0803027 4.4476552
0.62381446 1.0740805 4.4338655
0.67345256 1.0715035 4.4275904
0.72622931 1.0769224 4.4257941
0.77662933 1.0754011 4.4231119
0.81938136 1.074512 4.4141188
0.8698225 1.0729802 4.4106612
0.48381782 1.1198103 4.4477539
0.5347383 1.1165847 4.4460301
0.58200562 1.1204884 4.4425659
0.62589365 1.1212049 4.4413872
0.66913629 1.1207001 4.4351358
0.72309786 1.1200424 4.4267488
0.77728057 1.1197901 4.4195371
0.82172215 1.1211028 4.4193811
0.87703794 1.122281 4.4168916
0.92137283 1.1341054 4.4126406
0.57816374 1.173445 4.4403381
0.62724411 1.178149 4.4414058
0.66844487 1.1733636 4.4364867
0.72500229 1.1665921 4.4307408
0.7820465 1.1736959 4.425148
0.82414502 1.168077 4.424747
0.86824596 1.168685 4.4213743
0.9226175 1.1684184 4.4128137
0.52239841 1.2377158 4.4449248
0.5632109 1.235775 4.4484015
0.61871278 1.2374518 4.4495111
0.67734373 1.2236615 4.435245
0.72637874 1.2234591 4.4292326
0.77791721 1.2264134 4.417304
0.82567471 1.2249383 4.4228821
0.86895925 1.2243284 4.414927
0.92403269 1.2248865 4.4093819
0.98211306 1.2307932 4.4056368
1.014477 1.2175171 4.4112806
0.48685753 1.280019 4.4478703
0.51978129 1.2802962 4.4462986
0.57432556 1.2799183 4.4404216
0.62912458 1.2801611 4.4362679
0.67385781 1.2820005 4.4382811
0.72446859 1.2802404 4.4347687
0.77809066 1.2862768 4.4335279
0.82871026 1.284335 4.4286032
0.87204915 1.2834913 4.4199352
0.93102515 1.280212 4.4176226
0.98218435 1.2841196 4.4062753
1.0207107 1.2678154 4.404068
0.48766607 1.3150183 4.4487782
0.57579225 1.3270816 4.4430895
0.63030237 1.3264074 4.4358029
0.67436182 1.3268497 4.4328928
0.71810675 1.3266511 4.427547
0.77329761 1.3272823 4.4233298
0.82808161 1.3272318 4.416369
0.87064087 1.325243 4.4039583
0.92745227 1.3245318 4.4067969
0.97705138 1.3277954 4.4052663
1.0176407 1.3423445 4.4008508
0.58842254 1.3748559 4.4456654
0.63090491 1.3715892 4.431005
0.67501533 1.3720208 4.4280081
0.71848232 1.3712384 4.420723
0.77380753 1.372077 4.4170551
0.83136094 1.3765318 4.424552
0.87406969 1.3744739 4.412118
0.9215281 1.3778528 4.4037361
0.97567916 1.3782209 4.409781
1.0319444 1.3797807 4.4061093
0.62207574 1.4203992 4.4379535
0.6761902 1.4184272 4.426301
0.71988547 1.4178721 4.4198298
0.77698404 1.4217948 4.4256382
0.83344281 1.4241403 4.4260626
0.87603587 1.4216392 4.4124031
0.91966176 1.4209287 4.4039917
0.96786356 1.4270631 4.4164653
1.0235467 1.4276155 4.4094987
0.092627697 1.480884 4.4004669
0.62822026 1.4662886 4.4404869
0.67814851 1.4666406 4.4292588
0.72278243 1.46771 4.4276767
0.77425337 1.4668926 4.4264536
0.82720232 1.4712054 4.4185185
0.87793297 1.4688933 4.4119396
0.92305279 1.4703966 4.4101887
0.96948147 1.4737786 4.4137664
1.0254954 1.4746929 4.4077711
0.093319446 1.5248909 4.4256887
0.63669199 1.5170791 4.4420609
0.67989838 1.5146508 4.4304261
0.72440839 1.5152675 4.4274063
0.76922202 1.5164118 4.4255943
0.82133436 1.5164394 4.4263144
0.8766942 1.524654 4.4291487
0.92851353 1.5236065 4.4258733
0.97228944 1.5225154 4.4160819
1.0236038 1.5206025 4.4094505
1.0633214 1.5367494 4.4080725
0.09336178 1.569446 4.4172344
0.64985389 1.5552703 4.4473014
0.68324721 1.5665641 4.441618
0.72788095 1.5670066 4.4379854
0.77292299 1.5682013 4.4361744
0.81774145 1.5688652 4.4325361
0.87392277 1.5698304 4.4278717
0.93037307 1.5712208 4.423923
0.97440392 1.5703741 4.4147992
1.0206711 1.573016 4.4151921
1.0617037 1.569549 4.4100475
0.093290061 1.6121547 4.4030094
0.67374665 1.6148745 4.4424176
0.7319988 1.6223199 4.4364562
0.77410859 1.6263094 4.4290462
0.82056361 1.6212418 4.4226403
0.87102705 1.6197016 4.4174256
0.93009967 1.6153213 4.4113464
0.97673827 1.6187859 4.4140663
1.0231254 1.6215549 4.4145012
1.0671927 1.6205781 4.4044008
-0.03839406 1.6713232 4.4008989
0.093880586 1.6665268 4.4196215
0.23817998 1.6613853 4.434536
0.27208474 1.6655732 4.444406
0.33600858 1.6743932 4.4002609
0.68023336 1.6621616 4.4443817
0.72937453 1.6800349 4.4342513
0.77552819 1.6739204 4.4255781
0.81671888 1.6670866 4.4239783
0.87642103 1.6636869 4.4178367
0.92896467 1.6719786 4.410614
