ply
format ascii 1.0
comment PCL generated
element vertex 1561
property float x
property float y
property float z
element camera 0
property float view_px
property float view_py
property float view_pz
property float x_axisx
property float x_axisy
property float x_axisz
property float y_axisx
property float y_axisy
property float y_axisz
property float z_axisx
property float z_axisy
property float z_axisz
property float focal
property float scalex
property float scaley
property float centerx
property float centery
property int viewportx
property int viewporty
property float k1
property float k2
end_header
2.6314139 -0.27867293 4.1288748
2.6823938 -0.27595851 4.1243529
2.7189226 -0.2841039 4.1189828
2.7712874 -0.28145602 4.114501
2.8277626 -0.28257242 4.1071177
2.4344616 -0.23352848 4.1261983
2.4817417 -0.22050112 4.1439748
2.5243926 -0.23241742 4.1440654
2.5776501 -0.23320027 4.137711
2.6283171 -0.22255117 4.1265254
2.6772666 -0.22895771 4.1223831
2.7166512 -0.21959405 4.1215048
2.7669086 -0.22468229 4.1106248
2.8299129 -0.22606689 4.1129174
2.4195309 -0.16996792 4.1155047
2.4727054 -0.18154253 4.1418676
2.5203588 -0.1766427 4.1394277
2.5731227 -0.17721598 4.1324434
2.6281877 -0.16674514 4.1282897
2.6830909 -0.16735558 4.1221566
2.72472 -0.16782928 4.1174202
2.7694471 -0.16847238 4.1164517
2.8237779 -0.16900423 4.1060519
2.8799746 -0.17362984 4.1044135
2.4246166 -0.11983223 4.1207733
2.478054 -0.12084249 4.1407747
2.5212896 -0.12130428 4.1423898
2.5753317 -0.12173732 4.1375065
2.6271768 -0.12204862 4.1278386
2.6806111 -0.12243394 4.1195035
2.7250481 -0.12289918 4.119091
2.7675209 -0.12326917 4.1147747
2.8222532 -0.12365611 4.1050429
2.866631 -0.12409225 4.1017079
2.43539 -0.079925634 4.1319575
2.4779224 -0.076678962 4.1413007
2.5183485 -0.076886639 4.1383314
2.5734785 -0.077195823 4.1352782
2.6264157 -0.077416897 4.1274147
2.6796989 -0.077639073 4.1189003
2.7292128 -0.074107312 4.1110797
2.7755146 -0.082066752 4.1198792
2.823822 -0.078452468 4.1081324
2.8842506 -0.078840867 4.1052055
2.3986681 -0.042965241 4.101058
2.4239206 -0.021329913 4.1207767
2.4722347 -0.036236782 4.147716
2.5174665 -0.032599859 4.1372933
2.5693707 -0.032674238 4.129087
2.6231415 -0.032762684 4.1226807
2.680181 -0.032885764 4.1200352
2.7356234 -0.032984275 4.1135621
2.7742505 -0.033030353 4.1034541
2.8217485 -0.033167318 4.1055489
2.8835001 -0.044699632 4.1045008
2.9306808 -0.022024542 4.1040039
2.4180589 0.022423465 4.1154165
2.479208 0.044750009 4.1437025
2.5187073 0.022740575 4.139317
2.5714715 0.022837279 4.1324353
2.6278145 0.02296976 4.1300144
2.6862631 0.023117809 4.129396
2.7289157 0.028783312 4.1147299
2.7696271 0.018773058 4.1146078
2.8226824 0.023383401 4.1069107
2.430119 0.077350423 4.1307321
2.4787865 0.077875823 4.1425915
2.5189195 0.078103632 4.1391253
2.5736496 0.07844615 4.1353979
2.6314301 0.078877486 4.1351309
2.6802852 0.079021297 4.1196332
2.7338657 0.079302907 4.1103096
2.7843964 0.079809934 4.117857
2.8233624 0.079982273 4.1073208
2.8652403 0.091567352 4.1001801
2.411787 0.12086558 4.1221857
2.4681327 0.12203205 4.1472826
2.5211573 0.12250037 4.1419611
2.5742638 0.12293637 4.1355085
2.6311703 0.12354791 4.1338387
2.6842608 0.12397142 4.124867
2.7249982 0.12432914 4.1187468
2.7669332 0.12471206 4.1136189
2.8220432 0.12517594 4.1044579
2.8661954 0.12565082 4.1007957
2.4294066 0.17605074 4.1271553
2.4821856 0.1774828 4.1458764
2.5366602 0.16712871 4.1429267
2.5744548 0.16744018 4.1346102
2.6297238 0.16814893 4.1303458
2.683991 0.16877764 4.1231775
2.7333238 0.17305791 4.1147666
2.7748792 0.1662945 4.1167293
2.8229337 0.1704789 4.1044483
2.8846655 0.17149591 4.1033225
2.9350646 0.18391252 4.106739
2.4173367 0.23077607 4.1281047
2.4533494 0.23212022 4.1422806
2.5319166 0.22823858 4.1445055
2.578609 0.22340946 4.1392331
2.6303024 0.22404645 4.1291676
2.6827607 0.22041956 4.1239371
2.7198138 0.23111063 4.1185741
2.7706716 0.22644924 4.1157126
2.8164306 0.22131658 4.1042809
2.8700721 0.22812413 4.1028037
2.9163551 0.20627528 4.1020007
2.4213867 0.27508664 4.1329827
2.4702678 0.27689093 4.1451783
2.5234144 0.27790225 4.1398768
2.5817976 0.27944273 4.1417437
2.6353331 0.28041631 4.1344342
2.6758223 0.28116682 4.1286955
2.7159548 0.28185135 4.121624
2.7722211 0.2830373 4.1152759
2.8286054 0.28419128 4.1076813
2.8710546 0.27369031 4.101953
2.4264574 0.31969053 4.1392446
2.47404 0.32157838 4.1490812
2.5267594 0.32269961 4.1429157
2.5882461 0.32068419 4.1420827
2.6236939 0.32512051 4.1366429
2.6636698 0.32592124 4.1301908
2.7189212 0.32720843 4.1235361
2.7644565 0.32396314 4.1088824
2.8289611 0.32959569 4.1055193
2.8759673 0.34249833 4.104918
2.925879 0.34437281 4.1079817
2.9703617 0.33409518 4.1033196
2.4314206 0.35341725 4.1456933
2.5269439 0.36397538 4.1484179
2.5874548 0.36947256 4.1454606
2.6311533 0.36614585 4.1303654
2.6687126 0.37471011 4.1271667
2.7256668 0.37316549 4.1307721
2.7789416 0.37428662 4.1195498
2.8260043 0.37605184 4.1207824
2.8664181 0.37690416 4.1113634
2.9300606 0.38259006 4.1036639
2.9737477 0.38048863 4.1047754
2.3489306 0.41665155 4.1406035
2.3728063 0.41700956 4.1347923
2.5492387 0.43571687 4.1485796
2.5758085 0.42528227 4.1458769
2.6168349 0.42652395 4.141768
2.6716542 0.4169006 4.1362987
2.7230296 0.41790596 4.1234083
2.7783639 0.41947871 4.1152844
2.8260791 0.42155918 4.1174145
2.868186 0.42276055 4.110373
2.9211633 0.42823628 4.1025538
2.9757254 0.42680079 4.1038666
3.1397765 0.42194915 4.100081
2.5792961 0.48180944 4.1468215
2.6179204 0.48275355 4.1387596
2.6768847 0.47409332 4.139688
2.7276056 0.4751122 4.1255383
2.7826936 0.47266182 4.1218023
2.8291235 0.46756357 4.11797
2.870976 0.46883601 4.1104488
2.9246225 0.46693268 4.1040988
2.4965723 0.51214457 4.1488762
2.5235496 0.52426594 4.1454515
2.5677006 0.52649039 4.1472168
2.6220355 0.5284397 4.1410508
2.6791487 0.53087664 4.1378736
2.7325954 0.53253317 4.1277313
2.7834625 0.53058296 4.1205168
2.8238351 0.52521497 4.1229177
2.8801484 0.51614118 4.1192093
2.9190497 0.5169903 4.1065941
1.5348798 0.59972346 4.1175871
1.8912207 0.59367782 4.1305413
1.9218724 0.59334302 4.1176558
1.969286 0.59487826 4.1138277
2.0166645 0.59635788 4.109127
2.3351641 0.59393507 4.1482534
2.4925368 0.5890184 4.1343122
2.5247917 0.5691101 4.1430116
2.5736132 0.57329744 4.1379952
2.6263201 0.5697518 4.1358705
2.6777909 0.57571161 4.1311464
2.7174613 0.57698196 4.1229978
2.7685981 0.58062434 4.1312394
2.8177862 0.57838136 4.1206274
2.8764997 0.5769366 4.1173301
2.9290054 0.57630539 4.1144714
2.9554248 0.57697183 4.1061826
1.4831171 0.62034178 4.1282406
1.5729319 0.60243154 4.1279764
1.60862 0.604146 4.1313157
1.6590358 0.60736936 4.1417513
1.7376875 0.61753511 4.1421585
1.7558162 0.61882508 4.1194811
1.8016678 0.6132074 4.1441112
1.8894829 0.62369663 4.1415148
1.9171733 0.62122101 4.1133313
2.7401772 0.61092502 4.107769
2.7855372 0.62738049 4.1283746
2.831552 0.63001466 4.1274233
2.8845799 0.62865698 4.1209388
2.9131479 0.63289595 4.1080685
2.9668372 0.6300543 4.1045027
1.7681623 0.65479875 4.1448994
1.8013188 0.65535152 4.1387014
1.9300544 0.65967762 4.1282034
1.9638015 0.66030812 4.121284
2.0343924 0.66252542 4.1125565
2.7419565 0.65655589 4.1049728
2.7714927 0.67515975 4.1166301
2.8258777 0.6744349 4.1134319
2.874774 0.6779241 4.1158147
2.920742 0.68063861 4.1128511
2.9628634 0.68239963 4.1037178
2.7473876 0.74850577 4.100934
2.7671833 0.71670324 4.1122847
2.8285556 0.7208066 4.1112137
2.8798296 0.72509754 4.1168251
2.9256077 0.72793519 4.1133995
2.9797356 0.72700256 4.10604
3.0012605 0.7439751 4.1031532
2.7489994 0.77162093 4.100039
2.7778366 0.7806145 4.1076612
2.8269348 0.7632826 4.1104774
2.877739 0.7764346 4.1217999
2.9188855 0.76949614 4.105371
2.9770844 0.77853537 4.1101408
3.0070393 0.76867729 4.1075935
2.7785661 0.83378255 4.1122799
2.8330853 0.8168447 4.1271772
2.8786304 0.82001531 4.1241422
2.9154871 0.82068962 4.1080427
2.9676003 0.82557368 4.1124277
3.0303595 0.83006179 4.107348
2.7780211 0.87667829 4.1122851
2.8293977 0.8806935 4.1229091
2.8646879 0.86544138 4.1195889
2.9161906 0.87051737 4.1242347
2.9747481 0.87413049 4.1146026
3.0182605 0.87665725 4.1058755
3.0500274 0.89080817 4.1012297
2.7715504 0.91512614 4.111485
2.825964 0.93322945 4.1203356
2.8752716 0.91494346 4.1268425
2.9201162 0.91814625 4.121707
2.9725411 0.91735363 4.1117058
3.0191524 0.92992592 4.1132541
3.0576062 0.93998259 4.1028838
-0.11531761 0.96348208 4.1323934
0.9890489 0.98405051 4.1429219
1.0153847 0.97623444 4.1353946
2.7437801 0.9705404 4.1058073
2.776612 0.97404778 4.1085749
2.8300486 0.97817582 4.1262403
2.8731284 0.97982049 4.1235466
2.9269617 0.96686804 4.1228285
2.9712489 0.96995151 4.1158352
3.0189366 0.9740541 4.1124854
3.0646384 0.97745025 4.1055765
-0.11600996 1.0298419 4.1474538
1.0161631 1.0111777 4.1330256
1.0542407 1.0081018 4.1437864
2.7725575 1.0225888 4.1167507
2.8247101 1.0290788 4.1242027
2.8722644 1.0337214 4.1236296
2.9348385 1.0161459 4.1249037
2.974926 1.0179163 4.1117926
3.0234683 1.0224967 4.1093817
3.0684102 1.025785 4.1012249
3.1236067 1.0442224 4.1030407
2.7793541 1.0735098 4.1090832
2.8346272 1.0790775 4.1292357
2.8792284 1.0827845 4.1240749
2.9259412 1.075532 4.1235442
2.9674587 1.0661987 4.1148071
3.0303288 1.0693521 4.1174731
3.0688274 1.0797344 4.1063199
-0.13660613 1.1341717 4.1416602
2.737263 1.1485265 4.1073298
2.7719533 1.1119232 4.1054587
2.8355541 1.1327705 4.1353068
2.8725028 1.1312728 4.1276312
2.9199538 1.1361598 4.1255865
2.9765515 1.1164379 4.1173058
3.0201259 1.1195712 4.1079135
3.0706897 1.1370101 4.1042566
2.7445438 1.1861255 4.1104441
2.7686548 1.1635792 4.1050711
2.8233767 1.1768019 4.139133
2.866961 1.1803985 4.1323919
2.9279988 1.1862334 4.1262703
2.9810026 1.1651542 4.1128592
3.0305359 1.1707022 4.1113081
3.078018 1.1753297 4.105792
2.7731271 1.2282034 4.1215773
2.8209777 1.222348 4.1247959
2.8755622 1.2308007 4.1337719
2.9299068 1.2317165 4.1265073
2.972877 1.219582 4.1122847
3.0271618 1.2237118 4.1098995
3.0665808 1.2229458 4.1022768
3.1138809 1.2251759 4.1042943
2.7829227 1.2695183 4.1189427
2.8309045 1.2733386 4.1279745
2.8805077 1.2776874 4.1382031
2.9177761 1.2881671 4.1269031
2.9731529 1.2681861 4.1170411
3.0262752 1.2684039 4.1056061
3.0764737 1.2864165 4.1005092
2.7715261 1.3140182 4.1226892
2.8251054 1.3228105 4.1310682
2.8758574 1.3300817 4.1342001
2.921824 1.3349907 4.1292439
2.9765003 1.3147022 4.1182966
3.0213943 1.3188407 4.1099963
3.0698514 1.3363161 4.102242
2.7426357 1.3809087 4.1083517
2.7770329 1.3748541 4.1156011
2.8245428 1.3673168 4.1268458
2.8761108 1.3849357 4.1366463
2.9295363 1.3858718 4.1274333
2.9699392 1.3644755 4.1200361
3.0164275 1.3694569 4.1137276
3.0804205 1.3768317 4.1065416
2.7484818 1.4303552 4.1043186
2.790827 1.4285202 4.1232495
2.8307948 1.4251809 4.1378942
2.8744013 1.4293294 4.1300826
2.9168849 1.43284 4.1199265
2.9716198 1.420442 4.1237106
3.0268221 1.4219611 4.1145372
3.0760379 1.4282105 4.1105757
3.1196201 1.4376025 4.1046128
3.1687379 1.4014611 4.1023712
2.7284 1.4901892 4.1048813
2.7567954 1.4813235 4.103394
2.8198838 1.4727092 4.1322117
2.8719082 1.4813662 4.1366582
2.9185829 1.4751639 4.1356554
2.97381 1.4671038 4.1220126
3.0291529 1.4688112 4.1128292
3.0747728 1.4834388 4.1091781
3.1312716 1.4732864 4.1025944
2.1351075 1.5392432 4.1222334
2.1832607 1.5417454 4.1109905
2.2359343 1.5473239 4.1073303
2.3862987 1.5424794 4.1068354
2.7346768 1.5286249 4.1039219
2.7719543 1.5480944 4.1084704
2.8278344 1.522287 4.1391087
2.8703191 1.5360632 4.1348987
2.9281185 1.5157894 4.1385531
2.9830101 1.5194921 4.1204934
3.0294342 1.5248387 4.1132708
3.0757096 1.5279485 4.1138821
3.1125906 1.5363257 4.1066122
2.0163972 1.5559084 4.1433673
2.3165855 1.5563607 4.1022625
2.3791227 1.5678864 4.1123886
2.4374249 1.583662 4.1380429
2.6219482 1.5752035 4.1045785
2.7708204 1.5775425 4.1232805
2.8225036 1.5749682 4.131628
2.8694313 1.5794934 4.1372967
2.9301889 1.5627564 4.1360517
2.9719553 1.5760069 4.128612
3.0289588 1.5788445 4.1211543
3.0776153 1.5853339 4.1157341
3.1210704 1.5647422 4.1101103
3.1657698 1.556772 4.1015406
3.2760236 1.5747968 4.1000042
2.7291563 1.6278248 4.1420269
2.772912 1.620986 4.1393356
2.8221552 1.6289575 4.1400261
2.8795409 1.6106951 4.1351061
2.9238803 1.6238961 4.1412635
2.9738514 1.6232103 4.1250296
3.025387 1.6316023 4.1244955
3.0702105 1.6240835 4.1176844
3.1243763 1.6211277 4.1051812
3.1900809 1.6422398 4.1088719
2.7214692 1.6539028 4.147018
2.7853777 1.6639045 4.1464715
2.8254771 1.6975096 4.1495295
2.8826771 1.6791263 4.1441393
2.9209135 1.6684718 4.1305823
2.9808042 1.6734484 4.1280146
3.020354 1.6856331 4.115921
3.0790954 1.665242 4.117384
3.127903 1.6718975 4.1106763
3.1601591 1.6760998 4.1051965
2.7830787 1.7292593 4.1473646
2.8151274 1.7343454 4.1463366
2.8918529 1.7205704 4.1451154
2.9206929 1.7234124 4.1380043
2.9691408 1.7306173 4.1338196
3.0234718 1.7219532 4.1169662
3.0782845 1.7116047 4.1089139
3.1314099 1.7311958 4.1126637
3.1713636 1.7311537 4.1024919
2.8370709 1.764497 4.145978
2.8808479 1.7692862 4.1367102
2.921277 1.7808785 4.1365247
2.9709866 1.7785116 4.1287203
3.0368145 1.7644023 4.1316795
3.0846968 1.7814378 4.1291261
3.1263156 1.7824941 4.121757
3.1657543 1.7821832 4.1107707
2.8435709 1.8046165 4.1426935
2.8834543 1.8267057 4.1473932
2.9233418 1.8274683 4.1409478
2.9753375 1.8265433 4.1361637
3.0191662 1.8188087 4.1284628
3.0749593 1.8302846 4.1316843
3.1144264 1.8301644 4.1214213
3.1793218 1.8163401 4.1096478
3.2271044 1.8312569 4.1131673
3.2682424 1.8316538 4.1024933
2.9009452 1.8986304 4.1498713
2.9676194 1.8658596 4.1359677
3.0137963 1.8718731 4.1270161
3.0666742 1.8818386 4.1260343
3.1309783 1.8679843 4.1146278
3.1812024 1.8741236 4.1172857
3.2304339 1.8811563 4.1078081
2.8398015 1.9387407 4.1408644
2.8717775 1.931869 4.1428843
2.9269292 1.9212815 4.147944
2.9761429 1.9201472 4.1290221
3.0220366 1.9260588 4.1192541
3.0695505 1.9313082 4.1203294
3.1210394 1.9172289 4.1161442
3.1721501 1.9257777 4.1101432
3.2215705 1.9206529 4.1059904
2.8441484 1.9659796 4.1376762
2.9240181 1.9654831 4.1441622
2.9764116 1.9773536 4.1343718
3.0296185 1.9880774 4.1341772
3.085377 1.9675879 4.1219063
3.132431 1.9832553 4.1256843
3.179671 1.9785987 4.1094718
3.2356443 1.9666421 4.1086326
2.8314118 2.0227323 4.1488948
2.8750122 2.0155065 4.1430259
2.926548 2.0136108 4.1477609
2.9937739 2.0259354 4.1434188
3.0298851 2.0336251 4.143888
3.0707626 2.0236988 4.1307392
3.1315994 2.0295525 4.1236382
3.1953895 2.0354424 4.1286907
3.2230234 2.0245049 4.1204596
3.2535205 2.0278749 4.1102581
2.8382325 2.0520349 4.1488719
2.8746519 2.0729518 4.1470237
2.9086108 2.0797107 4.1461535
2.9740226 2.0787783 4.1446042
3.020335 2.0727654 4.1397104
3.077014 2.0762415 4.1280651
3.1157322 2.0868931 4.1204877
3.163476 2.0686655 4.1202807
3.2210748 2.0816369 4.120841
3.2649474 2.0729058 4.108387
2.9348791 2.1155388 4.138041
2.9777966 2.1185851 4.133872
3.0270145 2.1258574 4.1374435
3.0825076 2.1272662 4.1338372
3.123775 2.1173592 4.1201859
3.1677513 2.1314914 4.118372
3.227514 2.1237102 4.1123934
3.2737644 2.1165364 4.1026688
2.9239018 2.1607597 4.1376233
2.9830797 2.1821773 4.1339016
3.0291967 2.1749084 4.138597
3.0744309 2.1679201 4.1309628
3.1241088 2.1763892 4.1228504
3.1724694 2.1824255 4.1219897
3.2316456 2.1630235 4.1106873
3.2571356 2.1857054 4.1022806
2.9763741 2.2227268 4.1428056
3.0274475 2.2213964 4.1337934
3.0691333 2.2232752 4.1258421
3.1159234 2.2172384 4.1194763
3.1791844 2.2136617 4.108839
3.216959 2.2223349 4.10781
-0.31924221 2.251899 4.1258249
-0.27590308 2.2621999 4.1228127
-0.22202942 2.2644691 4.1293864
-0.17479549 2.2790565 4.1174326
-0.14638481 2.2894683 4.129108
2.9261904 2.2849281 4.1436849
2.9768531 2.2710702 4.1408286
3.0280125 2.2698243 4.1317382
3.0745821 2.2879908 4.124114
3.1294177 2.2648134 4.1194849
3.1826921 2.2758381 4.1142764
3.2134254 2.2796474 4.1039596
2.8743391 2.3457239 4.1408982
2.9202137 2.3275456 4.1426096
2.9626143 2.3189182 4.1326723
3.0168409 2.3308232 4.1425939
3.0787108 2.3279243 4.1217232
3.1279316 2.3237338 4.1181293
3.1714983 2.3266454 4.110395
3.2316954 2.331022 4.108572
-0.10383013 2.3955855 4.1268892
-0.071210138 2.3913484 4.1436605
-0.023576899 2.3947966 4.1185842
0.0055075488 2.3951337 4.1035495
0.081749499 2.3965688 4.1053987
0.21926242 2.3950193 4.1343517
0.26872694 2.3910794 4.1371984
0.42343891 2.3978417 4.139318
0.56604826 2.3964124 4.1240606
0.64340913 2.3980064 4.1183496
0.67593741 2.39639 4.1115932
0.70774734 2.3924546 4.1006837
0.9157632 2.3980942 4.1284528
2.6984105 2.3971095 4.1492648
2.7915764 2.3887746 4.1482506
2.8236704 2.3949261 4.144568
2.883513 2.3782501 4.141932
2.9316525 2.3743718 4.1405115
2.9742575 2.3783574 4.1243505
3.0290926 2.3674943 4.1260929
3.0709019 2.369617 4.1176577
3.1158135 2.3738985 4.1125169
3.1827893 2.3615906 4.1019053
-0.060043637 2.4049149 4.1199808
0.027360497 2.4025066 4.116117
0.12606828 2.4104059 4.1282811
0.16980192 2.409781 4.1260433
0.23499432 2.4045362 4.1146669
0.29010731 2.4084547 4.1187825
0.33327678 2.4040549 4.1087899
0.37806377 2.4054911 4.1202021
0.41176826 2.4050803 4.1289663
0.47756633 2.4045157 4.1227179
0.52386284 2.404537 4.1423931
0.61223602 2.4050751 4.1342516
0.73337531 2.4045391 4.118485
0.82627845 2.4182217 4.1292324
0.8849709 2.4159796 4.1406727
1.0346837 2.416635 4.1403484
1.0707277 2.4222498 4.1434393
1.1247455 2.4179208 4.124661
1.1843641 2.4254327 4.125452
1.2311505 2.4290509 4.1214619
1.2794099 2.4354601 4.1217585
1.3286772 2.4431663 4.1237288
1.3774703 2.4379969 4.1279001
1.409546 2.4461446 4.1082697
1.476449 2.4405208 4.132103
1.5137868 2.4456086 4.1310344
1.5836715 2.4477057 4.1143379
1.6834592 2.4368997 4.1167927
1.7225313 2.4434323 4.1164742
1.7787836 2.4342813 4.1353798
1.8206193 2.4283168 4.1091723
1.8767908 2.4180248 4.12537
1.9493767 2.4361365 4.1345339
1.9860504 2.4380512 4.1242657
2.0348165 2.4372063 4.1229062
2.0594516 2.4321415 4.1421428
2.1265068 2.4414265 4.1336031
2.1840043 2.428977 4.1440525
2.2278135 2.4248843 4.1162906
2.2842424 2.4231713 4.1495652
2.316802 2.4196377 4.1270523
2.3712244 2.4263427 4.1158886
2.4329875 2.415976 4.1276951
2.4899552 2.4203424 4.1308479
2.5277593 2.4132075 4.1399298
2.5818346 2.4182525 4.1232615
2.616044 2.415098 4.1318407
2.6687906 2.418102 4.1216888
2.733351 2.4153812 4.1259003
2.7728381 2.4081721 4.1336508
2.8168311 2.4140182 4.1221876
2.8695154 2.4145195 4.1285391
2.9333959 2.4134862 4.1242504
2.9769995 2.4183383 4.1092248
3.0284166 2.4040082 4.1167307
3.0742896 2.4102876 4.1030746
1.3896056 2.4509013 4.1222706
1.4374962 2.4552183 4.1173701
1.5402248 2.4513307 4.1340675
1.5652326 2.4546421 4.1328869
1.6229346 2.4552245 4.1163883
1.6552424 2.4521308 4.1003728
1.7624213 2.4508624 4.1173415
2.4864321 -0.24306703 4.1509013
2.474664 0.015311097 4.1518493
2.4718986 0.12224634 4.1535997
2.5130014 0.16701713 4.1506629
2.4879129 0.2332945 4.1533628
2.5155129 0.21160692 4.1532545
2.4761896 0.32188493 4.1526766
2.5745809 0.33571205 4.1502137
2.4415441 0.38811511 4.1607041
2.4755738 0.37308455 4.1531167
2.5490317 0.37990147 4.1524401
1.8425775 0.44895193 4.1979818
2.1255906 0.43532833 4.190413
2.1779675 0.43713099 4.1913633
2.2244744 0.43770915 4.1800003
2.2688639 0.43785763 4.1640105
2.3227372 0.43979663 4.164453
2.3741155 0.44120148 4.1591749
2.4289575 0.43212962 4.1595931
2.4870803 0.42751485 4.1590734
2.524106 0.42408562 4.1550708
2.55019 0.40239665 4.1527209
2.0932212 0.47886518 4.1993084
2.1283388 0.46855265 4.1932497
2.1793118 0.47017476 4.1913276
2.2269545 0.47103345 4.1820207
2.2727582 0.47147575 4.1684909
2.3256679 0.47334301 4.1670122
2.3811994 0.47567812 4.1688509
2.43326 0.47724298 4.1633396
2.4791081 0.48197138 4.15377
2.5174952 0.47623828 4.1555142
2.5559216 0.48161328 4.1556802
2.093986 0.50079721 4.1989961
2.1313622 0.52375114 4.1944823
2.1805165 0.52509409 4.1888633
2.2304881 0.52658743 4.1838155
2.27687 0.52330625 4.1764627
2.3283238 0.51792997 4.1678562
2.3845019 0.52059734 4.1706758
2.4315393 0.51830703 4.1646628
2.4753308 0.52903056 4.1589088
2.5714562 0.5272454 4.1533051
1.5568162 0.56635797 4.1805429
1.6966572 0.59226584 4.1790848
1.7639114 0.59357518 4.1697178
1.8206419 0.59830719 4.1899624
1.8635615 0.59838885 4.1771331
2.0975881 0.5888375 4.197988
2.1280727 0.57467335 4.1916203
2.1817343 0.57544309 4.1779666
2.2303939 0.5813663 4.1782961
2.2833455 0.57655609 4.1733413
2.3298988 0.56948978 4.1706085
2.3742695 0.5760805 4.1714044
2.4127641 0.57348704 4.171576
2.4655218 0.56826627 4.1622176
2.5003479 0.55747288 4.1507912
1.5291651 0.63697445 4.1603365
1.5623499 0.63774276 4.1572742
1.6297107 0.62588632 4.1688976
1.6852726 0.62590718 4.1667304
1.7126273 0.62211382 4.1572132
1.828046 0.63153213 4.1662087
1.8663964 0.63254189 4.1615567
2.4658339 0.60174203 4.1592302
1.5828931 0.65234393 4.1800575
1.6178684 0.65373743 4.1805048
1.6757334 0.65577149 4.178863
1.727937 0.65554327 4.1622181
1.8378302 0.66089046 4.167027
1.8737953 0.6623162 4.1658077
1.907972 0.66307515 4.1601534
-0.30067506 0.96869773 4.1939025
-0.26918304 0.95522738 4.1825857
-0.22906241 0.98805237 4.1893573
-0.17785607 0.99640131 4.1817136
-0.12673941 0.99441427 4.1746244
-0.096097574 0.98222059 4.1680126
0.98530269 0.96993852 4.1754012
1.0389932 0.97193068 4.1753926
1.0726383 0.98459578 4.1784449
1.1098841 0.97976953 4.1980929
-0.23184207 1.0259364 4.1969972
-0.17341943 1.0258861 4.1943588
-0.13039763 1.023554 4.1786017
-0.095841452 1.0098803 4.1520648
0.97699451 1.0202255 4.1780038
1.1094347 1.021046 4.1895747
-0.16526352 1.0774075 4.1948261
-0.12688535 1.086912 4.163909
1.0470293 1.0628023 4.1938248
-0.17682059 1.1307755 4.1970353
-0.13081942 1.1150385 4.176209
-0.17821614 1.1616561 4.1627741
-0.20057079 1.2246857 4.1936769
-0.21216321 1.3667958 4.1908302
-0.18138376 1.3897183 4.1938734
-0.17495763 1.4282559 4.1977777
2.0835719 1.542317 4.1521382
2.110086 1.5453821 4.1518059
1.880951 1.5540912 4.1852484
1.9235034 1.552619 4.166204
1.9579148 1.5535548 4.1571054
2.0825381 1.5723068 4.1702757
2.1327252 1.5762203 4.1633301
2.1780481 1.5846704 4.1722665
2.2238691 1.5931911 4.1808853
2.4857409 1.6000104 4.1699529
2.5272408 1.6145639 4.170464
2.5775239 1.6257203 4.1690693
2.615046 1.6272461 4.1555662
2.6805446 1.6269145 4.1644816
2.5423574 1.6801023 4.1961699
2.5758646 1.6776304 4.1858106
2.6308813 1.676172 4.1817865
2.6768928 1.6673362 4.1719809
2.7164431 1.6762663 4.1665936
2.7704487 1.6802931 4.1511474
2.8255343 1.6736381 4.1575489
2.8674195 1.6652114 4.1501379
2.5489807 1.7198021 4.1957388
2.5675619 1.7361947 4.1972694
2.6188214 1.7166171 4.1786494
2.6717224 1.7188913 4.172936
2.7312102 1.7265749 4.1666207
2.7714322 1.717499 4.1583333
2.86235 1.7172797 4.1509018
2.5182374 1.7937045 4.196692
2.5740523 1.7791981 4.1893215
2.625937 1.767362 4.1836939
2.6806471 1.7722154 4.170783
2.7321625 1.7734398 4.1613383
2.7698607 1.7838151 4.1598501
2.8109233 1.7751055 4.1519904
2.8704398 1.7582464 4.1502004
2.5228157 1.8324463 4.1920462
2.5740879 1.8234825 4.1797047
2.6212835 1.8198037 4.1848202
2.6655667 1.8257242 4.1801209
2.7211137 1.8310301 4.1671348
2.7873468 1.8205309 4.1679039
2.8228478 1.8187853 4.1567287
2.8593178 1.8388033 4.1568613
2.5329957 1.8754307 4.1963611
2.5744593 1.8559595 4.1971078
2.6161766 1.8722221 4.1846676
2.6758084 1.880657 4.1789141
2.7256355 1.880778 4.166327
2.7708211 1.8643076 4.1599264
2.8221831 1.8744851 4.1625276
2.8773444 1.8775687 4.1546569
2.9292848 1.8768829 4.1505837
2.5854306 1.9236138 4.1932583
2.6286974 1.9290917 4.1870151
2.6793127 1.9299746 4.1763673
2.7227209 1.924394 4.1633682
2.7766056 1.9259733 4.1654034
2.8224971 1.9217864 4.1544762
2.5783772 1.9631634 4.1936827
2.6246316 1.9709734 4.1922131
2.6651764 1.9743354 4.1807108
2.7229195 1.9704221 4.1648445
2.7629709 1.9720519 4.1609039
2.8172719 1.9847751 4.1674576
2.8892899 1.9803156 4.1537433
2.5639579 2.0425506 4.1932631
2.6250098 2.017478 4.1941142
2.6749387 2.0178337 4.1817961
2.7312899 2.023838 4.1684165
2.7774282 2.0188589 4.1682286
2.8068953 2.0225956 4.1623821
2.8610907 2.0021071 4.1525779
2.9229646 2.044214 4.1572003
2.9665551 2.0241866 4.1548052
2.5716357 2.0848191 4.1912661
2.6286833 2.0677347 4.1907654
2.6818774 2.070595 4.1832485
2.7216351 2.0843928 4.1740813
2.7799771 2.0673149 4.1721568
2.8177114 2.0671034 4.1633797
2.8517613 2.0863628 4.1584148
2.9433053 2.0745358 4.1510286
2.9704404 2.0515559 4.1500149
2.5699914 2.1295903 4.199501
2.6187868 2.1284492 4.1960125
2.6722879 2.1316302 4.1887231
2.7220471 2.1316159 4.1745372
2.7798469 2.1141021 4.1716876
2.8251524 2.1318419 4.1686101
2.8779566 2.1335313 4.1556873
2.5190685 2.1757603 4.1988811
2.5803745 2.1867955 4.1959629
2.6222744 2.1792223 4.1912608
2.6783934 2.1731191 4.182744
2.7219112 2.1786866 4.173768
2.7680652 2.1738985 4.1731901
2.8227005 2.1772575 4.1639504
2.8772779 2.1793325 4.1636143
2.9382055 2.1878881 4.1505413
-0.32260418 2.2427731 4.1822901
-0.12585853 2.2343462 4.1989636
2.5309455 2.2346041 4.1977568
2.5802002 2.2260261 4.1988025
2.6267767 2.2311347 4.1876111
2.6812732 2.2114296 4.1815825
2.721735 2.2260258 4.1724391
2.769166 2.2230957 4.163384
2.8291624 2.2299159 4.1720695
2.8695083 2.220042 4.1608438
2.9321685 2.2175653 4.1557903
-0.30077711 2.2541001 4.1798663
-0.26411122 2.2594807 4.1752734
-0.22031368 2.2588489 4.1759849
-0.18039824 2.2644982 4.1796122
-0.13670979 2.2657096 4.1830392
2.5859551 2.2875214 4.1933866
2.639236 2.2668886 4.1861434
2.6821671 2.2831736 4.1915894
2.7293231 2.2807989 4.1721458
2.7642422 2.2668076 4.1543422
2.8255341 2.274127 4.1750817
2.8814678 2.2782478 4.1657443
2.9169655 2.2749147 4.1615496
2.956845 2.2518144 4.1541305
-0.12587976 2.3004313 4.1735649
2.4929724 2.3416822 4.1958132
2.5300915 2.3296845 4.194839
2.621573 2.3219221 4.1874013
2.6814754 2.3307769 4.1888189
2.7250736 2.3246524 4.1741762
2.7782571 2.3264859 4.1731567
2.8370516 2.333312 4.1688209
2.8724952 2.3192759 4.150188
0.012901199 2.3954179 4.1671205
0.094232425 2.3934216 4.1947842
0.11629413 2.3914762 4.1909633
0.29286429 2.3981242 4.1722221
0.33805683 2.3941762 4.1867962
0.53814596 2.3969605 4.176106
0.57048333 2.3930101 4.1659184
0.60459387 2.3965001 4.1685009
0.89919478 2.390847 4.1678886
2.2958648 2.3872604 4.1934571
2.3312209 2.3825247 4.1884437
2.4302757 2.3766215 4.1943569
2.4800556 2.377558 4.1834497
2.5250134 2.3855233 4.1792817
2.5724504 2.3709898 4.1897717
2.6294374 2.3781526 4.1768322
2.6718235 2.3830371 4.165699
2.7188056 2.3670464 4.1726737
2.7741592 2.3714387 4.1643863
2.8257799 2.3717437 4.1598535
2.8539889 2.3744781 4.150115
-0.038579252 2.4076481 4.1722417
0.049605127 2.4003994 4.1595979
0.093706667 2.4021299 4.162035
0.11566595 2.4006023 4.1589789
0.17128579 2.4090686 4.1722264
0.3366898 2.4065843 4.1604342
0.49442622 2.4001484 4.1857491
0.51676023 2.4006886 4.184691
0.62961644 2.4073551 4.1849217
0.67446822 2.4084656 4.1816235
0.74213588 2.4109306 4.1774235
0.82547766 2.4078608 4.1767178
0.86576128 2.4134035 4.163867
0.94714785 2.4215853 4.1650815
0.98030066 2.420404 4.1571321
1.0281225 2.4163098 4.1661205
1.0754859 2.4104872 4.1718388
1.1228797 2.4155455 4.1715336
1.1688502 2.4173684 4.1652088
1.2188295 2.4269137 4.1717048
1.2662871 2.4309051 4.1681595
1.314189 2.4355736 4.1653147
1.3646759 2.4445052 4.1692429
1.4583169 2.444639 4.1981697
1.5396876 2.4457631 4.177578
1.6700749 2.4447427 4.1912832
1.768344 2.440208 4.1786819
1.8215367 2.4373181 4.1832151
1.8580289 2.4273777 4.1794405
1.9372289 2.4268074 4.1785889
1.9755996 2.4186735 4.1771612
2.0131762 2.4213924 4.1682596
2.0730333 2.4244382 4.1806865
2.1333916 2.4220836 4.1714544
2.1691005 2.4150529 4.1826053
2.222816 2.4091625 4.1678233
2.2709973 2.4100249 4.1693177
2.3268023 2.4060087 4.1563964
2.3769884 2.4082696 4.1701546
2.4156559 2.410641 4.1678042
2.4641047 2.4104695 4.165731
2.5656352 2.4014819 4.161171
2.6453049 2.4183958 4.1580892
1.4315327 2.4612896 4.18295
1.4511522 2.4555852 4.1670928
1.5779198 2.4514043 4.1770992
1.629541 2.4596255 4.1770949
1.6716107 2.4532285 4.1518002
1.7233334 2.4543271 4.1928053
1.6361642 0.43727833 4.2480326
1.6816654 0.43803978 4.2437439
1.7219203 0.44808847 4.2250061
1.7636045 0.44786099 4.2104468
1.8126408 0.44946152 4.2126346
1.9383284 0.43229324 4.2215414
1.9829888 0.43262881 4.2103815
2.0320091 0.43388218 4.2076645
2.0810592 0.43509212 4.2039976
1.6831369 0.4704811 4.24506
1.7341509 0.47893152 4.2430377
1.7764518 0.48334187 4.2385497
1.8229527 0.48430255 4.2340531
1.8743782 0.46763027 4.2321315
1.9211817 0.47662365 4.234982
1.9730449 0.47402626 4.2193336
2.0303507 0.48103556 4.211782
2.0779645 0.46419072 4.2040992
1.7817953 0.52784336 4.2477069
1.9418933 0.52254713 4.2495279
1.9811767 0.53063256 4.2434187
2.0238709 0.53111911 4.2196946
2.0774357 0.53021044 4.2060122
1.6179866 0.58278155 4.2394843
1.6828367 0.57131594 4.2455864
1.7332819 0.56909513 4.242898
1.7701218 0.5706082 4.2447643
1.8017868 0.59913146 4.202292
1.9820423 0.58172017 4.2404923
2.0198026 0.57746851 4.222724
2.0711186 0.5756588 4.2079568
1.2116615 0.62422299 4.2162061
1.8497919 0.60084623 4.2010665
1.9083121 0.60582286 4.2220869
1.4985366 0.6522249 4.2008405
-0.27140301 0.98364258 4.214119
0.9700551 0.97538406 4.2019877
1.0364697 0.95845836 4.2120414
1.087117 0.96645749 4.2399893
-0.30327618 1.0182182 4.2236948
-0.27180597 1.0261159 4.2136621
-0.18932435 1.0444293 4.2044415
-0.30320191 1.0693424 4.2141328
-0.27223128 1.0791631 4.2118692
-0.23077784 1.0774902 4.2069616
-0.19286907 1.0724694 4.2025886
-0.30450237 1.125572 4.2232041
-0.27312678 1.1239259 4.2184043
-0.2250959 1.1187456 4.2088928
-0.30467698 1.1779065 4.2161126
-0.27349475 1.1770946 4.2146235
-0.22430664 1.1788757 4.2132139
-0.30509931 1.2209092 4.2140374
-0.27446163 1.2330148 4.21943
-0.23240945 1.2297716 4.2100048
-0.2749778 1.2768658 4.2190337
-0.2362054 1.2695621 4.2085629
-0.27534461 1.3201748 4.2160597
-0.24382205 1.3287004 4.2092595
-0.3087157 1.371491 4.2356553
-0.27671537 1.3684931 4.2278471
-0.23210616 1.3829805 4.212255
-0.30887732 1.4350446 4.2236395
-0.27731439 1.4238027 4.225215
-0.22478907 1.4329556 4.221004
-0.13019575 1.438656 4.2074442
-0.30973411 1.4810522 4.2254171
-0.2779949 1.4797955 4.2233052
-0.2255736 1.4800085 4.2260571
-0.17266153 1.4761779 4.2168541
-0.13060229 1.4744887 4.2130518
-0.099444866 1.4773991 4.2220144
-0.31166291 1.5325506 4.2413893
-0.27966899 1.530968 4.2384939
-0.22612803 1.5255889 4.2257462
-0.17288823 1.5202087 4.2125731
-0.13067141 1.5169811 4.2046671
-0.099324882 1.5175018 4.2066927
1.3587067 1.5499996 4.2470655
1.5441604 1.5390323 4.2397509
1.6730683 1.5464892 4.226716
1.7154173 1.5448503 4.2092533
1.7756801 1.5493349 4.2046061
-0.31216395 1.5773673 4.2374983
-0.28019249 1.576129 4.2357135
-0.22686945 1.5729905 4.2294297
-0.17368095 1.5692801 4.2211909
-0.13122708 1.5655019 4.2120509
-0.099884592 1.5681403 4.2197738
1.3811994 1.5507544 4.2440896
1.4063423 1.5544158 4.2489576
1.5337775 1.5616353 4.2384796
1.5773827 1.5612791 4.2257881
1.6258409 1.5656077 4.2253337
1.6796476 1.5747246 4.237278
1.7281901 1.5785801 4.2345362
1.7702317 1.5723542 4.2272601
1.8251681 1.5745198 4.2288361
1.8615749 1.5770185 4.2247057
1.919165 1.5988848 4.2351747
-0.31321242 1.6145225 4.2434525
-0.28031603 1.6191609 4.2265387
-0.22729559 1.6181974 4.2262015
-0.174123 1.6156567 4.2212639
-0.12129181 1.6156224 4.222477
2.0711379 1.6209718 4.2493038
2.1248682 1.627183 4.2484303
2.1763463 1.6314473 4.241828
2.2276874 1.6354423 4.2338891
2.2851372 1.6332256 4.2297664
2.3290079 1.6304539 4.2157831
2.3807092 1.6330038 4.2151341
2.4230466 1.6277453 4.2066956
2.4677756 1.6342866 4.2076135
2.5090892 1.6384431 4.201983
-0.31463611 1.6858833 4.2454672
-0.28158981 1.6689883 4.2341251
-0.22802325 1.6660266 4.2288232
-0.17497329 1.6764593 4.2272105
-0.12456153 1.6739554 4.2295818
2.1152759 1.6515594 4.2498317
2.1791208 1.6671467 4.2471118
2.2169302 1.6802206 4.2462101
2.2664456 1.6816884 4.243556
2.3163052 1.6842552 4.2305775
2.3657877 1.6748061 4.2196445
2.4200633 1.6685897 4.2162266
2.4754345 1.6745007 4.2098131
2.5154669 1.6778135 4.2016649
-0.31514227 1.7099706 4.2463436
-0.2753354 1.7238302 4.2334547
-0.22164667 1.7174139 4.2295423
-0.17554358 1.7351782 4.2261219
-0.12219813 1.7265906 4.2257957
2.2237463 1.7240424 4.2473063
2.2717943 1.7321589 4.2390952
2.3269696 1.7270019 4.2391076
2.3778412 1.7184132 4.2301173
2.4281473 1.7209815 4.2155452
2.4773197 1.7214388 4.2077694
2.5189126 1.7364054 4.2078052
-0.31593558 1.7785602 4.2385268
-0.27266282 1.7784581 4.2331343
-0.22443308 1.7750055 4.2340655
-0.17611143 1.7834808 4.2272925
-0.12279234 1.7777119 4.2339063
2.2394371 1.7806377 4.2432804
2.2750933 1.7803974 4.2403846
2.3311327 1.7651672 4.2354054
2.381783 1.7680992 4.2220087
2.4327312 1.7700781 4.2180228
2.4703896 1.7825068 4.2118764
2.5188746 1.7705576 4.2057505
-0.31638795 1.8347692 4.2285266
-0.27352154 1.8350463 4.2312527
-0.21782789 1.8294494 4.2374206
-0.17660224 1.8312664 4.22614
-0.12016278 1.8295852 4.2356892
2.223465 1.8448571 4.247416
2.2964902 1.8005388 4.2396054
2.3260076 1.8170426 4.2369118
2.3706386 1.8252783 4.2285843
2.4209385 1.8268399 4.2232904
2.4745243 1.8316591 4.2126956
-0.27455401 1.885054 4.233851
-0.22051579 1.8834627 4.2325258
-0.17723493 1.8808585 4.228117
-0.12773862 1.8780419 4.2285261
2.2305701 1.8859031 4.2489557
2.2683389 1.8763778 4.2434278
2.3215041 1.8697419 4.2391014
2.375459 1.875248 4.2309837
2.4285083 1.8798344 4.220047
2.4755394 1.8787374 4.2077446
2.5822337 1.8854303 4.2012167
-0.27542916 1.934266 4.2335033
-0.22116235 1.9321815 4.231195
-0.17773187 1.9291388 4.2259564
-0.12076969 1.9252561 4.230514
2.2349422 1.9248031 4.2449656
2.2892687 1.919307 4.2432661
2.3263502 1.9207734 4.2313371
2.3840163 1.9293561 4.2293725
2.430119 1.9275964 4.2159319
2.474612 1.9236035 4.208982
2.521512 1.9213187 4.2053652
2.5594659 1.9220369 4.2016363
-0.27626601 1.9834353 4.2319431
-0.22173426 1.9804881 4.2279577
-0.17850432 1.9809246 4.2303605
-0.12418457 1.9779912 4.2254539
2.2787583 1.9669441 4.2439771
2.3274226 1.9771996 4.2311959
2.3781874 1.9816949 4.2279596
2.4152706 1.982237 4.2247005
2.4731853 1.9683547 4.2091117
2.5275717 1.9728116 4.2076578
2.5733814 1.9924955 4.2018838
2.6060019 1.9991306 4.2038159
-0.27749744 2.0338066 4.2371345
-0.22278038 2.0332248 4.2329516
-0.17884088 2.0280802 4.2237158
-0.12434424 2.0236628 4.2158942
2.2669454 2.0369229 4.2435389
2.3187006 2.0289745 4.2358165
2.3709371 2.0331073 4.2234554
2.4290984 2.0188613 4.2192879
2.4793789 2.0202718 4.2115607
2.5313532 2.0228531 4.2057033
2.5784624 2.0204842 4.2008481
-0.30050379 2.088068 4.2374668
-0.26735342 2.0743582 4.2371912
-0.22327359 2.0813136 4.2271461
-0.17957638 2.0799565 4.2258787
-0.12932459 2.0756264 4.2235737
2.2308924 2.0719488 4.2437563
2.2716913 2.0767944 4.2386956
2.3207331 2.0778332 4.2316751
2.370805 2.0800607 4.2150645
2.4259679 2.0626888 4.2158723
2.4690027 2.0801055 4.2169642
2.5191491 2.0812383 4.2078075
-0.30082822 2.1341019 4.2262931
-0.27035019 2.1288204 4.232688
-0.22395894 2.1315205 4.2245607
-0.18012819 2.1300652 4.223208
-0.12553659 2.1308196 4.22616
2.2420385 2.1298976 4.2462921
2.2807951 2.1327932 4.2368574
2.3328407 2.1129596 4.2337408
2.3646121 2.1320438 4.2324977
2.4187233 2.1255839 4.2264552
2.4702435 2.1286297 4.2099853
2.5236607 2.1325274 4.2059822
-0.3022247 2.1769876 4.2337589
-0.26883376 2.1846008 4.2246814
-0.22478352 2.1831546 4.223753
-0.18058603 2.1792135 4.217658
-0.12573633 2.1777303 4.2161813
2.2317371 2.1789458 4.2458749
2.2758961 2.1752274 4.2405753
2.3177941 2.1692312 4.2303433
2.372716 2.1754112 4.2322016
2.430171 2.1839104 4.226572
2.4735925 2.1792238 4.2060742
2.5476222 2.1553137 4.2044301
2.5642068 2.171226 4.2006178
-0.30240178 2.2222478 4.219553
-0.26903409 2.2301483 4.2110648
-0.22489677 2.2282062 4.2092862
-0.18090332 2.2269177 4.2083683
-0.13158399 2.2227211 4.2142749
2.2321539 2.2270491 4.2486959
2.2705226 2.2175088 4.2430367
2.3215742 2.2205219 4.2278996
2.3747923 2.2252071 4.2263532
2.430429 2.2320712 4.2170849
2.4873378 2.2160223 4.2086077
2.516871 2.220752 4.2057605
2.5670872 2.2449982 4.2050934
-0.10490344 2.2657399 4.2332668
0.65343142 2.2789054 4.2474875
2.1320679 2.294178 4.2487049
2.18466 2.2753186 4.2489948
2.2285697 2.263443 4.2468228
2.2770674 2.2719917 4.2348156
2.3287542 2.2755601 4.2202649
2.3741899 2.2845685 4.2206001
2.412575 2.2702315 4.2253561
2.4720743 2.2726769 4.2143254
2.5307024 2.2817588 4.2073364
2.5723906 2.2740932 4.2029314
2.1182992 2.3284099 4.2454872
2.1923435 2.3314013 4.243031
2.2306776 2.3217888 4.2375479
2.2845597 2.3277164 4.2275629
2.3249884 2.3320117 4.2193451
2.3677588 2.3263586 4.2200179
2.4220181 2.3198552 4.21313
2.4747193 2.3235273 4.2077184
2.5885763 2.3376243 4.2070165
-0.10533487 2.3970613 4.2009587
-0.08381252 2.3939526 4.2444863
-0.039068837 2.3935392 4.2442346
0.027878616 2.3921642 4.2175379
0.083934531 2.3934236 4.2435446
0.20636298 2.3979697 4.224144
0.4869805 2.395956 4.227952
0.5852434 2.3858516 4.200644
0.62656671 2.3942816 4.2278533
0.66803002 2.3917394 4.2268572
0.71352977 2.3936126 4.2247038
0.75147122 2.3960321 4.2492747
0.82026631 2.398968 4.2450919
1.9828608 2.3826482 4.2493558
2.0231242 2.3880138 4.2454538
2.0797424 2.385699 4.2390637
2.1305401 2.3796051 4.2346883
2.1779552 2.3746789 4.2296371
2.2332256 2.3726189 4.2207699
2.2822809 2.3737476 4.2125478
2.3722122 2.3671727 4.2113719
2.4134917 2.3598294 4.2086096
-0.072260596 2.4039652 4.2135706
-0.027757969 2.4037418 4.2135725
0.061303336 2.4055212 4.2164335
0.17317253 2.4130077 4.2272673
0.22897875 2.4124789 4.2243857
0.26199713 2.4079399 4.2149854
0.3184588 2.4136162 4.222086
0.37426215 2.413198 4.2179413
0.41920134 2.4147043 4.2174511
0.46283764 2.4092095 4.2043805
0.54571486 2.4081576 4.2444019
0.56656504 2.401165 4.229887
0.73577708 2.4042673 4.2159562
0.77142364 2.4103811 4.2221704
0.81597185 2.4089293 4.213275
0.87846613 2.4261422 4.2348251
0.93394089 2.4116697 4.225172
0.96645057 2.4193778 4.2081099
1.0027562 2.4252286 4.2122869
1.1231961 2.4180498 4.2275691
1.1775399 2.4125166 4.2060966
1.2307372 2.4276443 4.2224731
1.2810512 2.4363275 4.2271214
1.3271911 2.4366455 4.2167635
1.3769377 2.4434257 4.2171144
1.4360988 2.4460566 4.206768
1.4975483 2.4480207 4.2481761
1.5388414 2.4396021 4.2206244
1.5757811 2.4428287 4.2161436
1.6341786 2.4373469 4.243824
1.7234039 2.4476326 4.2361388
1.7808951 2.4354665 4.2315793
1.8288752 2.4209566 4.224896
1.8766013 2.424015 4.2338414
1.9247885 2.4231107 4.2197151
1.968639 2.4067361 4.2245336
2.017431 2.4051018 4.2227154
2.0716574 2.4128566 4.2177753
2.1083131 2.4138346 4.2051773
2.1927865 2.4040098 4.211277
2.2191582 2.4065642 4.2055125
1.4161422 2.451436 4.2220783
1.4864596 2.453043 4.2063022
1.5123949 2.4576025 4.2076888
1.6290436 2.4530473 4.2199087
1.2384238 0.36905244 4.2915668
1.0684626 0.43792915 4.2679996
1.6745008 0.44965541 4.2548413
1.6323247 0.48192841 4.265502
1.6696002 0.48723435 4.254488
1.7221969 0.49387366 4.2517266
1.8819566 0.49929658 4.2561331
1.229957 0.54914844 4.2878342
1.6196263 0.52409893 4.2595091
1.6720409 0.52298087 4.2547541
1.7291086 0.52900809 4.2539806
1.7849319 0.52878958 4.255126
1.825341 0.53115368 4.2643971
1.8704836 0.53072292 4.2666831
1.9225905 0.5395534 4.2604656
1.9706813 0.54626322 4.2556386
1.2327993 0.59274644 4.2939095
1.620265 0.55638528 4.2583756
1.6701344 0.56472439 4.2542744
1.7969922 0.58312041 4.2500529
1.8186518 0.5710147 4.2641392
1.8712021 0.57876146 4.2638712
1.9282535 0.57587707 4.2585688
1.9697735 0.56783879 4.2516265
1.2062325 0.67440897 4.2702947
1.2103653 0.71897572 4.2802587
1.2170691 0.80799854 4.2936306
1.1339248 0.97969532 4.2923923
1.2488354 1.5490478 4.2682672
1.3142409 1.5490271 4.2542005
1.2279627 1.5502288 4.2760139
1.2839789 1.5519965 4.2694664
1.3380364 1.5513328 4.2556725
1.4304569 1.5568459 4.2503448
1.4671607 1.5609157 4.2533569
1.5033065 1.5642376 4.2541008
-0.31431139 1.641506 4.2526813
1.9334511 1.6334736 4.2602506
1.9768394 1.6298951 4.2720623
2.0208659 1.6172516 4.2560873
-0.31469369 1.6648473 4.2520947
0.23138715 1.6893766 4.2881632
0.26295197 1.6740682 4.2781858
1.9513556 1.6714976 4.2930794
2.0291739 1.656099 4.2952795
2.0767329 1.6689171 4.2785664
2.1375566 1.6723391 4.253366
-0.31636748 1.7380768 4.2567825
0.19926365 1.7014093 4.2895422
0.23133357 1.7211001 4.2778316
0.27545589 1.7173803 4.2966471
0.30802941 1.7291298 4.2944922
2.0389142 1.7218366 4.2987366
2.0726748 1.7211092 4.2843294
2.1191626 1.7213786 4.2677464
2.1673968 1.7230183 4.2540078
2.2094715 1.740423 4.2509899
0.22174478 1.789814 4.2841282
0.27603891 1.7642206 4.2932863
2.0785246 1.7723042 4.2820282
2.1281962 1.7751338 4.2713985
2.1777718 1.7777444 4.2596788
2.2163358 1.780756 4.2530174
0.23331782 1.8227481 4.2896509
0.27680606 1.8017063 4.2958379
2.083694 1.8231611 4.2777915
2.1333547 1.825933 4.2666731
2.1851187 1.8303745 4.2588205
2.2220802 1.8203695 4.2525826
2.2675986 1.8288722 4.258007
0.24490699 1.8501369 4.2959299
1.8214059 1.8621734 4.2991152
1.8983099 1.8700414 4.2946758
1.9132893 1.8849845 4.2946892
1.9801284 1.8820299 4.2983303
2.0316195 1.8867303 4.292459
2.0720377 1.8714371 4.2787113
2.1176202 1.879559 4.2645788
2.1676388 1.8820558 4.2637386
2.200839 1.868807 4.2502894
2.2545769 1.8512493 4.2525234
1.9749171 1.9232219 4.2934413
2.0190945 1.92082 4.2828512
2.0734406 1.9281101 4.281909
2.1215181 1.9289817 4.2776542
2.1750822 1.9354428 4.2620535
2.211318 1.9129188 4.2583303
2.2678282 1.9328468 4.2529197
1.8877637 1.9755031 4.2995572
1.9360082 1.9657109 4.2918115
1.9769499 1.9717677 4.2927761
2.0252445 1.9734075 4.2795711
2.080863 1.981914 4.2806935
2.132396 1.9745159 4.2763662
2.1793914 1.9745328 4.257926
2.2321489 1.9678895 4.2541246
1.9365765 2.0248199 4.2949944
1.9826417 2.0242538 4.2884121
2.0329497 2.0278001 4.2789378
2.0797226 2.0276194 4.2722173
2.1246738 2.0253639 4.2718525
2.1779723 2.017374 4.2579298
2.2262716 2.0203815 4.2529221
2.2666864 2.0129914 4.2519355
1.9255918 2.0725894 4.2948794
1.9715376 2.0838273 4.2948956
2.0148737 2.0802011 4.2814555
2.0627277 2.0811322 4.2769394
2.1210165 2.0687006 4.2686596
2.168828 2.0691445 4.2620921
2.2077918 2.0724726 4.2545877
-0.10411474 2.1061337 4.2547679
1.9192035 2.1253092 4.293128
1.9723125 2.1319852 4.2900839
2.0222788 2.1232171 4.2836761
2.0759962 2.1180849 4.2731037
2.1224017 2.1172581 4.2641954
2.1786141 2.125993 4.2629199
2.2169335 2.1286144 4.253644
1.8889997 2.1780505 4.2984152
1.9267012 2.1807637 4.2915692
1.9776673 2.1850271 4.2832284
2.0289595 2.165756 4.2839603
2.0803366 2.1700277 4.2745509
2.1313488 2.1737206 4.2633662
2.1795857 2.174468 4.2567883
2.2005029 2.1953878 4.2536449
1.8437902 2.2391639 4.2951517
1.8872972 2.2284679 4.2978568
1.9338 2.23614 4.2884498
1.9826691 2.2260725 4.2797818
2.0335293 2.2180943 4.2745757
2.0844526 2.221837 4.2637491
2.1246381 2.2266412 4.2590289
2.165889 2.2323658 4.2556157
2.2059448 2.2247434 4.2542663
0.61872518 2.2807877 4.2720437
0.67157716 2.2750609 4.2724118
0.71957397 2.2882383 4.2701917
1.9126282 2.2745805 4.2877297
1.9745545 2.2658703 4.2774763
2.0211411 2.2778027 4.2762814
2.0660257 2.2752473 4.2640648
2.111717 2.2734642 4.2528787
2.1620855 2.2767434 4.2614312
2.2150397 2.2819662 4.2514544
-0.1057358 2.3171043 4.2536497
1.8205678 2.3490856 4.2962527
1.8733182 2.3191516 4.2955604
1.9173526 2.3158412 4.2833414
1.9696801 2.3215623 4.2769022
2.0203581 2.3251262 4.2658806
2.0731435 2.3308964 4.2582316
2.1736648 2.3125305 4.2513995
-0.10660807 2.3811276 4.270503
-0.069298558 2.3921862 4.2743959
-0.039480444 2.3961871 4.2983685
0.0056700138 2.3976123 4.2515893
0.41243845 2.3956676 4.2829657
0.54827702 2.3968432 4.2737975
0.62836504 2.3891659 4.2769132
0.66421211 2.3846607 4.2900691
0.72033143 2.3825297 4.2794161
1.7775135 2.3892148 4.2944636
1.8198315 2.3837168 4.2791262
1.8688977 2.3722243 4.280324
1.9229615 2.3702691 4.2753439
1.9679241 2.3678706 4.264215
2.0240712 2.3652401 4.2580919
2.0626957 2.368479 4.2502055
-0.016799863 2.4072435 4.2686458
0.050831217 2.4145179 4.2813501
0.1298174 2.4154701 4.2818012
0.18526447 2.4024577 4.2572179
0.23046969 2.4056904 4.2613277
0.27596173 2.4104273 4.267714
0.32897961 2.4064667 4.2744784
0.37722385 2.4099495 4.2611475
0.4339104 2.4120343 4.26087
0.45685858 2.4142089 4.2629633
0.52513176 2.405652 4.2668037
0.58458292 2.4067349 4.2880821
0.70997632 2.4085844 4.2773447
0.77571183 2.4011192 4.2552586
0.82576621 2.4152975 4.2739511
0.88421237 2.4191656 4.272264
0.92071533 2.4137075 4.2823105
0.97598284 2.4204273 4.2595177
1.0246418 2.4275498 4.2639394
1.0765809 2.4251125 4.2671952
1.1226246 2.4185557 4.2809944
1.1721244 2.4256234 4.2841144
1.2268649 2.4197271 4.2613773
1.284171 2.4187269 4.2644792
1.3279029 2.4283445 4.2723432
1.3750597 2.4374268 4.2600455
1.4154799 2.4471507 4.2682223
1.4855014 2.4432096 4.2973537
1.5183189 2.4393554 4.2810383
1.5763019 2.4384048 4.2628803
1.6377252 2.4365957 4.2977877
1.674049 2.4399779 4.2745366
1.7251443 2.4297247 4.2765193
1.7647815 2.4221256 4.2679195
1.8037763 2.4136884 4.2574892
1.8840795 2.4019558 4.2650094
1.9231277 2.406209 4.2599158
1.4664083 2.4544206 4.2687187
1.524335 2.4536297 4.251462
1.1736225 0.32938454 4.3408322
1.2126291 0.33905077 4.3201666
1.1309173 0.37179959 4.3452883
1.1720591 0.37137818 4.3327885
1.2203685 0.37456608 4.3192582
1.1251172 0.43000281 4.3406487
1.1738439 0.42507103 4.3360338
1.22315 0.42024589 4.3209848
1.1207722 0.46756399 4.3427601
1.1740704 0.47826102 4.3331094
1.2261243 0.48280159 4.3324509
1.089415 0.53154421 4.3452435
1.12181 0.52116442 4.3426609
1.175436 0.52137083 4.3348289
1.229678 0.52184367 4.3287435
1.1352521 0.57576925 4.3470073
1.1773714 0.5755257 4.3374591
1.2240105 0.57489574 4.3239245
1.1900256 0.62985682 4.3378549
1.2170025 0.62725103 4.3139277
1.1378497 0.68391377 4.3464975
1.1747605 0.67754716 4.3456655
1.202858 0.67376637 4.3392491
1.1393291 0.70619959 4.3498297
1.1720612 0.70658565 4.3464022
1.21041 0.72744131 4.333663
1.1867173 0.79487634 4.3489175
1.2125218 0.7749753 4.3302279
1.2100638 0.82707214 4.3201518
1.2103651 0.87162554 4.3428364
-0.057693921 0.92464924 4.3397107
-0.015645722 0.94420058 4.3302279
1.2127903 0.91650844 4.3454618
-0.057932124 0.99176234 4.3483052
0.97402072 0.95816857 4.3212471
1.1482167 0.97047853 4.349823
1.1721326 0.98078012 4.3244681
1.2140086 0.98216605 4.3401222
-0.057795785 1.0315253 4.3315039
1.2061321 1.0079652 4.3068857
1.1959552 1.1041392 4.3373928
1.2211553 1.1073676 4.3459058
1.2142645 1.4067976 4.3464203
-0.081050321 1.5796595 4.3466835
1.2274536 1.5828977 4.3246198
1.2788755 1.5947108 4.3249626
1.3702815 1.598057 4.3146057
1.3309101 1.6152413 4.3378353
1.3701508 1.6333178 4.3459625
1.4233963 1.6079235 4.330893
1.4791842 1.6218204 4.3292322
1.527535 1.6347719 4.3356633
1.5687511 1.6197248 4.3290253
1.6228598 1.6288929 4.3414249
1.6736041 1.6343087 4.3433013
1.7207818 1.636024 4.3348484
1.771699 1.6411241 4.3348708
1.8197246 1.6433585 4.3268118
1.8563197 1.6454782 4.3216228
0.19969572 1.6835089 4.3047299
0.22129308 1.6620524 4.3101401
0.27557069 1.6748836 4.3103561
0.32077044 1.6852876 4.3350391
1.493953 1.6690867 4.3481989
1.524536 1.6771898 4.3400044
1.5813605 1.6590381 4.3441572
1.6235913 1.6636078 4.334033
1.6783847 1.673131 4.3461771
1.7283056 1.6774169 4.3441954
1.7801082 1.6832864 4.3457484
1.8202749 1.6778398 4.3297296
1.8781605 1.6665937 4.3276377
1.9181379 1.6681514 4.3191457
1.9886703 1.6837211 4.3165569
2.0229883 1.6835117 4.3038931
0.2001251 1.730401 4.302093
0.28685877 1.7317833 4.302124
0.33112296 1.7260954 4.3157024
1.5234247 1.7220323 4.349545
1.5725889 1.7262914 4.348424
1.6303341 1.715974 4.3390903
1.6787349 1.7190111 4.3340383
1.7283899 1.7231388 4.3312049
1.7832052 1.7320739 4.3399415
1.8363949 1.7299696 4.3390036
1.8822873 1.7158787 4.3349147
1.9303372 1.7176937 4.3243008
1.982139 1.7226671 4.3211064
2.018034 1.7237334 4.3116884
0.22202389 1.7541904 4.3005443
0.32614407 1.7854046 4.3326182
1.4533292 1.7647344 4.3468008
1.5276277 1.7722286 4.3482389
1.5673634 1.7667818 4.3458385
1.6335286 1.764907 4.3342104
1.6832708 1.7693295 4.3321843
1.732543 1.7730596 4.3279953
1.782203 1.7769473 4.3236985
1.8335142 1.7823029 4.3223915
1.8787446 1.758361 4.3241963
1.9314642 1.7734973 4.3300128
1.9757009 1.7735 4.3222337
2.0256262 1.776667 4.3136253
0.20137686 1.8283135 4.3039136
0.28859594 1.8294075 4.3030176
0.32015002 1.8365346 4.3376884
1.5677657 1.8019257 4.3493462
1.6398126 1.8059814 4.3405228
1.6718402 1.8271006 4.342217
1.7147124 1.8241674 4.3333597
