ply
format ascii 1.0
comment PCL generated
element vertex 1538
property float x
property float y
property float z
element camera 0
property float view_px
property float view_py
property float view_pz
property float x_axisx
property float x_axisy
property float x_axisz
property float y_axisx
property float y_axisy
property float y_axisz
property float z_axisx
property float z_axisy
property float z_axisz
property float focal
property float scalex
property float scaley
property float centerx
property float centery
property int viewportx
property int viewporty
property float k1
property float k2
end_header
1.5713673 1.2260576 2.73844
1.6238799 1.2310061 2.7230015
1.6764767 1.2198737 2.7080109
1.700447 1.2190889 2.7009065
-1.8256102 1.2759099 2.7226868
-1.4195192 1.2785004 2.7468877
-1.3814342 1.2687548 2.7432499
1.5440912 1.2789787 2.7479315
1.575514 1.2768704 2.7415416
1.6270636 1.2759694 2.7251368
1.676587 1.2706701 2.7103815
1.716801 1.270797 2.7026341
-1.8276266 1.3227549 2.7262881
-1.4516476 1.3335023 2.7465994
-1.4273396 1.3270155 2.7466147
-1.3877836 1.3253157 2.7433009
1.5379767 1.3260353 2.7467921
1.5741796 1.3230679 2.7399633
1.6253293 1.3195102 2.7240283
1.6731025 1.3253545 2.7092521
1.7118963 1.32462 2.7039497
-1.8350739 1.3728166 2.725271
-1.458454 1.3705955 2.7473922
-1.4225852 1.3840736 2.7430172
-1.3822702 1.3714451 2.7375779
1.5431162 1.3765796 2.7478218
1.5802587 1.376581 2.7404912
1.6289234 1.3756795 2.7280984
1.676578 1.3760046 2.711092
1.7149372 1.3742361 2.7045522
-1.8368158 1.4236654 2.7191598
-1.4702153 1.4128461 2.7430661
-1.4277436 1.4244893 2.7384856
-1.3834366 1.4262167 2.7395279
1.5494063 1.4056102 2.7494969
1.5720727 1.4278517 2.7429419
1.620548 1.4264277 2.7350152
1.6710123 1.4240066 2.7137868
1.7127237 1.416308 2.7054248
1.7505733 1.4456764 2.7032549
-1.8545372 1.4877417 2.7032099
-1.8388765 1.4804214 2.7324719
-1.4643342 1.4751036 2.7425706
-1.4227794 1.4762188 2.7333744
-1.390857 1.4786751 2.7396564
1.5856166 1.4719977 2.7444003
1.6265484 1.4713088 2.7322927
1.6737711 1.4727266 2.7177062
1.722159 1.4829684 2.7098749
1.7537138 1.464188 2.7009459
-1.8511877 1.5225282 2.7199454
-1.8429774 1.5328445 2.7261837
-1.4614644 1.5286293 2.7437537
-1.4220175 1.5223269 2.7329266
-1.3859457 1.5299841 2.7374258
1.5803007 1.5294333 2.7487113
1.6242636 1.5256034 2.7389035
1.6753296 1.5286711 2.7204521
1.7307254 1.522339 2.7085092
1.7656901 1.5452797 2.7060142
-1.832208 1.5659703 2.7272358
-1.4719559 1.5816172 2.7440205
-1.420948 1.5755541 2.7339909
-1.3887292 1.5709184 2.7376044
1.5796398 1.5604286 2.7470877
1.6282825 1.5743545 2.7402885
1.6726133 1.5811491 2.7259901
1.7217251 1.5738676 2.7114491
1.7594708 1.5630105 2.7054853
-1.4623429 1.6305548 2.7423973
-1.4287837 1.6223546 2.7399237
-1.3861643 1.6259693 2.738682
1.5880435 1.6007694 2.7465656
1.6288022 1.6255531 2.7449591
1.6739668 1.6263843 2.7275887
1.7270224 1.6267381 2.7114549
1.7653917 1.6242418 2.707159
-1.4712315 1.6833007 2.7453468
-1.4232142 1.6747377 2.737045
-1.390281 1.6627645 2.7389019
1.623913 1.6773369 2.7443767
1.6795598 1.6763469 2.7300835
1.7230929 1.6710824 2.7156885
1.7622596 1.6774254 2.7081926
1.8156964 1.6972396 2.7066798
-1.4573207 1.728774 2.741888
-1.4323931 1.7244711 2.7442944
1.6395683 1.7095518 2.7404673
1.6759231 1.7282975 2.7352631
1.7305412 1.7296965 2.7227404
1.7736554 1.7211908 2.7080119
-1.4788048 1.7576469 2.7488546
-1.4216063 1.7627813 2.7443841
1.6409268 1.7857442 2.7475181
1.6739645 1.7765818 2.7391875
1.7242367 1.7771537 2.7247231
1.7789018 1.7781066 2.7100463
1.6366053 1.8147527 2.744489
1.675711 1.824206 2.7358978
1.7210532 1.8202219 2.7249362
1.7725191 1.8259805 2.7110126
1.8121066 1.8201064 2.7026241
1.6753763 1.8789785 2.7405846
1.7296216 1.8772262 2.7334888
1.7736257 1.8641326 2.7089925
1.8152112 1.8793739 2.7038562
1.6736906 1.9221706 2.7442069
1.7233162 1.9307952 2.7339156
1.7758065 1.9246879 2.7196426
1.8177761 1.9160389 2.7021153
1.8538997 1.9186624 2.7005789
1.6864287 1.9706569 2.7443829
1.7285788 1.9727297 2.72961
1.7767214 1.9844967 2.7161431
1.8161108 1.9661071 2.7058699
1.6784239 2.0236893 2.7411594
1.7244544 2.0193453 2.729284
1.7734294 2.0267107 2.7152851
1.8111049 2.0220938 2.7063718
1.6843733 2.0754964 2.747246
1.7240574 2.0710423 2.7344067
1.7750736 2.0751216 2.7215176
1.8147563 2.088443 2.711132
1.6812309 2.1266291 2.7465885
1.7237495 2.1209834 2.7358236
1.7764721 2.1271224 2.7197394
1.8201542 2.1303556 2.7114418
1.866166 2.1340723 2.7050142
-2.6755352 2.1763055 2.7261417
1.6871519 2.1697628 2.742471
1.7291883 2.1676929 2.7324977
1.7786694 2.1694994 2.715987
1.8279302 2.1703196 2.7056694
1.8636754 2.1676102 2.7010078
-2.6746216 2.2317791 2.7190359
1.6876132 2.2455602 2.7440312
1.7196103 2.2211587 2.7346146
1.7694144 2.2229595 2.7235894
1.8176033 2.2273238 2.7156858
1.8558285 2.2142897 2.7006929
-2.6700678 2.2739043 2.7302976
1.6736237 2.2678614 2.7464817
1.7265025 2.2700355 2.7349064
1.7747761 2.2762625 2.7247972
1.82897 2.2767844 2.7067385
1.8547437 2.2787278 2.7032728
-2.6624699 2.3238454 2.7316182
-2.3431027 2.3497365 2.7361667
1.680142 2.3331404 2.7438822
1.7218106 2.314827 2.7376122
1.7701553 2.32603 2.7199626
1.8216507 2.329165 2.7035272
-2.6315546 2.3523109 2.7328687
-2.5693197 2.351198 2.7250524
-2.5253265 2.3571007 2.7177122
-2.4632561 2.3544025 2.7074916
-2.4264688 2.35623 2.7212989
-2.3687384 2.3562992 2.7134383
-2.3186047 2.3633232 2.7296031
-2.276201 2.3679197 2.719317
-2.226069 2.3643072 2.7237911
-2.1756356 2.3694351 2.7280815
-2.1196578 2.3675048 2.7156715
-2.0639679 2.3657393 2.7188184
-2.0262589 2.367857 2.7287555
-1.9728006 2.3679869 2.7248819
-1.925185 2.3636031 2.7251468
-1.871663 2.3662887 2.7222481
-1.8294005 2.3683643 2.7363405
-1.7774881 2.3668628 2.7321692
-1.7213978 2.3655086 2.7261262
-1.677212 2.3681631 2.737983
-1.6267265 2.3744428 2.7203677
-1.5786144 2.3757656 2.7206194
-1.5243464 2.3773713 2.7109816
-1.4802235 2.3852901 2.7246222
-1.4430716 2.3903794 2.7301092
1.6212562 2.3880496 2.7439985
1.6750799 2.3773103 2.7370927
1.7213076 2.3758638 2.7260268
1.7695735 2.366827 2.709703
1.8098881 2.381772 2.70573
1.8578947 2.3587554 2.7043459
-1.4723259 2.4097307 2.7439806
-1.4247541 2.406368 2.722986
1.5317742 2.4394138 2.7346096
1.5737039 2.4298158 2.731401
1.6271172 2.4253683 2.7242808
1.6750818 2.4224792 2.7197843
1.7277557 2.4140511 2.7088194
1.7730366 2.4074426 2.704206
1.5896878 2.4594235 2.7183585
1.6069801 2.4586494 2.7082937
-0.070156015 -0.50839961 2.7743471
-0.016703723 -0.53663915 2.7792764
0.0034239066 -0.52505022 2.7906985
0.54016542 -0.50262749 2.7849441
0.57465196 -0.50311643 2.7831314
0.9345957 -0.51020312 2.7578487
0.95796853 -0.51163357 2.7607131
1.0306042 -0.50627899 2.7956188
1.0817063 -0.50715733 2.787549
1.1325616 -0.5078283 2.7775738
1.2192166 -0.52888894 2.7915111
-0.31814772 -0.48231521 2.7699845
-0.28568786 -0.48397213 2.781903
-0.17366889 -0.47743386 2.7816792
-0.12360141 -0.48785162 2.7727487
-0.090385713 -0.4956992 2.7793579
0.59169102 -0.49235475 2.7989962
0.83756 -0.46475697 2.7582719
0.87187976 -0.46850395 2.7747259
0.91344839 -0.47215602 2.7887888
0.97721219 -0.49702933 2.7531588
1.0775312 -0.4943766 2.7986431
1.161485 -0.49702144 2.7918248
1.2074094 -0.48413199 2.7884715
1.2573024 -0.46987757 2.7745619
-0.30720776 -0.42410791 2.7684293
-0.29057857 -0.42753643 2.7700021
-0.17270866 -0.42192593 2.7616658
-0.30768389 -0.37548998 2.7555823
-0.29008424 -0.36678657 2.7708981
-0.16870497 -0.39703161 2.7528889
-1.2405281 -0.32492378 2.7697709
-0.30842665 -0.32883278 2.7661533
-0.17303316 -0.3240726 2.7574425
1.3534257 -0.30846697 2.7840548
-1.2442445 -0.29043996 2.7808299
0.28469485 -0.25480723 2.7582746
0.30858019 -0.25870454 2.7627337
1.3543704 -0.27993089 2.7881489
-1.3068407 -0.22765362 2.7790558
0.27738997 -0.2206192 2.7770827
0.30869371 -0.23889144 2.7649131
-1.3223648 -0.16194007 2.7732663
-1.3237089 -0.13044846 2.7703037
0.24381304 -0.11349498 2.791431
0.2619482 -0.13592093 2.7836571
-1.3157594 -0.084852159 2.7686336
0.28132391 -0.086025983 2.7648637
0.31694958 -0.080011755 2.7845991
-1.3252554 -0.025388459 2.7755735
-1.3281816 0.016840328 2.7724488
-1.3296355 0.076690182 2.7718964
-1.3323116 0.12645687 2.7847755
-1.3338933 0.16785672 2.777813
-0.22344899 0.17351246 2.7876608
-1.3362554 0.22197698 2.7828519
-0.22350314 0.20024997 2.7871673
0.88605988 0.2345634 2.792599
0.92278671 0.21975397 2.7702775
1.1335038 0.21074146 2.7866042
1.1734966 0.21163686 2.7881291
-1.3397402 0.26896521 2.7698371
-1.3514829 0.33018613 2.7778957
-1.3449339 0.31861824 2.7738931
-1.6483405 0.38392237 2.7504151
-1.3521869 0.36087215 2.7940273
-1.3473744 0.38114762 2.7819991
1.1842966 0.35373044 2.7848163
-1.7102743 0.42897621 2.7643912
-1.6746826 0.4215259 2.7652035
-1.6330048 0.43252045 2.7632954
-1.5796889 0.44020134 2.7527246
-1.3411266 0.42231631 2.764565
0.87883115 0.41047171 2.7556248
-1.7170312 0.47465655 2.7727587
-1.6785675 0.47592354 2.7677815
-1.6233582 0.47374022 2.7606902
-1.5791044 0.47780699 2.7551715
-1.5462271 0.49751988 2.7504151
-1.3534544 0.4767046 2.7840471
-1.3388406 0.47157562 2.7540123
-1.7228334 0.52923387 2.7840037
-1.6706517 0.52430063 2.7746718
-1.6222842 0.52542901 2.7749953
-1.5747867 0.52654529 2.7651885
-1.5327574 0.51252246 2.7565625
-1.353551 0.54895967 2.7745776
-1.3435631 0.51847285 2.7720265
-1.7137321 0.57228845 2.7807772
-1.6734754 0.57206845 2.7845681
-1.6244994 0.57707733 2.7774696
-1.5716256 0.57729751 2.7684469
-1.5225672 0.58028954 2.7559679
-1.3531829 0.57766467 2.7695255
-1.3472514 0.58862388 2.7911325
-1.7197351 0.6230942 2.789417
-1.6729579 0.62754822 2.7872715
-1.6241779 0.62720996 2.7811608
-1.5760595 0.62344891 2.7689579
-1.5256163 0.62288308 2.7594664
-1.4866873 0.628676 2.7522781
-1.3521899 0.6311385 2.776917
-1.3448706 0.60932595 2.7827988
-1.7932887 0.67826539 2.7542505
-1.7220846 0.67300928 2.7914641
-1.6747798 0.67319041 2.790693
-1.6266685 0.67667007 2.7839806
-1.5727633 0.67327869 2.774158
-1.5249108 0.67510456 2.7635007
-1.4660028 0.68769169 2.7528896
-1.3558639 0.67646891 2.776895
-1.7980224 0.73350692 2.7507501
-1.7219208 0.72593004 2.7903717
-1.6778189 0.72615379 2.7954087
-1.6238199 0.72383678 2.7865851
-1.5735277 0.72825378 2.7762864
-1.5313174 0.72716379 2.7681453
-1.4818389 0.7183755 2.7563872
-1.3587221 0.71989995 2.7840896
-1.3483891 0.72724992 2.7695575
1.3199946 0.73890698 2.7976475
1.3693972 0.74926138 2.7920189
-1.7218984 0.77603537 2.7847335
-1.6820221 0.77857703 2.7943332
-1.628849 0.77144217 2.7859311
-1.5727892 0.78215981 2.7790785
-1.5223567 0.77088672 2.7691722
-1.4858922 0.76736736 2.758832
-1.353691 0.77392924 2.7716613
-1.3485736 0.76782995 2.7803717
1.3314999 0.77793735 2.7966175
1.3723586 0.77866876 2.7850459
1.4220146 0.7764008 2.7748163
1.4687426 0.77576965 2.7757688
-1.7910379 0.82899654 2.75071
-1.7314802 0.82456684 2.7967165
-1.6783189 0.82629311 2.7941606
-1.6229655 0.8214488 2.7887921
-1.5713278 0.82560903 2.781019
-1.5258256 0.8211953 2.7724905
-1.4811019 0.82579529 2.7647109
-1.4429778 0.84184819 2.7628326
-1.3575183 0.81418234 2.7622139
-1.343658 0.80583411 2.78022
1.3397667 0.82848585 2.7948472
1.3740793 0.82552075 2.7861195
1.4187813 0.82583022 2.7706244
1.4642524 0.82329088 2.7742355
-1.8032671 0.89644182 2.7541497
-1.7979355 0.87069023 2.7518969
-1.7237524 0.87978238 2.7929049
-1.674185 0.87174714 2.7968371
-1.6223403 0.87025571 2.7938907
-1.5761142 0.87735242 2.7855046
-1.5245892 0.87449455 2.7753038
-1.4738392 0.87657952 2.7633965
-1.4439231 0.87196374 2.7577055
-1.3592678 0.86976576 2.7814996
1.337325 0.87394345 2.7968209
1.3776447 0.87199563 2.7833223
1.4235986 0.87302685 2.7698255
1.4693455 0.87336648 2.7704651
-1.8071952 0.92162514 2.7540221
-1.7963527 0.94728374 2.7629282
-1.7319384 0.92909652 2.7889977
-1.6730106 0.90818518 2.7996814
-1.6215911 0.92386216 2.7890003
-1.5775088 0.92761737 2.7832282
-1.527458 0.92107093 2.7739296
-1.4767808 0.92709595 2.7645459
-1.4405537 0.92254663 2.7564509
-1.3628407 0.91986996 2.7745798
1.3297726 0.91497862 2.7964959
1.3727558 0.91935802 2.7852755
1.4264497 0.92115653 2.7714415
1.4717572 0.92031324 2.7586694
1.5161245 0.92878193 2.7630763
-1.8012011 0.98875666 2.7594643
-1.7990791 0.96427017 2.7628257
-1.7281414 0.97699702 2.7961535
-1.6640816 0.98895943 2.7973182
-1.6276468 0.97853738 2.7934718
-1.5755327 0.97167253 2.7825305
-1.5231783 0.97609723 2.7723444
-1.4728609 0.96930015 2.7604673
-1.4429823 0.98481923 2.763706
-1.3684708 0.96957332 2.7731991
-1.3481615 0.98090136 2.7865815
1.3362777 0.97800094 2.7965312
1.3724655 0.97145665 2.7891221
1.4240638 0.96715796 2.7707922
1.4767243 0.97080737 2.7573335
1.8313054 0.98459178 2.7597277
-1.801411 1.0122268 2.7529931
-1.7433172 1.0226907 2.7960019
-1.6634487 1.0257097 2.7946832
-1.6263744 1.0235376 2.7939029
-1.5786933 1.0249618 2.7875092
-1.5277365 1.0265551 2.7778471
-1.4762564 1.022216 2.7667859
-1.4429133 1.0286751 2.7587776
-1.3611284 1.0255789 2.7803469
1.3395256 1.0283676 2.7972355
1.3772424 1.0271357 2.7879031
1.4231384 1.0204682 2.7717571
1.4714936 1.018876 2.7578592
1.7488432 1.0288398 2.7793891
-1.7979307 1.0896051 2.7581573
-1.7394826 1.071677 2.7853169
-1.6556904 1.0552446 2.7987053
-1.6230799 1.0769409 2.7959065
-1.5742607 1.073015 2.7830827
-1.5275892 1.0730006 2.7764053
-1.4755064 1.072739 2.7645295
-1.4284054 1.0820868 2.7576327
-1.3736459 1.0721974 2.7648418
1.339578 1.0810617 2.798403
1.376002 1.0752981 2.7856081
1.433394 1.0693514 2.7711754
1.473006 1.0701638 2.7567539
-1.8035293 1.1323203 2.7538929
-1.7301826 1.1217771 2.7948058
-1.6233202 1.1200861 2.7957149
-1.5745205 1.124668 2.7863207
-1.5244236 1.1261572 2.7738757
-1.4749933 1.1182336 2.7651303
-1.4189721 1.1326835 2.7574415
-1.3780447 1.124531 2.7657731
1.3448901 1.130601 2.7959442
1.3777966 1.1278268 2.7919545
1.423388 1.1180153 2.7782505
1.4727303 1.1173065 2.7612293
1.5139385 1.121749 2.7523134
-1.764855 1.1798838 2.7775528
-1.7474169 1.1524423 2.7919068
-1.6649427 1.188183 2.7987325
-1.6259718 1.1742675 2.7967691
-1.5729921 1.1754752 2.7856717
-1.5253226 1.1742629 2.7776899
-1.4760339 1.1739548 2.7658865
-1.4247617 1.1747916 2.7547457
-1.3804103 1.1736847 2.7701747
1.3321873 1.1627619 2.7970362
1.3769536 1.1747295 2.7903657
1.4274558 1.1706573 2.7783906
1.4788709 1.1714187 2.764524
1.5195111 1.1734706 2.7532308
-1.8122513 1.2247901 2.7640939
-1.7507716 1.2021016 2.7811196
-1.7447244 1.2327206 2.7963669
-1.6621827 1.2109134 2.7982719
-1.6225065 1.2238526 2.7967701
-1.5677592 1.2238442 2.7777669
-1.5297028 1.2258784 2.7758074
-1.4774106 1.222165 2.7636855
-1.4310697 1.2282513 2.7525377
-1.3670776 1.2170254 2.7750371
1.3759391 1.2225391 2.791971
1.4226359 1.2209649 2.7828727
1.4725282 1.2203519 2.7656357
1.517549 1.228346 2.7559712
-1.8124106 1.2822455 2.7614899
-1.7514869 1.2774066 2.7926948
-1.7496812 1.2601391 2.7956936
-1.6551108 1.2804952 2.7979262
-1.6261538 1.2714808 2.7933517
-1.5726255 1.2805492 2.7869477
-1.5227686 1.2770258 2.7756338
-1.4724892 1.2753886 2.7625096
-1.4457104 1.2669865 2.7580762
-1.3690397 1.2762047 2.7673402
1.3825433 1.2682798 2.7923532
1.4283141 1.2718157 2.7779591
1.478874 1.2758269 2.7677717
1.5182835 1.2766794 2.7531807
-1.8147249 1.3220432 2.7658455
-1.7539524 1.3111839 2.7845385
-1.7423849 1.3145033 2.7997675
-1.6244261 1.3286393 2.796484
-1.5763307 1.3206317 2.7876778
-1.5247687 1.3271605 2.7746155
-1.4775649 1.3204017 2.7584393
-1.3717717 1.3228369 2.7629952
1.3808275 1.3236332 2.7946985
1.4208245 1.3250819 2.7826183
1.4708018 1.3285179 2.7708569
1.5104746 1.3294698 2.7563674
-1.8189703 1.3720852 2.7660508
-1.7574407 1.3905381 2.7984138
-1.6252322 1.3733115 2.7940152
-1.5794445 1.3713384 2.7866209
-1.5234243 1.3720882 2.7676802
-1.4764042 1.3765391 2.7544477
-1.4411865 1.3687673 2.7503119
-1.368782 1.3693668 2.780791
1.3890759 1.3741308 2.7953629
1.4267089 1.3815317 2.7830691
1.4759358 1.3772905 2.7693496
1.5184282 1.3753178 2.7556961
1.5785689 1.3570011 2.750598
-1.8265123 1.4246074 2.7772856
-1.7540295 1.4039772 2.7863424
-1.7478217 1.4150895 2.7697561
-1.6747351 1.4304757 2.7981071
-1.6245105 1.4287463 2.7911341
-1.5724448 1.4218001 2.7784793
-1.5239061 1.4266285 2.7672539
-1.4822249 1.4400847 2.7519977
-1.3748697 1.4258438 2.7840741
1.3868922 1.4146034 2.7959535
1.4228402 1.4272956 2.790014
1.4746274 1.4206635 2.769027
1.5221702 1.4250841 2.7589378
-1.8268391 1.4635963 2.7648239
-1.6187675 1.4715548 2.78739
-1.573928 1.4738226 2.7776568
-1.5267044 1.4777448 2.7642922
-1.4949828 1.4605263 2.751168
-1.3810319 1.4788824 2.7772601
1.3949928 1.4619657 2.7963891
1.4239521 1.4728234 2.7883456
1.4747226 1.4766529 2.7759273
1.5252784 1.4747725 2.7639349
1.5602409 1.4780849 2.7558968
-1.8203735 1.5226316 2.7616832
-1.7615777 1.5048866 2.7975683
-1.7486787 1.5101067 2.769767
-1.6721584 1.5309811 2.7971115
-1.6207902 1.5288929 2.7925587
-1.5621219 1.5270931 2.7662365
-1.5277497 1.5192142 2.7639828
-1.4818496 1.5336447 2.7529693
-1.3771411 1.5143298 2.774888
1.4246079 1.5276674 2.7902956
1.4742254 1.5262103 2.7820995
1.5234799 1.5221546 2.7673573
1.5712423 1.5203643 2.754076
-1.8194212 1.5670313 2.7590923
-1.7711717 1.5844496 2.7798719
-1.7425393 1.5991963 2.7987237
-1.6560037 1.5876358 2.7932906
-1.6251462 1.5717335 2.7855282
-1.5761297 1.574494 2.7712398
-1.5326649 1.5756166 2.7681224
-1.4858698 1.5694933 2.7532158
-1.3851447 1.5870867 2.7852576
1.4384831 1.5780827 2.7922506
1.4726783 1.5725789 2.7796838
1.5236833 1.5788565 2.7709024
1.5695232 1.5822099 2.7573159
-1.7234349 1.6214494 2.7910058
-1.6831698 1.6388022 2.79809
-1.6249477 1.6271008 2.7862196
-1.5683465 1.6214577 2.7720973
-1.5173018 1.6241074 2.7536163
-1.4897493 1.6216116 2.7524421
-1.3813834 1.6142616 2.7630277
1.4331715 1.6214445 2.7972214
1.4769168 1.6256751 2.7875111
1.525915 1.6267284 2.7680337
1.5688123 1.6217099 2.7584765
1.606954 1.6359457 2.7568579
-1.6557641 1.6689405 2.796818
-1.6233125 1.6772914 2.7871966
-1.5721811 1.6743515 2.7755833
-1.525319 1.6790174 2.763248
-1.4886677 1.6610281 2.753072
1.4382377 1.6512222 2.7956975
1.4744651 1.6750965 2.7882955
1.521863 1.6700081 2.7733178
1.5742635 1.676191 2.7660573
1.6293058 1.6829023 2.7535458
-1.667461 1.7179799 2.7976494
-1.6134297 1.7251221 2.7854052
-1.5676353 1.7257717 2.7750697
-1.525084 1.7307823 2.7637143
-1.4901034 1.7367891 2.7563858
-1.4108242 1.7353501 2.7550354
1.4423686 1.7137549 2.7989953
1.4792224 1.7271551 2.7894793
1.5290257 1.7206651 2.7796695
1.5736064 1.7194314 2.7650316
1.6168979 1.7311628 2.7540972
-1.5818858 1.7503245 2.7680404
-1.4064405 1.7638413 2.7528725
-1.3965182 1.7635176 2.7759268
1.476306 1.7805077 2.7943833
1.5243446 1.7744077 2.7812397
1.580724 1.7742802 2.7699316
1.6256635 1.7701309 2.7532144
1.48579 1.8241546 2.7933812
1.5211215 1.8278311 2.7843809
1.5708766 1.8232192 2.772625
1.6221178 1.8306195 2.7577586
1.4963017 1.8826151 2.7978601
1.5292473 1.8768622 2.7854807
1.5722775 1.870482 2.7734578
1.6229038 1.8761145 2.7620718
1.6549757 1.8685042 2.7562397
1.4768362 1.9311202 2.795373
1.523035 1.9286588 2.7897379
1.5771456 1.9248455 2.7721887
1.621758 1.9197577 2.7594531
1.6500005 1.9322653 2.754734
1.5291077 1.9725511 2.7896359
1.5772098 1.9777402 2.7718523
1.6284374 1.9797995 2.7622659
1.6578443 1.9668062 2.7523572
1.5279467 2.0179305 2.7900488
1.5778209 2.0256228 2.779603
1.6247547 2.0258415 2.7647047
1.6540866 2.0335894 2.7510974
1.5270582 2.0682521 2.7933891
1.573264 2.0731032 2.7794545
1.6299013 2.07444 2.766938
1.6607397 2.0867028 2.7586346
1.4978892 2.146987 2.799525
1.5266569 2.113564 2.7902937
1.5721112 2.1258636 2.7849262
1.621677 2.1260459 2.7644584
1.6664735 2.1111176 2.7567129
-2.6747792 2.1731443 2.7573812
1.5283834 2.1770906 2.7944946
1.5757748 2.1683185 2.7771757
1.6276581 2.1713617 2.7600527
1.6684824 2.187175 2.754097
-2.6745195 2.228368 2.7673259
1.4957018 2.2294748 2.794703
1.528646 2.2198761 2.7915833
1.5754155 2.2236357 2.7828355
1.6269842 2.2257538 2.7642393
1.6714052 2.2278252 2.751153
1.7004158 2.2043297 2.7518303
-2.6711679 2.2718654 2.7802441
1.4808587 2.2901144 2.7973232
1.5328194 2.2784982 2.7943304
1.5775188 2.2680535 2.7801528
1.6246401 2.278728 2.765038
1.6610316 2.292352 2.7513773
-2.6662152 2.3153965 2.7748291
-2.6498744 2.3375888 2.7969825
-2.5775392 2.3479769 2.7652695
-2.4386849 2.3484938 2.7653744
-2.0096107 2.3483994 2.7697039
1.4839039 2.3228092 2.7931154
1.5269362 2.3246608 2.7886229
1.5775731 2.3221812 2.7760494
1.6264255 2.322988 2.76051
1.6691471 2.3213456 2.7517061
-2.6253822 2.3541515 2.7771719
-2.5684028 2.3576491 2.7916117
-2.533251 2.3631489 2.7758958
-2.4835684 2.3601253 2.772176
-2.4193902 2.3582406 2.7727799
-2.3747931 2.3621204 2.7870035
-2.3283741 2.3638153 2.7731528
-2.2828307 2.3658133 2.776062
-2.2227132 2.3620074 2.7782478
-2.1771796 2.3630037 2.778971
-2.1209509 2.3710713 2.7677822
-2.075464 2.3615365 2.7731822
-2.0347266 2.3561082 2.7669785
-1.9796444 2.3650646 2.7829814
-1.9107341 2.3658438 2.7707393
-1.8693452 2.3681517 2.7701042
-1.8163981 2.356822 2.7681618
-1.7737242 2.3572915 2.7719622
-1.7386239 2.355468 2.7675288
-1.6725907 2.3779244 2.7759807
-1.613043 2.3963149 2.7737889
-1.5558919 2.3949718 2.7605207
-1.5422843 2.3924575 2.78338
1.4754148 2.3821857 2.7904823
1.5279001 2.3761592 2.7749486
1.5768799 2.3739009 2.7644763
1.6192979 2.3673975 2.7541847
-1.5177329 2.4084165 2.7593799
-1.4825088 2.4086728 2.7765381
-1.4306191 2.4182978 2.7754734
-1.3882042 2.4162431 2.791388
-1.2893974 2.413866 2.7918637
1.3285021 2.4213872 2.7864053
1.3802586 2.430974 2.7870927
1.423515 2.4227886 2.7851837
1.4694517 2.4185257 2.7691963
1.5165228 2.4170961 2.7597206
1.5501055 2.4175282 2.7571156
1.4861422 2.450119 2.7562504
-1.0544187 -0.55741447 2.8336835
-0.064775974 -0.5053497 2.8339498
-0.030592602 -0.51807916 2.8276534
1.0773356 -0.50085908 2.8391275
-0.26894993 -0.47665381 2.820982
-0.17219494 -0.45927903 2.8044131
0.57145166 -0.49260175 2.803225
0.60730737 -0.49392831 2.8059909
0.97982049 -0.48793805 2.8279662
1.0225343 -0.49513769 2.8175495
1.0773445 -0.49389109 2.8259852
1.1354978 -0.49097809 2.8270271
1.1802301 -0.48762783 2.8193045
1.2349985 -0.47417766 2.8353841
1.273366 -0.4595286 2.8326283
1.3206979 -0.45655283 2.8310595
-1.2543982 -0.41910887 2.8295236
-1.2490143 -0.40291327 2.8188515
1.2248467 -0.42554149 2.8457401
1.2726089 -0.42032287 2.833143
1.3268396 -0.4201366 2.8285284
1.357356 -0.42414939 2.8347454
-1.2597628 -0.37734178 2.8458979
1.228768 -0.37639862 2.8474123
1.2743628 -0.37806809 2.8361964
1.3270842 -0.37783915 2.828733
1.3618942 -0.37476715 2.8223517
-1.2596003 -0.34099609 2.848748
1.2425351 -0.3181718 2.845222
1.2760404 -0.32620996 2.8366365
1.3246175 -0.32635453 2.8279579
1.3597196 -0.33150765 2.8186772
-1.258845 -0.27343625 2.8272774
0.33355412 -0.26220137 2.8230431
1.2421206 -0.27755329 2.8472371
1.2769395 -0.27466741 2.8368013
1.3221971 -0.27503881 2.8266068
1.3550812 -0.27145779 2.8164799
-1.2680218 -0.23686883 2.8194387
0.23380288 -0.2438578 2.827486
0.28763962 -0.20297273 2.8230455
0.32577023 -0.223869 2.8266962
1.2376375 -0.22349328 2.843955
1.2742884 -0.22358434 2.8339806
1.3235528 -0.2225116 2.8271861
1.3609023 -0.22596234 2.8138876
-1.3109578 -0.16766448 2.8145216
0.27622205 -0.17448932 2.8290594
0.31780857 -0.17410035 2.8373451
1.2413144 -0.16937168 2.8456051
1.2733119 -0.17290707 2.834281
1.3254443 -0.17204577 2.8262136
1.3600177 -0.17695242 2.8144925
-1.3169612 -0.11900406 2.8276505
0.24541984 -0.13439997 2.8092659
0.28525633 -0.1475846 2.8014748
0.31932566 -0.1443736 2.8238404
1.2360862 -0.1223039 2.8446186
1.2735152 -0.12166266 2.8308978
1.3201437 -0.12119164 2.8207693
1.3575548 -0.13406093 2.8285139
-1.3224202 -0.069996908 2.8283823
0.24484538 -0.093847513 2.8037279
0.27592349 -0.072670639 2.8286612
0.31910276 -0.063847043 2.8292732
1.2309258 -0.069684356 2.8419871
1.2658782 -0.076568812 2.8328149
-1.3265582 -0.028678516 2.8274186
0.2848492 -0.036256593 2.8447332
0.31981072 -0.032937344 2.8359218
1.224656 -0.030963967 2.8449497
-1.3259394 0.021845421 2.8202579
0.28922641 0.01365304 2.8429036
0.30268246 0.02044373 2.8405218
1.2182609 0.02410493 2.8363721
-1.3218288 0.072524719 2.8256552
1.2123961 0.079352885 2.8471999
-1.3297892 0.12107668 2.8324988
1.2239985 0.12514739 2.8477707
-1.3324087 0.17662373 2.8217163
-0.24121252 0.18356335 2.8386841
1.2247778 0.17809518 2.8476048
-1.3349994 0.22499602 2.8271332
-0.24222177 0.20479222 2.8496437
0.87774944 0.21690917 2.8381343
0.9279635 0.22419778 2.8310175
1.2217227 0.20923434 2.8453231
-1.3406029 0.27271488 2.8300531
-1.3406726 0.32389498 2.8237212
0.93752772 0.34865636 2.8057716
-1.3417006 0.37601772 2.8238344
0.88518369 0.37097591 2.8271332
0.973782 0.35424471 2.8457842
1.0368499 0.36112976 2.8278656
1.0816193 0.36840954 2.8341136
1.1205362 0.37099203 2.8279867
1.1701181 0.37523261 2.8255634
1.2083309 0.380279 2.8202896
-1.3503664 0.43707326 2.8178978
-1.3438141 0.4227832 2.8235755
0.89969826 0.4412255 2.8188443
0.91812587 0.42604405 2.8078423
1.0921438 0.40122485 2.8469505
1.1235663 0.42378315 2.8439834
1.1733642 0.42363653 2.8286464
1.213434 0.42504886 2.8278339
-1.3526628 0.46698931 2.819304
-1.3453368 0.475665 2.8233011
-0.23001619 0.49455911 2.8450232
0.92046005 0.45154485 2.8358364
1.0917645 0.47424173 2.8485291
1.12485 0.47457001 2.8416533
1.1766063 0.4751654 2.8308151
-1.3509314 0.52466291 2.8082483
-1.3446093 0.52788085 2.8306067
-0.23051766 0.5231716 2.8479631
0.89902782 0.50386578 2.8094749
0.92320019 0.50948745 2.8376734
1.0975133 0.51836342 2.8479071
1.1276063 0.52618706 2.8423536
1.1757363 0.52449006 2.831012
1.2100939 0.54070121 2.8316195
-1.3534129 0.56513792 2.8261142
-1.346396 0.57637143 2.8277073
1.1276499 0.57956642 2.8434341
1.173756 0.57807362 2.8301187
1.2145814 0.57568008 2.8281589
-1.3518932 0.64127797 2.829361
-1.3402628 0.6062966 2.8221271
1.129277 0.6209504 2.8435497
1.1754891 0.6253227 2.8353527
1.2201513 0.62509364 2.828373
-1.3557049 0.68249726 2.8182285
-1.3465272 0.66075808 2.81443
1.1374599 0.65434176 2.8491385
1.176659 0.67351824 2.8368022
1.226728 0.67002833 2.8255303
1.2603956 0.68708438 2.8240855
-1.3568463 0.72496885 2.8253429
-1.3463708 0.74215382 2.8367934
1.1411173 0.71478635 2.8483281
1.1731411 0.72434121 2.8419268
1.2266926 0.72554398 2.8269241
1.2729019 0.72518647 2.8109961
1.3218281 0.73050344 2.8032405
1.356196 0.73537189 2.8032272
-1.3540596 0.78991902 2.8064067
-1.3498776 0.75069851 2.8051832
1.176263 0.77709746 2.8433242
1.2249207 0.77538395 2.8271255
1.2764328 0.77891672 2.8129869
1.3094373 0.77791005 2.8040969
1.449707 0.76850075 2.8470185
1.5073246 0.76719177 2.8187225
-1.7241441 0.84910876 2.8010871
-1.3558424 0.82740343 2.8251863
1.1470116 0.80644363 2.8462348
1.1804111 0.82397991 2.8443949
1.224529 0.82398862 2.8309238
1.2754611 0.82364035 2.8130953
1.3201851 0.82202101 2.8038402
-1.6721143 0.89230001 2.8019009
-1.3553586 0.87405372 2.829016
1.1846188 0.86800516 2.8404167
1.2280617 0.87062788 2.8294334
1.2726947 0.8709051 2.8159943
1.3072804 0.86741495 2.8029995
-1.7148838 0.92187035 2.8013659
-1.676879 0.92763537 2.8015995
-1.3567388 0.92991245 2.8286815
1.1804302 0.91798592 2.8448269
1.2257761 0.92427129 2.8305712
1.27601 0.92393035 2.8150618
1.3103187 0.92200512 2.8029585
1.5421985 0.92955232 2.8145194
-1.7037853 0.97861165 2.8015175
-1.6755632 0.97172534 2.8017147
-1.357276 0.9780277 2.8276672
1.1868362 0.97314036 2.8450027
1.2246162 0.97677046 2.8294623
1.2765186 0.97858387 2.8136537
1.3123661 0.97442633 2.8044465
-1.7188044 1.0318846 2.8046529
-1.6950155 1.0292993 2.8069592
-1.3585838 1.0210481 2.8258374
-1.3483343 1.0220087 2.8153405
1.1891853 1.0313555 2.8465188
1.2235602 1.0327092 2.8353064
1.2738667 1.0313963 2.8193591
1.3108259 1.0310969 2.8057778
-1.7150091 1.0771719 2.8035104
-1.6749771 1.0803154 2.80545
-1.6397696 1.0704839 2.8005266
-1.3666419 1.0748212 2.8326097
1.1890546 1.0806078 2.847394
1.22557 1.079735 2.8332806
1.2787299 1.0803413 2.8175488
1.3156122 1.0798588 2.8033073
-1.7055992 1.1141499 2.8008015
-1.6759405 1.1301951 2.8032191
-1.6310407 1.1372504 2.8000267
1.1944734 1.1307544 2.8473685
1.2242806 1.130464 2.8370383
1.2750922 1.1292316 2.8210278
1.3232069 1.1332228 2.8054376
-1.7261144 1.1698326 2.8021727
-1.681131 1.1700915 2.8032069
-1.6373581 1.1729307 2.8006775
-1.4124451 1.1858801 2.8324389
-1.3735255 1.1694676 2.816541
1.1919384 1.1809337 2.8480039
1.2267504 1.1824793 2.8364644
1.2749892 1.1807956 2.8204069
1.3168504 1.1815211 2.8078022
1.3517497 1.1666245 2.800797
-1.7226818 1.2213522 2.8074629
-1.6829525 1.2289244 2.8067586
-1.6434007 1.2086507 2.8004224
-1.3686471 1.2193184 2.8304732
1.1916641 1.2491344 2.848479
1.2227789 1.2269611 2.8420849
1.2779217 1.2266854 2.825388
1.3301085 1.2223736 2.8085043
1.3561428 1.2008175 2.8000829
-1.7232972 1.2806798 2.8097053
-1.6833711 1.2671632 2.8098648
-1.3712353 1.2755182 2.8211126
1.2263917 1.2687519 2.8378401
1.2714525 1.26805 2.8264668
1.3219841 1.2681438 2.8133929
1.3576164 1.2827159 2.8036003
-1.7651072 1.3034316 2.8083816
-1.7222273 1.3308642 2.8045747
-1.6772913 1.3234135 2.8061488
-1.3683258 1.3264791 2.806504
1.1857809 1.3358314 2.8496349
1.2264932 1.3221672 2.8420827
1.2757134 1.318372 2.8254762
1.322716 1.3239446 2.8128028
1.357344 1.3232199 2.8026285
-1.756163 1.3652953 2.8061352
-1.7263809 1.3824724 2.8125093
-1.6730962 1.3764935 2.8034098
-1.3691435 1.3814087 2.8315015
1.1886866 1.3622055 2.8482962
1.2250361 1.3740304 2.8433213
1.2693108 1.3739285 2.828146
1.3230268 1.3744544 2.8141563
1.3669955 1.3822157 2.8039081
-1.7512274 1.4228603 2.8126729
-1.7213382 1.4264306 2.8125441
-1.6633638 1.4115592 2.8030629
-1.3796035 1.4313064 2.8378267
1.2369697 1.4335053 2.8458779
1.274924 1.4245938 2.8303087
1.3240789 1.429575 2.8174388
1.3707082 1.4264836 2.8043988
-1.759644 1.4705671 2.8088291
-1.7282804 1.4819195 2.8149505
-1.6773895 1.4746755 2.8050804
-1.3751981 1.4779732 2.8193278
1.2305653 1.4714266 2.843097
1.2742298 1.4698586 2.8331079
1.3248692 1.4739196 2.8187857
1.3706745 1.4747001 2.8076968
-1.7534946 1.536671 2.8082237
-1.726792 1.5217695 2.8094139
-1.6738353 1.508414 2.8037367
-1.6431096 1.5025481 2.804615
-1.381717 1.5296767 2.8483596
1.2405659 1.5237334 2.8455732
1.2764467 1.5244149 2.8345201
1.3251146 1.5262046 2.8207695
1.375432 1.5297188 2.8092656
-1.7594163 1.5665853 2.8063371
-1.7224902 1.5793918 2.8090692
-1.6852525 1.5702529 2.8065464
-1.3848867 1.5561881 2.8217354
1.2215092 1.597566 2.8475573
1.2734277 1.5727025 2.8404338
1.324066 1.5736195 2.821104
1.3708223 1.5799299 2.8125281
1.4102027 1.5750974 2.8029442
-1.6760025 1.6153519 2.8013654
-1.3851689 1.6293578 2.8126962
1.2408718 1.6101021 2.8468003
1.2764226 1.6229485 2.8406134
1.3245053 1.6234254 2.8239918
1.374734 1.6263871 2.8107557
1.4075142 1.6194745 2.8036556
-1.7631426 1.6846189 2.8134909
-1.7173487 1.6726042 2.8047872
-1.6799188 1.6766528 2.8015203
-1.3939434 1.6718361 2.8152578
1.2875016 1.6771486 2.8467879
1.3181678 1.675366 2.8319371
1.3691149 1.6789135 2.8194466
1.420167 1.6788946 2.8074162
-1.7588348 1.721941 2.8146665
-1.7263637 1.7230971 2.8115721
-1.6742986 1.7346926 2.8040142
-1.3950301 1.7089223 2.8489163
1.282042 1.7216377 2.8442647
1.3249623 1.7226832 2.8350284
1.3777256 1.7218099 2.8213456
1.4244368 1.7252111 2.8050163
-1.3995668 1.7634765 2.8337762
1.2874866 1.7795702 2.8488867
1.3232073 1.7773288 2.839606
1.3710581 1.7745291 2.8268702
1.4219285 1.7771369 2.8111205
1.4547055 1.7692086 2.8020329
1.284642 1.8195477 2.8468518
1.3299448 1.8257576 2.8411877
1.3792149 1.8260487 2.822325
1.4271841 1.8271606 2.8085413
1.4621043 1.8459063 2.8048167
1.3250313 1.8730382 2.84203
1.3710823 1.8700132 2.8281333
1.4251871 1.8762363 2.817167
1.4683741 1.8786697 2.8030262
1.3361547 1.9306949 2.8455288
1.3724022 1.9191313 2.8313591
1.4247242 1.9198235 2.8174741
1.4670147 1.9180579 2.8026078
1.3458245 1.9964745 2.8476224
1.3764719 1.9756143 2.8380277
1.4246565 1.9713545 2.8217022
1.4738166 1.9659483 2.8032136
1.5009578 1.9853524 2.8014185
1.2967271 2.0319159 2.8499253
1.3396499 2.0165744 2.8456929
1.3735464 2.034596 2.8392177
1.4212413 2.0273163 2.8253369
1.472257 2.0173438 2.8105621
1.5118032 2.0336101 2.8009315
1.3312627 2.0717056 2.8448992
1.3773857 2.0775487 2.8358078
1.4225965 2.0817215 2.823668
1.4716145 2.0744212 2.8143282
1.5064675 2.0835593 2.8090546
1.334443 2.1325877 2.8466785
1.368894 2.1246188 2.8389838
1.4238157 2.1302812 2.8249376
1.4751163 2.1245768 2.8059943
1.5085555 2.1035607 2.8019853
-2.6647048 2.1731997 2.8225937
1.3429062 2.1718998 2.8481417
1.3785272 2.1739602 2.8367584
1.4245726 2.178735 2.8247261
1.4704213 2.1829317 2.8110497
1.5142473 2.1667423 2.8042281
-2.6671131 2.2309675 2.8164399
1.3318748 2.2193108 2.8435678
1.3741214 2.2251925 2.8377709
1.4232206 2.224534 2.8196497
1.4690309 2.2284522 2.8053479
-2.6681252 2.266202 2.8265426
1.3325669 2.2667997 2.8454912
1.3749359 2.2691419 2.8353763
1.42665 2.2785115 2.8234746
1.4698362 2.2749069 2.8052013
1.5096053 2.2764757 2.8023107
-2.6642752 2.3100865 2.8392203
-2.6355333 2.3325567 2.8250372
-2.5659585 2.3446226 2.8209229
-2.3977866 2.3458812 2.8418183
-2.3211927 2.3471613 2.8475187
-1.7785057 2.3484316 2.8189516
1.3341113 2.3280921 2.8405535
1.3693415 2.3197739 2.8327684
1.4260334 2.3266499 2.8185406
1.463341 2.3302116 2.8071218
-2.6036568 2.3518212 2.806982
-2.551172 2.3599849 2.8092787
-2.5212259 2.3597116 2.8311427
-2.4799581 2.3585801 2.8330197
-2.4257514 2.3542688 2.8206177
-2.3739567 2.3514972 2.8182809
-2.3304837 2.3564074 2.8247902
-2.2763693 2.359895 2.8274105
-2.2331264 2.3644805 2.8408554
-2.1718626 2.3587661 2.8230786
-2.1246641 2.3580821 2.8290613
-2.0747821 2.3637292 2.8319862
-2.0267103 2.3605571 2.8258286
-1.9803233 2.3592038 2.8294179
-1.9352541 2.3683 2.8269439
-1.8722575 2.3686888 2.8248162
-1.8158838 2.3615727 2.8193154
-1.758649 2.3552668 2.8196316
-1.7148321 2.3847837 2.8266487
-1.6159753 2.3960009 2.8124683
-1.5664032 2.3710246 2.8397088
-1.5289694 2.3759601 2.8382483
-1.4673271 2.3916945 2.8371994
-1.42223 2.3848362 2.8278499
-1.3983784 2.3983953 2.838418
-1.3175215 2.3982384 2.8337877
1.2813444 2.385114 2.8425229
1.3242201 2.3750451 2.8315191
1.3746957 2.3744087 2.8191078
1.4224638 2.3704696 2.8071394
1.4605858 2.3663523 2.8034239
-1.6904172 2.4071057 2.8324013
-1.5716835 2.4013462 2.8021164
-1.5062566 2.4202576 2.8413382
-1.3771523 2.4056623 2.829004
-1.3216695 2.406589 2.8248792
-1.2748852 2.4156051 2.8223708
-1.2282146 2.4171269 2.8350048
1.1785852 2.4195657 2.8421075
1.2187847 2.4158518 2.8370032
1.2728918 2.4235511 2.8305283
1.318442 2.4138968 2.8083601
1.3796365 2.4077814 2.8025041
-1.3265204 2.4501522 2.8266101
-1.083321 -0.55053651 2.8705719
-1.0918174 -0.54752487 2.8510675
-1.0463098 -0.54635459 2.8561702
-0.065978572 -0.50043774 2.8859701
-0.027608 -0.51167637 2.8699389
0.010469303 -0.51843739 2.8684721
-0.10701875 -0.45588672 2.871732
-0.086616509 -0.47809696 2.8795304
0.48922148 -0.45785317 2.8581707
0.53941488 -0.49343216 2.8961816
0.55410892 -0.49395934 2.8975139
0.62508512 -0.4872179 2.8905854
0.66201031 -0.46714914 2.8946691
0.87674963 -0.4683525 2.8639767
0.92135447 -0.46942762 2.8853421
0.97316623 -0.48101199 2.877965
1.026747 -0.47518381 2.8847387
1.0746919 -0.47666836 2.8727486
1.1181668 -0.47093183 2.8721218
1.1729283 -0.46649668 2.865613
1.2224011 -0.46541506 2.854991
-1.2568128 -0.41746154 2.8733487
-0.10752991 -0.42336565 2.8888712
-0.086686157 -0.42325136 2.8886018
0.48217833 -0.44386941 2.8596826
0.98620343 -0.42298514 2.8945599
1.0272148 -0.42769867 2.8890538
1.0729102 -0.42606273 2.8781235
1.1254464 -0.42369613 2.8700333
1.1787429 -0.42528626 2.8585303
1.2070765 -0.42507759 2.8520708
-1.2631547 -0.37540606 2.8920741
-0.11571451 -0.37711436 2.8894982
-0.086883649 -0.38945615 2.8984487
1.0282484 -0.37881899 2.8947599
1.0737139 -0.37577087 2.8851285
1.1261574 -0.37637043 2.876395
1.1776462 -0.376618 2.8642225
1.2105814 -0.37150261 2.8526859
-1.261169 -0.31234148 2.8546233
1.0343676 -0.32413095 2.8968494
1.0729626 -0.32495186 2.8873022
1.1243756 -0.32517898 2.8761015
1.1760402 -0.32545382 2.8645961
1.2176297 -0.32862577 2.8549731
-1.2725646 -0.27117655 2.8835359
0.33236754 -0.28771436 2.8507051
1.0367334 -0.27109027 2.8954494
1.0712206 -0.27392709 2.886199
1.122748 -0.27416924 2.8755856
1.1740372 -0.27432397 2.8633654
1.2146273 -0.27254605 2.8552864
-1.2807283 -0.24197629 2.8849277
-0.21583152 -0.22623873 2.893244
-0.18360984 -0.22174957 2.8966303
0.25838491 -0.20665103 2.8763373
0.34974799 -0.20768057 2.8845594
1.0317355 -0.22402143 2.8958392
1.0777392 -0.22329552 2.8854241
1.128837 -0.22340351 2.8737171
1.1727636 -0.22352004 2.8632717
1.2102027 -0.2237561 2.8560123
-1.3163538 -0.17855103 2.8803384
0.25421518 -0.1762692 2.8770568
0.349417 -0.1936487 2.8824492
1.0353935 -0.17563632 2.8966663
1.0765728 -0.17264847 2.8846605
1.127654 -0.17273919 2.8730941
1.1746914 -0.1714237 2.8625774
1.216295 -0.17714497 2.8534467
-1.3125665 -0.12918879 2.8738804
1.0345386 -0.11918686 2.8974216
1.0776258 -0.12236103 2.8891919
1.1277024 -0.12230162 2.8749611
1.1764207 -0.12275065 2.8606327
1.2120409 -0.12091112 2.8531039
-1.3128902 -0.072897345 2.8697188
0.25935885 -0.063954361 2.8657894
1.0367442 -0.075428188 2.8967609
1.077059 -0.071872115 2.8888223
1.1271343 -0.071837321 2.8746734
1.1751896 -0.070486881 2.860245
1.210237 -0.081515618 2.8549206
-1.3189038 -0.029055033 2.8729675
0.26851839 -0.031932671 2.8655407
0.34578219 -0.041026399 2.8563733
1.0412012 -0.028662799 2.8988132
1.076878 -0.02864223 2.8888404
1.1273198 -0.028626658 2.8756099
1.1773046 -0.028600886 2.8605473
1.2132809 -0.028591007 2.8500371
1.2659647 -0.036294669 2.8768861
-1.3256618 0.025896512 2.8751945
0.27893564 0.018386558 2.8785245
0.32538119 0.020597011 2.8590901
1.0364976 0.032539621 2.8965344
1.0764747 0.021771895 2.8877306
1.1267967 0.021784747 2.8742769
1.1777624 0.021811241 2.861629
1.2202238 0.021840315 2.8567293
-1.3224192 0.073595047 2.8757472
1.0406784 0.064974539 2.8969007
1.0772134 0.072226472 2.8891437
1.1275748 0.072231248 2.8756704
1.1772193 0.072196521 2.8597262
1.2260327 0.072600476 2.8601136
-1.3266683 0.12062518 2.8764656
1.0414255 0.12267545 2.8976383
1.0776764 0.12270615 2.8891397
1.1277986 0.12268752 2.8750288
1.1759021 0.12213381 2.8591769
1.2185673 0.12288765 2.8541548
-1.3279527 0.17957477 2.8770554
-0.24274042 0.16419242 2.8575008
0.9416213 0.1991145 2.8741589
1.0306877 0.17510392 2.8970201
1.0774153 0.17312795 2.8866241
1.1274599 0.17308214 2.8723431
1.1715412 0.17322099 2.8624122
1.2108774 0.17095299 2.8534527
-1.3296362 0.22576405 2.8758814
0.92996997 0.22815716 2.8837247
0.99623495 0.20154768 2.8992839
1.0261918 0.20178716 2.8957424
1.0771292 0.20190054 2.8845816
1.1278082 0.20195924 2.871913
1.1718069 0.2021035 2.8617477
1.2206347 0.20303428 2.862041
-1.3332732 0.27606362 2.8789277
-1.3340344 0.32545653 2.8848076
0.75005591 0.33109802 2.8761854
-1.3379383 0.37131432 2.8707926
0.84557849 0.35689184 2.8965106
0.88039565 0.3565523 2.8864918
0.97319156 0.38184938 2.870713
1.0221102 0.37944007 2.864439
1.0578371 0.38180611 2.8551214
-1.3369614 0.42254663 2.8742142
0.92480057 0.43574524 2.8748751
0.98032153 0.42527446 2.877073
1.0230528 0.42374161 2.8701246
1.0711367 0.42489538 2.8556685
1.2260936 0.40770158 2.8596077
-1.3409331 0.4707368 2.8761272
-0.24639957 0.49993148 2.8751621
0.93111414 0.48060599 2.8819847
0.97741693 0.47659779 2.8839598
1.0250173 0.47491443 2.8701897
1.0667471 0.47508541 2.8607409
-1.3388628 0.52601784 2.8677967
-0.22485387 0.51928794 2.8655124
-0.17714633 0.52814358 2.8776381
-0.14823978 0.52428883 2.8576875
0.925776 0.52505028 2.8922534
0.97632229 0.5254885 2.8858123
1.0256253 0.52840179 2.8723059
1.06984 0.52610391 2.8575442
1.1011751 0.54897058 2.8536286
1.2305104 0.5260241 2.8563385
-1.3434448 0.57450825 2.8837521
0.94499803 0.57945693 2.8970611
0.97530138 0.57854831 2.8851712
1.0251435 0.57864058 2.8736048
1.0728171 0.57814193 2.8586779
1.1013255 0.57071459 2.8510199
-1.3453162 0.63012779 2.8731208
0.94680309 0.61684263 2.897419
0.97528893 0.62378109 2.888093
1.0256109 0.62351876 2.8745816
1.0756445 0.62313765 2.8598001
1.1094953 0.62316042 2.8508508
1.2528505 0.64688152 2.8522451
-1.3473175 0.67586571 2.8672655
0.98483562 0.67190158 2.8917565
1.0208199 0.67249 2.8804669
1.0737851 0.66994816 2.8691463
1.122889 0.67468089 2.8544023
-1.3509181 0.72232997 2.8505764
-1.3425456 0.72899866 2.8767676
0.98739266 0.72427189 2.8967109
1.0291129 0.72640401 2.886749
1.0754727 0.72157174 2.8694203
1.1244408 0.72794729 2.8561225
1.310178 0.71289676 2.85676
-1.3548846 0.7831887 2.8630149
-1.3475693 0.76610392 2.8732183
0.98024786 0.78027457 2.8961556
1.0229737 0.77750868 2.8869264
1.0736023 0.77702641 2.8718822
1.1246328 0.77685046 2.8572409
-1.3524542 0.82919121 2.8713121
-1.3469061 0.8269096 2.8855522
0.98122138 0.82338625 2.895694
1.025736 0.82374078 2.8860958
1.0768212 0.82347471 2.8717828
1.1211694 0.82366449 2.8603792
1.1510301 0.831339 2.8516412
-1.3517584 0.88092452 2.8742518
-1.3468819 0.85782433 2.8920395
0.98399192 0.86256254 2.8962996
1.0230887 0.87186551 2.8920374
1.0736822 0.87098294 2.8757162
1.1256911 0.87127852 2.8624876
1.1602784 0.8760308 2.8555286
-1.3539647 0.92382109 2.8772514
-1.3382977 0.93071747 2.8959284
0.99015367 0.92148602 2.8977621
1.0261525 0.91894507 2.8908951
1.0766389 0.92056489 2.8748956
1.1293656 0.9185524 2.8618088
1.1597784 0.9192009 2.8552449
-1.3556863 0.97064906 2.8697705
0.99087 0.95025504 2.8984387
1.0305425 0.97295249 2.891551
1.0740792 0.97601622 2.8759212
1.1244361 0.97236562 2.8623519
1.1645385 0.98005271 2.8531392
-1.3591589 1.0265021 2.8794613
-1.3498197 1.0464424 2.8935423
0.98862886 1.022432 2.8991954
1.0256206 1.0271096 2.8918312
1.0759393 1.0321574 2.8766725
1.123603 1.0305657 2.8634877
1.1646039 1.0288622 2.8534076
-1.3580215 1.0795372 2.8788419
-1.3483682 1.0606884 2.8862405
0.98302394 1.0894306 2.8981035
1.0239321 1.0804551 2.8934813
1.0759932 1.0800346 2.8784716
1.1291432 1.0806754 2.8654823
1.1674389 1.0814239 2.8563921
-1.3574663 1.1226952 2.8796422
1.0302097 1.1303076 2.8928783
1.0736439 1.130444 2.8817129
1.1219079 1.1290143 2.8688247
1.1673942 1.1337768 2.8583429
-1.3614124 1.1762691 2.8728168
1.0272576 1.1819615 2.8936331
1.0780989 1.1805367 2.8803196
1.1234214 1.1804897 2.8673749
1.1641699 1.1780156 2.8551242
-1.3599726 1.2171135 2.8670349
1.0308864 1.2279501 2.8930118
1.0733749 1.2302041 2.8825593
1.1257799 1.2333157 2.8673277
1.1742287 1.2272408 2.8541532
-1.3626893 1.2733712 2.8765149
1.0329096 1.2706465 2.8963962
1.0735545 1.2763667 2.886775
1.1178138 1.2778547 2.8686616
1.1726689 1.2745473 2.8604522
-1.3692629 1.3267862 2.8629785
1.0357205 1.3214233 2.8946955
1.0774884 1.3194112 2.8844738
1.1241853 1.3221585 2.8724434
1.1683176 1.3183541 2.8605719
1.2006447 1.3045977 2.8543975
-1.3724965 1.3730772 2.8762529
1.0326154 1.368174 2.8973434
1.0735091 1.3714321 2.8871667
1.1268271 1.3748029 2.8717456
1.1716096 1.3752813 2.857434
1.2083958 1.3748175 2.8507669
-1.370658 1.4307437 2.8761365
1.0439644 1.4363039 2.8961663
1.0743641 1.4276986 2.8887231
1.1209092 1.427718 2.8753023
1.1711066 1.4268875 2.8622057
1.2084302 1.4303576 2.8541036
-1.3720827 1.4721838 2.8710425
1.0480988 1.4731824 2.8957973
1.0781407 1.471652 2.8840635
1.1266314 1.4739947 2.8749955
1.1736914 1.4743781 2.8613551
1.2117006 1.4789629 2.8524253
-1.3726066 1.52131 2.875371
1.0397875 1.5385027 2.8987875
1.0718811 1.5178081 2.8895085
1.1257321 1.5223638 2.8794198
1.1771122 1.5234518 2.8618355
1.2190936 1.5233829 2.8520293
-1.3752571 1.5563202 2.8673594
1.0773168 1.5789361 2.8934736
1.1243153 1.5765014 2.8795152
1.1719172 1.5788437 2.8646202
1.2181333 1.5757793 2.8545101
-1.3915811 1.6316233 2.8762367
1.0836573 1.6252756 2.8946512
1.1257635 1.6264255 2.8862233
1.1759175 1.6312466 2.8690712
1.2274981 1.6350634 2.858566
1.0805 1.6743606 2.8971758
1.1211338 1.6682391 2.884717
1.1681795 1.6737736 2.8725021
1.2201303 1.6727309 2.8616464
1.2623024 1.6756282 2.8527734
-1.4028801 1.702168 2.8728564
1.0861107 1.7227497 2.8979199
1.1301746 1.7219493 2.8893819
1.1804597 1.7240096 2.8725624
1.2268643 1.7230432 2.8647907
1.2578174 1.7333585 2.8559291
-1.3958402 1.7712841 2.8703241
1.1204759 1.772282 2.8916082
1.1705133 1.7745727 2.879981
1.2222453 1.779169 2.8712032
1.2673585 1.7738132 2.8569207
1.1254432 1.8199202 2.8933091
1.1762519 1.8251541 2.8803937
1.2284242 1.8208109 2.8691852
1.2602305 1.8196259 2.8558657
1.1380913 1.8823712 2.8956056
1.1724312 1.875311 2.8861001
1.2239002 1.8787279 2.8746893
1.2694676 1.8750856 2.861582
1.3114653 1.8589287 2.8507366
1.1839199 1.9293982 2.8907695
1.2278503 1.9307787 2.8781266
1.2771682 1.9304525 2.8641357
1.3149759 1.9213675 2.8546486
1.1328782 1.959331 2.8986509
1.1714891 1.9784454 2.8956454
1.2225482 1.978485 2.882062
1.2744731 1.9814044 2.8683403
1.321831 1.9805994 2.8529224
1.1359808 2.0189743 2.8975716
1.1823932 2.0248191 2.894196
1.2299346 2.0240481 2.8802001
1.2754797 2.0200865 2.860939
1.3224933 2.0315282 2.8518984
1.1399291 2.0618618 2.8978534
1.1680424 2.0698071 2.8950431
1.2217989 2.0723422 2.8867693
1.2725654 2.0724208 2.8685343
1.3064979 2.0726302 2.8560662
1.1450663 2.1461892 2.8994477
1.1808716 2.1272571 2.8948877
1.2287574 2.1182091 2.8825953
1.2762232 2.1162906 2.8659239
1.3167117 2.1229925 2.8573124
-2.6527519 2.1918197 2.8741922
-2.6426394 2.155504 2.8574684
1.1772161 2.1840615 2.8911064
1.2204762 2.1763306 2.8825905
1.271131 2.1664937 2.8676329
1.3196661 2.1760004 2.8637509
-2.6588776 2.2263014 2.8696792
1.1769059 2.2339723 2.8921843
1.2250798 2.2320883 2.8760755
1.2749193 2.2115834 2.8640718
1.3164496 2.2166753 2.8582401
-2.6629119 2.2787735 2.8578138
-2.6485512 2.2735882 2.886122
1.1388259 2.2785888 2.896878
1.1712925 2.2861991 2.8931515
1.2200571 2.2847922 2.8775654
1.2683399 2.2687294 2.8653779
1.3064797 2.2667017 2.8557746
-2.6240437 2.3229008 2.869261
-2.481214 2.3488092 2.8925385
-2.1320291 2.3482218 2.8784478
-2.04035 2.3495407 2.8913546
-1.9646702 2.3459051 2.8846648
-1.6229172 2.3469338 2.8978441
-1.5597998 2.3386409 2.8742998
-1.5343586 2.3409615 2.8897796
1.1240641 2.3318355 2.8953617
1.173944 2.3314028 2.8869507
1.2266483 2.332062 2.86903
1.2796046 2.3214848 2.8587668
1.3221774 2.3159406 2.8528633
-2.5842502 2.3595052 2.8921084
-2.5302575 2.3575299 2.873807
-2.4597068 2.3576345 2.8724337
-2.4330025 2.3604844 2.8974707
-2.3822927 2.3595295 2.8794565
-2.305686 2.3510864 2.8658595
-2.2750297 2.3591204 2.8770404
-2.2233059 2.3551588 2.8797591
-2.1688743 2.3571949 2.8706274
-2.1156251 2.3511708 2.8943839
-2.0780721 2.3595095 2.8735211
-2.0192065 2.354883 2.8670321
-1.9768851 2.3585911 2.8763406
-1.9154958 2.3549895 2.8724947
-1.8824089 2.3625364 2.8708131
-1.825492 2.3582828 2.8739355
-1.7753046 2.3622413 2.8862262
-1.7368867 2.3614419 2.8732634
-1.6681368 2.3590493 2.8776574
-1.6149099 2.3625078 2.8641059
-1.5753464 2.3559222 2.8664465
-1.5149699 2.3641036 2.8669357
-1.4718064 2.3709919 2.8769405
-1.4227318 2.3857675 2.8776264
-1.3798401 2.3857081 2.8859627
-1.323565 2.3915133 2.8597453
1.0371714 2.3991268 2.897861
1.0751712 2.3910062 2.8894048
1.1212729 2.3746982 2.8842027
1.1775634 2.3736162 2.871258
1.2241863 2.3791974 2.8621936
1.2639947 2.3710647 2.8543971
1.3030621 2.352706 2.8507288
-1.3577292 2.4050314 2.8650212
-1.3121314 2.4029915 2.8805649
-1.276284 2.4064264 2.8766389
-1.2246796 2.4179103 2.884505
-1.1823872 2.4276896 2.8735647
-1.1240327 2.4342899 2.88062
1.0358114 2.4134858 2.8815999
1.0753037 2.4236689 2.8826768
1.1289269 2.4112532 2.8628116
1.1752512 2.4085617 2.8558133
-1.1217149 -0.54410642 2.9098198
-1.0868535 -0.54141492 2.9031408
-1.0464559 -0.53946757 2.9019611
-0.017637426 -0.516518 2.9375896
0.01067867 -0.51539201 2.9313173
0.6048739 -0.50092459 2.9327183
-0.066744991 -0.49218884 2.9210663
0.53613973 -0.48269722 2.918941
0.58340907 -0.49409226 2.9238427
0.622554 -0.48288918 2.9313459
0.68735343 -0.4636291 2.9307854
0.71879262 -0.46340871 2.932251
0.76412851 -0.45905229 2.9196732
0.88171691 -0.46047235 2.9068441
0.92627692 -0.46114314 2.9019589
0.976789 -0.46900493 2.904032
1.0042415 -0.47835073 2.9010196
-1.2548244 -0.40607285 2.9219577
-1.2468029 -0.41662288 2.9283502
0.55969644 -0.44191301 2.9327798
0.73164904 -0.4389759 2.9477074
0.771882 -0.42516893 2.9363456
0.88362843 -0.42539975 2.9168231
0.9274978 -0.42566642 2.9095399
0.96162677 -0.42587259 2.9034109
-1.2572231 -0.37171206 2.927484
