ply
format ascii 1.0
comment PCL generated
element vertex 1536
property float x
property float y
property float z
element camera 0
property float view_px
property float view_py
property float view_pz
property float x_axisx
property float x_axisy
property float x_axisz
property float y_axisx
property float y_axisy
property float y_axisz
property float z_axisx
property float z_axisy
property float z_axisz
property float focal
property float scalex
property float scaley
property float centerx
property float centery
property int viewportx
property int viewporty
property float k1
property float k2
end_header
1.8835286 1.6216546 2.6709569
1.9267673 1.6262699 2.656189
1.9581747 1.610255 2.6528959
1.7807446 1.6716352 2.6925015
1.8278278 1.6725229 2.6898353
1.8744063 1.6662215 2.6708241
1.926614 1.6759948 2.661052
1.9565783 1.6805034 2.6524777
1.7941873 1.7171314 2.6951013
1.8321252 1.7298827 2.6932938
1.8751248 1.7231587 2.6773942
1.923275 1.7211002 2.6642492
1.9624145 1.7343559 2.6536283
1.7955062 1.7923551 2.6989462
1.8272674 1.7743266 2.6957841
1.8743656 1.7779284 2.6843562
1.9256788 1.7750258 2.6661437
1.9739329 1.7697288 2.6546545
1.7998235 1.813308 2.6958177
1.8367043 1.8269129 2.6933405
1.8768241 1.8167595 2.6839166
1.9272461 1.8298786 2.6712494
1.9732995 1.8183657 2.6602108
2.0074427 1.834649 2.6575694
1.8386149 1.8775879 2.6937938
1.8766344 1.873544 2.6848431
1.9285033 1.8679577 2.6681886
1.978995 1.8740013 2.6575222
2.0011158 1.8957061 2.6514766
1.8740392 1.9304394 2.6894782
1.9207711 1.9177432 2.6723268
1.9764106 1.9288832 2.662395
1.8481948 1.9816904 2.6949615
1.8764027 1.9759098 2.6886094
1.9262635 1.9775878 2.6756828
1.9724997 1.9694957 2.6601434
2.0023596 1.9649193 2.6542964
1.8386905 2.0156271 2.6996121
1.8753555 2.0201819 2.6904106
1.9189804 2.028075 2.6739149
1.968964 2.017838 2.6594613
1.8477654 2.0514348 2.6958737
1.8766247 2.0708508 2.6880336
1.9294996 2.0832725 2.6826446
1.9667858 2.0718417 2.6685545
2.010823 2.0778835 2.6572936
-2.6466703 2.1193886 2.6587842
1.8490827 2.1244776 2.6981306
1.8728895 2.1243658 2.6920238
1.9263318 2.1263855 2.6800685
1.984075 2.1216829 2.6671188
2.0162413 2.1188908 2.6557806
-2.6667843 2.1818786 2.671572
1.842195 2.1717093 2.6996243
1.8815373 2.1679864 2.6907659
1.9216791 2.1737339 2.6760213
1.977547 2.1616793 2.6672893
2.0269535 2.17487 2.6544504
-2.6626477 2.2153773 2.6657705
1.8768711 2.2183211 2.6948812
1.9272983 2.2335324 2.6856565
1.9769129 2.2177002 2.6652334
2.0142748 2.2070224 2.6537502
-2.662349 2.270293 2.6745076
1.8798344 2.2679389 2.6913424
1.9220997 2.2759416 2.6787345
1.9682375 2.2729526 2.6662798
2.0308232 2.2891259 2.6536303
-2.6613116 2.3253682 2.6821208
-2.635174 2.3489685 2.6706066
-2.5713558 2.3459387 2.6611984
-2.5493746 2.3434994 2.6730027
-2.033617 2.3491776 2.6651046
-1.918811 2.349251 2.6943727
-1.772117 2.3464828 2.6925008
1.8486608 2.3470321 2.6909053
1.8782454 2.3168647 2.695029
1.9269587 2.3283079 2.6766784
1.9748375 2.3228614 2.6590765
2.0127947 2.3166125 2.6533577
-2.6257172 2.3579969 2.6957791
-2.5186496 2.3612375 2.67942
-2.4664807 2.3580592 2.6784532
-2.4210804 2.3609705 2.6758075
-2.3874798 2.3656349 2.6842327
-2.3169336 2.3613231 2.6782334
-2.2743042 2.365273 2.6676848
-2.2297544 2.367106 2.6786234
-2.1716173 2.3634608 2.6732876
-2.1225133 2.3651402 2.6788309
-2.0735579 2.3636234 2.6633346
-1.9766558 2.3645189 2.6832798
-1.9244179 2.3631513 2.6702001
-1.8775603 2.3648453 2.6760838
-1.8280004 2.3702807 2.676441
-1.7680264 2.3588381 2.6726494
-1.7169144 2.358279 2.6804171
-1.6708009 2.3606505 2.6690588
-1.6248134 2.3706713 2.6790278
-1.5772684 2.37024 2.6737163
-1.5312284 2.3857954 2.6743908
-1.4725611 2.3876863 2.6836078
1.7957027 2.3838365 2.6962352
1.8303772 2.3940675 2.6919246
1.8692166 2.3797617 2.6884305
1.9208549 2.3789556 2.6769593
1.9736695 2.373704 2.6568401
2.0119352 2.3724623 2.6521506
1.6830804 2.447988 2.6923375
1.7244807 2.4309452 2.6847737
1.776186 2.4308982 2.6883016
1.8181105 2.4240222 2.6735671
1.8794932 2.4213839 2.6627674
1.9263088 2.418956 2.6587501
1.9535549 2.4425538 2.6504071
1.6229445 2.4558282 2.6957798
1.6688809 2.4581189 2.674485
1.7037885 2.4521132 2.6870258
1.7701416 2.457381 2.657263
1.8356292 2.4551632 2.6570687
-0.071550719 -0.50648236 2.739419
0.8320992 -0.50584447 2.7349191
0.87227356 -0.51300222 2.7303722
0.90856004 -0.51021695 2.7235827
1.1055168 -0.51589924 2.7475889
1.1741413 -0.51331824 2.7122908
-0.31790814 -0.48845866 2.7275612
-0.27910036 -0.48600167 2.7165475
-0.21267325 -0.48430902 2.7109737
-0.16748963 -0.48614642 2.723371
-0.14063472 -0.48417422 2.7132936
0.84152353 -0.49042374 2.7442513
0.87553555 -0.48358276 2.7376015
0.92038041 -0.4810327 2.7259569
0.95164573 -0.49451706 2.7442141
-0.31439084 -0.36403465 2.7482343
-0.17384768 -0.37887046 2.7457745
-0.16801962 -0.34269392 2.7463138
0.23841341 -0.31340274 2.7194717
0.27520096 -0.31784773 2.736757
0.30531496 -0.3019197 2.7304673
0.27452019 -0.2767401 2.7361245
0.30607933 -0.26318452 2.7399311
0.28809956 -0.23651768 2.7387083
-1.3186818 -0.16326338 2.7266397
-1.3167231 -0.11787252 2.7017639
0.2760458 -0.11458448 2.7261858
0.31578812 -0.11612695 2.7299016
-1.3183649 -0.055404436 2.706522
0.28318292 -0.091079429 2.7182708
0.31775814 -0.091654338 2.7331364
-1.3224467 -0.027649039 2.715168
-1.3224429 0.021147558 2.7151484
-1.3261778 0.077240154 2.7220492
-1.3300738 0.12659845 2.7287104
-1.3327663 0.17608935 2.7322302
-1.3294529 0.22477819 2.7228305
-1.3378072 0.27795634 2.7364616
-1.3574857 0.33703592 2.7043507
-1.3448278 0.32674676 2.7470629
0.89061052 0.34964779 2.7074592
-1.6020209 0.37991843 2.7348249
-1.571329 0.38688973 2.7227294
-1.5168731 0.3849802 2.7185664
-1.4729488 0.37840381 2.7108092
-1.4355311 0.38613582 2.7096777
-1.3419576 0.37898889 2.7249134
0.89212376 0.37719622 2.7095563
-1.5616307 0.42330003 2.7441704
-1.5263973 0.41803402 2.7334654
-1.4786706 0.42647389 2.7294834
-1.4253439 0.42688283 2.7129505
-1.384653 0.42604238 2.7066104
-1.3416224 0.42332 2.7171955
0.88760787 0.40822098 2.7375085
-1.5591304 0.45315513 2.746923
-1.5237367 0.47312814 2.7451053
-1.4729186 0.47574294 2.7321098
-1.4225787 0.47571483 2.7181044
-1.37037 0.47399917 2.7097158
-1.344224 0.46938285 2.7170305
-1.5163493 0.51674491 2.7420669
-1.4748696 0.52484673 2.7362201
-1.4285345 0.52304834 2.7233529
-1.3696184 0.52663428 2.7135186
-1.3443453 0.51820517 2.7245755
-1.5168989 0.5852198 2.7494538
-1.4657736 0.57218134 2.7380502
-1.4232558 0.57397431 2.7223089
-1.3750633 0.57453847 2.7137122
-1.345838 0.57537454 2.7262592
-1.8002045 0.63192874 2.7103198
-1.7886734 0.63617527 2.7228467
-1.4739386 0.62634712 2.7450321
-1.4214331 0.62282354 2.7311175
-1.3727984 0.62791508 2.7144547
-1.3463736 0.62723505 2.7207789
-1.8023896 0.67033207 2.7064619
-1.7910262 0.67455465 2.735245
-1.468644 0.67093676 2.7439289
-1.4289593 0.6748091 2.7374153
-1.3727219 0.67416596 2.7235069
-1.3496373 0.69136488 2.7428401
-1.8091917 0.73244965 2.7236412
-1.7943217 0.72439933 2.7466297
-1.4612632 0.71276009 2.7474098
-1.4292078 0.72772819 2.7413752
-1.3717716 0.72457319 2.7296462
-1.8089143 0.7720542 2.7193565
-1.7980646 0.77934909 2.7408206
-1.4236093 0.77143455 2.743068
-1.3703518 0.7772274 2.7337818
-1.8090038 0.82669729 2.7311528
-1.7879181 0.82755202 2.7459316
-1.4258635 0.82223201 2.7455471
-1.3771716 0.82359219 2.738101
-1.8105589 0.87336802 2.7221076
-1.796225 0.892941 2.7433941
-1.4182837 0.87560558 2.7444687
-1.3724539 0.87820005 2.7415259
-1.8102193 0.9230566 2.7250721
-1.4098577 0.92807674 2.7458327
-1.3760885 0.92025977 2.7389743
1.4902786 0.92207992 2.7492793
1.5192902 0.94111502 2.7482314
-1.8134025 0.97503114 2.7326174
-1.4161673 0.97289932 2.747432
-1.3794144 0.96737784 2.7383959
1.4972625 0.97869647 2.7483232
1.5298457 0.97296184 2.7425194
1.5690103 0.98563188 2.7319915
1.6039581 0.99683076 2.7363107
1.7946169 0.98017848 2.7000036
1.8013896 0.99232918 2.7417133
-1.8205948 1.0277207 2.7255766
-1.4215176 1.0099981 2.7487023
-1.3777272 1.0272889 2.7434359
1.532017 1.0200268 2.7439544
1.5722518 1.0267024 2.7338607
1.6218033 1.0287756 2.7251031
1.6692168 1.0293479 2.7113786
1.7302881 1.0162923 2.7087827
1.7734699 1.0008085 2.7261822
-1.8215407 1.0768496 2.7226243
-1.7249408 1.0656794 2.7434201
-1.3705926 1.0718268 2.7338512
1.492422 1.0680794 2.7496128
1.5257322 1.0703754 2.7425776
1.5771379 1.0746231 2.7333806
1.6284348 1.0785766 2.7223315
1.668368 1.0798862 2.707345
-1.8202126 1.1238004 2.7248778
-1.3756384 1.1118985 2.7458794
1.4995146 1.118498 2.748703
1.5294743 1.1151441 2.7424269
1.5723113 1.1237798 2.7327452
1.6228648 1.1314063 2.7263191
1.6675307 1.1294667 2.7118373
1.7020656 1.1251099 2.7009153
-1.8219967 1.1720603 2.7152712
-1.4078658 1.1793652 2.7439682
-1.3915045 1.1857266 2.7447336
1.536033 1.1763394 2.744513
1.5752263 1.1752909 2.7337387
1.6279477 1.1803575 2.7241085
1.6772408 1.175045 2.7098022
-1.8298323 1.2243338 2.7314067
-1.4216313 1.207202 2.7454102
-1.3804258 1.2145025 2.7430923
1.5401945 1.2216827 2.7450674
1.5767558 1.2282073 2.7371738
1.6239483 1.2310606 2.7231269
1.6733874 1.22341 2.7081065
1.7021836 1.2280643 2.7008095
-1.828639 1.27384 2.7262123
-1.4128639 1.2776682 2.7448895
-1.3861628 1.2696267 2.7436535
1.5400336 1.2826455 2.7478442
1.5772245 1.2808728 2.7379997
1.6253258 1.2746152 2.7222521
1.6737305 1.2707121 2.7049468
-1.8271661 1.329309 2.7321274
-1.4206893 1.3244208 2.7453628
-1.385366 1.3214016 2.743253
1.5382911 1.3490034 2.7484956
1.5687617 1.3253237 2.7425668
1.623736 1.3203263 2.7269406
1.6739364 1.323223 2.7099199
1.7127304 1.3396136 2.7019513
-1.8307724 1.3740743 2.7214882
-1.4629493 1.390228 2.7497497
-1.43072 1.3676984 2.7432797
-1.3867683 1.3737714 2.7352569
1.5780492 1.3721557 2.7433498
1.6250936 1.3721241 2.7267079
1.6745722 1.3789928 2.7139554
1.7191986 1.3798416 2.7026477
1.7547801 1.3809053 2.700923
-1.8374765 1.427779 2.7147439
-1.4688078 1.4330293 2.7453847
-1.4263514 1.4211761 2.7419112
-1.3846842 1.4275132 2.7420032
1.5755619 1.4290133 2.743356
1.6186304 1.4270415 2.7300923
1.672187 1.4250103 2.715699
1.721629 1.4211826 2.703702
-1.8502692 1.4681824 2.7044566
-1.8358361 1.4760361 2.7327621
-1.4687339 1.4732866 2.7421539
-1.4283819 1.4731286 2.7365165
-1.3890755 1.476783 2.7361417
1.5411375 1.4594135 2.7499421
1.5811776 1.4806352 2.744771
1.6311787 1.4725771 2.7312238
1.6741916 1.4730757 2.7183778
1.7207308 1.4790869 2.708832
-1.8384148 1.5243839 2.7270303
-1.4674693 1.5268748 2.7441897
-1.4253913 1.5232726 2.7387156
-1.3802181 1.5209922 2.7391479
1.5851734 1.5224731 2.7450583
1.6240226 1.5253706 2.738457
1.6766059 1.5254571 2.7194676
1.729766 1.5214934 2.7070086
-1.8364433 1.569641 2.7336555
-1.7843317 1.5616468 2.7344322
-1.4670117 1.5738931 2.7433879
-1.4226694 1.5811449 2.737031
-1.3884828 1.5641826 2.7355843
1.623935 1.5726949 2.7407672
1.6717976 1.5769476 2.7262993
1.7265394 1.5784531 2.7137849
1.7590736 1.5707268 2.7009087
-1.5022372 1.602067 2.7468359
-1.4689797 1.626743 2.7451451
-1.4286052 1.624801 2.7383444
-1.395871 1.6285725 2.7465935
1.5830579 1.6198549 2.7478151
1.628186 1.6249349 2.7421439
1.6795094 1.6214069 2.7290807
1.7237184 1.6298254 2.7156854
1.7630323 1.6353623 2.7036495
-1.470363 1.6880249 2.7485256
-1.4213644 1.6794471 2.739331
-1.398887 1.6557448 2.7409947
1.6279799 1.6765773 2.7450187
1.6752226 1.6720035 2.7338319
1.7238109 1.665341 2.71454
1.7595644 1.6748724 2.7040634
1.8121146 1.6938916 2.7013404
-1.4595392 1.7202425 2.7440741
-1.4278848 1.7277718 2.7428665
-1.3973336 1.7364848 2.7434347
1.6405878 1.7189103 2.7452157
1.6755619 1.7279412 2.7346997
1.7241139 1.7209191 2.7255359
1.764444 1.7257279 2.7081175
1.8180053 1.7159033 2.7011719
-1.4566568 1.7503916 2.7446516
-1.4208155 1.7618005 2.7428575
-1.3911681 1.7546818 2.7419233
1.6379243 1.7658191 2.7440097
1.678648 1.7675493 2.7378376
1.7233555 1.7762705 2.7233541
1.774302 1.7738842 2.7091007
1.8075919 1.7547965 2.7015049
1.6836977 1.8271532 2.7445552
1.7278721 1.8176792 2.727658
1.7723202 1.8257554 2.7107043
1.8122172 1.8425533 2.7045534
1.6829507 1.880191 2.7431686
1.7263077 1.8736267 2.728195
1.7704262 1.8745257 2.714102
1.813265 1.8774412 2.7084317
1.6736668 1.922137 2.7441645
1.7252997 1.9330298 2.7370949
1.7771603 1.9259787 2.7160134
1.8250543 1.9235523 2.7053108
1.6847988 1.9687456 2.7417414
1.727322 1.9712727 2.7276015
1.7787186 1.979679 2.7173169
1.8206125 1.9637482 2.7030444
1.6893137 2.0180383 2.7460318
1.7268796 2.0221851 2.7331173
1.7752935 2.0288401 2.7181485
1.8137661 2.0250816 2.7103524
1.690239 2.0757463 2.7444069
1.7227951 2.0695395 2.732439
1.7739397 2.0738051 2.719775
1.8218405 2.0779402 2.7079589
1.6876159 2.1333709 2.7423391
1.7173884 2.1218352 2.7352493
1.7728666 2.1251762 2.7226298
1.8288101 2.1286724 2.7090166
-2.6683333 2.1697879 2.7267561
1.6716706 2.1808834 2.7487614
1.7298502 2.1685438 2.7335474
1.7739592 2.1718769 2.718564
1.8152303 2.1796031 2.7078848
-2.6807327 2.2270849 2.7316613
1.6900795 2.2110095 2.747786
1.7279232 2.2147593 2.7332482
1.7749046 2.2214894 2.7221568
1.8244045 2.2366116 2.7146745
1.8515561 2.2003624 2.7008247
-2.6793623 2.2730067 2.7302043
1.689177 2.285898 2.7464776
1.7213392 2.2721345 2.7331746
1.7783111 2.2780128 2.7214532
1.8299482 2.2780061 2.7081978
1.8544759 2.2783988 2.7028825
-2.6638093 2.3256378 2.7208045
1.6444268 2.311415 2.7494044
1.6839625 2.3373144 2.7415249
1.7312839 2.3230724 2.7309382
1.7814583 2.3233035 2.7174666
1.8281965 2.3347805 2.7045178
1.8711197 2.3348036 2.7002976
-2.6275911 2.358259 2.7301471
-2.5811505 2.3620112 2.7375746
-2.5254128 2.3571756 2.7177942
-2.4758868 2.3567324 2.7282372
-2.4281552 2.3578675 2.7231963
-2.371666 2.3639531 2.7298694
-2.3255916 2.3607564 2.7198601
-2.2759264 2.3676662 2.719048
-2.2279675 2.3664837 2.7344229
-2.1748686 2.3590026 2.7257078
-2.1272256 2.3663046 2.7239523
-2.0801539 2.3643742 2.728797
-2.0258732 2.367394 2.7282383
-1.973235 2.3639863 2.7289937
-1.9129153 2.3755403 2.7413971
-1.8523258 2.3630831 2.7142572
-1.816597 2.3616509 2.7188921
-1.7797066 2.359339 2.7295604
-1.7247761 2.3604648 2.7274516
-1.6696916 2.3675063 2.7274802
-1.6363735 2.3680747 2.7325306
-1.5815988 2.374465 2.7303982
-1.5186976 2.382252 2.7208493
-1.4701247 2.391891 2.7195292
-1.4238667 2.396091 2.728045
1.6332291 2.3764164 2.7471182
1.6783185 2.378629 2.7332783
1.7274594 2.3761446 2.7230303
1.7694819 2.3667042 2.7095675
1.8314707 2.3774815 2.7074466
-1.4117159 2.4138362 2.7394507
1.4802399 2.4403858 2.7453003
1.5327196 2.4409204 2.7362905
1.574724 2.4233294 2.7333632
1.6248879 2.4231439 2.7271576
1.6711042 2.4246669 2.7129524
1.7015951 2.4131637 2.7117589
1.7610022 2.4032679 2.7046599
1.576234 2.4523394 2.7150574
1.6284419 2.4642015 2.7050538
-0.076537766 -0.50612766 2.761838
-0.023535989 -0.52573836 2.7942913
0.54639935 -0.50212908 2.7813122
0.57726407 -0.50536442 2.7955532
0.94062471 -0.51349479 2.7756417
0.97376966 -0.50801349 2.7634449
1.019534 -0.50427997 2.7863646
1.0828346 -0.50850606 2.7780576
1.1313421 -0.50729245 2.7746496
1.2107592 -0.52522016 2.7721469
-0.31287336 -0.48448309 2.7829437
-0.28593379 -0.48445982 2.784709
-0.17852049 -0.48427111 2.7738142
-0.11995401 -0.4852429 2.7814171
-0.090351492 -0.49551153 2.7783058
0.51319337 -0.49627367 2.7522829
0.84105587 -0.46669683 2.7697849
0.86741805 -0.47136149 2.7717159
0.92484921 -0.48472449 2.7766738
0.97281927 -0.49832064 2.7620013
1.0922858 -0.49465513 2.7964184
1.1838351 -0.49270603 2.7885153
1.2132516 -0.483614 2.783318
1.2578664 -0.47008833 2.7758064
1.3165581 -0.46140596 2.7972484
-0.30732501 -0.42430997 2.7695961
-0.29171157 -0.42258537 2.7814157
-0.17287457 -0.4223741 2.7644682
-0.30682302 -0.38327613 2.7585545
-0.29094854 -0.37456962 2.7785625
-0.1816726 -0.35679856 2.7518024
-1.2392056 -0.31046152 2.7679694
-0.30804625 -0.32843426 2.7627432
-0.29020664 -0.30689093 2.7768135
-0.17591922 -0.32531449 2.7681551
-1.2428824 -0.29721946 2.7772679
-0.30461124 -0.29456961 2.7865028
-0.17050098 -0.29425046 2.7908611
0.24098997 -0.25078487 2.7532625
0.27519473 -0.25188902 2.7633786
0.30837706 -0.29168758 2.7587814
1.355005 -0.26568899 2.7904496
0.27519602 -0.22422147 2.7744312
0.30759028 -0.23803753 2.7550299
1.357338 -0.2259623 2.7890735
-1.3231384 -0.1638132 2.7817349
-1.3211249 -0.12600113 2.7746048
0.24405043 -0.10691193 2.7943213
0.27239069 -0.13780558 2.7847741
-1.3243985 -0.07788121 2.769619
0.27363205 -0.088595629 2.7769787
0.31400859 -0.079268575 2.7587342
-1.3257444 -0.028190615 2.7731092
-1.3303345 0.022654856 2.7802048
-1.3311253 0.071644865 2.7837083
-1.3336223 0.12113928 2.7703128
-1.3338634 0.17810759 2.7685752
-0.22339208 0.17346807 2.7869511
-1.3413343 0.22917242 2.781436
-0.22357544 0.20031475 2.7880688
1.1318655 0.21043774 2.7825894
1.1739182 0.21170682 2.7890406
-1.3424335 0.27161342 2.772336
-1.3375639 0.31765148 2.7788975
0.93419093 0.34741545 2.7957854
-1.6641492 0.38588029 2.7610416
-1.6277632 0.39353022 2.7565711
-1.3406472 0.37671542 2.7771444
1.189151 0.35517544 2.7961874
-1.7119077 0.43435797 2.7664061
-1.6769725 0.42263049 2.7654147
-1.6240885 0.43054441 2.7582016
-1.5885676 0.42596936 2.7541082
-1.3453544 0.423107 2.7803981
0.8817032 0.41181314 2.7646303
0.92275602 0.41798392 2.799845
-1.7180188 0.47708544 2.7741199
-1.676131 0.47919035 2.7769706
-1.6241119 0.47450134 2.7659669
-1.5726465 0.47768855 2.757165
-1.3415564 0.47252592 2.7595806
-1.7184659 0.52691263 2.7702343
-1.6803818 0.52803403 2.7826118
-1.6255045 0.5180487 2.7677264
-1.5733379 0.52361858 2.7630339
-1.5256524 0.54185843 2.7557249
-1.3518397 0.54826564 2.7710695
-1.3464476 0.52248561 2.7775891
-1.7138046 0.57553649 2.7872992
-1.67518 0.57265991 2.7873974
-1.6232634 0.57510424 2.7785923
-1.5694152 0.57648152 2.7645042
-1.5237603 0.57377416 2.7528725
-1.4945358 0.57632804 2.750483
-1.3458048 0.57533586 2.7757037
-1.7244375 0.61963546 2.7897139
-1.6770519 0.62404013 2.7892044
-1.6271998 0.62774044 2.7810972
-1.5778135 0.6241228 2.7720239
-1.524922 0.62505889 2.7578261
-1.3558534 0.62668371 2.7914035
-1.3466836 0.60364455 2.7517462
-1.724761 0.67060441 2.7893808
-1.6783241 0.67483151 2.7918007
-1.628816 0.67756391 2.787636
-1.5746862 0.67051697 2.7748349
-1.5246307 0.67968893 2.7645617
-1.4972737 0.67732227 2.7640412
-1.3575912 0.67190707 2.7723207
-1.3455145 0.66944522 2.7831359
-1.720217 0.72128379 2.7917361
-1.6776942 0.73092318 2.7966449
-1.633463 0.72835308 2.7933955
-1.5756061 0.71876216 2.7749627
-1.5219746 0.7253359 2.7635708
-1.4805433 0.73147112 2.7556145
-1.3575407 0.73217613 2.7883358
-1.3462672 0.74869072 2.7976806
1.3283 0.73946434 2.7972002
1.3667078 0.74778861 2.7865298
-1.7243176 0.77455389 2.7927325
-1.6737685 0.77828693 2.7967532
-1.6229267 0.77221417 2.7921531
-1.5842701 0.77835238 2.7859397
-1.5273356 0.77338493 2.7682738
-1.4752537 0.77948588 2.7570899
-1.3571523 0.77020752 2.7707739
-1.3486422 0.76471442 2.7996912
1.3287944 0.77777642 2.7968934
1.3758692 0.77816063 2.7816131
1.4255892 0.77502257 2.771558
1.4635192 0.78756237 2.7717156
-1.7267962 0.82890546 2.7966361
-1.6742046 0.82421982 2.7971623
-1.6263249 0.82423073 2.7893786
-1.5769666 0.8284626 2.7810044
-1.5239732 0.82404798 2.7757638
-1.47227 0.82832599 2.7595675
-1.3599994 0.8291356 2.7809958
-1.349593 0.83882058 2.7860656
1.335662 0.82453424 2.7960374
1.3760338 0.82347518 2.7834041
1.4255655 0.82844985 2.765991
1.4707705 0.82311863 2.781482
-1.7978158 0.87063086 2.7517142
-1.7304353 0.88314807 2.7939439
-1.6775086 0.8757695 2.798305
-1.6235009 0.87495738 2.7871294
-1.5774635 0.87415272 2.7812855
-1.5216917 0.87168103 2.7738178
-1.4751445 0.87736773 2.7658167
-1.4421598 0.88564497 2.7508082
-1.3576007 0.87131071 2.758683
-1.3476901 0.8596735 2.777138
1.3409144 0.87211436 2.7970841
1.3785367 0.87256402 2.7851384
1.4245597 0.87360793 2.7716923
1.4680412 0.87257701 2.7679977
-1.7919745 0.9372381 2.7582903
-1.7302229 0.92512667 2.7927673
-1.675846 0.923733 2.7949727
-1.6220274 0.92411524 2.7897561
-1.5726612 0.92514122 2.7847121
-1.5215091 0.92465204 2.7747996
-1.4758918 0.9265359 2.7628791
-1.4375341 0.92377967 2.7535405
-1.3639371 0.92818141 2.7776439
1.3304888 0.92139214 2.7965739
1.3768857 0.92190462 2.7841163
1.4290445 0.92091721 2.769546
1.4741009 0.92242879 2.7570601
1.5173851 0.91757792 2.7804406
-1.8052597 0.99878711 2.7634416
-1.797121 0.97099507 2.7576284
-1.7324312 0.97766078 2.7965245
-1.6694626 0.97879499 2.7981136
-1.6284255 0.97527617 2.794121
-1.5767585 0.972417 2.7846913
-1.5277227 0.98054981 2.7769039
-1.4744183 0.97031868 2.7633986
-1.4338593 0.99189687 2.7549639
-1.3664635 0.97489405 2.7775967
1.3438443 0.98312575 2.7956417
1.3713437 0.97066563 2.7868443
1.4260235 0.96845567 2.7694774
1.4739095 0.9706012 2.7577538
1.8309383 0.98439443 2.7591746
-1.8142004 1.0289712 2.7609947
-1.7439933 1.0368423 2.7948744
-1.6238 1.0233138 2.7942791
-1.5774924 1.0241668 2.7853782
-1.523895 1.0284224 2.7742374
-1.4762406 1.0222167 2.7667587
-1.4259332 1.0295459 2.7578695
-1.3640524 1.0233433 2.7719922
1.3403039 1.0233295 2.7964456
1.3764662 1.0247186 2.7875466
1.4256867 1.0257174 2.7719624
1.4718522 1.0191225 2.7585373
1.5048847 1.0212275 2.7517998
-1.8083099 1.071291 2.7583468
-1.7987044 1.0822294 2.761847
-1.7497303 1.0653306 2.7876661
-1.6574017 1.0641084 2.7992749
-1.6292807 1.0618339 2.795264
-1.5774436 1.0758005 2.7838748
-1.5279166 1.073216 2.7770052
-1.4733708 1.0747635 2.7678962
-1.424708 1.0774301 2.7548697
-1.3790225 1.0749601 2.7712302
1.3767319 1.0755178 2.7886755
1.4227762 1.0805686 2.7710686
1.4742973 1.0716034 2.7566223
-1.8058113 1.1180028 2.7625868
-1.7359931 1.1207368 2.7960315
-1.6643293 1.107542 2.7990663
-1.621954 1.124493 2.7909868
-1.5733871 1.1238645 2.7843101
-1.5257552 1.1271712 2.7763116
-1.4793777 1.1223661 2.7685778
-1.423774 1.1321818 2.7595198
-1.3755022 1.1099186 2.7725172
1.3478243 1.1481295 2.7974203
1.3755907 1.1284984 2.7924504
1.4262379 1.1228789 2.7774527
1.4715507 1.1176556 2.7577581
1.5139337 1.1387804 2.7531323
-1.8129697 1.169848 2.7575729
-1.7991866 1.1869707 2.7636042
-1.7411305 1.1650864 2.7908573
-1.6613486 1.1713104 2.7950103
-1.625082 1.1717131 2.7921097
-1.58316 1.1773084 2.786516
-1.5296052 1.1736245 2.7739747
-1.4716266 1.1759248 2.762068
-1.4285502 1.1704953 2.7533069
-1.3840158 1.1730342 2.7768919
1.3424087 1.1726543 2.797456
1.3756471 1.1752453 2.7922797
1.425945 1.1695611 2.7806954
1.4744976 1.1718986 2.7628071
1.5132155 1.1677386 2.7516279
-1.8126814 1.2203108 2.7610083
-1.7480977 1.243063 2.798938
-1.6198889 1.2256273 2.7925501
-1.5736375 1.2284187 2.7881622
-1.5255703 1.2246056 2.7740443
-1.4770441 1.2218598 2.7630424
-1.425317 1.2384776 2.7547169
-1.3669121 1.2235484 2.7765985
1.3762007 1.2227858 2.7925181
1.4220529 1.2204611 2.7817121
1.472737 1.2205347 2.7660351
1.5119123 1.2271949 2.7535899
-1.8154464 1.2695768 2.7624366
-1.7509626 1.2770244 2.7918255
-1.65571 1.2809587 2.7989388
-1.6230874 1.2700322 2.7960176
-1.5746279 1.2800573 2.7847281
-1.524047 1.2715811 2.7721124
-1.4768748 1.2741485 2.7639878
-1.4375372 1.269344 2.7523584
-1.3700324 1.2723743 2.7698359
1.3814344 1.2709295 2.7940338
1.4293633 1.2727519 2.7800074
1.4776177 1.2747264 2.7653959
1.5167583 1.2736049 2.7550259
-1.8160152 1.3156546 2.7643535
-1.7437885 1.3035858 2.7684023
-1.6239798 1.3203911 2.7988071
-1.5754573 1.3227024 2.782753
-1.526557 1.3230562 2.7693448
-1.473213 1.3237746 2.7576187
-1.449796 1.3011838 2.7546673
-1.368753 1.3310976 2.7738729
1.3742149 1.3228136 2.7951505
1.4214906 1.325694 2.7839303
1.4730499 1.3262141 2.7685518
1.5207247 1.331681 2.7575698
-1.8125622 1.3743269 2.7629588
-1.7541084 1.3879015 2.7931077
-1.6225466 1.3732792 2.7952132
-1.5759968 1.3784758 2.7832088
-1.5214391 1.370115 2.7692928
-1.473243 1.3726643 2.7550642
-1.3705899 1.3673145 2.7751946
1.3900466 1.3789607 2.7958348
1.4259084 1.3760655 2.7870052
1.4770483 1.3805648 2.769798
1.5284504 1.3773547 2.7562916
-1.8194395 1.4272009 2.7630284
-1.7593591 1.4163541 2.7914166
-1.6614585 1.4099424 2.7998521
-1.6241823 1.42557 2.7924924
-1.5723997 1.4217139 2.7783849
-1.5227345 1.4255165 2.7651169
-1.4923117 1.4267298 2.7593937
-1.377336 1.4283499 2.7890899
1.3872094 1.4227128 2.793468
1.4244409 1.4210948 2.7908788
1.4725004 1.4223828 2.7739954
1.5228763 1.42574 2.7602348
1.552828 1.4165484 2.7523141
-1.8170494 1.4848651 2.765938
-1.7745029 1.4789435 2.773747
-1.6289052 1.4735357 2.7872338
-1.5716848 1.471724 2.7736928
-1.5250897 1.4798422 2.7611935
-1.3731238 1.4704347 2.7613487
1.3917704 1.450784 2.7931621
1.4284818 1.4769135 2.7915802
1.4775709 1.4742553 2.7745829
1.5219105 1.4812709 2.7606108
1.5571619 1.4829252 2.753983
-1.8232057 1.5250185 2.766026
-1.7540171 1.5147167 2.7782228
-1.7418604 1.5183053 2.7932701
-1.6601508 1.5114534 2.7947326
-1.6267824 1.5253785 2.7849078
-1.5772705 1.5249803 2.7731438
-1.5254248 1.52057 2.7595301
-1.494091 1.5381675 2.7576504
-1.3748976 1.5204649 2.7891734
1.3853128 1.5075259 2.7981002
1.4207317 1.5255067 2.793853
1.471392 1.5232843 2.7767794
1.5240709 1.528675 2.7657812
1.5656729 1.5359116 2.7559891
-1.8176641 1.5702239 2.767869
-1.7531899 1.5610414 2.7964058
-1.662559 1.5698642 2.7942696
-1.6269217 1.5734797 2.7886002
-1.5779369 1.5763038 2.7743869
-1.525213 1.5712674 2.7618406
-1.4963592 1.564193 2.7509847
-1.387812 1.5822387 2.7941916
1.4373355 1.5672125 2.7913511
1.4730029 1.5729362 2.7802963
1.5223109 1.5774122 2.7683904
1.5680871 1.5781111 2.7560217
-1.7530744 1.6420426 2.7995341
-1.7450498 1.6180133 2.7948005
-1.6652642 1.6210985 2.7971725
-1.6280611 1.623181 2.7847972
-1.5748276 1.6256946 2.7762301
-1.528749 1.6215329 2.765945
-1.486744 1.6294485 2.7564518
-1.3856485 1.618615 2.7602162
1.4378213 1.626356 2.7987397
1.4757656 1.6244189 2.7853613
1.5266184 1.6274948 2.7693298
1.5725054 1.6205699 2.7542591
1.600463 1.6455635 2.7522321
-1.7576722 1.6796271 2.7901623
-1.6582459 1.6796575 2.7969165
-1.6237806 1.6777775 2.7880216
-1.5712816 1.6678702 2.7708082
-1.5247675 1.6744014 2.7642677
-1.4829588 1.6715899 2.7568908
-1.4015521 1.693778 2.7761989
-1.3877962 1.6613286 2.7567885
1.4416742 1.6712701 2.7945597
1.4746919 1.6753536 2.7887137
1.52311 1.6749709 2.7715721
1.5775959 1.6778942 2.7638876
1.6104306 1.6882894 2.7529612
-1.7293192 1.7177176 2.7984819
-1.6788113 1.7335497 2.7921607
-1.6192123 1.7203119 2.7848401
-1.5676033 1.7257271 2.7749987
-1.5213865 1.73027 2.7643719
-1.4870974 1.7337034 2.7584019
-1.4188442 1.7273507 2.7557752
-1.3842171 1.7400056 2.7556543
1.4465146 1.7349005 2.7988312
1.4794616 1.7274224 2.7899277
1.5305589 1.7290637 2.7825603
1.5717027 1.7257553 2.7649033
1.6111286 1.7302388 2.755059
-1.5185143 1.7501508 2.7563746
1.4784472 1.7752354 2.7912908
1.5227599 1.7725515 2.7783225
1.5795237 1.7813573 2.7690487
1.6232731 1.7803093 2.7559152
1.4951392 1.8262137 2.793149
1.5205392 1.8271521 2.7833316
1.5716019 1.8240471 2.7738879
1.6266621 1.83035 2.7591302
1.6607604 1.8149018 2.7534091
1.4838239 1.8772926 2.7936668
1.5322249 1.8795583 2.7843308
1.5748407 1.8702464 2.7717838
1.622473 1.875613 2.7613161
1.6560011 1.8780305 2.7530622
1.4878609 1.9346547 2.7967734
1.5239679 1.929855 2.7914345
1.5799294 1.9305527 2.7748158
1.6294149 1.9193845 2.7618167
1.4990371 1.9828118 2.7978337
1.529852 1.9808921 2.7934704
1.5708622 1.9803115 2.7795544
1.6268042 1.97807 2.7629981
1.6589057 1.9680645 2.7541199
1.5252403 2.0205095 2.7918298
1.5763451 2.023706 2.7769961
1.6224604 2.0339882 2.7639632
1.6677829 2.0222785 2.7581284
1.4971585 2.0622051 2.797049
1.5256872 2.0741477 2.7897677
1.5763228 2.0743723 2.7761216
1.6264703 2.0784204 2.7660906
1.6671988 2.0755038 2.7562077
1.5299114 2.1208866 2.7943153
1.5721618 2.1259227 2.7850032
1.6243764 2.1295879 2.7690575
1.6671106 2.1299846 2.7543819
1.5286095 2.1774361 2.794919
1.5732253 2.1678467 2.7816682
1.6203722 2.1789784 2.768271
1.6661409 2.1782768 2.754178
-2.6778162 2.2311146 2.7707367
1.4976281 2.2410274 2.7922904
1.5290147 2.2204309 2.7922728
1.5715544 2.2181668 2.7760091
1.6291213 2.2286856 2.7678678
1.667042 2.2327206 2.7546043
1.7083793 2.2322443 2.7522922
-2.6771812 2.2680576 2.7766836
1.4865336 2.2679634 2.7999582
1.5315806 2.2814889 2.7915986
1.5736306 2.2624638 2.7732887
1.6250969 2.2793603 2.7658253
1.6716528 2.2711949 2.7528501
-2.6706076 2.3192422 2.7794101
-2.6233454 2.3427901 2.7735431
1.4910264 2.3322918 2.7975075
1.5226768 2.3367362 2.7852583
1.5697945 2.3216321 2.7744677
1.6202915 2.323539 2.7605143
1.6618705 2.3323905 2.7524979
-2.6668353 2.354974 2.7650857
-2.6052122 2.3552105 2.7587993
-2.573056 2.35287 2.7784913
-2.5309391 2.3609829 2.7733438
-2.4600904 2.3504508 2.7533753
-2.4270613 2.3561828 2.7717116
-2.3895702 2.3672156 2.7860646
-2.3153195 2.3650713 2.772356
-2.2731242 2.3654475 2.7657385
-2.2198591 2.3589728 2.7746904
-2.164737 2.3644726 2.7780545
-2.1187761 2.3589487 2.7634315
-2.0745831 2.3609374 2.7804651
-2.029305 2.3605497 2.7781014
-1.9841971 2.3597515 2.7749214
-1.9296688 2.3659678 2.7771919
-1.8779432 2.3682919 2.7724276
-1.8310672 2.3595264 2.7748473
-1.7919774 2.3695097 2.7812092
-1.7185663 2.3645542 2.7649822
-1.6916279 2.383152 2.7946756
-1.6161923 2.3788939 2.7660699
-1.5573434 2.3972063 2.7630961
-1.5395677 2.3971477 2.7717597
-1.4936625 2.3981736 2.7561038
1.471873 2.3752687 2.7878613
1.5256672 2.3803976 2.7738523
1.5806942 2.3789978 2.7645066
1.6092983 2.3687501 2.7546434
-1.4538544 2.4082408 2.750509
-1.3745601 2.425427 2.7719741
-1.3318925 2.4276092 2.7933259
-1.2498553 2.4050412 2.7954745
1.3380268 2.422787 2.7843623
1.3800623 2.4262481 2.7900808
1.4222862 2.4231946 2.7808244
1.47101 2.4211173 2.7721596
1.524568 2.4166591 2.7584529
-0.057675958 -0.5028922 2.8202732
-0.033002663 -0.51536447 2.8383274
0.010280104 -0.52585018 2.831934
0.579373 -0.50722629 2.8058784
1.0488399 -0.50830519 2.80321
-0.27708781 -0.47507134 2.8110275
-0.051346604 -0.49343124 2.8457479
0.58265227 -0.49628115 2.8232098
0.61854053 -0.4910109 2.8147118
0.94779509 -0.47898716 2.8243723
0.98071748 -0.48838472 2.8305798
1.0364907 -0.49844646 2.834605
1.0745208 -0.49250793 2.8241498
1.1237251 -0.49204221 2.8170969
1.1727238 -0.48583117 2.8235965
1.2262388 -0.46846148 2.8410389
1.2669969 -0.46440446 2.8343139
1.3171015 -0.45576224 2.8354712
-1.2536244 -0.4116284 2.8285165
1.1899226 -0.43376917 2.8490226
1.2266041 -0.42233121 2.8423092
1.2759362 -0.42384723 2.828372
1.3251319 -0.41960499 2.8248951
1.3560083 -0.42375469 2.8319561
-1.2554358 -0.37601927 2.8361251
1.2297726 -0.37813979 2.8441517
1.2735244 -0.37517503 2.8345482
1.3258876 -0.37749857 2.8261795
1.3661952 -0.3760882 2.8258882
-1.2573404 -0.32591757 2.8447952
1.2403255 -0.31835321 2.8476839
1.2744199 -0.32780045 2.837775
1.3255564 -0.32657963 2.8299434
1.3622509 -0.32668349 2.81849
-1.2557251 -0.27607155 2.8169844
0.33164999 -0.26722613 2.8162143
1.2403047 -0.27459073 2.8470166
1.2760999 -0.2744979 2.834938
1.3267683 -0.27682984 2.8290915
1.3585 -0.27553499 2.8204305
0.24030031 -0.24358407 2.8239419
0.277338 -0.21150783 2.8290544
0.32198757 -0.22190854 2.8234551
1.2385046 -0.22363438 2.8459141
1.2750074 -0.22369535 2.8355684
1.3229972 -0.22576506 2.8258188
1.3596365 -0.21124637 2.8172786
-1.3159082 -0.17104459 2.8310232
0.27643403 -0.17462632 2.8312709
0.31387502 -0.17805064 2.8295836
1.2372078 -0.17291267 2.8454151
1.2732481 -0.17289776 2.8341379
1.3202924 -0.17337601 2.828095
1.360032 -0.17381419 2.8234274
-1.3134478 -0.12235945 2.8214607
0.24476281 -0.12734002 2.8019385
0.25877205 -0.14779057 2.80705
0.32886624 -0.14236721 2.8280239
1.2302371 -0.12427483 2.846432
1.2752858 -0.12220076 2.8300111
1.324631 -0.12066828 2.8173983
1.3546547 -0.14500637 2.8309922
-1.3207138 -0.072038919 2.8287449
0.24477515 -0.093820594 2.8029237
0.27433673 -0.067643024 2.8303103
0.31754819 -0.063194968 2.8303232
1.2353874 -0.071818285 2.8441894
1.2672207 -0.076640986 2.8358262
-1.3200407 -0.028685099 2.8314044
0.27898765 -0.037379071 2.8432651
0.32288936 -0.033926718 2.8369129
1.2255491 -0.030998932 2.8470027
-1.329284 0.02050299 2.8261218
0.31027624 0.020504408 2.8472869
1.1971294 0.04334284 2.8499279
1.2173183 0.036126584 2.8404298
-1.3283989 0.072641782 2.8307064
1.1968096 0.072082609 2.8487394
1.2131937 0.072206363 2.8491929
-1.3331 0.12309235 2.8216653
1.2297918 0.13004206 2.8485086
-1.3353256 0.17397435 2.8244669
-0.24158224 0.18383847 2.8430357
1.2295111 0.15885767 2.8468297
-1.3378367 0.22509751 2.8271608
0.87873852 0.22032633 2.826627
0.92334133 0.22306524 2.8169169
1.2306374 0.20952368 2.8471036
-1.3426918 0.27360004 2.8308227
-1.3418707 0.32934794 2.8319716
-1.3403656 0.37556258 2.8246055
0.88875556 0.372475 2.838541
0.96680164 0.35899648 2.8472767
1.0375668 0.36141443 2.829942
1.0814403 0.36139652 2.8306651
1.1258255 0.37015572 2.8348169
1.168834 0.37483045 2.8224654
1.2086904 0.38040209 2.8211279
-1.3518974 0.43756878 2.8210926
-1.3422865 0.4198153 2.8296423
0.89877832 0.44077966 2.8159614
0.91394585 0.44135544 2.8165212
1.0942806 0.43071997 2.8495715
1.1233507 0.42369366 2.8434289
1.1742566 0.42395467 2.8307743
1.2130649 0.42497945 2.8269143
-1.3527997 0.47433791 2.8186419
-1.3457807 0.47527483 2.8277767
-0.22962742 0.49372321 2.8402145
1.094781 0.48116535 2.8452506
1.1252104 0.47472954 2.8425677
1.1758641 0.47487047 2.8290215
-1.3529371 0.51085234 2.814368
-1.3457559 0.52835155 2.8330176
-0.22986349 0.51481962 2.8407063
0.89836526 0.50349444 2.8074045
0.92676663 0.51145566 2.8486357
1.0974237 0.51831573 2.8476751
1.1279515 0.52634019 2.8432372
1.1714399 0.52647179 2.8314972
1.2078062 0.53248066 2.827275
-1.3508202 0.56832033 2.801827
-1.3449612 0.57935691 2.8240666
1.1245247 0.57904202 2.8421896
1.1739593 0.5781709 2.8306272
1.215531 0.58137953 2.8239787
-1.717768 0.63274622 2.8008869
-1.3543205 0.62784857 2.8245556
-1.3455575 0.62357789 2.81844
1.1337271 0.61839455 2.8450754
1.1744035 0.62475246 2.832731
1.220248 0.62399668 2.8225219
-1.3520452 0.6855787 2.8220954
-1.3447332 0.68938792 2.8428946
1.1291673 0.6537444 2.8485782
1.1763208 0.67391652 2.838764
1.225984 0.67690212 2.8225825
1.2591414 0.67912495 2.8225393
-1.3516129 0.71992797 2.8274403
-1.3487852 0.72457403 2.8266058
1.1740361 0.7241357 2.8407772
1.2256026 0.73211002 2.8261666
1.2734929 0.72552752 2.8123102
1.312537 0.72308236 2.8091629
1.356214 0.73538166 2.8032644
-1.3568777 0.78847361 2.8318241
-1.3489958 0.75846946 2.839443
1.1770216 0.77760112 2.8451662
1.2260661 0.77610224 2.8297517
1.2763932 0.77889019 2.812902
1.3161664 0.77899855 2.806329
1.436277 0.76138139 2.8206439
1.4822176 0.76200646 2.8056231
1.5055552 0.77379692 2.813863
-1.7172083 0.84307557 2.801796
-1.355793 0.81549418 2.827611
1.1852664 0.82653564 2.8442996
1.2238252 0.82351029 2.8292835
1.275684 0.82379907 2.8136165
1.3127568 0.82400841 2.8019507
-1.7075949 0.87168127 2.8010378
-1.6744932 0.87963665 2.8023968
-1.3598235 0.87452137 2.829247
1.1881294 0.86858737 2.8425167
1.2286171 0.87101638 2.8307402
1.2707896 0.87355995 2.8148568
1.3098905 0.87112361 2.80424
-1.7186475 0.9471758 2.8014314
-1.6693577 0.92440146 2.8004093
-1.362908 0.92346346 2.8265109
-1.347845 0.93150198 2.8375823
1.1765478 0.91968733 2.8450263
1.2234704 0.92053902 2.8319039
1.2781315 0.92649329 2.8158305
1.3097742 0.92140275 2.8038249
-1.7102287 0.983971 2.8027449
-1.6758007 0.96920997 2.800452
-1.3566003 0.97749257 2.8262341
1.1948745 0.97557068 2.8467767
1.2247237 0.97658294 2.8336029
1.2732093 0.97590989 2.8166304
1.3224441 0.9782418 2.8047647
-1.7207667 1.0285226 2.8038094
-1.6785592 1.0282342 2.8026173
-1.6489335 1.0045807 2.8006442
-1.3623972 1.0150063 2.8228767
1.1918889 1.0315344 2.846256
1.2250127 1.032006 2.832211
1.2730898 1.030763 2.8176529
1.314293 1.0334374 2.8045995
1.6242819 1.0036051 2.808629
-1.7202621 1.0795089 2.8020294
-1.6818533 1.0775869 2.8044982
-1.6328301 1.0865262 2.8007431
-1.3630713 1.0672562 2.8285503
1.1916281 1.097968 2.8493354
1.2251787 1.079408 2.8324146
1.278008 1.0797424 2.8159735
1.3246905 1.0811466 2.803973
-1.7133899 1.115824 2.802428
-1.6825092 1.1322091 2.8033776
-1.6468706 1.1062787 2.8031385
-1.3658521 1.1266655 2.8257287
1.1941406 1.1304482 2.8465722
1.222964 1.129248 2.8340006
1.2720772 1.1285954 2.8206666
1.3236647 1.1317313 2.8069875
-1.7189205 1.1766266 2.805068
-1.6907456 1.1829712 2.8059964
-1.3687741 1.1779053 2.8165436
1.1918352 1.1808459 2.8477535
1.2242303 1.1823015 2.8372152
1.2741669 1.1800313 2.8185937
1.3189455 1.1812189 2.8062198
-1.7253754 1.2217246 2.8063226
-1.6758633 1.2289193 2.8032174
-1.6455946 1.2181337 2.8014374
-1.3657323 1.2168168 2.824522
1.2233393 1.2283809 2.8387263
1.2727634 1.2275696 2.821384
1.3270479 1.224813 2.8063307
-1.7245996 1.2800391 2.8062787
-1.6788687 1.2683189 2.8025842
-1.6290312 1.2865107 2.8020258
-1.3690557 1.2809006 2.824599
1.2264035 1.2731934 2.8420615
1.2741477 1.2707475 2.8269386
1.3208921 1.2670887 2.8110712
1.3511338 1.2788615 2.8035755
-1.7503244 1.3365963 2.8063211
-1.7283386 1.3248913 2.8153429
-1.6758895 1.3222976 2.8037922
-1.634899 1.3328668 2.8029423
-1.3681875 1.3338783 2.8251324
1.2295113 1.3181767 2.8406096
1.2758669 1.323186 2.8275142
1.3240701 1.3207002 2.8086205
1.3570842 1.3229499 2.8021283
-1.7545733 1.364058 2.8035958
-1.7304535 1.3721781 2.81271
-1.6736164 1.3743752 2.8036094
-1.6314906 1.350316 2.8026388
-1.3732553 1.381626 2.8304636
1.2314357 1.3747145 2.8428688
1.2727087 1.3727413 2.8283677
1.3224989 1.3757933 2.8136818
1.3635257 1.3782287 2.8042688
-1.7258241 1.4207232 2.8094287
-1.6839043 1.4306278 2.8098691
-1.3764684 1.4201899 2.8345151
1.1975569 1.4266443 2.8492577
1.229259 1.427484 2.8406539
1.2778596 1.4298205 2.8293352
1.325506 1.4290217 2.8156199
1.3649572 1.4238074 2.8046334
-1.7571371 1.4603057 2.8083715
-1.7253249 1.4764472 2.8137057
-1.6807745 1.4673828 2.8049386
-1.3758094 1.4665713 2.8142347
1.2309426 1.4718784 2.8439674
1.2720881 1.4737192 2.8300042
1.3241595 1.4773206 2.8232386
1.3718781 1.474685 2.8085463
-1.723731 1.5257438 2.8111768
-1.6824859 1.5300779 2.8050852
-1.3807231 1.519858 2.8270192
1.2365535 1.523625 2.8466899
1.277015 1.5250874 2.8357944
1.3252865 1.5264004 2.8211277
1.3729289 1.5310863 2.8080597
-1.7618119 1.5852334 2.8024018
-1.7286789 1.5831386 2.8080029
-1.6931119 1.5725222 2.8078473
-1.3901505 1.5859972 2.8217983
1.2395182 1.575596 2.8454545
1.2765863 1.5735523 2.8382485
1.326131 1.5760797 2.8255131
1.3718358 1.5810926 2.8146067
1.4107585 1.5822423 2.8056793
-1.7663145 1.6058424 2.8016646
-1.7200189 1.6259915 2.8030975
-1.6898932 1.6208277 2.8067307
-1.3917376 1.6210606 2.8334064
1.2443917 1.6305816 2.8477201
1.2765198 1.6230556 2.8408175
1.3226399 1.6215829 2.8259265
1.377461 1.6296165 2.8163359
1.4151297 1.6194464 2.8073037
-1.7223935 1.6748415 2.8055992
-1.6800137 1.6684639 2.8057272
-1.6054108 1.6924504 2.8065522
-1.3879404 1.6646363 2.803134
1.2489325 1.6604778 2.847151
1.2747045 1.6708841 2.8389995
1.319989 1.6752024 2.8270106
1.3668307 1.6754705 2.8219826
1.4191736 1.6731033 2.8076975
-1.7204752 1.7088437 2.8062932
-1.6753111 1.7134539 2.8023479
1.2823055 1.7257102 2.8455243
1.323191 1.7226166 2.8292615
1.3775204 1.7215362 2.8208988
1.4248254 1.7224591 2.8074574
1.2871702 1.7791371 2.8481846
1.3243275 1.7757496 2.8361797
1.3745292 1.7784381 2.8280048
1.4181324 1.7706363 2.8116276
1.4538426 1.7681549 2.8003736
1.2942996 1.8216765 2.8471754
1.3284845 1.823769 2.8380861
1.3812233 1.8286918 2.8264101
1.4313504 1.8217242 2.8124073
1.4678941 1.8297107 2.8037312
1.3296801 1.8696853 2.843847
1.3733736 1.8731465 2.8328536
1.4267765 1.8783226 2.8202801
1.4603035 1.8789315 2.8070529
1.3336998 1.9246492 2.843559
1.3765819 1.9207666 2.8307288
1.4301383 1.9187403 2.8171611
1.4679931 1.9221301 2.802897
1.3431023 1.984066 2.8467317
1.37445 1.9726957 2.8338456
1.4249958 1.9648933 2.8186829
1.4758347 1.9686348 2.8070457
1.5157683 1.9659281 2.8001146
1.3314199 2.0336499 2.8393409
1.3681849 2.0299702 2.8374805
1.4206548 2.0243831 2.825489
1.4710923 2.0249779 2.8094075
1.3436248 2.0862341 2.8446517
1.379692 2.0810251 2.8405612
1.4278457 2.0802593 2.8228607
1.4720583 2.0885797 2.8093967
1.3474249 2.1091542 2.8420744
1.3728665 2.1272137 2.837697
1.4249004 2.1318703 2.827071
1.4792008 2.1361969 2.810055
-2.6678889 2.167856 2.8272088
1.3439389 2.1821511 2.8447568
1.3755647 2.173013 2.8403096
1.4245787 2.1787775 2.8247449
1.4742514 2.1852388 2.8090849
1.5160902 2.1693878 2.8076468
-2.6696656 2.2250872 2.8203974
1.3374025 2.2132246 2.8446567
1.3741705 2.2252622 2.8378677
1.4237417 2.2253573 2.820688
1.4746848 2.2273967 2.8050361
-2.6619716 2.2751956 2.8225741
1.3296304 2.2779355 2.8442981
1.3787985 2.2714789 2.8334291
1.4247807 2.2754903 2.8197584
1.4690349 2.283731 2.8085809
1.5089173 2.2754381 2.8010335
-2.6543784 2.3215308 2.8152192
-2.633251 2.339736 2.8325469
-2.5789795 2.3474555 2.8167996
1.2792302 2.3353837 2.8477299
1.3249147 2.3208134 2.8411305
1.3710467 2.3184814 2.8263557
1.423148 2.3219397 2.8128195
1.4689206 2.3268185 2.8060424
-2.5865209 2.3543129 2.8250587
-2.5265884 2.35551 2.8187287
-2.4791775 2.3583775 2.8067722
-2.4261367 2.3546488 2.8210552
-2.3706961 2.3627567 2.8294404
-2.3315973 2.3673205 2.8277402
-2.2767327 2.3602438 2.8278642
-2.2281537 2.3592143 2.8345275
-2.181962 2.3595068 2.817503
-2.1313856 2.3652313 2.829458
-2.0702918 2.358598 2.8258455
-2.020658 2.3535144 2.8174019
-1.9779156 2.3563471 2.8259821
-1.9191635 2.3552928 2.8258758
-1.8778939 2.3638055 2.8310728
-1.8250629 2.3633692 2.8315775
-1.7727569 2.3619547 2.8225937
-1.722576 2.3829525 2.8196399
-1.6881945 2.3820577 2.8155191
-1.6151912 2.3948383 2.8111038
-1.5664303 2.3710356 2.8397121
-1.5317236 2.3802502 2.843353
-1.4770397 2.3869965 2.839015
-1.4251239 2.389679 2.8335719
-1.3794394 2.3963115 2.8434753
-1.3377364 2.3940496 2.8385782
1.2712346 2.3803632 2.8422658
1.3243748 2.3753169 2.8318276
1.3764666 2.3758736 2.8156483
1.4275743 2.3684297 2.8057461
-1.5742903 2.4053292 2.8067641
-1.4756622 2.4174833 2.8119922
-1.411713 2.4086399 2.808686
-1.3754125 2.407016 2.8220646
-1.3169408 2.4060204 2.8260214
-1.2801548 2.4162798 2.8268504
-1.2305508 2.4227188 2.8361728
-1.1776977 2.4178119 2.8398261
1.1409478 2.4140687 2.8479855
1.1892719 2.4234958 2.8435426
1.2258036 2.4175138 2.8403292
1.2708548 2.4196985 2.826051
1.3204458 2.4185748 2.8083787
1.3614117 2.4155843 2.8022716
-1.0568293 -0.55184758 2.884886
-1.1170653 -0.54185987 2.8978105
-1.0445157 -0.53846741 2.8965809
-0.079153985 -0.50965422 2.8578744
-0.01722038 -0.51842487 2.8681431
0.010456508 -0.51842517 2.868335
1.0196261 -0.50065565 2.8525088
-0.079644442 -0.4849672 2.8781371
-0.037888054 -0.49670425 2.8647656
0.53908938 -0.49313441 2.894434
0.6321286 -0.48013699 2.8902535
0.66803813 -0.46639928 2.8889282
0.70668966 -0.46393961 2.8670008
0.87741894 -0.46522179 2.8750618
0.92032051 -0.47250462 2.8817742
0.97318852 -0.47119203 2.8889315
1.0241052 -0.47520849 2.8845468
1.0707839 -0.47463101 2.8724716
1.1244792 -0.46662739 2.8785427
1.1704975 -0.46183652 2.8658731
1.2132179 -0.45879802 2.8632071
-1.2528081 -0.40885529 2.8649342
-1.2498964 -0.42248008 2.856791
-0.10744029 -0.42295864 2.8864689
-0.091066793 -0.42288366 2.8956468
0.49086159 -0.44546592 2.8691981
0.98274463 -0.43437845 2.8940291
1.0255219 -0.42405015 2.8904908
1.0746646 -0.42676082 2.8828323
1.1234847 -0.42167458 2.8699305
1.1751609 -0.41804057 2.8590908
1.2069472 -0.4056946 2.8537705
-1.2613113 -0.37480038 2.8878314
-0.12115871 -0.36707008 2.8874216
1.0319953 -0.37754089 2.8950024
1.0743722 -0.37600857 2.886914
1.1255403 -0.37617412 2.8748381
1.1775392 -0.37658155 2.8639596
1.2051917 -0.37616006 2.8523645
1.0399681 -0.32999599 2.8974316
1.073799 -0.32519999 2.8895607
1.125129 -0.3253935 2.8780203
1.176304 -0.32553425 2.8652318
1.2150546 -0.32635665 2.8542244
1.4034319 -0.32385468 2.8508654
-1.2702632 -0.27065405 2.8783236
1.0362006 -0.27421692 2.8981602
1.0728778 -0.27435273 2.8906705
1.1236827 -0.27439451 2.8779421
1.1745076 -0.274441 2.8645368
1.2106301 -0.27442351 2.8539762
-1.275622 -0.24300373 2.8671198
-0.21198484 -0.22373219 2.8851891
-0.17900914 -0.22674987 2.8895531
0.33385423 -0.22018144 2.8674083
0.35062733 -0.22209299 2.8911312
1.0286735 -0.22135471 2.8980386
1.0716701 -0.22353101 2.8903511
1.1220452 -0.22349231 2.8767538
1.1727866 -0.22352596 2.8633299
1.2154424 -0.22365594 2.8529935
-1.3519477 -0.19130684 2.8772743
-1.3116444 -0.17091054 2.8764751
0.24941644 -0.17757735 2.8535724
0.25647822 -0.19142014 2.8552983
0.33333302 -0.15801615 2.8655477
0.35093015 -0.18753752 2.8952212
1.0307262 -0.17479001 2.8973882
1.0773979 -0.17278071 2.8868411
1.1285169 -0.17287427 2.8752983
1.1754436 -0.17153423 2.8644302
1.2101517 -0.17585619 2.8543649
-1.3116472 -0.12443785 2.8781025
1.0332973 -0.12224796 2.8969946
1.0769695 -0.12229197 2.8874316
1.1271914 -0.12225469 2.8736432
1.1777847 -0.12225939 2.8600569
1.2141588 -0.10066424 2.8510134
-1.3159382 -0.076016866 2.8763909
0.33288255 -0.068574242 2.8639231
1.0372359 -0.071861632 2.8981962
1.0765988 -0.071839966 2.8875854
1.1272645 -0.071843185 2.8750017
1.177875 -0.071840622 2.8614161
1.2145355 -0.071873151 2.8524678
-1.3160787 -0.029038817 2.8772058
0.27021921 -0.02731495 2.8591609
1.0770438 -0.028644852 2.8892629
1.1273606 -0.028625198 2.8757427
1.1774963 -0.028607531 2.860981
1.2133217 -0.028591966 2.8501327
1.2635174 -0.036186665 2.8714254
-1.3229121 0.022240244 2.8737905
0.28652123 0.018303826 2.8616543
0.33371985 0.020696633 2.8715518
1.0354418 0.026548205 2.8972712
1.0761207 0.021757893 2.8867755
1.1270905 0.021784058 2.8750312
1.1757525 0.020362951 2.8606925
1.2198162 0.0050212918 2.8527215
-1.3168057 0.073198996 2.859864
1.0371162 0.068583421 2.89781
1.0768931 0.072201356 2.8882618
1.1277584 0.072249092 2.8761277
1.1758353 0.072234072 2.8617082
1.2306472 0.077505 2.8644526
-1.3252436 0.12814175 2.8742001
1.0374537 0.12983093 2.897284
1.0769544 0.12262506 2.8872092
1.1281763 0.12272402 2.875968
1.1761392 0.12075628 2.8643353
1.2135112 0.12386633 2.8540699
-1.3284347 0.17967826 2.8781345
-0.24336125 0.16461237 2.864809
1.0356758 0.17600952 2.8971903
1.0773773 0.17311798 2.8865573
1.1280732 0.17318065 2.8738873
1.1714168 0.17320244 2.8621237
1.2138789 0.17516589 2.8523533
-1.3319668 0.22365005 2.8810852
-0.24329892 0.20570292 2.8623159
0.92991066 0.22199787 2.8838608
1.0415137 0.20197032 2.8948174
1.0767733 0.20183438 2.883637
1.1279956 0.20199336 2.8723991
1.1706799 0.20190942 2.8590002
1.2084548 0.20221403 2.8526945
-1.3353084 0.27982947 2.8725605
-1.3349708 0.32481113 2.877636
0.75332272 0.33256033 2.8887105
-1.3361993 0.37494072 2.8759265
0.87651515 0.36001286 2.8859181
0.97546548 0.38362002 2.8707669
1.0261528 0.38056597 2.8641911
1.073692 0.38311696 2.8518496
1.1086473 0.3876678 2.8501046
-1.3390759 0.43313593 2.8763392
0.89979374 0.42690331 2.8690233
0.94723892 0.44337261 2.8726358
0.98016053 0.42520207 2.8765728
1.0245587 0.42437527 2.8743598
1.0687762 0.42228168 2.8600731
1.2426131 0.42794475 2.8966162
-1.3362682 0.47654718 2.8708696
0.94032335 0.48290902 2.8945999
0.97512406 0.47511813 2.8835418
1.026157 0.47543451 2.8733683
1.0713559 0.47361988 2.8595271
-1.340986 0.52419937 2.8762741
-0.20545392 0.52953076 2.883986
-0.17686136 0.52728468 2.8729582
-0.14894408 0.52677977 2.8712647
0.92962313 0.52317578 2.8883705
0.9771136 0.5265764 2.8834028
1.0271004 0.52633423 2.8698714
1.0696893 0.52602816 2.8571527
1.1007441 0.54875576 2.8525116
1.245021 0.53222716 2.8900216
-1.3536057 0.5640198 2.8636432
-1.3431777 0.57840252 2.8800499
0.94510299 0.57952833 2.897382
0.97622997 0.57766205 2.888119
1.024617 0.57966995 2.8719733
1.0728358 0.57815063 2.8587174
1.1009769 0.56331241 2.8511353
-1.3464066 0.62691987 2.8760812
0.93740875 0.61784029 2.8969746
0.97586018 0.62413669 2.8897693
1.0256685 0.62355632 2.8747604
1.0762327 0.62347239 2.8613348
1.1150819 0.62702578 2.8537517
1.2524906 0.63200164 2.8537924
-1.3506904 0.67009926 2.85938
-1.3435409 0.66841793 2.872401
0.98024648 0.67507559 2.8908434
1.0205888 0.67233926 2.8798215
1.072467 0.67171663 2.8668921
1.1218851 0.67365569 2.8532698
-1.3548032 0.74680197 2.8545604
-1.3433231 0.7293992 2.878432
0.98558253 0.72203046 2.8940012
1.0256269 0.72740895 2.8844624
1.0759325 0.72306782 2.869173
1.1263635 0.72511071 2.8566477
-1.3555864 0.78790808 2.8739684
-1.3435644 0.76956916 2.8895533
0.9863162 0.77750331 2.8959131
1.0225706 0.77720213 2.8857863
1.0743753 0.77758431 2.8739822
1.1246939 0.77689797 2.8573945
-1.3545886 0.81538504 2.879055
-1.3469802 0.83332026 2.8581171
0.98542625 0.82016027 2.8971002
