ply
format ascii 1.0
comment PCL generated
element vertex 1509
property float x
property float y
property float z
element camera 0
property float view_px
property float view_py
property float view_pz
property float x_axisx
property float x_axisy
property float x_axisz
property float y_axisx
property float y_axisy
property float y_axisz
property float z_axisx
property float z_axisy
property float z_axisz
property float focal
property float scalex
property float scaley
property float centerx
property float centery
property int viewportx
property int viewporty
property float k1
property float k2
end_header
2.1137671 0.21256407 1.9028368
-1.5044882 0.27597913 1.9219784
-1.4969898 0.26275662 1.9307356
2.0054483 0.25121036 1.9462012
-1.6427888 0.34464729 1.9253297
-1.598312 0.33223188 1.9498243
-1.5113201 0.3010937 1.9304622
-1.6552802 0.39213645 1.9215451
-1.6425221 0.3739624 1.9259118
2.3373311 0.37913784 1.9142126
2.3523159 0.39742103 1.9490511
-1.9735963 0.44709742 1.9062269
-1.6580518 0.42364413 1.9174006
-1.6436629 0.40645179 1.9496301
2.3361113 0.42930415 1.9127232
2.3552074 0.42526689 1.9465981
-1.9890103 0.47411767 1.9041443
-1.6689439 0.47473612 1.92208
2.3370616 0.47625649 1.9211116
-2.0082846 0.53530598 1.9094335
-1.9866462 0.52587396 1.919897
-1.9277602 0.53173798 1.9352248
-1.7738769 0.54932749 1.9139483
-1.7225134 0.54250056 1.9136188
-1.6821636 0.52145493 1.9277624
2.3388793 0.52521902 1.9206222
2.3518977 0.53017199 1.9478947
-2.010766 0.5728302 1.9104712
-1.9856362 0.57553655 1.9368925
-1.8535662 0.59103048 1.9470314
-1.8227559 0.58364981 1.9417533
-1.7697827 0.57404274 1.9263717
-1.7233963 0.576199 1.9321226
2.3375609 0.57679397 1.9191824
-2.0503194 0.62996876 1.9271982
-2.0159445 0.62395346 1.9224229
-1.9922614 0.61963063 1.9381377
-1.9103853 0.63874823 1.948911
-1.8738087 0.63888991 1.9444866
-1.8206173 0.62581974 1.9382198
-1.7799557 0.62561399 1.9345874
-1.7271346 0.62596804 1.9345226
2.3357677 0.63072896 1.9217101
-2.021338 0.6755085 1.9286315
-1.9917427 0.6694054 1.9442981
-1.9141979 0.65256125 1.9491458
-1.8951625 0.66280544 1.9494535
-1.8236923 0.65672237 1.9425311
-1.773029 0.65543503 1.943536
-1.7277645 0.66180587 1.9468068
2.3301892 0.67656517 1.9233265
-2.06884 0.73092026 1.9408954
-2.0241623 0.72836322 1.93258
-1.9972467 0.71915245 1.9448128
2.3367882 0.72601604 1.9238526
-2.0559669 0.7961635 1.9307088
-2.0242298 0.77492881 1.9329081
-1.9960014 0.78785366 1.9458338
2.3323889 0.77554244 1.9278229
-2.0216093 0.82665533 1.9316998
-1.9955852 0.82263982 1.9457119
2.3362048 0.80215722 1.909548
-2.0627084 0.87627673 1.9343724
-2.0214958 0.87728959 1.9376251
-1.996833 0.85827065 1.9468837
-2.0258718 0.92560822 1.9330848
-1.9975798 0.92309064 1.9485248
-2.063457 0.97809482 1.9335737
-2.0239775 0.97450525 1.9338688
-2.0579 1.0285549 1.9323452
-2.0189981 1.0219353 1.9369501
-2.0628626 1.0747094 1.930789
-2.0234156 1.0779407 1.9350834
-2.0624475 1.1355211 1.9291946
-2.0239849 1.1255457 1.9366868
-2.0610719 1.1762381 1.9356555
-2.0248032 1.1737872 1.9349366
-2.0523033 1.2402831 1.9205083
-2.0313742 1.2222356 1.9325753
-2.0542185 1.2550851 1.9150611
-2.027946 1.2692991 1.9322243
-2.0582979 1.3239995 1.921883
-2.0322652 1.3219175 1.9385742
-1.9983228 1.3313173 1.94802
-2.0612562 1.378004 1.9301991
-2.0319905 1.372303 1.9398066
-2.0642357 1.4196446 1.9254067
-2.0294294 1.4205698 1.9350104
-2.0639586 1.4713719 1.9252815
-2.0319571 1.4746535 1.932264
-2.0605888 1.5409038 1.9253756
-2.034904 1.5187401 1.9290394
-2.0356622 1.564806 1.9385065
-1.2737827 -0.50708115 1.9728824
-1.2220426 -0.50925285 1.9765701
-1.1785837 -0.5194537 1.976352
-1.1175598 -0.53412384 1.971096
-1.0694652 -0.52257192 1.9801339
-1.01534 -0.50349158 1.9887632
-0.90811682 -0.50118709 1.9663266
-1.4169933 -0.46274897 1.9556034
-1.375569 -0.46003959 1.9629723
-1.2889441 -0.49222437 1.9797114
-0.97010297 -0.49646014 1.9723516
-0.93443096 -0.49403059 1.9735276
-0.89316773 -0.49855828 1.959378
-0.11176965 -0.46618342 1.9567027
-0.078515477 -0.46648237 1.9590054
-0.035879318 -0.45951226 1.9722797
0.023961734 -0.46070817 1.9668885
0.072922677 -0.46948195 1.978815
0.13563798 -0.46528879 1.9800539
0.17392266 -0.47059244 1.9828092
0.2372667 -0.4694176 1.9771681
0.26948729 -0.46876755 1.9659122
0.32275108 -0.47076893 1.9817482
0.53465688 -0.47291645 1.9823593
0.56599092 -0.46321994 1.9696007
-1.4612986 -0.40188259 1.9588321
-1.4228566 -0.42002532 1.963168
-1.3786916 -0.42628419 1.9684021
-1.4542844 -0.37218031 1.953799
-1.4282379 -0.37122843 1.9650759
-1.3859749 -0.37391731 1.9705982
-1.4254301 -0.32546705 1.9578391
-1.3833237 -0.32414389 1.9702984
1.2918122 -0.31006092 1.9652302
1.3261809 -0.32047635 1.9599423
1.3725164 -0.31905514 1.9535979
-1.4279933 -0.27591476 1.9538478
-1.3788657 -0.27979961 1.9654326
1.2366999 -0.26562408 1.9630769
1.2771574 -0.27555391 1.9712704
1.3284005 -0.27473083 1.9632237
1.3730369 -0.27516949 1.9536102
-1.4573443 -0.21842951 1.9600869
-1.4339629 -0.22778797 1.967051
-1.3849542 -0.22600359 1.9687055
1.2277359 -0.22241214 1.9636691
1.2742803 -0.22502108 1.9709899
1.3249954 -0.22631943 1.9606569
1.3634322 -0.22741215 1.9532394
-1.4597206 -0.17440198 1.9667406
-1.4290574 -0.17886651 1.97185
-1.3936095 -0.17548487 1.9777769
1.2282745 -0.17477757 1.9681593
1.2728714 -0.17481789 1.9707161
1.3224437 -0.1720219 1.9610729
1.3666291 -0.17386533 1.9534055
-1.4612275 -0.13265871 1.965965
-1.4214023 -0.13177094 1.9699306
-1.3936493 -0.1370568 1.9802186
1.2305604 -0.12523185 1.9690982
1.2717345 -0.12809116 1.9716552
1.3229094 -0.12357612 1.9645576
1.3685675 -0.12328917 1.9540521
-1.4617072 -0.071669556 1.9691063
1.2248484 -0.084332168 1.9648018
1.283342 -0.083944187 1.9630114
1.3250595 -0.076341018 1.9614564
1.3700241 -0.073524371 1.9547689
-1.4669555 -0.027401187 1.977039
1.2222401 -0.036661852 1.9640077
1.3274744 -0.034013372 1.9546868
1.3700702 -0.026689064 1.9546509
-1.4750612 0.023355965 1.9735053
1.2105001 0.02892681 1.965453
1.3287693 0.034680542 1.9522371
1.3687341 0.020094095 1.9538203
-1.4769692 0.071864881 1.9765351
1.1912006 0.084465422 1.9672985
1.2145735 0.074378923 1.9726948
1.3317348 0.076953225 1.9550343
1.3644314 0.076850757 1.9530981
-1.4793173 0.12523051 1.9739144
1.1918696 0.12184773 1.9780141
1.2143397 0.12393555 1.9740938
1.3336308 0.12670766 1.9531007
1.3670783 0.12835805 1.9531833
-1.4828881 0.17360736 1.9706146
1.9360609 0.18551444 1.9533767
2.0195539 0.19053784 1.9780107
-1.484815 0.22590263 1.9739802
1.993102 0.23646837 1.9907351
2.013283 0.22094283 1.9729036
-1.5052361 0.29528841 1.9888411
-1.4911268 0.2721042 1.970381
1.9815985 0.25918829 1.9923549
2.0010521 0.25221255 1.9653715
-1.6299251 0.34799671 1.9646324
-1.5982405 0.33701813 1.9936242
-1.6312079 0.37619561 1.9772791
2.3854029 0.37462735 1.9726138
2.4055548 0.36450186 1.9999523
-1.6532643 0.4379974 1.9556618
-1.6445564 0.42747104 1.9771372
-1.6552405 0.4782322 1.9709327
-1.6445609 0.45955426 1.9863766
2.3861051 0.48209116 1.9881508
-1.9592041 0.5418312 1.9542792
-1.7009639 0.54880291 1.9676299
-1.6682361 0.52420348 1.9770558
2.3973157 0.50539434 1.9931542
-1.965166 0.5769065 1.964061
-1.9308999 0.58261192 1.9721568
-1.8811132 0.57522511 1.9579206
-1.7041236 0.57769608 1.9644046
-1.6943617 0.57844841 1.9875654
2.3694599 0.58592504 1.976234
-1.9688233 0.62545747 1.9642423
-1.9294831 0.62130111 1.9708606
-1.8855351 0.62071818 1.9670671
-1.8424556 0.61601192 1.9517764
-1.7069433 0.63069654 1.9657656
-1.6954403 0.62105995 1.98991
2.3537421 0.60975718 1.956195
-1.9674816 0.67253137 1.9633617
-1.9314022 0.68400639 1.98418
-1.8833303 0.67155278 1.9706593
-1.8301698 0.66822475 1.9631473
-1.7775886 0.67387551 1.9679792
-1.7198331 0.66196787 1.985162
2.3646021 0.67201614 1.9755224
-1.9718516 0.72881645 1.9748999
-1.948197 0.70704401 1.996164
2.3644211 0.73550147 1.9746084
-1.9819219 0.77700382 1.9727157
2.3527818 0.75662696 1.9660511
-1.9831265 0.82420158 1.9727108
-1.9829326 0.87657571 1.9768314
-1.983077 0.92214221 1.9749552
-2.0021186 0.99067825 1.9522376
-1.9863839 0.97377962 1.9780777
-1.9904085 1.0246183 1.9782346
-2.0040202 1.0513973 1.9547656
-1.9893154 1.0763195 1.9754902
-2.0013616 1.1105024 1.9515102
-1.9911556 1.1261466 1.9757925
-2.0066533 1.1803049 1.9591225
-1.9934235 1.1689808 1.9871206
-2.0072935 1.2208732 1.9656585
-1.9946347 1.2287539 1.9842376
-2.0032673 1.2889264 1.963316
-1.9957814 1.272566 1.9772943
-2.0052896 1.3188123 1.9644994
-1.9955827 1.317941 1.9820917
-2.0087767 1.3747646 1.9717503
-2.0107186 1.4275335 1.9759573
-2.0130472 1.4751602 1.9769874
-2.0143404 1.5206354 1.9701792
-1.9996946 1.5359209 1.9844141
-2.0184054 1.5615673 1.9700149
-1.267228 -0.50097501 2.0368044
-1.2221862 -0.50778633 2.018919
-1.1743152 -0.52520698 2.0281034
-1.1189808 -0.52675974 2.0184169
-1.0750868 -0.51109278 2.0215662
-1.0497069 -0.50998825 2.006366
-0.95212191 -0.50339407 2.0109658
-0.92413127 -0.50246108 2.016042
-1.2766614 -0.4947249 2.0298133
-1.2411799 -0.49724722 2.0294642
-1.0180631 -0.49625459 2.0266757
-0.97420424 -0.49560174 2.0284696
-0.10605955 -0.47369015 2.0315361
-0.066084005 -0.46705842 2.0187466
0.065336086 -0.47583744 2.0418727
0.12098843 -0.4669989 2.0316079
0.19390908 -0.47104484 2.015861
0.21972477 -0.47391477 2.0264676
0.27223441 -0.47938541 2.0458682
0.3246797 -0.4701975 2.018868
0.54109168 -0.46863648 2.0078175
0.57331604 -0.46499839 2.0205615
-1.397842 -0.41188273 2.0241551
-1.4008042 -0.39578223 2.0310977
-1.3941196 -0.26435578 2.0377326
-1.4005347 -0.23537406 2.0273442
-1.3865278 -0.24413335 2.0060461
-1.4077158 -0.16750956 2.0206039
-1.3965325 -0.193955 2.0026364
-1.4096481 -0.13975266 2.0250216
-1.4538863 -0.073658608 2.0061679
-1.4446963 -0.074362986 2.0275328
-1.4566027 -0.025537625 2.0240681
-1.4478441 -0.039260432 2.0382686
-1.4604074 0.022401027 2.028532
-1.4617025 0.074053101 2.0289862
-1.4664263 0.12425203 2.0232258
-1.4684809 0.17462532 2.0231016
1.3576498 0.15457863 2.0034084
2.0238059 0.19271679 2.0178978
-1.4701383 0.22338244 2.0237575
1.7822458 0.24521309 2.0465088
1.8156992 0.24729292 2.0499632
1.8740524 0.24133234 2.0378697
1.9188251 0.23397049 2.0290201
1.9707893 0.2282144 2.014287
2.0104365 0.20414986 2.0034552
-1.4793079 0.27542847 2.0194328
1.7812315 0.25729552 2.0440474
1.8973986 0.25001255 2.0232837
1.9348211 0.25953299 2.0196958
1.9590123 0.25239253 2.0055466
-1.5247582 0.33743131 2.0231454
-1.4816991 0.33166662 2.0191774
1.8744738 0.31263697 2.0378554
2.3829215 0.33724222 2.0363691
2.4129903 0.33760077 2.0102715
-1.611135 0.37569249 2.0221393
-1.5788933 0.35984913 2.0332596
-1.5174669 0.36321345 2.0339496
-1.4988782 0.36436093 2.0386038
2.3847902 0.37201634 2.0432441
2.4119692 0.37230197 2.0302899
-1.6252738 0.42501545 2.0235105
2.3797779 0.40908569 2.0486128
2.4115026 0.42507529 2.0342495
-1.6380186 0.47426465 2.0215027
2.416065 0.47121218 2.0340869
-1.662382 0.53711444 2.0240896
-1.6424023 0.51193404 2.0234203
2.4177616 0.53118867 2.0386682
-1.682111 0.57542282 2.0289176
2.4106636 0.56238478 2.0320413
-1.685207 0.62286329 2.019856
2.4206173 0.63073927 2.0376747
-1.8745447 0.69865686 2.0149696
-1.7111195 0.6618827 2.0232129
2.3994367 0.65360469 2.0124078
2.4137211 0.67575991 2.0464849
-1.9348392 0.72552127 2.0231607
-1.8941069 0.70121992 2.0119116
2.3857796 0.72466385 2.0066102
2.412164 0.7197538 2.0416884
-1.9577748 0.77662021 2.0168843
-1.9422871 0.77293777 2.0406172
2.4104848 0.77978319 2.0402191
-1.9595426 0.82635045 2.018115
-1.9479868 0.81289047 2.0390584
-1.9628927 0.87463415 2.0245805
-1.9629947 0.92218882 2.0262582
-1.9674813 0.97321427 2.0201588
-1.9717259 1.0254707 2.0247297
-1.9724252 1.0741153 2.0284891
-1.9748724 1.1257987 2.0252314
-1.9783324 1.1762389 2.0258226
-1.9826844 1.2196543 2.0215831
-1.9872357 1.273158 2.0258512
-1.9905019 1.3265898 2.0278835
-2.0015833 1.3519869 2.001828
-1.9909651 1.3770741 2.0261219
-2.0029469 1.4045075 2.0046589
-1.9909694 1.4211873 2.0221035
-2.0042577 1.4717553 2.0239515
-1.9994252 1.4893599 2.0452592
-2.0040357 1.5296206 2.0192676
-1.9959561 1.5142354 2.0358622
-2.0072811 1.5655391 2.0263324
-1.2242326 -0.51337063 2.0728345
-1.1692516 -0.52632636 2.0728855
-1.1314384 -0.5169763 2.0775585
-1.0692254 -0.50292993 2.0728171
-0.96017152 -0.50828201 2.0829275
-0.93972754 -0.50313306 2.065352
-1.2592677 -0.49318823 2.081568
-1.0615824 -0.4935188 2.085299
-0.98837775 -0.49172035 2.0655723
-0.11758304 -0.4705314 2.0620723
0.03515758 -0.47393149 2.0676577
0.077021137 -0.47519955 2.0747757
0.11374202 -0.46984619 2.0821803
0.17849095 -0.47249204 2.0678134
0.21864934 -0.47227567 2.0643091
0.28122607 -0.47433978 2.0817268
0.32958654 -0.4801873 2.0895305
0.35984477 -0.4727954 2.08476
0.58730841 -0.47105399 2.0741761
0.60830003 -0.46577793 2.078578
-1.4169686 -0.4188146 2.0845971
-1.4256923 -0.37398186 2.071378
-1.437099 -0.32476273 2.0947471
-1.4149415 -0.26938826 2.0796645
-1.4313383 -0.21755801 2.073879
-1.4445462 -0.19065993 2.0952072
-1.4288337 -0.11137308 2.0767226
-1.4369601 -0.072358437 2.0691011
-1.4508686 -0.011045299 2.0652351
-1.4409322 -0.029815679 2.0756228
-1.4542371 0.029080976 2.0698214
-1.4459858 0.017041201 2.0859251
-1.4538264 0.077982508 2.073895
-1.4446635 0.065838687 2.0934074
-1.4561801 0.12347274 2.0656722
-1.4473723 0.11964606 2.087734
-1.4566178 0.17838344 2.073432
-1.4464965 0.1859251 2.0980146
-1.4590458 0.22503859 2.0754135
1.6423944 0.24161115 2.0959318
1.6790518 0.23256934 2.0903001
1.7208964 0.2320679 2.0790923
1.7717215 0.23243059 2.0676515
1.8257918 0.23162012 2.0551507
1.8654393 0.22934328 2.053098
-1.4673003 0.27250692 2.0743439
0.88522142 0.25535089 2.096554
1.6305964 0.25276625 2.0911708
1.6740046 0.25482431 2.0883501
1.7257019 0.2562573 2.0709503
1.7592015 0.25673664 2.0531049
-1.4815041 0.31354788 2.06687
1.9330003 0.32028386 2.0774229
-1.6043725 0.39044634 2.0701902
-1.5835538 0.37981737 2.0790508
-1.4912927 0.35509568 2.0638604
1.7983605 0.37467563 2.0842664
1.8198766 0.37406954 2.0789423
2.3698184 0.37322757 2.0681958
-1.6093864 0.42375264 2.0753794
-1.5983124 0.40988743 2.0982964
1.7931045 0.40747076 2.0967681
1.8258024 0.41781765 2.0917182
2.3761961 0.4293097 2.0638909
-1.6210914 0.47680891 2.0732596
1.8388838 0.47739777 2.0951552
2.3748605 0.47276285 2.0677788
2.4052045 0.48456052 2.0572596
-1.6579818 0.54015797 2.0575066
-1.6352183 0.52043575 2.0767426
1.8309183 0.51477456 2.0977929
2.3869884 0.52784222 2.0719292
2.4097323 0.52106702 2.0537615
-1.6645467 0.57510811 2.0798464
-1.6467959 0.55054396 2.0888388
1.6856983 0.5779615 2.0880227
1.7221289 0.58954006 2.089257
1.7605631 0.57812595 2.095818
1.8257573 0.5955174 2.0917544
1.8573046 0.5889625 2.0877752
2.386337 0.5734514 2.0711172
2.423537 0.58852613 2.050858
-1.6771516 0.61976194 2.0673907
1.677478 0.60610902 2.0925462
1.7292757 0.60916382 2.0730693
1.7771378 0.6087696 2.0793874
1.8264548 0.61483061 2.0689299
1.8695964 0.60725212 2.0811071
2.3885887 0.62374943 2.0797534
2.4132524 0.62296891 2.0600073
-1.7006041 0.65498841 2.0609105
-1.689075 0.65529251 2.0704746
2.3848927 0.67629927 2.0786726
2.4103639 0.68224519 2.0598166
-1.9149647 0.7384845 2.0716286
-1.8973086 0.72983348 2.0843132
2.3879998 0.7217738 2.0778878
2.4064178 0.71366751 2.0563679
-1.9246848 0.77473545 2.0770216
2.3830886 0.77412117 2.0780766
2.4051435 0.77432323 2.0575678
-1.9391185 0.82451063 2.0752733
-2.7681317 0.85251534 2.0996902
-1.9525065 0.85994184 2.0544002
-1.9441538 0.87494737 2.0813069
-1.9544903 0.92665279 2.0586212
-1.9436513 0.92771393 2.0815597
-2.7922568 0.96333683 2.0859332
-1.9580413 0.97753596 2.0738354
-1.9493715 0.98410809 2.0847788
-2.8065825 1.0461024 2.099309
-1.9586751 1.0302689 2.0735278
-1.9592152 1.0776408 2.0773025
-1.9625494 1.1209174 2.0783296
-1.9684947 1.1729356 2.0738528
-1.9731171 1.2251551 2.0753195
-1.9759848 1.2754936 2.0781527
-1.9772159 1.3256791 2.0813801
-1.9777967 1.3746196 2.0772395
-1.9828908 1.4295877 2.0799999
-1.9890512 1.4738532 2.0721343
-1.9879457 1.5210009 2.080564
-1.9820476 1.5595249 2.0755861
-1.2524978 -0.50643677 2.1343963
-1.2263542 -0.51549476 2.1224737
-1.182328 -0.51738137 2.1290314
-1.1251031 -0.50756502 2.1172309
-1.0798025 -0.5019927 2.1210766
-1.3621974 -0.48213577 2.1487079
-1.2586793 -0.49284896 2.1223848
-1.2468879 -0.49956822 2.1003861
-1.1224289 -0.49734512 2.1404757
-0.12138945 -0.47533405 2.1299574
-0.089864507 -0.47259665 2.1187027
0.044170957 -0.4775489 2.1418774
0.074542746 -0.4748846 2.1198292
0.13713248 -0.47586727 2.1317337
0.17747404 -0.47314826 2.1175117
0.22017694 -0.47446638 2.130476
0.27753243 -0.47181952 2.1287301
0.32431445 -0.4781346 2.1124971
0.58973402 -0.46739987 2.1241872
0.60614967 -0.4616918 2.1108315
-1.414664 -0.41652393 2.1307838
-1.4389639 -0.3753776 2.1291175
-1.4381006 -0.3231172 2.1320577
-1.4317143 -0.27858704 2.1296704
-1.4422209 -0.22874683 2.1278358
-1.4522573 -0.17564011 2.130851
-1.4448876 -0.16774645 2.1204839
-1.4278866 -0.11872067 2.1304524
-1.4245726 -0.076906525 2.1243927
-1.4313952 -0.028764427 2.1287434
-1.4356682 0.025777476 2.1295457
-1.438022 0.076652557 2.1226618
-1.4410864 0.12389421 2.1227901
-1.4535239 0.17517564 2.1089995
-1.442773 0.17507282 2.1259346
-1.4540337 0.2218547 2.1062477
-1.4417607 0.22435434 2.1301866
0.63824266 0.24372658 2.1496034
1.2380764 0.20899606 2.1210432
1.2538345 0.23697352 2.1094589
1.3155171 0.22163217 2.1250818
1.4778886 0.23228765 2.1305296
1.5219553 0.22785401 2.1231372
1.5692368 0.22891913 2.1136191
1.6229331 0.22847117 2.1097882
1.6627321 0.22465932 2.1003022
-1.4547485 0.27810571 2.123455
-1.447196 0.25977743 2.139915
0.76930565 0.25744247 2.1473863
0.85452753 0.25892437 2.1383817
0.90522665 0.25024751 2.1448514
1.2751756 0.25022718 2.1201649
1.5362245 0.25004929 2.1159854
1.5761493 0.25265211 2.1237392
1.6112257 0.25347853 2.1123056
-1.5182863 0.33585364 2.1402285
-1.4831691 0.33332977 2.137388
-1.5687631 0.39644122 2.107475
-1.5347059 0.37288412 2.1348436
1.7979155 0.37718365 2.1073768
1.8076506 0.39049137 2.1049128
2.3822937 0.38696405 2.1211727
-1.6054296 0.44195658 2.1026049
-1.5885921 0.42640913 2.1248312
1.6789213 0.43510833 2.1416798
1.7007015 0.42496973 2.1477559
1.8138676 0.43863055 2.1083508
1.8687637 0.42879885 2.1099448
2.3811588 0.4229275 2.1185982
-1.6075364 0.47345367 2.127552
-1.5994172 0.46962696 2.1256208
1.7959523 0.47313741 2.121052
1.8147659 0.47751167 2.1076357
2.3715651 0.47630775 2.115664
-1.6223222 0.52192289 2.1261072
1.6884333 0.52684581 2.1497593
1.726938 0.51648647 2.1404881
1.7947292 0.52162236 2.1264353
1.81574 0.523251 2.1093538
1.8801794 0.53151745 2.1282971
2.3849747 0.51778221 2.1128795
-2.7377262 0.57813114 2.1440566
-1.6552737 0.58229309 2.1177907
-1.6405094 0.57224125 2.1340444
1.5973541 0.59375095 2.1470602
1.6314913 0.59081262 2.1330912
1.6736035 0.58439356 2.126755
1.7815839 0.58192194 2.1027813
1.8230604 0.57437038 2.1059861
1.8849556 0.56526446 2.1265249
2.3867159 0.57012296 2.1166091
2.4038627 0.57240587 2.1367958
-2.7349708 0.62427014 2.1316636
-1.7248341 0.64866012 2.1451895
-1.6708431 0.61672306 2.1183288
-1.6463946 0.6106087 2.1365428
1.5948076 0.60614461 2.1238537
1.6204274 0.60514909 2.108125
2.3918681 0.63096762 2.1204076
2.4062293 0.61290145 2.1386428
-2.7544284 0.67576706 2.1357608
2.3903768 0.65841937 2.1211281
2.4000118 0.67349029 2.1450005
-2.7613759 0.72957641 2.1352165
-2.7454362 0.72452933 2.1445396
-1.9023527 0.74996096 2.1105864
-1.8816411 0.73712778 2.1152747
2.3922367 0.7441805 2.1172862
2.4072695 0.71951061 2.1391828
-2.7659957 0.77527809 2.1340983
-1.9075541 0.78109223 2.1204841
-1.8992596 0.79247963 2.1467748
2.3776584 0.75413191 2.1000023
-2.7755899 0.82551605 2.1281533
-1.9234282 0.82763499 2.1249087
-2.7757328 0.88016123 2.126524
-1.9322816 0.87742716 2.1219394
-2.8029943 0.92710233 2.1066589
-2.7834809 0.92738545 2.1268108
-1.9352648 0.92604977 2.1273115
-2.8146386 0.99790007 2.1082428
-2.7881238 0.97999781 2.1297028
-1.9440974 0.97812134 2.1229687
-2.8058674 1.0217229 2.107038
-2.7876749 1.0318854 2.1311705
-1.954702 1.0140612 2.107554
-1.93752 1.0269318 2.1335719
-2.8053079 1.0758424 2.1168156
-2.7944257 1.0778303 2.1357455
-1.9521487 1.0813937 2.1037455
-1.9368246 1.0660379 2.1230633
-2.8048618 1.122488 2.128927
-2.7869732 1.1217717 2.1425695
-1.9555804 1.1343513 2.1209352
-1.945837 1.1090213 2.1318967
-2.7864103 1.1736785 2.1373205
-1.9559275 1.1751616 2.120163
-1.9480994 1.1720138 2.1455951
-2.7767699 1.2211953 2.1446764
-1.9628997 1.2327693 2.1208291
-1.9494129 1.2007281 2.1334407
-2.7772923 1.2620023 2.138788
-1.9612246 1.2757763 2.127352
-1.9613147 1.3217387 2.1267326
-1.9639636 1.3774774 2.1285586
-1.965799 1.4274622 2.1253252
-1.9633366 1.477 2.1270978
-1.9689426 1.5254625 2.1202404
-1.9609816 1.5569844 2.1299112
-1.2178668 -0.50865167 2.1790433
-1.1848695 -0.51286769 2.1655552
-1.1011446 -0.50053144 2.1649573
-1.3711611 -0.46724027 2.1802576
-1.3309199 -0.4652347 2.1751494
-1.2910712 -0.46808827 2.1703153
-1.2340958 -0.49496168 2.1705799
-1.1096803 -0.49675497 2.183121
-1.0719506 -0.49755663 2.1603708
-1.0434544 -0.49478349 2.1563234
-0.15444216 -0.47125021 2.1587746
-0.11888044 -0.47521734 2.1784425
-0.091752529 -0.47203672 2.1647418
0.045329452 -0.47941914 2.199595
0.071154073 -0.47848657 2.1701012
0.13546357 -0.47795406 2.1904235
0.17098829 -0.47337866 2.1677189
0.22858103 -0.47262827 2.1607716
0.25961587 -0.47855976 2.1692123
0.32701501 -0.47846729 2.1793547
0.35087699 -0.47473255 2.159642
0.56022865 -0.49306637 2.1639295
0.61278063 -0.46010593 2.1551192
-1.4154114 -0.40488222 2.1716888
-1.3780731 -0.422528 2.1856718
-1.3282802 -0.42882204 2.1920154
-1.4195613 -0.37373826 2.1725352
-1.3786765 -0.37213948 2.1920247
-1.339398 -0.37079492 2.1946423
-1.4194056 -0.32695737 2.1755626
-1.3738106 -0.32527143 2.1875243
-1.3273989 -0.32345709 2.1885931
-1.4234695 -0.27540579 2.1733682
-1.3788053 -0.27878591 2.1779525
-1.3269715 -0.27448863 2.1793969
-1.4510001 -0.20056568 2.1509824
-1.4247847 -0.22422546 2.182647
-1.3676869 -0.23460038 2.1921237
-1.3329885 -0.2330775 2.1877501
-1.450841 -0.18872499 2.1515629
-1.4287344 -0.17192926 2.1791794
-1.3533567 -0.15299574 2.1955216
-1.3437268 -0.18439272 2.188575
-1.4176798 -0.13155045 2.1683218
-1.3953707 -0.11175015 2.1788962
-1.4121495 -0.074038312 2.1747327
0.61557376 -0.074539058 2.1768222
-1.4184618 -0.029771598 2.1782072
-1.4205216 0.022061475 2.1775515
-1.4252653 0.077243797 2.1718042
-1.4294809 0.12425289 2.1726923
-1.4290742 0.17197022 2.1760912
0.60655141 0.16959159 2.1609271
-1.4322801 0.22617015 2.173912
0.59417677 0.24742062 2.1925588
0.61670321 0.24398072 2.1764116
0.67540419 0.24567521 2.1600699
0.72803789 0.24724658 2.1631258
0.75663358 0.24783427 2.1619256
1.0361767 0.23605703 2.1853962
1.2852659 0.22209188 2.1639774
1.3162476 0.22577393 2.1663623
-1.4505459 0.29825729 2.1650834
-1.4368241 0.2757028 2.1782827
0.67976999 0.25803328 2.1734135
0.72295797 0.25810814 2.1644661
0.78045642 0.25355583 2.1691136
0.82487303 0.25600505 2.1702008
0.87550282 0.25392678 2.1712129
-1.4789085 0.33776999 2.1789525
-1.5611348 0.38129091 2.1876333
-1.536243 0.3578988 2.1794531
-1.5791882 0.42520869 2.1815417
1.6389624 0.42191818 2.1637461
-1.5895268 0.47585371 2.1720605
1.6383731 0.48838145 2.1662681
1.6587272 0.48603413 2.1549516
2.4048171 0.48150328 2.1662672
-1.6156397 0.53518325 2.1678262
-1.5941067 0.51126897 2.1720643
1.6260706 0.51042485 2.1674557
1.672675 0.51234621 2.1616259
2.4346845 0.53172803 2.1841762
-2.7703338 0.56925845 2.1728835
-2.7428713 0.59033972 2.1743054
-1.6290334 0.57073331 2.1780195
1.5942019 0.59718895 2.1670187
1.6171744 0.58089936 2.1629536
1.6531131 0.57556438 2.1539922
2.4298801 0.56007695 2.173502
-2.7380192 0.63062805 2.1785522
-1.6703411 0.63450521 2.1767433
-1.6410575 0.61165488 2.1795671
2.412596 0.62557375 2.1695671
-2.7732916 0.68038821 2.150429
-2.745615 0.67837024 2.1635323
-1.726077 0.65820688 2.170202
-1.6830382 0.65211034 2.1901789
2.4173236 0.69307512 2.1564493
-2.7398498 0.7253052 2.1829753
-1.8677311 0.7372613 2.1771774
2.421612 0.7281906 2.1792653
-2.7415164 0.78042603 2.1757789
-1.9033476 0.78634489 2.181025
-1.894437 0.77023745 2.1792076
2.4247661 0.77375692 2.1688712
-2.757266 0.84296662 2.1506367
-2.7402992 0.8286103 2.1809711
-1.9113486 0.82943583 2.1695225
-1.8977964 0.81657857 2.1916637
2.4258027 0.8062852 2.174336
-2.759093 0.86802262 2.1641982
-2.7460167 0.88120192 2.1878719
-1.9210023 0.87343377 2.1779392
-2.7611167 0.93033272 2.1636038
-2.7395627 0.91107708 2.1726618
-1.9219894 0.92276108 2.1743815
-2.7620533 0.97394651 2.167351
-2.7385466 0.98309553 2.192636
-2.6801488 0.97062278 2.1876678
-1.9270636 0.97304291 2.1741571
-2.7614813 1.027645 2.163255
-2.7392101 1.0266061 2.1931539
-1.9337579 1.0154957 2.1757543
-2.7636402 1.0722774 2.169271
-2.7309372 1.0862144 2.1940176
-1.9336115 1.0736395 2.1832767
-2.7605569 1.1225196 2.1703534
-1.9389744 1.1305158 2.179285
-2.7628376 1.1708262 2.171653
-1.9412577 1.1767629 2.1730931
-2.7677212 1.2243429 2.1652293
-1.9533288 1.232927 2.1538122
-1.9452965 1.2268988 2.1766179
-2.76215 1.2625102 2.1544516
-1.9519397 1.2835214 2.1573486
-1.9464667 1.2717587 2.1808889
-2.7763691 1.3019596 2.1518011
-1.953127 1.3365681 2.1629362
-1.9433029 1.3219281 2.1820965
-1.951237 1.3760626 2.154705
-1.9416043 1.3738271 2.1797225
-1.9542999 1.4300176 2.1562555
-1.9450365 1.4282941 2.1821136
-1.9521271 1.4765962 2.1706669
-1.9453793 1.4758557 2.1889691
-1.9524717 1.5269967 2.166085
-1.9485289 1.5131067 2.1890001
-1.9527584 1.5605766 2.1667383
-1.9478762 1.553663 2.1982837
-1.2039542 -0.50355792 2.2034357
-1.1804603 -0.50352407 2.2125802
-1.2239041 -0.49580032 2.2357764
-1.1456647 -0.49861068 2.2000279
-0.14873961 -0.48686805 2.2308125
0.031430468 -0.48030612 2.2209239
0.074588202 -0.4809067 2.2230043
0.12682703 -0.4746798 2.226794
0.17064434 -0.4764277 2.2330751
0.23635286 -0.47798407 2.2364969
0.27486542 -0.47877914 2.2373099
0.32578483 -0.4798592 2.2203367
0.37441295 -0.48085755 2.2376046
0.5699864 -0.49074793 2.2032828
-1.3709418 -0.40585124 2.2001491
-1.3153706 -0.41929626 2.2069333
-1.3655726 -0.38952529 2.2019508
-1.3235157 -0.37700742 2.2060869
-1.3664891 -0.33309233 2.2020714
-1.3857303 -0.2142024 2.2068892
-1.3300098 -0.22486475 2.2147195
-1.4088868 -0.17315705 2.2092969
-1.3900764 -0.1730568 2.2165301
-1.3401266 -0.16759181 2.2144239
-1.4046239 -0.12588337 2.2297707
-1.3960106 -0.12248993 2.222347
-1.4035133 -0.075333349 2.2131515
-1.3990577 -0.079758175 2.2307436
-1.4099104 -0.028992411 2.2240417
-1.3966916 -0.035860989 2.2443981
-1.4132538 0.02622007 2.224853
-1.4149911 0.080156706 2.2250021
-1.4147614 0.12653476 2.2207148
-1.4190708 0.1747157 2.2272546
-1.4204731 0.22479792 2.2237236
0.73316437 0.22693616 2.2336023
0.95969886 0.22798637 2.2461782
-1.4284869 0.271065 2.2295783
0.63673002 0.26244178 2.2217274
-1.4932762 0.34668425 2.2494836
-1.432325 0.30192828 2.2103207
-1.5585524 0.3927443 2.2204027
-1.5388011 0.36325955 2.2237151
-1.5634018 0.43048352 2.2196171
-1.576105 0.47677231 2.2278631
-1.6095915 0.53813171 2.2271037
-1.5837756 0.51548988 2.2364824
-2.7397771 0.57726878 2.203392
-1.6216511 0.57975554 2.2202978
2.439568 0.59542263 2.2028725
-2.7375062 0.62278348 2.2132838
-1.6525053 0.64235097 2.2276881
-1.6335791 0.61649483 2.2324135
-2.7300878 0.6911847 2.2125618
-2.7291951 0.74859548 2.2115562
-1.8647999 0.73995805 2.2266629
2.4395764 0.70370716 2.2038841
-2.7224462 0.77993184 2.206707
-1.8869534 0.77520782 2.2247982
2.4350772 0.79681617 2.2011557
-2.7161818 0.82896811 2.2067311
-1.8932709 0.8233816 2.2250304
-2.7201743 0.88312364 2.2237852
-1.9091676 0.87833381 2.2278855
-2.752563 0.93685222 2.2059729
-2.7423439 0.92005062 2.2172146
-1.9123442 0.92743713 2.2227366
-2.7576134 0.95473611 2.2046795
-2.7334459 0.96801788 2.208194
-1.9130653 0.97298533 2.2255695
-2.7484438 1.0057428 2.2091358
-1.9176068 1.0286994 2.2234156
-1.9255137 1.0812258 2.2309124
-2.730176 1.1249264 2.209305
-1.9271935 1.1284204 2.2279973
-1.9256653 1.1779646 2.2253602
-2.7356112 1.2160029 2.2094691
-1.9289383 1.2224355 2.2218952
-2.7329865 1.2551379 2.2220471
-1.9314342 1.2773795 2.2223105
-1.9324225 1.325385 2.2193208
-1.9324621 1.3754667 2.2280118
-1.9336549 1.4234036 2.2274823
-1.950688 1.4853595 2.2089136
-1.9399736 1.4708749 2.2262642
-1.9512273 1.5250962 2.2386551
-1.9424845 1.5335716 2.2135482
-2.1217175 2.358706 2.240973
-1.2201191 -0.49136519 2.2637427
0.046886519 -0.47933361 2.2774699
0.068819843 -0.4841828 2.2731178
0.13591357 -0.47688547 2.2905033
0.18286316 -0.47787657 2.275039
0.22197649 -0.47763416 2.2740986
0.27679011 -0.47749445 2.2850575
0.32007235 -0.47856179 2.2864902
0.6066196 -0.480672 2.2577348
0.84990799 -0.46392435 2.2993908
0.87927014 -0.45249799 2.2942994
-1.3528731 -0.4249472 2.2975185
-1.3542781 -0.36039865 2.2815294
-1.3479009 -0.38304204 2.2678146
-1.3585042 -0.32475701 2.2927012
-1.3375993 -0.27744564 2.2616124
-1.35401 -0.21777809 2.2684016
-1.3491141 -0.22906248 2.2593184
-1.3675301 -0.19547924 2.2926908
-1.3850906 -0.11391775 2.2692385
-1.4020497 -0.080398887 2.2521446
-1.3919771 -0.081008643 2.2781169
-1.4047827 -0.02929342 2.2719338
-1.3967729 -0.030376852 2.2953987
-1.4044894 0.024720935 2.2696149
-1.3975412 0.024918666 2.2966423
-1.4048586 0.082161486 2.2673478
-1.3982924 0.073919445 2.2884858
-1.4054585 0.12839901 2.268472
-1.3978484 0.13551509 2.2941957
-1.4075761 0.17839725 2.2735772
-1.3978395 0.16624126 2.2926276
-1.4121222 0.22602497 2.2691541
0.93219638 0.22416271 2.2925906
0.95962679 0.21588254 2.2774739
-1.4187456 0.27911252 2.2719462
-1.4658087 0.34167606 2.2634234
-1.4402962 0.33490974 2.2829382
-1.5376867 0.37822804 2.2652946
-1.5569116 0.42643371 2.2636974
-1.545368 0.41474018 2.2789335
-1.5626053 0.47591999 2.2721841
-1.6106452 0.54277098 2.2928674
-1.5709339 0.51388282 2.2738109
-1.6181062 0.57532638 2.2711065
-1.6200413 0.61571693 2.2653382
-1.6610291 0.65580636 2.290082
-1.8618425 0.74684072 2.2617848
-1.8492858 0.73634732 2.2892032
-1.8751651 0.77362853 2.2764008
-1.9015521 0.8428691 2.2719231
-1.8893385 0.82086015 2.2813299
-1.9036921 0.87487411 2.269135
-1.898536 0.87223876 2.2725301
-1.905185 0.92566299 2.2705297
-1.8998672 0.92813987 2.2842267
-1.9087371 0.97801369 2.2805023
-1.912611 1.0281904 2.2745974
2.967046 1.0211647 2.2954106
-1.9167629 1.0779852 2.2805278
3.0392358 1.077577 2.2776418
-1.9140042 1.1231012 2.272964
-1.9147645 1.1756036 2.2781687
-1.9128264 1.2211748 2.2740805
-1.9168965 1.2711476 2.2763686
-1.9252926 1.3258485 2.2740405
-1.9270334 1.381217 2.2813084
-1.9276241 1.4299278 2.2843955
-1.9325564 1.4734976 2.2711389
-1.9397732 1.5261405 2.2725558
-1.9387003 1.5581793 2.2756321
-2.1754589 2.3656604 2.279351
-2.1211863 2.3599792 2.2828434
-2.0801525 2.3599408 2.2705433
-2.0491881 2.3635509 2.2966678
0.57700276 -0.50501049 2.3244493
-1.1836404 -0.48910213 2.3350065
0.075602785 -0.48137599 2.31392
0.11834162 -0.4756828 2.3272543
0.17354138 -0.47660354 2.3274968
0.23862284 -0.47145048 2.3144388
0.27714938 -0.47428077 2.3142395
0.32394832 -0.47246209 2.324198
0.36953694 -0.48337606 2.3293095
0.42268479 -0.49913436 2.3186946
0.52959377 -0.4696016 2.3216927
0.57192886 -0.48245898 2.3249445
0.61519706 -0.47564194 2.333704
0.87048119 -0.46290347 2.3209879
0.90568304 -0.45409703 2.3301716
-1.3672421 -0.41262814 2.3378186
-1.3475051 -0.42487824 2.3426635
-1.2146184 -0.43637845 2.3463221
0.87192285 -0.44906789 2.3446212
0.9160099 -0.44750464 2.3239386
-1.37921 -0.38295907 2.3487711
-1.3692663 -0.32535547 2.3272719
-1.2240784 -0.31880221 2.3498232
-1.3595932 -0.27782097 2.319108
-1.2218859 -0.2937341 2.3479173
-1.3782046 -0.18046217 2.3221908
-1.3814822 -0.11856841 2.3253531
-1.3853216 -0.080278501 2.3277202
-1.3876617 -0.029949626 2.3237162
-1.3909385 0.02235255 2.3233569
2.8956177 0.0016928542 2.3497927
-1.4018319 0.074578129 2.3159151
-1.3939867 0.076982491 2.3333695
-1.4024597 0.12774767 2.3020859
-1.3939984 0.12450767 2.3274248
-1.4016026 0.18718186 2.3304381
-1.3961713 0.16930895 2.3262582
-1.4050398 0.23369455 2.3087294
-1.3972124 0.21849038 2.3319716
0.7899242 0.22398099 2.3242869
0.82573903 0.22548747 2.3263958
0.87677032 0.22663572 2.3187377
0.91594005 0.22878401 2.3102636
0.96576911 0.24674337 2.3214128
-1.4080434 0.27888125 2.3175957
-1.3981056 0.26307306 2.3388374
0.78799111 0.25411671 2.3238308
0.82022905 0.2569854 2.3444929
0.87811601 0.25856972 2.3456473
0.9251352 0.25860268 2.3332989
0.97131205 0.25996634 2.3337994
-1.4104584 0.30058631 2.3294883
-1.5251985 0.38254184 2.3200922
-1.4923587 0.38059378 2.321414
-1.5529976 0.44388446 2.3106053
-1.5339042 0.4221254 2.3312225
-1.5562426 0.47535816 2.3150289
-1.5295702 0.47471225 2.3342485
-1.6104891 0.54709458 2.3184073
-1.5600049 0.50651503 2.3223038
-1.5327066 0.50382066 2.3404872
-2.6924264 0.5793075 2.3397911
-1.6253753 0.57613271 2.3217442
-2.704005 0.63018054 2.3391557
-2.6997464 0.61308593 2.3391254
-1.6502588 0.64359766 2.3040009
-1.6254529 0.61619979 2.3180392
-2.7170274 0.66562659 2.3427842
-2.6821213 0.67704791 2.3382695
-2.6674552 0.70748496 2.3321629
-1.847357 0.74378622 2.3262792
-1.8640019 0.77674371 2.3211653
-1.8815749 0.82513821 2.3194652
-1.8942152 0.87959737 2.3238635
-1.9019535 0.92552674 2.3025572
-1.8904619 0.92672473 2.3238876
-1.9048355 0.99036866 2.3129501
-1.8882844 0.97096169 2.3264859
2.7881348 0.96869034 2.3382025
2.8384275 0.99723315 2.3443594
-1.9076263 1.0239503 2.3192961
-1.8984004 1.0376356 2.3464923
2.8712819 1.027853 2.3391418
2.9258566 1.0406166 2.3256042
2.9516959 1.0302945 2.3101823
-1.9058112 1.073589 2.327867
2.8814144 1.0844949 2.3438683
2.9223824 1.0741483 2.3428965
2.9825482 1.0670755 2.3256018
3.0221415 1.0816957 2.3135831
-1.9090314 1.1221838 2.3177695
-1.8997163 1.1327884 2.3414083
2.8759432 1.1324034 2.3427496
2.9379442 1.1297545 2.3348875
2.9961236 1.1154563 2.3211932
3.0206807 1.1181624 2.3104603
-1.9058698 1.1648802 2.3263512
-1.8969762 1.1860743 2.3302326
2.8712664 1.169427 2.3460703
2.9247799 1.1737701 2.3414066
2.9711423 1.1680515 2.3276219
3.0098839 1.1730657 2.3131535
3.0659709 1.1670218 2.3178222
-1.9048792 1.2278531 2.3200586
-1.8926162 1.2168396 2.325877
2.89975 1.2331047 2.349067
2.925106 1.2278588 2.3428364
2.9578021 1.2115082 2.3367522
3.0253253 1.22659 2.3236914
3.0565305 1.2020906 2.3128309
-1.9057668 1.2690386 2.3215976
-1.8985786 1.2739954 2.3410928
2.8873229 1.2873244 2.348038
2.9230237 1.2714987 2.343266
2.9849682 1.2683868 2.3350427
3.0241671 1.2561879 2.3276594
-1.914851 1.3261006 2.3210487
-1.8991016 1.3036433 2.3276145
2.9373264 1.3226737 2.3387136
2.9526246 1.3008945 2.3404789
-1.9147587 1.3744327 2.3262379
3.0081384 1.3709735 2.3325608
-1.9177346 1.4267131 2.3222122
2.9662137 1.4432507 2.3441398
3.007561 1.4325086 2.3394847
-1.935092 1.4879417 2.3343213
2.95625 1.4783323 2.3355126
-1.9311346 1.5234486 2.3255522
-1.9219409 1.5680431 2.3264802
-2.7533216 1.8349327 2.3332963
-2.7533481 1.882717 2.3432717
-2.3142884 2.3745856 2.339066
-2.2770598 2.3723955 2.3331721
-2.2361948 2.3718674 2.3187563
-2.176523 2.3575299 2.3225067
-2.129585 2.3615854 2.3199966
-2.0792041 2.3654728 2.3276467
-2.0318673 2.3732705 2.3231311
-1.983254 2.356281 2.3289309
-1.2782829 -0.45825762 2.3801637
-1.1863517 -0.49534786 2.3693547
0.03721467 -0.48023638 2.3656034
0.077533454 -0.48236597 2.3754354
0.17600477 -0.4729968 2.384228
0.23303142 -0.47712827 2.3723185
0.3037571 -0.47429064 2.3823273
0.36988592 -0.46650106 2.3886635
0.41115996 -0.48974955 2.3894479
0.48495018 -0.47036701 2.3729358
0.52733058 -0.48937449 2.3723032
0.88069707 -0.46713996 2.3756275
0.92324734 -0.48098248 2.3727221
-1.3672792 -0.40868106 2.3706803
-1.3433545 -0.42324194 2.3773606
-1.2837222 -0.43497363 2.3937497
-1.2216601 -0.41416821 2.3631697
0.33953774 -0.43516868 2.391855
0.35975608 -0.42509899 2.3864512
-1.3752902 -0.37092534 2.3764725
-1.2343702 -0.36566296 2.3721917
0.36309323 -0.39492884 2.3965235
-1.3741429 -0.32341823 2.3878689
-1.2645144 -0.32605892 2.3985579
-1.2288296 -0.32625264 2.3582749
0.34781033 -0.33332956 2.3783824
0.35038179 -0.3242138 2.3970091
-1.3763288 -0.26774058 2.3726683
-1.2668165 -0.28695887 2.3872046
-1.2346561 -0.26849928 2.363416
-1.3823291 -0.22198309 2.3719661
-1.2844051 -0.23723376 2.3865838
-1.240827 -0.231739 2.3667154
-1.3839769 -0.17484675 2.3786204
-1.3732946 -0.11826956 2.3748329
-1.3754653 -0.073695511 2.3734078
2.873224 -0.081046976 2.3757675
-1.3784153 -0.02979942 2.3701658
2.8769982 -0.031455792 2.37976
2.9218624 -0.014964482 2.3710871
-1.3810714 0.01919926 2.374769
2.8977346 0.0016618567 2.3818128
-1.3827068 0.068998478 2.3743997
-1.385293 0.1174915 2.374424
-1.3893871 0.17093493 2.3790033
-1.3886228 0.22176325 2.3799722
-1.4033223 0.2944321 2.3994098
-1.3938606 0.26770753 2.375174
0.84774566 0.25826398 2.3504035
-1.5830963 0.52489573 2.3615587
-2.6721616 0.5801034 2.3665671
2.6146014 0.58243489 2.3734112
-2.6860733 0.63098001 2.3631802
-1.6455073 0.63058031 2.3820858
-2.6450434 0.69181275 2.3610079
2.5873196 0.68289143 2.3540998
2.6232035 0.66823685 2.3927107
-2.6463578 0.70822829 2.3580673
-1.8570875 0.76869917 2.368222
2.5939603 0.78481293 2.3639278
2.6278448 0.77885807 2.3994162
-1.8732932 0.82654089 2.3719656
-1.8833157 0.87708282 2.365798
2.6121531 0.87623662 2.3860402
-1.8843724 0.92464948 2.3716621
2.68783 0.92360353 2.3833122
2.7217312 0.94617873 2.3773563
2.7631943 0.9491213 2.3527355
-1.8780298 0.97283554 2.3748567
2.7253313 0.975308 2.38726
2.7736511 0.98070109 2.3683047
2.8194637 0.99644834 2.358773
-1.8897951 1.0247698 2.3771033
2.7410629 1.0294355 2.3895218
2.7814565 1.0285528 2.3755517
2.8192303 1.0265313 2.3589447
-1.9006304 1.0972452 2.3573496
-1.8911711 1.0708122 2.3725278
2.7453623 1.0696213 2.3901777
2.7674921 1.082343 2.3858337
2.8252289 1.0725042 2.3700504
2.863903 1.0775545 2.3567047
-1.9005626 1.1116409 2.3514197
-1.8906626 1.125828 2.3781061
2.7455394 1.1355171 2.3984892
2.7798955 1.1249931 2.384443
2.8346999 1.1306686 2.3742712
2.8630006 1.1232126 2.3554823
-1.8879405 1.1761612 2.3743064
2.7309346 1.1873015 2.3961024
2.7712688 1.1725113 2.3937235
2.8307984 1.1750914 2.3765357
2.8794205 1.1935259 2.3611786
-1.9023308 1.2471677 2.3594291
-1.8934009 1.2206697 2.3772988
2.7450218 1.218998 2.3979521
2.7848868 1.2167845 2.3899493
2.8280697 1.2244494 2.3807824
2.866982 1.2301427 2.3675816
-1.9066141 1.2794355 2.3509235
-1.8923159 1.2727902 2.3716147
2.7933731 1.2673451 2.3947651
2.8233519 1.2755431 2.3801379
2.8733654 1.2675751 2.3587935
-1.9083153 1.3334808 2.3723238
-1.895577 1.3141527 2.3840504
2.8271756 1.3248951 2.3851542
2.8638463 1.3184991 2.3783641
2.9168887 1.3268654 2.3611591
-1.9057705 1.3670669 2.3657424
-1.8966784 1.3626962 2.3963361
2.7972825 1.3550928 2.395113
2.8322501 1.3594511 2.3788607
2.8754845 1.3589007 2.373028
2.92349 1.3736197 2.36485
-1.9056549 1.4181055 2.3710904
-1.8972448 1.4343266 2.3957434
2.7357244 1.4281721 2.3981667
2.7556944 1.4209301 2.3889842
2.8234327 1.4378951 2.3857877
2.8696947 1.4436499 2.3636074
2.9366908 1.4108326 2.3621871
2.9733658 1.4068279 2.3501608
-1.9139826 1.4718081 2.3729439
2.724874 1.4748756 2.3986473
2.7869353 1.4808595 2.3953872
2.8184748 1.4723394 2.3852022
2.8756671 1.4776374 2.371521
2.9160717 1.4847693 2.359283
-1.91409 1.5212784 2.3706796
2.7906957 1.5315124 2.3927307
2.8218842 1.538974 2.3887515
2.8781431 1.5257365 2.377825
2.929934 1.5411551 2.365087
-1.9076109 1.5546277 2.3650217
-1.8974713 1.5650777 2.3970912
2.7399185 1.5802717 2.3992646
2.7676458 1.5773625 2.3971233
2.830605 1.5752797 2.3984852
2.7453251 1.600988 2.3950424
2.8329983 1.626224 2.3936923
2.8647866 1.6291533 2.374712
2.9170122 1.6205031 2.3658867
2.7846889 1.6864328 2.39713
2.8243148 1.6715674 2.3907192
2.8719494 1.6820911 2.3799479
2.9102199 1.68094 2.3640316
2.743 1.727152 2.3986945
2.8264322 1.7278643 2.3881168
2.8700576 1.729008 2.3837795
2.792172 1.7828737 2.3914042
2.8084607 1.781826 2.3748765
2.8548975 1.7523774 2.3723352
2.9093425 1.7746376 2.3870134
-2.7548339 1.865783 2.3545532
-2.7418871 1.8871057 2.3634508
2.8302436 1.8619788 2.3943589
-2.7568245 1.9308693 2.3761067
-2.7195871 1.908271 2.379271
-2.7584538 1.9812455 2.3869629
-2.4305458 2.3644979 2.3921072
-2.3777237 2.3755198 2.3823919
-2.3296082 2.36778 2.3705268
-2.2706137 2.3664856 2.3773293
-2.2317207 2.3806877 2.3780901
-2.1836443 2.3761897 2.3896418
-2.134973 2.3649769 2.37327
-2.0793095 2.3739443 2.3838015
-2.0186796 2.3649986 2.3726451
-1.9686369 2.3632119 2.3731925
-1.9230478 2.3660216 2.383153
2.1990416 2.4847648 2.3854246
2.2313099 2.4880559 2.3828988
2.270174 2.4901562 2.3775928
2.3267314 2.4892933 2.3906593
2.3533762 2.4798136 2.3999968
0.48259449 -0.50343001 2.4488368
0.93536401 -0.50273818 2.419569
0.038418721 -0.48396862 2.4436858
0.076446846 -0.48218411 2.4340467
0.12792082 -0.47991386 2.421169
0.17380334 -0.48289785 2.4343743
0.22124465 -0.48357412 2.4352884
0.28435305 -0.480636 2.4160826
0.34055448 -0.46963844 2.4164758
0.37616935 -0.47073761 2.4084773
0.42369169 -0.49170041 2.4280481
0.4806622 -0.48099723 2.4239249
0.50342733 -0.47647643 2.4335999
0.59464771 -0.47799259 2.4278083
0.86752564 -0.46853334 2.4215822
0.93223482 -0.48883271 2.4132216
-1.3606632 -0.40948731 2.4104409
-1.3252037 -0.41526902 2.4200306
-1.2901475 -0.41179585 2.4089985
0.19158167 -0.40068507 2.4447601
0.23333512 -0.41901192 2.4247072
0.2806572 -0.42294413 2.4219396
0.32373518 -0.41847694 2.4226496
0.38263735 -0.42655143 2.4173825
0.61799985 -0.42748308 2.4428134
-1.3601054 -0.37911537 2.4273956
-1.3058977 -0.37464648 2.4141574
-1.2934468 -0.38743234 2.4182286
0.17918825 -0.39933306 2.4370928
0.2290258 -0.39115152 2.4280226
0.28146797 -0.38644275 2.4249098
0.32905981 -0.3904126 2.4209259
0.366761 -0.38130227 2.4226444
-1.360682 -0.32976627 2.42801
-1.3272029 -0.31986871 2.4342175
-1.2831147 -0.32130301 2.4055092
0.32539234 -0.33581156 2.4352558
-1.365653 -0.2754223 2.4263017
-1.3355119 -0.27260074 2.4379089
-1.2943621 -0.26847151 2.4028027
-1.3667645 -0.22377069 2.4250805
-1.323755 -0.22939005 2.4316866
-1.2697873 -0.20139265 2.4185038
-1.3666819 -0.18236002 2.4234669
-1.3390291 -0.18595207 2.4482675
-1.3623284 -0.12152816 2.4193444
-1.3685431 -0.070666522 2.4256065
-1.3679131 -0.025299154 2.4309561
-1.3706164 0.017368561 2.4299076
-1.3742017 0.071402736 2.4261894
-1.3774343 0.12685803 2.423974
-1.3770329 0.17317532 2.4235923
-1.3786693 0.2252837 2.4316883
-1.4000872 0.29644808 2.4214754
-1.3876382 0.27639982 2.4201291
2.5875196 0.38399062 2.44293
2.5995381 0.44988081 2.4446223
2.6050878 0.41746774 2.4398432
2.5976446 0.46556857 2.4401953
2.6027427 0.48252943 2.4422383
2.6150987 0.51706749 2.4480293
2.6330757 0.58377945 2.4368863
2.6315451 0.61704665 2.4384727
2.5883625 0.67480808 2.4371667
2.6136875 0.68306679 2.4184518
2.5885105 0.73340869 2.4427872
2.623342 0.73124033 2.4235325
-1.8572826 0.78124535 2.4125743
-1.8444793 0.76538289 2.4305873
2.5771618 0.77811587 2.4426057
2.6195171 0.78199005 2.4268978
-1.8674893 0.82600689 2.4174883
2.5953236 0.82439119 2.4482017
2.6240296 0.82577991 2.429451
-1.8776197 0.8769145 2.4198608
2.6190419 0.86628139 2.43205
-1.8761996 0.91823351 2.4206448
2.5989521 0.93753874 2.4487398
2.6262143 0.92207879 2.4337771
2.6627326 0.92897278 2.4125299
-1.8752378 0.97050411 2.4224706
2.5802557 0.97774732 2.4476223
2.6222475 0.97238052 2.4382346
2.6751068 0.98036766 2.4159381
-1.8806047 1.026565 2.4325018
2.5925143 1.0236554 2.4445748
2.6300948 1.0287231 2.4336741
2.6740255 1.024637 2.4156125
2.7096798 1.0204008 2.4046211
-1.8810879 1.0733647 2.4227505
2.5824993 1.0758117 2.4473507
2.6185575 1.0778445 2.4394603
2.6739376 1.0755622 2.4265044
2.7213862 1.0784949 2.4118955
-1.8830615 1.120289 2.4303088
2.5886641 1.1305109 2.444051
2.6321378 1.1194994 2.4348431
2.6761165 1.1275725 2.428921
2.7218537 1.1306641 2.4157729
-1.8806188 1.1667814 2.4263065
2.5896268 1.1775143 2.4486299
2.6211741 1.17213 2.4353046
2.6746266 1.178382 2.4271619
2.7201636 1.1693472 2.4087706
2.7654588 1.1778803 2.4024119
-1.8868381 1.2203087 2.4273915
2.6199853 1.2255343 2.4383852
2.6840582 1.2259542 2.4199328
2.7236602 1.2255229 2.4063494
-1.9003705 1.295128 2.4006903
-1.8845698 1.2725586 2.42452
2.5849319 1.2772955 2.4432299
2.6251047 1.272718 2.436862
2.672142 1.2763444 2.4209759
2.7217312 1.2695993 2.4082649
2.7676871 1.2783059 2.4055083
-1.8921152 1.3272997 2.4233112
2.5754058 1.3264999 2.4474347
2.6203673 1.3224506 2.4380026
2.6711988 1.322443 2.4265969
2.7304413 1.3288177 2.4170041
2.7649529 1.3218579 2.4094439
-1.9033999 1.3880352 2.4120283
-1.8879248 1.3707564 2.4336672
2.58972 1.3919027 2.4396541
2.6189594 1.3742732 2.441577
2.6739852 1.3698199 2.4298687
2.7329245 1.3618872 2.4083462
2.7798414 1.3550017 2.4108803
-1.9001986 1.4063118 2.4150741
-1.8909156 1.4258341 2.4251418
2.5870211 1.420548 2.4403012
2.626869 1.4223419 2.4302716
2.6815417 1.4222424 2.4271209
2.7127478 1.4251341 2.4086895
2.8081703 1.4389991 2.403482
-1.9036694 1.4888974 2.4133294
-1.8938701 1.4672593 2.4354992
2.5904834 1.4657784 2.4460227
2.6217096 1.4778426 2.4360442
2.6785195 1.4699532 2.4241445
2.7105396 1.4733629 2.4064605
2.7703855 1.4694983 2.4057329
-1.9091978 1.5265924 2.4240875
-1.8969194 1.5464139 2.4439569
2.6249344 1.5218924 2.4357178
2.6779306 1.5253513 2.4257383
2.7195222 1.5310831 2.4121144
2.7668846 1.5296335 2.4080422
-1.9024549 1.5537997 2.4121456
-1.8984982 1.5631819 2.4373512
2.5437336 1.5803245 2.4493773
2.58849 1.5730294 2.4490306
2.6240203 1.5788931 2.4354126
2.6817763 1.5718026 2.4247704
2.7278314 1.5695503 2.4084587
2.8030729 1.5786192 2.4013593
2.5891485 1.6238855 2.4473662
2.6190689 1.6252476 2.4352684
2.6624403 1.6130947 2.422183
2.7263272 1.6187854 2.4236724
2.7716606 1.6281852 2.4119313
2.816695 1.6253504 2.4054024
2.6215158 1.6737642 2.4430153
2.67506 1.6718165 2.4292197
2.7235916 1.6772757 2.4139726
2.7654555 1.6670671 2.4086597
2.6278927 1.7231345 2.4426868
2.66414 1.726199 2.4248269
2.7185822 1.7229226 2.4079082
2.7773449 1.7286124 2.4026368
2.8165572 1.7328092 2.4104009
2.6410861 1.7539139 2.4425559
2.6744525 1.7726492 2.4296136
2.7139852 1.7669491 2.4152842
2.7689395 1.7704843 2.4068201
2.6699684 1.8029103 2.4332936
2.731708 1.8113623 2.4316144
2.7600179 1.8032844 2.4151351
2.6659644 1.8724049 2.4456422
2.7381182 1.8822274 2.4378724
2.7759054 1.8864083 2.4262981
2.8377473 1.8912897 2.4059577
2.7382677 1.9323859 2.4413061
2.7784379 1.927022 2.431917
2.8192496 1.9249351 2.4209542
-2.7526283 1.9652705 2.4077497
-2.741097 1.9792253 2.4231367
2.6854744 1.9902319 2.4412596
2.7173953 1.9730183 2.439362
2.774622 1.9810793 2.4280577
2.8159029 1.9649054 2.4195573
-2.7592509 2.0292532 2.4175515
-2.7318671 2.0289941 2.4282861
-2.699239 2.0439866 2.4463143
2.6691041 2.0098639 2.4466288
2.7257297 2.0187786 2.4390562
2.7766571 2.0261416 2.4238448
-2.7639296 2.0511868 2.4107614
-2.7266662 2.0795307 2.4304042
2.7278955 2.0773604 2.4463136
2.7672441 2.0768752 2.4402084
-2.7158175 2.1286912 2.4374566
2.7483945 2.1303854 2.4421926
2.7664399 2.111259 2.438323
-2.7105293 2.1765332 2.4408889
2.7230544 2.16047 2.4491796
2.7009168 2.2120337 2.447022
-2.510504 2.3597822 2.43961
-2.4755449 2.3626606 2.4241638
-2.4171708 2.365417 2.425745
-2.3781211 2.3758438 2.4268863
-2.3222361 2.3742433 2.4193592
-2.2717717 2.3684707 2.4304287
-2.2186377 2.3680143 2.4160247
-2.1803558 2.3649304 2.430217
-2.1255064 2.3710196 2.4315848
-2.0772207 2.3708756 2.4254146
-2.038414 2.3715382 2.424669
-1.9756117 2.3639162 2.4265764
-1.9268482 2.368221 2.424346
-1.8748784 2.3711224 2.4318857
2.0720434 2.4618731 2.4339602
2.1212647 2.4778223 2.4261706
2.1769176 2.4855514 2.4263916
2.228379 2.4806578 2.4293082
2.2816162 2.4803677 2.4212601
2.3262534 2.4783988 2.4249523
2.3761661 2.475616 2.420764
2.4103799 2.4733424 2.4372015
2.451087 2.4677062 2.4438069
0.038913235 -0.46630681 2.4781287
0.070493348 -0.46864715 2.4763455
0.13171132 -0.48150906 2.4757359
0.17734256 -0.48084855 2.4861927
0.22350959 -0.47671115 2.4622846
0.27673218 -0.47754326 2.4759414
0.31587186 -0.47252563 2.4798927
0.44886214 -0.48188773 2.4688444
0.46378884 -0.48473391 2.4692979
0.58221507 -0.47106993 2.4756656
0.62241334 -0.46914786 2.4804072
0.66100532 -0.46873617 2.4872
0.038912185 -0.42437342 2.4829328
0.067125864 -0.42023566 2.4650486
0.59182501 -0.43602592 2.4685297
0.62867689 -0.42904642 2.4617693
0.66195613 -0.43303254 2.4756382
-1.3419256 -0.37479627 2.4524117
0.06981232 -0.39103085 2.4789319
