ply
format ascii 1.0
comment PCL generated
element vertex 1525
property float x
property float y
property float z
element camera 0
property float view_px
property float view_py
property float view_pz
property float x_axisx
property float x_axisy
property float x_axisz
property float y_axisx
property float y_axisy
property float y_axisz
property float z_axisx
property float z_axisy
property float z_axisz
property float focal
property float scalex
property float scaley
property float centerx
property float centery
property int viewportx
property int viewporty
property float k1
property float k2
end_header
-0.76735038 2.3673034 2.8922303
-0.74991667 2.3663969 2.8949077
0.88606727 2.3867731 2.888979
0.92111152 2.3880107 2.8812401
0.97661895 2.3881557 2.8834274
1.018864 2.3893449 2.8784587
1.0648049 2.3827288 2.8671796
1.120259 2.3858347 2.8803906
1.1816001 2.3764338 2.8701146
1.2317517 2.3734534 2.8824179
1.2762696 2.376915 2.8767729
1.3241925 2.3748777 2.8740606
1.3740698 2.3726647 2.8761561
1.4237325 2.3754888 2.8721905
1.4716136 2.3757775 2.8752255
1.5228103 2.3716459 2.8750353
1.5737801 2.3852355 2.8716118
1.621708 2.3815725 2.8699009
1.6709137 2.381757 2.8871448
1.7284355 2.3730946 2.8718703
1.7854065 2.3819094 2.8696747
1.8381257 2.3839672 2.8875599
1.879673 2.3793068 2.8710785
1.925487 2.38134 2.8777003
1.9689716 2.3792682 2.8710871
2.023088 2.3793385 2.8767006
2.0739403 2.3745062 2.8676078
2.1243567 2.3801084 2.893106
2.1712575 2.3795891 2.877856
2.2287252 2.3803256 2.873544
2.2790337 2.3731213 2.8758533
2.3165102 2.3721409 2.8989205
2.3669314 2.3736749 2.8664689
2.4723444 2.3897696 2.8740299
2.5159025 2.3828423 2.8818419
2.5730624 2.388757 2.8783464
2.649879 2.3824363 2.8902709
2.6738043 2.3766313 2.8600321
2.7289062 2.3778586 2.8764729
-0.88025886 -0.50705445 2.9230473
-0.82576627 -0.51583272 2.9275036
0.47467539 -0.51377851 2.9383957
0.5251497 -0.52140546 2.9346747
0.57570869 -0.51473927 2.9320343
0.61757225 -0.51390421 2.921489
0.44648325 -0.49990737 2.9453237
0.4634859 -0.49514708 2.9150994
0.80374175 -0.2999227 2.9130414
0.79918247 -0.22719403 2.9007711
0.81198692 -0.17982942 2.9168231
0.83188421 -0.12341742 2.919507
0.83507711 -0.074297383 2.9216108
0.85920328 -0.071170472 2.9059746
0.83742219 -0.037132617 2.925036
0.86424559 -0.033167295 2.9064455
0.91984731 -0.014183703 2.9061503
1.1282465 0.028213961 2.9343865
1.1737154 0.031332657 2.9163177
1.1346415 0.070181638 2.9456861
1.1738096 0.073797606 2.9312437
-1.0123063 0.11655515 2.9343863
1.1787719 0.12420583 2.9383087
0.55481905 0.19795075 2.9241233
1.1716412 0.17759782 2.9432077
1.2005483 0.17750938 2.9333191
1.181262 0.21913736 2.9406586
1.2097031 0.22540736 2.937161
1.179486 0.27685851 2.9437447
1.2044894 0.2744875 2.9376993
0.87625009 0.32480866 2.9414821
0.92014939 0.32218891 2.9165299
0.97423238 0.32125098 2.9141407
1.0198731 0.32912517 2.9235113
1.0748745 0.31624866 2.9275258
1.121711 0.30709475 2.9118326
1.1730577 0.32582194 2.9377813
1.2071939 0.32706416 2.9405658
0.87497163 0.37769186 2.9432771
0.91943133 0.38389808 2.9366508
0.97546941 0.37767661 2.9418128
1.0179999 0.39420065 2.9261682
1.0745013 0.39354727 2.906826
1.1321321 0.38127741 2.9118254
1.1724235 0.37346348 2.9363604
1.2072414 0.37166187 2.9369469
0.84601933 0.42130184 2.945344
0.87526375 0.41413596 2.9409409
0.91968137 0.41162685 2.9205966
0.97165149 0.42306161 2.9157543
1.0268091 0.42396489 2.925956
1.078993 0.41956198 2.9166613
1.1384628 0.4275423 2.9238262
1.1763499 0.42477167 2.9334555
1.2096184 0.40217084 2.9399841
0.93061 0.47090027 2.9307384
0.96623582 0.46201023 2.9294517
1.0132198 0.46668318 2.9165173
1.0836526 0.46601278 2.9087067
1.1256033 0.47918382 2.9147696
1.1796288 0.47652456 2.9399784
1.2115667 0.46246898 2.9385271
-0.48141018 0.52792698 2.9334807
0.88068676 0.51172215 2.9489803
0.99078375 0.52303469 2.9331181
1.0189904 0.528027 2.9377291
1.0673867 0.52649748 2.9279203
1.1413302 0.51898289 2.9315634
1.1821507 0.52228892 2.9408996
0.88902694 0.55956674 2.9362857
0.91742176 0.5650425 2.9171093
0.96973401 0.57078379 2.9170341
1.0268899 0.57341015 2.9177594
1.0632386 0.57094079 2.9036217
1.1236929 0.5601964 2.9119821
1.1742587 0.57352769 2.9393761
0.87534887 0.64474696 2.9393256
0.93416476 0.62647164 2.9301701
0.97540325 0.62356377 2.9245791
1.0248059 0.62214947 2.9186316
1.0574007 0.60022432 2.901062
1.1276377 0.62133771 2.9137356
1.1707897 0.62861973 2.9395781
1.2054271 0.62357891 2.9437623
0.85674644 0.69140834 2.9485061
0.92159086 0.6757012 2.9328294
0.9825294 0.68296212 2.9172161
1.0187843 0.67326593 2.916527
1.1315413 0.66800785 2.9168689
1.1740328 0.67538333 2.9406865
0.84253055 0.73596364 2.9457631
0.87805539 0.72760749 2.9354248
0.9200592 0.72200012 2.9163933
0.96474522 0.71734959 2.9049435
1.0256213 0.72068548 2.9051399
1.1412574 0.71864289 2.9343789
1.1778958 0.72276115 2.942699
0.84450889 0.78195131 2.9447927
0.87418395 0.76734424 2.9420543
0.92263669 0.77823699 2.9272439
0.96987349 0.78635013 2.9044781
1.1471537 0.77503419 2.9400015
1.1755872 0.77029216 2.9377763
-1.0055647 0.82147938 2.9223862
0.88599837 0.81572104 2.9470229
0.92775005 0.82568377 2.9266157
1.0084126 0.8276332 2.9051909
1.1345422 0.80897552 2.9216251
1.1716499 0.82928681 2.9447396
-1.0033058 0.87402368 2.9046552
-0.99708152 0.87414551 2.9350598
0.87878823 0.8900376 2.9341459
0.92593122 0.89263153 2.9330654
0.96002293 0.88979495 2.9153352
1.1376437 0.87714392 2.9388332
1.1716521 0.87945938 2.9454658
1.2068107 0.86064112 2.9476697
-0.99137104 0.92971647 2.9252942
0.89028877 0.93143582 2.9381402
0.92520779 0.93652469 2.9209297
0.97146541 0.93818617 2.9158409
1.1442214 0.9278124 2.9457824
1.1800579 0.92783231 2.9471006
-0.98348045 0.96516764 2.9228237
0.88930023 0.9907937 2.9491389
0.9237566 0.98254323 2.9324367
0.97018957 0.97859782 2.9125259
1.0040712 0.97815949 2.9080911
1.1491094 0.98520887 2.9458623
1.176886 0.96698111 2.9454088
1.2012179 0.99042809 2.9481096
0.91572773 1.0291778 2.9318805
0.95865619 1.0378356 2.9286556
1.1295637 1.0347425 2.9257243
1.168051 1.0385365 2.9474847
1.2040203 1.0158187 2.9492772
-0.98858356 1.0979419 2.9053931
-0.94308776 1.0674121 2.9229555
0.891985 1.0690753 2.9393611
0.92333382 1.0730234 2.9247868
0.96563292 1.0780474 2.9146149
1.1387593 1.0738567 2.9415431
1.1755631 1.0764078 2.9488289
-0.98078316 1.1212934 2.9264977
0.92608565 1.1191212 2.9334128
0.9749139 1.1144037 2.9086678
1.0141174 1.1161585 2.9039617
1.1219813 1.1490816 2.9208341
1.1803576 1.1303562 2.947367
-0.99430031 1.1768252 2.9245503
0.92270529 1.1697605 2.935617
0.97224802 1.1616688 2.9134743
1.0016006 1.1643854 2.9022706
1.1329348 1.1912428 2.9402657
1.2023087 1.1676376 2.9497399
-1.002571 1.2355058 2.9108973
-0.99440229 1.2243031 2.9281478
0.88982779 1.2223406 2.9474697
0.92878407 1.2284455 2.9301233
0.97304988 1.2208716 2.9190757
1.1382513 1.2201631 2.9470048
1.1552728 1.2139412 2.948719
-1.0049232 1.268998 2.9080276
-0.99428457 1.2749248 2.9255517
0.89095765 1.2544686 2.9419372
0.90367925 1.250911 2.9302077
0.97546667 1.2873732 2.9039776
1.1330492 1.2929884 2.9335995
-1.0080423 1.3189473 2.9019172
-0.99657428 1.3292278 2.9294779
0.89767236 1.3101703 2.9494555
0.93164808 1.3226565 2.9378788
0.95669031 1.3220351 2.922085
1.1283631 1.3200548 2.9362292
-1.0094306 1.382534 2.9179971
-0.99271852 1.3708135 2.9447205
0.88790137 1.3961142 2.9456208
0.91958696 1.3971208 2.9406788
0.97268474 1.3954376 2.924139
1.0110512 1.3672705 2.9043121
-1.0119568 1.4309549 2.9128177
-0.99590236 1.4220673 2.9376047
-1.0081234 1.4700124 2.9273486
-1.0112289 1.5244287 2.9271586
-1.017204 1.583758 2.9198065
-0.99618959 1.5642657 2.9437943
-1.0147612 1.6242297 2.9244251
-1.0287629 1.6780412 2.926281
-1.0315669 1.7244656 2.9153247
-1.0328553 1.7787431 2.9325237
-1.0535767 2.082783 2.9030416
-1.0563105 2.1050339 2.900562
-1.0384506 2.1257436 2.9134133
-1.0514048 2.1803043 2.9077108
-1.0425696 2.1742933 2.9252651
-1.0556016 2.206116 2.9085603
-1.0387307 2.233562 2.9356048
-1.0429747 2.2773919 2.9253402
-1.0517995 2.3036616 2.9058952
-1.0256039 2.3307581 2.9215841
-1.0064703 2.3537641 2.9171295
-0.97326064 2.3664639 2.9260824
-0.93597567 2.3778901 2.9163661
-0.8182413 2.3734381 2.9228504
-0.77799928 2.3738408 2.9239709
-0.72569066 2.3811862 2.9328222
-0.66978645 2.3862293 2.9367998
-0.63229012 2.3752501 2.9297044
-0.58961475 2.3765478 2.9387684
0.61793351 2.386066 2.9461927
0.66073525 2.3845916 2.9365478
0.73960662 2.3883085 2.9255338
0.78543442 2.3961828 2.9256802
0.82477033 2.3925178 2.925626
0.87204248 2.3948023 2.9239964
0.92458022 2.3865173 2.9221976
0.96757364 2.3826339 2.9318104
1.0218484 2.377862 2.9276445
1.0781507 2.3860404 2.921587
1.1298599 2.3749316 2.9077969
1.1752794 2.3825493 2.9307809
1.2232912 2.3853512 2.9271803
1.2851744 2.3833098 2.9394472
1.3258939 2.3760493 2.9133022
1.3683923 2.3744473 2.9230475
1.428761 2.3808873 2.9172518
1.4786135 2.3850753 2.9418736
1.5328285 2.3846121 2.9169028
1.5770618 2.3827848 2.9242947
1.6274091 2.3758311 2.920506
1.6801564 2.3765063 2.916362
1.7287071 2.3834274 2.9239991
1.7673339 2.3763154 2.9137154
1.8183551 2.3806114 2.9261198
1.8737178 2.3767021 2.9148462
1.9283875 2.3729568 2.9186153
1.969893 2.3747931 2.9318945
2.0208619 2.380044 2.9260724
2.0705464 2.3733292 2.9151046
2.1242807 2.3714957 2.9260025
2.1818142 2.3723474 2.9230931
2.2326531 2.3753848 2.9115682
2.2766981 2.3816328 2.9440899
2.3094993 2.3851004 2.9283199
2.3658638 2.3824503 2.9186108
2.4280336 2.3916044 2.9273269
2.4814053 2.3880563 2.91745
2.5264652 2.3754137 2.9315007
2.5786631 2.3830702 2.9175453
2.6115744 2.3845334 2.9235511
2.6981826 2.3868284 2.9188895
2.7283275 2.3952878 2.9134293
2.7910573 2.3826709 2.9248624
0.71746135 2.4010267 2.9465573
0.76942694 2.4003863 2.9346955
-0.93348706 -0.50566334 2.9963369
-0.86423087 -0.51474607 2.9732821
-0.82310593 -0.51205248 2.9647262
0.43517703 -0.50335479 2.9670451
0.48253551 -0.5122754 2.9572494
0.52461207 -0.51502728 2.9744911
0.58313841 -0.50692195 2.971694
0.6240167 -0.51069486 2.9888771
-0.9733339 -0.46619391 2.9760683
-0.94666487 -0.48990497 2.9894578
0.4370704 -0.49109957 2.9815407
0.45803446 -0.49035347 2.9748693
-0.9776541 -0.42365491 2.9937649
-0.97624505 -0.37847745 2.9935174
0.81371385 -0.16622685 2.9564135
0.82866001 0.0049538673 2.9767497
0.99676818 0.014967735 2.9989173
1.0252423 0.029774444 2.9886284
1.0740055 0.029692331 2.9677305
1.1088862 0.044381548 2.952898
1.0380172 0.064493828 2.9942915
1.076138 0.072932534 2.979197
1.1146531 0.079015173 2.9605448
1.0762947 0.12481269 2.9878061
1.122869 0.12749933 2.9624448
1.1575371 0.14811213 2.9501505
0.56518239 0.1872496 2.9793704
1.075736 0.17883354 2.9912596
1.1235821 0.17817388 2.9668367
1.2351465 0.18034464 2.9768627
1.0845639 0.22378914 2.9911518
1.1251014 0.2229744 2.9687011
1.1651566 0.22654961 2.9555979
1.2300313 0.20957139 2.9631591
1.0870001 0.27950773 2.9914172
1.1270299 0.27542445 2.9707594
1.1609674 0.26724908 2.9530141
1.2301137 0.26195049 2.9604063
0.85917699 0.33647221 2.9719679
1.0495045 0.30948249 2.9553366
1.0704225 0.31128615 2.9688861
0.84654254 0.37796238 2.9511876
0.87631327 0.36578795 2.9667339
0.93200821 0.36752033 2.9701931
0.9623571 0.37675726 2.9578669
1.0503136 0.3981716 2.950274
0.85647017 0.41180235 2.9831343
0.92125005 0.44056413 2.9623954
1.2212015 0.42860821 2.9658885
0.87637186 0.47117835 2.9768407
0.92183739 0.47067392 2.9752588
0.97444195 0.46828938 2.9701107
1.2234225 0.46692473 2.967262
-0.47014984 0.52207845 2.9708834
0.87450516 0.52084339 2.9693704
0.92455918 0.51871413 2.9709928
0.9736135 0.5245946 2.9693062
1.040486 0.51114416 2.9560151
1.0541654 0.50320518 2.9501123
0.84992778 0.56425744 2.9984128
0.8751812 0.57623398 2.9754064
0.92813331 0.59180593 2.9669747
0.84132022 0.64672345 2.9557567
0.88024968 0.62318289 2.9710014
0.92181194 0.61619246 2.9686551
0.84300423 0.6921975 2.9547925
0.88500643 0.68147439 2.9672234
0.93971461 0.683577 2.9652648
0.97494984 0.68222797 2.9510021
1.2194061 0.67641449 2.9708023
0.8492806 0.71218717 2.9743712
0.88115883 0.71995974 2.9749408
1.2279353 0.71942633 2.9851725
0.84857196 0.77088916 2.9616587
0.85221916 0.75931466 2.9770417
1.2029017 0.78952855 2.9518614
-1.0075455 0.83799613 2.9751632
0.87321103 0.83074296 2.971349
1.2050171 0.82134247 2.9510746
-1.0009321 0.86801136 2.9995925
-0.99318647 0.88395268 2.9716825
0.85725039 0.89858228 2.9685056
1.190163 0.85199541 2.9501865
1.2100331 0.88583839 2.9506571
-0.9837451 0.91998881 2.9596701
0.8480621 0.92735755 2.9869857
0.87241012 0.93998349 2.9571478
1.2275925 0.91418678 2.9900839
-0.97023869 0.97180176 2.9654415
0.84983391 0.99730641 2.9779043
0.86933368 0.98367316 2.9649312
0.90524465 0.97679502 2.9525137
1.1487769 0.96202302 2.9504831
1.1802039 0.99251801 2.9520931
-0.95188016 1.001493 2.9692132
0.87609982 1.0273957 2.9647353
0.94030493 1.0273637 2.9507504
1.1752148 1.0180181 2.9513805
1.2063987 1.0332466 2.9511938
0.86785245 1.0765051 2.9662001
1.144771 1.0949479 2.9529345
1.1778369 1.0854468 2.9527719
1.2188082 1.0672932 2.9754715
-0.96781796 1.1356755 2.9702017
0.84356403 1.1300348 2.9816375
0.86957568 1.1241764 2.9599094
0.90168124 1.1263632 2.9591796
1.1489471 1.1299039 2.9551575
1.1731945 1.1270474 2.9521418
1.2156727 1.1180663 2.9764423
-0.97543907 1.180171 2.9742959
0.86942583 1.1722456 2.9766293
0.90330905 1.1741464 2.9517419
1.1684231 1.1781801 2.954953
1.2027686 1.1680615 2.9509134
-0.97622252 1.2247417 2.9694877
0.84878439 1.2138622 2.9784837
0.87159258 1.2135551 2.9729338
0.94322377 1.2322184 2.9610081
1.1800177 1.221078 2.9539921
1.2192173 1.223531 2.9794545
-0.98265117 1.2744164 2.9706097
0.8494066 1.2608877 2.9668317
0.87186366 1.2807238 2.959662
1.1461735 1.267785 2.9552832
1.1779945 1.268504 2.9535134
1.2012732 1.2922215 2.9564812
-0.98356038 1.3266455 2.9761899
0.84031093 1.301363 2.9826803
0.87012184 1.3336973 2.9612401
0.91007322 1.3479476 2.9527662
1.1721976 1.3262384 2.9553099
1.2051506 1.3201182 2.9581571
-0.97951138 1.375705 2.9698582
0.84774745 1.375391 2.9886494
0.86616349 1.3767883 2.9741848
1.1399885 1.3730989 2.9529574
1.1771908 1.3717713 2.9605703
1.2221797 1.3628155 2.9918129
-0.98495233 1.4324453 2.9841499
0.86432737 1.4083071 2.9781494
1.1480254 1.4145578 2.9625335
1.1769478 1.4207246 2.9682775
1.203521 1.4318471 2.9646292
-0.99130327 1.4759339 2.9848404
1.0900689 1.4823407 2.9924545
1.122106 1.4698676 2.9695635
1.1740022 1.4754726 2.9720712
1.214046 1.4766729 2.9785142
-0.99177796 1.5220634 2.9752285
1.1407443 1.5088497 2.9950447
1.1776676 1.5262042 2.9838378
1.204178 1.5411478 2.9771051
-1.0035032 1.599749 2.9556184
-0.99113005 1.5735331 2.9835413
1.1797638 1.5795909 2.9893103
1.2091478 1.5719774 2.9795296
-1.00642 1.6204454 2.9575341
-0.99223894 1.6301081 2.9803231
1.186195 1.6279274 2.9850383
1.2201514 1.62737 2.989553
-1.0089172 1.6802394 2.9661915
-0.98778772 1.675352 2.9928417
1.189862 1.6721444 2.988781
1.2027587 1.6753397 2.9711339
-1.0120922 1.7240223 2.9648452
1.1932812 1.7261893 2.9944751
1.2070119 1.7242802 2.9765034
-1.0137855 1.7770998 2.9795363
-0.99924874 1.7688365 2.9947255
1.1883185 1.7684249 2.9981079
1.2007269 1.762167 2.9822602
-1.0217544 1.8207736 2.988869
-1.0278174 2.185508 2.9583611
-1.0236236 2.2122993 2.9630668
-1.0244005 2.2773743 2.9850154
-1.016963 2.3154306 2.9687667
-0.99336129 2.336889 2.9814453
-0.25340325 2.3374958 2.9947832
-0.97914314 2.3544552 2.9616625
-0.94290686 2.3722217 2.9839127
-0.81887561 2.3742962 2.97609
-0.77679724 2.3883276 2.9866037
-0.72480625 2.3804493 2.978472
-0.67230821 2.3779132 2.9596508
-0.62124479 2.3859503 2.9708061
-0.5646069 2.3842845 2.9729898
-0.52226937 2.3774867 2.9773798
-0.25495213 2.3863702 2.9907198
-0.2380123 2.3898544 2.9962592
-0.18450147 2.3696334 2.9739029
0.10809488 2.386832 2.998637
0.24510781 2.3741617 2.9760447
0.33424568 2.3967311 2.9974191
0.35938317 2.3908439 2.9875684
0.42006457 2.3911972 2.9814618
0.47137812 2.3879023 2.9709284
0.53703028 2.3919566 2.978143
0.5683037 2.3953404 2.9663372
0.63447535 2.3986144 2.9935343
0.67206752 2.3966773 2.9755793
0.72102404 2.3954241 2.9729774
0.77828562 2.3924167 2.9709132
0.82544273 2.3936856 2.9741025
0.87517947 2.3845387 2.9764423
0.92867637 2.3932889 2.9834919
0.98071432 2.381438 2.9767666
1.0246632 2.3784986 2.9819913
1.0749857 2.3766627 2.9791143
1.1282687 2.3823462 2.9739838
1.1743004 2.3763204 2.9690013
1.2211107 2.3803613 2.9737244
1.2702552 2.3824997 2.969393
1.3292178 2.3835716 2.9713144
1.3830212 2.3771734 2.9700997
1.435629 2.3780725 2.9631526
1.4766979 2.3784466 2.9730375
1.5298095 2.3854008 2.9705307
1.5726491 2.3809183 2.9751017
1.6131482 2.3723674 2.9742074
1.6747737 2.376497 2.9615202
1.7252418 2.3810377 2.9758275
1.7779776 2.3749945 2.9715986
1.8211968 2.3730972 2.9675803
1.8691847 2.3768287 2.9701331
1.9263114 2.3699813 2.972012
1.9847062 2.3639278 2.9741957
2.025631 2.3734725 2.9785514
2.0774279 2.3729405 2.9580359
2.1206479 2.3696556 2.9736769
2.1804452 2.3724909 2.9738686
2.2197566 2.3732717 2.9663708
2.2780921 2.3736274 2.9791157
2.3165221 2.3725638 2.951133
2.3765759 2.3833213 2.9827213
2.4242003 2.3807297 2.9798403
2.4817123 2.3875384 2.9702392
2.5110765 2.375988 2.9804907
2.5913243 2.3828893 2.9913733
2.6289141 2.379127 2.9744015
2.7298322 2.3939896 2.9671474
0.51070642 2.4101801 2.9939125
0.59569371 2.4009018 2.9689817
0.65064991 2.4112239 2.9725833
0.70087552 2.4037869 2.9534516
-0.91471577 -0.50764132 3.0127213
-0.88245273 -0.50625503 3.0104945
0.53267622 -0.50676829 3.0221307
0.57594997 -0.50716412 3.0283988
0.62435549 -0.50229806 3.0288956
0.65628821 -0.50410807 3.0356712
-0.96121424 -0.46733513 3.0181389
-0.93618339 -0.48164123 3.0377269
-0.89938593 -0.49661234 3.0428596
0.49321884 -0.49674237 3.0105758
0.51536822 -0.49694055 3.009361
-0.96317089 -0.42340928 3.0200131
-0.96242887 -0.37436688 3.0256579
-0.94637728 -0.39199758 3.0498314
-0.96574521 -0.33056003 3.0395901
-0.94496489 -0.34623602 3.0489581
0.82823378 -0.11765692 3.0107663
0.82659304 -0.080707416 3.0055966
0.82696825 0.01481247 3.0076027
0.87523353 0.01501671 3.0406027
0.92951369 0.029994249 3.0372066
0.97656691 0.0312525 3.0167799
0.9357127 0.072818443 3.0420716
0.97662145 0.073270038 3.0244608
1.0203891 0.080225684 3.0089743
0.94919395 0.12018963 3.0477717
0.97839612 0.12291658 3.0337658
1.0251245 0.12690432 3.0099442
1.2456427 0.12135601 3.0043314
0.53247446 0.19100933 3.0445449
0.55938894 0.19017306 3.0277176
0.94908088 0.16518433 3.0459549
0.97459799 0.17631896 3.0376008
1.0273114 0.17946541 3.0145576
1.2451897 0.15159771 3.0022767
0.54201871 0.21049881 3.0411651
0.55853558 0.2117818 3.02212
0.97527713 0.22422482 3.0432513
1.0271211 0.22334591 3.0184596
1.0606164 0.22797367 3.0034101
0.9179737 0.29986572 3.0414839
0.98189461 0.27358618 3.0379128
1.0217575 0.2770859 3.0168183
1.0611228 0.27447543 3.0059738
0.8670097 0.32010928 3.0278585
0.93479925 0.30046013 3.0443909
0.96658456 0.3035782 3.0308065
0.92419589 0.35643891 3.0054486
0.85442889 0.41799322 3.0308704
0.86357021 0.46369404 3.0310521
0.85503697 0.53028214 3.021071
0.9272424 0.50657457 3.000705
0.86498779 0.58093363 3.031647
0.87052321 0.62671489 3.0215354
0.90253347 0.64426404 3.0061798
0.87171239 0.67235398 3.0238659
0.89031297 0.73643094 3.0043087
0.85538566 0.8060984 3.0387211
-0.98911762 0.92165536 3.0207109
-0.98077124 0.95414954 3.0220809
-0.95156598 1.017373 3.0197723
-0.95691031 1.1393647 3.0070262
-0.94546384 1.1364623 3.025598
-0.95463407 1.17436 3.0242035
-0.96071607 1.2238535 3.0255365
0.85219729 1.241203 3.0487545
-0.96190959 1.2725123 3.0151613
-0.94595879 1.2827852 3.0449955
-0.96545774 1.3235354 3.0177279
-0.94854176 1.3021688 3.0484121
-0.9638803 1.3702612 3.0209615
-0.96572393 1.4220333 3.027684
-0.96799201 1.4729618 3.0249505
1.0232997 1.4771322 3.0124092
1.0660983 1.4929148 3.0050054
-0.96981657 1.5193344 3.0271916
0.98429573 1.5152955 3.0437088
1.0279716 1.5135996 3.0332873
1.0756334 1.5347081 3.0211229
1.119697 1.5293757 3.00424
1.2392094 1.5319617 3.0308106
-0.97638613 1.5752546 3.0191178
1.0396605 1.5701286 3.0445392
1.0718583 1.5775406 3.034174
1.1257455 1.5768687 3.0119503
-0.9769423 1.6233341 3.0391202
1.036451 1.6062833 3.0395908
1.0766821 1.6191413 3.0391707
1.1218904 1.6257805 3.0209105
1.1570476 1.6124053 3.005209
1.2248454 1.633618 3.0011122
-0.98080468 1.6666789 3.0359888
1.0830036 1.6670557 3.0432074
1.1270279 1.6806867 3.029664
1.1668169 1.6652473 3.0102334
-0.9879837 1.7209815 3.0290353
1.0819389 1.7282444 3.0444717
1.1209652 1.7256913 3.0351324
1.1672007 1.723758 3.0091689
-0.99171013 1.7765217 3.0299118
1.0856692 1.7620903 3.0425158
1.1248561 1.7651457 3.0306692
1.1703756 1.7727978 3.0118413
-0.99956143 1.824102 3.0384939
1.1906992 1.8141434 3.0442021
-1.0131128 2.2639501 3.00527
-0.99130529 2.2919533 3.0152524
-0.97947776 2.3227935 3.0186391
-0.96484029 2.3574677 3.023977
-0.94002163 2.3710434 3.0311627
-0.81773967 2.3700833 3.0236011
-0.77246189 2.375639 3.0232761
-0.722341 2.3752437 3.0294991
-0.67760742 2.3844209 3.015398
-0.62778056 2.380254 3.0223029
-0.57440233 2.379189 3.0262265
-0.53897554 2.3759038 3.0307305
-0.25520539 2.3714302 3.0049686
-0.22254297 2.3921714 3.033493
-0.16591269 2.397893 3.0353842
-0.12216444 2.3973491 3.0364037
-0.064912274 2.3906612 3.0044594
-0.030461028 2.3965328 3.0289187
0.021776605 2.3940547 3.0258431
0.065155789 2.3970685 3.0125098
0.14428146 2.3961833 3.0425127
0.17865317 2.3965116 3.0247312
0.22685243 2.3952665 3.0288396
0.2666786 2.3962278 3.0358081
0.30162475 2.3960431 3.0328925
0.38040161 2.3966715 3.0264125
0.42354548 2.3933599 3.0174382
0.49617267 2.398057 3.0314589
0.51793915 2.3934641 3.0168149
0.5607844 2.3961287 3.0253303
0.61645186 2.3916578 3.0306199
0.67919785 2.3911781 3.0275917
0.73937982 2.3916025 3.0339775
0.7712571 2.3955548 3.0209112
0.82354993 2.3871491 3.0241289
0.87729549 2.3878586 3.0339005
0.93060303 2.3875172 3.0201223
0.96788841 2.3781831 3.0247316
1.0250272 2.38222 3.0236466
1.0707089 2.3788574 3.0303547
1.1236097 2.3834846 3.03317
1.1777352 2.3834286 3.0156529
1.2357441 2.3903666 3.0443518
1.272634 2.3871403 3.0169811
1.3311689 2.3888626 3.0273185
1.3810292 2.3868866 3.0249929
1.4268237 2.3849063 3.0278804
1.4790254 2.3785799 3.0128231
1.5263474 2.3810415 3.0271366
1.5836234 2.3819635 3.0275123
1.6189632 2.3712697 3.0225024
1.6789358 2.3773882 3.0209861
1.7269818 2.3728619 3.0160768
1.7761312 2.3798921 3.0322664
1.8331505 2.3772125 3.0241561
1.8774804 2.3708446 3.0236022
1.9178904 2.3686955 3.0284557
1.9566782 2.3667107 3.0187111
2.0385323 2.3756609 3.0345306
2.0810101 2.3797603 3.0164332
2.1183236 2.3693357 3.0236304
2.1645288 2.3711407 3.0314124
2.2231071 2.3781631 3.0238855
2.276861 2.3797801 3.0260031
2.3296742 2.3814034 3.0243354
2.3684256 2.3751371 3.0254323
2.4263735 2.3824606 3.0266671
2.4790304 2.3738918 3.026907
2.5267377 2.3703458 3.0130057
2.5711539 2.3831818 3.0068765
-0.22250938 2.4094453 3.0219197
-0.16967484 2.4027569 3.016319
-0.10915478 2.4122272 3.0305183
-0.082573988 2.400651 3.0166643
-0.030420547 2.4020669 3.0192485
0.021814678 2.4057183 3.0239029
0.091556601 2.4065983 3.0239422
0.1348635 2.4016318 3.0163577
0.17899379 2.402195 3.0318737
0.23085058 2.4047983 3.0155845
0.27828357 2.4075012 3.0268891
0.31920791 2.4052088 3.0262842
0.37110499 2.4021711 3.017504
0.46933803 2.4043489 3.0259767
0.53371745 2.4001918 3.0460851
0.58471698 2.4010849 3.0223289
0.60948193 2.4035616 3.0042276
0.65769219 2.4019682 3.0283182
0.72834641 2.4021108 3.0150137
-0.87831855 -0.50933486 3.0795054
-0.82848418 -0.51442075 3.0719476
0.55563527 -0.5070017 3.0668228
-0.92876244 -0.46765018 3.0695701
0.49056867 -0.48667869 3.0734367
0.53006405 -0.48335502 3.0850773
0.56029499 -0.47365338 3.0964811
0.63544559 -0.47150517 3.0784318
0.66855317 -0.47599068 3.0673256
-0.95022011 -0.43901661 3.0580478
-0.93943763 -0.41964874 3.0687182
0.56891119 -0.44496736 3.0902665
0.63233405 -0.42243695 3.0914564
0.66898054 -0.42337713 3.0723472
-0.95187324 -0.37910515 3.0688298
-0.93861753 -0.37425771 3.0864756
0.63923073 -0.3777253 3.0922534
0.66854155 -0.37717468 3.0763526
-0.95619202 -0.30807659 3.0707138
-0.94143951 -0.32253715 3.0787225
0.64984024 -0.34545061 3.0926237
0.66567737 -0.34587118 3.0942862
-0.9564786 -0.2894845 3.0903435
-0.94201702 -0.28972831 3.0960779
0.8449257 -0.037417874 3.072814
0.84844387 0.037825555 3.085556
0.87486547 0.037674472 3.0668395
0.90208274 0.03007069 3.0514443
0.87035131 0.075476795 3.0784111
0.91024172 0.078176081 3.0569344
0.87198758 0.12091259 3.0831823
0.92091876 0.12040666 3.0597334
0.39051995 0.19342688 3.0979841
0.43530765 0.19350924 3.0953352
0.47755238 0.19255078 3.0756338
0.50376779 0.19125608 3.0518286
0.87210429 0.17378668 3.0818238
0.92174792 0.17318924 3.0607426
0.4423371 0.20819601 3.0911164
0.48198837 0.21139333 3.0789921
0.51731968 0.21554036 3.0601485
0.87262398 0.22677325 3.0813074
0.92236668 0.22601509 3.0604432
0.95273143 0.24113418 3.0542471
0.87329799 0.27230641 3.0811479
0.92387414 0.27163061 3.0629513
0.9530589 0.27135304 3.0535476
0.86406374 0.32064012 3.0791192
0.90859437 0.30172452 3.0634153
0.85936671 0.37869275 3.0806997
0.85849631 0.42442021 3.0793178
0.86117935 0.47560093 3.0782082
0.85791856 0.5262832 3.0898042
0.859016 0.58044714 3.0872381
0.84745365 0.63665622 3.0964789
0.86048937 0.62732202 3.0863998
0.8488484 0.67612815 3.0959899
0.86282039 0.6750415 3.0881126
0.84937161 0.7072888 3.0932062
0.85846823 0.72565508 3.0881023
0.85813099 0.77315986 3.0806277
0.85919511 0.82460773 3.0797153
0.85904819 0.87086058 3.0807016
0.86011833 0.91865253 3.0956068
0.84693313 0.96807545 3.0974007
0.8610757 0.96643251 3.0891142
0.84947067 1.0101304 3.0979335
0.86018771 1.0206785 3.0893002
0.85044074 1.0504817 3.0923243
-0.93628007 1.1285812 3.0539968
0.85698724 1.1296723 3.0984588
-0.93821955 1.174121 3.068758
0.85774207 1.1702017 3.0907507
-0.93927228 1.2263043 3.0741792
0.85756052 1.2094748 3.0792508
-0.93723679 1.2721463 3.0781665
-0.95199472 1.3308256 3.0519757
-0.93683404 1.3266153 3.0850544
-0.95779622 1.3950549 3.0522246
-0.93902051 1.3747654 3.0778689
0.85443074 1.3641248 3.0878806
-0.95243502 1.4351772 3.0822439
-0.95348978 1.477384 3.0714343
-0.94160581 1.4678998 3.0951767
0.88726646 1.4903784 3.0871298
-0.95590717 1.5299568 3.061415
-0.94671983 1.5250734 3.0943632
0.92737734 1.5201223 3.0879993
0.96156067 1.5290831 3.0720212
1.0168673 1.5358708 3.0596104
-0.95663035 1.5771053 3.0795712
0.97477055 1.5715553 3.0840805
1.0171152 1.5738875 3.0639827
-0.95962822 1.6261348 3.0889366
0.94915766 1.6251227 3.0995605
0.97575963 1.623486 3.0898473
1.0221514 1.6336741 3.072382
1.0610286 1.6353095 3.0522375
-0.9682954 1.6681968 3.0715151
0.97809368 1.6708235 3.0910332
1.0212867 1.6756272 3.068244
1.0595394 1.6873962 3.056742
-0.96590352 1.7200758 3.0748644
0.98629546 1.7379839 3.0946047
1.0274085 1.7290047 3.0754125
1.0608768 1.7245841 3.0562685
-0.97714013 1.7723904 3.0719373
0.99699825 1.7672762 3.0887806
1.0301301 1.7789614 3.0866783
1.0650641 1.7812276 3.0679963
-0.97797728 1.8134985 3.0756552
1.0949272 1.8239648 3.0905762
1.1424503 1.8318894 3.0918868
1.1754264 1.8299503 3.0785265
1.1818485 1.8571644 3.0872731
1.2031745 1.8502889 3.0679822
-0.94091725 2.3375988 3.0570362
-0.81818062 2.3675129 3.0795186
-0.77904099 2.3692548 3.0664027
-0.72204131 2.3827138 3.0843332
-0.67474395 2.3762546 3.0749938
-0.62730587 2.3855085 3.081574
-0.57905948 2.3746157 3.0660925
-0.54220766 2.3637009 3.0657926
-0.41034389 2.3923972 3.0686891
-0.37811825 2.390378 3.0751503
-0.22445945 2.3894141 3.0747747
-0.17168266 2.3962154 3.0750206
-0.11880648 2.3951004 3.0756378
-0.07488969 2.3983483 3.0809574
-0.030783221 2.3965085 3.0791948
0.039617468 2.3934059 3.0751581
0.057271108 2.3959408 3.0781901
0.16315314 2.3990629 3.079128
0.22441693 2.3943627 3.0699263
0.25139314 2.3997121 3.0751259
0.34185582 2.3979583 3.099956
0.37583825 2.3970816 3.078449
0.42216918 2.3954737 3.0657332
0.47637716 2.3957636 3.0710623
0.50923347 2.3918371 3.0730858
0.58219504 2.3916559 3.0796382
0.63572037 2.3924482 3.0719733
0.67579573 2.3949263 3.0740955
0.71885538 2.3939829 3.0765247
0.77848291 2.3943105 3.0792854
0.82592756 2.3860707 3.0793877
0.88040066 2.3885002 3.0823009
0.92814308 2.3931289 3.0739722
0.97923046 2.3834608 3.0748701
1.0283035 2.3835642 3.0802886
1.070158 2.3814316 3.074666
1.1246204 2.3866882 3.0752792
1.17303 2.3834293 3.0744584
1.2284744 2.382719 3.0744569
1.2813684 2.3799207 3.0716231
1.3212399 2.3880746 3.0759747
1.3774489 2.3802838 3.0725522
1.4274256 2.381608 3.0794053
1.4803191 2.3797784 3.0653944
1.5369742 2.3887925 3.0867712
1.5750791 2.3785188 3.0680907
1.6261209 2.3766525 3.0704501
1.6756067 2.379241 3.0841389
1.7288325 2.3729386 3.0813041
1.7666168 2.3736086 3.071183
1.8241926 2.3694885 3.0769875
1.8793727 2.3660915 3.0604038
1.9470699 2.3708148 3.0783343
1.9780217 2.3730268 3.0648651
2.0223439 2.3713741 3.0845211
2.0793898 2.3707936 3.0745504
2.1308298 2.3745747 3.0752008
2.1801615 2.3653855 3.078022
2.2401097 2.3763697 3.0607686
2.2827451 2.3800573 3.09219
2.3172388 2.3844929 3.078109
2.3662319 2.3729763 3.0761409
2.4226186 2.3782856 3.084425
2.5143061 2.3766732 3.0908988
2.5521879 2.3831787 3.0771825
2.6017351 2.369916 3.070653
-0.36698192 2.4239991 3.0625029
-0.17216471 2.4026902 3.08337
-0.074499249 2.4030614 3.0532784
-0.030624652 2.4007304 3.0509462
0.016170574 2.4025869 3.0758677
0.078439116 2.4069481 3.0716512
0.12440284 2.4067872 3.0769722
0.18975195 2.4009008 3.0802426
0.27842885 2.404722 3.0796757
0.32292172 2.4070287 3.0790889
0.43640223 2.4029562 3.0853045
0.46401301 2.4046605 3.0612516
0.53931308 2.4075074 3.0895011
0.55658209 2.4050987 3.0838153
0.71636528 2.4034562 3.0543163
-0.8671155 -0.50859416 3.1266742
-0.83659804 -0.50414801 3.1035576
0.46128312 -0.5030601 3.1483357
-0.91218543 -0.47713745 3.1170738
-0.88922048 -0.49030527 3.1400535
0.527466 -0.46029392 3.1310961
0.58362675 -0.48148483 3.1074171
0.62043881 -0.47751299 3.1145942
-0.91739476 -0.42660728 3.1231873
0.52585363 -0.42620382 3.1443486
0.57060635 -0.42225349 3.1199677
0.60711741 -0.41466418 3.1052361
-0.92281884 -0.37211952 3.1259747
0.53697044 -0.38831335 3.1477573
0.57228726 -0.37889042 3.1289766
0.61259031 -0.37360293 3.1050231
-0.92575365 -0.32255337 3.1211336
0.54065382 -0.33922133 3.1427758
0.57332152 -0.32505482 3.1300647
0.62059104 -0.32610968 3.1091995
0.65143937 -0.3312411 3.1013153
0.53577495 -0.26588085 3.1489868
0.57220012 -0.27273259 3.1356373
0.61406684 -0.28232694 3.1240346
0.56893641 -0.23315552 3.1410465
0.84918821 0.046220671 3.1468835
0.84325939 0.076371863 3.1244774
0.83885556 0.12157214 3.1071613
0.32670197 0.19529584 3.1330464
0.37087911 0.19485173 3.1226273
0.41450921 0.18531553 3.127867
0.4888981 0.18195856 3.149189
0.54087627 0.18160339 3.137248
0.8386783 0.17466763 3.1047611
0.3259114 0.20980579 3.1248176
0.38115051 0.21571347 3.118643
0.42134747 0.21937659 3.1245804
0.46899915 0.2251634 3.1173208
0.84157634 0.22098076 3.1135385
0.85208905 0.33167839 3.1459801
0.85322267 0.37074557 3.147234
0.85074848 0.42354858 3.1334727
0.84689838 0.48295391 3.1132779
0.85017943 0.46173948 3.1277187
0.84793496 0.51424074 3.1137481
0.8509531 0.53917229 3.1221833
0.84722733 0.57515514 3.1038327
0.85047275 0.55426192 3.1185851
0.84948742 0.60743254 3.1081214
0.84843177 0.78207982 3.1393518
0.85019606 0.78371537 3.1459079
0.84629583 0.82692307 3.1231706
0.85786837 0.83084023 3.1042399
0.84673548 0.87421083 3.1159594
0.85864311 0.85489583 3.1026704
0.84764814 0.92199779 3.1099412
0.84837639 0.96975106 3.1026421
0.84550059 1.0718868 3.133188
0.856493 1.0816417 3.108592
0.84228134 1.1232196 3.1075451
0.85598427 1.1046752 3.1008742
-0.93248886 1.1830601 3.1276608
0.84658605 1.1766983 3.1109221
-0.92220181 1.2246326 3.1305847
0.84160519 1.2182833 3.1201861
0.85095698 1.2466816 3.109268
-0.91917539 1.2703818 3.1221378
0.84012157 1.2704511 3.1268613
0.85408872 1.2753383 3.1137156
-0.92005134 1.3217607 3.1264756
0.84347171 1.3239596 3.1249044
0.85842586 1.3221563 3.1174221
-0.92517197 1.3763894 3.1289725
0.845976 1.3683939 3.1216016
0.85953766 1.3561314 3.1114686
-0.93004346 1.4221176 3.1217861
0.85384411 1.4219885 3.1374047
-0.93376923 1.4759172 3.1292105
0.86087126 1.4801937 3.1294115
-0.95069444 1.5479454 3.1012735
-0.93459845 1.5173725 3.129132
0.86924523 1.5176256 3.1116364
0.91071284 1.5497676 3.1141875
-0.93944699 1.5731678 3.1160963
0.87474114 1.5731995 3.126513
0.93009108 1.5794092 3.1109192
-0.94680583 1.6271923 3.1245213
0.87665701 1.617979 3.1277504
0.92741543 1.6238464 3.1133525
-0.95570725 1.6814407 3.1207101
-0.93824434 1.6750789 3.1422646
0.88096243 1.6796848 3.1380818
0.92201853 1.6751057 3.1208301
0.95658779 1.6879958 3.1036119
-0.95155323 1.7192445 3.1061411
-0.94159752 1.7233125 3.1361854
0.88329065 1.7248766 3.1362798
0.93036157 1.7264761 3.1250572
0.97034252 1.7213761 3.1019521
-0.95738763 1.7719868 3.1070611
-0.94719207 1.7760613 3.1367908
0.87749404 1.7723473 3.1453388
0.91950327 1.7716464 3.1348231
0.96363783 1.7713454 3.1143219
1.0031422 1.7951074 3.1003106
-0.96045446 1.8276861 3.1317587
-0.94865096 1.8043181 3.1304746
0.98458481 1.8076513 3.1282518
1.025659 1.8372903 3.133568
1.0765121 1.8361349 3.1181967
1.1179807 1.8338342 3.1025186
1.0320506 1.8746158 3.1411021
1.071027 1.8775403 3.1213927
1.1268753 1.8743356 3.1149921
1.1692786 1.8806442 3.1075947
1.2112684 1.8934567 3.1050806
0.91617787 1.9447663 3.1191683
0.98183161 1.9035997 3.1470087
1.0292875 1.9077449 3.1327901
1.0745831 1.910821 3.1100457
-0.83376533 2.3770897 3.1256187
-0.77548826 2.3769681 3.1281004
-0.72778314 2.3838377 3.1204863
-0.67323273 2.3750799 3.121547
-0.62321955 2.3861988 3.1184371
-0.57551616 2.3654108 3.1155295
-0.42070937 2.3839815 3.1290205
-0.38920245 2.3898435 3.1366441
-0.22618592 2.3815682 3.1155961
-0.1769909 2.3954213 3.1215136
-0.12018626 2.3962255 3.1282063
-0.075614169 2.394465 3.1270623
-0.048836049 2.3998322 3.1173263
0.034183525 2.3952992 3.1344442
0.084257036 2.394572 3.1098773
0.18224171 2.3962173 3.1172094
0.22185585 2.3955834 3.1263394
0.27127391 2.3974624 3.1135755
0.30794439 2.3926241 3.1303298
0.39738637 2.393801 3.1237018
0.41602501 2.3983016 3.1276834
0.46970269 2.3983068 3.1214569
0.52478492 2.3957214 3.1284664
0.5669961 2.3942254 3.1263494
0.62594175 2.3963914 3.1318586
0.73257899 2.3973265 3.1321242
0.76876205 2.38972 3.1205904
0.812374 2.3970332 3.133666
0.8719452 2.385164 3.1259885
0.92317963 2.3928351 3.120841
0.97164458 2.3911455 3.1248224
1.0277747 2.3850648 3.1200728
1.0785165 2.3873243 3.1279936
1.1265858 2.3827608 3.1264191
1.1809565 2.3906026 3.140492
1.2146224 2.3839602 3.119895
1.2742622 2.385319 3.1282339
1.3280255 2.3820558 3.1277435
1.3700042 2.380908 3.1309071
1.4303321 2.3833342 3.121876
1.4770513 2.3808551 3.1243935
1.523252 2.3764846 3.1293478
1.5726726 2.3756711 3.1183922
1.6267736 2.3693602 3.127459
1.6740606 2.3667383 3.1190999
1.7221857 2.3708234 3.1254787
1.7760514 2.3692203 3.118952
1.8283458 2.3678792 3.1361217
1.8777852 2.3690336 3.1126266
1.9252936 2.3753693 3.1265111
1.9781932 2.3771172 3.1197484
2.0313501 2.3737004 3.1321883
2.0850105 2.3799629 3.1373305
2.1163461 2.3717101 3.1286654
2.1717339 2.3788097 3.1338377
2.2246399 2.3825319 3.1338761
2.2711134 2.3737743 3.1269648
2.3316758 2.3756404 3.1223087
2.3806996 2.3670156 3.1085613
2.4902458 2.3832531 3.1213372
-0.37180328 2.4020174 3.1370583
-0.15666334 2.4004624 3.1496735
-0.022250062 2.4075809 3.1276298
0.013388569 2.4056807 3.1252046
0.057846617 2.4021719 3.1202483
0.12921886 2.4063616 3.1239388
0.27357543 2.4042008 3.1481218
0.3262105 2.4042714 3.1268733
0.37272602 2.407578 3.1443572
0.43509895 2.4048374 3.1342242
0.4710705 2.405304 3.1306081
0.60743314 2.4035063 3.1266866
0.67290324 2.4032631 3.1331558
0.72697228 2.4028821 3.1227376
-0.85950333 -0.50225306 3.1902139
-0.82986081 -0.51266974 3.1854692
-0.88803047 -0.47053525 3.1672583
0.4813064 -0.48347107 3.1810794
0.50783664 -0.47332239 3.1518364
-0.90133333 -0.42129982 3.1704845
-0.88863724 -0.42268142 3.1840131
0.48489583 -0.41694674 3.1765568
0.50704646 -0.42685053 3.1511903
-0.90599823 -0.37071791 3.1680341
-0.89099288 -0.37670121 3.1962793
0.4858675 -0.3836793 3.1788104
0.51790947 -0.3731271 3.1589119
-0.90969819 -0.32644463 3.1640806
-0.89498824 -0.34382582 3.1835623
0.53514069 -0.32177654 3.1727192
0.64672858 -0.30602103 3.1559019
0.66784132 -0.32414219 3.1804576
0.53743815 -0.28957009 3.1574588
0.61755127 -0.26071599 3.1699922
0.53364986 -0.23937373 3.1687164
0.57778507 -0.21830933 3.1546669
0.85020298 0.030888639 3.1507802
0.23654859 0.19455899 3.1884191
0.27684346 0.18962879 3.1676328
0.32166159 0.18167603 3.1584988
0.37455773 0.18162589 3.1537366
0.44360286 0.18202694 3.1548529
0.46613091 0.18194398 3.1512263
0.23237164 0.2133203 3.1829731
0.27650008 0.21214199 3.1629875
0.7882638 0.24859861 3.1856713
0.85812342 0.2486098 3.1735842
0.85785031 0.27956811 3.170805
0.85450965 0.30942693 3.1565225
0.85787493 0.6959039 3.1895289
0.85590315 0.72584659 3.1773555
0.84998059 0.75217777 3.1503651
0.85484993 0.99546987 3.1880829
0.84811413 1.019486 3.1558988
0.85088181 1.0227966 3.1661682
-0.91915596 1.1989068 3.1583183
0.84219027 1.1848838 3.1592455
-0.90986979 1.2325332 3.1791401
-0.90808028 1.270877 3.161341
-0.89319903 1.2565635 3.1743414
-0.90618545 1.316628 3.174258
-0.89676237 1.3271168 3.1678259
-0.90882683 1.3748145 3.173696
-0.91154146 1.4299294 3.1771688
-0.91667384 1.4705296 3.1783981
0.84941715 1.4919298 3.16857
0.85384768 1.4830451 3.1907911
-0.91767341 1.5358289 3.1833966
0.84997237 1.5260875 3.159045
0.851493 1.5288339 3.1646466
-0.92090923 1.572523 3.1688924
0.85110188 1.5613425 3.1512752
-0.92980224 1.6224372 3.1719954
0.84732682 1.6359528 3.184166
0.85850453 1.6419572 3.1534307
-0.92275184 1.6685933 3.1665175
0.84686786 1.6687803 3.169358
0.86105508 1.6720511 3.1528935
-0.93194997 1.728274 3.1681371
0.84574145 1.700246 3.1517439
0.85606176 1.7378784 3.1564627
-0.92938513 1.7651752 3.1798086
0.83963031 1.7733976 3.174767
0.85457683 1.7775605 3.1599293
-0.94183993 1.8154657 3.1724916
0.91845769 1.8287631 3.1827259
0.96561134 1.8369071 3.1632862
0.92812347 1.8653857 3.1925168
0.97526747 1.8817172 3.1679964
1.008317 1.8786469 3.1544194
0.94577074 1.9181619 3.1813643
0.96041769 1.9126244 3.1681662
-0.73828125 2.3380034 3.175432
-0.85876459 2.3705304 3.1971252
-0.83182842 2.3749571 3.1720507
-0.77040285 2.3656452 3.1716213
-0.72062296 2.3667219 3.1644251
-0.67929667 2.3730147 3.1746244
-0.62997431 2.3848011 3.1690331
-0.59203762 2.3690422 3.171284
-0.4207547 2.3896441 3.1858139
-0.38069296 2.3903618 3.1791096
-0.22371154 2.3912814 3.1806519
-0.17531489 2.3930504 3.1737785
-0.10351102 2.3958237 3.1800327
-0.085579865 2.3979857 3.1833344
0.1395825 2.3954778 3.1784699
0.17540419 2.3929944 3.1737413
0.21179029 2.3976598 3.1781616
0.37757444 2.3952076 3.1742325
0.41048333 2.3913856 3.1716518
0.475164 2.3971786 3.1756797
0.52869463 2.3865044 3.1685607
0.56627381 2.3925591 3.1715534
0.60315144 2.3951025 3.1694891
0.67550135 2.3962736 3.1809125
0.73569614 2.3951237 3.1829979
0.82817602 2.3937368 3.1716425
0.86748171 2.3874977 3.1820648
0.92322868 2.3892159 3.1715844
0.97523993 2.3832603 3.1653135
1.0211858 2.3896747 3.1758657
1.0747732 2.3818049 3.1747584
1.1202239 2.3807366 3.1834118
1.1780585 2.3848801 3.1721277
1.2234337 2.3823049 3.1777215
1.2661358 2.386368 3.1724844
1.3208256 2.3823798 3.1745994
1.3720884 2.3773084 3.1756945
1.4237049 2.380069 3.1711314
1.4713861 2.38188 3.186924
1.5314366 2.3800225 3.1740856
1.5786103 2.3809521 3.1845281
1.6345315 2.3593848 3.1687644
1.6802497 2.3698089 3.1654367
1.7226297 2.3711293 3.1779337
1.7747717 2.3739626 3.1730049
1.8355345 2.3702469 3.1828861
1.8810703 2.3675759 3.1708219
1.9280877 2.3681889 3.1789014
1.9768391 2.3794072 3.172739
2.0188732 2.3728993 3.1704381
2.0804996 2.377126 3.1762831
2.1226132 2.3698497 3.1718543
2.1770241 2.3753598 3.1754475
2.2264769 2.375021 3.1704836
2.2768974 2.3649786 3.1722693
2.3186607 2.3662164 3.1749134
2.3640318 2.3707533 3.18152
2.421519 2.3660822 3.1892867
2.5281997 2.3676558 3.1761856
2.5771637 2.3742228 3.1553421
-0.35799569 2.4117918 3.186399
-0.1309747 2.4041171 3.1902258
-0.031459209 2.4039998 3.1746881
0.018113164 2.4056294 3.185652
0.076694585 2.4086063 3.1801481
0.12594894 2.4071202 3.1682374
0.16603871 2.4055412 3.1559858
0.23945059 2.403909 3.1849091
0.27558765 2.4040873 3.1827643
0.32980248 2.4039383 3.1784039
0.41988739 2.4025509 3.1679327
0.47390664 2.4017122 3.1606688
0.58735043 2.4046693 3.1849225
0.6323632 2.4027243 3.1752381
0.69559616 2.401171 3.1623154
0.71676123 2.4020276 3.1778555
0.77468371 2.4027212 3.1859601
1.0387748 2.4015396 3.1595776
-0.822932 -0.50390875 3.2076569
-0.79903233 -0.50373268 3.2105267
0.45445907 -0.51256108 3.2092648
-0.86928505 -0.47712371 3.2219629
-0.84099334 -0.49413446 3.2471998
-0.87417734 -0.42787129 3.2277725
0.47166783 -0.42085272 3.228096
-0.87509745 -0.38006267 3.2289746
0.48418364 -0.37172431 3.2099488
-0.90929699 -0.31479546 3.207027
-0.88248432 -0.33231521 3.2290728
0.53358454 -0.27254742 3.2293816
0.53841197 -0.22455662 3.2131815
0.089069888 0.18580045 3.2404571
0.22705944 0.18471014 3.2169604
0.089080274 0.20128876 3.2399769
0.11259571 0.20181897 3.2480412
0.82097358 0.23578167 3.2195859
0.82393718 0.25240153 3.2304015
-0.9039768 1.2386926 3.2218516
-0.90144205 1.2681732 3.2035947
-0.8930254 1.2879797 3.2337165
-0.8904348 1.3277338 3.2293708
-0.88636529 1.3712648 3.2246544
-0.89308167 1.4260749 3.2279739
-0.90104038 1.4756441 3.2081172
-0.88814843 1.4736764 3.2284126
0.85886896 1.4665909 3.2179828
-0.90440917 1.5232499 3.205709
-0.89351016 1.5334103 3.2305925
-0.91083831 1.5934081 3.2072351
-0.89707935 1.573586 3.2314544
-0.9070822 1.6252995 3.2246728
-0.90664095 1.6727462 3.2160752
-0.8914696 1.6714948 3.2480724
-0.91668594 1.7307096 3.2167916
-0.89555919 1.7137896 3.2495086
-0.91303909 1.7747316 3.2219009
-0.89929867 1.7731037 3.2420321
-0.92291832 1.8204256 3.2191763
0.91087633 1.8832076 3.205096
0.92141533 1.9044085 3.2015603
-0.82033604 2.3651433 3.2200463
-0.78722239 2.3671565 3.2258766
-0.66442972 2.3745346 3.2217546
-0.62749738 2.3734186 3.2262011
-0.59764385 2.3640804 3.2176929
-0.43319342 2.3906107 3.2214215
-0.38639778 2.3830154 3.2158561
-0.2222905 2.3781047 3.2216263
-0.18089354 2.3937469 3.2236595
-0.14065021 2.3969479 3.21545
-0.013551504 2.3924513 3.211864
0.24023603 2.3936412 3.2062917
0.27747041 2.3963387 3.2193146
0.33354828 2.3946824 3.2365642
0.36938623 2.3946588 3.224468
0.40655482 2.3941557 3.2291412
0.59348303 2.392936 3.2404232
0.62892616 2.3971844 3.2226145
0.6683895 2.3976209 3.2351542
0.76427329 2.3907576 3.2454183
0.81886649 2.3925641 3.2277663
0.88094902 2.3884602 3.2274003
0.92796516 2.3850625 3.2174194
0.97470635 2.3886111 3.2341506
1.0288606 2.3796604 3.2169542
1.0747734 2.384959 3.2416012
1.1264963 2.3753846 3.2128088
1.180016 2.3796306 3.2231333
1.2203095 2.3754861 3.224376
1.2754481 2.3769236 3.2189009
1.3224854 2.3803983 3.2185843
1.3722804 2.3740499 3.2284393
1.4189501 2.3753912 3.2282577
1.4779301 2.3732951 3.2130849
1.5242739 2.3715196 3.2240849
1.5793005 2.3771996 3.2216711
1.6221883 2.3737822 3.2198935
1.6781445 2.3747978 3.2192841
1.7316575 2.3753705 3.2413583
1.7697687 2.3738976 3.2210782
1.8170099 2.3696461 3.2259111
1.872348 2.3724816 3.2152107
1.9299104 2.362746 3.2162247
1.9706144 2.375942 3.2184145
2.0170705 2.3742578 3.2230911
2.0581887 2.3765244 3.2210965
2.1283176 2.3785803 3.2357588
2.172174 2.3719101 3.2234299
2.223289 2.37291 3.2207956
2.281301 2.3805537 3.2266231
2.3638902 2.3706186 3.2362127
2.4893417 2.3704493 3.2088304
2.5188355 2.3673427 3.2397051
2.5949826 2.379153 3.2115788
-0.45044124 2.403291 3.2010107
-0.36181456 2.4191887 3.2315283
-0.11359501 2.4006886 3.2213235
-0.068374932 2.4129395 3.2299492
-0.031885698 2.4086869 3.2335556
0.02283583 2.40678 3.2310336
0.059187558 2.4030912 3.2257409
0.1234792 2.4148498 3.2400708
0.16898584 2.4119325 3.2344887
0.21446979 2.409801 3.2294793
0.2701177 2.408494 3.2421713
0.32112896 2.4052277 3.2280922
0.35014948 2.4015048 3.2087586
0.43469974 2.4072921 3.2261658
0.47266525 2.4051189 3.2368937
0.51059115 2.4109092 3.2401867
0.57423681 2.4079745 3.2275183
0.62348562 2.4025953 3.2249136
0.6883173 2.4028292 3.2390456
0.72609448 2.4056089 3.2362072
0.7804988 2.4021983 3.2210939
0.418524 -0.51003367 3.2990878
-0.85362673 -0.46088231 3.2781637
-0.83291465 -0.49348912 3.2814953
0.3842971 -0.49110541 3.2832172
0.43074846 -0.476724 3.2724056
0.4698289 -0.47755754 3.2657392
0.50786865 -0.48802951 3.2514093
-0.85613394 -0.42996949 3.2733028
0.47849831 -0.44278136 3.2735999
-0.85766762 -0.37723002 3.2791746
-0.86041272 -0.32407942 3.2721305
-0.8488574 -0.33783615 3.2912052
0.027386859 0.18733853 3.2680182
0.058406807 0.18677311 3.2578859
0.11278258 0.18660647 3.2540429
0.027375992 0.20280519 3.2651215
0.058412723 0.20235714 3.2576392
0.87287432 0.24145195 3.2913465
-0.88161445 1.2733798 3.2624712
-0.86969602 1.3257105 3.2710114
-0.86673814 1.3763778 3.2882595
-0.8440659 1.383159 3.2952032
-0.87282676 1.4248426 3.2842488
-0.87805206 1.4805026 3.2837245
-0.88147277 1.5185179 3.2729847
-0.88171768 1.5725613 3.2683754
-0.88900411 1.6275196 3.2735395
-0.89354283 1.6754011 3.2555695
-0.8894136 1.7314459 3.2756417
-0.88677621 1.7654566 3.2707481
-0.90422708 1.8003024 3.2525351
-0.89703029 1.8300018 3.2901835
-0.63046485 2.357028 3.2576838
-0.45723838 2.3933086 3.2768426
-0.42279226 2.3884394 3.2700882
-0.37352398 2.398911 3.2748475
-0.22151057 2.3724792 3.2733772
-0.17478862 2.3973472 3.2769804
-0.13631114 2.3968983 3.2748516
-0.078371644 2.399152 3.2914
0.15147795 2.3869872 3.2726872
0.28096914 2.3955138 3.2776062
0.33633742 2.3962586 3.274471
0.3728196 2.3937855 3.2678611
0.43376452 2.3952985 3.2730646
0.47371578 2.3952882 3.2838581
0.52514017 2.3984928 3.2942827
0.58751959 2.3876302 3.2705917
0.61652303 2.3925211 3.273191
0.67571688 2.3926637 3.2888334
0.73167735 2.3961456 3.277874
0.77489769 2.3954237 3.2782111
0.82634789 2.3910141 3.2711332
0.87593687 2.3896029 3.2777433
0.92555135 2.3874037 3.2826564
0.97825861 2.3801286 3.2750506
1.0220509 2.3792396 3.2764685
1.0812751 2.3757629 3.2754288
1.1346066 2.3838992 3.2828619
1.1780286 2.3739305 3.2751956
1.2283703 2.3717463 3.2809482
1.2744489 2.377903 3.2718143
1.3212203 2.3666732 3.2594681
1.3753468 2.3751638 3.2962146
1.4247627 2.3771317 3.2817774
1.473401 2.377739 3.2646625
1.5238158 2.3767204 3.2869158
1.5769905 2.3720872 3.2728374
1.6234465 2.372555 3.2728305
1.6854471 2.3793159 3.2687364
1.7203755 2.377023 3.2722025
1.7690334 2.3796647 3.2775238
1.8273413 2.3711553 3.2822452
1.8722196 2.3776264 3.2718437
1.918854 2.3759222 3.2695789
1.9779882 2.3768294 3.2650185
2.0167027 2.3666887 3.2755785
2.0658431 2.3767335 3.2674775
2.1251705 2.3735332 3.2794898
2.1685698 2.3700926 3.2827635
2.2334847 2.3689675 3.2732151
2.2620914 2.3618438 3.282244
2.313803 2.3724537 3.2715425
2.3842402 2.3700109 3.2774143
2.4426758 2.3759625 3.2515559
-0.4769645 2.4089017 3.2778971
-0.36305279 2.4090753 3.2536006
-0.1148088 2.4079518 3.266643
-0.064254515 2.4035883 3.2707825
-0.02299149 2.4041641 3.2809899
0.023049455 2.405159 3.278738
0.08192575 2.4187212 3.2677262
0.12422262 2.411427 3.2711039
0.17406364 2.4052186 3.2752221
0.22594477 2.4073527 3.2791967
0.28081107 2.4040074 3.271245
0.30976892 2.404592 3.2880275
0.37526914 2.4096019 3.2894962
0.48480582 2.4014859 3.2667742
0.52679551 2.4076889 3.2701366
0.56652784 2.402581 3.2699814
0.63754326 2.4018664 3.2831113
0.67405015 2.4054556 3.2698472
0.71199596 2.401885 3.2707689
0.38806668 -0.51191586 3.3138146
0.41940776 -0.51112986 3.3061543
-0.82578015 -0.4717814 3.3229926
0.45235831 -0.49623272 3.3122034
-0.85272652 -0.40403771 3.3013773
-0.83485866 -0.42345861 3.3297184
-0.85166866 -0.35510036 3.3009794
-0.83170861 -0.37706807 3.3353822
-0.83680266 -0.3290661 3.3377113
0.584405 0.29023615 3.3374059
0.60030359 0.29013124 3.3342941
0.87943035 0.26652586 3.3364108
0.63607264 0.30796465 3.3480439
0.65304059 0.3083275 3.3499043
-0.85270828 1.4316127 3.3184543
-0.83934706 1.4466902 3.3339429
-0.86417544 1.4708779 3.317225
-0.84224737 1.4689724 3.3400216
-0.86120206 1.5237614 3.3264303
-0.87105668 1.5692965 3.3147218
-0.87559396 1.6277721 3.3223176
-0.88193434 1.6854637 3.3212929
-0.877195 1.7196493 3.3282115
-0.50067186 2.3966455 3.3317609
