ply
format ascii 1.0
comment PCL generated
element vertex 1505
property float x
property float y
property float z
element camera 0
property float view_px
property float view_py
property float view_pz
property float x_axisx
property float x_axisy
property float x_axisz
property float y_axisx
property float y_axisy
property float y_axisz
property float z_axisx
property float z_axisy
property float z_axisz
property float focal
property float scalex
property float scaley
property float centerx
property float centery
property int viewportx
property int viewporty
property float k1
property float k2
end_header
0.55969346 -0.38166934 3.5962708
-0.7547071 -0.32768002 3.5546772
-0.7387839 -0.32588121 3.5853541
-0.75455767 -0.27588007 3.5568483
-0.73608738 -0.2814233 3.5747328
-0.75436538 -0.21544105 3.558672
-0.74056339 -0.22510953 3.5773315
0.68919379 -0.20794764 3.587343
0.72818017 -0.2067018 3.5602992
0.76418251 -0.20711446 3.5627294
-0.7556355 -0.18127683 3.5659125
-0.74117756 -0.17329521 3.5821764
0.69958991 -0.19107963 3.5956955
0.73301339 -0.17338316 3.5852308
0.76505089 -0.17277348 3.5679543
-0.75252324 -0.11171048 3.553051
-0.7412079 -0.12126832 3.5837014
0.73271102 -0.12129381 3.5851157
0.77019632 -0.12104063 3.5725579
-0.75343782 -0.086018637 3.5578339
-0.74062318 -0.086536117 3.5815332
0.73661375 -0.072263256 3.5904839
0.76914263 -0.072048806 3.5754182
0.73340374 -0.025945282 3.5897627
0.7703886 -0.028693149 3.5678215
0.73658037 0.007033308 3.5878711
0.76554346 0.017407672 3.5729282
0.75804138 0.052074224 3.579421
0.47021917 0.32788166 3.5866449
0.46875662 0.38704443 3.5715046
0.63867474 0.37793261 3.5824909
0.68047434 0.39015388 3.5777762
0.73211861 0.38495347 3.5570557
0.63037539 0.41305533 3.5932484
0.68400073 0.41998866 3.5707734
0.73003632 0.4320409 3.5555997
0.73095673 0.48449025 3.55565
0.69646722 0.53646892 3.5558341
0.73196781 0.51980948 3.5572658
0.76706088 0.52878171 3.5536392
0.72837001 0.57037324 3.5594354
0.7610814 0.57631952 3.5542107
0.72558683 0.6257205 3.5583808
0.76042491 0.62580925 3.5539696
0.72700429 0.67919117 3.5589218
0.77090001 0.679528 3.5544589
0.73001337 0.72572678 3.5678601
0.77010691 0.72737086 3.5614491
1.5018799 0.73067689 3.5719233
0.63653523 0.77267057 3.5891414
0.67303699 0.78307241 3.5909355
0.72435218 0.77272546 3.5780821
0.77570528 0.77142298 3.5646079
1.5060959 0.7876687 3.5736272
0.68323672 0.81113029 3.5932758
0.72723025 0.82871926 3.5843976
0.77702242 0.82542163 3.5626462
1.4800277 0.83821023 3.5515103
0.69511318 0.87671357 3.5981946
0.72838873 0.87416643 3.5829828
0.77823317 0.87947154 3.5596194
0.8128525 0.8876546 3.5503631
1.497741 0.87590086 3.5892587
0.69641513 0.92272836 3.5973957
0.72993875 0.92028785 3.5831151
0.78017944 0.9257403 3.5608666
0.81402218 0.91533118 3.5509033
0.73236191 0.97409242 3.5858762
0.7748121 0.97420704 3.5701284
0.80885249 0.9813568 3.5569978
0.72131217 1.0272441 3.5942147
0.77103645 1.0256404 3.5736365
0.80852163 1.0238497 3.5557144
0.72978771 1.0684421 3.5919585
0.76861489 1.0717473 3.5765822
0.81321472 1.0755301 3.5584707
0.73242092 1.1332767 3.592114
0.77372617 1.1271937 3.5787044
0.81986278 1.1213268 3.5612767
0.85999936 1.1230459 3.5514848
0.73332161 1.1788385 3.5964108
0.77550501 1.1746286 3.5770254
0.81875813 1.1751673 3.5538967
0.73519635 1.226977 3.5951309
0.77874166 1.2245508 3.5814455
0.81860077 1.2231328 3.5592599
0.74650621 1.2759911 3.5939553
0.78357029 1.2770997 3.5794504
0.82074702 1.2731092 3.557157
1.4892454 1.2782066 3.5866416
0.7490139 1.3166018 3.5968895
0.77742147 1.326632 3.580621
0.8140496 1.3134395 3.5503631
1.495892 1.3027923 3.5976715
0.77263337 1.3725384 3.5883832
0.82075185 1.3756756 3.5658886
0.85651594 1.3869395 3.5544548
0.77442074 1.427986 3.5895462
0.82198477 1.4233592 3.5700314
0.86779779 1.4268663 3.5518136
0.77939117 1.4763563 3.5940099
0.82729262 1.4719992 3.5702641
0.86697447 1.4832183 3.5531809
0.79048771 1.5167111 3.5936615
0.83071178 1.5240055 3.5712194
0.8657794 1.5302358 3.5553885
0.79910338 1.5522275 3.5945072
0.81770945 1.5802774 3.5835505
0.85978633 1.5727042 3.5586114
0.81995058 1.6216725 3.5814292
0.86378908 1.6262475 3.5601547
0.8263036 1.6738628 3.5838621
0.86837244 1.6813278 3.5634327
0.78289956 1.7175939 3.5957026
0.82385051 1.7240362 3.5801773
0.88172024 1.7264394 3.565222
0.67799252 1.7958056 3.5825043
0.72760767 1.788838 3.5762386
0.7726264 1.7766192 3.5686555
0.82602948 1.7643505 3.5628452
0.87036371 1.7628208 3.5595865
0.64266092 1.8203257 3.5921352
0.67667991 1.8234733 3.5640466
0.67240924 1.8662161 3.5610373
0.68339497 1.9326887 3.5639362
0.7015968 1.9402957 3.554153
0.67707694 1.9793327 3.5789089
0.70393294 1.9751322 3.5543396
0.68138558 2.0302272 3.5729985
0.71486622 2.0292513 3.559222
0.68373299 2.0659313 3.5730038
0.72066784 2.0621309 3.5607662
0.82704574 2.1092432 3.5842886
1.0435951 2.3374739 3.5854349
1.1013267 2.332866 3.5641723
1.2963943 2.3311749 3.5750637
-0.47499123 2.3806429 3.5616782
-0.43145347 2.3884742 3.5678773
-0.37656125 2.3874707 3.5612381
-0.34720784 2.3874204 3.5634902
-0.18063346 2.3839922 3.5679002
-0.12268557 2.3963261 3.5882947
-0.069324732 2.3969998 3.5667884
-0.024441198 2.3910909 3.5820148
0.024613112 2.396595 3.5902452
0.073736258 2.3976197 3.5912809
0.12615271 2.3940558 3.5690567
0.17149083 2.3910258 3.5788174
0.22026888 2.3938389 3.5711007
0.27924955 2.3911126 3.5736778
0.32849494 2.3929722 3.5732443
0.36832675 2.3968408 3.5760489
0.43139279 2.3951232 3.5813172
0.47141963 2.3820686 3.5742531
0.52954555 2.3957605 3.5988843
0.57566923 2.3867493 3.5694942
0.62602192 2.3863015 3.5722957
0.67998284 2.3808703 3.5725331
0.72737002 2.3756316 3.5816422
0.77855659 2.3857627 3.5787013
0.83016622 2.3866334 3.5812757
0.87438989 2.3803725 3.5735745
0.92504102 2.3806639 3.5954659
0.97758102 2.3626466 3.5557411
1.0235081 2.3622344 3.576699
1.3342279 2.3546624 3.5811472
1.3767086 2.3579283 3.5736985
1.4200274 2.3748221 3.5735016
1.4764117 2.3660843 3.5667405
1.5217128 2.3751802 3.5862989
1.5771596 2.3665814 3.5791926
1.6265988 2.3743436 3.5786526
1.669713 2.3728266 3.5917282
1.7163016 2.3770783 3.5648983
1.7863313 2.3687603 3.587054
1.8226967 2.361589 3.5585749
1.8737479 2.3681962 3.5823927
1.9135246 2.3626103 3.5712881
1.9685072 2.3667428 3.5712421
2.0189085 2.3662243 3.5814123
2.0646353 2.3698306 3.5662332
2.1154623 2.368717 3.5746365
2.1651552 2.3552892 3.5957286
2.3441823 2.361865 3.5689974
2.4130356 2.3646653 3.5938888
-0.15242261 2.4008465 3.594198
-0.09337692 2.4002311 3.5948405
0.044004973 2.4035578 3.5611205
0.073277533 2.4027882 3.559597
0.39891106 2.4036715 3.5837936
-0.72549027 -0.46602827 3.6208138
-0.7247026 -0.42261925 3.6294205
0.53210533 -0.40443319 3.6472631
-0.72679502 -0.37259126 3.6254017
0.58422875 -0.36006844 3.6409621
-0.72362745 -0.32446083 3.6214509
0.58308947 -0.32430279 3.6360059
-0.72155583 -0.27704212 3.6227913
-0.72284365 -0.22773145 3.6223907
0.59866285 -0.21837077 3.6273441
0.62428367 -0.20944194 3.6213496
0.65829676 -0.20915 3.6123075
-0.72479218 -0.17564285 3.6340458
0.62077415 -0.17675093 3.6333191
0.6691463 -0.17207885 3.6120119
0.70060849 -0.16524954 3.6017582
-0.7264111 -0.12641229 3.6344254
0.10880648 -0.10433231 3.6447272
0.62057161 -0.12490089 3.6412668
0.66824037 -0.12219009 3.6204991
0.70124346 -0.12185431 3.6061249
-0.73284328 -0.087680615 3.6311707
0.62289017 -0.070032537 3.6389594
0.66803926 -0.069773823 3.6203117
0.70745915 -0.066037849 3.6023209
0.61746836 -0.0261951 3.6374462
0.66757256 -0.026096014 3.61813
0.70085669 -0.026026666 3.6053774
0.58364528 7.585017e-05 3.648751
0.61754125 0.017600277 3.6378949
0.66715723 0.017523432 3.6158268
0.71221018 0.023298912 3.6025474
0.59758306 0.087305285 3.624222
0.62949574 0.068143062 3.6241417
0.67140847 0.063872121 3.6062934
0.71804065 0.052306961 3.6016998
0.63126868 0.1132609 3.6128623
0.66544366 0.11316373 3.6053119
0.43367374 0.3307251 3.6209049
0.4752956 0.33483168 3.6246281
0.52919 0.32369059 3.6320696
0.57944256 0.3311764 3.6124001
0.43998224 0.36593759 3.6224484
0.48295745 0.36677128 3.6271985
0.53304553 0.36637738 3.6406345
0.5809564 0.37570941 3.6189983
0.61411178 0.3746109 3.6046352
0.49547812 0.41218287 3.6386619
0.54036385 0.41299993 3.6416757
0.58121651 0.41083845 3.6181486
0.61408383 0.40072379 3.6026092
0.53776914 0.76445055 3.6476853
0.57435876 0.77672815 3.6296666
0.61894441 0.78764737 3.6103756
0.57706505 0.8189168 3.6409292
0.62569839 0.82546681 3.6236432
0.67717046 0.83214092 3.606256
0.58484155 0.87508255 3.6434319
0.62795806 0.87299353 3.6296785
0.6700049 0.86975044 3.6108782
0.58954757 0.91943938 3.6468804
0.62966317 0.92895329 3.630559
0.67173725 0.92538977 3.6112545
0.59686071 0.95143062 3.6492836
0.63132638 0.97619027 3.6322527
0.6781649 0.96966058 3.6087601
0.7060377 0.98706287 3.6049299
0.59863734 1.0262986 3.6468859
0.62781203 1.0210245 3.6341929
0.66902316 1.0226722 3.6168208
0.700728 1.0177007 3.6033237
0.59913063 1.0631727 3.6428885
0.62080914 1.0741329 3.6386902
0.66906869 1.0778151 3.619231
0.70796186 1.0799733 3.605232
0.62136692 1.1185545 3.6415503
0.67103738 1.1260185 3.6204882
0.7110436 1.1198153 3.6053305
0.62697792 1.1755022 3.6402595
0.67286843 1.1742687 3.6204824
0.70740968 1.1716253 3.6076219
0.63067961 1.2232329 3.6447709
0.67468899 1.2227111 3.6199052
0.70938146 1.2200716 3.6073434
0.63025588 1.2802042 3.6419396
0.67737722 1.2730602 3.6234682
0.71967614 1.2743113 3.610045
0.63681811 1.3287219 3.645895
0.68042678 1.3245025 3.6285591
0.72326225 1.328415 3.6058264
1.500586 1.3258204 3.6038792
0.63972777 1.3731991 3.6409106
0.67828804 1.3738123 3.6345108
0.7175228 1.3804001 3.6121578
0.75317687 1.3878285 3.6000581
0.67202151 1.4271562 3.6402366
0.72085756 1.4235483 3.6189115
0.75462198 1.4087894 3.6019654
0.67647165 1.4782047 3.6469941
0.72362113 1.4751174 3.6197331
0.75947583 1.4915165 3.6041796
-0.75799018 1.5164447 3.6404567
0.68752301 1.5192168 3.6443892
0.72716665 1.5286449 3.6238546
0.76868415 1.5283222 3.608506
0.73143393 1.5731696 3.6189597
0.7747944 1.57765 3.6088984
0.68888974 1.6310295 3.6469276
0.72953111 1.6181266 3.6312013
0.77373451 1.6354851 3.615521
0.69339961 1.6656408 3.6437414
0.72327346 1.6733643 3.6338317
0.77176362 1.6747686 3.612628
0.68398571 1.7266808 3.6441135
0.72034961 1.7274745 3.6305985
0.75946128 1.7301395 3.6052799
0.6486342 1.7804079 3.6460781
0.67817795 1.7755346 3.6253343
0.71975738 1.7659396 3.6136436
0.75601113 1.7658502 3.600385
0.64748353 1.8150733 3.6260316
1.0276759 2.3467221 3.6041777
1.3324642 2.3388643 3.6228833
1.4042653 2.3463345 3.6369903
2.1549878 2.3460977 3.6378586
-0.42145795 2.3808043 3.627532
-0.37224936 2.3934112 3.6307318
-0.17703803 2.386868 3.6281173
-0.123572 2.3940198 3.6246226
-0.069177918 2.3894751 3.6288652
-0.027944567 2.3829155 3.6227105
0.024758257 2.3915951 3.6224992
0.074145168 2.3915117 3.6218741
0.12370519 2.3895822 3.6279359
0.16976751 2.3867416 3.6255634
0.21845181 2.384342 3.6225467
0.27134615 2.3880587 3.6093812
0.32660833 2.390404 3.6194608
0.37114134 2.3855228 3.6188185
0.41730577 2.3871551 3.6214435
0.4714992 2.3826561 3.6256235
0.52254081 2.3892231 3.6303236
0.57022178 2.3805273 3.6113257
0.62076557 2.37924 3.6131213
0.66843027 2.3755713 3.6179473
0.70550036 2.3821895 3.6366754
0.775675 2.3825707 3.6261058
0.8257606 2.3827775 3.6177511
0.86921883 2.3788762 3.6317718
0.92143381 2.3771577 3.6330824
0.97669017 2.371865 3.6239018
1.0131375 2.3595548 3.6283681
1.3801721 2.355773 3.6260641
1.4322581 2.3621573 3.6091719
1.4640466 2.3611538 3.6281853
1.5415452 2.3676388 3.6292069
1.5733342 2.368618 3.619787
1.6457448 2.3728561 3.6251383
1.6740553 2.3728709 3.6388841
1.7208568 2.3775921 3.6170716
1.7690398 2.369004 3.627867
1.8368094 2.3724709 3.6230745
1.9237655 2.3671207 3.6268208
1.9677068 2.3629687 3.6341846
2.0227997 2.3619118 3.6243188
2.0814898 2.3645337 3.6193867
2.1355324 2.3583469 3.6168146
2.319335 2.3591359 3.6351533
2.36573 2.3614962 3.6143036
2.4017987 2.3753741 3.6229489
2.6296647 2.3540218 3.6234689
-0.70710492 -0.4713507 3.6655445
-0.69473439 -0.47505009 3.6966305
-0.70595759 -0.42616832 3.6631582
-0.69344765 -0.44732842 3.691992
0.44929844 -0.40911326 3.6971989
0.47559804 -0.40878332 3.6920433
0.50849986 -0.4066647 3.6698356
-0.70990056 -0.36820722 3.6641736
-0.69117677 -0.37451378 3.6851091
0.44946542 -0.39146894 3.6998227
0.4774937 -0.37688312 3.6949983
0.51826549 -0.37195894 3.6780539
0.55845344 -0.36687687 3.6588428
-0.71073532 -0.32420179 3.6712213
-0.69180453 -0.32129249 3.6917574
0.48433748 -0.31981087 3.6957808
0.51844454 -0.31891567 3.6825104
0.56045526 -0.31760761 3.6632166
-0.70672095 -0.2755096 3.6765814
-0.69270366 -0.28595564 3.6984694
0.48377585 -0.27505708 3.693815
0.51816744 -0.27448162 3.6829135
0.56016481 -0.27335668 3.6636057
-0.70712233 -0.23121704 3.6806476
-0.69046569 -0.21375325 3.689651
0.47914985 -0.23060054 3.694706
0.51771545 -0.23000503 3.6816792
0.56815237 -0.22891837 3.659373
-0.70596427 -0.17751598 3.6765373
-0.69195342 -0.19635564 3.6982422
0.48366562 -0.1773932 3.6968038
0.51772439 -0.17691027 3.6835971
0.56811255 -0.1760671 3.6610041
-0.70720452 -0.11926485 3.6609585
-0.68922573 -0.1244299 3.6856511
0.092545681 -0.12325432 3.68997
0.12892373 -0.12442511 3.6593204
0.18008097 -0.12284505 3.6766238
0.21582074 -0.13201249 3.6861959
0.48333773 -0.12407438 3.6956797
0.51774001 -0.12380774 3.6850193
0.56800145 -0.1231973 3.6616495
0.60196531 -0.10536171 3.6506217
0.12714936 -0.072232008 3.6717415
0.16862202 -0.082025312 3.6833165
0.48351908 -0.07090053 3.6979477
0.51780504 -0.070732556 3.6864233
0.568461 -0.070416391 3.6654744
0.60188091 -0.070209034 3.6506133
0.48349535 -0.026544861 3.6981311
0.51732016 -0.02645961 3.6833076
0.56851518 -0.026369529 3.666218
0.47841665 0.022208333 3.6934834
0.51725179 0.017745994 3.6828167
0.56538373 0.019874562 3.6603813
0.44764307 0.053240206 3.6977375
0.49075368 0.053114783 3.685106
0.52527225 0.053031974 3.6759615
0.56901115 0.052998945 3.6690705
0.39459544 0.3281056 3.6934614
0.41573229 0.32908401 3.6696873
0.39493683 0.37276375 3.6938667
0.41880313 0.37035164 3.6680775
0.51490396 0.38730359 3.6523874
0.34076747 0.42482916 3.6835063
0.38151389 0.4214325 3.6902704
0.41598484 0.41160443 3.6664391
0.51531887 0.41404402 3.6534028
0.43622604 0.79148436 3.6978686
0.47007677 0.77903533 3.6798401
0.5178175 0.77719378 3.6579881
0.43676594 0.81047475 3.6998427
0.47234884 0.82778478 3.6909153
0.52373296 0.82371825 3.6679311
0.55781472 0.83006072 3.6516531
0.48273438 0.87524796 3.6937683
0.52737415 0.87751824 3.669513
0.55912066 0.87673092 3.6531646
0.47937396 0.92133653 3.6906064
0.52402329 0.92337817 3.6731048
0.56692481 0.92745715 3.6564853
0.48654705 0.97492915 3.6927326
0.52777886 0.97443855 3.6725116
0.57792062 0.97374201 3.6557598
0.48951483 1.0305752 3.6963856
0.53010505 1.0240303 3.6803532
0.57473654 1.0250221 3.6586041
0.48707902 1.0743289 3.6929753
0.53111023 1.0713755 3.6785431
0.57300711 1.071842 3.6625981
0.53551501 1.1226816 3.6778648
0.5761866 1.1252395 3.6607473
0.60347599 1.1434909 3.6543186
0.49991423 1.1924802 3.6969423
0.52409422 1.1744541 3.6871784
0.56785506 1.1736141 3.6747117
0.60401058 1.1626722 3.6536283
0.52764422 1.220523 3.6896863
0.57359982 1.2227228 3.6691196
0.60591489 1.221027 3.6528683
0.52966261 1.2712511 3.6931159
0.5714004 1.2728306 3.6767545
0.60766643 1.2702458 3.652698
0.53980243 1.3196013 3.6873825
0.57572341 1.3265966 3.6750319
0.61025828 1.3307462 3.6547012
0.54195404 1.3711698 3.6903563
0.57732558 1.3764652 3.6734715
0.61306155 1.3737407 3.6620111
0.53801614 1.4203116 3.6949952
0.57811815 1.4154029 3.6687748
0.62708557 1.4228706 3.6666648
0.65175164 1.4423019 3.650388
0.54153687 1.4753231 3.6947269
0.57726192 1.4755822 3.6840839
0.61858529 1.4698523 3.6723118
0.66224432 1.4635491 3.6509073
-0.73670501 1.5206283 3.662571
0.54844368 1.5188628 3.6987567
0.57568777 1.525949 3.6874256
0.62221253 1.5265701 3.6643624
0.6645748 1.5325185 3.657001
-0.76293421 1.5544106 3.6558073
-0.7434535 1.5786104 3.6829243
0.58275062 1.5792209 3.688086
0.6204384 1.5797285 3.6705163
0.6787169 1.5823237 3.6586285
-0.75258285 1.6192622 3.6850934
-0.73462856 1.6214229 3.6927447
0.58337528 1.622892 3.6904547
0.62639612 1.6297811 3.6766262
0.66763544 1.6200207 3.6571925
0.58333457 1.6790366 3.6955526
0.62951958 1.6758046 3.6828787
0.67055446 1.6773618 3.6568766
0.57888937 1.7226207 3.6910732
0.62829739 1.7238877 3.6748435
0.66245097 1.7273784 3.6602423
0.58903152 1.7657715 3.6847417
0.62151182 1.765059 3.6637464
0.65099365 1.7678701 3.6660171
0.62801981 1.8027534 3.6954517
1.3830121 2.3419902 3.682487
1.4184549 2.3492446 3.6844316
-0.41458881 2.3785634 3.665484
-0.38087702 2.3915458 3.6781907
-0.17485295 2.3790836 3.6810822
-0.12478825 2.3974268 3.6701365
-0.074645735 2.3853703 3.6662457
-0.014925639 2.3971424 3.6713238
0.034915041 2.3900537 3.6603549
0.078068249 2.3841307 3.6643016
0.13127136 2.385289 3.6649163
0.17862971 2.3907309 3.6853848
0.23862825 2.3898556 3.6814148
0.27504739 2.3905063 3.6736789
0.32078335 2.3866434 3.6689141
0.37513959 2.381176 3.6728535
0.42624125 2.3874114 3.6782515
0.4754169 2.382339 3.6657176
0.52549332 2.3776009 3.6633966
0.57792372 2.3824492 3.6753135
0.62791288 2.3794458 3.6683755
0.68341792 2.3899031 3.6940761
0.72471476 2.3881769 3.6711473
0.77307278 2.3853383 3.673064
0.8249594 2.3893912 3.6707244
0.87687439 2.3795316 3.6740532
0.92031556 2.3802054 3.6812003
0.97209096 2.3722539 3.6796155
1.3653953 2.350239 3.6555948
1.4374254 2.3566523 3.6680067
1.4935033 2.3694236 3.6961541
1.5174668 2.3682275 3.6622486
1.5545387 2.3666427 3.6708198
1.6277603 2.3713431 3.6777456
1.6849275 2.3671434 3.6737411
1.733111 2.3646889 3.6758888
1.7856991 2.3676198 3.6858706
1.8228226 2.3721809 3.662338
1.8795799 2.3678036 3.6733623
1.9179399 2.3648319 3.6773155
1.9736587 2.3585794 3.69379
2.0228062 2.3655293 3.6850002
2.0702913 2.3702259 3.6721041
2.1119351 2.3586094 3.6840868
2.3729041 2.3685744 3.6842349
0.0050628488 2.4054101 3.6840086
-0.67295665 -0.47871569 3.7284245
-0.68816245 -0.42275518 3.7150831
0.38803956 -0.41017985 3.7114067
0.42305171 -0.4095431 3.7031198
-0.68657285 -0.37787431 3.7195473
0.38966024 -0.3760626 3.7293873
0.4242321 -0.37496629 3.7159233
0.45614269 -0.36240515 3.7074013
-0.68674791 -0.32396153 3.7238469
0.38117978 -0.32275155 3.7379875
0.42851633 -0.31921697 3.7231154
0.46046275 -0.32408103 3.7057965
-0.68722069 -0.26655722 3.7293789
0.3451429 -0.25986043 3.7415042
0.38102102 -0.26884937 3.7391443
0.42292738 -0.27169767 3.7261105
0.45848033 -0.27586603 3.7068748
-0.68654293 -0.2282697 3.7341137
0.34544775 -0.23317425 3.7459531
0.38035107 -0.22363357 3.7344639
0.43480119 -0.2295666 3.7176936
0.46657488 -0.23095685 3.7015986
-0.68226647 -0.17689399 3.729296
0.17430095 -0.16078338 3.7412438
0.21801069 -0.16006023 3.7229414
0.34549668 -0.16143447 3.7488968
0.38049492 -0.1789595 3.73754
0.4303661 -0.17607239 3.7200801
0.46235666 -0.18219025 3.705601
-0.68672132 -0.14355893 3.7210529
0.040279601 -0.14288571 3.7434123
0.066642642 -0.14204298 3.7210867
0.38304523 -0.12760338 3.7417374
0.43260232 -0.12479834 3.7214117
0.46635363 -0.12428001 3.7031219
0.075585961 -0.088823162 3.724668
0.12826186 -0.052993137 3.7045176
0.38315371 -0.073866345 3.7436571
0.43247545 -0.071255773 3.7210932
0.46654913 -0.071011566 3.7055562
0.38427526 -0.025018116 3.7418494
0.43229142 -0.026676172 3.7199345
0.4663305 -0.02657767 3.7041848
0.38055846 0.017966205 3.7408094
0.43177733 0.017859478 3.7155027
0.46623755 0.0089387596 3.7034783
0.32723585 0.053835757 3.7481821
0.38954693 0.053781401 3.740226
0.4227761 0.053457126 3.7149773
0.46767083 0.053505015 3.7145979
-0.70059633 0.14474632 3.7458446
-0.68101335 0.14442584 3.7397974
-0.67978251 0.17115992 3.7322307
0.23783404 0.33202228 3.7467186
0.27341059 0.33166122 3.7410243
0.32617423 0.33064714 3.7267525
0.36932504 0.32928348 3.7086477
0.23801748 0.35921583 3.7479808
0.27366668 0.37682512 3.7415957
0.32601249 0.375137 3.7220812
0.36987606 0.37434527 3.7114048
0.23747182 0.42107093 3.7350831
0.27802908 0.41702119 3.7372479
0.322476 0.41803676 3.7195907
0.36999136 0.41011 3.7100978
0.33416864 0.78603303 3.7319191
0.37405163 0.7841354 3.7114398
0.41486907 0.78111708 3.703038
0.33177939 0.81197804 3.7427614
0.37109131 0.82747567 3.731081
0.419866 0.82769316 3.7088492
0.36866146 0.87387818 3.7368398
0.41916806 0.87233955 3.7165689
0.45644981 0.87674195 3.7023702
0.38047928 0.92699403 3.7365494
0.42260635 0.92704284 3.7183058
0.45759791 0.92425811 3.7042661
0.37803692 0.97389793 3.7412961
0.42337343 0.97425818 3.7173083
0.46459901 0.98064715 3.7019758
0.38072929 1.0183086 3.7420859
0.42508519 1.0239044 3.7239084
0.46412802 1.0192637 3.7038665
0.39201209 1.0883673 3.749413
0.42729354 1.0751445 3.7345686
0.46101496 1.0772376 3.7053235
0.39226264 1.1167612 3.7462854
0.42825624 1.1236607 3.7338457
0.4778676 1.1263771 3.7127986
0.50878775 1.136797 3.705811
0.39400363 1.1866089 3.7493837
0.42895052 1.1716033 3.7302949
0.47548398 1.1735426 3.7137268
0.50034857 1.1659696 3.7061381
0.43309236 1.2205721 3.736259
0.4736619 1.2224983 3.7190051
0.50159675 1.2241124 3.7032037
0.4324449 1.2710972 3.7406809
0.47403109 1.2754663 3.72048
0.50343406 1.2747875 3.7060604
0.42917731 1.324877 3.7410367
0.46709886 1.3223426 3.7235003
0.51512873 1.327323 3.7117658
0.43518794 1.3757628 3.740582
0.4708252 1.3706123 3.7233961
0.52008307 1.376352 3.7066581
0.43694726 1.4283427 3.743494
0.47336563 1.4249014 3.7312622
0.51562738 1.4332581 3.7132568
0.43900016 1.4916821 3.7457561
0.4794794 1.4809498 3.7362342
0.51992261 1.4755706 3.7107525
-0.71486896 1.534344 3.717083
-0.69861543 1.5402617 3.7339709
0.43361852 1.5263904 3.7453079
0.4765141 1.5193058 3.732753
0.52468032 1.5287238 3.7081823
-0.72430837 1.5725237 3.7155108
-0.6994428 1.5611255 3.7327957
0.42175519 1.5544056 3.7457695
0.47823095 1.5721326 3.7324286
0.52443391 1.5781422 3.717005
0.5579024 1.5717068 3.7066298
-0.72196847 1.6356366 3.7279449
0.48070848 1.6231258 3.738879
0.52341205 1.6289746 3.7191839
0.56287426 1.6272542 3.7028265
-0.73254424 1.6763139 3.7196379
0.47633043 1.6760448 3.740483
0.51992601 1.6791741 3.7270076
0.55615056 1.6733519 3.7101471
-0.72661352 1.7232442 3.7270308
0.4793697 1.7306652 3.7355537
0.51824158 1.7262999 3.7206089
0.55654073 1.7125781 3.7003751
-0.73231941 1.7658659 3.7465167
0.44745839 1.7610486 3.7442222
0.47412992 1.7625755 3.7213163
0.52222729 1.7729926 3.7151101
0.5655635 1.7653732 3.7022715
-0.1952081 2.3437378 3.7071919
1.3788617 2.331763 3.7127492
1.4129426 2.3260765 3.7161188
1.5025302 2.3415377 3.7399502
-0.4181799 2.3790021 3.7072384
-0.38367826 2.3821874 3.7317886
-0.16689983 2.3886371 3.7374897
-0.13572358 2.39431 3.7059386
-0.079662442 2.3899629 3.7252057
-0.025207954 2.3952734 3.7299533
0.025259286 2.3913019 3.7196152
0.07232254 2.3866491 3.7229278
0.12211017 2.3890805 3.7229588
0.17664993 2.3822291 3.7271247
0.2223085 2.3894594 3.7262058
0.27776778 2.3839164 3.7250652
0.32771456 2.3800895 3.7159326
0.38228154 2.3781555 3.7228439
0.42929491 2.3789668 3.7167132
0.47514954 2.3791919 3.7274914
0.52015334 2.3858728 3.7363179
0.56957823 2.3853326 3.7334394
0.61828953 2.3918326 3.7484848
0.68773234 2.3846893 3.7276776
0.72437048 2.3754604 3.7217662
0.7663973 2.3796043 3.7219718
0.8279475 2.3829949 3.7287393
0.8770873 2.3805389 3.7334523
0.92871344 2.3762631 3.7276876
0.99581349 2.3740172 3.7437088
1.4751334 2.3577943 3.7173924
1.5338763 2.3605707 3.7315204
1.5601367 2.3595238 3.7290421
1.6303774 2.3709321 3.7336719
1.6824489 2.3722951 3.7339869
1.7138368 2.3714113 3.7207263
1.7785511 2.3651586 3.73525
1.8278377 2.3733363 3.7310719
1.8722615 2.3640838 3.7215891
1.9207687 2.3600156 3.7196126
1.9605566 2.3579469 3.7252107
2.0392635 2.3628569 3.7266524
2.0832131 2.3640718 3.7270877
2.3592536 2.3548672 3.7222731
-0.3377355 2.4004316 3.7055247
-0.11594275 2.4012341 3.7171807
-0.6539374 -0.4572514 3.7803814
-0.6602602 -0.42367554 3.7764637
0.23063228 -0.41578066 3.770803
0.26595569 -0.41454214 3.7580361
-0.66470158 -0.37780753 3.7678244
0.23134774 -0.38083544 3.7854226
0.26676551 -0.37960628 3.7717483
-0.66866976 -0.32747522 3.766875
0.2313316 -0.32641944 3.7884791
0.2631081 -0.33099049 3.7872868
-0.66578096 -0.26898181 3.7799678
0.24076799 -0.29058248 3.7957888
0.25892794 -0.29057592 3.7949357
-0.66585398 -0.22343266 3.782315
0.34595841 -0.21555184 3.7521787
-0.67153716 -0.16438909 3.7899909
0.086087316 -0.16290319 3.7925544
0.13939765 -0.16174656 3.7646079
0.20195292 -0.16144592 3.7558105
0.33987415 -0.17957234 3.7526362
0.077041164 -0.10860135 3.7944291
0.22139736 -0.10834765 3.7820001
0.33722737 -0.12579352 3.7581434
0.36362728 -0.10765857 3.7509432
0.04045023 -0.071722016 3.7605486
0.0811923 -0.072071441 3.7775412
0.17511946 -0.062784493 3.7603016
0.20317516 -0.0902128 3.7800605
0.32866585 -0.071959324 3.7644451
0.36348408 -0.053779103 3.750186
0.094457276 -0.035905033 3.7673993
0.12174863 -0.035995074 3.7763898
0.32832259 -0.026925236 3.7610016
0.36347088 -0.035831999 3.7501774
0.29240832 0.018058242 3.7635238
0.3280395 0.018020613 3.7577379
0.32754958 0.053886879 3.7517109
0.36369485 0.053927753 3.7522907
-0.70161313 0.12684782 3.7517238
-0.67422599 0.13343756 3.7709363
-0.66625839 0.16327195 3.7599819
0.2298497 0.38754171 3.7600181
0.2208346 0.41454628 3.758229
0.16052473 0.72442883 3.7963245
0.22396314 0.77705288 3.7752705
0.27763 0.78271937 3.7549641
0.22732121 0.82429266 3.7865033
0.27852052 0.82178289 3.7618265
0.32126272 0.8343069 3.7594831
0.2348422 0.87478018 3.7889996
0.28255895 0.87576002 3.7733676
0.32491693 0.87858725 3.7598565
0.2315367 0.92340153 3.7923927
0.2784071 0.92257512 3.777077
0.32580909 0.92688084 3.7627981
0.35267311 0.92512548 3.7540712
0.2448262 0.9699136 3.7854624
0.27616316 0.97536892 3.7783775
0.32035384 0.97950548 3.7721159
0.3537071 0.97377998 3.7572796
0.24633612 1.0409423 3.7972534
0.27399254 1.030826 3.7946177
0.31881025 1.0257212 3.7733696
0.35438436 1.0216732 3.7562718
0.24668023 1.0703275 3.7973287
0.27759418 1.0668114 3.7949982
0.31997138 1.0758395 3.7783971
0.37185466 1.0693781 3.7609737
0.24701998 1.1370419 3.7897713
0.27804103 1.1306518 3.7889805
0.32090679 1.1254815 3.7803087
0.37127995 1.1258453 3.7585073
0.24760357 1.1584146 3.7949007
0.27769905 1.1742258 3.7930539
0.32198775 1.1759356 3.7833476
0.37081307 1.1701449 3.7616191
0.28006378 1.2265018 3.7980945
0.32678014 1.2247033 3.7857819
0.37952858 1.2270979 3.7603869
0.32614246 1.2740726 3.7843595
0.37632087 1.2780228 3.7682133
0.42154264 1.2692956 3.7561467
0.28759772 1.3105669 3.7968493
0.32475117 1.3209766 3.7855823
0.38231304 1.3256989 3.763422
0.41587001 1.308341 3.7527699
0.26977614 1.381858 3.7962871
0.33741659 1.3761003 3.7880168
0.37846965 1.3751917 3.7643049
0.41767201 1.3703408 3.7551739
0.28934851 1.4039261 3.7990341
0.33003291 1.4243327 3.7863777
0.37294841 1.4257044 3.7688217
0.40953308 1.4216202 3.7553158
0.33787954 1.4752361 3.7914431
0.37475485 1.4705713 3.7769876
0.4155727 1.4758524 3.7605748
0.45845008 1.474636 3.7540689
0.34888345 1.5197523 3.7965117
0.37593588 1.5228109 3.7757645
0.40981612 1.5253967 3.7621963
-0.70647889 1.5960606 3.7646039
-0.68819547 1.5789894 3.7780299
0.34998235 1.5916651 3.7892561
0.37811285 1.5794467 3.783766
0.4236398 1.5803881 3.7569077
-0.70814002 1.6287429 3.7646365
-0.69200099 1.6167915 3.7902091
0.37002882 1.6244057 3.7886226
0.42787755 1.6231592 3.7622967
-0.71571732 1.6851218 3.7927361
0.37332991 1.6740814 3.7834599
0.42471981 1.6770124 3.7658572
0.46501777 1.6587831 3.7601433
-0.71461928 1.7214959 3.7743533
0.33410192 1.70437 3.7985928
0.36989883 1.7285811 3.786608
0.42821094 1.7225518 3.7585402
0.46687472 1.7231991 3.7567043
-0.71537596 1.7800912 3.7798679
0.32574767 1.7697508 3.7958972
0.37775397 1.775232 3.7849109
0.41963387 1.7654728 3.7559927
-0.71924579 1.8305017 3.7655158
0.48884991 1.80064 3.7532864
-0.71174967 1.8750143 3.7778728
1.5130044 2.3366108 3.7765834
1.5627718 2.3475945 3.7804511
2.1058867 2.3445964 3.770417
-0.36341792 2.3862062 3.7862136
-0.34331274 2.3990593 3.78685
-0.16831471 2.3880749 3.7784438
-0.12719375 2.3928957 3.7662916
-0.07638441 2.3835318 3.7735016
-0.025449026 2.3879914 3.7811065
0.025501646 2.3877621 3.7702374
0.076611564 2.3895035 3.7829816
0.12733972 2.3831155 3.7718079
0.17778766 2.377511 3.7613926
0.22927512 2.3847601 3.7707512
0.27459511 2.3765845 3.7808449
0.32127881 2.3869543 3.7691345
0.35860136 2.3796556 3.7691143
0.42449585 2.3835051 3.7770891
0.47738394 2.3820772 3.7913361
0.52713668 2.3750727 3.7750177
0.56898248 2.3787613 3.7763238
0.62730485 2.3914042 3.7788842
0.67030263 2.3935938 3.7731752
0.73088437 2.3783131 3.7759058
0.78136474 2.3771961 3.7735777
0.82152379 2.3771987 3.781625
0.87453514 2.3757482 3.7811065
0.91603673 2.3812032 3.7714269
0.97799367 2.3704844 3.7637875
1.5850558 2.359673 3.7702408
1.6756248 2.3592029 3.7797155
1.724261 2.361583 3.7697804
1.7714471 2.3627906 3.7852068
1.8271275 2.364774 3.7672501
1.8617179 2.359448 3.7961016
1.9208786 2.3651021 3.782773
1.9660612 2.3565233 3.7830136
2.0263071 2.3744774 3.7737076
2.0699041 2.3635154 3.7690954
2.1296909 2.3686252 3.7514477
2.1594889 2.3548629 3.7659242
2.3310463 2.3717418 3.772979
-0.64484727 -0.46387452 3.8372102
-0.64238697 -0.42513809 3.8253539
-0.65697795 -0.38586625 3.8033044
-0.64276129 -0.369876 3.8313446
-0.65834105 -0.33141181 3.8145664
-0.64339542 -0.32396886 3.837862
-0.65654111 -0.28460246 3.806561
-0.64286178 -0.27740291 3.8370218
-0.65597939 -0.2109524 3.8063982
-0.64349753 -0.22215544 3.8431735
-0.65583456 -0.1833853 3.8064837
0.059709061 -0.16507207 3.8433876
0.022898093 -0.11855988 3.8240747
0.077371582 -0.12725291 3.8103497
0.019225661 -0.083786346 3.8205791
0.18678115 -0.054592844 3.8149676
0.21179201 -0.073061489 3.8268635
0.12395798 -0.018302599 3.8456833
0.16919641 -0.027370118 3.829942
0.2059793 -0.027397618 3.8328283
0.13302928 0.01838466 3.8423729
0.16926116 0.018334763 3.8314006
0.20648396 0.0092208926 3.8422523
0.1512707 0.055028483 3.8392606
-0.65999693 0.13854885 3.8317003
-0.6581924 0.16580555 3.8204916
0.077941023 0.47658455 3.8216989
0.041359354 0.51376837 3.8228829
0.06894847 0.52348256 3.8257098
0.041609492 0.57224715 3.8408499
0.06920559 0.57153851 3.8355951
0.041636702 0.6095773 3.8396571
0.066391163 0.61688131 3.845906
0.16087766 0.72595239 3.804287
0.16835958 0.77699059 3.8114891
0.13434985 0.82426918 3.822396
0.17118682 0.82337898 3.817302
0.20761949 0.8487277 3.8013105
0.13056616 0.88100058 3.8401239
0.17175299 0.87259346 3.8233652
0.20797363 0.87790096 3.8035996
0.12950008 0.92949671 3.8474319
0.17475747 0.92485911 3.8232083
0.208408 0.92606676 3.8041983
0.098446637 0.99318886 3.8427229
0.12822661 0.96921718 3.840023
0.17027162 0.97245288 3.826684
0.21837041 0.97552526 3.8085361
0.17933093 1.0228195 3.8291728
0.22581427 1.0218871 3.8087585
0.086256184 1.0719128 3.8428309
0.17355238 1.0693159 3.8316219
0.21968959 1.0749009 3.8146977
0.26569784 1.0812818 3.8005304
0.18552591 1.1261333 3.8356731
0.22706641 1.121189 3.8121595
0.27237535 1.1080416 3.8019047
0.13738066 1.1838315 3.8490248
0.17241128 1.1735418 3.8390517
0.22647646 1.1764261 3.8155549
0.17904519 1.2198408 3.8402894
0.2306211 1.2235951 3.8121555
0.26767993 1.2208637 3.8019145
0.30562332 1.2411877 3.8006852
0.042775076 1.2526968 3.8441858
0.18705341 1.2721258 3.8382766
0.22777894 1.2739669 3.817775
0.27241531 1.2743475 3.8047569
0.023764925 1.3458385 3.8173282
0.1886075 1.3184158 3.8338349
0.22492257 1.324661 3.8227897
0.26409778 1.326444 3.8059046
0.30756897 1.343732 3.8028998
0.13865288 1.3764409 3.8435888
0.1797363 1.3718977 3.846257
0.22223584 1.3771461 3.8311477
0.27043921 1.3739498 3.8086197
0.30840468 1.3758616 3.8062346
0.22490552 1.4258674 3.8331323
0.27146643 1.4254822 3.8112307
0.30900145 1.4260803 3.801507
0.19749838 1.4737117 3.8492332
0.22724938 1.4726851 3.828814
0.2698876 1.4735056 3.8111501
0.31028953 1.4797606 3.8047729
0.19795616 1.5254167 3.8451188
0.22445855 1.525754 3.8341775
0.27364221 1.5264713 3.8176308
0.32113603 1.5241584 3.8092592
-0.67600536 1.5956566 3.8203816
0.23687547 1.575757 3.8350534
0.27450362 1.5698539 3.8189018
0.32431561 1.5743805 3.8114581
0.3502667 1.5641707 3.8006973
-0.68208307 1.6296382 3.8488836
0.23136766 1.6177588 3.8405781
0.27559581 1.6245359 3.8200712
0.32150033 1.6258156 3.8103523
-0.69863331 1.6713758 3.8145142
0.23101053 1.680301 3.839581
0.27684277 1.6804866 3.8227072
0.32421917 1.6743097 3.805994
-0.70161033 1.7373898 3.811949
-0.6900118 1.7182837 3.8295124
0.22423396 1.7350117 3.8427703
0.27767804 1.7245654 3.822053
0.32243869 1.7239404 3.8099136
-0.6855396 1.7661858 3.8278995
0.17138937 1.7626204 3.8363118
0.22370608 1.7660372 3.8222852
0.27794313 1.7651509 3.8129027
0.3259725 1.7514921 3.8048978
-0.70534968 1.8255974 3.8056676
-0.68887019 1.82434 3.8297384
-0.69036496 1.8780115 3.8206477
-0.71261507 1.9341381 3.8126731
-0.69384611 1.9274025 3.8254495
-0.71372974 1.9571368 3.8111734
-0.68806213 1.9744644 3.8372109
-0.70008367 2.0354297 3.8253825
-0.68685275 2.0226405 3.8336115
-0.70515954 2.0704892 3.8450887
-0.16929276 2.3818758 3.8109412
-0.12813321 2.3799546 3.8090839
-0.087778986 2.3979421 3.8387604
-0.025596261 2.3819525 3.813858
0.02582573 2.3902941 3.8271987
0.077162124 2.3858628 3.8195996
0.12871636 2.3882313 3.822325
0.16922347 2.3791666 3.8066325
0.22120902 2.3871312 3.8173709
0.32847607 2.3871329 3.8258674
0.38080683 2.3821766 3.8256633
0.42467046 2.3798029 3.8211915
0.46974397 2.3748655 3.8235664
0.52319026 2.3830855 3.8316662
0.57575166 2.386394 3.8313365
0.62692893 2.3734133 3.8258579
0.68084067 2.3807349 3.8308954
0.71327752 2.3954 3.8283772
0.77615333 2.3758895 3.8311234
0.82681394 2.3717532 3.8160949
0.87901437 2.3722987 3.80797
0.97583854 2.3592415 3.8129249
1.0085983 2.3626618 3.8121486
1.6035752 2.3548453 3.8304226
1.6704997 2.3578923 3.8130655
1.736855 2.3529344 3.8315272
1.7693561 2.3527348 3.8191106
1.833819 2.3656921 3.8191414
1.891462 2.369365 3.8031878
1.934118 2.3593693 3.8201451
2.0213213 2.3619561 3.8433423
2.0724707 2.3695378 3.8359995
2.2028704 2.3552976 3.8033683
-0.056893419 2.4028912 3.8471382
0.19179243 2.4050493 3.8473043
-0.62068307 -0.47597802 3.8623836
-0.61977077 -0.42867088 3.8603039
-0.62104642 -0.37353411 3.8721008
-0.62172425 -0.32719028 3.8791537
-0.62282991 -0.27633399 3.8767464
-0.63117892 -0.22636676 3.8639069
0.023347879 -0.16745931 3.8992221
0.032433681 -0.12940805 3.8747456
0.060078241 -0.11994952 3.8682175
0.023256019 -0.055615176 3.8891563
0.072304524 -0.061416328 3.8651736
0.22762159 -0.074244924 3.8888764
0.026983803 -0.025933346 3.8911624
0.074898764 -0.025831902 3.8738415
-0.013845835 0.018605137 3.8927696
0.02326161 0.018590497 3.889843
0.078476645 0.018504644 3.8672366
0.11496941 0.018435789 3.8520615
0.078535363 0.055428382 3.8686841
0.04193313 0.63252211 3.8650277
0.042030655 0.65264165 3.8719854
0.060614455 0.65198892 3.8679509
0.11722825 0.91857326 3.8562529
0.11750405 0.99590564 3.8528833
-0.033183608 1.0265203 3.8955667
0.099057794 1.0370721 3.8599362
0.12716928 1.02626 3.8558428
0.15527581 1.0347953 3.8502154
0.099201381 1.0858084 3.8568206
0.12755965 1.0767051 3.8592293
0.15579104 1.0948675 3.8524861
0.089972645 1.1261606 3.8585656
0.12778449 1.1259313 3.8570776
0.15604433 1.1250148 3.8532438
0.087135397 1.1745456 3.86358
0.12328945 1.1707557 3.8559377
0.071724296 1.2230484 3.8784778
0.11901563 1.2278019 3.8605382
0.15681949 1.2351298 3.8507643
0.071896806 1.273761 3.8769813
0.11936038 1.2696265 3.8635395
0.16203864 1.2768598 3.8533552
-0.65601206 1.3415718 3.8869429
-0.091491327 1.3496137 3.8866518
0.072031923 1.3241662 3.8733292
0.11993698 1.3236984 3.8711939
0.16417432 1.3321165 3.8544528
0.033796784 1.3856251 3.8708467
0.072419204 1.379647 3.8830719
0.11635415 1.3729805 3.8693817
0.024225703 1.4106199 3.8819604
0.072732896 1.4245689 3.8907726
0.12352991 1.4239308 3.8758047
0.17570899 1.4270176 3.8592477
0.07618925 1.4642826 3.892786
0.11875772 1.4754828 3.8769705
0.16899437 1.4771657 3.8591938
0.083054751 1.5232085 3.8970413
0.12158809 1.5267771 3.8779685
0.17128876 1.5248163 3.8553452
0.083310239 1.5768669 3.895577
0.12481326 1.5755233 3.8799188
0.17705683 1.5799452 3.8588481
0.21837205 1.5817389 3.8504424
-0.66424906 1.6242189 3.8646741
-0.64576131 1.6272376 3.874197
0.083562858 1.6209748 3.8961859
0.12252209 1.6264771 3.8822377
0.18061817 1.6303948 3.8638289
0.21925269 1.6368408 3.8517671
-0.67854321 1.6756684 3.8637288
0.12027756 1.6793185 3.8875673
0.17156065 1.6760674 3.8677132
0.20683755 1.6675406 3.855315
-0.66532284 1.7234585 3.874588
0.12348577 1.7284847 3.8866003
0.17393133 1.7252486 3.8628414
0.2009317 1.7149864 3.8539481
-0.66346616 1.7665088 3.8822622
0.044694215 1.7654238 3.8945653
0.077577062 1.7683616 3.8840215
0.1233542 1.7660483 3.869786
0.16256362 1.7532803 3.8655455
-0.66997027 1.8205426 3.8738375
-0.66746712 1.8726115 3.8734984
-0.66884422 1.9217145 3.8653207
-0.66901404 1.9757161 3.8701313
-0.6670711 2.027328 3.884762
-0.6811856 2.0904295 3.8861909
-0.67430532 2.1214097 3.8985784
0.890701 2.3405485 3.8883805
0.93186837 2.3380666 3.8766918
0.9980942 2.3452556 3.8765013
-0.17501999 2.3859093 3.8747208
-0.12928852 2.3806536 3.8530836
-0.083183646 2.3891091 3.8785892
-0.015571042 2.3971722 3.8814635
0.025954664 2.3852491 3.8620899
0.081431337 2.3821919 3.8710787
0.11966404 2.3823054 3.8777485
0.16760243 2.3855207 3.8772461
0.2268703 2.3827493 3.8675909
0.27606997 2.3855405 3.8769782
0.32521698 2.386025 3.8822405
0.36992556 2.3760424 3.8774009
0.43693745 2.3747816 3.8847325
0.47139648 2.3729699 3.8787251
0.52824825 2.3854449 3.878968
0.57389671 2.3712947 3.8772881
0.62001967 2.3554134 3.8631854
0.675466 2.3670156 3.8755262
0.73293811 2.3863225 3.8699863
0.76448101 2.3835242 3.8906651
0.84025651 2.3892157 3.8882642
0.88487297 2.3788588 3.8783929
0.92307782 2.3741782 3.8712177
0.99423432 2.3572412 3.8516467
1.0188458 2.3549466 3.8659215
1.6435492 2.3596294 3.8770821
1.6906627 2.3644519 3.8699093
1.7208835 2.3539643 3.8917379
1.8331828 2.371309 3.8836594
1.8795249 2.3626785 3.8760126
1.9271187 2.3675959 3.8756607
1.9995503 2.3757722 3.8802369
2.0247357 2.3566132 3.8872192
2.0749364 2.3627055 3.8778033
2.1450644 2.3656769 3.8521433
-0.03646253 2.4005642 3.8868494
-0.10823834 -0.38611937 3.9358864
-0.61549324 -0.30065084 3.9011703
-0.032759681 -0.15008752 3.9321444
0.0047887913 -0.16934118 3.9430823
-0.021414589 -0.12701824 3.9154773
0.0047388254 -0.13963997 3.9025934
-0.013901181 -0.074544139 3.9079492
-0.013879744 -0.02787526 3.902308
0.0047341809 -0.037163332 3.9001365
-0.12021965 1.0394893 3.9436405
-0.09109766 1.03668 3.9335091
-0.12033871 1.0597142 3.9438319
-0.066513494 1.0736821 3.9322612
-0.033591289 1.0872331 3.9346406
-0.072248034 1.1216617 3.9365184
-0.033644754 1.1178542 3.9354279
-0.072462201 1.1745043 3.9393005
-0.11180805 1.2455219 3.9491735
-0.079078957 1.2213465 3.9385576
-0.11189447 1.2659593 3.9480147
-0.082333207 1.2797022 3.9266734
-0.64057118 1.3304311 3.9182231
-0.1119903 1.3255169 3.9382927
-0.092077583 1.3388604 3.9161363
-0.6379047 1.3743913 3.9232919
-0.11237776 1.3692199 3.942765
-0.092357688 1.3818535 3.9187825
0.037329331 1.4322807 3.9025333
0.034268569 1.475419 3.9133034
0.063475691 1.4828445 3.9043512
0.024532845 1.518267 3.9126768
0.063664444 1.5264317 3.9055483
-0.014676617 1.5834732 3.9124708
0.024672097 1.5758699 3.920706
0.063871518 1.5804956 3.9047813
-0.014712188 1.6168207 3.9133918
0.024753595 1.6300827 3.9186268
0.064114466 1.6259587 3.9084086
-0.653193 1.6858742 3.9067488
-0.63804984 1.6684842 3.9478621
-0.019827794 1.6768538 3.9370844
0.024841025 1.6764779 3.9230635
0.074184947 1.6704859 3.9086149
-0.6566925 1.745034 3.9120448
-0.63681865 1.7254598 3.9218354
-0.02487723 1.7267337 3.9351137
0.02774773 1.7247809 3.9196029
0.07441406 1.7252225 3.9055283
-0.6593712 1.7924348 3.9149895
-0.64081424 1.7666014 3.9368353
-0.024863303 1.7667428 3.9227858
0.015011879 1.7662255 3.9216805
-0.65817809 1.809297 3.901264
-0.64406675 1.8262876 3.9402487
-0.66197848 1.8804084 3.9031377
-0.64442658 1.8780521 3.9252839
-0.64503598 1.9306446 3.9111464
-0.64740729 1.9683366 3.9144344
-0.65197366 2.0130403 3.9306531
-0.64983875 2.0269248 3.910064
-0.66483295 2.0828123 3.921124
-0.65872091 2.1273236 3.9351778
0.74814224 2.3350363 3.9477684
0.76666147 2.3479989 3.9212794
0.81015599 2.3302958 3.9302304
0.87189871 2.3466744 3.9022107
1.0263369 2.3403611 3.9091806
1.0528963 2.341464 3.9294696
1.6648548 2.3459392 3.948554
2.0377684 2.3491774 3.9234455
-0.16290277 2.3871598 3.9284356
-0.12064152 2.387603 3.9229133
-0.064646505 2.386358 3.9218953
-0.029624984 2.3819914 3.9149868
0.022083465 2.3840618 3.9213886
0.075232275 2.37833 3.9232414
0.19440702 2.3852279 3.9241896
0.22272444 2.3847272 3.9296188
0.27900609 2.379626 3.9332228
0.33144751 2.3781998 3.9278088
0.37377751 2.3691678 3.9322495
0.415479 2.377286 3.9203062
0.48931289 2.3784654 3.9157972
0.52061272 2.3773122 3.9108095
0.64216614 2.3779881 3.9435239
0.73700547 2.3863411 3.9222
0.78576076 2.3789916 3.9253707
0.8180353 2.380161 3.9223933
0.86541581 2.3790922 3.9127593
1.7078902 2.3664207 3.9201095
1.7860793 2.3600097 3.9333014
1.8037446 2.3762457 3.9043345
1.8592544 2.3682075 3.9218934
1.9229993 2.3555779 3.9271674
1.979351 2.3693805 3.9319577
2.0663712 2.356061 3.9252412
2.1098752 2.3540988 3.9021161
2.1960788 2.3739572 3.9037838
-0.20566003 -0.40185186 3.9956021
-0.17297006 -0.40634549 3.9777849
-0.13791144 -0.41867283 3.974196
-0.20578843 -0.3829532 3.99931
-0.17640787 -0.37195694 3.9855189
-0.13739741 -0.37920645 3.9617558
-0.17620949 -0.32391033 3.9837132
-0.13752124 -0.32257661 3.9685297
-0.16693772 -0.28626427 3.9925113
-0.14704391 -0.28470507 3.9712448
-0.014087847 -0.17000702 3.9585717
-0.58901763 0.99341965 3.9725943
-0.60042959 1.0351911 3.9757085
-0.58975989 1.023967 3.9725673
-0.26829225 1.0345991 3.9977801
-0.24786857 1.0308323 3.9840682
-0.1698503 1.0488575 3.9779966
-0.14969914 1.0437635 3.9591992
-0.60128349 1.0660069 3.9761081
-0.58257043 1.0577527 3.985615
-0.21746902 1.0771075 3.9905953
-0.17647274 1.0755415 3.976079
-0.13050722 1.0770702 3.9578388
-0.091667891 1.0818015 3.9511497
-0.60426903 1.1007812 3.9904268
-0.21688817 1.1225219 3.9963834
-0.17024486 1.1192631 3.9740639
-0.12109318 1.124591 3.957937
-0.091948316 1.1432359 3.9522004
-0.60745895 1.1856353 3.9961114
-0.21088517 1.17765 3.9963856
-0.17099933 1.1731303 3.9822981
-0.12146212 1.1765678 3.960228
-0.60769475 1.2256559 3.9894869
-0.21134008 1.2195251 3.9970465
-0.17141409 1.2249168 3.9817727
-0.12374617 1.2246706 3.9619312
-0.61066437 1.2912182 3.9961572
-0.16925296 1.2731464 3.9877734
-0.12541519 1.2843295 3.9614973
-0.61653954 1.3304994 3.9721928
-0.21237507 1.3045608 3.9996667
-0.17483813 1.3229111 3.9841609
-0.12558602 1.3187004 3.9595022
-0.61724395 1.3773302 3.9755771
-0.21333645 1.3898877 3.9994969
-0.17280726 1.3731233 3.9832814
-0.12460546 1.3746122 3.9579041
-0.63105112 1.4115893 3.9694638
-0.17093661 1.425137 3.9862833
-0.12331536 1.4314902 3.9677093
-0.2144738 1.4971033 3.9960332
-0.16904026 1.4724145 3.9898148
-0.12382553 1.4771516 3.9743359
-0.13444056 1.5148026 3.9872878
-0.6330387 1.6920476 3.9778056
-0.63230163 1.7228718 3.9875534
-0.62065256 1.7658806 3.9771082
-0.62109387 1.8248085 3.9741433
-0.63092923 1.878026 3.9774559
-0.65060765 1.9268206 3.9522164
-0.63301766 1.925415 3.9764333
-0.63562858 1.9747087 3.9781568
-0.63810718 2.0239458 3.9784861
-0.65869707 2.0753109 3.955426
-0.63050354 2.074676 3.9817677
-0.63624758 2.1274955 3.9780972
-0.64564973 2.1633804 3.9809184
-0.16510406 2.3874793 3.9960189
-0.12627637 2.3873804 3.9788952
-0.072499752 2.386668 3.98172
-0.022946201 2.3842487 3.9781561
0.031908639 2.3836524 3.9808187
0.079800546 2.3820562 3.9888971
0.12196539 2.3854883 3.9713612
0.17080432 2.3845344 3.9728882
0.22841722 2.3797803 3.980783
0.27044445 2.3756609 3.9718981
0.3281683 2.3705277 3.9781241
0.4070107 2.3682785 3.9507403
0.46123141 2.3753588 3.9581623
0.61695153 2.3757305 3.9732807
0.67741114 2.368602 3.9689958
0.7124458 2.3895054 3.9769588
0.75078416 2.3645933 3.9521091
1.7569101 2.3583097 3.9946787
1.8190844 2.366188 3.987824
1.8760746 2.3670814 3.9683013
1.9183776 2.3549728 3.9837272
1.963617 2.368619 3.9933946
2.1500568 2.3758576 3.9878113
-0.26514784 -0.40501282 4.0248375
-0.234925 -0.40279201 4.0039186
-0.26517335 -0.37612635 4.0270295
-0.22945443 -0.3725231 4.0105734
-0.30511865 -0.30998239 4.0470276
-0.27463046 -0.32765535 4.0263467
-0.22517027 -0.32581225 4.0056834
-0.27470067 -0.28917283 4.0293241
-0.22540016 -0.28777653 4.0117712
-0.18684207 -0.28751954 4.0094743
-0.3825731 0.17444079 4.047101
-0.57219392 1.0168544 4.0137863
-0.5481301 1.0076802 4.0343533
-0.37032449 1.037303 4.0427971
-0.3180643 1.0377779 4.0076485
-0.28819728 1.035991 4.0022454
-0.57579213 1.0760486 4.0298576
-0.35115123 1.0785884 4.0437002
-0.32061222 1.0756879 4.0344281
-0.2797263 1.0702837 4.0161123
-0.24470419 1.0722768 4.0058513
-0.60877049 1.1287847 4.0164118
-0.58006448 1.120857 4.0283012
-0.32185596 1.119482 4.0428281
-0.27664724 1.1267077 4.0229168
-0.24019188 1.1279728 4.0026703
-0.58118373 1.1727051 4.0264316
-0.31282997 1.1723579 4.0453758
-0.27189633 1.1769181 4.0270009
-0.23112944 1.1709747 4.0083623
-0.58378023 1.2278626 4.034389
-0.32049882 1.2227052 4.048974
-0.26972067 1.2237231 4.0281672
-0.22683959 1.2285036 4.0086298
-0.61164761 1.2733999 4.0069613
-0.59223431 1.2644877 4.0143967
-0.31464785 1.279092 4.0483685
-0.27579018 1.2749645 4.0287843
-0.2222641 1.2748939 4.005723
-0.5874337 1.3254254 4.0251398
-0.32164451 1.3270912 4.041955
-0.27383041 1.3247169 4.0261698
-0.22610764 1.320978 4.0060215
-0.59080362 1.372882 4.0290675
-0.26832557 1.3737413 4.0338597
-0.22570936 1.3687617 4.0125294
-0.61601269 1.4227648 4.0030599
-0.59806418 1.4177026 4.0216222
-0.27274963 1.4295306 4.038115
-0.22430113 1.426178 4.0102053
-0.27677813 1.4799361 4.0359597
-0.22487721 1.4698511 4.0106211
-0.1879674 1.4913021 4.000926
-0.2352844 1.5025477 4.0097871
-0.16603445 1.5300113 4.0265274
-0.60680455 1.6934615 4.0114717
-0.60796976 1.7273781 4.0099173
-0.58865166 1.7204298 4.0228395
-0.60939056 1.7826456 4.0033722
-0.59304428 1.7848604 4.0369463
-0.61164731 1.809815 4.0116305
-0.59486103 1.8317285 4.0361099
-0.61411893 1.8687401 4.0109081
-0.61039114 1.9166474 4.0198936
-0.61183923 1.9769837 4.0206738
-0.61269164 2.0325999 4.0236416
-0.60563111 2.0756481 4.035614
-0.61315602 2.1231105 4.0208726
-0.61482102 2.1711133 4.0150113
-0.65083504 2.2019303 4.0043192
-0.6195147 2.2034843 4.0108681
0.34671715 2.3471282 4.0101609
0.36791465 2.3462691 4.0072742
-0.16606441 2.3691938 4.0335255
-0.1229777 2.3757849 4.0229163
-0.069507658 2.3766055 4.0252829
-0.026722128 2.3816919 4.0342827
0.026830047 2.3773603 4.0269303
0.08031214 2.3761146 4.0243092
0.12328883 2.3792257 4.0287719
0.17726809 2.384547 4.036272
0.23378269 2.3696685 4.0242119
0.27307296 2.3773551 4.0200939
0.31241629 2.3637047 4.0253596
1.7878453 2.3695643 4.0057621
1.8310597 2.3591022 4.0248418
1.8667606 2.3612413 4.0159621
-0.36539626 -0.37029907 4.0645728
-0.34086248 -0.36522156 4.0641322
-0.32944947 -0.32264897 4.058352
-0.32670832 -0.28278416 4.0749159
-0.26692078 -0.2717984 4.0590854
-0.46588895 0.13740993 4.0939317
-0.42509961 0.13690911 4.0818477
-0.37579024 0.12696281 4.0803556
-0.3463676 0.12692143 4.0805378
-0.46318117 0.15611766 4.0696669
-0.42467269 0.156287 4.0769033
-0.37350482 0.15532413 4.0549831
-0.55241948 1.0354787 4.0625396
-0.53572834 1.0417361 4.0888915
-0.46420535 1.0385451 4.0821152
-0.42166424 1.0321338 4.0598173
-0.37132016 1.0499799 4.0519338
-0.55966508 1.0796964 4.0716491
-0.53709102 1.0745072 4.0940313
-0.46555397 1.0716214 4.0887561
-0.42463326 1.0694354 4.0833387
-0.38429111 1.0767862 4.0583143
-0.55564344 1.131669 4.0700102
-0.5386278 1.1380174 4.0947094
-0.46742105 1.1261905 4.0960026
-0.42595884 1.1229081 4.0869808
-0.37402049 1.1273293 4.0682454
-0.55709338 1.1747682 4.0729198
-0.53955138 1.1803279 4.0939865
-0.46801701 1.1779658 4.0917025
-0.42700824 1.175916 4.0875697
-0.37191674 1.1739031 4.0682855
-0.33367264 1.1757923 4.0561638
-0.55808711 1.2271744 4.0700779
-0.4580878 1.2085426 4.0877805
-0.42735872 1.2171164 4.0829124
-0.37845477 1.2259588 4.0711489
-0.3343854 1.2382061 4.0527763
-0.56897575 1.2793608 4.0645952
-0.54201615 1.2566502 4.0983515
