ply
format ascii 1.0
comment PCL generated
element vertex 1535
property float x
property float y
property float z
element camera 0
property float view_px
property float view_py
property float view_pz
property float x_axisx
property float x_axisy
property float x_axisz
property float y_axisx
property float y_axisy
property float y_axisz
property float z_axisx
property float z_axisy
property float z_axisz
property float focal
property float scalex
property float scaley
property float centerx
property float centery
property int viewportx
property int viewporty
property float k1
property float k2
end_header
0.63423693 -0.57052976 2.5261364
0.67078847 -0.55549288 2.5096302
0.72525537 -0.55240989 2.5255895
0.76895803 -0.55220968 2.5158021
0.88857883 -0.55394638 2.5294321
0.91839182 -0.55018222 2.5359225
0.96509409 -0.55126351 2.5292959
1.0190272 -0.5526734 2.521647
1.0729103 -0.55391288 2.5121777
1.1010493 -0.5551067 2.509691
1.1777911 -0.55088735 2.5329463
1.2196295 -0.55199146 2.5245829
0.088132292 -0.54663777 2.5073299
0.10013764 -0.54585397 2.5034354
0.69394994 -0.54752535 2.5080225
0.72386968 -0.54352295 2.5458193
0.77466893 -0.54365391 2.5362833
0.87962091 -0.5499599 2.5442383
0.98806381 -0.54976106 2.5155025
1.0268577 -0.54997683 2.5056841
1.0769105 -0.54522651 2.5349474
1.1191988 -0.54474008 2.5194037
1.178701 -0.54588795 2.5300796
1.2340734 -0.54595894 2.5237043
1.2647773 -0.54410279 2.5395031
1.3002399 -0.53448319 2.5492959
2.3790302 -0.53026378 2.5067739
2.4292703 -0.52035755 2.5179625
2.4676123 -0.50753474 2.5155656
2.4901817 -0.49453646 2.5263577
2.5138083 -0.46792623 2.5248373
2.5300879 -0.42433134 2.5228062
2.533972 -0.37273598 2.52654
2.533504 -0.32309872 2.5310922
2.538259 -0.2708599 2.5170093
2.5362287 -0.22255802 2.516027
2.5354798 -0.17458588 2.5185161
2.536447 -0.12678051 2.5248897
2.5354967 -0.078769416 2.5225852
2.5355663 -0.030832419 2.5234787
2.5305328 0.024991753 2.5184078
2.5235007 0.080692567 2.5177636
2.5209355 0.13202986 2.532629
2.5215874 0.17899011 2.5272717
2.5220354 0.22234462 2.5246463
2.7283905 0.32186419 2.5129685
2.7650595 0.31834942 2.5108948
2.8128443 0.32730877 2.5168953
2.8523841 0.33210039 2.5097992
2.7344601 0.3690916 2.5442846
2.7711692 0.37459067 2.5380969
2.826087 0.37431875 2.5284555
2.8690348 0.38520724 2.5180831
2.780158 0.4190613 2.54355
2.8185947 0.43020254 2.5377736
2.8674545 0.42888811 2.5264871
2.7719889 0.47394285 2.5433664
2.8212111 0.47807512 2.5406778
2.8670645 0.47695893 2.5218759
2.7855594 0.53564918 2.5455022
2.8297882 0.53075713 2.5395343
2.8605907 0.53175682 2.5193765
2.8578897 0.56713575 2.5265045
-1.0873481 1.7404652 2.5475872
-1.085374 1.7741356 2.5217862
-1.0838803 1.8333066 2.5362115
-1.0950359 1.8620069 2.5285225
-1.1030816 1.9264861 2.5433993
-1.0970613 1.915947 2.5294623
-1.087893 1.9719614 2.5191443
-1.0962383 2.0176871 2.5177023
-1.0984459 2.0813882 2.5426443
-1.1006382 2.1166863 2.5253677
-1.0920321 2.1001372 2.5057008
1.8417058 2.4396996 2.5469441
2.4819708 2.4417577 2.5298259
2.5309544 2.4429405 2.528029
2.5669444 2.4433105 2.5344379
2.6241119 2.4389853 2.5249283
1.925149 2.4675059 2.5372088
1.9696727 2.4695847 2.5331049
2.0120664 2.4687095 2.5255046
2.0726755 2.469311 2.5294321
2.1356173 2.4715471 2.5344288
2.1841977 2.4756088 2.5228992
2.2275915 2.4742513 2.5204968
2.2673309 2.4735804 2.5255032
2.3131831 2.4725802 2.5333078
2.3664479 2.4766603 2.5180802
2.4229412 2.4678397 2.5320051
2.4574409 2.4552205 2.5088093
-0.17253976 -0.55222273 2.5895548
-0.059469156 -0.56382245 2.5867474
-0.0093497485 -0.5641017 2.5884695
0.021944879 -0.56150544 2.5764627
0.053218268 -0.56285387 2.5823967
0.12763211 -0.55416256 2.5704491
0.1661405 -0.5639953 2.5844872
0.49083763 -0.55714703 2.585824
0.52632689 -0.55836344 2.5746427
0.58151788 -0.56295931 2.5760839
0.61980569 -0.5634883 2.5766871
0.66864765 -0.56069481 2.576165
0.82464319 -0.55169338 2.5655372
0.8637166 -0.55206704 2.5585546
0.94499928 -0.55452543 2.5510302
1.0809809 -0.5517391 2.5678976
-0.1085103 -0.54584515 2.5618742
0.55037826 -0.54703701 2.5920823
0.60406697 -0.54956925 2.5964587
0.69232875 -0.54858601 2.5767295
0.72693849 -0.54179925 2.5692267
0.7643674 -0.54285479 2.5782273
0.8337099 -0.54480028 2.5957048
0.87441611 -0.5459044 2.5921566
0.92603493 -0.54455972 2.5866985
0.97294623 -0.54240507 2.579541
1.02433 -0.54299593 2.5738263
1.0762432 -0.53950286 2.5760713
1.124276 -0.53466719 2.5775764
1.1747574 -0.53507912 2.5745738
1.2259233 -0.53485221 2.5779901
1.2761972 -0.53170747 2.5815368
1.3232918 -0.53237092 2.5880811
1.3680544 -0.54280245 2.5708778
1.4421859 -0.53657711 2.5865965
2.3761737 -0.53671992 2.5627146
2.4369648 -0.52892745 2.5857255
2.4640281 -0.50919658 2.5827687
2.4857912 -0.49849868 2.5669534
2.5209329 -0.4730579 2.5774784
2.5244076 -0.42030039 2.5735996
2.5339603 -0.37249944 2.5821548
2.5322161 -0.31850117 2.5712781
2.5355299 -0.27389863 2.5714526
2.5313733 -0.2250182 2.571254
2.5332294 -0.17669682 2.5763557
2.5300384 -0.12804897 2.5755174
2.5274832 -0.079563931 2.5745203
2.5275073 -0.031176182 2.5753777
2.5235636 0.025177103 2.5713074
2.5231206 0.081542261 2.5697863
2.5188434 0.12581487 2.5713384
2.5125597 0.1779272 2.5696728
2.5108647 0.2263934 2.5721121
2.6890481 0.35146073 2.5763469
2.7216938 0.37873471 2.5729823
2.7334619 0.4181366 2.5662024
2.7623863 0.43154293 2.5568495
2.7397213 0.47414324 2.5764182
2.7520416 0.47339049 2.5564222
2.7377648 0.52911347 2.5779216
2.7669387 0.52178198 2.554347
2.7281601 0.55966169 2.5821431
2.7831411 0.56401068 2.570184
2.8249142 0.56731087 2.5605536
-1.0693172 1.6321651 2.5996115
-1.0821491 1.688092 2.5596189
-1.0847434 1.725944 2.5737965
-1.0904205 1.7768788 2.590879
-1.0866307 1.8143137 2.5705907
-1.0915716 1.8731234 2.5802066
-1.094102 1.9221807 2.5730002
-1.0935718 1.9777807 2.574981
-1.0975873 2.0409396 2.5675011
-1.1011324 2.085727 2.5809786
-1.1017962 2.1255765 2.587184
-1.0998976 2.145582 2.5658236
-1.0942159 2.1735241 2.589745
1.7342293 2.425122 2.5892043
1.776225 2.4345624 2.5786471
1.8209101 2.4394212 2.5865376
1.8664951 2.4408228 2.588506
2.0501668 2.4493194 2.5990648
2.3183596 2.4475203 2.5939138
2.4454548 2.4430296 2.5897803
2.4767206 2.4362004 2.571007
2.5271163 2.4384727 2.5705032
2.5759258 2.4382861 2.5830867
2.6123288 2.4293344 2.5726216
2.6817007 2.4440792 2.5901625
2.720299 2.4426186 2.5838525
2.7517414 2.433351 2.5934076
1.8349575 2.4542751 2.5729706
1.8900208 2.4583719 2.5591526
1.9319348 2.4560249 2.5711994
1.9766479 2.4624789 2.5810621
2.0242796 2.4611983 2.5741153
2.0784264 2.4595101 2.5750084
2.1220174 2.4638839 2.575069
2.1759255 2.4663298 2.5797422
2.2251811 2.4642138 2.5725567
2.2776215 2.462182 2.5783329
2.3339696 2.4633114 2.5792212
2.3851819 2.469928 2.5761905
2.4230325 2.4586074 2.5702245
2.4546008 2.4522741 2.5522411
2.6899343 2.4525468 2.5749469
2.7122884 2.4550929 2.5632105
-0.16175851 -0.55833614 2.6187596
-0.085872285 -0.56031144 2.6303804
0.092854053 -0.56312549 2.6434729
0.16997959 -0.56420475 2.6460283
0.24770108 -0.57883334 2.6484694
0.48664933 -0.56056166 2.6342158
0.52295965 -0.551691 2.6185246
0.58342868 -0.55424577 2.6224718
0.63220459 -0.55179793 2.6028693
0.66662478 -0.55374891 2.606679
-0.20137987 -0.54987168 2.6390657
0.53351164 -0.54302716 2.639703
0.58024013 -0.54441017 2.640028
0.62498689 -0.5438695 2.6304743
0.67923325 -0.54319853 2.6405854
0.72046024 -0.53726929 2.6191971
0.78142118 -0.53220659 2.620702
0.82347763 -0.53182495 2.6263802
0.87159878 -0.53346008 2.6213074
0.92650712 -0.52959144 2.627851
0.97682649 -0.5254131 2.6322372
1.025213 -0.52496797 2.6277225
1.0777062 -0.52430463 2.6166434
1.1336298 -0.5178647 2.6204696
1.1772461 -0.51917893 2.6222987
1.2284023 -0.5188905 2.6240196
1.2770132 -0.51263052 2.6263788
1.3244293 -0.51491308 2.6206486
1.3768475 -0.53082931 2.6121507
1.4295212 -0.53656393 2.6340244
1.4759012 -0.53247929 2.633621
1.5079509 -0.53389204 2.6288018
2.4415731 -0.53524673 2.6361108
2.4683189 -0.51132339 2.6231079
2.5115407 -0.47370562 2.624274
2.5250814 -0.42594054 2.6353903
2.5352256 -0.37597269 2.624716
0.7347759 -0.31708294 2.6350358
0.77418137 -0.31730148 2.6293888
0.82620823 -0.31751505 2.6288278
0.87396699 -0.3205232 2.6284332
0.92406541 -0.31272057 2.6250305
0.97318155 -0.31656727 2.6248507
1.0242707 -0.31536004 2.6236272
1.0736645 -0.31829873 2.6257048
1.1246612 -0.31162483 2.6115093
1.1780987 -0.31347656 2.6126311
1.2201157 -0.3174544 2.6371541
2.5268717 -0.32551268 2.6186168
0.73377395 -0.27786756 2.6343446
0.77364558 -0.27824306 2.6304829
0.82770109 -0.27900445 2.6270237
0.8753776 -0.27971506 2.6237485
0.92400241 -0.27409443 2.6222031
0.97921985 -0.27491847 2.6171734
1.0286834 -0.27587503 2.614213
1.0716058 -0.27017453 2.612149
1.1232578 -0.27148795 2.6113279
1.174831 -0.27268034 2.6085079
1.2155855 -0.27588505 2.6305361
2.5293937 -0.27335799 2.6232719
0.73345423 -0.22606155 2.636477
0.77291644 -0.2262551 2.6313283
0.82673967 -0.22680849 2.6273162
0.87461597 -0.22744608 2.6248519
0.92258036 -0.22804199 2.6211188
0.97584009 -0.22706941 2.6194537
1.0244296 -0.23163576 2.6168537
1.0763565 -0.22280487 2.6137445
1.1261356 -0.22620454 2.6105943
1.1735914 -0.22584701 2.6088572
1.2105432 -0.2210816 2.6231809
2.5285459 -0.22757144 2.6260846
0.73202664 -0.17402345 2.6339338
0.77184743 -0.17426899 2.6302872
0.82609808 -0.17480586 2.6279261
0.87388802 -0.17528488 2.6253226
0.92192477 -0.17575982 2.6219733
0.97789204 -0.17643973 2.6193202
1.028268 -0.17722549 2.6189921
1.0773752 -0.17772187 2.6136713
1.1285018 -0.17850137 2.6116817
1.1735014 -0.17929269 2.6111674
1.2065765 -0.17358343 2.6170566
2.5264275 -0.17856427 2.6301363
0.73215777 -0.12245393 2.6363122
0.7719959 -0.12262525 2.6327569
0.82552564 -0.12288813 2.6280475
0.87805462 -0.12186785 2.6230509
0.92611146 -0.1251035 2.6219254
0.97749436 -0.1240681 2.6202953
1.0265191 -0.12445558 2.6165855
1.0766309 -0.12492378 2.6139398
1.1281942 -0.12551545 2.6131058
1.1728687 -0.12604941 2.6119044
1.2043971 -0.12656495 2.6141744
2.5234447 -0.13260701 2.6262524
0.73221368 -0.070861921 2.6377487
0.77135873 -0.070890144 2.6318021
0.82504487 -0.071053706 2.6277795
0.87538153 -0.072787471 2.6265614
0.92225307 -0.070145182 2.622196
0.97652853 -0.07169503 2.6190126
1.0260164 -0.07194224 2.616617
1.076624 -0.072247595 2.6152687
1.1273829 -0.072544999 2.6125982
1.1711754 -0.072776221 2.6095145
1.2030936 -0.073092908 2.6127436
2.5235329 -0.084481634 2.6234276
0.73201293 -0.025692692 2.6375625
0.7714901 -0.025717741 2.632791
0.8253336 -0.025770629 2.6292298
0.87562352 -0.027131055 2.6259201
0.92265075 -0.024706084 2.6224251
0.97707659 -0.025986932 2.6210287
1.0271233 -0.026084704 2.6200104
1.0765749 -0.026154837 2.6157312
1.1275632 -0.026247405 2.6135924
1.171675 -0.026339293 2.6112356
1.2033634 -0.026447026 2.6139352
2.517123 -0.03151105 2.625298
0.73227853 0.019448945 2.6385188
0.77108616 0.019468671 2.6313605
0.82559472 0.019538892 2.6300535
0.87321043 0.019598326 2.6270878
0.92167944 0.019683795 2.6251018
0.97724444 0.019760679 2.6214585
1.0266966 0.019850604 2.6189101
1.0764534 0.019938856 2.6154315
1.127483 0.020031871 2.613394
1.1724054 0.020136511 2.6128309
1.2030702 0.02021268 2.6132874
2.516403 0.025418274 2.6244688
0.73192108 0.071028076 2.6365972
0.77136534 0.071110807 2.6317124
0.82518893 0.07130333 2.628124
0.87658912 0.073376015 2.6245482
0.92397559 0.069893025 2.6224265
0.97706383 0.072047763 2.6203361
1.0270957 0.072361752 2.6192722
1.0766697 0.072614878 2.6152663
1.1287143 0.07301385 2.6155605
1.1736881 0.07335069 2.6149821
1.2050096 0.073661193 2.6167822
2.5146382 0.082280941 2.621587
0.73251396 0.12271761 2.637429
0.77205884 0.12285885 2.632755
0.82601798 0.12320227 2.6294532
0.87359071 0.12352868 2.6262138
0.92234093 0.12398332 2.6249804
0.97801936 0.12444741 2.6215129
1.027642 0.12492771 2.6192501
1.0772717 0.12536286 2.6152744
1.127798 0.1258774 2.6119754
1.1726969 0.12645583 2.6113079
1.2078719 0.12737304 2.6215045
2.51425 0.13101719 2.6193833
0.73332679 0.17454529 2.6383777
0.77245319 0.17463146 2.6321082
0.82680219 0.17520122 2.6299109
0.8738746 0.17555116 2.6250503
0.92291903 0.17624216 2.6245432
0.97831517 0.17683491 2.6202149
1.0279824 0.17751069 2.6179621
1.0714972 0.17821364 2.6170492
1.1225591 0.17900242 2.6149259
1.1722695 0.17790124 2.6113002
1.2098149 0.17449276 2.62379
2.5152161 0.17980941 2.6178095
0.73053569 0.22657141 2.6403737
0.77308738 0.22652726 2.631588
0.82719851 0.2271862 2.6284213
0.87469703 0.22774439 2.6247604
0.92401004 0.2286953 2.624835
0.975537 0.22809118 2.623358
1.0218966 0.22875926 2.6196153
1.0724006 0.22455645 2.6167641
1.1235117 0.22555631 2.6146154
1.175639 0.2237509 2.6098204
1.2096285 0.22137845 2.6208274
2.5132039 0.22618218 2.6226768
0.73125929 0.27990764 2.6395249
0.77408308 0.27864996 2.6315675
0.82744694 0.27831045 2.6303117
0.87734938 0.27409792 2.6297269
0.92495686 0.2746785 2.624521
0.97400653 0.27562302 2.6220284
1.0260695 0.2730296 2.6206079
1.0733684 0.27100146 2.6160252
1.1232854 0.27090186 2.6145425
1.1742039 0.2749953 2.6117451
1.2152467 0.27629143 2.6293364
2.6091697 0.26660714 2.631063
0.73031038 0.3266905 2.6374028
0.77575535 0.32467607 2.633719
0.82521582 0.32655305 2.6282699
0.87272161 0.31866133 2.629204
0.92598838 0.32080111 2.6238284
0.97511071 0.3219091 2.6213558
1.0252804 0.32324702 2.619911
1.0758299 0.32459405 2.6177707
1.1267145 0.32591084 2.6145957
1.1781874 0.32730481 2.6111078
1.2213802 0.31826279 2.639348
0.73023891 0.37245959 2.6425219
0.77684373 0.37065399 2.633357
0.82389259 0.37136027 2.628876
0.87166864 0.3722944 2.6253998
0.92748141 0.37375009 2.6232517
0.97649962 0.37497923 2.6202157
1.0264767 0.37642497 2.618021
1.0772544 0.37804744 2.6162205
1.1266224 0.37817937 2.612942
1.1807513 0.37484577 2.6122992
2.721313 0.37734932 2.6236761
0.73234588 0.42323458 2.6404989
0.77786744 0.42322028 2.6314175
0.82583737 0.42446482 2.6296597
0.87418211 0.42576519 2.6274917
0.92614347 0.42499813 2.6227889
0.97507316 0.43049479 2.6216042
1.0248533 0.42443696 2.6181705
1.0769863 0.42672211 2.6175869
1.1236513 0.42699626 2.6148212
1.1731209 0.42048299 2.6107469
1.2002327 0.44401389 2.6138139
2.7328081 0.42631364 2.6251452
0.73344272 0.47602594 2.6383963
0.77837336 0.47509143 2.6319058
0.82568836 0.47928172 2.6296721
0.87593246 0.47910136 2.6265092
0.92360908 0.47608534 2.6211643
0.97359806 0.47540233 2.6205971
1.0252324 0.47257665 2.6194601
1.0741324 0.47241911 2.6159785
1.1253916 0.47440505 2.6131232
1.1708293 0.47661451 2.612587
1.2027414 0.47864616 2.6149662
2.7389276 0.47837973 2.6232255
0.734622 0.52903759 2.6358242
0.77347833 0.52578062 2.6322901
0.82299209 0.52474099 2.6306803
0.87804884 0.52630258 2.6267598
0.92635024 0.5228107 2.6229002
0.97608817 0.52295297 2.6211202
1.0265087 0.52506244 2.6192498
1.0753373 0.52553028 2.6155217
1.1252087 0.52763999 2.6152022
1.1742258 0.5250985 2.6136904
1.2118955 0.52983481 2.6282928
2.6917834 0.54385918 2.629576
2.7230155 0.52463675 2.6158099
0.73506576 0.56201655 2.6327932
0.7793051 0.55853474 2.6335232
0.82567072 0.55933595 2.6345205
0.87747747 0.5596965 2.6296306
0.92682308 0.56409818 2.6302552
0.97625393 0.56312293 2.6292655
1.0283937 0.55930185 2.6192076
1.0724406 0.56147099 2.6179707
1.1270018 0.55933082 2.6194046
1.1757066 0.56225431 2.6216145
1.2190437 0.56025589 2.6397331
2.6916585 0.56079495 2.6263063
2.7805457 0.58946484 2.6445065
2.8197038 0.59229416 2.6328957
2.8717806 0.59775519 2.6321754
2.8406556 0.61421025 2.6489441
2.8731489 0.6174652 2.6463151
2.9381456 0.61498845 2.6413856
2.9742298 0.62783313 2.6386435
3.0472679 0.74875349 2.6451683
3.1223142 0.73975664 2.6465683
3.0505664 0.76781452 2.6435773
3.1359711 0.75931013 2.6368189
3.1818771 0.82430857 2.6444197
3.2212188 0.82968956 2.6429889
3.2569869 0.83405346 2.6382642
3.1966784 0.86570621 2.646915
3.235739 0.88068908 2.64254
3.280225 0.87646705 2.6358404
3.3206587 0.87178695 2.6311014
3.3510089 0.88687974 2.6356401
3.2218173 0.93880761 2.6493669
3.2947931 0.92987192 2.6459868
3.3268309 0.92394954 2.6401837
3.3536148 0.92609817 2.6274226
3.2296722 0.96956533 2.6475806
3.2768068 0.95610088 2.6404057
3.3204203 0.97288394 2.6386251
3.2684383 1.0262181 2.647804
3.3288031 1.0265132 2.6481786
3.3545315 1.0091524 2.6402812
3.34146 1.0789667 2.643384
3.3715827 1.0726954 2.636162
3.3578827 1.1232989 2.644021
3.1903346 1.1848027 2.6491096
3.2548881 1.1560959 2.6475096
3.3058996 1.1868105 2.6480672
3.3716135 1.1670768 2.6420693
3.2469239 1.2373414 2.6478913
3.3568168 1.2275517 2.6444435
3.2239087 1.2744573 2.6488233
3.3726146 1.2628961 2.6465576
3.2758837 1.3595643 2.648232
3.302634 1.376485 2.6490552
3.374408 1.3701509 2.6457427
3.2771928 1.4132299 2.6470284
3.3285942 1.4227163 2.6373949
3.3529425 1.4090909 2.6475244
-1.0781071 1.4770035 2.649308
-1.0789212 1.5418799 2.6351719
-1.0745797 1.559644 2.6007788
-1.0966858 1.6066082 2.6471367
-1.0771036 1.6665069 2.6246784
-1.0826262 1.7239746 2.6215944
3.3595772 1.7002573 2.6451802
-1.0835687 1.7827755 2.6198528
-1.084905 1.8152117 2.60601
-1.0838817 1.8698038 2.6276929
-1.0886745 1.930253 2.6375656
-1.0881816 1.9712673 2.6253498
-1.091017 2.0264978 2.6152544
-1.0960362 2.0672791 2.606308
-1.0947735 2.1108398 2.6360202
-1.1055855 2.171941 2.6340177
-1.1016029 2.2286055 2.6457245
-1.0957942 2.2330456 2.6198988
1.6380994 2.4256926 2.6439886
1.6799268 2.4246175 2.6293774
1.7257806 2.4302795 2.6287196
1.7769064 2.4276376 2.6250463
1.8249937 2.429033 2.6234386
1.8924907 2.4428637 2.6317866
1.9290705 2.4412603 2.6207731
1.9826186 2.4447463 2.6354532
2.0191326 2.4357181 2.619282
2.0797436 2.4453738 2.6320593
2.1186914 2.4390488 2.6255627
2.1651781 2.4410629 2.6276329
2.2185855 2.4401062 2.6276145
2.2800188 2.4419382 2.6228108
2.3267658 2.4377103 2.6334474
2.3700907 2.4435229 2.6208491
2.4193814 2.4359343 2.6198475
2.4741523 2.4332082 2.6236997
2.5215664 2.4289873 2.6222188
2.5720596 2.4334974 2.6263721
2.6176229 2.4292967 2.6349008
2.6742427 2.4354467 2.629823
2.7228148 2.4339175 2.6160779
2.7851796 2.4241652 2.6278036
2.8499811 2.4441974 2.6441782
2.8731363 2.4265425 2.6447096
1.9757226 2.4544415 2.611948
2.1769767 2.4528635 2.6091218
2.2502594 2.4535339 2.6055303
-0.21624538 -0.55520105 2.6639738
-0.15265818 -0.5587917 2.684155
-0.10760618 -0.56106234 2.6965113
-0.077378981 -0.55817485 2.6673288
-0.029082846 -0.55706108 2.6785593
0.0032805856 -0.56117135 2.6666944
0.1461037 -0.57113719 2.6795535
0.31402251 -0.56958944 2.6627364
0.3831363 -0.56307876 2.6897004
0.42031541 -0.5680455 2.6712053
0.47309536 -0.56750858 2.669203
0.5224539 -0.5395537 2.6718414
0.58017737 -0.53504258 2.6834309
0.62448597 -0.53281564 2.6718957
0.66941804 -0.53184193 2.6762972
0.72701311 -0.5184381 2.6765711
0.77431273 -0.51294011 2.6670773
0.8276968 -0.51168567 2.6717956
0.87646151 -0.51632559 2.6680608
0.92005891 -0.51277709 2.6699736
0.97513819 -0.50698882 2.6756847
1.0238072 -0.50593364 2.6623447
1.0722742 -0.50712031 2.6640246
1.1208279 -0.50815386 2.6641974
1.1721354 -0.50550556 2.6659415
1.2263463 -0.50463909 2.6648376
1.2700222 -0.50487828 2.6733336
1.3319197 -0.5030877 2.6844814
1.3619416 -0.51519257 2.6601443
1.4399272 -0.52771258 2.6631832
1.4732021 -0.52499294 2.6776423
2.4408183 -0.53050202 2.6672869
2.4737308 -0.51367897 2.6651323
0.78974426 -0.47964948 2.690856
0.80554712 -0.49451724 2.6948385
0.92190564 -0.49959019 2.6989162
1.0231484 -0.49953356 2.6733265
1.1804094 -0.49529707 2.686527
1.2148882 -0.49814594 2.6932671
1.2674707 -0.49793169 2.6746006
2.5164018 -0.47987202 2.680876
2.5215127 -0.42955041 2.6779654
0.74473083 -0.35732824 2.6929276
2.5289097 -0.37973118 2.6767118
0.7298494 -0.32719028 2.6662138
0.77836388 -0.34142694 2.6657207
0.81354779 -0.345191 2.6898227
1.1203222 -0.33620381 2.6526449
1.1701256 -0.33892024 2.6618462
1.2243402 -0.34268379 2.678457
2.5279198 -0.3294127 2.673533
0.72332865 -0.27479431 2.6714289
2.5301132 -0.27961835 2.6728814
0.72445911 -0.2293427 2.6784582
1.2612259 -0.24162839 2.6976898
2.5290523 -0.23002663 2.6757705
0.72550172 -0.17714351 2.6849422
1.2572407 -0.16509889 2.6931505
2.5258586 -0.18029277 2.6755769
0.72631049 -0.12475458 2.6898749
1.2550842 -0.12356046 2.6900666
2.5196819 -0.13055119 2.6714346
0.72654247 -0.072218716 2.6919844
1.251961 -0.075227521 2.6845782
2.5214868 -0.075685978 2.669961
0.72588062 -0.026179111 2.6900742
1.2523905 -0.027218208 2.6861255
2.5164595 -0.036028191 2.6781082
0.72520941 0.019788703 2.6875799
1.2518181 0.020826563 2.684886
2.5141051 0.013327219 2.6757138
0.72436887 0.072194226 2.6838298
1.2541839 0.07582555 2.6892183
2.5119774 0.073190555 2.6709855
0.72021943 0.12391508 2.6671429
1.2557997 0.12408542 2.6913929
2.511827 0.12788574 2.6804252
0.71900254 0.17575477 2.6606433
1.25699 0.17244582 2.6920085
2.5101731 0.18177153 2.6737082
0.71836627 0.22761461 2.6555901
1.260335 0.22815982 2.6961889
2.5099168 0.23449096 2.6729345
0.71802485 0.27300078 2.6514468
1.261127 0.2628248 2.6956799
2.5860286 0.2743192 2.6900132
2.6149764 0.2814579 2.6669326
1.2284263 0.3405138 2.6527572
2.5872958 0.30299133 2.6991777
2.6260471 0.3186326 2.6836791
2.6721189 0.33467421 2.6776695
1.231138 0.37540197 2.6552746
2.627074 0.37281063 2.6934218
2.6755433 0.37307167 2.6872966
2.7147245 0.38113606 2.6696436
1.240711 0.42643452 2.6707308
2.6299219 0.42463541 2.6976986
2.6679802 0.42670223 2.6886437
2.7155285 0.42890236 2.672127
0.72203285 0.47923067 2.698827
1.2484891 0.45675364 2.6842084
1.2502658 0.47125837 2.6863036
2.6276596 0.47604406 2.6984634
2.6744478 0.47580606 2.6912966
2.7290657 0.47400773 2.6790645
0.68061 0.53791893 2.6922071
0.7165491 0.52767092 2.6823072
1.2585301 0.52322578 2.6974874
2.6261137 0.52721113 2.6938345
2.6819489 0.53536904 2.689209
2.7248771 0.51151162 2.6795809
0.67300224 0.55707514 2.6868577
0.72332162 0.57216632 2.6734288
0.77890307 0.58845401 2.686784
0.82360548 0.59175396 2.6935728
0.87295002 0.59485286 2.6978462
0.91071695 0.59600717 2.6948297
0.99866188 0.57852381 2.6551456
1.0303303 0.58120722 2.6601629
1.0785779 0.58540505 2.6679347
1.1307527 0.59135646 2.6829357
1.1812072 0.59603041 2.6913407
1.2304946 0.5793075 2.6623852
2.5904799 0.55893415 2.6987419
2.6316137 0.57935661 2.6902792
2.6784754 0.57139111 2.6812432
2.727268 0.58723325 2.6738141
2.6138003 0.6301769 2.6938069
2.6733162 0.6221565 2.6899903
2.7253292 0.62323916 2.6811526
2.7752125 0.62338805 2.673847
2.8183606 0.62609023 2.6691697
2.8731775 0.63700634 2.6590462
2.919606 0.63256192 2.6540399
2.9628608 0.6470502 2.6580489
2.5863888 0.66786379 2.6942527
2.6253593 0.67778748 2.6907196
2.6765511 0.67146236 2.6862657
2.7262845 0.67920274 2.6734664
2.7712939 0.66983956 2.6795025
2.8254466 0.66620135 2.6765962
2.8755667 0.67495048 2.6700995
2.9223959 0.67971444 2.6635184
2.9736376 0.67642802 2.6618674
3.0137339 0.68144572 2.6640527
3.0693817 0.69703269 2.6602125
2.5896935 0.74107683 2.692111
2.6258867 0.71851635 2.687474
2.6825686 0.72465259 2.6804626
2.7315757 0.73091835 2.6804378
2.7701988 0.71678978 2.6732559
2.8167396 0.72762245 2.6758399
2.869704 0.72577035 2.6730824
2.9185424 0.72560585 2.6663895
2.9754612 0.72404772 2.6698959
3.0296803 0.72954547 2.659301
3.0775499 0.7226612 2.6560695
2.5971606 0.78587818 2.6892657
2.6189401 0.77148384 2.6919513
2.66383 0.77588278 2.6812265
2.7254303 0.77504849 2.679888
2.7755752 0.76752347 2.674886
2.8230195 0.78203785 2.673842
2.876606 0.76700336 2.6721792
2.9195194 0.77604187 2.6686873
2.9762352 0.77510655 2.666889
3.0251572 0.77965051 2.6631505
3.0896597 0.77539659 2.6604519
3.1153965 0.78414392 2.6527548
3.177737 0.78586519 2.6503909
2.5890551 0.83995676 2.6993713
2.6192496 0.82432318 2.6868713
2.6754036 0.82249892 2.6815543
2.7167273 0.81852841 2.6762593
2.7731254 0.82761335 2.6821587
2.8228385 0.82103223 2.6725729
2.8743348 0.82721221 2.6743464
2.9288268 0.82614917 2.676955
2.9770041 0.83102155 2.6734505
3.0179942 0.82356 2.6683166
3.0670743 0.82626933 2.6649621
3.1359591 0.81954801 2.6567504
3.158859 0.84179389 2.6542978
2.5944655 0.87605351 2.6953907
2.6279976 0.8758235 2.6857047
2.6828549 0.86522865 2.6812301
2.7216594 0.87806612 2.6734631
2.7821996 0.87242669 2.6850417
2.815315 0.87350976 2.6703603
2.8656683 0.86886799 2.6801403
2.9213519 0.8775475 2.6815321
2.9743686 0.87043792 2.6694043
3.0211694 0.88104796 2.6673431
3.0774596 0.86920023 2.659636
3.1314619 0.8825779 2.6622171
3.1700029 0.87288558 2.6561375
3.2068732 0.88731706 2.6502655
2.5807762 0.92876464 2.6982632
2.6234407 0.92615926 2.6964846
2.6706069 0.92192101 2.6819575
2.7261238 0.92030013 2.6743903
2.7827618 0.92167324 2.6827736
2.8243716 0.92364562 2.6772056
2.8784552 0.91762114 2.6790373
2.9262466 0.9212057 2.6772611
2.9697237 0.93130541 2.6730134
3.0251856 0.92078638 2.6716011
3.0649159 0.92637837 2.6668954
3.1194754 0.92020035 2.6552303
3.1799564 0.92868918 2.6585147
3.2174118 0.90914536 2.6537635
3.2618127 0.92589855 2.6533914
2.5915866 0.97578424 2.6962192
2.6282873 0.9711929 2.6880198
2.6723659 0.97790128 2.6838157
2.7214649 0.97151601 2.6846547
2.7762718 0.97559446 2.6764953
2.8378439 0.97882879 2.6884151
2.8785481 0.97160226 2.6837077
2.9178188 0.98079443 2.676389
2.9792387 0.97496527 2.6714814
3.0341356 0.97160852 2.6769643
3.0801461 0.9681527 2.6689997
3.1237633 0.97925693 2.6625309
3.1674204 0.97150373 2.661202
3.2179766 0.98249269 2.656846
3.2896361 0.99144924 2.6594787
2.5989609 1.0045207 2.6955295
2.6219738 1.0281223 2.6853065
2.672076 1.0290716 2.6840782
2.7283392 1.0240099 2.6785729
2.7806039 1.0247521 2.6828444
2.8293223 1.0268095 2.677855
2.8820858 1.0241302 2.6847548
2.9315684 1.0259516 2.678268
2.9783726 1.029716 2.674588
3.0236635 1.0173554 2.6700771
3.0749128 1.0273527 2.6753294
3.1293495 1.0226253 2.669363
3.1762748 1.0277128 2.66116
3.2260067 1.0250903 2.6542599
3.299643 1.0426935 2.6530671
3.337049 1.0290804 2.6546843
3.3900971 1.0394371 2.6624959
2.5952547 1.0967814 2.6945839
2.6254783 1.0724201 2.6858656
2.6778581 1.0719243 2.6818066
2.719867 1.0734707 2.6816523
2.7826183 1.0763333 2.6815434
2.8321278 1.0679244 2.6764114
2.8876009 1.0776515 2.6813319
2.9244745 1.0784222 2.6747787
2.9728937 1.0769618 2.6711202
3.0197237 1.074688 2.6651886
3.0790615 1.0702474 2.6676741
3.1276796 1.0743183 2.6630447
3.1718287 1.0766518 2.6592631
3.2309096 1.085996 2.6605308
3.2659812 1.0668759 2.6509345
3.3085201 1.0745203 2.6511726
2.5957229 1.1143832 2.6887889
2.6263616 1.1200591 2.68747
2.670397 1.1276309 2.682796
2.7297368 1.1171666 2.6866877
2.7753258 1.1301941 2.6877024
2.8373425 1.1267477 2.6875253
2.8759768 1.1284294 2.6780396
2.9302356 1.1298076 2.6807549
2.9791594 1.1223234 2.6653008
3.0414057 1.1196852 2.6714773
3.0750291 1.1252358 2.666697
3.1319976 1.1262845 2.6677942
3.1767044 1.1376222 2.6646137
3.2227862 1.1172806 2.6546907
3.2734623 1.1195678 2.6527503
3.3208721 1.1292171 2.6568339
2.5965734 1.19235 2.6962116
2.625464 1.1733283 2.6879292
2.6859109 1.1823543 2.6983387
2.7184978 1.1732919 2.6889398
2.7841964 1.173843 2.6837134
2.8247509 1.1767206 2.6769278
2.8718832 1.1759039 2.6741579
2.9254076 1.1774266 2.6763752
2.9544098 1.1724682 2.6723514
3.0181475 1.1804016 2.6770625
3.0773964 1.176522 2.6690273
3.1228988 1.1737242 2.6604369
3.1647708 1.1672831 2.6549063
3.2329075 1.174337 2.6569192
3.273747 1.1821568 2.6562018
3.3233941 1.1603665 2.6548755
3.3542461 1.1873984 2.6558347
2.6197762 1.2254171 2.6932015
2.6666126 1.2195802 2.6881969
2.7294056 1.2225318 2.689677
2.7688878 1.2287306 2.6760178
2.8254361 1.2261419 2.6767912
2.8663912 1.2138797 2.6719456
2.9238505 1.2265646 2.674257
2.9775198 1.2188702 2.6791787
3.0231016 1.2242296 2.6755831
3.0681417 1.2301776 2.6673343
3.1248424 1.2254287 2.6617801
3.1814048 1.226884 2.661876
3.2118626 1.2216439 2.6566181
3.2820718 1.2257855 2.6578035
3.3289809 1.2244647 2.6563752
2.5940084 1.2697541 2.6984122
2.6287322 1.2711543 2.6891906
2.6775289 1.2756726 2.6876669
2.7251573 1.2738229 2.6934133
2.7825954 1.2775351 2.6811633
2.831517 1.2634925 2.674803
2.8868442 1.2750545 2.679327
2.9318986 1.2781577 2.6717587
2.9765546 1.259511 2.6808112
3.0143106 1.2770132 2.6767511
3.0718007 1.276021 2.6626453
3.1252518 1.2616645 2.6546638
3.1859748 1.28232 2.6579306
3.2334585 1.2782649 2.6566133
3.2715969 1.2759547 2.6573205
3.3421831 1.2686288 2.6529932
3.3929636 1.2903521 2.6554823
2.6245778 1.3248289 2.6946092
2.6770794 1.3217092 2.6898649
2.7247362 1.3256727 2.6860223
2.7735229 1.3243588 2.6919534
2.8212764 1.3156983 2.6786563
2.8679154 1.3275254 2.6831324
2.9211509 1.3241329 2.6752968
2.9735804 1.3303586 2.6800566
3.0281174 1.320582 2.6738334
3.0624523 1.3260041 2.6641037
3.1284857 1.3203573 2.6660051
3.1707306 1.328797 2.6618853
3.222034 1.3298544 2.6628952
3.274617 1.329761 2.6584845
3.337836 1.3237467 2.6656244
3.371695 1.3194749 2.662044
-1.0773726 1.3787671 2.6782064
2.6270978 1.3752695 2.6944153
2.6635098 1.3776267 2.6861546
2.7218976 1.3711008 2.685225
2.7841389 1.3701721 2.6871579
2.8224356 1.3812988 2.6792939
2.8756495 1.3695093 2.6802027
2.9157414 1.3783121 2.6775818
2.9808264 1.3755482 2.6714759
3.0248756 1.3705027 2.6685266
3.0744123 1.3705689 2.6645758
3.1234906 1.3825396 2.6669366
3.1774254 1.3729194 2.6634853
3.225188 1.3759416 2.6602941
3.2712524 1.3910843 2.6500185
3.3446 1.366012 2.656153
3.3513851 1.3886096 2.6539576
-1.0755675 1.4186178 2.6802518
2.6233389 1.4212909 2.6939843
2.6816492 1.4273911 2.6886799
2.7241776 1.4310929 2.6887801
2.777437 1.4265611 2.6893601
2.8328981 1.4282056 2.6807251
2.8724511 1.429577 2.6753027
2.9305704 1.4227673 2.6747808
2.9783251 1.4229007 2.6710148
3.0296316 1.4244148 2.669502
3.0863087 1.4280283 2.6718574
3.1320512 1.4262856 2.663867
3.1785092 1.4246163 2.6559632
3.2234712 1.4192899 2.6566727
3.2809606 1.4387653 2.6591411
3.3221805 1.4044021 2.6570213
-1.0753824 1.4711145 2.6682303
2.694526 1.4738288 2.6959324
2.722697 1.479305 2.6899703
2.7851384 1.4904035 2.6973002
2.8218327 1.4689285 2.6872509
2.8736691 1.4829252 2.6778281
2.9226329 1.4796156 2.6783481
2.9747467 1.4700372 2.6688948
3.0245898 1.473996 2.6612225
3.0809224 1.4750042 2.6684906
3.1326079 1.4792421 2.6607568
3.176115 1.4649426 2.6616697
3.2212172 1.4785326 2.6580434
3.2666054 1.4790488 2.659632
3.3040578 1.464377 2.6527617
3.3810015 1.4651904 2.6710196
-1.0764874 1.5194594 2.6629777
2.6464961 1.5035146 2.6977351
2.6685615 1.5290909 2.6942623
2.7214956 1.5293932 2.6837502
2.7823002 1.523013 2.6912022
2.826082 1.531081 2.6855605
2.872618 1.5246005 2.6763048
2.9326236 1.5287293 2.6734841
2.9717066 1.5281769 2.6734762
3.0095906 1.5140058 2.6648347
3.0684185 1.5275446 2.6723366
3.1164432 1.5194073 2.6640573
3.1790714 1.5274854 2.6758478
3.2211475 1.5286337 2.6682234
3.2745199 1.525176 2.6607621
3.3352783 1.5211359 2.672714
3.3605785 1.5251682 2.6644583
-1.0752296 1.5780984 2.6705811
2.6900868 1.578161 2.6977458
2.7247648 1.5797755 2.6955874
2.778662 1.5790018 2.6919031
2.8224573 1.5787215 2.6873
2.8690996 1.5717077 2.681937
2.9267585 1.5812111 2.6740162
2.9783089 1.5745993 2.6785717
3.022368 1.5703375 2.6761918
3.0774293 1.5771637 2.6723964
3.1182244 1.5621706 2.6723242
3.1718833 1.5826179 2.6693313
3.2225456 1.5652527 2.6663837
3.2762954 1.5852009 2.6621153
3.3202639 1.5703433 2.6623411
3.3650026 1.5719789 2.6682553
-1.0826399 1.6287396 2.6648242
2.6910501 1.6209338 2.6970882
2.7202573 1.6228074 2.6943104
2.7693043 1.6320906 2.6862526
2.8168652 1.6168271 2.6876175
2.8781831 1.6273874 2.6803191
2.9318607 1.6204839 2.6673906
2.9791553 1.6262674 2.6676204
3.0331912 1.6321325 2.6747019
3.0732563 1.617191 2.6749001
3.1363516 1.6268023 2.6752059
3.1789157 1.62217 2.6716774
3.2228076 1.624591 2.6657286
3.2614145 1.6208479 2.6565695
3.380445 1.6298087 2.6588988
-1.0815324 1.6738684 2.6707973
2.6884336 1.686066 2.699609
2.7258935 1.6735408 2.6952939
2.7741508 1.669778 2.6862552
2.8171418 1.6743546 2.6850975
2.8780506 1.6804646 2.6844959
2.9269638 1.6678472 2.6708293
2.9806154 1.6772393 2.6703575
3.0373363 1.6783326 2.6766124
3.0732799 1.679938 2.6676137
3.1246188 1.6701294 2.6809158
3.178364 1.6747289 2.6725857
3.2775145 1.6738575 2.6686599
3.3182313 1.6861095 2.6604078
3.3522871 1.6561751 2.6573503
-1.0824727 1.7229397 2.6816697
2.679306 1.7477484 2.6945527
2.7434618 1.7464191 2.6998317
2.7721157 1.7186255 2.6913779
2.8242512 1.7201281 2.6835089
2.8700275 1.7262472 2.6842225
2.9113333 1.7193218 2.6719582
2.965785 1.7299428 2.6791503
3.015624 1.7157311 2.6723433
3.074506 1.7326561 2.6726689
3.1441772 1.7201071 2.6786745
3.1716633 1.7279768 2.6790926
3.2352834 1.7250303 2.6681471
3.2738047 1.717248 2.664238
3.3084793 1.7249227 2.6583493
-1.0808033 1.7727299 2.6719875
2.6362739 1.780897 2.6988983
2.6570148 1.7638425 2.6960738
2.721221 1.7723137 2.6968398
2.7643898 1.7726371 2.6927667
2.8226082 1.7762134 2.6851408
2.8707345 1.7622991 2.679491
2.91541 1.7792472 2.6791301
2.9774468 1.7728621 2.6844327
3.026144 1.7712172 2.6765203
3.090548 1.7867321 2.6840177
3.1288307 1.7719939 2.6754975
3.1761262 1.7738353 2.6748803
3.2064016 1.7833394 2.6775498
3.2526798 1.7878222 2.6866145
-1.0819998 1.8271478 2.6603475
2.7281325 1.8217068 2.6923802
2.7729826 1.8180369 2.6859019
2.8241889 1.8286138 2.6927223
2.873606 1.8166667 2.6809578
2.9251761 1.8298231 2.6845894
2.9747784 1.8328359 2.6832607
3.0325038 1.8149562 2.6815972
3.0703521 1.8258212 2.6804876
3.1289477 1.8281162 2.6873698
3.1756814 1.8487636 2.6903756
3.2186787 1.8274846 2.6827393
3.294996 1.8304865 2.6724563
-1.0795916 1.8658668 2.6735783
2.7250631 1.8532693 2.6980815
2.7634842 1.8685886 2.6861258
2.8233681 1.8763175 2.6925678
2.8721797 1.8730017 2.6892843
2.9234915 1.8724631 2.6865494
2.9810476 1.8819807 2.6851399
3.0180702 1.8573118 2.6824489
3.0683289 1.8774695 2.684967
3.1357915 1.8743415 2.6850929
3.1818652 1.8725045 2.6854105
3.2176609 1.8643519 2.676548
3.2629874 1.8963977 2.684546
-1.0854666 1.9071405 2.6699822
2.6782045 1.9291048 2.6935444
2.7331734 1.9245783 2.6960752
2.7532511 1.9297879 2.6927953
2.8225875 1.9159015 2.6899993
2.87816 1.9255024 2.6870029
2.9324331 1.924739 2.6828721
2.9751453 1.9126931 2.6884649
3.0266094 1.9222645 2.6922038
3.0791037 1.9225779 2.680738
3.1288013 1.9148809 2.6828728
3.1760809 1.9153159 2.6769543
3.2222512 1.9046918 2.6747899
3.262249 1.9488565 2.697571
-1.0851233 1.9816914 2.6846273
2.6781912 1.964422 2.6938148
2.7092247 1.9732549 2.6902332
2.7754965 1.9743077 2.6975176
2.8097873 1.9946537 2.6902833
2.8745382 1.983686 2.6994877
2.9159946 1.9735082 2.6897802
2.9742992 1.9666101 2.6851666
3.0184531 1.9751415 2.6807342
3.06528 1.9650518 2.6889889
3.1271281 1.9866693 2.6836905
3.1545467 1.9710834 2.683651
3.2166631 1.989529 2.6921253
3.2672672 1.9826927 2.6859498
-1.0934691 2.0287504 2.6853588
2.8299167 2.0284603 2.698
2.8732352 2.0188994 2.6984735
2.9323802 2.02299 2.6899185
2.9798653 2.0154579 2.6927505
3.0217359 2.022532 2.6862133
3.0789793 2.0217705 2.6886859
3.170191 2.0292246 2.6849022
3.2530217 2.0173469 2.6924517
-1.0914649 2.0641558 2.6765079
2.7751665 2.073452 2.6949394
2.912117 2.0521827 2.6886401
3.0052354 2.0726857 2.6928701
3.0731664 2.0716085 2.6955769
3.1245525 2.0755777 2.6942863
3.1709881 2.0759499 2.6881695
3.2424006 2.0648036 2.6962004
-1.1052727 2.1069574 2.6776466
-1.0991954 2.1425323 2.6969607
2.6688571 2.1449366 2.6993525
2.771529 2.1064401 2.6986358
2.8999338 2.124078 2.6940429
2.928668 2.1206837 2.6919432
2.9797184 2.1168113 2.6907322
3.0915759 2.1144996 2.6946154
3.115489 2.13415 2.6924505
3.1619539 2.1244574 2.6922793
-1.1048491 2.1621184 2.671567
-1.0955384 2.1677761 2.665756
2.8544972 2.1593397 2.6967084
2.914957 2.1799803 2.6954784
2.9599984 2.1936843 2.6908185
3.0237603 2.1805918 2.6972368
3.0929346 2.1908281 2.6953342
3.1259086 2.1617646 2.6898932
-1.103267 2.2074986 2.6673265
-1.0974772 2.2370548 2.6930189
2.8944967 2.2499154 2.6974342
2.9252341 2.2202911 2.6924982
3.0256667 2.2300072 2.6921873
3.0741386 2.232954 2.689527
3.1013846 2.2173612 2.6908798
-1.0946071 2.2558007 2.6681733
2.7906282 2.290658 2.6997662
2.8817463 2.2959068 2.6951025
2.992084 2.2581868 2.6955905
3.0217078 2.2754304 2.6816387
3.0797024 2.2753284 2.693454
2.6883984 2.3306561 2.6994987
2.8263004 2.3035643 2.6993079
2.8793569 2.3222089 2.697464
2.974556 2.3293161 2.6942184
3.0613317 2.3363111 2.6982388
2.4290016 2.387825 2.6961315
2.5077443 2.3886929 2.6900945
2.5946436 2.3958721 2.6902161
2.6325235 2.3740463 2.6969733
2.6536329 2.3941202 2.6943464
2.7106659 2.3898342 2.6952744
2.7857502 2.3822076 2.6937973
2.863894 2.3951631 2.6962655
2.9233325 2.3903937 2.6954918
2.9623828 2.3768008 2.6923261
3.0031762 2.3643167 2.6902804
1.4880933 2.4101944 2.6988006
1.5240376 2.4118657 2.6834843
1.5694044 2.416841 2.6773767
1.6221917 2.4228082 2.6721625
1.6755705 2.4212191 2.6810987
1.7345394 2.4272435 2.6735222
1.7637584 2.4127424 2.6760812
1.8202438 2.4261687 2.6805041
1.8675263 2.4298418 2.6727753
1.9237566 2.4302368 2.6711254
1.9781258 2.4292912 2.6746659
2.0279882 2.429821 2.6700602
2.0791442 2.432889 2.6753325
2.1173232 2.4242976 2.6772316
2.1680799 2.4231184 2.6746707
2.2217426 2.4222288 2.6829312
2.2760921 2.4247649 2.6779766
2.3192506 2.4163074 2.6803951
2.3757026 2.4266384 2.6780078
2.425653 2.4191554 2.6773124
2.4828801 2.4173601 2.6743963
2.5302136 2.4107263 2.6815221
2.5684955 2.4191399 2.677552
2.6212516 2.425638 2.6761005
2.6715806 2.4116373 2.6802664
2.7288866 2.4193077 2.6764405
2.7756953 2.4225736 2.6710398
2.8260834 2.4207268 2.6689212
2.8710594 2.4129496 2.6727059
2.9235449 2.4212482 2.676337
2.9506178 2.4165373 2.6732502
2.7978449 2.4539797 2.6500657
-0.20934139 -0.55831766 2.7452021
-0.17291223 -0.55948257 2.7304819
-0.12332405 -0.55670249 2.7273827
-0.029678607 -0.55475104 2.7327425
0.021725032 -0.56080902 2.7228591
0.069243349 -0.56365764 2.7262218
0.13638024 -0.5718357 2.7475049
0.16873655 -0.56892717 2.7323303
0.23372838 -0.56604874 2.7153075
0.27763912 -0.56354076 2.7287242
0.32822934 -0.56344277 2.729322
0.37603363 -0.55758172 2.7164059
0.42905816 -0.55758977 2.7078633
0.46951115 -0.56104112 2.7149143
-0.23227923 -0.54531664 2.7018917
-0.06213256 -0.54980576 2.7080436
0.41810194 -0.54838574 2.7483277
0.48518729 -0.54862672 2.7422297
0.53330618 -0.52530676 2.7219903
0.57187915 -0.5165391 2.7224278
0.6237644 -0.51351357 2.7188623
0.67772436 -0.51395798 2.71263
0.7185716 -0.50785208 2.7095289
0.8897382 -0.50050151 2.7115803
0.93756682 -0.50073737 2.7019186
0.97486693 -0.50251138 2.7032228
1.3741175 -0.5083437 2.7023001
1.4274802 -0.52197212 2.7223642
1.5309248 -0.5352385 2.7179942
1.5717212 -0.52716631 2.7442811
1.6230785 -0.52956325 2.7375247
1.6611075 -0.53229153 2.7383039
2.3735933 -0.54210132 2.7446165
2.4329374 -0.53878099 2.7198677
2.4720614 -0.52426338 2.7352886
0.57809639 -0.48461419 2.7475569
0.62455302 -0.4852252 2.7443967
0.67629892 -0.48275784 2.7445059
0.72546339 -0.47651023 2.7320526
0.77409142 -0.47711036 2.7163634
0.82865739 -0.47752172 2.7223198
0.8725633 -0.48070943 2.732585
0.9250018 -0.47301224 2.7346525
0.97569329 -0.47221637 2.7303553
1.0211278 -0.47422758 2.7315772
1.0733523 -0.47603771 2.7291348
1.1253579 -0.47756496 2.7244253
1.171189 -0.4779329 2.7255919
1.2245346 -0.47619572 2.7228124
1.2758837 -0.47683966 2.7188678
1.3272542 -0.47085929 2.7228942
1.374944 -0.47573403 2.725064
2.4995155 -0.49805573 2.7069068
2.5234165 -0.46847337 2.7300081
0.74076259 -0.43213442 2.734586
0.78053761 -0.4221018 2.7288685
0.82861501 -0.42594421 2.7322733
0.87564796 -0.42912126 2.7440636
0.92642015 -0.42370653 2.7431481
0.97723538 -0.42498672 2.7400959
1.0215489 -0.42629528 2.7381852
1.0755112 -0.42386371 2.7350304
1.1279619 -0.42318764 2.7371101
1.1731745 -0.42447475 2.7331247
1.2194237 -0.42601195 2.7302067
1.2714242 -0.42602453 2.728523
1.3286681 -0.42492574 2.7283053
1.3779827 -0.42696127 2.7370491
2.5183952 -0.43188295 2.705765
0.74828541 -0.37233451 2.7045791
0.77810764 -0.37651515 2.7204254
0.8276515 -0.37817609 2.7338121
0.87299931 -0.38502195 2.7466385
0.92705536 -0.37693042 2.7402565
0.97679842 -0.37448114 2.7373586
1.0235474 -0.37766227 2.7383442
1.0713637 -0.37733859 2.7361662
1.1255593 -0.37381744 2.7362108
1.1711545 -0.37509972 2.7334158
1.2232966 -0.37546903 2.7310724
1.2796745 -0.37520632 2.729564
1.329547 -0.37354016 2.7286336
1.3761477 -0.37662736 2.738627
2.5222971 -0.38254699 2.716346
0.72352535 -0.32001278 2.720871
0.83875304 -0.34737387 2.7026954
0.87600684 -0.34889033 2.7073081
1.2806822 -0.32077011 2.7163332
1.3280114 -0.32379311 2.7299616
1.3735547 -0.3262355 2.7380583
2.5276637 -0.32691351 2.7178431
0.72954416 -0.27555537 2.7469239
1.2792898 -0.27439249 2.7144787
1.3255533 -0.27399263 2.7287228
1.3695285 -0.27574348 2.7339082
2.5328267 -0.2762199 2.7261274
1.2773825 -0.21949494 2.7129445
1.3246716 -0.22460906 2.7300804
1.3686298 -0.22605872 2.7353592
2.5310457 -0.22832443 2.7248378
1.2809885 -0.17785172 2.7159076
1.3225445 -0.17513376 2.7282164
1.3690938 -0.17394179 2.7333829
2.5271082 -0.17770745 2.7159245
1.2856311 -0.12518032 2.7210305
1.3205163 -0.12583503 2.7259314
1.3711587 -0.12662624 2.7282648
2.5278184 -0.13218193 2.7214642
1.2835817 -0.076286264 2.7179208
1.3208953 -0.076833077 2.7279747
1.3707267 -0.077251598 2.7287014
2.5214329 -0.090087384 2.70561
1.2862709 -0.027650038 2.7242527
1.3212487 -0.027776599 2.7293503
1.3691126 -0.027878953 2.7261305
2.5194046 -0.021114802 2.714941
1.2843258 0.021131679 2.7201219
1.3214691 0.021281771 2.7297928
1.3712112 0.021412371 2.7303009
2.5214298 0.020910248 2.7253432
1.2864152 0.072605059 2.7170289
1.322664 0.079262733 2.7283685
1.3710192 0.077801846 2.7291574
2.5198026 0.06744013 2.7228484
0.72661704 0.13401921 2.7426193
1.2842255 0.12551989 2.7178447
1.3226248 0.12654883 2.7300828
1.371453 0.1271967 2.7286627
2.5176787 0.1174989 2.7314737
0.72742218 0.18109444 2.7438357
1.2839361 0.17423782 2.7152691
1.3237998 0.17581964 2.7305422
1.371747 0.17658596 2.7271919
2.5110087 0.16695601 2.7219455
0.72048134 0.22382665 2.7381897
1.2777377 0.22558284 2.7130036
1.3255482 0.22528216 2.7315023
1.3761802 0.22669268 2.7333417
2.5169785 0.21730582 2.7253284
0.7204954 0.26957223 2.7304041
1.2821255 0.27687052 2.7166672
1.3250012 0.27440014 2.7271004
1.3777965 0.2765407 2.7331963
2.5316606 0.2520662 2.7387426
2.5681705 0.27754873 2.7128606
0.72090411 0.32564718 2.7100198
1.2782021 0.32487732 2.7126236
1.3284955 0.32444638 2.7303755
1.374254 0.32393816 2.7265637
2.5774281 0.3254154 2.7180579
0.72196609 0.37272206 2.7099597
1.2841107 0.37385052 2.7158279
1.3315114 0.37462893 2.7320158
1.3720695 0.37610403 2.7298765
2.5808003 0.36976463 2.7206581
2.6002932 0.38881773 2.7032642
0.72276753 0.42687753 2.7255161
1.2845365 0.42458698 2.7163486
1.3330044 0.42456964 2.7298493
1.3741336 0.42636061 2.7286551
2.579437 0.42322448 2.7243884
2.606241 0.42352024 2.7049608
0.72065836 0.46824852 2.735405
1.2723665 0.47911331 2.707248
1.3186419 0.47399083 2.7284
1.3694959 0.47544757 2.7333968
2.5817466 0.47431764 2.7195065
2.6228688 0.47623992 2.7040999
0.65926653 0.54220915 2.7181976
0.71613228 0.51769435 2.7252278
1.2738891 0.52186769 2.7101166
1.3220783 0.52484608 2.7289114
1.3733906 0.52347875 2.7318277
2.581398 0.52328861 2.718174
2.7109959 0.51842856 2.7025666
0.68090522 0.58587086 2.7324646
0.71119666 0.5866065 2.7240057
0.88482571 0.59680408 2.7047029
0.9281612 0.59852743 2.7029965
1.2790655 0.5736596 2.7148769
1.3237705 0.57383931 2.7285147
1.3712928 0.56983894 2.7306211
2.5824072 0.58040529 2.7224753
0.69129694 0.62274766 2.7464793
0.72419429 0.62571311 2.741359
0.77196318 0.62585449 2.7330415
0.82417661 0.62595522 2.7294488
0.87435091 0.63096023 2.7293274
0.92682803 0.62700844 2.7228167
0.97465008 0.62653035 2.7214417
1.0237701 0.62066972 2.7174997
1.0742856 0.62182546 2.7155511
1.125379 0.62610012 2.7152655
1.1745658 0.63052005 2.7148137
1.2260327 0.62325895 2.7173986
1.2786688 0.62367594 2.726464
1.3324193 0.62545836 2.7318892
1.3721905 0.62371409 2.7312682
2.5727699 0.63172156 2.7211316
0.69886422 0.66146195 2.7480712
0.72966927 0.66946143 2.746377
0.77572024 0.67337453 2.7451417
0.82786822 0.67342782 2.7443318
0.87398797 0.67371976 2.7418935
0.92435211 0.67858428 2.7396238
0.97458702 0.67996114 2.7391829
1.0241166 0.67321235 2.7348013
1.0763241 0.67352641 2.7350342
1.1261053 0.67379498 2.7351203
1.1725191 0.67628968 2.7325354
1.2247684 0.67458129 2.7326808
1.272334 0.67411035 2.7334969
1.321676 0.67453015 2.7351453
1.3708491 0.67674017 2.7367101
2.5715253 0.68193549 2.7239921
0.74514687 0.72809196 2.7499068
0.77713645 0.71688259 2.7481134
0.82377732 0.72396004 2.7464724
0.87321562 0.72411799 2.7444608
0.92386901 0.72539186 2.7426336
0.97736603 0.72364086 2.7394507
1.0224665 0.72604066 2.7377172
1.0762844 0.72241431 2.7383976
1.1265677 0.72546691 2.7367895
1.1774915 0.72159153 2.7363369
1.2247602 0.72446507 2.733691
1.2765491 0.72606248 2.7362804
1.3233806 0.72477394 2.7339039
1.3758312 0.72253543 2.7384472
2.5782356 0.72150868 2.728159
0.78460377 0.77024752 2.7488916
0.81751406 0.77271795 2.7474194
0.88019985 0.77346796 2.7482207
0.92372262 0.77702177 2.744267
0.97426248 0.77541661 2.7425759
1.0245911 0.77338243 2.7388148
1.0723253 0.77370071 2.7385931
1.12344 0.77512532 2.7412064
1.1730603 0.77338403 2.7393217
1.2238935 0.77620369 2.7372169
1.2785732 0.77388465 2.7349973
1.3281509 0.77775955 2.7335515
1.3794167 0.77387482 2.7388172
2.578301 0.77079076 2.7219756
0.73581725 0.83266914 2.7493041
0.77947319 0.8375079 2.7485883
0.8214159 0.83059359 2.7481425
0.87128395 0.82503462 2.7463791
0.92550361 0.82439399 2.7448378
0.97367078 0.8259536 2.7439752
1.0274394 0.82713884 2.7413397
1.076725 0.82632703 2.7394762
1.1237273 0.82265973 2.7401195
1.1718376 0.82481349 2.7406476
1.2242585 0.82536453 2.7396028
1.2717375 0.82270873 2.7390208
1.3227429 0.8235755 2.7363141
1.3706479 0.82998943 2.736377
2.5796318 0.81966847 2.714309
0.78133696 0.86595601 2.749325
0.82771325 0.87666553 2.7487342
0.87681311 0.87349242 2.7460697
0.92638123 0.87257415 2.7465863
0.97462857 0.87280065 2.745733
1.0228002 0.87408066 2.7427557
1.0769398 0.88140196 2.743165
1.1266311 0.87139004 2.7409017
1.1763592 0.87269938 2.7411685
1.2247565 0.87665677 2.7397776
1.2753663 0.8757093 2.7394407
1.3229356 0.87021106 2.7384465
1.3740369 0.87506944 2.7377112
2.5769567 0.87734723 2.7174661
0.76999366 0.91996199 2.7497292
0.81949967 0.92807359 2.7493734
0.87015373 0.92292261 2.7474689
0.92954773 0.92622894 2.7476962
0.97503996 0.92699772 2.7458589
1.0268605 0.92068213 2.7468739
1.0721251 0.92633682 2.7466934
1.1238981 0.92294329 2.7415736
1.1738374 0.92210627 2.7432551
1.2278098 0.92568791 2.7431722
1.2799934 0.92860824 2.7407925
1.3285311 0.92486233 2.7375622
1.3748318 0.92311645 2.7357416
2.5902374 0.92101711 2.7458642
0.81595689 0.95270401 2.7485569
0.92177677 0.96081245 2.7496829
0.97517157 0.97609884 2.7457359
1.0249814 0.97184825 2.7455778
1.0761999 0.97277379 2.7463746
1.1231508 0.97631001 2.743742
1.1759779 0.97380513 2.747014
1.2184013 0.97329062 2.7440569
1.2716705 0.97316134 2.7409832
1.3234541 0.97925282 2.7374001
1.3728867 0.97898996 2.7406771
2.5800469 0.97525626 2.7261398
0.74791855 1.0395297 2.7483799
0.77793396 1.042099 2.7495835
0.8073023 1.0436877 2.748009
0.87372649 1.0260687 2.7490609
0.9269262 1.0265894 2.7493613
0.97134727 1.0178292 2.7467873
1.0276092 1.0185449 2.7478647
1.0809666 1.0201857 2.7471273
1.1280947 1.021459 2.7449062
1.1776843 1.0294209 2.7456975
1.2260225 1.0262572 2.7444913
1.2742538 1.0226761 2.7415659
1.3255285 1.0284859 2.7414424
1.3757757 1.0257528 2.7394612
2.5857098 1.0268406 2.724905
0.93209636 1.0858971 2.749933
0.97074378 1.0891995 2.7492795
1.08531 1.0618057 2.7477739
1.1258497 1.0670089 2.7477398
1.1742185 1.0763782 2.7444329
1.2284639 1.0790012 2.74366
1.2796346 1.0706969 2.7456362
1.3246626 1.0778174 2.7447536
1.3667238 1.0819361 2.7414398
2.5862412 1.0764896 2.7121487
0.96924639 1.1202818 2.7476926
1.0207595 1.1256542 2.7483187
1.0873444 1.1166465 2.7487774
1.1359687 1.1217377 2.7481909
1.1827537 1.1267849 2.7474129
1.2226988 1.1312662 2.7467465
1.2700011 1.1194534 2.7432673
1.3205928 1.1249365 2.7408299
1.3725219 1.1262043 2.7408009
2.58126 1.1236279 2.7249103
1.0425651 1.1845424 2.74822
1.1288095 1.165678 2.7482834
1.1776683 1.1669847 2.7472546
1.2288988 1.1791903 2.7473118
1.2777065 1.1706986 2.7458467
1.3288054 1.1766163 2.7435269
1.3754828 1.1716497 2.7385538
2.5834649 1.17013 2.7103257
1.1355948 1.2278287 2.7468207
1.1733681 1.2290637 2.7484791
1.2183144 1.2273439 2.7471087
1.2767165 1.2213128 2.7475491
