ply
format ascii 1.0
comment PCL generated
element vertex 1514
property float x
property float y
property float z
element camera 0
property float view_px
property float view_py
property float view_pz
property float x_axisx
property float x_axisy
property float x_axisz
property float y_axisx
property float y_axisy
property float y_axisz
property float z_axisx
property float z_axisy
property float z_axisz
property float focal
property float scalex
property float scaley
property float centerx
property float centery
property int viewportx
property int viewporty
property float k1
property float k2
end_header
-0.12404075 -0.47658235 1.7809972
-0.075887069 -0.47716457 1.7764082
-0.028092928 -0.47805989 1.7722741
0.023481146 -0.47528309 1.781768
0.077020489 -0.47458252 1.7753046
0.12988095 -0.47583091 1.7807825
0.17313406 -0.47304085 1.7754842
0.22907646 -0.47198808 1.7696104
0.27523816 -0.47067925 1.7731348
0.31180188 -0.47516671 1.7689693
0.98100686 -0.47251144 1.7619417
1.0747261 -0.47734264 1.7906392
-0.18784027 -0.44043791 1.7688167
-0.46871543 0.078074098 1.7755103
-0.42794797 0.077476934 1.768361
-0.38347909 0.077181771 1.768306
-0.46981767 0.122442 1.7893864
-0.44624126 0.12079347 1.768316
-0.57500285 0.39477134 1.7616954
-0.61522311 0.43180814 1.7812797
-0.58191782 0.42313829 1.7822373
-0.60365069 0.45232707 1.7918415
-0.58854449 0.4521426 1.7748685
-1.0564495 0.62982821 1.7703515
-1.0483452 0.64249498 1.7567807
-1.052063 0.67101401 1.7859464
-1.0478104 0.66445422 1.7779722
-1.0602269 0.7055369 1.7830878
-1.0336633 1.0338261 1.7697659
-1.0329211 1.0753564 1.7837679
-1.0285708 1.1238462 1.7709726
-1.0224679 1.1648617 1.7710108
-1.030906 1.2212186 1.7664535
-1.0355672 1.2660366 1.7744681
-1.0463033 1.4331849 1.7673589
-1.037508 1.4737102 1.7778265
-1.045498 1.575426 1.7742051
-1.047106 1.6051002 1.7819382
-0.16768552 -0.47289214 1.8307003
-0.12895425 -0.47758889 1.8258516
-0.071420446 -0.47688597 1.8261669
-0.024215903 -0.47693634 1.8109903
0.03115309 -0.47738597 1.8215578
0.071853966 -0.47680572 1.8215429
0.11630706 -0.47583008 1.8258015
0.18221216 -0.47673479 1.8400971
0.20507316 -0.4771091 1.8279904
0.27113378 -0.4808979 1.8247179
0.30447155 -0.47990492 1.8053432
1.0740656 -0.48142111 1.8104022
-0.4718619 0.11525698 1.8150486
-0.56916893 0.39330488 1.8312942
-0.56552273 0.42241198 1.8262594
-0.60185695 0.47420666 1.8443414
-0.58026397 0.46295196 1.83419
-1.0550938 0.63489348 1.8115499
-1.0454153 0.64405537 1.8198869
-1.0537527 0.69618607 1.8090224
-1.0410197 0.67233229 1.8218915
-1.053164 0.70414865 1.8173918
-1.0336504 1.0367653 1.80419
-1.0251882 1.0810869 1.8065251
-1.0234096 1.1224389 1.8138874
-1.019096 1.15003 1.8012671
-1.0165892 1.2042168 1.8276308
-1.0543666 1.4444808 1.8077749
-1.0420395 1.447542 1.8454348
-1.038136 1.4743197 1.828612
-1.038919 1.5753624 1.8210558
-1.0506848 1.6346617 1.8095536
-1.045555 1.6148835 1.8100199
-1.0585034 1.6655822 1.8498961
2.3954539 -0.54519457 1.8830774
2.4043713 -0.53351265 1.8930913
-0.17282249 -0.46769789 1.8733128
-0.11106291 -0.48058027 1.8587568
-0.08474566 -0.47908542 1.8817955
-0.028584614 -0.48131031 1.8776046
0.022011116 -0.47940066 1.8686937
0.094017953 -0.48125529 1.8807137
0.13503984 -0.48498875 1.8748132
0.17627844 -0.48493475 1.8722694
-0.56730109 0.39376706 1.8576698
-0.55467165 0.43158981 1.8634993
-0.56880337 0.47132018 1.8645427
-1.0421314 0.67988539 1.8513161
-1.0231421 1.1181401 1.8576225
-1.0385683 1.4676306 1.8744297
-1.0409949 1.5968271 1.8921639
-1.0431782 1.6457977 1.8826882
-1.0556066 1.6645379 1.8632176
-1.048761 1.657159 1.8695143
2.386086 -0.5372051 1.9399103
2.4239452 -0.52707833 1.9361749
2.4586413 -0.5175122 1.9417448
-0.16517317 -0.47465587 1.9084753
-0.11226147 -0.48187393 1.9206591
-0.07881891 -0.48130798 1.9259406
-0.017930308 -0.4806467 1.924304
0.024137063 -0.48533317 1.9169508
0.068005495 -0.48741859 1.9245381
0.11516294 -0.48862252 1.9278123
0.1795063 -0.48468131 1.9088715
-1.0396404 1.4800714 1.9173692
-1.0471621 1.6494634 1.9131503
-1.0522149 1.6794864 1.927222
-1.060079 1.7145511 1.9464271
-1.0461169 1.704329 1.9111662
2.4345818 -0.53561109 1.9951771
2.4659288 -0.51832515 1.9821166
2.5117168 -0.5071764 1.987996
-0.16665874 -0.48291492 1.9823372
-0.12777559 -0.48456705 1.9728799
-0.055290453 -0.48585433 1.9781444
-0.040715989 -0.48462573 1.9734063
0.024943275 -0.48787978 1.9799491
0.060022973 -0.48940814 1.9720697
0.11746538 -0.48880687 1.9679484
-1.0509727 1.6625741 1.9579735
-1.0445439 1.6783867 1.9703124
2.3453681 -0.54559183 2.0452361
2.4263189 -0.53061968 2.0418718
2.4753492 -0.51043558 2.0243027
-0.14575459 -0.48427251 2.0313733
-0.081053346 -0.49067375 2.017822
-0.04621169 -0.48680422 2.0026612
0.090281539 -0.49747756 2.003871
2.5226023 -0.4774361 2.0215523
2.5291493 -0.42983377 2.0253642
2.5388215 -0.37512681 2.033103
2.5330367 -0.32363775 2.0353386
2.5375228 -0.27359429 2.0448568
2.5310903 -0.24402019 2.0426109
2.5358703 0.23303936 2.0465252
-1.0537474 1.6944848 2.0317175
-1.0451072 1.6553035 2.0332122
-1.0603775 1.7308046 2.0255611
-1.047281 1.7046779 2.0496993
-0.11987378 -0.50001013 2.0986941
2.3984435 -0.52927154 2.0977745
2.4159815 -0.52912462 2.0799456
2.4725485 -0.51258439 2.07306
-0.12963708 -0.4983092 2.0911536
-0.098075494 -0.49303856 2.0701284
2.5209668 -0.47346023 2.0753942
2.5372884 -0.42281941 2.0734024
2.5355425 -0.37791505 2.0699456
2.5373387 -0.32798916 2.076364
2.5364182 -0.27588829 2.0836504
2.5434427 -0.23163891 2.0715501
2.5590768 -0.21450877 2.0814085
2.5563972 -0.17405634 2.0822439
2.5449417 -0.1188226 2.0826139
2.5572178 -0.12639359 2.0788951
2.5485456 -0.071220256 2.0672886
2.5531366 -0.071614951 2.0869851
2.5402293 -0.034761075 2.0612202
2.5515351 -0.01306783 2.0705671
2.5456107 0.019655734 2.0722568
2.5525072 0.027065817 2.0911176
2.5431015 0.074247323 2.0757444
2.5385454 0.12495583 2.0698895
2.5403998 0.17601982 2.0709119
2.5528646 0.17631453 2.0651281
2.5365281 0.22884977 2.0793545
2.5511818 0.20531921 2.061506
-1.0476825 1.6925015 2.0597231
-1.0591002 1.7173579 2.0774221
0.79078448 -0.53242719 2.1402054
0.80740601 -0.53263271 2.1367724
0.8743065 -0.53903389 2.1215994
2.3985934 -0.53251964 2.1244869
2.4390373 -0.52365315 2.1363339
2.4810085 -0.51530164 2.1210399
2.4953983 -0.49988243 2.1369929
2.5187624 -0.47496364 2.1229403
2.5346942 -0.42382479 2.1190608
2.5339289 -0.37476292 2.1232302
2.5406117 -0.32358629 2.1300378
2.5400536 -0.27874437 2.1269433
2.5430546 -0.2414484 2.1196754
2.5543065 -0.2129578 2.1316295
2.5460105 -0.16020872 2.114856
2.5594807 -0.18605089 2.1334782
2.5585117 -0.12406337 2.1271801
2.5572307 -0.07238517 2.1280286
2.5473952 -0.028171452 2.1478076
2.5566549 -0.027980184 2.1148179
2.5459256 0.022020996 2.1247718
2.5457249 0.075003818 2.1248655
2.5412514 0.13382111 2.1253462
2.5507436 0.1047876 2.1347671
2.5387604 0.17778169 2.1204727
2.5382879 0.21905661 2.1194744
2.5687513 0.25425065 2.1390388
-1.068076 1.7732891 2.1124945
0.69231153 -0.54710239 2.1781123
0.76801378 -0.53551817 2.1595302
0.91144961 -0.54609489 2.1672311
2.3964605 -0.53858489 2.1763785
2.418241 -0.53147286 2.1800289
2.47087 -0.51337177 2.1732287
2.4980376 -0.49153197 2.1968753
2.5168617 -0.47585416 2.1747093
2.5340619 -0.42402864 2.1710484
2.5311217 -0.37414742 2.1733422
2.5327191 -0.32638779 2.1769881
2.5389194 -0.27369314 2.1676626
2.5448329 -0.23188142 2.172255
2.5542777 -0.21552867 2.1863914
2.5623975 -0.1747423 2.171453
2.5601385 -0.12530147 2.1695356
2.548244 -0.058139473 2.1754816
2.5579133 -0.076016687 2.1667757
2.5479727 -0.013498235 2.1757877
2.5528767 -0.032051016 2.1660872
2.5492253 0.031153904 2.176616
2.5522621 0.023686273 2.1655018
2.5466914 0.083405666 2.1869712
2.5527008 0.070680507 2.1603668
2.5423784 0.127801 2.176739
2.5423744 0.18006493 2.178091
2.5404606 0.22456907 2.1728351
0.64263904 -0.54986084 2.2496295
0.69783753 -0.54912263 2.2351246
0.7238732 -0.54451716 2.2195547
0.78503859 -0.54003251 2.2264225
0.83734643 -0.54378164 2.2433121
0.8688066 -0.54320228 2.2188706
0.92482013 -0.54289556 2.2230988
0.96170121 -0.54218942 2.2234614
2.4287529 -0.52331418 2.2291222
2.4751971 -0.51190978 2.2189085
2.5204272 -0.47599292 2.2316096
2.5327375 -0.42550191 2.223886
2.5378644 -0.37577382 2.2239652
2.5395861 -0.32503927 2.2228124
2.5370905 -0.27344126 2.2197919
2.5420437 -0.23215035 2.2301543
2.5556622 -0.20941377 2.2159748
2.5581658 -0.17948453 2.2203372
2.553849 -0.12653455 2.219573
2.5527322 -0.073840588 2.2205613
2.5461872 -0.036158472 2.2156005
2.5520074 -0.013689367 2.2208564
2.5478902 0.02380598 2.203151
2.5528517 0.023957916 2.2353542
2.5451655 0.061154015 2.200161
2.552454 0.076738507 2.2339089
2.5472982 0.12174687 2.2275841
2.5500927 0.10621164 2.2028728
2.5437109 0.17955063 2.2303059
2.5507143 0.15118954 2.2010779
2.5400798 0.22712944 2.2279856
2.6028128 0.25982437 2.2091999
-1.0960124 1.8937335 2.2143364
-1.0960637 1.9193808 2.230396
-1.0943329 1.9559188 2.2415872
0.45325744 -0.55163467 2.2882016
0.5316084 -0.55113786 2.2746942
0.63410646 -0.55220705 2.2614071
0.69177234 -0.55209255 2.2751336
0.70439565 -0.55183685 2.2973359
0.7851395 -0.55199176 2.2799118
0.63978696 -0.54578251 2.2835395
0.65611237 -0.54993111 2.2986865
0.7236619 -0.54900438 2.2806261
0.76151252 -0.54740065 2.2649693
0.81241649 -0.54711229 2.2513785
0.8787241 -0.54142302 2.2622163
0.92154312 -0.54400712 2.2621806
0.95508003 -0.5404911 2.2927513
2.3945105 -0.53675616 2.2876651
2.4179084 -0.52750897 2.2746346
2.4728708 -0.50659043 2.265187
2.5180516 -0.47497728 2.2713673
2.5257533 -0.42537627 2.27669
2.5345311 -0.37515253 2.2738638
2.5355303 -0.32221693 2.269433
2.5370929 -0.27257219 2.2784462
2.5391214 -0.22667255 2.2750535
2.5490208 -0.17574157 2.2640989
2.5564122 -0.1725613 2.2785063
2.5488124 -0.13586646 2.2851553
2.5531235 -0.11733007 2.2728448
2.5478401 -0.079614498 2.2676115
2.5547652 -0.069873095 2.2834578
2.5455301 -0.021550097 2.285399
2.5526476 -0.032905087 2.2704158
2.5485649 0.031683642 2.2689905
2.5528698 0.019561591 2.2805746
2.5463853 0.077223554 2.270757
2.5509646 0.077310339 2.274879
2.54476 0.12252131 2.2628093
2.5538704 0.12324545 2.2803669
2.5454009 0.17459612 2.2735283
2.5500832 0.15288301 2.2564876
2.5486577 0.22988003 2.2777929
-1.0880772 1.8864175 2.2985673
-1.0905387 1.9198272 2.27194
0.58622211 -0.56031948 2.305032
0.62320644 -0.55949956 2.3208005
0.67809498 -0.55386114 2.3116903
0.7758944 -0.55025566 2.3285055
0.82362974 -0.55480051 2.3379571
0.85871911 -0.55077863 2.3106768
1.0298529 -0.55220276 2.3259292
1.0694331 -0.55717325 2.3371155
0.44911271 -0.54907674 2.3283715
0.471825 -0.54887599 2.3244848
0.69280607 -0.54939175 2.3425472
0.72457319 -0.5469349 2.3247645
0.78335845 -0.54730612 2.3133278
0.83757085 -0.54845202 2.3053956
0.85871196 -0.54275179 2.3299623
0.9299596 -0.54646993 2.328357
1.0063463 -0.54921341 2.3189423
2.3838172 -0.53774077 2.3053253
2.4274578 -0.52501911 2.3325608
2.4820647 -0.51032209 2.3273594
2.5158565 -0.47600675 2.3264625
2.5285025 -0.43429464 2.3284967
2.5322473 -0.37217459 2.3215292
2.532758 -0.3215771 2.3264341
2.5325811 -0.27546212 2.3313324
2.535743 -0.23256409 2.3353555
2.5504241 -0.21349536 2.3101974
2.5536406 -0.179144 2.3278983
2.5472772 -0.12897465 2.312604
2.5536327 -0.12205991 2.3330722
2.547591 -0.079459623 2.3290634
2.5521088 -0.068008237 2.3335238
2.5428076 -0.014037958 2.3114328
2.5543036 -0.037269674 2.3360569
2.545321 0.024258628 2.313477
2.5512657 0.028984357 2.3361371
2.5485356 0.070245519 2.3155897
2.5524206 0.082204774 2.3403034
2.5495093 0.13928735 2.3136468
2.5549707 0.1215653 2.3367629
2.5467968 0.16259333 2.3241811
2.5529966 0.18609938 2.3282876
2.5468519 0.22853935 2.3163731
2.552357 0.21708955 2.330035
-1.0782541 1.7134413 2.330677
-1.0808442 1.7785994 2.3140173
-1.0848618 1.8243191 2.3307428
-1.0865041 1.8624184 2.3101854
-1.0956146 1.9462546 2.3353691
-1.1054646 1.9856836 2.3403473
-1.0950547 1.9814578 2.307538
2.2354338 2.4655128 2.3313789
0.47778043 -0.55419463 2.3785717
0.61509031 -0.56485111 2.3719361
0.66847008 -0.55346513 2.3657017
0.73433858 -0.55425715 2.3559325
0.82596761 -0.55243534 2.3834579
0.90815198 -0.55127418 2.3570879
1.0758117 -0.55671465 2.3944886
1.1311973 -0.55756944 2.3803957
0.67896169 -0.54540032 2.3826535
0.72304773 -0.54730147 2.3825703
0.76915753 -0.54625046 2.3677616
0.82994562 -0.54847783 2.3639288
0.88654852 -0.54902977 2.352267
0.91357374 -0.54250729 2.3731108
0.95365155 -0.54127842 2.3560739
1.0218927 -0.54557127 2.3567855
1.0504293 -0.54779458 2.3587685
2.4196982 -0.5263626 2.3729546
2.4692407 -0.50890422 2.3824592
2.493799 -0.495233 2.379916
2.5171037 -0.47340208 2.3771181
2.5292556 -0.42298219 2.369684
2.5350881 -0.3754946 2.3771434
2.5358281 -0.32548749 2.3797839
2.5331011 -0.28242874 2.3819003
2.540647 -0.22798723 2.379458
2.5516019 -0.20135105 2.3845868
2.5479925 -0.16989742 2.3832335
2.5566332 -0.15929297 2.3677089
2.55393 -0.11976807 2.3652089
2.5453742 -0.09176439 2.3698964
2.5576642 -0.068868577 2.3819761
2.5487313 -0.04533536 2.3741155
2.5547636 -0.0194754 2.3703249
2.5484409 0.032246035 2.3738532
2.5555799 0.011608951 2.3710561
2.549242 0.08658129 2.373353
2.5507343 0.063337289 2.3754354
2.548291 0.10982389 2.3715975
2.5524359 0.13331902 2.3743622
2.5480926 0.1777593 2.387121
2.5523076 0.17215079 2.3719614
2.5460103 0.22833303 2.3793216
2.5530808 0.21107605 2.3699059
2.5462816 0.25077653 2.3892977
-1.0855496 1.7404621 2.386843
-1.0859934 1.7694856 2.3701453
-1.0910227 1.8372023 2.3949943
-1.1006584 1.8508084 2.3648009
-1.0906411 1.8787925 2.3794677
-1.1007472 1.9335687 2.3619342
-1.0912348 1.9194127 2.3763797
-1.100906 1.9891969 2.3786597
-1.0937126 1.9821856 2.3873127
-1.1035547 2.0303898 2.3720832
-1.1014675 2.0620446 2.3849492
2.0949576 2.4470732 2.3960602
2.1782875 2.4713986 2.378516
2.2271965 2.4771171 2.3755951
2.2750938 2.4815562 2.3816121
2.310822 2.4631476 2.3809035
0.45114803 -0.5541932 2.4034138
0.52975178 -0.56472635 2.4176199
0.57676643 -0.57055575 2.4170628
0.62591451 -0.57046026 2.4312477
0.66001087 -0.56002969 2.4345682
0.84170747 -0.55073708 2.4308875
0.894059 -0.55664176 2.4462731
0.9205091 -0.55274075 2.4205568
0.97515273 -0.55345988 2.4090579
1.0101118 -0.55578673 2.4102449
1.0735718 -0.55383402 2.4449856
1.1125389 -0.55443352 2.4355581
0.45373064 -0.54550648 2.4189796
0.69724262 -0.5478766 2.4485488
0.72007865 -0.54213154 2.4168382
0.77526802 -0.54704791 2.4285069
0.80843282 -0.54483211 2.410526
0.85851914 -0.54973763 2.4220374
0.93424982 -0.54605371 2.4465463
0.95655859 -0.54110962 2.4160237
1.0081453 -0.54908669 2.4409895
1.2878692 -0.53922731 2.4307098
2.419522 -0.52539343 2.4318411
2.4657321 -0.51467371 2.4371357
2.4812081 -0.49741036 2.4113517
2.5232532 -0.47118768 2.4281292
2.5278804 -0.42338428 2.4254131
2.533298 -0.37587997 2.4226015
2.5308502 -0.3276042 2.4144151
2.5346856 -0.27796048 2.4235053
2.5371974 -0.23409009 2.4269412
2.5515378 -0.20324785 2.42837
2.5472374 -0.15581258 2.4272382
2.5539565 -0.17926912 2.4175818
2.5499675 -0.13937797 2.40137
2.5575552 -0.12146964 2.4269502
2.5496876 -0.061681822 2.4331009
2.5534945 -0.080355272 2.418653
2.548542 -0.038097192 2.4323792
2.5534163 -0.026196836 2.4151306
2.5485256 0.027357722 2.4225626
2.5554192 0.023112092 2.421371
2.5474987 0.079230189 2.4010146
2.5531895 0.079747677 2.4283881
2.5536761 0.12670909 2.4196746
2.5432777 0.18928596 2.4207916
2.5542452 0.1635453 2.4231482
2.5432072 0.22489823 2.4253454
2.5448418 0.25291926 2.4318886
2.5821111 0.28767869 2.4494359
2.5794635 0.31918675 2.4434252
-1.0807219 1.7757977 2.4135354
-1.0880454 1.8299564 2.4165444
-1.0841656 1.8645916 2.4078369
-1.0953109 1.940753 2.4220448
-1.0944463 1.9746122 2.4238064
-1.106341 2.0411317 2.4178481
-1.1020684 2.0915201 2.4251003
-1.0983254 2.0693021 2.4281466
2.0847144 2.4663582 2.4325495
2.1370831 2.4663663 2.4188447
2.1682575 2.471715 2.413358
2.2261617 2.4781621 2.4268653
2.2838604 2.4753401 2.4230559
2.3453 2.4721994 2.436429
2.3695605 2.4780445 2.414829
2.4220595 2.4758012 2.4331725
0.081520364 -0.55499935 2.4887202
0.14204536 -0.55573952 2.4902549
0.48147202 -0.55698061 2.4675283
0.52498609 -0.56256771 2.4869912
0.5731101 -0.56990063 2.4702902
0.6206075 -0.57457423 2.4692435
0.67788178 -0.55940449 2.486486
0.73944408 -0.55210072 2.4600837
0.81738025 -0.55099046 2.4993913
0.85616857 -0.55176133 2.4942057
0.94003648 -0.55683875 2.4982145
0.95778871 -0.55246675 2.471905
1.0388757 -0.5555045 2.4639485
1.0511521 -0.55531353 2.4593086
1.1471893 -0.55243039 2.4810677
0.73306811 -0.54726291 2.4839401
0.77938569 -0.54629916 2.4848948
0.83455741 -0.54583412 2.4703257
0.86138624 -0.54710513 2.4701865
1.024442 -0.54868299 2.4997892
1.0853608 -0.547216 2.4740081
1.1123961 -0.54483795 2.4531877
1.1512614 -0.54824406 2.4580085
1.2445048 -0.54845041 2.4967988
1.2725683 -0.54647279 2.4758086
2.4126267 -0.53073484 2.4831593
2.4761941 -0.50800705 2.4640019
2.5184348 -0.47188559 2.4712842
2.5280244 -0.43213651 2.4766598
2.5309711 -0.37723437 2.4748335
2.5356104 -0.32774597 2.4776533
2.5327485 -0.27277979 2.4762704
2.5352671 -0.2184881 2.4791164
2.5454581 -0.17726693 2.4759834
2.5516319 -0.16498923 2.4604635
2.5390847 -0.12354219 2.4762115
2.5404458 -0.077875331 2.4679983
2.5382965 -0.028534323 2.4778256
2.5431042 0.026008073 2.4734483
2.55107 0.016976807 2.4644089
2.542259 0.077115633 2.4725022
2.5521567 0.096123829 2.4637434
2.5400519 0.12586732 2.4766488
2.5456796 0.17167926 2.4759886
2.5539489 0.18331581 2.4610014
2.5414658 0.22075242 2.4807918
2.5503955 0.20678382 2.4559047
2.5679061 0.28784212 2.4656465
2.7525876 0.28120172 2.4569545
2.5750904 0.3086268 2.4703803
2.7950225 0.30225226 2.493098
2.8322368 0.30360827 2.4792776
2.8655734 0.32322794 2.4908791
2.8736742 0.37509263 2.4917195
2.8591371 0.42389056 2.4720571
2.8439362 0.5626896 2.4983234
-1.0902632 1.7321124 2.4833493
-1.083468 1.7815689 2.4793246
-1.0897231 1.8353474 2.4722941
-1.089469 1.8695166 2.4772153
-1.1000952 1.9250866 2.4771149
-1.0939773 1.9281129 2.4730718
-1.0854266 1.955387 2.4632738
-1.1027129 2.0168839 2.4814904
-1.0960217 2.0262163 2.4812105
-1.1042538 2.0576725 2.4579556
-1.0955111 2.0698428 2.4783583
-1.1048908 2.1106758 2.4827087
1.9549359 2.4489377 2.4900501
2.5826616 2.4468906 2.4977691
1.9838495 2.462851 2.4927852
2.023659 2.4634919 2.4784706
2.0737698 2.4629261 2.4762659
2.1301272 2.471457 2.4734614
2.1765299 2.4741187 2.4679291
2.223325 2.4736028 2.4786782
2.2744598 2.4651356 2.473597
2.3253965 2.4710953 2.4703133
2.3746495 2.4717071 2.4741831
2.4309566 2.4662399 2.4779928
2.4752114 2.4683573 2.4731159
2.5118542 2.4624355 2.4826446
2.55074 2.4536476 2.4858401
0.070966981 -0.55458438 2.544117
0.12159908 -0.55530709 2.5269642
0.28718385 -0.56800604 2.5372519
0.36272183 -0.57026315 2.5410273
0.49239594 -0.55727667 2.525558
0.52997041 -0.56396836 2.5318956
0.58193946 -0.57036763 2.5140886
0.62744033 -0.56945914 2.5144255
0.67226517 -0.55953074 2.5232978
0.70394969 -0.55047035 2.5203369
0.89237207 -0.55231702 2.5204864
0.92008954 -0.55497044 2.5202084
0.97643137 -0.55404955 2.5403376
1.0240389 -0.55307603 2.5222247
1.0644491 -0.55288315 2.5094659
1.1465355 -0.55164236 2.5471628
1.1775531 -0.55077147 2.5323775
1.2262688 -0.55201155 2.522356
0.10057489 -0.54823744 2.5143664
0.7192592 -0.54629016 2.5286839
0.78835553 -0.5443812 2.5370326
0.82405734 -0.54705662 2.5425825
0.86926764 -0.54749942 2.5344117
0.92287189 -0.54903942 2.5290525
1.0408435 -0.54450023 2.5417891
1.0758499 -0.5457921 2.538239
1.1196017 -0.548105 2.5370269
1.2282684 -0.54265261 2.5444453
1.2820841 -0.5397526 2.5243216
1.3305573 -0.53590149 2.5459204
1.3958406 -0.53521317 2.5161738
2.4259975 -0.51959574 2.5144446
2.4746957 -0.51316339 2.5119321
2.4969819 -0.49428535 2.5182722
2.5145359 -0.47936594 2.5161324
2.531707 -0.42089739 2.5220311
2.530792 -0.36388275 2.5266223
2.5315895 -0.32286343 2.5291877
2.537987 -0.27153245 2.5287166
2.5349894 -0.22315682 2.5297477
2.5357814 -0.17460538 2.5188019
2.5340362 -0.13077238 2.5268054
2.5276172 -0.07851883 2.5147293
2.5312414 -0.034839936 2.5265865
2.5261917 0.024975024 2.5140731
2.5254014 0.0807423 2.5185983
2.524889 0.13418727 2.5295188
2.5277846 0.17666455 2.5213485
2.5241959 0.22465034 2.5230556
2.6554606 0.34496105 2.5134718
2.7255816 0.32495564 2.5203943
2.7676487 0.31900039 2.5184803
2.826906 0.33388233 2.5183361
2.8596444 0.34143987 2.5152049
2.7431436 0.3604382 2.5326307
2.7685702 0.3747381 2.5309162
2.8274057 0.37450814 2.5296316
2.8707197 0.37693071 2.5206611
2.7756546 0.41946906 2.542459
2.8242295 0.42956728 2.5350354
2.8659718 0.42839226 2.5220056
2.7799103 0.470377 2.5434144
2.8274467 0.48222643 2.5425851
2.8612578 0.47558784 2.5216689
2.7855043 0.51868069 2.5485284
2.8314126 0.53105038 2.540993
2.8651898 0.5326001 2.5234292
-1.0950427 1.7293388 2.5261078
-1.0876012 1.7644204 2.5215197
-1.0849355 1.8350912 2.5386806
-1.0964121 1.8997538 2.5376105
-1.089474 1.9253132 2.5203595
-1.0942976 1.9759595 2.5390143
-1.1003232 2.0849454 2.5469897
-1.0943413 2.0890942 2.5221517
-1.0986933 2.1284981 2.5095677
2.523701 2.445121 2.5371439
2.5844707 2.438426 2.5287647
2.6243362 2.4488673 2.518667
1.9198488 2.4607534 2.5302861
1.9750313 2.4661877 2.5349226
2.0313628 2.4618394 2.5305872
2.0794168 2.4665222 2.5205994
2.1352525 2.4711404 2.5340204
2.1712124 2.4678128 2.5191
2.2230029 2.4678893 2.5309205
2.2738497 2.4660177 2.5196023
2.3256042 2.4729488 2.5403051
2.3640723 2.4647174 2.5223427
2.4234886 2.4684081 2.5325999
2.4748654 2.4536345 2.5245888
2.5142274 2.4550028 2.5143726
2.5699527 2.4529369 2.5177164
2.669534 2.4534452 2.5423851
-0.13458742 -0.55101395 2.5853553
-0.071667001 -0.55496168 2.5754554
-0.02176963 -0.56107789 2.5745447
0.01577484 -0.56556302 2.5951424
0.34207329 -0.56471807 2.5763772
0.39468658 -0.5681808 2.5873971
0.40621009 -0.56663853 2.5790772
0.48523277 -0.55705631 2.5554848
0.52132314 -0.56010097 2.575386
0.57348633 -0.56380463 2.5751188
0.62931186 -0.5646283 2.5702217
0.67675495 -0.55647069 2.5754256
0.81173283 -0.55165958 2.5682027
0.86472696 -0.55273497 2.5616586
0.72808194 -0.54342026 2.577203
0.77086312 -0.54353046 2.5692894
0.80575675 -0.54345602 2.5949061
0.87805009 -0.54411948 2.5821533
0.93428773 -0.54532707 2.5920773
0.96955508 -0.54264063 2.5749557
1.023908 -0.54275697 2.5726743
1.0762349 -0.53953177 2.5762281
1.1276094 -0.53539234 2.5752134
1.1756262 -0.53842562 2.5711377
1.2289826 -0.53100723 2.581013
1.2740861 -0.53081661 2.5772681
1.3288075 -0.53344339 2.5855947
1.3553979 -0.53226441 2.5956283
1.4199581 -0.53599042 2.5922043
2.4281893 -0.52702194 2.5764072
2.4702652 -0.51475513 2.5783038
2.5074351 -0.50283915 2.5893042
2.5181358 -0.47346428 2.5700452
2.5261557 -0.42062631 2.5753925
2.5355005 -0.37679106 2.5832162
2.5500541 -0.37185785 2.5604942
2.5295925 -0.31816626 2.5685983
2.5379379 -0.27415031 2.57391
2.5338728 -0.22523634 2.5738003
2.5319819 -0.17659883 2.5750854
2.5356991 -0.12833883 2.5812709
2.5335324 -0.079761885 2.5806758
2.5286601 -0.03120926 2.5765667
2.5259318 0.025221121 2.5737414
2.5171103 0.081406966 2.5666633
2.5152531 0.12560698 2.5676584
2.5174091 0.18117458 2.5795116
2.5194299 0.22952719 2.5817549
2.6480329 0.33170304 2.5698018
2.6899805 0.35158262 2.5772402
2.7300138 0.37875715 2.5651419
2.7411304 0.41929141 2.5734043
2.7517881 0.43962073 2.5615218
2.7455604 0.47514424 2.5819108
2.7541125 0.47375563 2.5583446
2.7387652 0.52931815 2.5788665
2.7693746 0.53074121 2.5550418
2.7361028 0.5612905 2.5897148
2.760788 0.56118208 2.5653107
2.8179767 0.56591845 2.5542731
2.8861477 0.57443827 2.567498
-1.089856 1.7301397 2.5791438
-1.0813724 1.7695614 2.565191
-1.0906892 1.8249047 2.577966
-1.0923431 1.8755655 2.5671968
-1.0916934 1.9102898 2.5721617
-1.0902123 1.9732431 2.5860066
-1.0971001 2.0167501 2.5819724
-1.1001016 2.0689607 2.5573652
-1.0993912 2.0520704 2.566438
-1.1040947 2.1696155 2.5640774
-1.0976833 2.1883831 2.5921679
-1.0968541 2.2027016 2.5784557
1.7489246 2.4333775 2.5929255
1.7755387 2.4336224 2.5776517
1.8278768 2.4418044 2.5790663
1.8618841 2.4485323 2.5892582
1.9180539 2.4453812 2.5915527
1.9857848 2.4444852 2.5897803
2.048034 2.4467714 2.5963612
2.0682204 2.4491017 2.5868361
2.2916586 2.4390831 2.5981069
2.3263102 2.4459972 2.5856862
2.3808737 2.4446731 2.5915051
2.4703135 2.4393225 2.5771832
2.5295737 2.4313295 2.5718889
2.5776436 2.440254 2.5692494
2.6246917 2.4380457 2.571486
1.834249 2.4533274 2.5719771
1.8883744 2.4640081 2.5687029
1.9216909 2.4565368 2.5643704
1.9734036 2.4584501 2.5768459
2.0270188 2.4603627 2.5739012
2.0782311 2.4587288 2.5666082
2.1275473 2.4649529 2.5731053
2.1763122 2.4601426 2.5767932
2.2277997 2.4674208 2.5836282
2.2769196 2.4614289 2.5775352
2.3215151 2.4597511 2.5664725
2.3655996 2.4573498 2.5621459
2.4196854 2.4552023 2.5666769
2.456192 2.4538636 2.5538955
2.6781421 2.4506969 2.5801961
2.7267613 2.4582901 2.5834506
-0.0094841328 -0.56580734 2.6265969
0.0096512632 -0.5626936 2.6424959
0.09224914 -0.55945688 2.6262517
0.2780444 -0.57506919 2.6291399
0.34811017 -0.56191313 2.6236768
0.38687703 -0.56256229 2.6231496
0.41623038 -0.56768 2.6443791
0.48874596 -0.56269771 2.6335905
0.52445048 -0.55446357 2.6190422
0.57701057 -0.55429715 2.6236608
0.62344098 -0.55569029 2.6104195
0.66683674 -0.55392021 2.6074843
-0.22388908 -0.54243279 2.6020141
0.5278827 -0.54390168 2.6448395
0.58017904 -0.54437113 2.6398416
0.62497205 -0.54385525 2.6304054
0.67412543 -0.54257065 2.6382682
0.72079325 -0.53606164 2.6147771
0.77701253 -0.52929276 2.6262987
0.82813293 -0.53660148 2.62396
0.87841088 -0.53627414 2.6345255
0.92704678 -0.52911246 2.6332295
0.98175639 -0.52880055 2.6282907
1.0220875 -0.52656198 2.6226854
1.0765564 -0.52369905 2.6221848
1.1193179 -0.52126008 2.6240277
1.1742363 -0.51859444 2.6256232
1.2191927 -0.51960576 2.6191034
1.2745254 -0.513574 2.6305778
1.3222349 -0.51697791 2.6243587
1.3571491 -0.52191496 2.6167929
1.4252516 -0.5339734 2.6343451
1.4516369 -0.52876401 2.621022
1.5208769 -0.53596574 2.6359744
2.4318967 -0.52498907 2.6270518
2.476758 -0.51306486 2.6321149
2.5032258 -0.50529402 2.6154613
2.5114043 -0.47367421 2.6241193
2.5209613 -0.42824429 2.6275516
2.5353398 -0.37273371 2.6252358
0.73450822 -0.31696653 2.6340818
0.77655351 -0.3201499 2.6346283
0.82641703 -0.31759706 2.6295493
0.87394583 -0.3205145 2.6283629
0.92662638 -0.31417176 2.6266549
0.9761948 -0.31537154 2.6253328
1.024495 -0.31543124 2.6241937
1.0760689 -0.3198078 2.6266043
1.1249241 -0.31170046 2.6121202
1.1778532 -0.31341442 2.6120932
1.2203305 -0.31751418 2.6376181
2.5342066 -0.32646337 2.6262116
0.73389751 -0.27791858 2.6347816
0.77360868 -0.27823851 2.6303661
0.8278954 -0.27906933 2.6276467
0.87567109 -0.27980599 2.6246269
0.92406797 -0.27412078 2.6224046
0.97307134 -0.27503821 2.6199491
1.0234647 -0.27380425 2.6152644
1.0744781 -0.26988328 2.6136613
1.1251074 -0.27204791 2.6121013
1.1756361 -0.27286729 2.6102765
1.2135088 -0.27541873 2.6260424
2.5324667 -0.27716029 2.6292026
0.73324478 -0.22598436 2.6357327
0.77261931 -0.22615974 2.630295
0.82662719 -0.22677472 2.6269462
0.87469274 -0.22746651 2.6250663
0.92257404 -0.2280376 2.6211276
0.9772557 -0.22761108 2.618808
1.0241588 -0.22958994 2.614969
1.0737317 -0.22258815 2.6132424
1.1243365 -0.2261591 2.6121054
1.1745851 -0.22603515 2.6110649
1.2105722 -0.22109549 2.6232436
2.5268497 -0.22742145 2.6243238
0.73257101 -0.1741461 2.6358933
0.77246135 -0.17440534 2.6323695
0.82634079 -0.17486238 2.6287088
0.87409693 -0.17532669 2.6259563
0.92236954 -0.17585123 2.6232512
0.97806865 -0.17647691 2.6198123
1.0284076 -0.17724712 2.6193309
1.0761182 -0.17641284 2.6142735
1.1261756 -0.17998274 2.6115496
1.1735533 -0.17929769 2.6112616
1.2054647 -0.17340554 2.6146462
2.5290716 -0.17873217 2.6328795
0.73271984 -0.12255011 2.6383424
0.77151793 -0.12255047 2.6311026
0.82517976 -0.12284786 2.6269517
0.8772009 -0.1213966 2.6253211
0.92434317 -0.12545654 2.6221828
0.97781032 -0.12411543 2.621129
1.0270619 -0.12451623 2.6179564
1.0771292 -0.12498791 2.6151466
1.1273319 -0.12542295 2.61111
1.1727625 -0.12604003 2.6116583
1.2052155 -0.12665251 2.6159506
2.5264616 -0.1327464 2.6293805
0.73230153 -0.070865288 2.6380689
0.77117991 -0.070869364 2.6312056
0.82521099 -0.071066014 2.6283064
0.87923175 -0.071237251 2.6236291
0.92768222 -0.071464762 2.6215675
0.9767319 -0.071703456 2.6195672
1.0266751 -0.071992606 2.6183038
1.0765198 -0.072234899 2.6150064
1.1279044 -0.072565548 2.613786
1.1730622 -0.072889872 2.6137159
1.203897 -0.073145606 2.6144884
2.5195568 -0.080339693 2.6239669
0.73211795 -0.02570224 2.6379473
0.77131659 -0.025712198 2.632184
0.82534772 -0.025769608 2.6292863
0.87840348 -0.027029889 2.6274135
0.9251439 -0.024593899 2.622931
0.9770959 -0.025988303 2.6210871
1.026289 -0.026060475 2.617888
1.0763814 -0.0261508 2.6152499
1.1281409 -0.026265873 2.6149192
1.1722052 -0.026357569 2.6124218
1.2048553 -0.026471818 2.6171758
2.5207107 -0.031553585 2.6290236
0.73177099 0.019448668 2.6366842
0.77187598 0.019486647 2.6340363
0.82622969 0.019556738 2.632077
0.87970203 0.019608332 2.6256056
0.92738026 0.019663053 2.6212771
0.97708476 0.019764967 2.6210444
1.0270939 0.019857539 2.6199188
1.0771103 0.019942302 2.617023
1.1271942 0.020023368 2.6127198
1.1723734 0.020136351 2.612776
1.2040772 0.020235328 2.6154752
2.5154929 0.02541725 2.6235201
0.73250854 0.071086615 2.6387138
0.7717905 0.071147136 2.6331496
0.82572752 0.071352944 2.6298666
0.87339538 0.071549974 2.6269896
0.92134929 0.07176771 2.6235063
0.97732192 0.072058536 2.6209979
1.0269743 0.072347827 2.6189463
1.0766884 0.072618864 2.6153145
1.1274383 0.072933443 2.6125984
1.1724759 0.073284499 2.6122954
1.204812 0.07364203 2.616353
2.5123301 0.082194097 2.6191695
0.73347205 0.12287649 2.6408834
0.77242601 0.12291639 2.6340194
0.82605982 0.12321459 2.6295705
0.8773461 0.12353808 2.62552
0.92509228 0.12397826 2.6241753
0.97815537 0.12446629 2.6218934
1.0277776 0.12493611 2.619581
1.0768883 0.12591393 2.6179428
1.126302 0.12541975 2.6138537
1.1740217 0.12659331 2.6142495
1.205284 0.1270944 2.6158881
2.5126927 0.13092186 2.617768
0.73319918 0.17451085 2.6379111
0.7729466 0.17473556 2.6337729
0.82680935 0.17519733 2.6299202
0.87453347 0.17568476 2.6270182
0.92283422 0.17621861 2.6242905
0.97824943 0.17682312 2.6200252
1.0277991 0.17748131 2.6174927
1.0765029 0.17684644 2.6149297
1.1277387 0.18062717 2.6148772
1.1735157 0.17808513 2.6140592
1.2072495 0.17411761 2.6182265
2.5095694 0.17564607 2.6197655
0.73361409 0.22631904 2.6367259
0.77378017 0.22673173 2.6339195
0.82763875 0.22730801 2.6298378
0.87593013 0.22806744 2.6284599
0.92382014 0.22865276 2.6243086
0.97314209 0.22951937 2.622781
1.0201577 0.22557402 2.6182203
1.0724025 0.22455639 2.6167614
1.123922 0.22564222 2.6155627
1.1763115 0.22388676 2.6113048
1.210824 0.22161469 2.6234167
2.5210216 0.22987102 2.6357422
0.73233819 0.28052032 2.6368032
0.77454591 0.27880383 2.6331367
0.82863241 0.27957168 2.6295943
0.87563574 0.27866355 2.628058
0.92516702 0.27473819 2.625108
0.97483063 0.27586231 2.6242607
1.0255457 0.27153954 2.6209803
1.0740324 0.27116805 2.6176407
1.1249776 0.27231103 2.6148834
1.1767032 0.27356464 2.6121986
1.2157862 0.27640498 2.6305044
2.6135664 0.26705641 2.6354964
0.73338765 0.3262603 2.6394138
0.77554417 0.32459229 2.6330626
0.825405 0.32402784 2.6290917
0.87447613 0.32533154 2.6275916
0.92624682 0.32089815 2.6245914
0.97464371 0.32175148 2.6200922
1.0248849 0.32311788 2.6189144
1.0757077 0.32455072 2.6174746
1.1263839 0.32581931 2.6138287
1.1784526 0.32738641 2.6116951
1.2246718 0.32591748 2.6458557
0.73166978 0.37081292 2.6388414
0.77634937 0.3704204 2.6316454
0.82397181 0.37139592 2.6291296
0.87275738 0.37277016 2.62869
0.92633748 0.3725107 2.6241913
0.97493011 0.37666968 2.6218059
1.0270097 0.37662515 2.6193836
1.0778002 0.37825301 2.6175718
1.1224605 0.37619805 2.6145606
1.1761308 0.37613392 2.6142414
1.2253308 0.3532337 2.6447959
2.7253163 0.3778789 2.6275628
0.73183268 0.42293456 2.6386621
0.77850246 0.42355505 2.6335628
0.82578045 0.42443395 2.6294799
0.87398899 0.42566285 2.6268988
0.92643851 0.42512873 2.623616
0.97531986 0.43059492 2.6222565
1.0222069 0.4264563 2.6173937
1.074261 0.42638072 2.6168709
1.124223 0.42402583 2.6129448
1.1738472 0.4207401 2.6123836
1.2009226 0.44426909 2.6153164
2.7357924 0.42677698 2.6280191
0.7328276 0.47563818 2.6361711
0.77832675 0.47505867 2.6317322
0.82579094 0.47933912 2.6299925
0.87583184 0.4790554 2.6262159
0.92402679 0.47366518 2.6226754
0.97362322 0.47541308 2.6206858
1.0252559 0.47470021 2.6189051
1.0748318 0.47272912 2.6176758
1.1257508 0.4745672 2.6139519
1.1706747 0.47654906 2.612222
1.2025316 0.47181281 2.6154087
2.7395859 0.47849652 2.6238682
0.73469156 0.52908033 2.6360474
0.77360612 0.5258829 2.6327374
0.82237798 0.52434087 2.6287107
0.87809223 0.5263288 2.6268921
0.92612457 0.5208962 2.6225417
0.9759298 0.5228706 2.6206977
1.0268565 0.52524638 2.6201217
1.0752507 0.52549487 2.6153255
1.125402 0.52773768 2.6156571
1.1738638 0.52493703 2.6128664
1.2090249 0.52179664 2.6230321
2.692014 0.54560727 2.6456995
2.721817 0.52834183 2.619323
0.73014086 0.56325495 2.6398511
0.77562314 0.56022424 2.6381905
0.8244561 0.55851054 2.6306472
0.87395018 0.56078786 2.6310666
0.92385048 0.5630731 2.6306906
0.9761104 0.56303835 2.6288753
1.0301552 0.56026405 2.6237161
1.0724112 0.56145871 2.6179154
1.1301657 0.56024331 2.6183529
1.1742314 0.55868417 2.6157792
1.2109357 0.56645161 2.6380863
2.7139316 0.56192338 2.6161289
2.7801189 0.589378 2.6441331
2.8170266 0.59173179 2.6303957
2.8582056 0.59673798 2.6360795
2.8237596 0.61242205 2.6493878
2.8987007 0.60154355 2.6404424
2.9396253 0.61528718 2.6427178
2.9671113 0.62632084 2.6323302
2.9892826 0.66692185 2.6444235
3.1208274 0.73940438 2.645308
3.1349022 0.7798214 2.6482852
3.1573648 0.77156413 2.6356468
3.1470289 0.82003486 2.6491985
3.1762483 0.8041656 2.6445162
3.2249758 0.8227877 2.6363585
3.1981108 0.86609411 2.6481011
3.2328677 0.86101121 2.6452227
3.2819409 0.87259853 2.6413136
3.3255341 0.87543517 2.6284752
3.1369424 0.9341653 2.6438813
3.1744602 0.92105788 2.6467955
3.222605 0.92822146 2.6441736
3.2802982 0.92438865 2.646498
3.3238757 0.92315364 2.6378317
3.3591545 0.9276222 2.6317964
3.1481545 0.95622998 2.6478219
3.1551156 0.97711176 2.6480525
3.3215675 0.97323841 2.6395345
3.389576 0.9749608 2.6449018
3.3195591 1.0140387 2.6436875
3.3655975 1.0222101 2.6461208
3.2282073 1.0798018 2.6480155
3.2601051 1.0649452 2.6461687
3.3459136 1.0706751 2.6499419
3.3735471 1.0636181 2.6406825
3.1292808 1.1313874 2.6452482
3.1671872 1.1193399 2.6496799
3.3276424 1.1390731 2.6477342
3.3548136 1.13201 2.6384771
3.3034377 1.1859267 2.6460953
3.3821762 1.1805544 2.6471033
3.2738576 1.2015604 2.6495519
3.3234992 1.2322134 2.6485865
3.359 1.2283587 2.6461601
3.2762578 1.2642719 2.6476116
3.3168535 1.272475 2.646244
3.3756051 1.2738963 2.645396
3.3169675 1.3154827 2.6489818
3.095407 1.4139135 2.6496789
3.1022754 1.4361949 2.6474001
3.2388542 1.4050421 2.6497965
-1.0741417 1.4934235 2.6299281
3.353101 1.497297 2.6498337
-1.0768412 1.5358282 2.6357386
3.2362907 1.5104198 2.6410148
-1.0812088 1.5799946 2.6370308
3.1938903 1.5675563 2.6482089
3.3421416 1.5813117 2.6416428
-1.0747646 1.6256762 2.6202242
-1.0860356 1.6875595 2.6249678
-1.0842886 1.7125978 2.6240401
3.2673979 1.7439508 2.6450179
-1.0855907 1.772812 2.613755
-1.0830857 1.8193195 2.6200325
-1.0866266 1.8745657 2.6343315
-1.0881226 1.9301722 2.6208131
-1.0905528 1.972437 2.6179984
-1.0931401 2.0767679 2.6210995
-1.0993031 2.127588 2.641443
-1.1022322 2.1733761 2.6202931
-1.0915816 2.184149 2.6390526
-1.0980275 2.2213721 2.6371374
-1.1042278 2.2502317 2.6400623
1.676363 2.4303288 2.6297071
1.7296653 2.4346149 2.6261284
1.7790761 2.4284213 2.6188235
1.8251616 2.4292238 2.6236298
1.8834562 2.4380341 2.6228294
1.933874 2.4375193 2.626112
1.9712934 2.4405165 2.6215341
2.0243483 2.4420035 2.6260631
2.0758717 2.4407921 2.6271455
2.114671 2.4451251 2.6382685
2.1756382 2.4431617 2.6392212
2.2212086 2.4429858 2.6307211
2.2749999 2.4416912 2.6297944
2.3271973 2.4331546 2.6212256
2.3778679 2.4323699 2.635262
2.4247854 2.4413671 2.6256948
2.4726832 2.4317636 2.6221399
2.5293355 2.4301279 2.6268106
2.5863132 2.437777 2.6238289
2.6209254 2.4323285 2.6381626
2.6704173 2.4319811 2.626085
2.7216239 2.4372237 2.6233659
2.7851386 2.4428351 2.6380303
2.808538 2.435791 2.6328259
2.8541212 2.4477482 2.6480193
2.123898 2.4538581 2.6166527
2.167171 2.4522495 2.6147492
2.2500062 2.4532576 2.605237
2.7765291 2.4552705 2.6167688
-0.21222949 -0.56166983 2.6953514
-0.17871879 -0.55893701 2.6837823
-0.12622352 -0.55687022 2.6757984
-0.07476531 -0.55927646 2.6886435
-0.029189933 -0.5591166 2.6884432
0.022776043 -0.55699879 2.6783016
0.28328717 -0.57288909 2.6805587
0.3301357 -0.56859362 2.6885374
0.37858272 -0.56540692 2.6755757
0.42667437 -0.56437433 2.6786542
0.4777596 -0.5634228 2.681448
0.50269175 -0.55181456 2.6875544
0.53510427 -0.53948325 2.6757751
0.5780319 -0.53516734 2.675132
0.62556809 -0.53372288 2.6764522
0.67738944 -0.53037596 2.6809249
0.72474259 -0.51857013 2.6740901
0.77257955 -0.51264709 2.6695874
0.82486945 -0.51135105 2.6758888
0.87546951 -0.51717329 2.6692481
0.92419863 -0.5120945 2.6715825
0.97530276 -0.50877649 2.6709735
1.0270164 -0.50578541 2.6743605
1.07149 -0.50665772 2.6696925
1.1296692 -0.50574738 2.6637073
1.1749483 -0.50376868 2.654669
1.2317418 -0.50686252 2.6764855
1.275824 -0.50676173 2.6684074
1.3162973 -0.50247103 2.6861515
1.3646061 -0.51184005 2.6825743
1.4162875 -0.52695543 2.6766148
1.4649082 -0.52458745 2.678472
1.5026579 -0.54214132 2.6814477
2.4296398 -0.53485197 2.6773562
2.4906049 -0.51285213 2.694613
0.74533361 -0.48232114 2.6948869
0.79029781 -0.48000339 2.6927478
0.80865902 -0.4843457 2.6945832
0.87129009 -0.49769127 2.6993399
0.97327614 -0.49821627 2.6784439
1.0987402 -0.49265492 2.6945977
1.1677868 -0.49579656 2.6934843
1.2253928 -0.49960151 2.698915
1.2599401 -0.49952406 2.6870947
2.5123646 -0.47608453 2.6801863
0.74803078 -0.43203789 2.6976829
2.5253739 -0.42536771 2.6748774
0.745978 -0.35792664 2.6974373
2.5292218 -0.37979355 2.6770499
0.72601098 -0.3264055 2.6605399
0.76582712 -0.34168148 2.6702492
0.82906938 -0.34611115 2.6942394
1.1280526 -0.33650529 2.6530559
1.1696676 -0.33879042 2.6608295
1.2226528 -0.34221792 2.674823
2.529361 -0.33014873 2.6827848
0.72269547 -0.2810773 2.6686265
1.2619742 -0.27634534 2.6969481
2.5270519 -0.28391561 2.677022
0.7253204 -0.22960934 2.6816428
1.2614768 -0.22785689 2.6990438
2.5312438 -0.22983679 2.6703691
0.72554249 -0.17716348 2.6850924
1.258741 -0.16528745 2.6963646
2.5229096 -0.18007708 2.6724532
0.7265842 -0.1248115 2.6908882
1.2546867 -0.12352255 2.6892145
2.5260108 -0.12652351 2.6706095
0.72732711 -0.072306037 2.6948915
1.2518759 -0.07523416 2.6843956
2.5199826 -0.084065557 2.6784413
0.72683293 -0.026212066 2.6936035
1.2492732 -0.027149597 2.6794393
2.5110462 -0.03176881 2.6647062
0.72543418 0.019772211 2.6884129
1.2489033 0.020763896 2.6786344
2.4999206 0.033620752 2.6528149
2.5091131 0.0064365421 2.6730349
0.7242294 0.072189048 2.6833129
1.2490196 0.054981589 2.6785457
1.2539402 0.082675397 2.6885617
2.5079904 0.074862264 2.6759243
0.72070575 0.12396685 2.6689451
1.2531525 0.12383445 2.6857193
2.5116346 0.13252954 2.6778185
0.71877635 0.1757161 2.6598055
1.2572101 0.17245892 2.6924808
2.4950199 0.18125013 2.6729007
2.5064521 0.18135871 2.6666708
0.71937418 0.22792806 2.6593375
1.2618256 0.23531295 2.6990094
2.5143931 0.23148133 2.6748602
0.71954632 0.27357841 2.6570721
2.5821884 0.27391362 2.6860161
2.6188622 0.2818774 2.670877
0.71935618 0.31907976 2.6529329
2.5878277 0.30305362 2.6997325
2.6275511 0.32168293 2.6917503
2.66292 0.3266528 2.6718619
0.71972352 0.36483374 2.6503074
1.2362032 0.383773 2.6655145
2.592154 0.37919897 2.6958399
2.6318483 0.36763552 2.6963475
2.6732202 0.37517384 2.6846883
2.7120233 0.38076276 2.666996
1.2424577 0.42703056 2.6744912
2.6306906 0.44170079 2.6961269
2.6736162 0.42761192 2.6943109
2.7208416 0.42973542 2.6773527
1.2491372 0.46391577 2.6847396
1.2534944 0.48636594 2.691457
2.6275709 0.47157982 2.6963568
2.6730199 0.47514787 2.6947885
2.7286506 0.47393933 2.6786656
0.68378943 0.53966266 2.6936359
0.71720874 0.52817023 2.6847692
1.257881 0.51595563 2.6971138
2.6441853 0.52916318 2.6964464
2.6851494 0.53454691 2.6839821
2.7267308 0.51063311 2.6805298
0.67907828 0.55660391 2.6834602
0.71888453 0.56995517 2.674607
0.77225035 0.58847278 2.68818
0.82334709 0.59157747 2.6927717
0.86820698 0.59470314 2.6982038
0.99754632 0.57787758 2.6521795
1.0314521 0.58184421 2.6630807
1.0779666 0.58507937 2.6664536
1.1289419 0.59039903 2.6785862
1.1820369 0.59643865 2.6931782
1.2206521 0.58818185 2.6746655
1.2608747 0.56607884 2.6964493
2.6312952 0.57422227 2.6963348
2.6693463 0.57936013 2.6876228
2.7186029 0.58109933 2.6661534
2.5911646 0.63938951 2.6946161
2.6260986 0.63111722 2.6905413
2.6705081 0.62150621 2.6871617
2.7210367 0.62224597 2.6769316
2.7696576 0.62215126 2.668503
2.8108625 0.63736796 2.6705141
2.8691931 0.62731254 2.6572437
2.9171302 0.63626617 2.6621809
2.9595447 0.64632595 2.6550739
2.5841985 0.66729873 2.6919661
2.622864 0.68352884 2.6921959
2.6781387 0.67185158 2.6878331
2.7339983 0.67417967 2.6826091
2.7744553 0.6822024 2.6799564
2.8256721 0.669361 2.6727707
2.8758693 0.68049353 2.6776915
2.9202404 0.67605865 2.6656599
2.9672866 0.67499161 2.6561806
3.0152509 0.69086164 2.6633916
3.0653319 0.69611573 2.6567242
2.5910401 0.72443753 2.6975703
2.6293387 0.7224223 2.6869998
2.6782146 0.72050112 2.6801765
2.7274723 0.73528558 2.6834676
2.7799823 0.72239137 2.6785908
2.8299415 0.72015226 2.6688447
2.8902349 0.72296619 2.6735933
2.9171968 0.72528219 2.6651573
2.9737806 0.7236138 2.6683702
3.0213463 0.72862035 2.6603942
3.0710363 0.72489589 2.6553795
2.5947182 0.76809692 2.6910222
2.6297941 0.7679885 2.6830361
2.6814442 0.78406852 2.6897488
2.727174 0.77554649 2.6816185
2.7700365 0.77160311 2.6766427
2.8193283 0.7779724 2.6745148
2.8784428 0.76908964 2.6849935
2.9196923 0.77298427 2.6730669
2.9718614 0.7739588 2.6629777
3.0291932 0.78066224 2.666682
3.0793061 0.76930463 2.661088
3.1064839 0.78653657 2.6557016
2.5893514 0.8400529 2.6996801
2.619808 0.82447982 2.6874495
2.6707761 0.82670808 2.6838546
2.729121 0.82140088 2.6829717
2.7783725 0.83227694 2.6778409
2.8116412 0.82243729 2.6721854
2.8729248 0.82669306 2.6782684
2.9307168 0.82995123 2.669071
2.9764266 0.82617223 2.6625938
3.0182118 0.81779242 2.6612411
3.0741248 0.83135444 2.6667244
3.1260018 0.82866073 2.6628976
3.1840212 0.83894491 2.6542881
2.5969934 0.87690544 2.6980178
2.6285319 0.87600708 2.6862407
2.6735115 0.87658447 2.6814694
2.7238319 0.87577027 2.6850016
2.7639656 0.87145787 2.6775846
2.8203657 0.87501371 2.6803553
2.8681285 0.88166416 2.6702142
2.9178567 0.87649643 2.6783166
2.9780188 0.87461054 2.6682775
3.023036 0.88158375 2.6689894
3.0744503 0.86922902 2.662694
3.1301048 0.88208276 2.6664474
3.1666505 0.87195402 2.6533308
3.2089264 0.88788521 2.6519623
3.2546673 0.89533299 2.6554477
2.6201026 0.92497641 2.6930463
2.6709774 0.91918021 2.6866481
2.7154541 0.92401147 2.6789382
2.7764361 0.92543358 2.6835666
2.8235025 0.92337871 2.6816316
2.8693914 0.92860609 2.6781199
2.9299626 0.92848617 2.6717651
2.9721916 0.92110765 2.6667752
3.0284052 0.92086732 2.6688147
3.0737448 0.93226773 2.6646931
3.1221774 0.92098969 2.6575363
2.5962915 0.98619837 2.6983669
2.6308618 0.97216767 2.6906559
2.6702178 0.97708303 2.6816685
2.7234576 0.97222292 2.6865964
2.7708244 0.97078919 2.6809571
2.8174782 0.98381758 2.6828339
2.8752186 0.97350788 2.6761138
2.9115031 0.96763194 2.6623082
2.9740262 0.97324741 2.6668177
3.0259082 0.9781701 2.6668358
3.0706599 0.97232527 2.6645606
3.1207922 0.97835207 2.6600029
3.1792717 0.98166376 2.6511948
3.21984 0.97890735 2.6536665
3.2728782 0.98305535 2.6558118
3.3974891 0.95772243 2.6565011
2.5843616 1.0263627 2.6943531
2.6235523 1.022938 2.6888313
2.6672027 1.0246286 2.6742573
2.7231598 1.0191752 2.6779718
2.7719944 1.0326091 2.6825559
2.8190062 1.0212358 2.678194
2.8646021 1.030116 2.6821723
2.9215209 1.0193954 2.6736491
2.9626648 1.0264012 2.6717043
3.0246606 1.0269387 2.6679387
3.0814683 1.0274873 2.6696777
3.129338 1.0247289 2.662672
3.1840556 1.0334401 2.6576939
3.2178023 1.0287644 2.6545665
3.2714236 1.0249792 2.6569073
3.3049507 1.0443708 2.657335
2.590966 1.0776199 2.6962414
2.6306171 1.0745031 2.6910911
2.6799006 1.0687668 2.6828709
2.7390552 1.0757663 2.690567
2.7814488 1.0729961 2.6850128
2.8266563 1.078948 2.6725731
2.890373 1.0725228 2.6770766
2.9225407 1.0776969 2.6730139
2.9770269 1.072262 2.6733143
3.024863 1.0702659 2.6627998
3.0812495 1.0793114 2.6644084
3.1218462 1.0723373 2.6580703
3.1713374 1.0680612 2.6585946
3.2023103 1.0869752 2.6576099
3.3274698 1.0688609 2.6579535
3.3639781 1.096004 2.6581519
2.597357 1.1150846 2.6904814
2.6286445 1.1210606 2.6898186
2.6739142 1.1220163 2.6830037
2.7311933 1.120586 2.6834705
2.7834826 1.1167018 2.6776955
2.8339629 1.1315298 2.6857181
2.8695219 1.1321881 2.6787648
2.9214861 1.1264007 2.6727254
2.9737613 1.1267563 2.6727092
3.0203755 1.1226524 2.6733849
3.0725131 1.1243159 2.6645169
3.1159308 1.1310302 2.6564786
3.1765709 1.1227006 2.6574669
3.2242081 1.1177855 2.6558735
3.2774246 1.1209424 2.6559637
3.3163261 1.1287398 2.6588597
2.5976541 1.1928462 2.6973338
2.6258113 1.1781605 2.6918697
2.6806409 1.1648175 2.6897945
2.7159364 1.1749539 2.6817393
2.7784147 1.1714036 2.6781268
2.8305042 1.1700566 2.6858363
2.8707445 1.1754541 2.6731257
2.9100432 1.1620941 2.6657619
2.9698672 1.1749716 2.6692858
3.028698 1.1714234 2.6673431
3.0731859 1.1768514 2.6586027
3.1295853 1.173864 2.6547575
3.170686 1.1821536 2.6553442
3.2262423 1.1784122 2.6582637
3.2657661 1.1696196 2.6530409
3.3078957 1.1680771 2.6562915
3.3633721 1.1784798 2.6549377
2.6200287 1.2255388 2.6934631
2.6754749 1.2260677 2.6869953
2.729821 1.21807 2.687072
2.7657907 1.2248168 2.6831987
2.8295715 1.2188414 2.6842957
2.8663082 1.2255365 2.6795094
2.9282937 1.2238132 2.6800978
2.9670105 1.2257204 2.6746213
3.0234351 1.2262347 2.6689789
3.0754795 1.2199633 2.6602113
3.1314633 1.2299606 2.6605508
3.175077 1.2244138 2.6566234
3.2144935 1.2226186 2.6588037
3.2751224 1.2346994 2.6572418
3.3172288 1.2103828 2.6504097
2.5956755 1.2794003 2.69647
2.6325541 1.2730129 2.6931031
2.6743064 1.2741165 2.6844409
2.7205298 1.2771504 2.6791637
2.7771802 1.2659814 2.679637
2.8252187 1.2821113 2.6816564
2.8864169 1.2751821 2.6843808
2.929378 1.2724147 2.6713111
2.9784265 1.2789724 2.6750765
3.0186279 1.281574 2.670171
3.0757747 1.277668 2.6661
3.1253865 1.2770032 2.6612577
3.1807466 1.2734882 2.6622617
3.2149599 1.2670186 2.6551816
3.2709162 1.2854095 2.6531808
3.3521826 1.2822721 2.6574016
2.5897443 1.3471968 2.6971104
2.6222196 1.3236362 2.6922143
2.6753304 1.3208444 2.688102
2.7250757 1.3258134 2.6863675
2.7709975 1.3286854 2.6796765
2.8303874 1.3260957 2.6847665
2.8726966 1.3282901 2.6819098
2.9246044 1.3319097 2.6758375
2.973563 1.3182707 2.6725597
3.024272 1.3283148 2.6666112
3.0686352 1.328674 2.6694782
3.1135488 1.3276199 2.6665606
3.1654367 1.3279034 2.663125
3.232873 1.3206375 2.6584795
3.2733848 1.32794 2.6518049
3.3404467 1.3445547 2.6603346
3.3796797 1.3226383 2.668334
-1.0752765 1.3800693 2.6729243
2.6324372 1.3707482 2.6880794
2.675946 1.38515 2.6881237
2.7253442 1.3728738 2.6886413
2.775717 1.3720843 2.6763573
2.836256 1.3716173 2.6845174
2.8827264 1.371415 2.6811128
2.9195261 1.3786526 2.6753807
2.9817522 1.3759634 2.6722996
3.0302372 1.3729308 2.6732569
3.0702019 1.3700782 2.6666031
3.1220293 1.3755112 2.6683509
3.181303 1.3732522 2.6610496
3.2349377 1.3741136 2.6582756
3.2678494 1.3798666 2.6511068
3.3328536 1.3731648 2.6669781
3.3546426 1.3899593 2.6565373
-1.0747243 1.4237484 2.6755714
2.6182556 1.4247581 2.698585
2.6741936 1.4265915 2.6923854
2.7245331 1.4312658 2.6891174
2.770577 1.4230553 2.6827176
2.8271132 1.4222207 2.6893597
2.8694968 1.4203274 2.6823814
2.9267795 1.4209378 2.6713388
2.9785926 1.4169034 2.6612446
3.0324402 1.428256 2.661377
3.0686898 1.4198782 2.6566038
3.1329174 1.4123887 2.6643157
3.1913738 1.4303908 2.6667094
3.222976 1.4261292 2.662806
3.2680335 1.4232695 2.6526051
3.3213885 1.42661 2.6598737
3.3617461 1.4127907 2.6544759
-1.0723199 1.4644562 2.6616983
2.6143928 1.4954686 2.698585
2.6864963 1.4764674 2.6941335
2.7274878 1.4743221 2.6828976
