ply
format ascii 1.0
comment PCL generated
element vertex 1555
property float x
property float y
property float z
element camera 0
property float view_px
property float view_py
property float view_pz
property float x_axisx
property float x_axisy
property float x_axisz
property float y_axisx
property float y_axisy
property float y_axisz
property float z_axisx
property float z_axisy
property float z_axisz
property float focal
property float scalex
property float scaley
property float centerx
property float centery
property int viewportx
property int viewporty
property float k1
property float k2
end_header
-2.8282256 2.2921882 3.1181116
-2.6865849 2.2940631 3.1378505
-2.6239202 2.2970161 3.1307397
-2.213306 2.2996554 3.1365185
-2.1726472 2.2980888 3.1240826
-2.7220953 2.3079493 3.1119442
-2.5791752 2.3058505 3.1238098
-2.5222454 2.31248 3.1209886
-2.4705026 2.3130782 3.1208355
-2.3757682 2.3114762 3.108366
-2.3241978 2.3105342 3.1227322
-2.2785759 2.3152366 3.1260233
-2.2413795 2.3080058 3.1353924
-2.198915 2.3045795 3.1032531
-2.1033504 2.306669 3.1145458
-2.0666215 2.308816 3.1235454
-2.0153074 2.3045063 3.1121192
-1.9715223 2.3091762 3.1290665
-1.9245808 2.3087323 3.1218913
-1.880012 2.3113 3.1265225
-1.8181678 2.3038828 3.1219008
-1.7726786 2.3089697 3.1192424
-1.7178878 2.3127453 3.1110687
-1.6744823 2.3159914 3.1221242
-1.6266294 2.315347 3.1426318
-1.5786201 2.3148041 3.1302588
-1.53354 2.3224382 3.1192694
-1.4714794 2.322701 3.1240749
-1.4291934 2.3194168 3.1250632
-1.3781204 2.3211741 3.1267123
-1.3102353 2.3180265 3.1062276
-1.2760621 2.3227458 3.1253943
-1.2281085 2.3241985 3.1141407
-1.178128 2.3296645 3.1286764
-1.1248282 2.3282828 3.1332405
-1.068928 2.3160906 3.1313684
-1.0240424 2.3259785 3.114779
-0.97646803 2.3198998 3.1241608
-0.92112172 2.3330398 3.1290367
-0.87487549 2.3338318 3.104286
-0.82362998 2.3366814 3.1289361
-0.77483284 2.3297596 3.1202908
-0.7262224 2.336339 3.1300485
-0.67540187 2.3339016 3.1305308
-0.62776387 2.333853 3.117156
-0.58137041 2.3265054 3.1143191
-0.52549767 2.33883 3.1304746
-0.47433189 2.3326638 3.1199379
-0.42104861 2.3412507 3.1203291
-0.37672824 2.3411021 3.1247168
-0.33052129 2.3275759 3.1106722
-0.2741313 2.3396339 3.1227288
-0.22115058 2.3405852 3.1273878
-0.1807715 2.3379998 3.1174676
-0.11561255 2.3383832 3.1238418
-0.072092064 2.3443911 3.123843
-0.030840883 2.3374715 3.120836
0.022098951 2.3363178 3.1193449
0.071504086 2.3411896 3.1218858
0.13248692 2.3404267 3.1226561
0.17746249 2.3381488 3.1212444
0.22848839 2.3412902 3.1250951
0.26654115 2.3452227 3.1256509
0.32349393 2.3404253 3.1286373
0.37822545 2.3499484 3.136539
0.43445086 2.3388813 3.1296422
0.47326365 2.3446207 3.1305876
0.51135337 2.3483572 3.1191225
0.5772022 2.3452032 3.1407437
0.62700564 2.348578 3.1022403
0.37731016 2.3531137 3.1236103
0.53932804 2.3540308 3.1230204
0.5705269 2.3541477 3.1304567
0.62602824 2.3527751 3.1258438
0.6691494 2.3538797 3.1379116
0.7227717 2.3530638 3.1270733
0.77812725 2.3575163 3.1223872
0.82963067 2.361542 3.1293256
0.87438202 2.3655822 3.1310875
0.92520052 2.3636341 3.1255031
0.98069632 2.3727248 3.1337926
1.0298504 2.3651481 3.1249061
1.0774009 2.3665233 3.1363835
1.1108264 2.3596139 3.1165686
1.2229105 2.3636439 3.1262245
1.276052 2.364702 3.1231887
1.3224342 2.3721237 3.1287932
1.3746431 2.3681345 3.1197701
1.4290522 2.3764815 3.1221211
1.4783462 2.3814564 3.1414788
1.5235722 2.3784103 3.1181874
1.5588239 2.3890507 3.1201096
1.6380274 2.3888917 3.1280119
1.6754758 2.3878469 3.1091413
1.7209209 2.3921354 3.1390007
1.766531 2.3886738 3.1112247
1.8075386 2.3854074 3.1306782
1.8741579 2.3963058 3.114969
1.9195436 2.3970151 3.1390145
1.9874213 2.3960686 3.1001785
2.0458605 2.3989491 3.1204424
2.0651836 2.3984008 3.1082592
2.2216177 2.3994532 3.1160855
1.8398387 2.4022906 3.1429739
1.9591435 2.4095311 3.1394534
2.0315361 2.4054279 3.1402116
2.0954323 2.4104316 3.1121604
2.1319563 2.4084103 3.1199646
2.1845131 2.4119966 3.1113272
2.2274501 2.4057708 3.1242175
2.3268888 2.4154162 3.131443
2.371773 2.4093103 3.1257782
2.4094174 2.4059639 3.1119525
2.4690008 2.4239016 3.1343374
2.5110722 2.4140813 3.1131582
2.5818996 2.4207113 3.1331697
2.6175706 2.4245946 3.1154118
2.6564281 2.4197359 3.1352034
0.77178997 -0.27633032 3.150157
1.6656698 0.62658691 3.1731458
1.674468 0.66781199 3.1802316
1.6887243 0.72713715 3.1728213
1.6966317 0.7704547 3.1906047
1.7208443 0.78276223 3.1693723
1.7315675 0.82926702 3.1723979
1.7657759 0.83888078 3.152643
1.7231268 0.87159491 3.1879303
1.7642254 0.87619877 3.1616297
1.7293828 0.92280686 3.1842694
1.7727464 0.92125648 3.1595645
1.7323292 0.97603405 3.1896644
1.7705039 0.97889221 3.1656258
1.7333622 1.0241448 3.1890574
1.7721449 1.030321 3.1612775
1.7396531 1.0710566 3.1897986
1.7686604 1.076339 3.163136
1.7300768 1.1267531 3.1935897
1.7679229 1.1243995 3.1693869
1.8032649 1.1335281 3.153307
1.7348047 1.1744437 3.1942537
1.7756879 1.1748437 3.1645699
1.8114396 1.1994997 3.1500893
1.7382214 1.2180754 3.1928928
1.7763156 1.2244782 3.1712437
1.7287771 1.278541 3.1941204
1.7694526 1.2757208 3.1754887
1.8036395 1.2758144 3.1531963
1.7400087 1.3315911 3.1933496
1.7801896 1.3224036 3.1707151
1.8120062 1.3256073 3.1536069
1.7495068 1.3578721 3.1897793
1.7745762 1.3767874 3.1764364
1.8067487 1.3743986 3.1552832
1.7437835 1.4293529 3.1980147
1.7773584 1.4278251 3.1791465
1.8071265 1.4233656 3.1533718
1.7477894 1.4682275 3.1926465
1.7791468 1.4732907 3.1720085
1.8009615 1.4947886 3.1588008
1.7747902 1.5279405 3.1885593
1.8172785 1.5332313 3.1627738
1.7806153 1.5727743 3.1924465
1.81444 1.573632 3.1651402
1.8579614 1.5842698 3.1505911
1.7826698 1.6073515 3.1908939
1.8226148 1.6028007 3.1612232
1.8678892 1.6199026 3.1561899
-2.9008141 2.2792168 3.1911469
-2.8867188 2.289753 3.1622727
-2.8379319 2.2851555 3.1894512
-2.7561281 2.2959657 3.151052
-2.7364843 2.2972746 3.1689107
-2.6683373 2.2948778 3.1835928
-2.5723405 2.2974806 3.169136
-2.2507567 2.2974992 3.1614525
-2.2180591 2.2948818 3.1764932
-2.0123739 2.2954571 3.195045
-1.9237458 2.2999775 3.1540208
-1.8247435 2.2953215 3.1729145
-2.6742225 2.3014915 3.1636689
-2.633884 2.3030565 3.1966658
-2.5231004 2.3114357 3.17571
-2.479779 2.3105087 3.1751385
-2.4222121 2.3106117 3.1720605
-2.3655503 2.3108912 3.1686792
-2.3081834 2.3147359 3.1594496
-2.2839565 2.3005478 3.1733894
-2.1761818 2.3232291 3.1791677
-2.1210945 2.3070478 3.1806247
-2.0846207 2.3098185 3.1816287
-2.0287466 2.306422 3.1694412
-1.9779937 2.3097229 3.1910944
-1.9110204 2.3081214 3.1754568
-1.8740376 2.318233 3.1653461
-1.8429312 2.3157849 3.1767874
-1.7807573 2.3088467 3.1797078
-1.7263753 2.3141928 3.1729994
-1.6775298 2.3094723 3.1650152
-1.631979 2.3174338 3.1876593
-1.5601482 2.3151972 3.1710043
-1.5192285 2.3200896 3.1744611
-1.4760768 2.3212287 3.1723022
-1.4299852 2.320003 3.177609
-1.3821992 2.320277 3.1751144
-1.3256992 2.3255544 3.1729088
-1.2780946 2.3201008 3.1706154
-1.224036 2.3283572 3.1750972
-1.1808633 2.3302236 3.1776516
-1.1298907 2.325202 3.1755958
-1.0809711 2.3193185 3.1807537
-1.0249395 2.3164048 3.176286
-0.97394919 2.3328605 3.1719258
-0.92570406 2.3264837 3.1744297
-0.87512118 2.333473 3.1713622
-0.82632661 2.3345063 3.1711583
-0.77799308 2.3302474 3.1713462
-0.72746295 2.3323119 3.1693807
-0.68212402 2.3273385 3.1795669
-0.62658089 2.3359497 3.17383
-0.57550806 2.3352482 3.1770823
-0.52426612 2.3309307 3.1639371
-0.4813064 2.3400824 3.1820815
-0.42600834 2.3418012 3.1731033
-0.37205768 2.3408875 3.1773033
-0.31865343 2.3406763 3.1874936
-0.28148934 2.3379664 3.1719995
-0.22419551 2.3343048 3.1758885
-0.16961941 2.34445 3.1697383
-0.12052935 2.3408744 3.1753676
-0.075779989 2.3382163 3.1729138
-0.031223483 2.3311107 3.1812038
0.022432158 2.3435967 3.180835
0.076145813 2.3465049 3.1841218
0.12500721 2.3434711 3.1700907
0.17424747 2.3412085 3.1738663
0.22378147 2.3411589 3.1800282
0.27639341 2.3366656 3.1758595
0.32727137 2.3404686 3.1807005
0.3891423 2.344322 3.1628118
0.42489743 2.3350286 3.1640019
0.47645181 2.3424499 3.1771531
0.51946205 2.3479712 3.1645374
0.56466228 2.3495765 3.1843317
0.60051805 2.348489 3.1775229
0.67568529 2.3450658 3.1876659
0.74436414 2.3465414 3.1500137
0.76351786 2.3499618 3.1510823
-0.33628038 2.3504453 3.1759837
0.09360119 2.3531637 3.1580393
0.36320463 2.3500896 3.1731672
0.53634059 2.3530948 3.1753039
0.58308733 2.3510203 3.1836624
0.6312412 2.3621178 3.1916966
0.67443311 2.354393 3.1737089
0.71954834 2.353893 3.1649909
0.7749753 2.3574944 3.1868885
0.81428498 2.3662443 3.1636274
0.87372816 2.3611724 3.180542
0.91915911 2.3603868 3.1688855
0.98018384 2.3706512 3.1780965
1.020398 2.3693645 3.184875
1.0798413 2.3737357 3.1846745
1.1321168 2.3670602 3.1753318
1.2764318 2.3667061 3.1726878
1.3301673 2.3698545 3.1792018
1.3727533 2.3784313 3.1771882
1.4239858 2.3789194 3.1726863
1.4732172 2.3694992 3.1666584
1.5167465 2.3783081 3.1631465
1.5706247 2.3879948 3.1560993
1.6198974 2.3900764 3.1706951
1.6777395 2.3881435 3.1674244
1.7245646 2.3912177 3.1806087
1.7774706 2.392189 3.168375
1.827651 2.3923476 3.1783702
1.8726037 2.3997369 3.1683364
1.9132044 2.3939919 3.1844816
2.1351781 2.3928144 3.1565053
2.1590817 2.3970656 3.1500814
1.8949432 2.4031539 3.1626573
1.9735848 2.4073727 3.1757736
2.033922 2.4119034 3.1995492
2.0671313 2.4038444 3.1662912
2.1156271 2.414458 3.1741943
2.1889725 2.4078248 3.1519668
2.2343028 2.4147375 3.1889555
2.2642264 2.4139729 3.1688576
2.3195159 2.4188926 3.1786423
2.3574839 2.415833 3.1659684
2.4387555 2.4247694 3.1844294
2.4684222 2.4231651 3.161099
2.5267065 2.4128673 3.1704888
2.5784049 2.41605 3.1838088
2.6355677 2.4200199 3.1510484
2.7489491 2.4214585 3.1901748
1.6562557 0.63254106 3.2129803
1.6668764 0.67671508 3.2141171
1.6833125 0.72968721 3.2114563
1.6914811 0.77586699 3.2196412
1.704751 0.79964286 3.2012076
1.6955619 0.82042557 3.2195103
1.7068639 0.81766331 3.2019601
1.6933104 0.87352109 3.2182596
1.7010776 0.89166522 3.2163694
1.6878456 0.92809421 3.2232742
1.7016129 0.92624456 3.2100725
1.6934896 0.97431856 3.224515
1.706286 0.98039812 3.207339
1.6919812 1.021696 3.2314661
1.7106411 1.0259798 3.2053499
1.693056 1.0703875 3.2288625
1.7104143 1.0767409 3.2090492
1.6958439 1.1252249 3.2348199
1.7122632 1.1304171 3.213666
1.6926349 1.1726729 3.2370574
1.7085358 1.1812201 3.2171354
1.6906668 1.2300811 3.2386062
1.7101609 1.2251796 3.2151222
1.6983538 1.2797982 3.2402382
1.7065967 1.27281 3.2153754
1.6909059 1.3299217 3.2357094
1.7135149 1.3184912 3.2157886
1.6924951 1.3776522 3.2419918
1.7196435 1.3747779 3.210489
1.6914237 1.4307592 3.2402847
1.7221602 1.4221667 3.2149045
1.6909283 1.4896709 3.2466867
1.7182702 1.4734217 3.2191079
1.6940715 1.5194306 3.2429032
1.7274841 1.5262196 3.2198343
1.6850778 1.5908226 3.2438102
1.7184201 1.5777396 3.2344239
1.7604585 1.5822178 3.2076752
1.6840278 1.6078999 3.2347388
1.7212721 1.6089783 3.2217379
1.7578148 1.6093633 3.2069328
-3.0503547 2.2829235 3.2149222
-2.8719194 2.2906973 3.241116
-2.7331529 2.2909851 3.2191896
-2.6156406 2.2949436 3.2219522
-2.5601845 2.2936907 3.2284544
-2.520195 2.2964048 3.2327228
-2.3691976 2.2932336 3.2406723
-2.1511762 2.2985997 3.2237973
-2.1227176 2.2896216 3.2228098
-2.071965 2.2979152 3.2166107
-1.9919939 2.2947471 3.2047937
-1.7674253 2.2992492 3.2305799
-1.7476292 2.2988153 3.2389946
-2.6875079 2.30989 3.2337868
-2.5364919 2.3027573 3.2058535
-2.4670701 2.3076272 3.2062094
-2.4228337 2.305028 3.2302732
-2.3722224 2.3068144 3.2111807
-2.3319035 2.311074 3.2274315
-2.2789004 2.305846 3.2319963
-2.223948 2.311769 3.2327912
-2.1775067 2.3152511 3.2147918
-2.0830173 2.3090768 3.2063591
-2.0371954 2.3037295 3.2468598
-1.9821805 2.3063176 3.2315822
-1.9234906 2.3143001 3.2161222
-1.88441 2.3135936 3.2229226
-1.8248655 2.3103347 3.2228117
-1.7807722 2.3135743 3.2264953
-1.7231888 2.3116438 3.2267292
-1.661562 2.3128142 3.2112513
-1.6174806 2.3158362 3.2206719
-1.5796102 2.3136766 3.2183521
-1.5283626 2.3199449 3.2350054
-1.4784257 2.3160794 3.2160277
-1.4211956 2.3205159 3.2341726
-1.3695637 2.320817 3.2254353
-1.3286644 2.3280842 3.2236178
-1.2766016 2.327996 3.234082
-1.2236602 2.3263857 3.2282314
-1.1805395 2.3276091 3.2300584
-1.1295924 2.3204215 3.2174964
-1.077584 2.3185914 3.2292809
-1.0213506 2.3116512 3.2239795
-0.97912455 2.3239105 3.224139
-0.91662914 2.3270106 3.2245705
-0.87186646 2.3298697 3.2230761
-0.82050294 2.3294938 3.2208946
-0.77211541 2.3370187 3.2290781
-0.72925657 2.3299747 3.2170968
-0.66393965 2.3283794 3.223732
-0.62630403 2.3240325 3.2235591
-0.57229173 2.3307538 3.2198954
-0.52132004 2.3309209 3.2180328
-0.47606525 2.3313227 3.224231
-0.43109554 2.3379138 3.2295001
-0.37602296 2.3387339 3.2271519
-0.3214848 2.3419871 3.2274768
-0.27255285 2.3378408 3.2223752
-0.23495099 2.3372171 3.2267973
-0.17583494 2.3365126 3.2199905
-0.1217306 2.3364737 3.221899
-0.079708457 2.3361413 3.2283967
-0.031526756 2.3302026 3.2325802
0.018019302 2.3363571 3.2147293
0.080418982 2.340831 3.2254493
0.13104972 2.3409901 3.2278612
0.17611848 2.3393507 3.2239122
0.2174305 2.3352208 3.2197175
0.2705788 2.3318164 3.2171097
0.32553786 2.3289161 3.2268145
0.36535421 2.345938 3.2025847
0.47743955 2.3468049 3.2277784
0.60509861 2.348187 3.2125378
0.70955634 2.3444519 3.226685
0.756091 2.3468158 3.2215445
0.38869169 2.3783541 3.2451289
0.43385002 2.3661389 3.241616
0.52675802 2.3566065 3.2233346
0.56995887 2.3534276 3.2250311
0.63410074 2.3545065 3.2169259
0.68475473 2.3535931 3.2440617
0.73100251 2.3568203 3.2158973
0.78598237 2.3539996 3.2260592
0.82430232 2.3676372 3.2192142
0.8717429 2.362148 3.2198939
0.92737246 2.3629942 3.2083819
0.96906871 2.3608041 3.2237577
1.0285252 2.3649976 3.2244329
1.0782157 2.371902 3.2213163
1.116231 2.3674479 3.2302287
1.1681864 2.3699999 3.2221096
1.2208865 2.3765831 3.2258611
1.3779309 2.3800788 3.2295995
1.4302678 2.3830864 3.225718
1.4711289 2.377769 3.2228804
1.5241028 2.3856714 3.2146256
1.5674375 2.3900988 3.2330616
1.6179806 2.3916073 3.228883
1.6694994 2.3860421 3.2195294
1.7254179 2.381474 3.2203841
1.772561 2.3929937 3.2370443
1.8227817 2.3920059 3.2266815
1.9362259 2.3904107 3.2139823
1.592082 2.4012659 3.2117412
1.8800054 2.4020653 3.2156358
1.9944297 2.4126899 3.222589
2.0272806 2.4077406 3.2451971
2.0802023 2.4211867 3.2235649
2.1208673 2.412128 3.2259159
2.1818058 2.4245076 3.239002
2.2170522 2.4187782 3.2245867
2.2761157 2.4169812 3.2200782
2.3252749 2.4152222 3.2396607
2.3714902 2.4095199 3.2262545
2.4236491 2.4199922 3.2221358
2.4799888 2.41308 3.2267721
2.5212281 2.4119337 3.215297
2.5809326 2.4169972 3.2423444
2.6325369 2.4252665 3.2232029
2.6819179 2.4193454 3.2349415
2.721081 2.4254227 3.2193682
2.807972 2.4322734 3.2312415
1.6980895 0.88186276 3.2537076
1.7031263 1.0862547 3.260031
1.6864181 1.1568699 3.2501647
1.6874592 1.2937829 3.2576413
1.6853905 1.4132324 3.2609084
1.6896288 1.4705907 3.2505763
1.6904676 1.5414988 3.2747512
1.687356 1.5658102 3.2585726
-3.001159 2.2959955 3.2867391
-2.7656174 2.2965226 3.2708254
-2.7325799 2.2869604 3.2730899
-2.6052656 2.2938433 3.2569141
-2.568397 2.2893014 3.2725706
-2.5172892 2.2928741 3.2562566
-2.4601929 2.2997956 3.2515221
-2.3802385 2.2931437 3.2894876
-2.2717476 2.2987747 3.2581475
-2.2396383 2.2973747 3.2747085
-2.0078459 2.2958848 3.2979274
-1.7335947 2.2994356 3.2926431
-2.4855962 2.3024111 3.2981365
-2.4489148 2.3088374 3.2781682
-2.355504 2.3000004 3.2634382
-2.3300314 2.3055005 3.2907324
-2.2183766 2.3064315 3.2520468
-2.1766663 2.3054078 3.2745011
-2.1194172 2.3084314 3.2783501
-2.0682011 2.310077 3.2756958
-2.0111098 2.3082402 3.2693808
-1.9712213 2.3112385 3.2794182
-1.9218346 2.3053968 3.2611582
-1.8710501 2.313889 3.2778878
-1.8208156 2.3104234 3.2720056
-1.781566 2.3107324 3.2909322
-1.7273958 2.3108034 3.2692041
-1.6766897 2.311336 3.26966
-1.6252884 2.3104265 3.2674675
-1.5707803 2.3112369 3.2691224
-1.5352551 2.3143303 3.2811239
-1.4729321 2.3176033 3.2785621
-1.427564 2.315717 3.2807281
-1.3697072 2.3155897 3.2762427
-1.326439 2.3210199 3.2683012
-1.2669512 2.3212879 3.2778742
-1.2254581 2.3240333 3.2747018
-1.1707052 2.3265533 3.2714727
-1.1263025 2.3241265 3.2837715
-1.0778731 2.3224051 3.2777789
-1.0198061 2.3115478 3.278827
-0.97518778 2.3244886 3.2743371
-0.93082017 2.3227477 3.2782586
-0.87441397 2.3284509 3.2711408
-0.82505798 2.3268988 3.2689743
-0.77600086 2.3242111 3.2689872
-0.72363347 2.3398464 3.2795837
-0.67970908 2.3386812 3.2828479
-0.62196487 2.3288488 3.2802861
-0.58251935 2.3311119 3.2646191
-0.52852005 2.3353148 3.2779586
-0.46762484 2.3343532 3.2747979
-0.4232583 2.3355546 3.278312
-0.38410819 2.3368914 3.2815716
-0.32383901 2.3316355 3.2666364
-0.2691972 2.3371642 3.269284
-0.22384194 2.330811 3.2811079
-0.18274483 2.3358641 3.2811837
-0.12355762 2.3446195 3.2866685
-0.077424966 2.3332055 3.2717891
-0.03173396 2.3277802 3.2647676
0.026468635 2.3411925 3.2692955
0.077618718 2.3334649 3.2781487
0.12021898 2.3311682 3.2799003
0.16895075 2.3381324 3.2759829
0.22783262 2.3283966 3.2685087
0.27807593 2.3252528 3.2699764
0.3271834 2.3257229 3.273098
0.36170772 2.3353944 3.2778649
0.47586957 2.3445446 3.2732503
0.5117318 2.3424048 3.2903156
0.5756889 2.3460443 3.2748356
0.61488789 2.3491564 3.2859356
0.76307654 2.3499825 3.2621188
-0.36249492 2.3502805 3.2806382
0.38397887 2.3624065 3.2715721
0.41025043 2.3789759 3.2800961
0.51907021 2.3523757 3.2668488
0.58343792 2.3526804 3.2586083
0.62121439 2.356554 3.258522
0.66788369 2.3607967 3.2795043
0.72788626 2.3558824 3.2770844
0.78228587 2.3521273 3.2615623
0.82489103 2.3635232 3.2791486
0.86876798 2.3607697 3.2564099
0.92461044 2.3640668 3.2717853
0.98126531 2.3670559 3.2782781
1.0325552 2.3635094 3.2732279
1.0749124 2.3664825 3.2533214
1.1196604 2.3629894 3.2753441
1.168869 2.3668647 3.2671142
1.2169334 2.3683984 3.2549565
1.3782839 2.3731298 3.2709651
1.4198996 2.3807452 3.2751884
1.4753011 2.3808134 3.2688854
1.5251205 2.3830595 3.2532156
1.5713564 2.3898215 3.2894769
1.6314603 2.3919084 3.268055
1.8262608 2.3896899 3.2679024
1.899232 2.3991435 3.2964897
1.7318902 2.4029026 3.2879319
1.8814054 2.4093714 3.2752311
1.9223469 2.4078939 3.2681048
1.9720491 2.4143248 3.2863762
2.0263574 2.4091175 3.2814105
2.0625873 2.4051042 3.271101
2.107317 2.4097061 3.2546139
2.1702087 2.4190102 3.2744577
2.2296309 2.4120584 3.2656789
2.2820609 2.4245222 3.2845399
2.3238788 2.4141414 3.2655563
2.4172561 2.4030366 3.2668586
2.4528444 2.406981 3.251452
2.5395784 2.4182982 3.2736106
2.5838823 2.4083126 3.2810059
2.6278071 2.4191144 3.2731071
2.6828055 2.4179497 3.2919674
2.728399 2.4198451 3.2631102
2.7653613 2.4222355 3.2721925
2.9182038 0.6339488 3.3393235
2.8606238 0.73995078 3.3291502
2.8634574 0.76067883 3.3286047
2.9182148 0.82046032 3.3435767
2.8925114 0.9905892 3.3121867
2.9202523 1.1303238 3.3490124
-2.92191 2.2861614 3.3244815
-2.7538841 2.2830389 3.3118453
-2.7309098 2.2819672 3.3260593
-2.6065762 2.2923875 3.3133593
-2.5870667 2.2940457 3.3304853
-2.3691776 2.2919765 3.3317268
-2.32164 2.2969313 3.3338103
-2.2698214 2.2970309 3.310163
-2.2384777 2.2966812 3.3280001
-2.1459167 2.2957118 3.3256457
-2.0276113 2.2981408 3.3424911
-1.9786348 2.297004 3.3151762
-1.9390638 2.2978148 3.3366799
-2.8966341 2.305865 3.3244498
-2.4332867 2.3027844 3.3330176
-2.2997093 2.3062835 3.3109813
-2.2138574 2.3025088 3.3002553
-2.1817021 2.3010755 3.3159833
-2.1122091 2.3017912 3.3040292
-2.0756285 2.3063724 3.3328207
-2.0455158 2.3157592 3.3157454
-1.9313775 2.3087749 3.3115225
-1.8768231 2.3033526 3.328249
-1.8276583 2.3068011 3.321749
-1.7856462 2.3089969 3.3331597
-1.7144009 2.3132777 3.3255382
-1.6871428 2.3185921 3.3311672
-1.6238667 2.3117161 3.326627
-1.589318 2.3234782 3.3494844
-1.5198855 2.3123708 3.3130639
-1.479543 2.3100314 3.3243074
-1.4316646 2.3070271 3.3222313
-1.3806587 2.3100996 3.3164666
-1.3254697 2.3156724 3.3229189
-1.2785424 2.3137558 3.3244209
-1.2241133 2.3185339 3.3246136
-1.1806307 2.3182752 3.3260448
-1.1280732 2.3236864 3.3330455
-1.0715954 2.3202169 3.3266284
-1.0380373 2.3139219 3.3414598
-0.98025656 2.3147779 3.3270001
-0.91775423 2.3210852 3.3312886
-0.87149924 2.3294721 3.3149679
-0.82377094 2.335619 3.3436007
-0.77148163 2.3292527 3.324894
-0.72345448 2.3251965 3.3274202
-0.6737473 2.324151 3.315217
-0.6289537 2.3348944 3.328588
-0.57183701 2.3346126 3.3269491
-0.52413976 2.3292935 3.3254218
-0.47540829 2.3272145 3.3096058
-0.42099151 2.332407 3.3229208
-0.37391764 2.3275361 3.3203616
-0.32773423 2.3347983 3.3199279
-0.27208576 2.3343356 3.3195927
-0.23669422 2.340179 3.3484573
-0.17029418 2.3301466 3.3189638
-0.11976418 2.3374898 3.3220425
-0.065398842 2.3349299 3.3250554
-0.022981348 2.3401692 3.3183687
0.027719568 2.3371592 3.323159
0.074618749 2.3210127 3.3268878
0.12426971 2.3294175 3.3195734
0.15174612 2.3359661 3.309756
0.23472813 2.3289344 3.3141475
0.28064072 2.3189662 3.3152974
0.32765386 2.32635 3.3225493
0.37403199 2.3275583 3.3204155
0.51368076 2.3329241 3.3134224
0.58258367 2.3495092 3.32845
0.67573357 2.349334 3.3141465
0.17136052 2.352802 3.3329027
0.42656732 2.3829863 3.3206642
0.5457558 2.3607795 3.3309853
0.56350559 2.356967 3.3231843
0.62638217 2.3611357 3.3295593
0.67685688 2.3533289 3.319741
0.72458571 2.3566289 3.3165352
0.77589852 2.363137 3.3320668
0.81235647 2.3578424 3.3211946
0.87258083 2.3683572 3.3244164
0.93271369 2.3680289 3.3302326
0.97744024 2.3616257 3.3102465
1.0216365 2.3670573 3.3274634
1.0757475 2.3713632 3.3240592
1.1260898 2.3775225 3.3360076
1.170316 2.3701074 3.3120811
1.2154646 2.3836944 3.3197408
1.4233446 2.3878181 3.3423281
1.5237523 2.3905208 3.3241627
1.5828565 2.3876393 3.3257046
1.6318059 2.3870726 3.3047442
1.665224 2.3888607 3.3239012
1.7320261 2.3969438 3.3239245
1.7734681 2.3924673 3.344373
1.392087 2.4040732 3.3363347
1.6903814 2.4003029 3.3019321
1.7111917 2.4057217 3.324976
1.7769015 2.4036541 3.3151805
1.8287963 2.4103091 3.334152
1.8713242 2.4021022 3.3153894
1.9482546 2.4147735 3.348665
1.9869802 2.4121606 3.3242455
2.0042205 2.4083452 3.3083627
2.1269913 2.4124098 3.3170674
2.1752348 2.4102142 3.3203139
2.2290983 2.4236419 3.3145809
2.2700081 2.4241562 3.3451009
2.3208764 2.4223344 3.3107481
2.3716831 2.4209373 3.3317742
2.4209273 2.4385083 3.3357413
2.4730494 2.4157221 3.3272521
2.5393858 2.4068103 3.3082941
2.5735884 2.4110899 3.3335087
2.6211829 2.4212515 3.3423297
2.6605592 2.4274025 3.3280158
2.738919 2.426616 3.3321385
2.7748754 2.4166932 3.3470297
2.8032794 2.4221277 3.3383546
2.8796937 2.4286909 3.3283834
2.891675 0.532278 3.3614833
2.9461548 0.54874444 3.3850465
2.9532397 0.52972782 3.3959479
2.890491 0.57215774 3.354496
2.9330454 0.57657683 3.3656607
2.9113832 0.62065411 3.3623271
2.9119523 0.66725981 3.3651378
2.9220679 0.77726614 3.366827
2.8981702 0.81037593 3.3608415
2.9111648 0.83433831 3.3716657
2.9187813 0.85690367 3.3761182
2.9158328 0.93285817 3.3685303
2.9253206 1.0191455 3.3859167
2.8885825 1.074825 3.3657641
2.926398 1.0709424 3.3734624
2.9140253 1.1194845 3.3717823
2.9193895 1.1999993 3.3685911
2.8879845 1.2161312 3.3650002
2.9168653 1.2362963 3.3679526
2.9139667 1.2686483 3.3820519
2.9460771 1.8966544 3.3978362
-2.9781444 2.2901809 3.3591096
-2.8816972 2.2893863 3.3629081
-2.7764535 2.29792 3.3947575
-2.6960826 2.2892187 3.3676951
-2.6276412 2.2893074 3.3531806
-2.5135736 2.2953215 3.382391
-2.4748271 2.2891934 3.3940718
-2.4189301 2.2980716 3.3899329
-2.3941069 2.2946401 3.3980198
-2.3372955 2.2914238 3.3689113
-2.2932241 2.299799 3.3568525
-2.2339351 2.2925251 3.3766463
-2.1637874 2.2941542 3.3656034
-2.1425028 2.2934649 3.3759828
-2.0448146 2.2971218 3.3828714
-1.8673106 2.2962351 3.3684642
-2.827024 2.3032043 3.3703454
-2.2792301 2.3067634 3.3793998
-2.2165058 2.3060555 3.3596354
-2.1988916 2.3093452 3.3762455
-2.1149213 2.3065836 3.3640206
-2.0709674 2.3034253 3.3814218
-2.008631 2.3113782 3.377533
-1.9776624 2.310987 3.3924105
-1.9356014 2.3299971 3.3984749
-1.8974684 2.308445 3.3767831
-1.8122547 2.3103535 3.3712707
-1.7661666 2.312602 3.3721042
-1.7285875 2.307462 3.3674853
-1.6689738 2.3100686 3.3701477
-1.6089829 2.3037667 3.3529685
-1.5756897 2.3175745 3.3786087
-1.5245062 2.3146713 3.3594787
-1.4784999 2.3193827 3.3844581
-1.4186871 2.3161671 3.3825614
-1.3688247 2.3196421 3.3791404
-1.3276383 2.3166006 3.373297
-1.2724473 2.3135273 3.3785491
-1.2224324 2.3201375 3.3831773
-1.1695848 2.3159506 3.3811913
-1.1251603 2.3181858 3.3659847
-1.0762773 2.3160641 3.3755422
-1.0272734 2.3181543 3.3809602
-0.97611618 2.3149016 3.3780146
-0.92603922 2.3184116 3.3746874
-0.87130272 2.321779 3.3757107
-0.82863522 2.330425 3.3738532
-0.77128333 2.3289921 3.3824508
-0.72525257 2.3329964 3.3965771
-0.67852855 2.3331664 3.375493
-0.62538558 2.3331423 3.3739767
-0.59863955 2.3388424 3.3862767
-0.52030391 2.3259747 3.3774049
-0.47861069 2.3350024 3.3729405
-0.42579713 2.3309476 3.3763058
-0.3731747 2.3279626 3.3805747
-0.33126837 2.3292947 3.3728387
-0.27513358 2.3327987 3.37253
-0.22529472 2.3377645 3.3702776
-0.18627979 2.3348787 3.3710375
-0.12940589 2.3368073 3.3703759
-0.074605569 2.3383694 3.3794677
-0.020137824 2.3420136 3.3699386
0.0196013 2.3354039 3.3702321
0.079215944 2.3269048 3.3720372
0.12555426 2.3244338 3.3673868
0.15349242 2.3442221 3.3580868
0.24843484 2.3439462 3.3904057
0.27487999 2.3301659 3.3687732
0.32183516 2.3325405 3.3689516
0.3677882 2.3280842 3.3587894
0.52909535 2.3416178 3.3616147
0.17391409 2.369041 3.3929255
0.42735577 2.3672228 3.3725169
0.47342378 2.3911481 3.3928096
0.56960422 2.3543167 3.3749673
0.62614673 2.3544548 3.3672297
0.6798299 2.3601716 3.3802254
0.7273851 2.3574367 3.3650694
0.776043 2.3587868 3.3745735
0.83056098 2.3700514 3.3810108
0.87336361 2.3677287 3.3819916
0.92044449 2.3662031 3.3696311
0.98127329 2.3700669 3.3716526
1.024618 2.3673615 3.3872511
1.077507 2.3779576 3.3903203
1.1238266 2.3738253 3.3716714
1.1756155 2.3809915 3.3684139
1.2203575 2.3800328 3.3677752
1.4321231 2.3828363 3.3745484
1.4828218 2.389219 3.3814666
1.5061278 2.3810866 3.3668194
1.5629992 2.3978734 3.3954613
1.6239046 2.39937 3.3738427
1.6948595 2.3949385 3.3830459
1.7149441 2.3949075 3.3744271
1.5879471 2.4054205 3.3983712
1.6267258 2.4035332 3.3797634
1.7414079 2.4036839 3.3780425
1.8820726 2.4085474 3.3699389
1.92337 2.4092057 3.3510909
1.9762095 2.4186547 3.3747265
2.0282254 2.4177835 3.3801596
2.0782785 2.4278514 3.3723681
2.1231904 2.4322443 3.3647525
2.1838598 2.421973 3.3906391
2.2261758 2.4222794 3.3671539
2.2765839 2.421241 3.3899648
2.3316829 2.4199977 3.3731225
2.3731 2.4118969 3.3687971
2.4348891 2.4202559 3.3754706
2.4679027 2.4102955 3.3627009
2.539268 2.4158051 3.386095
2.631933 2.4192939 3.3913856
2.6774468 2.4207845 3.3631167
2.7358756 2.4213247 3.3853025
2.7590308 2.4110479 3.3776543
2.8261781 2.4194968 3.3797312
2.8977103 2.4421229 3.3779089
2.9198077 2.4191463 3.3745968
2.9396925 0.51054716 3.421314
2.9402113 1.6295112 3.4161322
2.9318533 1.9343325 3.4069037
2.9525437 1.980987 3.4143417
2.9252653 2.0167735 3.4378307
2.972579 2.0276959 3.4203618
2.966651 2.0833726 3.4325891
2.9610462 2.1207409 3.4294534
2.9631717 2.1639194 3.4349089
2.9453797 2.2009695 3.4384387
2.9869008 2.2264841 3.4370775
-2.6553674 2.291631 3.4015684
-2.6187367 2.2977126 3.440212
-2.5736599 2.2988477 3.4110837
-2.5207796 2.290138 3.4263628
-2.4548085 2.2904422 3.4094822
-2.4299507 2.2972503 3.4396353
-2.3566847 2.2995226 3.4310412
-2.2914534 2.298044 3.4099381
-2.2237248 2.2933283 3.4388616
-2.1840701 2.29479 3.4093468
-1.9731987 2.2972145 3.4191694
-1.7077076 2.2981045 3.4423184
2.9861393 2.2797155 3.4317877
-2.3262563 2.301053 3.4239788
-2.2729526 2.3006265 3.4259815
-2.2111528 2.3012938 3.4073691
-2.1682589 2.3001184 3.4287238
-2.1365578 2.3098724 3.4294851
-2.0856318 2.3104544 3.4397793
-2.018126 2.3017261 3.4054098
-1.9576243 2.3114486 3.4031825
-1.933918 2.3088272 3.4265368
-1.8825326 2.3172245 3.4248888
-1.8214707 2.3096244 3.426378
-1.7876779 2.320498 3.4248333
-1.7195109 2.3070815 3.4060702
-1.6718545 2.3085215 3.4166441
-1.6322727 2.3199074 3.4332273
-1.5709604 2.3150482 3.4329898
-1.5206341 2.3124833 3.4170125
-1.4800835 2.3176067 3.4254181
-1.4307508 2.3178217 3.4429646
-1.3813535 2.3113256 3.4264801
-1.3289574 2.3155184 3.4284909
-1.2693939 2.3088403 3.4214795
-1.2217954 2.3179562 3.4219847
-1.1750844 2.3217692 3.4413733
-1.1273333 2.3232164 3.4147165
-1.0760579 2.316973 3.4180272
-1.0256277 2.3121357 3.4227657
-0.97318041 2.3180919 3.4341824
-0.9299261 2.3183582 3.4272766
-0.87581795 2.3172004 3.4233253
-0.82660073 2.3287017 3.4375346
-0.77723998 2.3276713 3.4185903
-0.72976369 2.3284316 3.4280305
-0.67580742 2.3276384 3.4199157
-0.62540877 2.3270841 3.4130306
-0.57398534 2.3347018 3.4219105
-0.52559811 2.3307016 3.4219835
-0.4786396 2.3324718 3.4300404
-0.4313176 2.3328846 3.4355462
-0.37297726 2.3238261 3.4273927
-0.32212961 2.3265126 3.4227736
-0.27828991 2.3313034 3.426527
-0.2215618 2.3391602 3.4223816
-0.17401774 2.3247149 3.4221883
-0.12717137 2.3303761 3.4283364
-0.075349413 2.3329723 3.4276915
-0.026669905 2.3474131 3.4274864
0.023489254 2.3248231 3.4069061
0.083991133 2.3318949 3.4316323
0.12400953 2.3296573 3.4249153
0.17442888 2.3375609 3.4221869
0.28879324 2.3484879 3.432236
0.32577136 2.3420856 3.420208
0.37629995 2.3367736 3.4210598
0.41739646 2.3360617 3.4264197
0.57750946 2.3487079 3.4424868
2.9774215 2.3292463 3.4333918
0.19376655 2.3725643 3.4158492
0.2134378 2.3716784 3.4324703
0.46747255 2.3710868 3.4245722
0.50131875 2.387707 3.4323511
0.57970899 2.3524702 3.4187951
0.62806469 2.3600161 3.4265318
0.66377014 2.359499 3.426944
0.72130227 2.3603075 3.4189439
0.77387524 2.3654261 3.4371729
0.82470703 2.3706398 3.4224815
0.87182778 2.3704143 3.4260464
0.91677999 2.3621964 3.404146
0.96198523 2.3790491 3.4198985
1.0263507 2.3744526 3.4385271
1.0726871 2.3693359 3.4191313
1.1226683 2.3724127 3.4109693
1.1675745 2.3847709 3.4181104
1.2232813 2.3915665 3.4270153
1.262749 2.39855 3.4122078
1.4719311 2.3958912 3.4258869
1.5276347 2.3917308 3.4286108
1.5648098 2.3959365 3.4368482
1.6472526 2.393276 3.4463062
1.7235657 2.3867102 3.4034369
2.9823878 2.3832526 3.4454367
3.0002162 2.3792708 3.4222963
1.5986713 2.401474 3.4331932
1.6323733 2.4065421 3.428473
1.679563 2.4046319 3.421613
1.7739167 2.4139767 3.4290385
1.8222042 2.4135573 3.4309242
1.8635406 2.4149115 3.42257
1.9264287 2.4182041 3.415035
1.9685539 2.4111986 3.4319181
2.0160871 2.418417 3.4214082
2.0735576 2.4188936 3.4270294
2.1232781 2.4248548 3.4293003
2.1738241 2.4236457 3.4261208
2.2235703 2.4212499 3.4205625
2.2811394 2.416069 3.4321585
2.3094594 2.4121928 3.4079471
2.3870037 2.4263318 3.4459841
2.428858 2.4248939 3.4365442
2.4780626 2.4196434 3.4336591
2.5138137 2.422667 3.4170744
2.5792828 2.4213922 3.4312749
2.6244223 2.4215202 3.4319479
2.6883047 2.428421 3.4341016
2.7327232 2.4270682 3.4317379
2.7533829 2.4144504 3.4209013
2.8277254 2.428813 3.4319677
2.8783369 2.4209125 3.4317367
2.9236131 2.4089065 3.4146423
2.966161 2.406826 3.4226601
2.8262222 1.9990368 3.4851375
2.8445055 2.0262322 3.4751854
2.8761542 2.0132027 3.4642704
2.9042583 2.0373321 3.4620552
2.8482201 2.0891278 3.4997237
2.8823619 2.0786748 3.4825776
2.928514 2.0688076 3.4578824
2.9747553 2.0555296 3.4596658
2.8793461 2.1383464 3.489212
2.9223878 2.1148427 3.4666452
2.9530647 2.1006432 3.4535844
2.8865705 2.1763816 3.4889731
2.9312301 2.1650944 3.462003
2.8880389 2.2197912 3.4938192
2.9184563 2.2173028 3.4651284
2.9682128 2.2406733 3.4522943
-2.698477 2.2844622 3.482682
-2.6430712 2.2969701 3.4850266
-2.5611463 2.2950528 3.4720814
-2.5293193 2.2958529 3.4942381
-2.4660649 2.2893925 3.4593692
-2.4370425 2.2925227 3.4840648
-2.3511207 2.293535 3.4791245
-2.3231046 2.2976594 3.4755816
-2.2704716 2.2876296 3.4564037
-2.2455099 2.2945459 3.4847386
-2.1780879 2.2895334 3.4562967
-2.14554 2.299618 3.4939933
-2.0724425 2.2980812 3.4750848
-1.9309042 2.2995405 3.4948101
2.8727276 2.259227 3.4998713
2.9210255 2.2743261 3.4742026
2.9594698 2.2966876 3.4594207
-2.1705086 2.3037548 3.4891078
-2.1243467 2.3091373 3.4701571
-2.0510473 2.3066537 3.4501345
-2.0207658 2.3076334 3.4672027
-1.9775193 2.305624 3.4844298
-1.9192667 2.3063011 3.4622996
-1.8774643 2.3148935 3.4643738
-1.8114668 2.3074839 3.4635921
-1.7790446 2.3163185 3.4775715
-1.7346244 2.3104658 3.4775062
-1.6771971 2.311574 3.4789174
-1.6215903 2.3131659 3.4722147
-1.5916922 2.3253455 3.4894743
-1.5301309 2.3103197 3.4704847
-1.4729468 2.312695 3.4758663
-1.421375 2.3150039 3.4860229
-1.3632941 2.3209791 3.4705448
-1.3209805 2.3163288 3.4759607
-1.283709 2.3204725 3.4941859
-1.2327839 2.3191299 3.4634247
-1.1737036 2.3188086 3.4793682
-1.1238151 2.3217702 3.4656363
-1.0731742 2.3131714 3.4792564
-1.0258951 2.3151512 3.4687366
-0.96914285 2.3189676 3.4877672
-0.91476911 2.3143311 3.4715598
-0.87437475 2.309778 3.4726195
-0.82040322 2.3220015 3.4717627
-0.77660525 2.3258061 3.475596
-0.72807819 2.3267293 3.4812152
-0.67620039 2.3220503 3.4663162
-0.62421858 2.3288467 3.4685986
-0.57259238 2.3297024 3.49261
-0.53016114 2.3316307 3.4615428
-0.47225401 2.3287334 3.4637129
-0.42418855 2.3267479 3.4655836
-0.37634531 2.3255298 3.4680316
-0.32013458 2.3328698 3.4834478
-0.27286035 2.3371329 3.4929891
-0.22365822 2.332598 3.4696913
-0.1763328 2.3266888 3.4821377
-0.12853867 2.3292768 3.4780452
-0.081075534 2.3288307 3.4880757
0.03650799 2.3329878 3.4693747
0.068238236 2.3280332 3.4743507
0.1238369 2.3289008 3.4776392
0.17134425 2.331707 3.4706805
0.21471405 2.3476486 3.4733539
0.33308077 2.3404088 3.4707177
0.36735743 2.3380427 3.4683547
0.44529822 2.3370104 3.4790592
0.46470076 2.3382816 3.4790013
2.8922319 2.3314619 3.4908187
2.9238396 2.3287511 3.472419
0.23539567 2.3733432 3.4910836
0.25502679 2.3868754 3.490696
0.48459592 2.3706288 3.4669821
0.51218724 2.3831415 3.4759295
0.62122905 2.3601656 3.4733882
0.68050736 2.3622139 3.4742534
0.7135936 2.3694725 3.4933224
0.77154261 2.3685923 3.4822493
0.8223269 2.375015 3.4828575
0.87392294 2.3831458 3.485378
0.91817063 2.373637 3.4779606
0.96948254 2.378099 3.4573715
1.0224439 2.3847022 3.4863656
1.0745962 2.3756323 3.4699357
1.1281515 2.3801856 3.4739308
1.1872014 2.3916318 3.4797812
1.2251743 2.3915339 3.4760857
1.2815908 2.3944116 3.485745
1.4946474 2.396342 3.4633548
1.5268879 2.3951468 3.4951634
1.6090317 2.3967154 3.4672115
2.8763306 2.3825901 3.4885526
2.9180944 2.3895535 3.4630959
2.9643919 2.3657691 3.4628646
1.2743224 2.4006827 3.454813
1.3053457 2.4014268 3.4899194
1.4484035 2.4065235 3.4516649
1.4784632 2.4027429 3.4797406
1.5918736 2.4014473 3.4818485
1.6346399 2.4045322 3.4705853
1.6808636 2.4124317 3.4656563
1.7261014 2.4144251 3.4821396
1.7897047 2.4288075 3.4963877
1.8062216 2.4231429 3.4792325
1.9256872 2.4226413 3.473325
1.9616954 2.4074693 3.4790444
2.0253985 2.4211416 3.4730022
2.0824425 2.4174681 3.4894054
2.1248543 2.4175253 3.4673834
2.1723096 2.4168987 3.4765341
2.2151248 2.4139149 3.4653466
2.2716885 2.418191 3.4787235
2.3310297 2.413358 3.4721949
2.3707066 2.4209113 3.4734001
2.4205284 2.416476 3.482316
2.4756565 2.4167514 3.487962
2.529845 2.4157393 3.4715691
2.5855973 2.4155233 3.4752386
2.6321068 2.4166663 3.4777575
2.6756029 2.414705 3.4753289
2.7168057 2.4216089 3.4623368
2.7769535 2.4223456 3.4860129
2.8240497 2.412122 3.4729679
2.8749053 2.4156089 3.4661939
2.7722688 2.0186181 3.5404863
2.8168771 2.0253534 3.5160046
2.7876103 2.0741608 3.5377679
2.8272712 2.0789363 3.5227032
2.7871642 2.1266448 3.5358663
2.8305588 2.1342297 3.5251207
2.8633759 2.1225932 3.5065756
2.7816453 2.1955016 3.5427556
2.8411825 2.1845002 3.5422459
2.8595998 2.1814127 3.5213282
2.7956908 2.2291107 3.5483451
2.8402236 2.2271755 3.5351124
2.8676214 2.2213788 3.5126007
-2.6675081 2.2959099 3.5300305
-2.5721815 2.292732 3.5216446
-2.5245948 2.2904356 3.5158587
-2.4720509 2.2933483 3.5242686
-2.4208121 2.2971859 3.5237446
-2.3568425 2.298547 3.5444343
-2.2722526 2.2895505 3.5157447
-2.2272594 2.29777 3.5200691
-2.1729803 2.2963734 3.5276539
-1.7999703 2.298429 3.5010355
2.819227 2.2728217 3.5370946
2.8643665 2.2795985 3.5102127
-2.6200438 2.3057816 3.520227
-2.318902 2.304055 3.5199053
-2.119312 2.3054757 3.5193248
-2.0731053 2.3010778 3.5339146
-2.0318997 2.3113463 3.5212848
-1.9759285 2.3071918 3.5400674
-1.9063174 2.3073568 3.5210328
-1.873029 2.3150752 3.5252628
-1.8252772 2.3044937 3.50139
-1.7731692 2.3148558 3.5264063
-1.707064 2.3042588 3.5016322
-1.6776114 2.3058057 3.5161715
-1.6306257 2.3085725 3.5234947
-1.5764614 2.3174515 3.5162578
-1.5143104 2.3306453 3.5268636
-1.4672511 2.3202832 3.5250885
-1.4343541 2.3159769 3.5286181
-1.3799504 2.3192129 3.5291326
-1.3284478 2.3094845 3.5062268
-1.2750989 2.3155661 3.5177469
-1.2259634 2.3137844 3.5214641
-1.1757449 2.3126149 3.5332093
-1.12729 2.3197367 3.5251653
-1.0289931 2.3147817 3.5303409
-0.97915888 2.3233511 3.5342872
-0.91144657 2.3013525 3.5132108
-0.87395537 2.3148284 3.5216367
-0.8260963 2.3118699 3.519124
-0.77339798 2.3161287 3.5215886
-0.73091185 2.3242433 3.5009768
-0.66836601 2.3207943 3.5154176
-0.62954271 2.3247297 3.5304813
-0.57645893 2.3337255 3.5220993
-0.52758646 2.3338239 3.5242605
-0.47776818 2.326957 3.5192301
-0.42432562 2.328438 3.5307555
-0.38002619 2.3292882 3.512316
-0.31776959 2.3264651 3.5226173
-0.27439016 2.3310876 3.5226772
-0.22668914 2.3355718 3.5320847
-0.1788294 2.3405962 3.5418425
-0.12069867 2.3385096 3.5405784
-0.067479253 2.3392408 3.5329995
-0.033778481 2.3396165 3.5437324
0.081698567 2.3251894 3.5212793
0.12075686 2.3370843 3.5384016
0.17847538 2.3343549 3.5323851
0.23684222 2.3395424 3.5376518
0.39200687 2.3426964 3.5317795
0.41073906 2.3391473 3.5247257
0.76843315 2.3498888 3.5347841
2.7926235 2.3240979 3.5441389
2.8277194 2.3243759 3.5313823
2.862397 2.335609 3.5109921
-0.052775975 2.3633108 3.5013831
-0.024079232 2.3661339 3.5251589
0.0048685512 2.3721058 3.514724
0.23665676 2.3570457 3.5249608
0.26622808 2.371994 3.5261986
0.47153181 2.3531945 3.5402458
0.52945364 2.3805113 3.5157218
0.62743974 2.3643446 3.5183549
0.66978306 2.3667936 3.5361063
0.73250574 2.3690128 3.51965
0.77869022 2.3709264 3.5249517
0.81877798 2.3735514 3.5218458
0.8692584 2.3776023 3.5185363
0.92991805 2.3689115 3.5201559
0.97274089 2.3806593 3.5224855
1.0353261 2.3784416 3.5257471
1.0797768 2.3891129 3.5320032
1.1201311 2.3903122 3.5238652
1.1778773 2.3930817 3.5274842
1.2695707 2.3893697 3.5246513
1.7197081 2.3971965 3.518554
2.7819333 2.391057 3.541908
2.81777 2.3811574 3.5270383
2.8536284 2.371217 3.5118387
1.2656573 2.4020181 3.5027454
1.3211448 2.4102283 3.5434268
1.5211725 2.4184053 3.5364499
1.5824573 2.4181321 3.5137517
1.6222358 2.4110656 3.5334725
1.6742042 2.4118207 3.514539
1.7266276 2.4068046 3.5325744
1.7711194 2.4213519 3.5155454
1.8208364 2.4218707 3.5195322
1.8827653 2.4239755 3.5207348
1.928499 2.4182935 3.5145648
2.0234096 2.4228585 3.5290136
2.079298 2.4160171 3.5234804
2.133337 2.4179363 3.517066
2.163723 2.4065456 3.5331416
2.2225935 2.4239769 3.5356526
2.2713566 2.4189289 3.5267615
2.3245523 2.4073904 3.5204952
2.3836446 2.4124093 3.5345805
2.4213607 2.4172804 3.522228
2.4692636 2.4099181 3.5368562
2.5195241 2.4157777 3.5180931
2.6133492 2.4190474 3.5261135
2.7190905 2.4202712 3.5426476
2.7649641 2.4198172 3.531852
2.8072784 2.4161 3.5157399
2.6768303 1.9938908 3.5726192
2.6943738 2.0289967 3.5853486
2.7325919 2.0228157 3.5667973
2.6801233 2.0680752 3.593679
2.7220168 2.0747902 3.5835748
2.7626278 2.0711014 3.5583599
2.7357314 2.129019 3.5881793
2.7674248 2.1380112 3.566925
2.7278454 2.1859756 3.5892277
2.7664483 2.1803381 3.5605848
2.8146362 2.1813383 3.5528183
2.7378664 2.2277586 3.5843291
2.7723408 2.2283993 3.5626397
2.8241153 2.2112551 3.5525684
-2.7827816 2.2912815 3.5726221
-2.7291005 2.2842493 3.5921259
-2.6880624 2.2911322 3.5699255
-2.6306643 2.291409 3.5757494
-2.5978434 2.2933338 3.5693343
-2.5344095 2.2983925 3.5581081
-2.4730217 2.2926381 3.5827017
-2.4139514 2.2899523 3.551686
-2.279376 2.2968566 3.584147
-2.2138281 2.2954321 3.5596981
-2.1668491 2.2910743 3.5753124
-2.1193841 2.2958341 3.5542414
-2.0996239 2.2974455 3.5674078
-1.9160812 2.2982755 3.5504594
-1.8729481 2.2966084 3.5663619
2.730031 2.2743533 3.5905578
2.773262 2.2721484 3.5672185
-2.7435005 2.3000216 3.5536737
-2.321558 2.3065183 3.5812979
-2.1456685 2.3012519 3.5517728
-2.0818081 2.3012409 3.5838239
-2.0235431 2.3046868 3.5651867
-1.9677052 2.301137 3.5844526
-1.9429907 2.3054373 3.5519927
-1.8806533 2.3060243 3.5810459
-1.8286515 2.3089638 3.5709028
-1.771342 2.317703 3.5736594
-1.717585 2.3117127 3.5595903
-1.6814313 2.3187723 3.586668
-1.6241089 2.3245618 3.5864899
-1.5680373 2.3095746 3.5641835
-1.5299737 2.3198543 3.5676498
-1.4643748 2.3114405 3.5566154
-1.415826 2.3200469 3.575983
-1.3716305 2.3088553 3.5818553
-1.3239655 2.3164928 3.5641308
-1.2735806 2.316432 3.5787272
-1.2303944 2.3110037 3.5815554
-1.1578085 2.3264771 3.5827336
-1.1278369 2.3266664 3.5906112
-1.0759507 2.3222356 3.5785365
-1.0061667 2.3204494 3.5659311
-0.97772551 2.3235526 3.5772033
-0.93273759 2.3277185 3.5828178
-0.87194842 2.3215234 3.5813353
-0.824871 2.3189132 3.5858028
-0.78169489 2.316438 3.5720367
-0.72199416 2.3288202 3.570586
-0.67419475 2.3189108 3.56901
-0.62968206 2.3231676 3.5820951
-0.58197069 2.3238721 3.5724416
-0.522645 2.3258791 3.5725319
-0.47456679 2.3297014 3.5836911
-0.42641988 2.33389 3.5948608
-0.37571958 2.3332427 3.5782053
-0.32598802 2.3302233 3.5706339
-0.27608311 2.3259835 3.5541019
-0.23234347 2.3265033 3.5731602
-0.16496615 2.3353882 3.5639238
-0.12160207 2.3362718 3.5765164
-0.072934359 2.3364792 3.577837
-0.033974923 2.3338213 3.5742426
0.083244786 2.3495858 3.5977783
0.1025375 2.3431394 3.5875211
0.17985065 2.3330224 3.5696495
2.7337778 2.3215783 3.589278
2.7686985 2.3331478 3.5707395
-0.014527783 2.3525684 3.563453
0.019631146 2.3727357 3.5840611
0.27391514 2.3623228 3.5800672
0.4712351 2.3612761 3.5826364
0.52870971 2.3640699 3.5773585
0.56522036 2.38903 3.5642262
0.68546855 2.3675432 3.5755281
0.72201002 2.3581209 3.5552421
0.77443397 2.3682885 3.5624185
0.82748789 2.3789401 3.5697322
0.87681419 2.3784313 3.5596285
0.9362852 2.383862 3.5982757
1.0170872 2.3953943 3.5780759
1.0874547 2.3860543 3.5679395
1.1202052 2.3917551 3.5690064
1.1982305 2.3870564 3.5846736
1.2187546 2.3977284 3.5746787
1.2644423 2.3975945 3.5836909
2.492877 2.3999193 3.5611925
2.7275813 2.3822792 3.5806181
2.7689226 2.3777122 3.5639756
1.0254831 2.4017878 3.5649889
1.0752212 2.403507 3.5988903
1.167951 2.4073918 3.5819871
1.2417985 2.4031982 3.5772014
1.2885882 2.4047582 3.5885561
1.320146 2.4065914 3.5822933
1.5324473 2.4156327 3.5741954
1.577261 2.4159029 3.5703349
1.6238962 2.4082167 3.5752735
1.6833885 2.4191911 3.5716372
1.7376974 2.4158902 3.5929101
1.7767546 2.4119399 3.5699077
1.8205066 2.4143558 3.5557499
1.8739201 2.4196398 3.5755289
1.926035 2.4205389 3.5707202
1.9768126 2.4200411 3.5722263
2.0238695 2.4148083 3.5660369
2.0773666 2.4172113 3.5798385
2.1258426 2.4122701 3.5638399
2.1782379 2.4130177 3.5928638
2.2286491 2.4206636 3.5812578
2.2737088 2.4112771 3.5662761
2.3237185 2.418365 3.5810642
2.3975704 2.4155331 3.5911367
2.4343014 2.4190559 3.5768926
2.5305223 2.4146745 3.5693617
2.5711081 2.4173901 3.5701783
2.6120555 2.4161212 3.5827498
2.6700726 2.4165177 3.5775709
2.7065594 2.4074287 3.5652137
2.4796982 1.9761914 3.6468718
2.5948226 1.9980729 3.6352968
2.6269317 2.0169075 3.6306744
2.6649427 2.0317316 3.6114397
2.6283598 2.0707774 3.6333807
2.6593895 2.0691185 3.6096511
2.6338873 2.12848 3.6412244
2.672998 2.1255059 3.6157215
2.7103403 2.1473196 3.6058562
2.6269996 2.1759269 3.6406496
2.6833751 2.1794326 3.6133778
2.6216874 2.2357092 3.6453891
2.6706271 2.2166255 3.6345065
2.7045131 2.2280309 3.6070669
-2.7031274 2.2813787 3.602514
-2.6195457 2.290035 3.6116269
-2.5966759 2.2896311 3.6250477
-2.4769025 2.284296 3.6230872
-2.3079259 2.2927978 3.6178672
-2.2709613 2.288518 3.628701
-2.2348309 2.2955539 3.6053047
-2.1686711 2.2942147 3.6366649
-2.1426179 2.2995055 3.6048849
-2.0998325 2.2996669 3.6264071
-1.9816134 2.2961349 3.6211185
-1.8285104 2.2984965 3.6401391
2.6470842 2.2703476 3.6458468
2.6819806 2.2712584 3.6257088
2.7120788 2.2568393 3.6049285
-2.7815263 2.3090329 3.6158066
-2.4491951 2.3012524 3.6157737
-2.125144 2.3038332 3.6224058
-2.0634611 2.3057356 3.6288736
-2.0189939 2.3024285 3.6162884
-1.9202085 2.3074341 3.618062
-1.8671069 2.3071175 3.6404724
-1.8115453 2.3113832 3.6205873
-1.7743069 2.3143706 3.6162293
-1.7263819 2.3167064 3.6145942
-1.6739482 2.3163431 3.6340981
-1.6267482 2.3174369 3.6210449
-1.5828192 2.3258288 3.6358685
-1.5223238 2.3178756 3.6305757
-1.4835534 2.3196981 3.6270511
-1.4301286 2.3126562 3.627934
-1.3704953 2.3161986 3.625591
-1.3261299 2.3178043 3.6109986
-1.2872249 2.3208961 3.6275344
-1.2267299 2.3174298 3.6269748
-1.1789124 2.3181303 3.6295683
-1.1225269 2.3162892 3.6184006
-1.0722091 2.3163838 3.6305797
-1.0227264 2.3172562 3.6258159
-0.97531813 2.3215103 3.6171238
-0.93636644 2.3241916 3.6296084
-0.87606037 2.323607 3.6403294
-0.83090007 2.3193154 3.6204491
-0.77788889 2.3095937 3.6137879
-0.72928643 2.3176947 3.6242256
-0.69142103 2.328757 3.6373045
-0.62708068 2.3181264 3.6154604
-0.57867944 2.3252511 3.6262114
-0.52440518 2.3235979 3.6257815
-0.47882244 2.330832 3.6256592
-0.42836311 2.3247573 3.620929
-0.36966395 2.3275859 3.6303399
-0.32972956 2.3337941 3.6227593
-0.27469864 2.3326957 3.6286011
-0.21029201 2.3290532 3.6020799
-0.16707069 2.3357642 3.6242754
-0.12605305 2.3325214 3.6238954
-0.073631816 2.3340414 3.6239858
-0.024531586 2.3410864 3.625351
0.02470112 2.3471143 3.6346979
0.26146778 2.3484092 3.6295731
0.46993795 2.3452163 3.6288118
2.6370735 2.3379467 3.6464286
2.6747236 2.3216281 3.6237419
2.7044826 2.3374701 3.601938
0.029615855 2.356389 3.6188438
0.27991259 2.3573403 3.6020534
0.31212085 2.3782375 3.6320705
0.4200111 2.3523912 3.6243229
0.52139992 2.3640814 3.6324055
0.57236665 2.3794293 3.6298697
0.60261238 2.3909912 3.6234484
0.72492689 2.3803203 3.6307294
0.77485204 2.380043 3.6222587
0.82619655 2.3789163 3.6221092
0.87542826 2.384198 3.6249745
0.91833884 2.384485 3.6312683
0.9762947 2.3864062 3.6195259
1.0241022 2.3963213 3.6279523
1.0600616 2.394659 3.6314898
1.2631187 2.3940301 3.6227596
1.75169 2.3996589 3.6075549
2.632252 2.3782609 3.6335948
2.6780825 2.3782475 3.6148481
2.7149229 2.3692846 3.6028271
1.0688128 2.4015639 3.6189559
1.1262759 2.4061015 3.6341982
1.1775454 2.4067483 3.622293
1.2260015 2.401407 3.645165
1.3210469 2.4064353 3.6267893
1.364661 2.4108179 3.6211126
1.5489947 2.4208379 3.6242778
1.5820059 2.4148166 3.6339371
1.634726 2.4187999 3.6377475
1.6757169 2.4173236 3.6197472
1.7231294 2.415782 3.6313145
1.7891537 2.4219034 3.6323748
1.8209472 2.411195 3.6249566
1.8663015 2.4159644 3.6228905
1.9153824 2.4125986 3.612205
1.9713322 2.4181972 3.6233549
2.0223136 2.4170978 3.623868
2.0698893 2.4120257 3.6271541
2.1339443 2.4134002 3.6436234
2.1742353 2.4100602 3.6259851
2.2307777 2.4128461 3.6205997
2.264919 2.414242 3.6051724
2.3198555 2.415247 3.6343679
2.3688202 2.4089484 3.6232719
2.4187908 2.4034512 3.6126935
2.48453 2.4130754 3.6141822
2.5332904 2.4055171 3.6090965
2.5980673 2.4119256 3.6450391
2.6230643 2.4036176 3.6111202
2.5347519 1.9939181 3.6604786
2.4205704 2.0151598 3.687598
2.4662762 2.0353837 3.6737614
2.5149829 2.0277803 3.6701965
2.5693483 2.0258608 3.6553431
2.4261889 2.0713193 3.6883335
2.475008 2.075551 3.67115
2.5312712 2.0636935 3.6742904
2.5771425 2.0726886 3.6629016
2.4342854 2.1217663 3.6889124
2.4657936 2.1309993 3.6719944
2.5247774 2.1215055 3.6791475
2.5706763 2.1222081 3.6644466
2.6097674 2.1269565 3.6523862
2.4419651 2.1829064 3.6921172
2.4780731 2.1854603 3.6775129
2.529197 2.1686137 3.6822999
2.5802991 2.1826792 3.6681278
2.4491589 2.2226727 3.6860774
2.4680998 2.2197499 3.6685591
2.5275056 2.2317104 3.6931334
2.5761802 2.2238989 3.6778903
2.607074 2.2215588 3.6535287
-2.6876123 2.2839196 3.6844912
-2.6090045 2.2878325 3.6773658
-2.5717616 2.2973919 3.6580806
-2.534168 2.2939057 3.6728578
-2.4993095 2.2825773 3.6679378
-2.4232233 2.2963803 3.6807444
-2.3540232 2.2946336 3.6553965
-2.3220522 2.2848558 3.6518097
-2.2996874 2.2844346 3.6629424
-2.228699 2.2864497 3.6848269
-2.1999125 2.2938721 3.6768401
-2.1251531 2.2939126 3.6576433
-2.0840228 2.2962248 3.6821454
-2.0306041 2.2955136 3.6782813
