ply
format ascii 1.0
comment PCL generated
element vertex 1563
property float x
property float y
property float z
element camera 0
property float view_px
property float view_py
property float view_pz
property float x_axisx
property float x_axisy
property float x_axisz
property float y_axisx
property float y_axisy
property float y_axisz
property float z_axisx
property float z_axisy
property float z_axisz
property float focal
property float scalex
property float scaley
property float centerx
property float centery
property int viewportx
property int viewporty
property float k1
property float k2
end_header
1.97407 2.0228162 4.0261254
2.0119681 2.0183003 4.0068235
1.9781648 2.0742116 4.0282903
2.021513 2.0726881 4.0077572
1.9461677 2.1443667 4.0490532
1.9778899 2.1308219 4.0364556
2.0047562 2.1234889 4.0093284
1.9766967 2.1843567 4.0303564
2.0240877 2.1849539 4.0088668
1.9735482 2.2317061 4.0280967
2.0163658 2.2383375 4.0096345
-2.3195848 2.2799964 4.0080895
-2.2686512 2.2987525 4.0112047
-2.2453601 2.2986541 4.0217547
-2.185482 2.2966535 4.0442848
-2.0809133 2.2940736 4.0232
-1.9503689 2.2981811 4.0260143
-1.9157364 2.29755 4.0379939
-1.8661556 2.2924662 4.0459914
-1.8284861 2.2963595 4.0111361
-1.5771292 2.2968814 4.0410943
-1.3514793 2.2988539 4.0037909
1.9410758 2.2777443 4.0450873
1.975461 2.2812536 4.0196552
2.0143445 2.2824166 4.0065379
-2.0510311 2.3091259 4.0084653
-1.997699 2.3003216 4.0117674
-1.9165376 2.3075807 4.0011692
-1.8043995 2.3087258 4.0449257
-1.7711462 2.31745 4.0184565
-1.7131755 2.3150768 4.0335803
-1.6775535 2.3124142 4.0401077
-1.6276193 2.3052468 4.041965
-1.5683051 2.306195 4.0085807
-1.5375265 2.3099468 4.0251684
-1.441376 2.3092427 4.0252585
-1.3255458 2.3108304 4.0331149
-1.2840929 2.3176203 4.0053201
-1.2398274 2.316581 4.0141125
-1.1520416 2.3157694 4.0326076
-1.1144947 2.320606 4.0330062
-1.0679187 2.3208964 4.01019
-1.0265263 2.3253841 4.0265703
-0.97143495 2.3289006 4.0311356
-0.91759491 2.3246236 4.0450916
-0.86981583 2.3238163 4.0274706
-0.82604986 2.3331833 4.02707
-0.77081811 2.3293955 4.0285988
-0.72366685 2.3164699 4.0122123
-0.47832516 2.3441637 4.0412922
-0.42432168 2.3426921 4.0432186
-0.31559035 2.343838 4.0294914
-0.27203414 2.3480132 4.0159159
-0.16531794 2.3478911 4.020072
-0.058557216 2.3453796 4.0179877
-0.037309419 2.3497248 4.0256219
1.9389437 2.3222668 4.0420785
1.9749779 2.319885 4.0230746
2.0154135 2.3303256 4.0092201
-0.22999108 2.3545916 4.029191
-0.18792908 2.3638856 4.0467558
-0.13360822 2.3532205 4.030076
0.032116987 2.3634567 4.0262399
0.076567054 2.3639491 4.019021
0.12264404 2.3666871 4.0075393
0.22994785 2.3738647 4.0161886
0.27296579 2.3764601 4.0185804
0.33671498 2.3731284 4.0093021
0.37163731 2.3700092 4.0478206
0.4141964 2.3670316 4.0396113
0.47931638 2.3914614 4.0296378
0.5272001 2.3833315 4.0228682
0.57455373 2.3844726 4.0083179
0.68572795 2.3868902 4.0226645
0.72833669 2.3958035 4.0088215
0.77880889 2.3928888 4.0280538
0.81138492 2.3964741 4.0452056
0.93967927 2.3904283 4.0134559
0.97429585 2.3954294 4.0158949
1.0078608 2.3975956 4.0133643
1.0669229 2.3968396 4.024683
1.12808 2.399792 4.0415802
1.2368965 2.3974338 4.012701
1.8560833 2.399477 4.039752
1.9247932 2.376869 4.0251698
1.9767421 2.3600366 4.0088305
0.76316178 2.4035766 4.0172648
0.83071595 2.4111645 4.0201292
0.86338902 2.4069736 4.039392
1.0328966 2.4051583 4.0217695
1.096805 2.4015236 4.002337
1.1238147 2.4054234 4.0197473
1.1751021 2.4059231 4.0421891
1.2173795 2.4023035 4.0260572
1.2778807 2.4125412 4.0299253
1.3229394 2.4140372 4.0213032
1.3586161 2.4072938 4.0251913
1.4172471 2.4016635 4.0244999
1.4694672 2.4144244 4.0333419
1.5145878 2.4151216 4.0214844
1.5845857 2.4196031 4.0084572
1.6222761 2.4257619 4.0079899
1.6564704 2.431757 4.034709
1.7108727 2.4175069 4.0163932
1.7796909 2.4192543 4.0320873
1.817119 2.4186213 4.0174317
1.8685937 2.4122639 4.0323238
-1.8081369 0.39410481 4.069088
-1.7829624 0.39540243 4.0922661
-1.7893054 0.4256275 4.0776081
-1.8149157 0.47606975 4.0514579
-1.7749434 0.4660742 4.0684395
1.7692 0.49838686 4.0793767
1.8200729 0.49812859 4.0610042
1.8994893 0.49994931 4.0519261
1.7693124 0.52955735 4.0768819
1.8079574 0.528723 4.0575447
1.9305843 0.54449183 4.0626855
1.7720765 0.57196307 4.0792236
1.8098874 0.57078862 4.0578642
1.9515247 0.56543314 4.0534778
1.7736421 0.62448215 4.0773878
1.8115162 0.62320417 4.0560455
1.7363716 0.68860263 4.0931339
1.774065 0.67666912 4.0725222
1.8119676 0.66489923 4.0523643
1.7409239 0.73223579 4.0987115
1.7733253 0.71759701 4.0768232
1.8186208 0.72467911 4.0602112
1.742537 0.76432145 4.0984216
1.7722257 0.77406621 4.0835037
1.811896 0.77315229 4.0656075
-1.8076335 0.81306887 4.0504045
1.7768469 0.82848811 4.0868111
1.8266258 0.82732469 4.0644555
1.7484671 0.86143851 4.0990195
1.7783931 0.87118191 4.0841274
1.8251406 0.86838686 4.065835
1.8510371 0.88132077 4.0573435
-1.8189398 0.94398606 4.0560985
1.7899401 0.92167342 4.0894279
1.8221374 0.92459297 4.0665059
1.8533698 0.90343577 4.0591192
-1.8128237 0.97784573 4.06394
1.8257694 0.98032743 4.0822458
1.8682718 0.98463243 4.0609794
1.8264865 1.0274528 4.0867724
1.8744665 1.0247643 4.0586786
-1.813341 1.078962 4.0747008
-1.797942 1.0824124 4.0945725
1.7860334 1.0603321 4.0987573
1.824187 1.0688388 4.0850167
1.8687897 1.0698245 4.0649257
-1.8100337 1.1306559 4.0757408
-1.7984321 1.1251442 4.0873442
1.8267486 1.1236368 4.0852332
1.8630651 1.1286623 4.0624108
-1.8156786 1.1805458 4.0712314
1.797634 1.1952654 4.099853
1.8265486 1.182621 4.0849266
1.8667079 1.1810851 4.0654993
-1.8198828 1.2291796 4.0784106
1.7982413 1.2170179 4.0966649
1.8242986 1.2301503 4.0865993
1.8712949 1.2266564 4.0662766
-1.840693 1.270372 4.0706072
1.827637 1.2709029 4.0854526
1.8749498 1.2717919 4.0645418
-1.8297873 1.3274064 4.0746984
1.8279808 1.3138033 4.0880136
1.8742431 1.3206942 4.0685525
-1.8212957 1.3772353 4.0713167
1.8345188 1.3669311 4.0909595
1.8763738 1.3722079 4.0652108
-1.834507 1.4324282 4.0646939
1.8279719 1.4240273 4.0903544
1.8682492 1.4278173 4.0739908
1.9026083 1.4341965 4.0601816
-1.8400676 1.4791471 4.0756688
1.8395294 1.4880009 4.0917339
1.8751156 1.4811425 4.0703425
1.904115 1.4784963 4.0518193
-1.8521504 1.5233626 4.0629392
-1.8392413 1.5305955 4.08954
1.8357624 1.5269856 4.0919418
1.8735199 1.5305635 4.070662
1.9119451 1.5387511 4.0533714
-1.8559312 1.5697824 4.0588875
-1.8432738 1.5774627 4.086154
1.8245201 1.5731744 4.0916944
1.8748455 1.5764861 4.072628
1.918249 1.5873121 4.0541091
-1.8606627 1.6172016 4.056426
-1.8459916 1.6233647 4.0793757
1.8386554 1.6263967 4.0908461
1.8775307 1.6223091 4.0656085
-1.8609824 1.6710256 4.0610671
-1.8382748 1.6695164 4.0873389
1.8336194 1.6754298 4.0943956
1.8747467 1.6730794 4.0736876
1.9145103 1.6764561 4.057745
1.8396112 1.7248523 4.0940466
1.8757229 1.7259449 4.0778551
1.9201212 1.7179295 4.0580521
-1.9673817 1.7963171 4.0743737
-1.948526 1.7771517 4.0968976
1.8315711 1.7606241 4.0937386
1.8756547 1.7717433 4.0751705
1.9185472 1.7707312 4.0572224
-1.9506968 1.8013712 4.0940232
1.842913 1.8379639 4.0969372
1.8715706 1.8224945 4.0793214
1.9145024 1.8213506 4.0610304
1.8390952 1.8785161 4.0946021
1.8795407 1.8746185 4.0813084
1.908053 1.8699713 4.0593452
1.8720609 1.9227077 4.0771985
1.9129314 1.9191438 4.0537376
1.8360544 1.9650388 4.0993338
1.8743626 1.9720405 4.0778966
1.9159249 1.9779545 4.0605807
1.8789058 2.0310469 4.0869455
1.9208559 2.0279753 4.0645232
1.8820786 2.079829 4.0872097
1.921469 2.083009 4.0639606
1.8743843 2.1331823 4.0904021
1.9191296 2.1308625 4.0648651
1.866694 2.1728904 4.0819955
1.9221092 2.1813037 4.0603771
1.9519632 2.1733963 4.051569
1.8860956 2.2224014 4.0842395
1.9196762 2.2174003 4.0610771
-2.3163486 2.2879605 4.0911317
-2.2682271 2.2986052 4.0736289
-2.2270041 2.292347 4.0783176
-2.1183302 2.2867265 4.0517712
-2.0978925 2.2896068 4.0665903
-2.0154266 2.2977533 4.05791
-1.9674309 2.2953286 4.0716662
-1.9462457 2.2973943 4.0841408
-1.8980016 2.2945762 4.0963044
-1.7682496 2.2978978 4.0918036
-1.684041 2.2988153 4.0658092
1.8751794 2.2692554 4.0808258
1.9256129 2.2622216 4.0570149
-2.0408499 2.3005321 4.0535574
-1.9953284 2.3010519 4.0728507
-1.8492137 2.3138595 4.0962291
-1.7730265 2.312067 4.0626507
-1.7367078 2.3089468 4.0687532
-1.6447686 2.306915 4.0945902
-1.5233393 2.3127971 4.070509
-1.4787426 2.3109663 4.0708175
-1.4070199 2.3032193 4.0754948
-1.3753805 2.3171797 4.0842686
-1.3304958 2.3166263 4.0946889
-1.2736067 2.3164284 4.0565319
-1.2218708 2.3228989 4.0808434
-1.1850586 2.3157642 4.0757756
-1.0785505 2.3152771 4.0805631
-1.0231959 2.3207457 4.0680814
-0.96976316 2.323822 4.0836339
-0.8804177 2.3193831 4.090765
-0.82146746 2.3292873 4.0690274
-0.76823205 2.3326349 4.0828705
-0.73553967 2.3327055 4.0875239
-0.67997146 2.3289685 4.088016
-0.47115672 2.3404033 4.0824552
-0.41722664 2.3418536 4.089366
-0.26428264 2.3414297 4.0746374
1.8390462 2.3268161 4.0979824
1.8713733 2.3242984 4.0811529
1.9082285 2.3143063 4.0565391
-0.36107972 2.3506751 4.0617037
-0.34151706 2.3645089 4.0870013
-0.28645122 2.3574669 4.0779166
-0.21753597 2.3599555 4.0698543
-0.17818992 2.3554404 4.0789914
-0.10973278 2.3619273 4.0765071
-0.073752016 2.3633921 4.0796609
-0.016150799 2.3680456 4.0803728
0.027164159 2.3635149 4.095829
0.091929853 2.3673782 4.0784788
0.12428153 2.3764963 4.0702047
0.15656506 2.3750331 4.0668788
0.23254645 2.3797741 4.0722942
0.27179641 2.3687878 4.0671668
0.32301536 2.3746045 4.0744147
0.35225552 2.3737347 4.0789371
0.44026172 2.3808589 4.0848517
0.47541365 2.3789778 4.0708013
0.52767086 2.3829226 4.0806994
0.57777804 2.3838375 4.0692677
0.63601065 2.3921881 4.0614243
0.6575523 2.3914642 4.0575876
0.72594428 2.3911948 4.0721388
0.78371167 2.3899016 4.085763
0.81931716 2.3978953 4.0945578
0.88562012 2.3987837 4.0856614
1.1118063 2.3900931 4.0772247
1.4406092 2.3998132 4.0663095
1.7839856 2.3870831 4.0969982
1.8369309 2.3836377 4.0902719
1.8767924 2.3769748 4.071866
1.9058253 2.3588021 4.0529323
0.61687827 2.4023468 4.0811992
0.83938932 2.4033623 4.0769663
0.91497749 2.4111958 4.0540724
0.97759682 2.4086201 4.0870752
1.0332519 2.4095345 4.0782604
1.0699717 2.4176731 4.0855002
1.1396691 2.4021952 4.0931759
1.2345921 2.4139111 4.0932155
1.2667482 2.4113286 4.080915
1.3256612 2.4171021 4.07691
1.3999808 2.4295449 4.0803909
1.4791367 2.4077935 4.0703564
1.5249958 2.4091611 4.0596256
1.5756878 2.4178569 4.0606995
1.6310744 2.4217401 4.0775909
1.6862459 2.4265344 4.0779142
1.7340928 2.4143813 4.0750585
1.7804351 2.4052496 4.0781713
1.8269612 2.4062448 4.063652
-1.759007 0.3970305 4.1187024
-1.7362673 0.398987 4.1484237
-1.7607454 0.42877561 4.1205549
-1.7358441 0.43035248 4.1451797
-1.7558608 0.46158215 4.1343288
-1.724438 0.4615815 4.1436634
1.7330952 0.49992847 4.1046538
1.6762804 0.52249688 4.1347594
1.7241783 0.52597201 4.1146727
1.6764017 0.57475585 4.1302114
1.7258172 0.5738396 4.1084466
1.678056 0.62163574 4.1295781
1.7247022 0.63019329 4.1120324
1.6713192 0.67595446 4.141748
1.7194555 0.6793021 4.1214781
1.674834 0.72483009 4.1389198
1.7204205 0.72161508 4.1187391
1.6800017 0.76409888 4.1371217
1.7229124 0.77694434 4.1157289
1.6845499 0.82729131 4.1439619
1.7279069 0.82708561 4.1197
1.6950991 0.87690544 4.1396246
1.7257206 0.8763814 4.1278038
1.7516577 0.88405412 4.1032996
1.6974249 0.92042017 4.1387739
1.7270124 0.91929245 4.1243348
1.7644258 0.9221375 4.1090245
1.6891724 0.95346045 4.1424379
1.7242293 0.97769004 4.1298947
1.7717379 0.97351402 4.1085773
1.8060441 0.99607635 4.1008992
-1.7844443 1.0445131 4.1271043
1.7272438 1.031391 4.1355052
1.7757673 1.0287169 4.1086473
-1.7843099 1.0710572 4.1218405
1.7259095 1.0735966 4.1363893
1.7692966 1.0789583 4.1127028
-1.7833344 1.1264507 4.1282859
1.6906365 1.1096549 4.1487384
1.7221289 1.1200192 4.1360288
1.7740978 1.1191827 4.1166701
-1.7870406 1.1644717 4.1296544
1.732854 1.1770105 4.1366301
1.7742026 1.1716411 4.1137233
-1.7891648 1.2283455 4.1253948
1.7338017 1.2349771 4.1420145
1.7718903 1.2316399 4.1176038
-1.8115137 1.2798833 4.1151538
-1.7872851 1.2856326 4.14396
1.7409338 1.284145 4.1391425
1.7760019 1.2774117 4.1176171
1.806097 1.2866611 4.1002197
-1.810717 1.3213366 4.1134953
-1.7894461 1.3304451 4.1389952
1.7376705 1.3229821 4.1424451
1.7742968 1.3260452 4.1202445
1.8110827 1.3332164 4.1014743
-1.8038461 1.3682337 4.1052794
-1.7937341 1.377002 4.138525
1.7357123 1.3738533 4.1460242
1.7751995 1.3709635 4.1238961
1.8143578 1.3679472 4.1010609
-1.8181921 1.4279964 4.1257367
-1.7966825 1.4118378 4.137279
1.7318678 1.4234756 4.1447253
1.7786535 1.4168881 4.1212058
-1.8138231 1.4712653 4.134201
1.734537 1.4618578 4.1418643
1.7745136 1.4765038 4.1261353
1.810617 1.4749848 4.1097021
-1.8146844 1.5264498 4.1214595
-1.7888179 1.5322887 4.1478438
1.7451617 1.5009542 4.1382008
1.7725703 1.532577 4.1248527
1.8077239 1.531346 4.10251
-1.8172219 1.5722666 4.1150379
-1.7926044 1.5684476 4.1474953
1.7352443 1.5988567 4.1491909
1.7707503 1.5786489 4.1288714
1.815069 1.5920888 4.1037488
-1.823521 1.6278808 4.1209679
1.7786242 1.6313767 4.124949
1.8186803 1.6280415 4.1022892
-1.8248981 1.6877147 4.1316452
1.7433519 1.6833522 4.1459465
1.7729198 1.6801221 4.1275373
1.8029389 1.6774238 4.1102252
-1.8782388 1.7293183 4.1267648
1.7478459 1.7318151 4.1430693
1.7789927 1.7299557 4.1280441
1.8145031 1.7216654 4.1049562
-1.9283195 1.7709786 4.1325259
1.7796211 1.7835093 4.1322222
1.8235755 1.7818187 4.1088352
-1.9301164 1.8029035 4.1055708
1.7389443 1.84504 4.1492767
1.7739565 1.8266027 4.1293478
1.8222466 1.8283821 4.1115055
1.7438942 1.8948824 4.1459122
1.7762285 1.8825972 4.1364484
1.8131551 1.8748897 4.1154618
1.7750924 1.9354471 4.1351404
1.8230269 1.9295788 4.1111064
1.7859695 1.9713392 4.1313567
1.8223867 1.991259 4.120295
1.7741623 2.0301793 4.1391511
1.8272624 2.0359519 4.1164927
1.7883565 2.0767176 4.1327519
1.8189464 2.0730252 4.1139717
1.8544145 2.0862033 4.1015606
1.7874492 2.1222308 4.1358223
1.8258493 2.114836 4.1161675
1.7862082 2.1676509 4.1377573
1.825806 2.1703687 4.1144767
1.7749096 2.22647 4.1415429
1.8191552 2.2247815 4.1228781
1.8514731 2.2225127 4.1067286
-2.401727 2.2896123 4.1195455
-2.3555312 2.2910242 4.1446347
-2.260076 2.2906334 4.1227975
-2.1307874 2.289423 4.1134324
-2.0121129 2.2971997 4.1175447
-1.984785 2.2924151 4.1179461
-1.8750265 2.2945197 4.1045799
-1.8073672 2.2959523 4.1314688
-1.7724025 2.2952514 4.141902
-1.7469199 2.2997496 4.1027875
-1.6778725 2.2986805 4.1231537
-1.6212513 2.299021 4.1414471
1.7781177 2.2762575 4.1295276
1.8226393 2.2747817 4.1111555
-2.0448034 2.3079288 4.1275902
-1.9711437 2.3035126 4.1467562
-1.832375 2.3100049 4.1230721
-1.7987257 2.3078284 4.1016421
-1.7296414 2.3184752 4.118351
-1.6146581 2.3123341 4.1147275
-1.5680518 2.3104582 4.1250067
-1.521101 2.3079205 4.1335926
-1.4689542 2.3104439 4.1350784
-1.4278166 2.3076999 4.105052
-1.2617347 2.313025 4.1044788
-1.2267708 2.3099966 4.1068001
-1.1763996 2.3201277 4.1371632
-1.1237681 2.3257985 4.107708
-1.0573047 2.3257184 4.1209192
-1.0317897 2.3181396 4.1117258
-0.96865338 2.3255191 4.1369696
-0.94251907 2.3377645 4.1139703
-0.87459135 2.3218293 4.120935
-0.81750208 2.3227823 4.1397519
-0.76306027 2.328373 4.1247625
-0.72497487 2.3308699 4.1181054
-0.38601634 2.3496568 4.1053815
-0.23325923 2.3446336 4.1051178
-0.16846459 2.3490872 4.1152825
-0.14631401 2.3426085 4.1045499
1.7284231 2.332099 4.1464834
1.7750111 2.332963 4.1327133
1.8180817 2.329299 4.1104641
-0.3647069 2.352505 4.1118374
-0.33243665 2.3552537 4.1186905
-0.29906887 2.3501015 4.1115513
-0.19042696 2.3517601 4.1192613
-0.10338047 2.3525858 4.1230135
-0.081913054 2.3615501 4.1390877
-0.027150847 2.3655925 4.1230149
0.027417716 2.3608673 4.1383867
0.08206097 2.3721259 4.1338615
0.12542608 2.3658998 4.1222224
0.16914953 2.3675826 4.1240034
0.20184936 2.3783123 4.1178761
0.28966406 2.3829007 4.1219492
0.32303381 2.3760695 4.1319857
0.37763152 2.3863318 4.1226115
0.41119754 2.3906846 4.127779
0.46546805 2.387804 4.1184735
0.50881284 2.3856635 4.1109128
0.59656084 2.3865621 4.1036458
0.63008785 2.3891625 4.1044216
0.67521107 2.3937273 4.1070223
0.75429165 2.3898978 4.1141033
1.6726191 2.3918352 4.1432624
1.7184756 2.3801622 4.133348
1.7687914 2.3725884 4.1155
1.8228711 2.3699541 4.1056657
0.85822892 2.4035511 4.1229553
0.91525555 2.4189653 4.1163402
0.97584516 2.4094417 4.1383071
1.0177369 2.4030542 4.119174
1.0749745 2.4067631 4.1147265
1.1838914 2.4131989 4.1288223
1.2283077 2.4158504 4.1322331
1.2751772 2.4048705 4.118217
1.3252411 2.414278 4.1233501
1.3716669 2.4166322 4.1159306
1.4200588 2.4221401 4.1133804
1.4877876 2.4176164 4.1392283
1.5230124 2.4192929 4.1323681
1.5705626 2.4107733 4.1292105
1.6157519 2.411895 4.126729
1.6686668 2.409143 4.1230021
1.7146891 2.4093592 4.1084719
-1.6981181 0.39987302 4.1698875
-1.7123753 0.42554444 4.1685596
-1.6827668 0.42233407 4.1884632
1.5822289 0.53641868 4.1897602
1.6208341 0.52480721 4.1706882
1.5727754 0.57886326 4.191432
1.6202899 0.57706946 4.1644268
1.5731679 0.62110627 4.1882763
1.6217653 0.61959058 4.1639876
1.5820298 0.6699872 4.1913009
1.6250012 0.67341608 4.1665654
1.5793979 0.7292155 4.192966
1.6277763 0.72725558 4.1674948
1.5843754 0.76866013 4.1910291
1.6261308 0.76850736 4.1701698
1.660866 0.78063464 4.1557188
1.5953903 0.82713509 4.1920428
1.6241881 0.82562977 4.1757679
1.6571426 0.81832677 4.1560512
1.598317 0.87112075 4.1937137
1.6227782 0.88332224 4.1823092
1.6682982 0.87948799 4.1608853
1.6221136 0.92570311 4.1865563
1.6723702 0.92409492 4.164494
1.6244806 0.96967381 4.1858482
1.6732683 0.97771639 4.1580882
-1.7492553 1.0489222 4.15768
1.636606 1.0209469 4.1844549
1.6731386 1.0316192 4.1689448
-1.7752036 1.0945399 4.1538811
-1.7196156 1.093277 4.1652641
-1.6905509 1.0523202 4.1901507
1.6230762 1.0823643 4.1941452
1.6712064 1.0788862 4.1656761
-1.766781 1.1281871 4.1563463
-1.7294264 1.1259364 4.1739011
1.6298672 1.1310382 4.1927371
1.6701263 1.1258959 4.1663723
-1.765607 1.1763517 4.1537642
-1.7316791 1.1765163 4.1797719
1.6319052 1.1682816 4.1909509
1.6755699 1.1682267 4.1723266
1.7103384 1.1692028 4.1570873
-1.771134 1.2160072 4.1592908
-1.7361864 1.2228537 4.1816845
1.6459181 1.2199388 4.1969466
1.6745476 1.2172346 4.1784291
1.7091846 1.2102222 4.1558914
-1.7666661 1.2755456 4.1553822
-1.7405376 1.2630606 4.1738343
1.6389539 1.2795485 4.1911688
1.6778507 1.2735983 4.1750526
1.7133329 1.271911 4.1584706
-1.7688441 1.333042 4.1682458
-1.7356491 1.3280828 4.1882114
1.6316246 1.3338468 4.1981516
1.6709131 1.330631 4.1756687
1.7118967 1.3288641 4.1574717
-1.7692331 1.3832666 4.1676116
-1.7428781 1.3773357 4.1953936
1.6349633 1.3800507 4.1966047
1.6747547 1.3770527 4.1750722
1.7148843 1.3744822 4.1544929
-1.7712295 1.4284374 4.1615109
-1.7417362 1.4310511 4.179265
1.6384654 1.4265542 4.1950579
1.6786128 1.4237014 4.174129
1.7171284 1.4087777 4.1520066
-1.7794421 1.4788736 4.1695576
-1.7454958 1.4669796 4.1799631
1.6440251 1.4751087 4.1983252
1.6729584 1.4717522 4.179337
1.7092857 1.472258 4.1577363
-1.7679636 1.5215118 4.1763206
1.6472239 1.5217646 4.1951108
1.6772335 1.5192252 4.178587
1.7178116 1.5164845 4.1580081
-1.767843 1.5756708 4.1771069
1.6725998 1.5688549 4.1857266
1.7210696 1.571636 4.1580858
-1.8022512 1.6320101 4.154026
-1.7833465 1.6183543 4.1732721
1.6763839 1.616393 4.1828961
1.7333513 1.6331576 4.1559677
-1.8083107 1.6707008 4.1581316
-1.7878145 1.6828595 4.1875858
1.6708045 1.6657561 4.1869631
1.7146829 1.6700157 4.1651983
1.6820406 1.7213073 4.1904321
1.7160114 1.7286705 4.1644297
1.6754239 1.7680773 4.1895418
1.7240344 1.7855282 4.1617727
1.7559781 1.7731156 4.1518412
-1.9287975 1.8001713 4.166079
1.6862115 1.814733 4.1843615
1.7226243 1.8286319 4.1551924
1.676562 1.8636402 4.18995
1.7186136 1.8831131 4.1624212
1.6768091 1.9184996 4.1934066
1.7274209 1.9236526 4.1591706
1.6477166 1.9800494 4.1954184
1.6810777 1.9683684 4.1883297
1.7255373 1.9678192 4.1732755
1.7586242 1.9783394 4.1570458
1.6871431 2.0206337 4.1871748
1.7308507 2.0189891 4.1697407
1.7607579 2.0032516 4.153863
1.6855972 2.0777981 4.1981049
1.7255777 2.0713387 4.1709194
1.7723393 2.0844085 4.1555538
1.6914715 2.1306176 4.1952786
1.7215168 2.1255603 4.1746101
1.7609209 2.119051 4.1573815
1.6975162 2.1725388 4.1967916
1.7235695 2.1845756 4.1793442
1.7608006 2.1774654 4.1577969
1.6792262 2.2243319 4.1968327
1.7235804 2.2339194 4.1741056
-2.3245165 2.2836261 4.1748047
-2.1440141 2.2926648 4.1771636
-1.9607296 2.2952676 4.1931014
1.6842141 2.2654586 4.1950092
1.7284509 2.2747042 4.1714644
1.7504302 2.2963643 4.1517591
-2.22282 2.3009088 4.1621327
-2.0597329 2.3012929 4.1681733
-1.9241859 2.3029652 4.1630874
-1.875767 2.3006003 4.1755528
-1.7527087 2.3146725 4.1884737
-1.7010548 2.3073626 4.1900926
-1.671365 2.3096995 4.1758113
-1.587999 2.3168974 4.1873646
-1.5350765 2.3062732 4.1813316
-1.2627093 2.333668 4.1962471
-1.2340784 2.322408 4.1811085
-1.1744428 2.3158851 4.1816239
-1.1205121 2.3200731 4.1661248
-1.0751499 2.3187587 4.1726489
-1.0230395 2.3319757 4.1773148
-0.94975221 2.333478 4.1549973
-0.87281007 2.3244843 4.1762886
-0.7813943 2.3283577 4.171772
-0.66517717 2.3372009 4.1698794
-0.41331488 2.3375161 4.1781726
-0.36766958 2.3496547 4.1545148
-0.22464311 2.3462229 4.1559591
1.6811963 2.3217158 4.1878057
1.7139555 2.3185825 4.1662798
-0.38977271 2.3505528 4.1546168
-0.25806436 2.3511724 4.1633215
-0.19224305 2.3522081 4.1677942
-0.10488512 2.3647358 4.1923189
-0.082804367 2.3651567 4.1934309
-0.038529202 2.3604789 4.1856117
0.07163626 2.3677397 4.1741261
0.1162291 2.3679881 4.1978788
0.16048752 2.3680897 4.1969843
0.20340912 2.3746884 4.1590514
0.29285851 2.3870661 4.1768341
0.31396157 2.3795314 4.1624622
0.36876869 2.3778007 4.1560717
0.41344628 2.3816161 4.1596603
0.49412665 2.398694 4.1832128
0.5825296 2.3969915 4.1717148
0.6711266 2.3964367 4.1607666
0.71540517 2.3961465 4.1547184
0.78308362 2.3996375 4.151742
1.0361952 2.3977489 4.1562805
1.5483521 2.3951523 4.1873031
1.5856478 2.399344 4.1845293
1.6351738 2.3824642 4.1809874
1.6782 2.3652081 4.1726336
0.47257176 2.4019949 4.1908803
0.52886796 2.4051828 4.1914778
0.56310403 2.4088094 4.1945615
0.61769736 2.4043713 4.1809645
0.69449413 2.4005322 4.1651473
0.74081963 2.4066546 4.1700144
0.81898403 2.4071674 4.1599054
0.8883872 2.4142394 4.1617556
0.91989082 2.4135273 4.1886692
0.97526312 2.4131927 4.1953425
1.0736859 2.4064367 4.1648264
1.1214665 2.4130602 4.1843681
1.1575012 2.4171836 4.1673064
1.2701304 2.4155326 4.1910391
1.3166507 2.4172542 4.1831999
1.366665 2.425158 4.1855812
1.4230413 2.4238577 4.1685576
1.471843 2.4174325 4.1701112
1.5207005 2.4108908 4.1709208
-1.6618515 0.42506692 4.2245684
-1.6905371 0.46667507 4.2046733
1.4419181 0.50725472 4.2489686
1.4878322 0.52969694 4.2476707
1.5297381 0.5365423 4.222621
1.5739495 0.52777267 4.2095685
1.4885157 0.57232982 4.2457919
1.5241841 0.57699358 4.2254453
1.4818357 0.62899166 4.243072
1.5276781 0.62400681 4.2213836
1.4820728 0.67149687 4.2392673
1.5287173 0.67732102 4.2185345
1.5694647 0.68722749 4.2023787
1.4816993 0.72250795 4.2434812
1.5266582 0.72916281 4.2197599
1.5514969 0.74158001 4.2101626
1.4734042 0.76618546 4.247601
1.5273031 0.77720845 4.2352157
1.5626899 0.77894688 4.2150493
1.497648 0.82100737 4.243947
1.5283409 0.82033455 4.2324538
1.5673202 0.81847233 4.2119198
1.4978869 0.85313189 4.2402353
1.5228542 0.87771958 4.2336011
1.5698048 0.87297964 4.2110648
1.4824775 0.94218165 4.2497954
1.5241913 0.93082041 4.2377725
1.5733374 0.92829478 4.2125554
1.535305 0.97257012 4.2408624
1.5724351 0.97652209 4.2219057
-1.6802448 1.0377355 4.2281418
1.5198454 1.0206616 4.2444315
1.5709386 1.0189886 4.2236705
1.610687 1.0170164 4.2040911
-1.6838696 1.0725038 4.231472
1.5334523 1.0656255 4.2422237
1.5726639 1.0738072 4.2189202
1.6122946 1.0501685 4.2026992
-2.2734251 1.1401716 4.2102695
-2.2473135 1.1496235 4.2281089
-1.7047166 1.1260818 4.2131958
-1.6861362 1.1172876 4.2291632
1.5382937 1.1121844 4.2478037
1.5774221 1.1308963 4.2217584
1.6162076 1.117161 4.201098
-2.3066785 1.1794946 4.2315006
-2.2641654 1.1750617 4.2293739
-1.7102644 1.1840742 4.2162466
-1.6931975 1.187331 4.2341347
1.5737565 1.1792998 4.2353582
1.608193 1.179067 4.2103429
-2.3113878 1.2046254 4.2353063
-2.2908695 1.2057719 4.2486515
-1.7143376 1.2304361 4.2173204
-1.6898012 1.2300801 4.2377152
1.5457138 1.2368773 4.2449288
1.5771147 1.2251592 4.2356215
1.6158314 1.2216668 4.2118726
-2.6435022 1.2903428 4.2453032
-1.7107277 1.2730864 4.2199645
-1.6997179 1.2902973 4.2297382
1.548013 1.2713227 4.2443781
1.5778296 1.2691027 4.2284231
1.61206 1.2716107 4.2072935
-2.6478267 1.3159453 4.2465987
-1.7084699 1.3409014 4.2416544
1.5747589 1.3210777 4.2325411
1.6131871 1.3365437 4.2126174
-1.7209377 1.3758446 4.2235456
1.5757462 1.3743612 4.232975
1.6171858 1.3834114 4.2129369
-1.7263819 1.4254764 4.2043386
1.5767994 1.4280161 4.2331872
1.618621 1.428247 4.2061596
-1.7315686 1.4737481 4.2059274
1.5751908 1.4822706 4.2399588
1.6127881 1.4765062 4.2115164
-1.7271782 1.5235653 4.2138643
1.5784014 1.5292948 4.2372813
1.6167557 1.5239947 4.2105436
-2.6574152 1.5941887 4.240972
-1.7387053 1.5781883 4.2300096
1.5488741 1.5657845 4.2468524
1.5756733 1.5793927 4.2371626
1.6225955 1.5735146 4.2139578
-1.7367749 1.6260382 4.2280941
1.586189 1.6253004 4.2342324
1.6244037 1.61932 4.2064209
-1.7543107 1.693665 4.205492
1.5699986 1.675825 4.2436137
1.6205769 1.6708139 4.2156224
1.5785393 1.721795 4.2436752
1.6262951 1.7211351 4.2173562
1.6681937 1.7074479 4.2015772
1.5909948 1.775664 4.2404642
1.6258957 1.7677269 4.2162108
1.5969217 1.8271329 4.2421827
1.6259573 1.8220153 4.2208362
1.656955 1.819237 4.2047205
1.5817875 1.8918664 4.249753
1.6197305 1.8724726 4.2224159
1.5756513 1.9311023 4.242928
1.6253362 1.923955 4.2218928
1.588151 1.9786389 4.2399106
1.6255302 1.9724112 4.2205801
1.5936728 2.0195556 4.2426319
1.6262069 2.0290751 4.2249308
1.6554408 2.0232611 4.2028522
1.6270685 2.0819514 4.230967
1.6658047 2.081429 4.2123275
1.6232502 2.1253304 4.2336612
1.6643642 2.1386116 4.2113252
1.5890006 2.1804397 4.2462368
1.6182117 2.1709518 4.2367892
1.6650366 2.1863508 4.2073026
1.5848306 2.2235956 4.2425838
1.623814 2.2154515 4.2236609
1.6560421 2.2239728 4.2031703
-2.1032679 2.2997546 4.2093258
-2.0795169 2.2996857 4.2185926
-1.6822432 2.2900684 4.2177629
-1.6385007 2.2935607 4.2382727
1.5974767 2.2728615 4.2364349
1.6324013 2.2733512 4.2271452
1.6634409 2.2684686 4.2076955
-2.0379269 2.3062356 4.249001
-1.9206114 2.3032897 4.2248793
-1.8714683 2.3006215 4.2365322
-1.8171705 2.314703 4.2253847
-1.7938533 2.314765 4.2333083
-1.6555448 2.3082132 4.2059841
-1.5867513 2.308816 4.2276807
-1.2473503 2.3245907 4.2356205
-1.0975678 2.319711 4.2046752
-1.0381985 2.3128324 4.2029204
-0.96196175 2.3296752 4.2225142
-0.93150681 2.3248465 4.2270904
-0.896047 2.3225758 4.2457523
-0.82502639 2.3355243 4.2293606
-0.77073902 2.3297818 4.2135983
-0.6788168 2.3345466 4.2468176
-0.63976651 2.3373296 4.2061296
-0.37103167 2.3489788 4.2017307
-0.23775654 2.3455846 4.2027621
1.57414 2.3338537 4.2443709
1.6260914 2.3269949 4.2247658
1.6668615 2.3077521 4.2017789
-0.71074301 2.3512688 4.2232156
-0.39445296 2.3565438 4.2137661
-0.28328955 2.3562856 4.2199068
-0.17281558 2.36514 4.2402053
-0.083682746 2.3679204 4.2471848
-0.016533002 2.369005 4.2008395
0.027811825 2.374747 4.2109513
0.07217966 2.3648708 4.2173643
0.13910663 2.3808546 4.220191
0.1848741 2.3973956 4.2482476
0.21706566 2.3819861 4.2197618
0.2507326 2.3846242 4.2230792
0.38319358 2.3770285 4.202209
0.40579009 2.3792958 4.2046719
0.49684498 2.3895483 4.2156906
0.54388011 2.3888159 4.2348385
0.57330346 2.3905954 4.2268357
0.63290805 2.3975251 4.2163668
1.4905484 2.3901527 4.2487497
1.5283545 2.381098 4.2391195
1.5685928 2.3737941 4.2226601
1.6109833 2.3698864 4.2118402
0.47688186 2.4014497 4.2386055
0.61347866 2.4091928 4.2393589
0.66853613 2.4048431 4.2253494
0.725631 2.4079533 4.2238607
0.78179252 2.4077153 4.2159414
0.82759291 2.4099898 4.2134686
0.87623489 2.4199328 4.2239847
0.93606901 2.405859 4.2396598
1.0304294 2.4256737 4.2336855
1.0780324 2.4190249 4.238277
1.1424336 2.4104381 4.2096457
1.1800382 2.4175649 4.2148905
1.2287034 2.4236851 4.2155924
1.2808414 2.4129057 4.2364454
1.3264223 2.4122667 4.2244821
1.38072 2.412529 4.2295222
1.4291121 2.4164264 4.2245388
1.4689795 2.4110668 4.2217937
1.5172966 2.400641 4.2066994
-1.637681 0.43606213 4.2730818
-1.6288538 0.45186219 4.2901425
1.4297413 0.48919025 4.2823586
1.3894448 0.52190483 4.2961202
1.4245508 0.52286071 4.2777119
1.4745888 0.51587731 4.2547498
1.5887735 0.5137881 4.2720728
1.3897787 0.5752787 4.2924666
1.4242829 0.5775041 4.2779937
1.4618556 0.56924641 4.262023
1.3899801 0.61796415 4.2890434
1.4301234 0.62756437 4.2710767
1.4690777 0.61542696 4.2518473
1.3925929 0.6724841 4.2915769
1.4260712 0.67317498 4.2887745
1.4587215 0.66665548 4.2610936
1.3863899 0.71921045 4.2908368
1.4252305 0.72618562 4.2802329
1.452175 0.723656 4.2579174
1.3988382 0.77197826 4.2996588
1.4300144 0.78217483 4.2881222
1.4786201 0.78171873 4.2610121
1.4258896 0.82851774 4.2906785
1.4689096 0.82282388 4.261045
1.4266202 0.86758482 4.2875848
1.4715594 0.86712712 4.2628489
1.4371405 0.92605001 4.2901506
1.4721566 0.91807157 4.2641153
1.4493586 0.97006863 4.2853217
1.4725071 0.98123133 4.26932
1.508194 0.97709882 4.2516212
-1.6704679 1.0451337 4.2643914
-1.6480598 1.022959 4.2724466
1.4330695 1.0169055 4.2991724
1.4707102 1.0238405 4.2708802
-1.6663237 1.0821546 4.2789645
1.4337142 1.071476 4.291914
1.4740534 1.0693645 4.2731533
1.5146201 1.0675231 4.2551861
-1.6750866 1.1135145 4.2643886
1.436403 1.1168538 4.2922287
1.4765216 1.1144204 4.272512
1.5205048 1.1344535 4.2602625
-2.3734217 1.1845347 4.278821
-1.6701983 1.1661314 4.2628231
1.4416924 1.1753908 4.2978306
1.4724846 1.1739334 4.2846923
1.5244751 1.1829824 4.2626162
-2.6287827 1.2303129 4.259635
-2.5984778 1.2325721 4.2842493
-2.2845125 1.2198188 4.2600913
-1.6756859 1.2284831 4.2651124
1.4463602 1.244688 4.2988014
1.4769082 1.2319571 4.2868061
1.5214251 1.2252676 4.2591209
-2.6284511 1.2749721 4.2574325
-2.5929754 1.2767344 4.2819724
-1.6856997 1.2853396 4.258193
1.4474123 1.2783768 4.295126
1.4786726 1.2770847 4.2828803
1.5182855 1.2737197 4.2607546
-1.678225 1.3100393 4.2654309
1.4499708 1.3134668 4.2957273
1.4747325 1.3252838 4.2822061
1.5211136 1.3197052 4.2592182
-1.6888916 1.3848577 4.2774272
1.4738369 1.3700686 4.2840915
1.5244406 1.3663186 4.2586985
-1.7012271 1.4412973 4.2641029
-1.6842672 1.44576 4.2836986
1.4818671 1.4151957 4.2839031
1.5294893 1.4147174 4.262569
-2.6470504 1.4931854 4.2517681
-1.7073905 1.4798927 4.2712307
-1.6932639 1.4982034 4.2954369
1.4827247 1.4665273 4.2890625
1.5245217 1.4753494 4.268816
-2.6541965 1.5328726 4.2531877
-2.6237888 1.5239911 4.282445
-1.7069616 1.5351455 4.2558198
-1.6937282 1.5321803 4.2879725
1.4780387 1.5215061 4.2905645
1.5273277 1.533217 4.2626982
-2.6630089 1.5737047 4.256969
-2.6296623 1.5615817 4.2913837
-1.6984849 1.5813209 4.2881241
1.4855717 1.5839752 4.2931237
1.5221536 1.5834328 4.2703156
-2.6340878 1.6255714 4.2713733
-1.7105284 1.6268482 4.2862039
1.4816949 1.6276798 4.2893109
1.5258317 1.6316384 4.2685118
1.5568674 1.6292883 4.2536278
-2.6050484 1.6537696 4.2926941
-1.7148638 1.6648904 4.2759953
1.4877503 1.6831689 4.2855124
1.5280435 1.6784769 4.2621641
1.4823148 1.7344222 4.2919092
1.5223461 1.7291113 4.2672863
1.5665189 1.7397629 4.2509513
1.4870868 1.7849226 4.2922897
1.5180539 1.781758 4.2760468
1.5614189 1.7801359 4.2602925
1.4803548 1.8353956 4.2942963
1.5217541 1.8310473 4.2725401
1.565322 1.829474 4.2568884
1.4838785 1.8849182 4.2901278
1.5302528 1.878068 4.2716198
1.5664228 1.8764273 4.2578225
1.5263485 1.9286901 4.2816138
1.5611752 1.9167206 4.2536111
1.5312685 1.9846951 4.2759275
1.5675876 1.9812176 4.2517219
1.4890903 2.0315788 4.2987194
1.515872 2.0191257 4.2831259
1.5747046 2.0319118 4.256227
1.4946586 2.0850074 4.298408
1.5253758 2.0686419 4.283287
1.5687548 2.0655918 4.2645731
1.4962451 2.1101615 4.2945795
1.5261841 2.1273398 4.2889934
1.5739138 2.118197 4.2616458
1.537008 2.1765773 4.281589
1.5739502 2.1654842 4.2571568
1.4873699 2.2460854 4.2973223
1.5269842 2.2292702 4.2860117
1.5603977 2.2231936 4.2582383
-2.0973663 2.2955098 4.2651162
-2.0466368 2.2922115 4.2773643
-1.7716267 2.292856 4.2536035
1.4891492 2.2719615 4.2932038
1.5301052 2.2831771 4.2862334
1.568619 2.2812078 4.2619219
-1.8504976 2.30372 4.2503185
-1.8276674 2.3045542 4.2598066
-1.2051086 2.3310137 4.257309
-1.1622932 2.325299 4.2821407
-1.1251707 2.3310452 4.2738171
-1.0874807 2.3237383 4.2670827
-1.0146163 2.3360651 4.2513509
-0.85694611 2.3389089 4.2825623
-0.83421123 2.3388145 4.2857232
-0.72422391 2.3408806 4.2701092
-0.63427681 2.3421633 4.2830272
1.4870948 2.3194578 4.2958603
1.5274839 2.3237896 4.2748508
1.5593404 2.3193495 4.257061
-0.22002916 2.3708239 4.2985711
-0.16333798 2.3669739 4.2934294
-0.016710263 2.3721185 4.255302
0.0056700092 2.3749084 4.2603292
0.095551729 2.3706465 4.2767506
0.12900841 2.3776159 4.2637477
0.17398016 2.3792253 4.2654619
0.22950087 2.3731763 4.252677
0.32249781 2.3989418 4.2945447
0.37806678 2.3925676 4.2797203
0.41283897 2.3979938 4.2871246
0.46948424 2.3985066 4.2837257
0.59242719 2.3925574 4.2616801
0.67245638 2.3962781 4.2595668
0.94259542 2.3997705 4.2789068
1.2964021 2.3974698 4.2571473
1.3751682 2.3911867 4.2804928
1.4366534 2.3794994 4.2836523
1.475069 2.3692443 4.2766724
1.5174711 2.3611343 4.2678657
0.5039289 2.4009583 4.2852602
0.63006353 2.4071095 4.2839727
0.7203244 2.4051976 4.2699032
0.76778162 2.4116254 4.2753963
0.82631963 2.4166605 4.2763667
0.88621211 2.4246383 4.281929
0.91881979 2.408731 4.2734971
0.97392511 2.4171212 4.2710381
1.0096792 2.4191422 4.2512441
1.0727599 2.4099126 4.2745943
1.1175929 2.4076381 4.2616625
1.1644831 2.409811 4.2561865
1.2235875 2.4207196 4.2817478
1.2674217 2.4196062 4.2788744
1.3353205 2.4052937 4.2628384
1.3698338 2.4050312 4.253953
1.4190167 2.4100502 4.2511611
1.336336 0.49392334 4.3474164
1.3742117 0.49213538 4.322506
1.290186 0.5248214 4.3427758
1.3226479 0.52493119 4.3373404
1.3625565 0.52383429 4.3190913
1.293691 0.57991356 4.3499312
1.3248377 0.57424182 4.3328066
1.3619465 0.57700926 4.3124709
1.2944375 0.62322837 4.3483596
1.3230314 0.62681824 4.3369551
1.3688483 0.6327917 4.3072767
1.2956518 0.66681415 4.3481069
1.3237802 0.67547476 4.32688
1.3652444 0.67478883 4.3133068
1.3367035 0.71955037 4.3270102
1.3629665 0.71472806 4.313839
1.329748 0.77543497 4.3352394
1.3731778 0.76999921 4.3120713
1.4014233 0.79488438 4.3049054
1.3323045 0.83087116 4.3367262
1.3725604 0.82912409 4.3183808
1.401613 0.81647444 4.3027115
1.3339357 0.87509143 4.3361912
1.3732176 0.87261117 4.3145642
1.4047484 0.88289273 4.3035169
1.3369243 0.92036605 4.3397408
1.3767557 0.91806149 4.3195009
1.4072177 0.91680467 4.306385
1.3298714 0.95553595 4.3494897
1.3713645 0.97590744 4.3307548
1.4203103 0.97811908 4.3090754
-1.6266396 1.0370332 4.3430882
1.3325258 1.0227242 4.3478827
1.3729725 1.0313159 4.3271008
1.4216579 1.0335139 4.3092151
-1.6290079 1.0716954 4.3437152
1.3758057 1.076969 4.3287082
1.4142615 1.073125 4.3035555
-1.6575155 1.1238054 4.3129339
1.3364509 1.1130189 4.3458476
1.379373 1.1233859 4.3322244
1.4180841 1.1195085 4.3074536
1.3721604 1.1701423 4.3382139
1.4137347 1.1731058 4.3133826
-2.5693488 1.2177262 4.3234386
-2.5260239 1.2136765 4.3434076
-2.463562 1.2121115 4.3090024
-1.6364763 1.2208627 4.336607
1.3414824 1.215784 4.3437948
1.3743588 1.2267767 4.3345346
1.4178404 1.2270095 4.3110318
-2.5800295 1.270131 4.3220196
1.3450905 1.2519978 4.3489494
1.3782129 1.2851351 4.3355675
1.4175605 1.2810112 4.3116894
-2.5668671 1.3107458 4.3156276
-1.6604815 1.3333035 4.3118453
-1.6459577 1.3395565 4.3381915
1.3813741 1.3321308 4.3361931
1.4201385 1.3272159 4.3101544
-1.6643198 1.3809285 4.311727
-1.6496527 1.3873127 4.3378305
1.3851619 1.3799374 4.3382983
1.4241315 1.3749514 4.3125267
1.3862133 1.4252763 4.344717
1.4236733 1.427314 4.322094
1.4600043 1.432768 4.300447
-1.6535732 1.4803216 4.3267241
1.3823421 1.477011 4.346034
1.4221554 1.4722909 4.3219166
1.46328 1.4691234 4.3021054
-1.6643723 1.5132979 4.3258524
1.3843129 1.523607 4.3413005
1.4256105 1.5202475 4.3214111
-2.6026495 1.580421 4.3100624
-2.573349 1.5844722 4.338027
-1.667006 1.5827894 4.3386683
1.3765516 1.5719286 4.3430982
1.4284964 1.5678114 4.3188262
1.470194 1.5537519 4.3028917
-2.6064942 1.618722 4.3058834
-2.5887871 1.6226356 4.3276868
-1.6805582 1.6189518 4.3322334
1.3797774 1.6203179 4.3415279
1.4211073 1.6165173 4.320991
1.451813 1.6134815 4.3048854
-2.5787144 1.6599395 4.3258429
-1.6823242 1.6545943 4.327343
1.3948746 1.6697123 4.3390074
1.426427 1.6673245 4.3249083
1.4571195 1.6752334 4.3051939
-1.7802414 1.740798 4.3295727
-1.7233396 1.7182901 4.3188066
-1.6968181 1.7030866 4.3191824
1.3861916 1.7064281 4.3400602
1.4235022 1.7189283 4.3247743
1.4617523 1.736573 4.3028002
-1.7614021 1.7677691 4.3396187
-1.7391137 1.7799375 4.3446207
1.4246178 1.7685355 4.3304458
1.4657315 1.7749959 4.3045182
-1.7733297 1.8490819 4.3475189
-1.7453917 1.820919 4.3496928
1.3870648 1.8347012 4.347434
1.4280821 1.8179913 4.3273311
1.4678762 1.8000965 4.3039947
-1.7389777 1.8956399 4.3438487
1.3896341 1.872165 4.3448896
1.4210503 1.8687371 4.3289061
1.4509189 1.8634613 4.3084764
-1.7321452 1.9112297 4.3192348
1.4278445 1.9231964 4.3350058
1.4648428 1.9208044 4.3096123
-1.7691394 1.961666 4.3468156
1.4256451 1.9774336 4.3349247
1.4740108 1.9696103 4.3105702
1.5064169 1.9559627 4.3007388
-1.7387127 2.0010996 4.3444014
1.4262172 2.0281122 4.3368115
1.4756492 2.0188196 4.3131433
1.4248878 2.0764444 4.3326092
1.4724327 2.0745354 4.310431
1.3925128 2.1499209 4.3488207
1.4229037 2.1204693 4.3359642
1.4679853 2.1305609 4.3172531
1.428926 2.164151 4.3414335
1.4673711 2.1775944 4.3118916
1.5085993 2.1854255 4.3082914
1.3980696 2.2049298 4.3487968
1.4271071 2.2207553 4.3403044
1.4771636 2.224998 4.3134055
1.4267617 2.2717338 4.3372865
1.4673357 2.2740653 4.3032432
-2.0298717 2.3002503 4.3013639
-1.8692427 2.3033071 4.3033733
-1.2193633 2.3354588 4.3171592
-1.1930361 2.3291864 4.3104196
-1.1308864 2.3199244 4.3048992
-1.0882344 2.3269253 4.3267617
-1.0271646 2.336252 4.3156457
-0.936571 2.3450468 4.3345237
-0.86516517 2.3384125 4.3328857
-0.81465751 2.3478832 4.3055916
-0.7450279 2.3439078 4.3074698
-0.58588248 2.3443408 4.3264093
1.3855846 2.3274093 4.3469744
1.4273815 2.3193688 4.3204732
1.4719635 2.3045211 4.3074055
-0.70457113 2.3608081 4.344213
-0.68023491 2.3558843 4.3378491
-0.26630273 2.3582065 4.3240685
-0.22130233 2.361834 4.3325982
-0.13050759 2.3850043 4.3270016
-0.073515728 2.3772521 4.3139095
-0.028209437 2.3798118 4.3189497
0.017143507 2.3923385 4.3417296
0.051141236 2.3837616 4.3259792
0.1302349 2.377682 4.3137174
0.17630139 2.3880184 4.3312879
0.21092415 2.3939803 4.3409925
0.26793039 2.3941364 4.3389549
0.46127015 2.3919408 4.3229885
0.51904428 2.3957882 4.3251581
0.6902476 2.3962243 4.3082032
1.2385926 2.3963065 4.3219705
1.293292 2.3881576 4.3489428
1.3298377 2.3836575 4.3318505
1.3733025 2.373163 4.3287053
1.4132117 2.3643608 4.3108454
0.30295226 2.400712 4.3492284
0.4401637 2.4010413 4.3411903
0.52941871 2.4139304 4.306385
0.55525148 2.4044247 4.3376145
0.6489892 2.412473 4.3426962
0.72929358 2.4121387 4.3325977
0.76664221 2.4213364 4.344697
0.82084012 2.4111955 4.3186464
0.86820531 2.4152856 4.3192577
0.90396053 2.4186597 4.3200006
0.97583652 2.4141715 4.326169
1.0335333 2.42554 4.3108625
1.0849576 2.4140193 4.3328676
1.1325328 2.4165907 4.3285189
1.1769139 2.4125144 4.3298092
1.2145035 2.4062586 4.3191071
1.2713121 2.4072626 4.3176131
1.3410873 2.4133584 4.3315005
1.2239642 0.49620914 4.391201
1.2746443 0.49496436 4.3697414
1.3158207 0.4942756 4.3549895
1.2241133 0.5286302 4.3891716
1.2638299 0.52720487 4.3690724
1.2253919 0.57236719 4.3900881
1.2698014 0.56787598 4.36269
1.2274764 0.62741905 4.3924904
1.2657876 0.62500179 4.3671412
1.2284628 0.68203795 4.3905563
1.2738706 0.68187714 4.365705
1.2396154 0.72553611 4.3849163
1.2699823 0.72433203 4.3713489
1.3110986 0.72317559 4.3556437
1.2430158 0.77094412 4.3918972
1.27152 0.76850331 4.3716154
1.3009511 0.77751452 4.3536057
1.2379491 0.82005131 4.3881688
1.2733802 0.8238185 4.3712277
1.3039883 0.83344102 4.3569226
1.2483623 0.88329726 4.3967619
1.2745869 0.87883806 4.3681421
1.3054013 0.87768078 4.3557997
1.2422185 0.9313848 4.3954663
1.2793465 0.92568398 4.3783264
1.3077756 0.92269033 4.3575516
1.2278619 0.96063232 4.3946567
1.2711054 0.97127575 4.3831363
1.3180739 0.97199154 4.3591418
-1.609468 1.0401846 4.3620877
1.2855158 1.0176768 4.3860574
1.3144815 1.0256153 4.3647518
-1.6075805 1.0906835 4.3824315
1.2788918 1.0764585 4.3836546
1.3275763 1.0819499 4.3605642
-1.6149114 1.1103122 4.3652573
1.2751372 1.1292915 4.3880262
1.3196068 1.1336746 4.3640161
-1.6045929 1.174522 4.3932815
1.2710272 1.177707 4.3894596
1.3216653 1.1738437 4.3637586
-2.5462294 1.2295555 4.3500748
-1.6215818 1.2040792 4.3665409
1.2782055 1.221414 4.3931241
1.3139665 1.2207469 4.3685269
-2.5548115 1.2692912 4.3568716
-2.5400643 1.2737651 4.3829207
-2.4996123 1.2534927 4.3669252
-1.6504028 1.2760209 4.3643503
-1.6235473 1.27008 4.3937492
1.2808776 1.275586 4.3921199
1.3237269 1.2699764 4.3683729
-2.5577881 1.3063724 4.3538523
-2.5316863 1.311282 4.3862181
-1.6195705 1.3342583 4.3687611
1.2811679 1.3127397 4.3855267
1.3208174 1.3265918 4.3709693
1.3527039 1.3253598 4.3597846
-1.6222668 1.3883108 4.3762717
1.2880119 1.3770916 4.3895063
1.3233426 1.3845202 4.367312
1.3538394 1.3817375 4.3513765
1.2774631 1.4189126 4.3887467
1.3274055 1.433207 4.3705969
1.3587576 1.4311428 4.3570638
-1.6258037 1.496021 4.3849368
1.2838583 1.4739194 4.395298
1.3252676 1.4849672 4.3760386
1.3615788 1.4785755 4.3555975
-1.6351316 1.5282193 4.3681374
1.2840022 1.5478021 4.3998275
1.3240317 1.5310373 4.377254
1.3645425 1.5263606 4.3541584
-2.5464811 1.5901403 4.3701754
-1.6331465 1.5938529 4.3815241
1.2855482 1.583362 4.3966126
1.3256949 1.5777351 4.37149
-2.5654359 1.6306927 4.3660345
-2.5369921 1.6235546 4.3994498
-1.6355366 1.6189879 4.381865
1.2874603 1.6194518 4.3944321
1.3249936 1.624892 4.3738189
1.3517363 1.6381036 4.363718
-2.5592132 1.6707205 4.3708239
-2.540657 1.6622961 4.395174
-1.6417475 1.6709143 4.3859968
1.3238451 1.6790819 4.3809996
1.3654318 1.6748238 4.3599749
-1.6814492 1.7451733 4.3708172
1.3289884 1.7308819 4.3854265
1.3654875 1.7283373 4.3592515
-1.8190213 1.7792456 4.3536406
-1.7985506 1.7818425 4.3671393
-1.717594 1.7814165 4.3550129
-1.6952426 1.7820717 4.3632612
1.2996774 1.7710667 4.3985691
1.3258003 1.7832273 4.3850813
1.3741421 1.776017 4.3619757
-1.8150485 1.821508 4.3647099
-1.772373 1.8134253 4.3560295
-1.7253823 1.8318144 4.3617001
1.2805779 1.8443732 4.3955355
1.3242741 1.830483 4.3831601
1.3726412 1.8205 4.3576283
-1.8165888 1.869596 4.3654418
-1.7656087 1.8762593 4.3530488
-1.7176768 1.8744706 4.3626914
1.3239425 1.8797083 4.3849273
1.3651465 1.8838981 4.3691173
-1.8160862 1.9160507 4.3727798
1.3224397 1.923938 4.3926229
1.3763586 1.9307669 4.3655453
-1.7382822 1.9657131 4.3552747
1.3307817 1.9688159 4.3943768
1.3701921 1.9840636 4.3699155
1.4004484 1.9667659 4.35285
1.3332709 2.0108654 4.3898201
1.378276 2.0323982 4.3683128
1.3468618 2.0698595 4.3903666
1.3738683 2.0679824 4.3698101
1.3390337 2.1221032 4.3889637
1.3739974 2.1175542 4.3649397
1.3319447 2.1757843 4.3894901
1.3706557 2.1731465 4.3689909
1.3252712 2.2306871 4.3911252
1.3677028 2.2237687 4.366816
1.3287642 2.2834198 4.3846827
1.3732458 2.2795424 4.366416
-1.2580062 2.3412318 4.3755755
-1.08907 2.3302982 4.387856
-1.0103418 2.3331845 4.353003
-0.97915685 2.3414359 4.3742838
-0.94700086 2.3479114 4.392087
-0.89924711 2.3445888 4.3931074
-0.79859239 2.3448265 4.3545585
1.2986104 2.3274305 4.3955278
1.3313869 2.3348608 4.3747315
1.3647975 2.3318195 4.360857
-0.7087487 2.3517466 4.379169
-0.68561953 2.3514764 4.3813715
-0.22339588 2.3839126 4.3730536
-0.15393175 2.3733146 4.3558302
-0.13111843 2.3733532 4.3564482
-0.028668236 2.3921649 4.3923616
0.017206682 2.3791838 4.3685718
0.074665785 2.3835497 4.3761172
0.1669067 2.3937109 4.3929682
0.28227076 2.3963194 4.3934441
0.31683695 2.3964097 4.3918715
0.3512463 2.395411 4.388124
1.1335393 2.3967688 4.3990335
1.167956 2.3950746 4.3889799
1.2043232 2.3974032 4.3860903
1.2788855 2.3773978 4.375535
1.3198971 2.3822339 4.3590326
0.23450357 2.4020181 4.3547077
0.37345612 2.4052088 4.3704619
0.41993436 2.4046295 4.374918
0.48894829 2.4161716 4.3649244
0.61719787 2.4230571 4.3654699
0.66970515 2.4166033 4.3825483
0.74813372 2.4129269 4.3837924
0.78699541 2.4212704 4.3767357
0.82992756 2.4147589 4.3762355
0.87913346 2.4223614 4.3832417
0.92501009 2.4204416 4.3726053
0.9836573 2.4217527 4.3654828
1.023626 2.416651 4.3668981
1.0663139 2.4176464 4.3790069
1.115406 2.406487 4.3665972
1.1739402 2.4067698 4.3555212
1.230832 2.4032891 4.391932
1.133981 0.49929798 4.4362068
1.1743501 0.49802664 4.4172568
1.1284271 0.53626496 4.4411893
1.1756073 0.53107476 4.4194274
1.1353403 0.57594621 4.4352899
1.1764449 0.57481533 4.4189
1.1301166 0.62415624 4.4401927
1.1798071 0.62298018 4.4149442
1.1270584 0.67527848 4.4379401
1.1762451 0.67655993 4.4192071
1.1407743 0.73154616 4.4412909
1.1748602 0.72615498 4.4150629
1.2149197 0.73164886 4.4051056
1.1439703 0.76643229 4.4499927
1.177002 0.77106696 4.4181776
1.2172102 0.77656341 4.4083281
1.1448944 0.82183325 4.4469404
1.174969 0.81990284 4.4306331
1.2114102 0.82108235 4.4096169
1.146649 0.86699343 4.448091
1.1793458 0.87180758 4.4319239
1.216447 0.87295192 4.4073358
1.1398109 0.9368785 4.4416218
1.1769542 0.92592305 4.4329228
1.2148119 0.92540312 4.408217
1.1476359 0.96658003 4.4380341
1.1747856 0.98045141 4.4343963
1.2181002 0.97903103 4.4125438
1.176149 1.025601 4.4327426
1.222411 1.0197773 4.4080076
1.2551866 1.0196874 4.401269
-1.6017627 1.0719568 4.4036608
1.1747411 1.0701425 4.4380589
1.2273709 1.0726303 4.4092703
1.2564888 1.0536627 4.4005055
1.1797411 1.1207463 4.4361424
1.2265476 1.1286662 4.4139051
1.1732496 1.1742485 4.4401555
1.2250952 1.1844413 4.4158731
1.1722077 1.2335069 4.4446554
1.224826 1.2305918 4.4237642
1.2663529 1.2389158 4.4031649
-2.5221076 1.28863 4.4009337
-2.4891899 1.2801046 4.4144692
-2.4487524 1.287645 4.4282632
-1.5998648 1.2667624 4.4325495
1.178425 1.2769803 4.4455018
1.2266288 1.2768152 4.421556
1.2672669 1.2619491 4.401968
1.1878886 1.3275125 4.4419684
1.2237787 1.3207157 4.4195023
1.2609159 1.3333596 4.407033
1.1791414 1.3749576 4.4436746
1.2200655 1.3707206 4.421586
1.2584978 1.3643759 4.4059014
1.1815556 1.4225684 4.4429226
1.2240044 1.4198685 4.4259815
1.2560844 1.4293841 4.4117866
-1.6134291 1.4828016 4.4246402
1.1890945 1.4758455 4.4454002
1.2270019 1.4681711 4.4265804
1.2573849 1.4644024 4.4086151
1.19093 1.5156292 4.4433985
1.2274203 1.5135159 4.4174843
1.2677809 1.5163735 4.4057946
-1.6164141 1.5769606 4.4100041
1.2237406 1.5680295 4.4359784
1.2652316 1.574803 4.4114881
-2.5148313 1.6248719 4.4138389
-2.4910617 1.6251658 4.4252982
-1.6251013 1.6313899 4.4216127
1.231038 1.614556 4.4342318
1.2762409 1.6392918 4.4065671
-2.5240674 1.655177 4.4230213
-1.6341654 1.6866999 4.4336877
1.1868936 1.6812251 4.4492822
1.2202169 1.6688503 4.4430532
1.2727145 1.6784101 4.412909
1.222 1.7054179 4.4403934
1.2766577 1.7290224 4.4140639
1.2313966 1.7741318 4.4428887
1.2686083 1.7752311 4.4160419
1.2301528 1.8198164 4.4407711
1.2683421 1.8182384 4.418026
1.2465725 1.8730825 4.4424982
1.2739979 1.8721987 4.4239125
1.2414883 1.9268926 4.4378991
1.2818021 1.920213 4.4238253
1.2306985 1.9764132 4.4439645
1.2734692 1.9711074 4.4225488
1.3164679 1.954964 4.4060769
1.2346148 2.0290999 4.4428954
1.2771323 2.0230544 4.4200578
1.3233621 2.0345736 4.4061809
1.241197 2.0981948 4.4468193
1.2701312 2.0767181 4.4226336
1.3144954 2.0735147 4.4058337
1.2422436 2.1233017 4.4424372
1.2753378 2.1318362 4.424439
1.3155006 2.1238594 4.4080949
1.2461936 2.1651783 4.4440718
1.282972 2.1809251 4.421164
1.3104597 2.1787405 4.4006453
1.2378812 2.2180827 4.4415941
1.2784046 2.2176616 4.4224396
1.2240409 2.2795765 4.4472594
1.2746311 2.2678587 4.4220028
-1.0200694 2.3323224 4.4041572
-0.92894173 2.3376985 4.4296026
-0.81885326 2.3469899 4.4093361
-0.71498263 2.3491693 4.4268332
1.1865 2.3380475 4.4404545
1.2202581 2.3230968 4.4318972
1.2721012 2.3164444 4.413177
