ply
format ascii 1.0
comment PCL generated
element vertex 1555
property float x
property float y
property float z
element camera 0
property float view_px
property float view_py
property float view_pz
property float x_axisx
property float x_axisy
property float x_axisz
property float y_axisx
property float y_axisy
property float y_axisz
property float z_axisx
property float z_axisy
property float z_axisz
property float focal
property float scalex
property float scaley
property float centerx
property float centery
property int viewportx
property int viewporty
property float k1
property float k2
end_header
-0.030522585 2.3405635 3.0740061
0.021872712 2.3414757 3.0752676
0.074270822 2.3421404 3.0754824
0.10876533 2.3319006 3.0612266
0.18830915 2.3476591 3.0788307
0.22796385 2.3458705 3.0827749
0.27560711 2.3453341 3.070447
0.3376596 2.3421464 3.078285
0.37294856 2.343519 3.0767624
0.41673392 2.343013 3.0715246
0.48784047 2.3474553 3.0689604
0.52830857 2.3433878 3.0868499
0.5686903 2.3459177 3.0728014
0.63292336 2.3463316 3.0806334
0.67376792 2.3434536 3.0520666
0.74924666 2.3415403 3.0703027
0.93602562 2.3475549 3.072463
0.13596745 2.3510418 3.0855002
0.16231312 2.3515654 3.0851715
0.31169981 2.3535318 3.0784631
0.44336003 2.3534586 3.065238
0.46245909 2.3524828 3.0788698
0.52312207 2.3568652 3.0594845
0.62386221 2.3545883 3.0757372
0.67739815 2.3560874 3.0684755
0.72254854 2.3567312 3.0845518
0.78350949 2.3646586 3.0951157
0.8268711 2.3606853 3.0802948
0.87545973 2.3571017 3.0763423
0.90913713 2.3654547 3.0677013
0.97924232 2.3654845 3.0865841
1.0254409 2.3679013 3.0775142
1.0662843 2.3592758 3.0723047
1.1259873 2.3523052 3.0632112
1.1754256 2.3608344 3.0728343
1.2290256 2.367641 3.0715032
1.2701651 2.3715835 3.0729876
1.3249 2.3701553 3.070961
1.3838503 2.3706474 3.0796475
1.436295 2.3762531 3.0778837
1.4806389 2.3738272 3.086997
1.5301982 2.3782101 3.0730827
1.5764507 2.3805752 3.0707505
1.6190484 2.3801241 3.0792727
1.6592827 2.3837111 3.0664673
1.7251747 2.3792319 3.0823927
1.7765555 2.3858714 3.0791533
1.8227496 2.397264 3.0822048
1.8774617 2.3951795 3.0651095
1.9206576 2.39363 3.0855198
2.0646739 2.3946934 3.0530457
1.8650631 2.404063 3.0867834
1.9033302 2.403487 3.0652831
2.0228519 2.4032197 3.0926447
2.0509875 2.4016142 3.0734804
2.1208746 2.4054384 3.0878808
2.1694427 2.405288 3.0830026
2.2217104 2.4084134 3.0685701
2.2876375 2.4154925 3.0781226
2.3269598 2.4148047 3.077152
2.3524911 2.4098308 3.0505235
2.4401827 2.4265428 3.0767908
2.4874494 2.4220102 3.0898907
2.5262074 2.4190655 3.084486
2.5791798 2.4194899 3.0755095
2.6212604 2.408663 3.0796535
0.79879767 -0.41261977 3.1204739
0.82866675 -0.41226926 3.1124954
0.79529798 -0.36961776 3.1227956
0.82845098 -0.37399617 3.11479
0.68603736 -0.31825384 3.1184025
0.78462881 -0.31870201 3.1269104
0.82655364 -0.3198179 3.1116288
0.60585874 -0.25577968 3.1099727
0.78105712 -0.2741783 3.1232591
0.8256005 -0.27379718 3.1109743
0.62143689 -0.2280197 3.1120303
0.65424645 -0.23434338 3.1205273
0.7314952 -0.21212938 3.117372
0.77900255 -0.22878222 3.1301727
0.82488018 -0.22794162 3.1106846
0.61933273 -0.19507706 3.1028817
0.72966498 -0.19269909 3.1102724
0.77862811 -0.17571409 3.1279509
0.82499528 -0.17475128 3.1133659
0.85426748 -0.15932974 3.1042905
0.79612654 -0.12177969 3.1263568
0.82637167 -0.12173878 3.1202495
0.85457844 -0.12143082 3.1065328
0.79770881 -0.076227076 3.1335049
0.8276577 -0.076159269 3.1260786
0.79609323 -0.03038224 3.1276455
0.82434261 -0.034705047 3.1226633
0.79376507 0.022886381 3.1184905
0.81775808 0.02858462 3.1115642
0.85299313 0.045605246 3.1020334
0.79763627 0.076438926 3.1331139
0.82667875 0.076303601 3.1222591
0.86851746 0.078042857 3.1071656
0.79634982 0.12201172 3.1270649
0.82771581 0.12216118 3.1251068
0.86665231 0.11965419 3.1088307
0.79745317 0.17562613 3.1296542
0.82777101 0.17558104 3.1235876
0.86468172 0.17533566 3.1122448
0.79908609 0.22949354 3.1337337
0.82969534 0.22950666 3.1285093
0.86477381 0.22867604 3.1102431
0.79823083 0.27508566 3.1278832
0.82876515 0.27508664 3.122489
0.86524153 0.27454874 3.1094072
0.79851228 0.30574191 3.1270864
0.82884437 0.31329691 3.1203363
0.87094516 0.31154916 3.110286
1.6684161 0.62653977 3.1203756
1.7095333 0.75277323 3.1401162
1.7758266 0.7813319 3.1247323
1.8155841 0.78876436 3.1010137
1.7812754 0.82283121 3.1395204
1.8186412 0.83178616 3.1167753
1.8641505 0.83747435 3.1023748
1.7932832 0.87381387 3.138448
1.8208411 0.87491715 3.1232219
1.858503 0.87676984 3.1091633
1.7868274 0.93150371 3.1462831
1.8243665 0.91907787 3.1275923
1.8664103 0.91885805 3.1074579
1.7965369 0.96491486 3.1436725
1.8290697 0.97616261 3.1306939
1.8662103 0.96773636 3.1051717
1.8228463 1.0299127 3.1373701
1.8606048 1.0271033 3.1092682
1.8280835 1.0758895 3.1352246
1.8633307 1.0759498 3.1078482
1.8307993 1.1197561 3.1333735
1.8691307 1.1212145 3.1125343
1.8276687 1.1821705 3.1400228
1.865479 1.1778959 3.11601
1.8323622 1.2279787 3.1404107
1.8668993 1.2272723 3.1158123
1.8321254 1.2796842 3.1403489
1.8655813 1.2697585 3.1131144
1.9065995 1.2571642 3.1068242
1.8364971 1.3243104 3.1384363
1.8676841 1.3215952 3.1155148
1.8379431 1.3745741 3.1332009
1.878274 1.3678322 3.11077
1.8334944 1.4232743 3.1409397
1.8755189 1.4235476 3.1095538
1.8361281 1.4751719 3.1363714
1.8742212 1.4717464 3.1166623
1.834915 1.5280653 3.1410313
1.8734421 1.522621 3.1171663
1.8372883 1.5691694 3.132457
1.8772006 1.5699207 3.1110561
1.9212273 1.5771701 3.1010938
1.9684076 1.620809 3.1077566
-3.1022351 2.2944615 3.1328075
-3.0778282 2.2926557 3.1483829
-3.0148625 2.2836573 3.1105483
-2.9335177 2.2926672 3.1321182
-2.8219588 2.2963982 3.1222544
-2.7494209 2.2903781 3.1433835
-2.6860495 2.2936058 3.1372252
-2.6300194 2.2932401 3.1179962
-2.5820236 2.299156 3.1072624
-2.539387 2.2979748 3.1353886
-2.2762375 2.2927585 3.1358595
-2.9165082 2.3008876 3.1005232
-2.5624764 2.3001592 3.1235762
-2.5089025 2.3096409 3.1244273
-2.4741335 2.3096523 3.1299067
-2.4160957 2.3104167 3.1339715
-2.3815312 2.3170791 3.1158974
-2.3253198 2.311667 3.1152809
-2.2689586 2.305506 3.1129112
-2.228524 2.3251293 3.1246471
-2.1773322 2.313211 3.1332524
-2.1433427 2.3088188 3.1453631
-2.0800631 2.3026886 3.1206815
-2.0227757 2.3031363 3.1298947
-1.971272 2.3083065 3.1195993
-1.9299285 2.3152061 3.1305971
-1.8777075 2.3084409 3.1226721
-1.8211861 2.3076904 3.127053
-1.7743964 2.3111978 3.122252
-1.7182853 2.3143647 3.1210876
-1.6747277 2.3162961 3.1225233
-1.6341552 2.3207133 3.1192477
-1.576077 2.3204913 3.1192513
-1.5299653 2.3194408 3.1264815
-1.4712359 2.3176486 3.1264906
-1.4249536 2.3203969 3.1241994
-1.3712202 2.3251143 3.1354752
-1.3331975 2.3259978 3.1102986
-1.2767144 2.320183 3.1113055
-1.2334043 2.3250995 3.1333809
-1.1838541 2.3229902 3.1168187
-1.1229972 2.3105233 3.1168783
-1.0772665 2.3189225 3.1237316
-1.0311365 2.3111527 3.1212902
-0.97485507 2.3245957 3.1183085
-0.92765939 2.3359957 3.1316881
-0.87413442 2.3306811 3.1219926
-0.82643139 2.3317974 3.1214368
-0.77107602 2.3334672 3.1142359
-0.7296989 2.3358681 3.1233191
-0.67493796 2.3358769 3.1262054
-0.61991829 2.3377542 3.1237929
-0.5764066 2.3422494 3.1367483
-0.53091484 2.3386755 3.1383173
-0.47139198 2.3337879 3.1253393
-0.41702962 2.3389702 3.1263878
-0.384307 2.333277 3.1134129
-0.33078143 2.3299763 3.1138871
-0.27901316 2.3393126 3.1305401
-0.22573145 2.338187 3.1324785
-0.17265061 2.3429821 3.1330616
-0.11555628 2.3373411 3.1224759
-0.078041643 2.3403537 3.1297586
-0.034380686 2.3395758 3.1202171
0.025679503 2.3427558 3.124517
0.075123265 2.3416336 3.1257942
0.13285884 2.3432581 3.1350024
0.18099721 2.340003 3.1201203
0.22786807 2.3349836 3.1166523
0.26956299 2.3425035 3.1183445
0.3199082 2.3469443 3.1239331
0.37293962 2.3401351 3.1324844
0.42105281 2.3406348 3.1195722
0.46740913 2.342231 3.1338418
0.56354731 2.3439777 3.1293545
0.77190292 2.3479922 3.1466355
0.83455235 2.346477 3.1314075
-0.36989006 2.3539844 3.1427779
0.11948998 2.3543825 3.124526
0.44848472 2.3539701 3.1171246
0.4677563 2.3527052 3.1305561
0.51294839 2.3557334 3.1289215
0.58332098 2.3517346 3.1134562
0.62211186 2.3547654 3.1292481
0.67176038 2.3576636 3.128396
0.71761203 2.3552227 3.1220806
0.77759814 2.3559477 3.1203125
0.82116342 2.3546236 3.1214657
0.8715986 2.3580236 3.1210978
0.92015684 2.3668482 3.1220579
0.97028571 2.3694887 3.1318357
1.0310283 2.3685212 3.1237648
1.0867677 2.3761144 3.1285295
1.1176094 2.3740215 3.1355982
1.237051 2.3730464 3.1356261
1.2789893 2.3602903 3.1121705
1.3357038 2.3745108 3.1236181
1.3671163 2.3759222 3.1243649
1.4216776 2.372963 3.1230261
1.469908 2.3830788 3.1474175
1.5187083 2.3855722 3.1314867
1.5688689 2.3803835 3.1233528
1.6109234 2.3770828 3.1210563
1.6750494 2.3877349 3.1267173
1.7258365 2.3855901 3.1258595
1.7879829 2.38516 3.1399944
1.8240719 2.3943682 3.1375129
2.0452147 2.3981919 3.1194577
2.0726781 2.3971019 3.1262579
1.8701015 2.403585 3.1295643
1.9053153 2.411097 3.1238828
1.9742824 2.4039152 3.1212175
2.0913429 2.4057276 3.106087
2.1173823 2.404139 3.137526
2.1844604 2.4230685 3.1318376
2.2249603 2.4140007 3.1412895
2.2687359 2.4175024 3.1202388
2.33708 2.4260015 3.1451697
2.3694513 2.4137747 3.118099
2.4289792 2.425492 3.1189404
2.4803624 2.4248807 3.1284602
2.5002422 2.4136431 3.1199021
2.5729327 2.4123383 3.1223578
2.6283989 2.4134374 3.1424775
2.6699779 2.4128501 3.1107082
1.6678239 0.62354487 3.1712539
1.6755323 0.6689294 3.1663883
1.6964246 0.73125273 3.1838715
1.7184794 0.78272581 3.1664987
1.699815 0.81428665 3.1887372
1.7311356 0.82148522 3.1765938
1.7597945 0.84006214 3.16067
1.7292854 0.87148112 3.1834979
1.7680953 0.87388498 3.1576066
1.7307509 0.92353565 3.1867743
1.7711396 0.91516978 3.1597621
1.7318426 0.97586429 3.1933973
1.7680113 0.97654384 3.1663926
1.7350422 1.0251411 3.1921482
1.7764771 1.0265044 3.1648014
1.7400714 1.0713081 3.1905754
1.7764384 1.0706841 3.1643617
1.730635 1.1305718 3.1936948
1.7725391 1.1234167 3.1704307
1.8036845 1.1337998 3.1540389
1.7358713 1.1703001 3.1904786
1.7775635 1.1790681 3.1677985
1.8072884 1.162066 3.1529987
1.7387291 1.2184317 3.1938272
1.773785 1.2258946 3.1675336
1.814497 1.2189361 3.1501815
1.7386386 1.2705847 3.1952267
1.7716446 1.2779156 3.1738427
1.8105104 1.2731969 3.1569917
1.7448491 1.3190943 3.1927679
1.7773966 1.32596 3.1700804
1.8120321 1.3256326 3.1536498
1.7404724 1.3717989 3.1958065
1.772067 1.3798872 3.1793664
1.8099964 1.3724587 3.1595905
1.7423141 1.4281445 3.1953211
1.7766145 1.4272231 3.1777961
1.8094295 1.4251764 3.1573915
1.7741579 1.4679968 3.1804223
1.8075565 1.4662464 3.1607146
1.7823147 1.5252813 3.1859305
1.8122852 1.5183495 3.1619377
1.7883744 1.5691004 3.1796091
1.8107954 1.5737759 3.163645
1.7828821 1.6075466 3.1912827
1.8234867 1.6035943 3.1628025
-3.0473766 2.2862914 3.1575441
-2.9601686 2.2916605 3.1740861
-2.9422932 2.294688 3.195612
-2.8877048 2.290535 3.163353
-2.8412781 2.2878499 3.1932118
-2.7993343 2.2927189 3.1731782
-2.6260865 2.2962382 3.1872022
-2.5791402 2.2942502 3.157249
-2.5409167 2.2973223 3.1910353
-2.2869363 2.2934415 3.1839592
-2.024786 2.2969866 3.1664183
-1.7280121 2.2922816 3.1909053
-2.7425499 2.3023667 3.175935
-2.668803 2.3059282 3.1775479
-2.5150223 2.3040516 3.1655774
-2.4900229 2.3096726 3.1948888
-2.4269276 2.309974 3.18153
-2.3815725 2.3165135 3.1696544
-2.328032 2.3040323 3.1791623
-2.256448 2.3133962 3.1629715
-2.2230351 2.3101094 3.177211
-2.1707525 2.3074737 3.1776886
-2.1205399 2.3061657 3.170783
-2.0777071 2.3131876 3.1919265
-2.009428 2.3118651 3.1779537
-1.9757596 2.3098452 3.1763337
-1.9295186 2.306885 3.1634433
-1.8780885 2.3126225 3.1690407
-1.8317088 2.3032861 3.1758327
-1.7803587 2.3083 3.1789629
-1.7227049 2.3044758 3.1692269
-1.685043 2.3198392 3.1792262
-1.6294458 2.3233414 3.1767471
-1.5720063 2.3186958 3.1717834
-1.5145969 2.3146386 3.1745672
-1.4758098 2.3113575 3.177546
-1.4283756 2.3203132 3.189153
-1.3780448 2.3167922 3.1772683
-1.3257722 2.3254936 3.1768456
-1.2753397 2.3197591 3.160943
-1.2220852 2.3242917 3.1853848
-1.1766828 2.3265839 3.163559
-1.1197966 2.3234565 3.1758957
-1.0747555 2.3251829 3.1784537
-1.0238688 2.3240795 3.1841612
-0.96975881 2.3270478 3.170768
-0.93125498 2.3331318 3.1790175
-0.86952478 2.3317087 3.1762459
-0.82326651 2.3331106 3.1637046
-0.77907693 2.3334155 3.1701639
-0.71956444 2.3360593 3.1761303
-0.67632419 2.3387072 3.1755173
-0.62598073 2.3354218 3.169621
-0.57090235 2.329325 3.1730254
-0.52445233 2.3317862 3.1650991
-0.47939086 2.3307841 3.1694376
-0.42943454 2.3390326 3.1724439
-0.37109962 2.334836 3.1690681
-0.32098669 2.3329074 3.1743116
-0.27774924 2.3337586 3.1717582
-0.23184682 2.3327127 3.1680551
-0.17771241 2.33359 3.1772664
-0.12503915 2.3366277 3.1781783
-0.07575433 2.3372514 3.1715736
-0.026765388 2.3436098 3.1721511
0.01788904 2.3419333 3.1699238
0.075836495 2.3374028 3.1717708
0.12938872 2.3376191 3.1706848
0.17716856 2.3345785 3.1763706
0.21920706 2.3443046 3.1758199
0.27683264 2.3403766 3.180902
0.32606974 2.3321388 3.1693904
0.38884193 2.3424811 3.1603274
0.42826918 2.3401988 3.16486
0.47189343 2.3467846 3.1747954
0.5371083 2.3476 3.1854143
0.58221596 2.3475292 3.1789062
0.63554585 2.3444724 3.1664119
0.67252988 2.3476667 3.1646531
0.21989459 2.3518152 3.1860361
0.48030695 2.3553298 3.1915047
0.52572805 2.3550475 3.1615689
0.59744763 2.3544669 3.1504769
0.72837353 2.3531454 3.162282
0.77104205 2.354852 3.1931133
0.82235682 2.3625267 3.1843822
0.87814355 2.3653173 3.1761374
0.92545599 2.3530974 3.1569326
0.97333831 2.360239 3.1704741
1.0213287 2.3657992 3.1737111
1.0765874 2.3711224 3.1721306
1.1324034 2.3626974 3.1629071
1.1756114 2.370647 3.1714096
1.2154944 2.366647 3.1726325
1.2647513 2.3623419 3.1699712
1.3246247 2.3717089 3.1704912
1.3719034 2.3770518 3.175365
1.4240615 2.375905 3.1748853
1.4767022 2.375087 3.1741219
1.5292565 2.3782585 3.1685929
1.5766801 2.3780344 3.180624
1.629432 2.385128 3.1693811
1.6717225 2.3823292 3.1753285
1.7274904 2.3952639 3.185987
1.7657101 2.3943453 3.166301
1.9069906 2.3985956 3.1957769
2.1206009 2.3990347 3.1765845
2.1999311 2.3995297 3.1812954
1.8389353 2.4070976 3.1980097
1.8767643 2.4050653 3.175319
1.9281269 2.4052331 3.1645691
1.9649804 2.4090004 3.1833296
2.039767 2.415174 3.1529346
2.0642834 2.4122157 3.1830263
2.1424489 2.4009624 3.167254
2.1810658 2.4207211 3.16366
2.2267272 2.4065504 3.1781435
2.2633643 2.4130797 3.1677008
2.3213255 2.4207842 3.1811028
2.3781438 2.4159245 3.1798601
2.4170861 2.4239287 3.1696844
2.4629214 2.4175162 3.181535
2.5354688 2.4265332 3.178021
2.5722172 2.4205914 3.1783397
2.6223247 2.4069004 3.1625028
2.6883366 2.4176693 3.1666079
1.6690394 0.63807505 3.2242897
1.6717713 0.67348254 3.2137198
1.6890117 0.73031515 3.2126071
1.6897097 0.77502793 3.2162738
1.7021794 0.77296734 3.2010386
1.6938858 0.81963176 3.2163248
1.7108256 0.8366304 3.206095
1.692161 0.88739741 3.2405856
1.7051365 0.86968577 3.2126114
1.6909806 0.92980105 3.2292645
1.7027575 0.92687684 3.2122297
1.6892762 0.97187829 3.2164962
1.7110721 0.98497277 3.2055135
1.6948258 1.0216956 3.2302463
1.7091956 1.0314578 3.2150612
1.6941471 1.0777885 3.2328353
1.7126586 1.0746917 3.2141349
1.6961743 1.12543 3.2354536
1.7096723 1.1243472 3.2099509
1.6906557 1.1712888 3.2332633
1.7151961 1.1777997 3.2030544
1.6938896 1.2236166 3.2473474
1.7110834 1.2258555 3.216861
1.693875 1.2676109 3.2343385
1.7164251 1.2735833 3.2137637
1.6904323 1.3246512 3.231854
1.718293 1.3243721 3.2112968
1.6931583 1.378185 3.2432644
1.7166191 1.3731565 3.2135932
1.6919817 1.4254029 3.2363615
1.7186455 1.4216937 3.2151024
1.6892779 1.479254 3.2467086
1.7197212 1.4746547 3.2218149
1.7522207 1.471952 3.2007403
1.6907513 1.5339928 3.2419896
1.7239661 1.5228529 3.2192752
1.7571955 1.5260792 3.2067239
1.7217822 1.582347 3.2333419
1.7643509 1.5800169 3.2091815
1.7278538 1.6151295 3.2340539
1.7591988 1.6106304 3.2094576
-2.7149985 2.2936919 3.2388165
-2.6836615 2.2974646 3.2086055
-2.5735612 2.2869184 3.2042134
-2.5210617 2.2975423 3.2248249
-2.46842 2.2977409 3.2416267
-2.3148134 2.2907038 3.2149503
-2.2380245 2.2952256 3.2178707
-2.1458654 2.2929251 3.2158387
-2.8162849 2.3026128 3.2469893
-2.7816424 2.3046026 3.214123
-2.4689832 2.3094168 3.2086957
-2.4301944 2.3021755 3.219451
-2.3836839 2.3076792 3.2241137
-2.2762716 2.3031521 3.2102003
-2.2141926 2.3020816 3.2459133
-2.1890426 2.3067088 3.2173054
-2.1133416 2.3073909 3.2282877
-2.0710239 2.3079736 3.2362633
-2.0291374 2.3145788 3.2216601
-1.9751139 2.3087873 3.2276101
-1.9171504 2.3076911 3.2193985
-1.8767649 2.3090231 3.2263877
-1.8178039 2.3014252 3.2103949
-1.769285 2.3065052 3.2309597
-1.7112756 2.3086891 3.2270405
-1.6710124 2.3149879 3.2257879
-1.6204206 2.3200114 3.226517
-1.5813084 2.3177085 3.2316818
-1.5273414 2.3183827 3.2328243
-1.4727228 2.3172607 3.2308478
-1.4322079 2.322968 3.2341061
-1.3800373 2.3152494 3.2405283
-1.3338404 2.3198998 3.2225611
-1.2760975 2.3183374 3.2231724
-1.2275203 2.3159285 3.2107496
-1.1756737 2.3242178 3.223599
-1.1312221 2.3285522 3.2195032
-1.0828973 2.3246832 3.2272768
-1.0274918 2.319654 3.2247705
-0.97799933 2.3206272 3.225306
-0.91726243 2.3285723 3.226732
-0.87549132 2.3317959 3.2276092
-0.82133621 2.33639 3.2214124
-0.77330369 2.3344421 3.2189379
-0.72725385 2.3381891 3.2236953
-0.67992795 2.3371673 3.221323
-0.63196272 2.3332741 3.2144895
-0.57909244 2.3356187 3.2348955
-0.51844984 2.3362029 3.2222381
-0.47592822 2.3306236 3.2232602
-0.43336624 2.3278177 3.2204685
-0.37517428 2.3334978 3.2199271
-0.32120463 2.3351357 3.2268572
-0.27583146 2.334312 3.2290673
-0.22404552 2.3316538 3.2226658
-0.17176646 2.3378584 3.2308779
-0.11805844 2.333842 3.2218971
-0.076622471 2.3367732 3.2234654
-0.031536583 2.3364096 3.223546
0.022566728 2.3416779 3.2132018
0.081250288 2.341706 3.221329
0.1308689 2.3376303 3.223263
0.17308152 2.3356311 3.2248278
0.22336924 2.3308032 3.2230041
0.2679646 2.3281169 3.2210145
0.32117355 2.3344662 3.2259881
0.35047457 2.3490591 3.2439108
0.46792915 2.3447275 3.2260027
0.56872696 2.3482673 3.2179568
0.82664311 2.3466272 3.2446995
0.37475947 2.3611906 3.2346776
0.43153587 2.3532152 3.2239971
0.49634135 2.3501811 3.2302539
0.52076012 2.3567972 3.2244079
0.62604254 2.3630476 3.2210944
0.67415154 2.3578303 3.233434
0.71934491 2.355685 3.2225015
0.7785275 2.3592784 3.2350807
0.82239002 2.3529925 3.2172413
0.86993223 2.3573768 3.213372
0.92679155 2.3635325 3.2245536
0.97281986 2.3652503 3.2389338
1.0295808 2.3674138 3.227726
1.0739907 2.3632486 3.222666
1.1182736 2.3683186 3.2243848
1.1725966 2.374332 3.2372572
1.2080791 2.3699872 3.2198703
1.3357968 2.3777554 3.2304647
1.3729558 2.3762465 3.2149851
1.4175882 2.3747282 3.2242136
1.4760451 2.3856893 3.2336092
1.5203003 2.3833411 3.2268274
1.5749846 2.3852847 3.2366209
1.622622 2.384129 3.2146525
1.6686559 2.3847837 3.2178612
1.7239774 2.3843539 3.2145252
1.7806791 2.3928394 3.2175634
1.877924 2.3969913 3.2236881
1.9015341 2.396837 3.2431965
1.8153291 2.4051237 3.2295446
1.852617 2.4051166 3.234664
1.9257739 2.4021895 3.2402081
1.9868149 2.4156795 3.2319846
2.0308743 2.4101455 3.2228007
2.0858157 2.4170237 3.2295492
2.1200876 2.4112411 3.224731
2.1697667 2.4111216 3.2210586
2.287194 2.4177909 3.2147589
2.3251801 2.4151022 3.2394867
2.3734298 2.4219592 3.2220364
2.4305246 2.4164047 3.2289815
2.4992504 2.4110975 3.2286336
2.5264542 2.4169335 3.221962
2.5649452 2.4124353 3.2245691
2.6186817 2.4124753 3.2061825
2.6688685 2.4172754 3.2399259
2.7148366 2.4198709 3.2120109
1.6949269 1.0287248 3.2571468
1.6935464 1.2984501 3.2693927
1.6895239 1.3131104 3.2561707
1.683292 1.4114729 3.2568483
1.6873847 1.4507263 3.2525296
1.6807019 1.5325937 3.2558331
1.6913347 1.5876658 3.259336
-2.8651824 2.2917604 3.2816963
-2.6512952 2.294086 3.285789
-2.6120172 2.2997878 3.2653546
-2.5663867 2.2875211 3.2700353
-2.5162501 2.2919276 3.2549126
-2.4284749 2.2895668 3.250807
-2.2513859 2.2989087 3.2707665
-2.2040854 2.2923455 3.2856877
-2.63802 2.303941 3.2561672
-2.3792403 2.3026569 3.2725544
-2.3218584 2.3076944 3.2819149
-2.2761674 2.303247 3.2644861
-2.2242026 2.3128119 3.287992
-2.1694078 2.3085384 3.284883
-2.1421947 2.3106301 3.2523808
-2.0817084 2.3109035 3.286834
-2.0232785 2.3107116 3.2674983
-1.9772711 2.3038449 3.2789602
-1.9322904 2.3179657 3.2789495
-1.8706707 2.3142147 3.2866068
-1.8237402 2.31422 3.2774141
-1.791634 2.3109825 3.2867391
-1.721699 2.3031898 3.2584355
-1.6733208 2.3085532 3.2776642
-1.6255207 2.3106964 3.2678318
-1.5685457 2.3094604 3.2743747
-1.5266111 2.3125808 3.2669666
-1.4741735 2.3154099 3.2701576
-1.4184947 2.3125799 3.2646275
-1.370603 2.3123419 3.2811635
-1.3260412 2.3155339 3.2701037
-1.2762535 2.3162153 3.2771413
-1.2303135 2.3242655 3.2735677
-1.1752088 2.3229918 3.2780194
-1.1240662 2.3242419 3.2745631
-1.0689882 2.316242 3.2574916
-1.0235376 2.3143406 3.2762775
-0.97239202 2.3220773 3.2778759
-0.92977828 2.3201172 3.274575
-0.88080442 2.3310144 3.2863288
-0.83030075 2.3294261 3.2754562
-0.76656276 2.3328362 3.2645745
-0.72047442 2.3296859 3.2653096
-0.67788941 2.3342538 3.2730281
-0.62194246 2.3319771 3.2785838
-0.57426339 2.3346887 3.2709386
-0.53319782 2.3406451 3.2758045
-0.4736689 2.3370574 3.2871122
-0.4119719 2.3410809 3.2872746
-0.37573916 2.3340707 3.2710819
-0.32316339 2.3314736 3.2573922
-0.26589435 2.332912 3.2779713
-0.22395137 2.3322949 3.2832053
-0.17787744 2.3365886 3.2734184
-0.1228705 2.3308849 3.2674143
-0.068333812 2.33496 3.274394
-0.022709006 2.332989 3.2721505
0.02284201 2.343375 3.2687855
0.073932186 2.342464 3.2705216
0.13222413 2.334902 3.2727802
0.17744005 2.3294771 3.2634921
0.20517714 2.3346536 3.2694895
0.28259176 2.3306367 3.280906
0.32493222 2.3342893 3.2794037
0.36161917 2.3440056 3.2719092
0.48803648 2.3443151 3.2714717
0.5222674 2.3483737 3.2975304
0.57289159 2.3471191 3.252219
0.61503011 2.3496997 3.2866957
0.6518833 2.3492095 3.2803066
0.7075761 2.3499439 3.2721062
0.76286596 2.349334 3.2612188
0.39090931 2.3735096 3.2743442
0.40965354 2.3847318 3.2700129
0.4638232 2.3517563 3.2726181
0.52979952 2.3592665 3.2752578
0.56974816 2.3534243 3.2738733
0.63108647 2.3544624 3.2632842
0.6813767 2.3552182 3.2841601
0.73630291 2.3530464 3.2714887
0.78639942 2.3551545 3.2840993
0.82502508 2.3588877 3.2819185
0.87506425 2.3605695 3.2642992
0.92437285 2.3656209 3.2895641
0.98014551 2.3643014 3.2744579
1.02548 2.3624406 3.2838898
1.0753891 2.3675222 3.2547326
1.1250435 2.3742867 3.2909949
1.1721666 2.3736072 3.2764308
1.2019525 2.3762159 3.2715213
1.3740268 2.3746448 3.2677956
1.4262921 2.3807564 3.2728407
1.4753896 2.3809674 3.2691002
1.5167909 2.3754663 3.2659211
1.5769503 2.3834858 3.2768488
1.6251956 2.3970785 3.2792864
1.669933 2.3936682 3.2694623
1.7280215 2.3975222 3.2805183
2.0175507 2.399956 3.2860897
2.1540749 2.39592 3.2534549
1.7718753 2.403322 3.2703474
1.8364005 2.4052799 3.2743397
1.8690901 2.4064357 3.2762125
1.9447348 2.4056134 3.2850029
1.9706216 2.4110825 3.2650158
2.0151253 2.4173977 3.2691779
2.0773015 2.4205155 3.2659831
2.120286 2.4142294 3.2812533
2.1816366 2.4037604 3.2521286
2.2307918 2.4237201 3.2606673
2.2737741 2.4209387 3.2692332
2.373009 2.4219127 3.2773089
2.4190941 2.415334 3.2717564
2.4808967 2.4135058 3.2650375
2.5313351 2.4104495 3.2629869
2.6291442 2.4203415 3.274765
2.6845877 2.4195559 3.2941542
2.7689638 2.4253898 3.2764561
2.9139695 0.81924593 3.3387167
-2.931819 2.2939143 3.3357558
-2.8543122 2.289654 3.3177378
-2.7733378 2.2991664 3.3352406
-2.6393349 2.2915118 3.3192873
-2.5890403 2.2957959 3.3330262
-2.5209732 2.2942891 3.3157873
-2.4369133 2.2962723 3.3168576
-2.3539863 2.2979834 3.3161116
-2.2659247 2.2930872 3.3044801
-2.1889071 2.2978663 3.3054965
-1.9774529 2.2871172 3.3472261
-1.8530625 2.2987101 3.3311236
-2.4283388 2.3081107 3.3475046
-2.3849492 2.3077636 3.317107
-2.3245835 2.3102441 3.3316848
-2.2540655 2.3020418 3.3296959
-2.1643209 2.3044276 3.33249
-2.137203 2.3178823 3.321414
-2.0864184 2.3070083 3.328258
-2.0399134 2.3102677 3.3252296
-1.9724734 2.3065925 3.3238611
-1.9359951 2.3143034 3.3194556
-1.8788413 2.3124998 3.327879
-1.8153112 2.3088279 3.3192043
-1.7684304 2.3094168 3.3181117
-1.7266558 2.3065464 3.3315792
-1.6807783 2.3078022 3.3303623
-1.6191903 2.3100061 3.3142529
-1.5811907 2.3115966 3.3323562
-1.5330076 2.317565 3.3167486
-1.4690595 2.3136189 3.3232601
-1.4237809 2.3176472 3.3137906
-1.3713262 2.3105333 3.3203959
-1.3293384 2.3164012 3.3298979
-1.2796067 2.3205056 3.3244526
-1.221638 2.3199925 3.3249259
-1.1755961 2.3235137 3.3193524
-1.1260117 2.3194089 3.326906
-1.0853156 2.323108 3.3235261
-1.0321339 2.3133001 3.3153541
-0.98042727 2.3151567 3.3275347
-0.92293757 2.3198528 3.3250268
-0.88109589 2.3203702 3.3244736
-0.81991464 2.3246937 3.3279762
-0.77776295 2.3332541 3.3257885
-0.72857732 2.3311777 3.3258832
-0.67426491 2.325928 3.3177519
-0.6315406 2.3399429 3.3450153
-0.57044631 2.3289263 3.3188355
-0.52394557 2.3285141 3.3243067
-0.47819397 2.3360615 3.3313801
-0.42612806 2.3398895 3.3239512
-0.37547344 2.3372316 3.334193
-0.32776031 2.3367889 3.3191345
-0.27742651 2.3360467 3.3308642
-0.2349634 2.3322582 3.3188844
-0.17603183 2.334929 3.3218949
-0.12447434 2.3341901 3.3263302
-0.072691604 2.3321121 3.3209014
-0.019987026 2.3432426 3.3349161
0.027739543 2.3402348 3.3275435
0.078266703 2.3291056 3.3201859
0.12110656 2.3298538 3.3141775
0.15181538 2.3370326 3.3112669
0.23856838 2.3396606 3.3231518
0.27221227 2.3259459 3.3258994
0.31908536 2.3310754 3.3299868
0.3711586 2.3400779 3.3239617
0.50809079 2.349828 3.3385746
0.56267285 2.3442163 3.3234932
0.72191691 2.3480046 3.3044014
0.7501989 2.3490603 3.3009083
0.19070818 2.3630493 3.3466265
0.39444175 2.3763783 3.314574
0.41463059 2.3764009 3.3311324
0.54595619 2.3523235 3.3374512
0.58845288 2.3606055 3.3186996
0.62196809 2.3573647 3.3341682
0.67721254 2.354532 3.3214514
0.7381857 2.3515022 3.3447955
0.76955575 2.351264 3.3005605
0.82458186 2.3659637 3.3307343
0.87727511 2.3636923 3.3261862
0.93134564 2.364548 3.3253365
0.9824003 2.3737235 3.3272157
1.0820483 2.3745346 3.3232474
1.1258405 2.376977 3.3352394
1.16633 2.3685 3.3244112
1.2022418 2.3956282 3.3421237
1.4062485 2.394928 3.316823
1.4960585 2.3946307 3.3267777
1.5263599 2.3879588 3.3336964
1.5686483 2.3924682 3.324604
1.6267494 2.3941481 3.3186312
1.6738857 2.3950837 3.3231816
1.7168083 2.3896532 3.3182287
1.7758564 2.3933103 3.3291824
1.8188065 2.3993106 3.3355079
1.8654683 2.3945637 3.3049769
0.43587011 2.4094739 3.3385828
1.7247128 2.4006536 3.3334308
1.7862581 2.4027948 3.3094168
1.8279631 2.4080849 3.3227928
1.9265735 2.4106345 3.3275819
1.9795661 2.4155545 3.3341625
2.0278983 2.414125 3.3314981
2.0682788 2.4139397 3.3179872
2.1248984 2.4104562 3.3232393
2.1743193 2.4199131 3.3217411
2.2257321 2.4168015 3.3212597
2.2698424 2.4128113 3.3231723
2.3383176 2.4295554 3.3141556
2.3813574 2.4200118 3.3238227
2.4483747 2.4231396 3.3440492
2.4787474 2.4214492 3.3208287
2.5203197 2.4091072 3.325814
2.5734105 2.410923 3.3332691
2.6196454 2.4203708 3.321497
2.6718371 2.4277291 3.3207915
2.7168746 2.4167979 3.3265162
2.752135 2.4188921 3.3056302
2.8124981 2.4300931 3.349333
2.8554037 2.4287639 3.3144889
2.9003007 2.4254322 3.3379667
2.8969705 0.52321428 3.3689914
2.9011443 0.54408401 3.3711357
2.8893645 0.56190914 3.3546441
2.9298227 0.58063251 3.3740904
2.9555464 0.55049372 3.3958371
2.9253321 0.61748695 3.3696899
2.8894792 0.7777009 3.3568547
2.9308109 0.7731685 3.3683271
2.8928699 0.80889386 3.3546953
2.9025545 0.83187068 3.3616936
2.9046054 0.85274184 3.3597209
2.8832994 0.92339957 3.3573039
2.9373777 0.94441384 3.3788722
2.9511344 0.92822772 3.3995841
2.9154983 0.97129327 3.3654978
2.9164565 1.0160578 3.3756566
2.9254346 1.2840991 3.3919375
2.877682 1.3238535 3.3585844
2.9402146 1.3430039 3.3915057
2.9281769 1.3632429 3.3902562
2.9212444 1.4751179 3.3839812
2.895071 1.5622761 3.3809688
2.9345562 1.5721576 3.3864
2.9481261 1.600768 3.3933389
2.9387243 1.6929715 3.3869641
-2.8935099 2.2987709 3.3766935
-2.7005656 2.293025 3.3732948
-2.6795628 2.2936995 3.3895612
-2.6293132 2.2907641 3.3553145
-2.5252402 2.2961974 3.3766942
-2.4175003 2.2967131 3.3879287
-2.373873 2.2958801 3.3844514
-2.3236191 2.2986217 3.3921275
-2.2471354 2.2953694 3.3748486
-1.9619187 2.2925897 3.3654041
-2.5090342 2.3009789 3.3977325
-2.4666486 2.3029599 3.3701835
-2.4012756 2.3024302 3.3525934
-2.3796744 2.3019331 3.3650081
-2.3138824 2.3100071 3.3654649
-2.2727873 2.3002429 3.3698471
-2.2295594 2.3088324 3.3576844
-2.1775522 2.3087251 3.3869085
-2.1194584 2.3115337 3.3712413
-2.0298467 2.3123014 3.368397
-1.9516639 2.3044109 3.3928208
-1.9254174 2.3055849 3.3579273
-1.8788878 2.3172281 3.3853951
-1.8180246 2.3176608 3.381916
-1.7691064 2.3063979 3.3834217
-1.701406 2.3026474 3.3588729
-1.67147 2.313535 3.3751955
-1.6275111 2.3182204 3.3820617
-1.5623364 2.3092489 3.3656781
-1.5254908 2.3161774 3.3616674
-1.4740716 2.3124187 3.3742924
-1.431924 2.31742 3.37573
-1.3746084 2.3129675 3.3661463
-1.3204741 2.3152955 3.3734944
-1.2677364 2.3146665 3.3606856
-1.2207518 2.316968 3.3785586
-1.1722752 2.3165631 3.3751945
-1.1245123 2.3120608 3.3667414
-1.0671041 2.321682 3.3765745
-1.0158265 2.3186953 3.3745222
-0.97513986 2.3126163 3.3746672
-0.93198025 2.3164423 3.3803163
-0.86823213 2.3208652 3.3808489
-0.82638073 2.3240662 3.3646071
-0.77245754 2.3323553 3.3873241
-0.72128546 2.3296595 3.3728843
-0.67298013 2.3275082 3.373687
-0.6245482 2.3299847 3.3694093
-0.57911253 2.3361549 3.3849432
-0.52244967 2.335392 3.3910744
-0.48018354 2.3317776 3.3529167
-0.42536226 2.3286283 3.3729436
-0.3771283 2.3288622 3.3590603
-0.33082926 2.3306286 3.3654444
-0.2745021 2.3271897 3.3644192
-0.21596499 2.3456073 3.3796172
-0.17273453 2.3353829 3.3816209
-0.12120278 2.3280189 3.3819652
-0.065351233 2.3402529 3.3823819
-0.026400412 2.3407218 3.3803768
0.023332726 2.3287117 3.3753498
0.079089411 2.3253047 3.3697331
0.11630028 2.325738 3.3695474
0.15313403 2.3387487 3.3502464
0.27686119 2.3466239 3.3925643
0.32710755 2.3322005 3.3774142
0.37883365 2.3385882 3.3731096
0.41742635 2.3455074 3.3796475
0.68379021 2.3489919 3.3694904
0.70540166 2.3487463 3.3848169
0.172866 2.354764 3.3724782
0.43695921 2.3778951 3.3681989
0.45766285 2.3878477 3.3803658
0.52952999 2.3623016 3.3539951
0.57056755 2.3582861 3.3806574
0.63334119 2.3590117 3.3824432
0.6639297 2.3549192 3.3621926
0.71317053 2.3620205 3.3646283
0.77428263 2.3661489 3.3793888
0.81866819 2.3660686 3.3806448
0.87938434 2.3584483 3.3667495
0.93412042 2.3766451 3.3823977
0.97280473 2.3775988 3.3750448
1.0232 2.3737361 3.3772173
1.0773381 2.3718262 3.3707471
1.1311766 2.3689575 3.3621483
1.1700848 2.3894894 3.3832085
1.2165776 2.3757751 3.369123
1.255233 2.3842738 3.3918984
1.4359108 2.3967609 3.3668175
1.4910208 2.398437 3.3788314
1.5049338 2.389081 3.3583279
1.5868189 2.3886359 3.3707275
1.6238568 2.3892698 3.3797483
1.6840744 2.3939042 3.3858027
1.8345662 2.3997524 3.3768158
1.4726318 2.4007475 3.3893178
1.6446739 2.4005213 3.3673644
1.6661806 2.4027135 3.3621314
1.7355924 2.4096079 3.3907506
1.7707399 2.4161727 3.3866537
1.8958434 2.4261758 3.3946576
1.9191295 2.4296553 3.3896096
1.9943576 2.4255092 3.3946939
2.0168705 2.415267 3.3644981
2.0804505 2.4206142 3.3920741
2.1252685 2.4123609 3.3524444
2.1732852 2.4102774 3.3742814
2.2014153 2.4066944 3.3515146
2.2801054 2.413733 3.3732593
2.3263631 2.4178865 3.353683
2.379493 2.4183948 3.3778734
2.4321394 2.4175057 3.3716698
2.4734638 2.4157317 3.3702886
2.6376505 2.4145 3.3771977
2.6795697 2.4227188 3.3658156
2.7413208 2.4261439 3.3920403
2.7787309 2.4394937 3.3947487
2.8328042 2.4251695 3.3876553
2.8698745 2.4280891 3.3668311
2.9210341 2.4201555 3.3759987
2.938529 0.51034504 3.4199598
2.9601369 0.53096497 3.4038792
2.9295881 1.389834 3.4045341
2.9451652 1.5352045 3.4156251
2.9304643 1.6134362 3.4092138
2.9162638 1.6923332 3.4018421
2.9511268 1.9360285 3.4347901
2.8803351 1.9985834 3.4447927
2.956233 1.9614199 3.4297526
2.9441605 2.0122712 3.4355364
2.9629929 2.0100911 3.4150906
2.9738183 2.0995643 3.4349368
2.9493368 2.120317 3.4372206
2.964359 2.134316 3.4272029
2.9736137 2.18279 3.4407983
2.9769859 2.228446 3.4378777
-2.7149498 2.2832758 3.4042916
-2.6065571 2.2870259 3.4242117
-2.5787673 2.2925074 3.4242492
-2.5210376 2.2903721 3.4267132
-2.4947422 2.2860408 3.4340177
-2.3734174 2.295146 3.4117334
-2.2897344 2.29632 3.4073799
-2.2285585 2.2983162 3.4464021
-2.1444733 2.2970095 3.4353623
-1.90553 2.2979095 3.402853
2.9808838 2.2757111 3.4257538
-2.2630386 2.3012576 3.4329367
-2.2270291 2.3069088 3.4097543
-2.1807783 2.3023028 3.426239
-2.1223221 2.3051651 3.4100366
-2.0771585 2.3114223 3.4198632
-2.0328033 2.3076155 3.426589
-1.9738907 2.3100092 3.4432161
-1.9326916 2.3060796 3.4051924
-1.8739766 2.307514 3.4190342
-1.8343179 2.3079231 3.4297173
-1.7704749 2.3127522 3.4302778
-1.7159743 2.3158216 3.4231877
-1.67378 2.3131099 3.4357531
-1.6280279 2.3253353 3.4289091
-1.5739454 2.3194058 3.4394414
-1.5206678 2.3092024 3.4188685
-1.4777623 2.3139496 3.4200079
-1.4253566 2.3188591 3.4244647
-1.3711647 2.3156765 3.4261379
-1.3142066 2.3190601 3.4246442
-1.276594 2.31656 3.4177876
-1.22069 2.3158264 3.4188356
-1.1699969 2.3116944 3.4264369
-1.1287559 2.3164411 3.4243267
-1.0719242 2.3137283 3.4242334
-1.023959 2.3241258 3.4319234
-0.97089088 2.3193789 3.4469204
-0.9280811 2.3137443 3.4204788
-0.87689346 2.3200393 3.4275188
-0.82697421 2.3239841 3.4235554
-0.77366561 2.3209033 3.4246838
-0.71992379 2.3274944 3.4282246
-0.67430753 2.3300095 3.4263697
-0.6229707 2.330966 3.4289224
-0.57645184 2.3254778 3.4206398
-0.52619362 2.3331444 3.4255648
-0.47285533 2.3396342 3.4260056
-0.42165852 2.3318644 3.4349799
-0.37279359 2.3320537 3.4206221
-0.3286002 2.3341143 3.4208777
-0.27382448 2.3381701 3.4274483
-0.22179365 2.3322585 3.431143
-0.17122285 2.3324635 3.4274235
-0.12706971 2.3264763 3.4263721
-0.075249597 2.3299243 3.4232273
-0.023536908 2.3374691 3.4254532
0.0047503654 2.3337426 3.4200635
0.075234123 2.3277023 3.41997
0.1266917 2.327256 3.4087257
0.16861607 2.3381801 3.4359047
0.28862071 2.3470848 3.4301856
0.3227725 2.3362272 3.434623
0.37655559 2.3382747 3.4232464
0.41988817 2.3403578 3.4096272
0.57517958 2.3484221 3.4230218
2.9739187 2.3332632 3.4343457
3.0002134 2.3158844 3.4062967
0.19393629 2.3746214 3.4188533
0.21290359 2.3751965 3.4187937
0.4704212 2.3763013 3.4191203
0.50387061 2.3998611 3.4498229
0.58338708 2.3530262 3.4094715
0.62380153 2.3528347 3.4229217
0.66952425 2.3557532 3.4010141
0.73873097 2.3645155 3.4027021
0.77132159 2.3577664 3.4260514
0.8212139 2.3633685 3.4253378
0.86935276 2.3637373 3.4163997
0.92741168 2.3669038 3.4251187
0.97745895 2.3717198 3.4253919
1.039144 2.3814516 3.4463196
1.0746599 2.3737113 3.4254475
1.1276133 2.3829002 3.4260523
1.1763061 2.3826149 3.412267
1.2274216 2.3865976 3.4461887
1.2611578 2.3944941 3.448854
1.4823226 2.3965635 3.423296
1.5628996 2.3930142 3.4326575
1.6317364 2.3954155 3.433013
1.7102852 2.3964159 3.425874
1.8282958 2.3978245 3.4246247
1.8675188 2.3956151 3.4026353
2.9726536 2.3830976 3.4295225
1.5278383 2.4053812 3.4212055
1.5835381 2.4038293 3.4202058
1.6764055 2.4030278 3.4357319
1.745057 2.4164701 3.4458747
1.7741374 2.4142814 3.4294727
1.8159643 2.4132409 3.4251184
1.8653163 2.416256 3.4159267
1.9221961 2.4258881 3.4308996
1.9701941 2.4235854 3.4284794
2.0262496 2.4181201 3.415657
2.0685742 2.4102015 3.4306724
2.1070504 2.4183142 3.4256766
2.1758597 2.4258881 3.4293094
2.2308841 2.4292107 3.4318075
2.2753887 2.4208245 3.4265099
2.3284457 2.4099796 3.4108286
2.3815525 2.4207907 3.4381144
2.4098742 2.4167399 3.4125481
2.4750276 2.4167118 3.4295201
2.5213556 2.4156289 3.417206
2.5747492 2.4280968 3.4184127
2.6132157 2.4223075 3.4105392
2.6860306 2.4263511 3.4311633
2.7229125 2.4295318 3.4124813
2.7776189 2.425869 3.4290907
2.8209419 2.42296 3.4237509
2.8719525 2.4262972 3.4267063
2.930676 2.4147503 3.4229484
2.974834 2.4115162 3.4157984
3.0046754 2.4057317 3.4134266
2.8661919 2.0227995 3.485851
2.9244418 2.0326481 3.4704385
2.8797133 2.0757291 3.4884989
2.9239933 2.0846255 3.4680696
2.9627407 2.0716848 3.4582121
2.8868673 2.1346686 3.4859252
2.9185624 2.1222138 3.4652824
2.8755288 2.176491 3.4972954
2.9219139 2.166501 3.4725478
2.9533741 2.1844158 3.4603367
2.8845892 2.2171314 3.4896507
2.9252625 2.2224455 3.4731984
2.9569883 2.2096441 3.4519904
-2.5677392 2.2911851 3.4591815
-2.5313964 2.2878687 3.4751585
-2.4507666 2.2851865 3.4597144
-2.4229531 2.2792687 3.4639223
-2.3306074 2.2944815 3.47402
-2.2817905 2.2990351 3.4736371
-2.2133026 2.2937365 3.4731779
-2.1744213 2.296731 3.4728117
-2.1448431 2.298871 3.4928584
-1.9202499 2.2991741 3.4990685
-1.7844095 2.2989094 3.4595597
-1.4331514 2.2979383 3.4978461
2.9205666 2.2739823 3.473664
2.9590802 2.2963853 3.4589651
-2.4930985 2.3044212 3.4753289
-2.3429959 2.3069766 3.4548211
-2.2513354 2.3004987 3.4937792
-2.1192622 2.303627 3.4618835
-2.0778728 2.3041081 3.4842012
-2.0267019 2.3034573 3.4736023
-1.9771063 2.3051252 3.4836688
-1.9285675 2.3063979 3.4750843
-1.8982801 2.3183346 3.4947288
-1.809593 2.3050969 3.4600091
-1.7586342 2.3051147 3.4819138
-1.7252822 2.3081317 3.4531207
-1.6820583 2.3183012 3.4890497
-1.6289325 2.3157449 3.4700077
-1.5732714 2.3131328 3.4748988
-1.5446692 2.3154359 3.4894776
-1.479105 2.3117318 3.4607272
-1.4250593 2.3147061 3.4619238
-1.3616176 2.3181248 3.4662769
-1.3201003 2.3147736 3.4736245
-1.2663742 2.316772 3.4713998
-1.2244761 2.3219872 3.4705217
-1.1720291 2.3155296 3.4744523
-1.1203408 2.3197675 3.4738655
-1.0900848 2.3178439 3.4784746
-1.0273309 2.3184307 3.4736545
-0.97907627 2.3194561 3.4863672
-0.92148054 2.3146317 3.4746959
-0.87660068 2.3157835 3.4816172
-0.81953204 2.3195417 3.4680743
-0.77779186 2.3196344 3.4858351
-0.73009431 2.3209062 3.4719059
-0.67773342 2.3271852 3.4739757
-0.63019329 2.3292215 3.4840848
-0.57215142 2.3327024 3.487406
-0.52706456 2.3272223 3.470892
-0.47406304 2.3376749 3.4770124
-0.42464256 2.3291976 3.4692318
-0.37826654 2.3373089 3.4855964
-0.31979817 2.3349414 3.4769557
-0.28083795 2.333575 3.4679017
-0.22387101 2.3253231 3.4779532
-0.17924289 2.3300486 3.4742787
-0.12819748 2.3291504 3.4682896
-0.090480022 2.325767 3.4833155
0.033248391 2.3352287 3.4599538
0.080711901 2.3263974 3.4653187
0.12286475 2.3314967 3.4757969
0.17641702 2.3312454 3.4793956
0.36824873 2.3389523 3.4793022
0.4297933 2.3435986 3.4749589
2.8964815 2.3348913 3.4959455
2.9303308 2.3347096 3.4705703
-0.052738834 2.3616476 3.498919
0.22495233 2.3642993 3.4783139
0.25463206 2.3831809 3.4852927
0.47764638 2.3646631 3.4652812
0.52276307 2.3851516 3.4881077
0.61410201 2.3601356 3.4939847
0.67217094 2.3700695 3.4808438
0.72091395 2.37129 3.4749711
0.77266204 2.3719587 3.487195
0.82209659 2.3744476 3.4820316
0.87781686 2.367352 3.4603176
0.97636086 2.3738976 3.476691
1.0267556 2.383306 3.483202
1.088232 2.3839753 3.4796689
1.1288195 2.3866236 3.473388
1.1769307 2.3841219 3.4565129
1.2694581 2.3903246 3.4827418
1.3242269 2.3994012 3.4808257
1.4968385 2.3998549 3.4684319
1.5249178 2.396461 3.4525952
1.5816586 2.3860373 3.4595056
1.6026697 2.387239 3.4535027
1.7068795 2.3998358 3.4805636
2.8539033 2.3942592 3.4985671
2.9269109 2.3810341 3.4646368
1.2195054 2.4099088 3.4855592
1.3072776 2.4049809 3.4950845
1.449102 2.4076841 3.4533298
1.4744247 2.4062285 3.4644756
1.6378075 2.4091916 3.4773104
1.6909434 2.406321 3.4983377
1.7278339 2.4004769 3.473006
1.7770553 2.4116938 3.4717205
1.8220456 2.4096451 3.4972453
1.8814912 2.4194191 3.4880593
1.9344387 2.4204841 3.4653015
1.9645586 2.4109986 3.4841511
2.02549 2.4212492 3.4731553
2.0663996 2.4111085 3.4855981
2.125941 2.4187686 3.4691699
2.1661282 2.4175363 3.4721217
2.2160058 2.414865 3.4667053
2.2695017 2.4158669 3.4753587
2.3314197 2.4137537 3.4727566
2.3808315 2.4093614 3.4724689
2.4350324 2.4201341 3.461549
2.478498 2.4088719 3.4697435
2.5465879 2.4100087 3.4887514
2.5815206 2.4220791 3.4919233
2.6269271 2.4224408 3.4833686
2.670001 2.4204226 3.4708478
2.7163208 2.4211767 3.461719
2.7698469 2.4269605 3.4798863
2.8250144 2.4129093 3.4741075
2.8869801 2.411762 3.4706862
2.9076579 2.4010851 3.4753945
2.7781131 2.0158701 3.5360827
2.8300655 2.0295928 3.5181954
2.7767239 2.0743055 3.5455899
2.8232415 2.0769875 3.5274227
2.8558381 2.0947156 3.5090842
2.7883487 2.1275592 3.5373631
2.8255553 2.1304622 3.518878
2.8641515 2.1343603 3.5015445
2.78567 2.1986783 3.5478818
2.817534 2.1749053 3.5345032
2.8532689 2.1765833 3.5135322
2.8324764 2.2202837 3.5348206
2.8655958 2.2198186 3.5101149
-2.5757565 2.2959187 3.5265393
-2.518692 2.2848117 3.517133
-2.4647348 2.2966928 3.5360718
-2.4398358 2.2938154 3.5447552
-2.3516984 2.2935302 3.5366983
-2.3072503 2.2924778 3.502219
-2.2752395 2.2925489 3.5203424
-2.2235353 2.293982 3.5236487
-2.1706157 2.2938766 3.5238194
-2.1244147 2.2995601 3.5048862
-2.0875587 2.2937894 3.5121839
-0.89037299 2.297281 3.5109205
2.8155746 2.2698798 3.5325205
2.8688142 2.2763779 3.510514
-2.0616062 2.3000164 3.5375288
-2.019387 2.3089876 3.5228078
-1.977443 2.3089967 3.5428514
-1.9068085 2.3079515 3.52194
-1.8720618 2.3138771 3.5234349
-1.8246022 2.305378 3.5199935
-1.7750974 2.3060827 3.5257449
-1.7261333 2.3179154 3.5309029
-1.6743504 2.3153739 3.5347886
-1.6289648 2.3062379 3.5198963
-1.5736952 2.308322 3.5127995
-1.5187529 2.3118358 3.5155702
-1.476513 2.3069553 3.5140917
-1.4162065 2.320457 3.5271938
-1.3774943 2.3200502 3.5201185
-1.322262 2.3160856 3.5193102
-1.2710274 2.3136394 3.5303164
-1.2241069 2.3202355 3.5109193
-1.1705885 2.3124285 3.5126121
-1.1279898 2.3060527 3.5132
-1.0771948 2.3158453 3.5135384
-1.0203649 2.3274453 3.5316772
-0.96980363 2.3243999 3.5380344
-0.9222883 2.3040659 3.515336
-0.86319667 2.3178427 3.5354125
-0.82394862 2.3116999 3.526118
-0.77338338 2.3161325 3.5215971
-0.72257942 2.3259883 3.5320349
-0.67403752 2.3283374 3.5162251
-0.62665808 2.3325806 3.5296543
-0.57630867 2.3253858 3.5251758
-0.52611333 2.3176556 3.5193458
-0.4781144 2.3286932 3.5218575
-0.42468262 2.331775 3.522006
-0.37225232 2.3310635 3.5353794
-0.32338625 2.3322718 3.531069
-0.27503777 2.3364954 3.5308485
-0.22635782 2.331918 3.5265579
-0.17847927 2.3358183 3.5346119
-0.1335583 2.334842 3.5190845
-0.068342566 2.338567 3.5261664
-0.033732358 2.336422 3.5388935
0.082358904 2.3439829 3.5497408
0.13991834 2.3349617 3.5346825
0.17835766 2.333205 3.5306594
0.39129823 2.3384614 3.5253949
0.43096653 2.3440499 3.5303235
0.45064616 2.3456798 3.5309019
2.8339024 2.3301461 3.5295327
2.8696525 2.3315611 3.5073886
-0.02404888 2.3650239 3.5235188
0.0048610941 2.3684726 3.5093408
0.23612587 2.3517582 3.5170534
0.2662555 2.3721104 3.5263724
0.33373046 2.3605869 3.5241957
0.46808216 2.3552961 3.5043161
0.5190897 2.3677621 3.5175345
0.55123174 2.3810019 3.5337496
0.64727873 2.375489 3.5126061
0.66917157 2.3648021 3.5331383
0.7176789 2.3635602 3.5237756
0.76983649 2.3738821 3.5310237
0.82752728 2.3704736 3.5154474
0.88391948 2.3751066 3.5255308
0.92839396 2.3731506 3.5099251
0.9749468 2.3760903 3.5356748
1.0397034 2.3884976 3.5406537
1.0689503 2.3870811 3.5314312
1.1308651 2.391968 3.5237398
1.1747835 2.3902235 3.530889
1.2269396 2.3945382 3.5235062
1.2940637 2.3975573 3.530838
1.3111899 2.392067 3.5167265
1.5090871 2.3991511 3.5083487
2.3326614 2.393801 3.5262489
2.3577952 2.397264 3.518774
2.8190944 2.3822796 3.5287213
2.8744221 2.379025 3.5151994
1.0759104 2.4004204 3.5086038
1.2050087 2.4007583 3.5180047
1.2668643 2.4032409 3.5480602
1.4424808 2.4100466 3.504256
1.4902321 2.4015074 3.518939
1.531408 2.4022951 3.5056729
1.5730748 2.4091525 3.5252554
1.6248131 2.4149051 3.5391016
1.6687372 2.4188194 3.5288501
1.7725223 2.41292 3.524354
1.8029127 2.404887 3.5462942
1.8887031 2.4211335 3.5379658
1.9293182 2.4193044 3.5160275
1.9657254 2.4171762 3.5461578
2.0180914 2.4165249 3.5198028
2.086427 2.4131196 3.5319581
2.1311657 2.4154754 3.5134861
2.1660488 2.4091349 3.5369439
2.2223206 2.4236553 3.535172
2.2704494 2.4180009 3.5253811
2.3130198 2.4064312 3.5062575
2.3979213 2.4157684 3.5330749
2.4336643 2.4186287 3.5175776
2.4708881 2.4115248 3.5392275
2.5213089 2.4175119 3.5206347
2.5777116 2.4170716 3.5448318
2.6207123 2.4258428 3.5360048
2.677902 2.4145381 3.5363536
2.7203603 2.4222608 3.5249035
2.7647693 2.4196441 3.5316036
2.8055582 2.4146197 3.5135856
2.6661661 1.9940772 3.58004
2.7015085 1.9959509 3.5620823
2.6635163 2.0222774 3.5876462
2.7232409 2.0245354 3.5717492
2.7217472 2.074574 3.5832314
2.7545125 2.0742383 3.5605316
2.7237754 2.1292102 3.5852015
2.7670116 2.1376836 3.566391
2.734468 2.1711292 3.5817993
2.7679789 2.1815364 3.5625513
2.7289021 2.2296088 3.594815
2.7611818 2.2239697 3.5817711
2.8000205 2.232563 3.5538404
-2.6634972 2.2892883 3.581723
-2.623189 2.2960651 3.5593495
-2.4092927 2.2958965 3.567282
-2.331321 2.2944896 3.5794628
-2.2726378 2.290071 3.5735607
-2.2319307 2.2922726 3.5717492
-2.1757157 2.2891655 3.5667813
-2.13852 2.2951076 3.5979903
-2.0855951 2.2936854 3.5668056
-1.933759 2.2983868 3.5945394
2.7376084 2.2706432 3.5877128
2.7759206 2.2743225 3.5706332
-2.138581 2.3050909 3.563139
-2.0596995 2.3003209 3.5927474
-2.0243499 2.3055737 3.5665452
-1.97068 2.3046122 3.5898643
-1.9332988 2.3063405 3.5581422
-1.8796235 2.3047993 3.579108
-1.8184997 2.314527 3.5730424
-1.7728486 2.3093307 3.5822997
-1.7284731 2.3147886 3.5773182
-1.6793838 2.3159318 3.5822697
-1.6189389 2.3102305 3.5786228
-1.5756924 2.3057997 3.5546603
-1.5401096 2.3136644 3.5813544
-1.468605 2.3181324 3.5669153
-1.4208748 2.3066621 3.5625293
-1.3705922 2.3121626 3.5765114
-1.3219877 2.3130882 3.5589018
-1.274141 2.3174603 3.5803173
-1.2305245 2.3212385 3.5766962
-1.1748596 2.3155589 3.5710278
-1.1242783 2.319375 3.579365
-1.0751162 2.3204529 3.5757833
-1.0291684 2.3226216 3.5750015
-0.97411072 2.3149238 3.5639153
-0.92612141 2.3186481 3.579982
-0.87495518 2.3142025 3.5828595
-0.8344022 2.3114345 3.5859282
-0.77935308 2.3143158 3.558676
-0.72249699 2.3207314 3.5782146
-0.68119675 2.3286188 3.5662718
-0.6204834 2.3263493 3.5611174
-0.57051456 2.3218811 3.5606234
-0.52127707 2.319782 3.5631664
-0.47502217 2.3318744 3.5870323
-0.42074424 2.331944 3.576324
-0.33262992 2.3308842 3.5711606
-0.27709848 2.3344796 3.5670831
-0.22829138 2.3327253 3.5670376
-0.17045932 2.3397739 3.5803311
-0.12147459 2.3338645 3.5728312
-0.07283809 2.3327777 3.5721686
-0.033908818 2.3292801 3.5672879
0.0049441033 2.3489928 3.5976028
0.12146427 2.3317301 3.569586
0.19955298 2.3362353 3.5737994
0.21948323 2.3412142 3.5805387
0.43478048 2.3452392 3.5715494
2.7293189 2.3279963 3.5962453
2.7657459 2.3300428 3.576499
2.8046494 2.3341064 3.559401
-0.014524378 2.3520169 3.5626178
0.01801152 2.3695138 3.5759237
0.23911527 2.3521957 3.57656
0.26912075 2.368206 3.5793734
0.41638869 2.351712 3.5832083
0.49574706 2.3564241 3.5826607
0.52190542 2.3693781 3.5728314
0.56625825 2.3834496 3.5757034
0.68525481 2.366837 3.5744629
0.72405612 2.364819 3.5653415
0.77735233 2.3771572 3.5757711
0.82402509 2.3689775 3.5547824
0.87234735 2.3774765 3.5729446
0.92242658 2.3788748 3.5826738
0.98812819 2.3881841 3.5942116
1.0267472 2.3897047 3.577388
1.084684 2.3879454 3.585989
1.1168712 2.3851376 3.5736024
1.1749413 2.3808346 3.5806749
1.2281682 2.3862576 3.575213
1.2706671 2.3902106 3.5697517
1.5962951 2.3979137 3.5677001
2.7283518 2.3829672 3.5816472
2.7754188 2.3838248 3.5625997
0.57546198 2.4006932 3.5605328
1.3224103 2.4107184 3.5884366
1.5307263 2.4129198 3.5701814
1.5675862 2.4117393 3.5784254
1.6335349 2.4071622 3.569838
1.6796005 2.4137211 3.563554
1.7271074 2.4182358 3.5817509
1.7806609 2.417258 3.5777836
1.8369511 2.4222219 3.5628192
1.8731817 2.418709 3.5741358
1.9186008 2.4111915 3.5569291
1.981065 2.4146867 3.5861266
2.0279474 2.4196913 3.5732551
2.0740492 2.4133632 3.5741434
2.1362796 2.424109 3.5813284
2.1929948 2.405391 3.5701895
2.2292941 2.4213116 3.5822506
2.269932 2.4186106 3.5736065
2.3188539 2.4133632 3.5736907
2.3662105 2.4061439 3.5898447
2.4342461 2.4189978 3.5768042
2.4793599 2.4083374 3.5871785
2.5241957 2.4193072 3.583086
2.5766766 2.415087 3.5823176
2.6314516 2.4132259 3.563971
2.6728787 2.4077091 3.588047
2.7189312 2.4083476 3.5589604
2.5927186 1.9964528 3.6323493
2.6293714 1.9993495 3.6172867
2.6253011 2.0266495 3.6231291
2.6400824 2.0808094 3.6403859
2.6763968 2.0737514 3.6106176
2.6214528 2.127408 3.6462135
2.6728661 2.1254106 3.6155555
2.6334615 2.1819284 3.6402073
2.6769538 2.1697769 3.6160879
