ply
format ascii 1.0
comment PCL generated
element vertex 1521
property float x
property float y
property float z
element camera 0
property float view_px
property float view_py
property float view_pz
property float x_axisx
property float x_axisy
property float x_axisz
property float y_axisx
property float y_axisy
property float y_axisz
property float z_axisx
property float z_axisy
property float z_axisz
property float focal
property float scalex
property float scaley
property float centerx
property float centery
property int viewportx
property int viewporty
property float k1
property float k2
end_header
1.6276675 1.4162501 3.0418212
1.6729096 1.4284536 3.0400236
1.7223755 1.4280939 3.0429697
1.7731109 1.4260174 3.0402443
1.8270146 1.426011 3.0414355
1.9491502 1.4199017 3.0459707
1.9774166 1.429305 3.0388772
2.0208595 1.4249985 3.0335994
2.072577 1.4179552 3.0310123
2.1073713 1.4265578 3.0366752
2.2944367 1.4003553 3.0295949
0.71312881 1.482264 3.0487432
0.95521307 1.475477 3.0460596
1.043327 1.4861909 3.048358
1.0699215 1.4720249 3.0449126
1.145366 1.4514462 3.0491619
1.1790411 1.4868416 3.0482769
1.2253181 1.4847765 3.047884
1.2701538 1.4774535 3.0456941
1.3268775 1.4720148 3.0412972
1.3744212 1.4787065 3.0409877
1.4241208 1.4728537 3.042258
1.469162 1.4789065 3.0442629
1.5204346 1.483066 3.0442977
1.5693759 1.4810989 3.0440099
1.6183413 1.475922 3.0434234
1.675426 1.4699669 3.0369511
1.7231802 1.4764237 3.0406945
1.7731972 1.4761758 3.0427482
1.8246197 1.4742708 3.039336
1.9770308 1.4670694 3.0288215
2.0255518 1.4679986 3.0276661
2.0736389 1.4724693 3.042119
2.1006751 1.4789532 3.0452757
0.96742201 1.506109 3.0484447
1.046896 1.5157169 3.0497811
1.1786277 1.5116785 3.0469143
1.2238783 1.5086229 3.0481014
1.278417 1.5146841 3.0447142
1.3233317 1.5187833 3.0393414
1.3771293 1.5271072 3.0444603
1.4289378 1.5090687 3.047694
1.4787068 1.5255995 3.0450318
1.5299072 1.5206038 3.0444591
1.575223 1.5206232 3.0421197
1.6271495 1.5181427 3.0466506
1.6756469 1.5177178 3.0410044
1.7258164 1.5184613 3.0369625
1.7759262 1.5266358 3.0427647
1.8264052 1.5263649 3.0436354
1.8518277 1.5170482 3.0331285
1.9923072 1.5183606 3.0444989
2.0204999 1.5195482 3.0322325
2.0753961 1.5195528 3.0376644
2.1093264 1.5300485 3.0391824
2.2848659 1.5151561 3.007689
2.3001196 1.5068941 3.035634
1.320622 1.550236 3.0453446
1.454823 1.5523534 3.047482
2.2524498 1.5855696 3.0488927
1.2725917 1.6417904 3.0193515
1.880355 1.6378279 3.0382733
2.1911421 1.6363231 3.0498433
1.1778643 1.6819558 3.0325294
1.2229025 1.6587217 3.0288544
1.2506391 1.6624908 3.0111725
1.3266271 1.6653198 3.0250988
1.8880453 1.6800818 3.0345805
1.1796613 1.7250074 3.0097313
1.8911481 1.71849 3.022887
1.1778787 1.7778341 3.0192106
1.9071251 1.7599299 3.0354948
1.1816423 1.8171757 3.013077
1.1810713 1.8676587 3.0275574
1.5110378 1.8753091 3.0470898
2.0649471 1.8943192 3.0498054
2.0971634 1.9254534 3.0487666
2.1202886 1.9482555 3.0336587
1.3504113 1.9760673 3.0465338
1.9330446 1.9846001 3.0194197
2.1975775 2.041538 3.0333755
1.9789256 2.222163 3.0284331
1.9867789 2.2787333 3.0093875
2.3686724 2.2655487 3.0467982
2.4204984 2.2868576 3.0276833
2.1295185 2.3414123 3.0396075
2.1620593 2.31549 3.0457356
2.4215977 2.3276668 3.0285108
-0.55557668 2.3982303 3.0059321
-0.52296555 2.3960218 3.0335393
-0.47988766 2.3959796 3.0478916
0.576967 2.3966167 3.0349059
0.63816577 2.3949411 3.0225811
0.67636311 2.3965316 3.0351787
0.7324211 2.3977735 3.0435677
0.77687913 2.3980036 3.0347252
0.82130069 2.3981237 3.0251057
0.87920314 2.3987439 3.0362785
0.91633773 2.3967083 3.0363402
0.99326813 2.3918765 3.0459673
1.0220428 2.3961067 3.0438356
1.137905 2.3942859 3.031471
1.161248 2.3956971 3.0196662
1.2245473 2.3952246 3.0359766
1.2739981 2.3937159 3.0357893
1.337752 2.3921344 3.036216
1.3753709 2.392952 3.0362797
1.4134966 2.3881125 3.0407655
1.4611725 2.3945899 3.0447574
1.5350565 2.3899951 3.0476484
1.5807118 2.3908567 3.0392342
1.6302924 2.3895323 3.0320833
1.6818827 2.3897347 3.0329499
1.7381406 2.3882031 3.0355802
1.7829769 2.3880377 3.0347505
1.8257663 2.3942916 3.0228677
1.874256 2.3884449 3.0324435
1.9247215 2.386755 3.0248406
1.9733 2.3893363 3.033025
2.0009518 2.3851016 3.0254612
2.325258 2.392199 3.0349355
2.3831358 2.3848257 3.0343244
2.4140165 2.3703454 3.0201662
-0.66956151 2.4174705 3.0376263
-0.63003552 2.4066129 3.0218439
-0.57830983 2.4024267 3.0421658
-0.52126002 2.4013817 3.0150261
-0.46915331 2.4081178 3.0222642
-0.42472991 2.4092073 3.0205996
-0.38101104 2.409682 3.0259984
-0.33231777 2.410008 3.022727
-0.27585247 2.4092762 3.0348539
-0.22257948 2.4099803 3.0225618
-0.17019033 2.4096146 3.0248988
-0.11776585 2.4083169 3.0253174
-0.074375793 2.4170804 3.0374856
-0.030557791 2.4139726 3.0341854
0.021872453 2.4147625 3.0352433
0.074404262 2.4168134 3.0371428
0.12249416 2.4105983 3.0364001
0.17915519 2.4123704 3.0279694
0.23609486 2.4095414 3.0295715
0.27318072 2.4138601 3.0352821
0.31975099 2.4095628 3.0317326
0.3727119 2.4122074 3.0301087
0.42083618 2.4072037 3.0270131
0.47803637 2.4127965 3.018647
0.53224033 2.406682 3.0289369
0.56672996 2.4024749 3.0211866
0.61689955 2.4066331 3.0241947
0.67731917 2.4069648 3.0103946
0.72917348 2.4048245 3.0184195
0.77383685 2.4063158 3.0111241
0.88622379 2.4056082 3.019839
0.93176931 2.4037795 3.0148659
0.97092259 2.4035435 3.0223007
1.0269338 2.4044735 3.0171099
1.0675901 2.4018235 3.0293388
1.115273 2.4030144 3.0257912
1.1816945 2.4005172 3.0197961
1.2359638 2.4090433 3.03262
1.2790378 2.4043152 3.0104721
1.3146656 2.4012969 3.0320606
1.3798156 2.4031103 3.009783
1.4310335 2.4050562 3.0188513
1.4806587 2.4034402 3.0228729
1.5226468 2.4051313 3.0210717
1.5601301 2.4042091 3.0169039
1.6164604 2.4000807 3.0268459
1.667676 2.4064169 3.0125995
1.7341994 2.4017067 3.0156322
1.7635603 2.4031141 3.0030103
2.3152237 2.4019122 3.0079656
2.3621716 2.4092116 3.0163174
-0.26161802 -0.45695391 3.0612292
-0.22531962 -0.46549657 3.0702071
-0.17128488 -0.46972167 3.0634432
-0.12894721 -0.47175038 3.0658073
-0.077292219 -0.47873545 3.0637758
-0.025721351 -0.47138426 3.0650585
0.025877764 -0.47184467 3.0680199
0.077464119 -0.47166076 3.066252
0.12165846 -0.47159353 3.0648746
-0.32119367 -0.42062217 3.0799012
-0.27924654 -0.42444065 3.0804853
-0.22457214 -0.42400011 3.0841489
-0.1740022 -0.42953575 3.0828803
-0.12942237 -0.42909616 3.0811517
-0.077627279 -0.42905 3.0819654
-0.025795136 -0.4284924 3.0785167
0.025939709 -0.42880893 3.080725
0.077623837 -0.42837593 3.0771024
0.12180421 -0.42788887 3.0726938
-0.31834364 -0.36867279 3.0847945
-0.27643791 -0.37353665 3.0851836
-0.22763327 -0.37269306 3.0864131
-0.17390519 -0.37749037 3.085597
-0.12932265 -0.37700817 3.0830567
-0.077573687 -0.37703481 3.0844195
-0.025804333 -0.3768481 3.0834677
0.025928147 -0.37685326 3.0835104
0.077588871 -0.37649861 3.0800292
0.12183207 -0.37633577 3.0777531
-0.32201171 -0.32573521 3.0822868
-0.27791971 -0.3261115 3.0886185
-0.22576612 -0.32572725 3.0877485
-0.17388843 -0.32564902 3.0891774
-0.12933931 -0.32530534 3.0873353
-0.077513672 -0.3249869 3.0854356
-0.025762817 -0.32473221 3.0835388
0.025926793 -0.325048 3.086529
0.077569179 -0.32474816 3.0831699
0.12165754 -0.32421795 3.077157
-0.32215598 -0.27402499 3.0868232
-0.27773508 -0.2740365 3.0898209
-0.22568491 -0.27381057 3.0899053
-0.1738288 -0.2737492 3.0913343
-0.12922682 -0.27330694 3.0878098
-0.077471048 -0.27316782 3.0873499
-0.025770977 -0.27303672 3.0864754
0.025886629 -0.27288538 3.0847151
0.077555709 -0.27302954 3.0857871
0.12163708 -0.27258486 3.0799329
-0.32201013 -0.22207455 3.088167
-0.27768973 -0.22215934 3.0920353
-0.22553515 -0.22184812 3.0904896
-0.17363539 -0.22169966 3.0905628
-0.12922698 -0.22159928 3.0905943
-0.077431001 -0.2213587 3.0882843
-0.025763966 -0.2213555 3.0888832
0.025891682 -0.22131489 3.0882905
0.077467017 -0.22111182 3.0848153
0.12163096 -0.22099812 3.0823681
-0.32196441 -0.17762823 3.0895572
-0.2776168 -0.17766023 3.093051
-0.22545065 -0.17740311 3.0912027
-0.17354204 -0.17725182 3.0907226
-0.12916903 -0.17719288 3.0909905
-0.077426724 -0.17705779 3.0897782
-0.025765752 -0.17711975 3.0914328
0.025878765 -0.17700641 3.0894423
0.077440985 -0.1768188 3.0857069
0.12154959 -0.1766715 3.0821419
-0.31319577 -0.13620862 3.0926375
-0.27761462 -0.12582999 3.094568
-0.22554901 -0.12570086 3.094094
-0.17356984 -0.12556286 3.0926826
-0.12910491 -0.12544258 3.0911782
-0.077366248 -0.12531526 3.0890627
-0.025725158 -0.12523629 3.0876236
0.025845679 -0.12523511 3.0875626
0.077383675 -0.12513751 3.0847852
0.12140069 -0.12498134 3.0800209
-0.30589333 -0.073704444 3.0804253
-0.27745035 -0.073959723 3.0939693
-0.22539084 -0.073871113 3.0929272
-0.17350473 -0.073809735 3.0927205
-0.12902385 -0.07371892 3.0899193
-0.077295929 -0.073637478 3.0876436
-0.025724404 -0.073639378 3.0883696
0.025831675 -0.073589891 3.0861819
0.077345014 -0.073558874 3.0843828
0.12130809 -0.073445924 3.0786002
1.7158384 -0.072285987 3.0708213
-0.27732101 -0.029544482 3.0929935
-0.22545969 -0.029530838 3.0944417
-0.17339414 -0.029484941 3.0911736
-0.12909222 -0.029480189 3.0921929
-0.077336736 -0.029444367 3.089715
-0.02570709 -0.029412545 3.0869105
0.025854016 -0.029424831 3.0882432
0.077360064 -0.029407445 3.0855432
0.12126529 -0.029350152 3.0783603
1.7171073 -0.048107091 3.0734277
-0.27520216 0.012990028 3.0903935
-0.22150722 0.019380966 3.0950329
-0.17349266 0.022201663 3.0929034
-0.12900065 0.022164412 3.0900304
-0.077344723 0.022153366 3.0899901
-0.025721522 0.02214382 3.0884635
0.025831021 0.022120668 3.0865002
0.077270903 0.022099709 3.0819499
0.12125683 0.022075916 3.0779545
1.7362095 0.048946846 3.0718679
-0.51593727 0.089165688 3.0838461
-0.46790552 0.083148159 3.0852664
-0.42479277 0.071500383 3.0778217
-0.39324915 0.0588683 3.0653119
-0.22543065 0.073974118 3.0934763
-0.17352909 0.073909618 3.0930414
-0.12906504 0.073829383 3.0909333
-0.077310927 0.073733449 3.08831
-0.025730953 0.07373447 3.0887723
0.025828972 0.073657431 3.0855997
0.077249661 0.073551945 3.0807638
0.12119113 0.073457696 3.0757449
1.7415646 0.065335974 3.0811067
-0.72109866 0.13461998 3.0760851
-0.67621684 0.13460211 3.0825655
-0.62100768 0.12887236 3.0824919
-0.57737309 0.12675346 3.0867736
-0.52454931 0.12657183 3.088939
-0.47495598 0.1234498 3.0910556
-0.22569384 0.12588468 3.095998
-0.17349385 0.12559946 3.0912783
-0.12915437 0.12557246 3.0921071
-0.077363327 0.12538993 3.0887551
-0.025739824 0.12533067 3.088048
0.025827868 0.12517987 3.0841131
0.077310778 0.12511596 3.0820811
0.12347437 0.12544157 3.0752628
0.15057479 0.14688221 3.0732696
0.2818822 0.14644444 3.0579312
0.32589695 0.14649016 3.0559847
0.37763453 0.14668706 3.0561497
0.54912829 0.14747246 3.0553718
0.56362194 0.1474098 3.0522733
0.61656523 0.14774603 3.0525126
0.68471748 0.14812391 3.0507467
0.70005947 0.14824022 3.0508692
-0.7176035 0.16924864 3.0710175
-0.67543381 0.17175418 3.0777326
-0.62306565 0.17171435 3.0844848
-0.57663614 0.1712115 3.081332
-0.52311337 0.17074192 3.079052
-0.48041573 0.16804521 3.0794857
-0.22494029 0.17628807 3.0933526
-0.17369558 0.17750503 3.093257
-0.12927639 0.17741688 3.0932369
-0.07739298 0.17707807 3.0884197
-0.025729116 0.17687345 3.0853913
0.025832133 0.17674375 3.0831177
0.077316172 0.17663103 3.0805213
0.12136938 0.17649312 3.0772591
0.15779023 0.17611676 3.0696118
0.27475989 0.17584802 3.0593672
0.32677293 0.17627305 3.0632296
0.37383145 0.17483486 3.0603499
0.42162275 0.18126599 3.0571282
0.47451532 0.19131051 3.0558188
0.53151333 0.18287089 3.0565038
0.57653838 0.17871264 3.0556362
0.62458163 0.17746958 3.0535269
0.67579794 0.18292649 3.0552003
0.72012031 0.1838298 3.0531368
0.76778489 0.18863221 3.0531604
0.82286286 0.18109709 3.0530508
0.87995499 0.18733883 3.0531092
0.90328658 0.18752092 3.0516477
-0.22358665 0.2206821 3.0915029
-0.17366625 0.22182542 3.0908031
-0.12915407 0.22155398 3.0883958
-0.077419795 0.22142829 3.0877669
-0.025735788 0.22115403 3.0844886
0.025852578 0.22108151 3.083544
0.077330679 0.22081861 3.0792489
0.12290225 0.22365963 3.0767858
0.17261618 0.22036284 3.0702279
0.22377695 0.2201056 3.0643911
0.27603289 0.22083122 3.071789
0.32807776 0.22119007 3.0735309
0.37231874 0.22120091 3.0703816
0.42406061 0.22128068 3.0669785
0.47600779 0.22144338 3.0641737
0.52079064 0.22166602 3.0624454
0.5738495 0.222188 3.0635684
0.6260705 0.22233976 3.0588508
0.6718362 0.22278078 3.0586002
0.72532463 0.22326116 3.0571206
0.77897525 0.22372764 3.0548258
0.82526398 0.22415291 3.0527554
0.86723596 0.21971945 3.0531762
0.91995764 0.22541671 3.0524366
1.0159736 0.24186076 3.0500624
-0.21720208 0.27223098 3.093879
-0.17392181 0.27398506 3.0925643
-0.12928292 0.27351978 3.0888517
-0.077442542 0.27315176 3.0856917
-0.025755165 0.27303877 3.0849774
0.025880996 0.27302045 3.084727
0.077452771 0.27277026 3.0814092
0.12022673 0.27452481 3.0775383
0.17309523 0.2724815 3.0756116
0.22466259 0.27251884 3.0737886
0.27646163 0.27276933 3.0738869
0.32852906 0.27316406 3.0749714
0.37290823 0.2732479 3.0725338
0.42463839 0.27327448 3.068419
0.47683156 0.27356973 3.0667059
0.52138609 0.27367339 3.0631449
0.57421535 0.27419728 3.0627596
0.62735349 0.27476314 3.0622513
0.67308789 0.27525783 3.0614536
0.72334963 0.27366096 3.0600054
0.77591193 0.27845708 3.0572259
0.82652372 0.27685943 3.0544941
0.87159002 0.27828521 3.0528631
0.91520762 0.2705515 3.0517633
0.96043992 0.27131039 3.0514603
1.0015944 0.28738829 3.0529699
-0.50066012 0.34131098 3.0709116
-0.4782539 0.34119415 3.0722094
-0.20970884 0.32324606 3.0918307
-0.17411287 0.32616046 3.0925589
-0.12940377 0.32557052 3.0884027
-0.077636011 0.32562342 3.0900183
-0.025801722 0.32520688 3.0866823
0.025915692 0.32506403 3.0853138
0.077591807 0.32492942 3.0835342
0.12179315 0.32468024 3.0801203
0.17352585 0.32482606 3.0798776
0.22529118 0.32497576 3.0791178
0.27705824 0.32506558 3.0772603
0.32919058 0.32549143 3.0779009
0.37357175 0.32550165 3.0746574
0.42550313 0.32562283 3.0712974
0.47777143 0.32595429 3.0693905
0.52247596 0.32611918 3.0661535
0.57547981 0.32677254 3.0660737
0.62845105 0.32729954 3.0641959
0.67406148 0.32778972 3.0624626
0.72251356 0.32665887 3.0586257
0.77644581 0.33065283 3.0605993
0.82571059 0.32776374 3.0554099
0.87618458 0.32746157 3.053966
0.91999912 0.31907254 3.0521572
0.96844417 0.32471025 3.0528255
1.034202 0.31836304 3.0510368
1.0835629 0.31952575 3.0512426
-0.56836838 0.38647318 3.0648005
-0.52085578 0.37233856 3.0661354
-0.47578731 0.37353691 3.0746684
-0.20320213 0.35484886 3.0809696
-0.17557068 0.37355757 3.0888741
-0.12806177 0.37331599 3.0882101
-0.079374589 0.37244719 3.087821
-0.025832899 0.37745562 3.0870512
0.02592662 0.37711129 3.0842013
0.074129008 0.37004554 3.0733371
0.12170107 0.35389221 3.0754726
0.17310907 0.3535172 3.0705755
0.22537704 0.35465598 3.0782757
0.2766358 0.35406315 3.0703387
0.32841587 0.36526579 3.067528
0.37648487 0.36539319 3.0650425
0.42427683 0.35420564 3.0604296
0.47636184 0.35453007 3.0582001
0.52150351 0.35510111 3.058316
0.57173306 0.3556869 3.0574601
0.64145327 0.35601196 3.0511098
0.7180202 0.35722613 3.0503938
-0.6075778 0.43255377 3.0664613
-0.57752043 0.42491153 3.0697143
-0.52501404 0.42463553 3.0739446
-0.47259888 0.42436466 3.0776939
-0.43772992 0.43418944 3.0703554
-0.1669102 0.42306462 3.0891809
-0.12632331 0.42686403 3.0885439
-0.072652608 0.42211345 3.0888066
-0.025880052 0.42990196 3.0872073
0.025964126 0.42939246 3.0835073
0.06642358 0.43151617 3.0717523
0.17615005 0.43109524 3.0524673
0.20920017 0.44035086 3.0508757
0.26842442 0.42650148 3.0551555
0.32241929 0.42660806 3.0524704
0.3746016 0.42096481 3.0508161
0.47599116 0.4132894 3.0509133
-0.60872585 0.47817791 3.0678008
-0.57923645 0.47849226 3.0736852
-0.52632338 0.47795272 3.0764568
-0.47320259 0.47707257 3.0764818
-0.42971212 0.47822642 3.0759175
-0.15969919 0.47564945 3.0885296
-0.12262562 0.4759469 3.0915821
-0.070552565 0.47579718 3.0916948
-0.025920523 0.4751811 3.0881679
0.026024297 0.47488901 3.0862398
0.070072517 0.47440723 3.0664794
0.11840107 0.47929755 3.0552642
0.17165911 0.47445092 3.0525861
0.2144049 0.47039762 3.0521793
0.2685658 0.48557737 3.050914
0.3205111 0.47890204 3.0527246
-0.61004382 0.52413005 3.0695248
-0.57698375 0.52551144 3.0729241
-0.52514023 0.52224821 3.0769982
-0.47388172 0.52255273 3.0761328
-0.42876434 0.52213365 3.0780363
-0.38819829 0.52850562 3.0743923
-0.1227804 0.52122945 3.0907576
-0.070687562 0.52141118 3.0929389
-0.025953123 0.5203374 3.0870419
0.02753835 0.52592909 3.0842888
0.072122514 0.53056145 3.0691175
0.12310651 0.52003258 3.0540366
0.19016224 0.52989364 3.0509245
0.22685035 0.53259319 3.0524116
0.27152786 0.52458841 3.0523174
0.32545367 0.52543187 3.0523105
0.36966601 0.52023864 3.0518761
0.40232846 0.50199169 3.0500417
-0.61093181 0.56987429 3.0686073
-0.57358199 0.57000285 3.074095
-0.52055538 0.57690519 3.0762491
-0.47484353 0.57597625 3.0761206
-0.42548838 0.57783622 3.0791132
-0.37772608 0.57710451 3.0799651
-0.33796564 0.59442365 3.0646574
-0.11555719 0.57446319 3.0907605
-0.070760451 0.57410443 3.0897896
-0.025995335 0.57333678 3.0861094
0.024386842 0.57813919 3.0836039
0.070387781 0.57765299 3.0680897
0.12906764 0.58981651 3.0513558
0.17641799 0.57856315 3.0540967
0.22106433 0.57817167 3.0546553
0.26965281 0.59096003 3.0511892
0.33665583 0.57710445 3.0534878
0.37426206 0.57805878 3.0556612
0.40405264 0.5856992 3.0534427
-0.61624277 0.62019414 3.0734673
-0.57500315 0.6240446 3.0748045
-0.52167082 0.63068831 3.0758967
-0.47561619 0.62934583 3.0742338
-0.42290762 0.62895495 3.0774119
-0.37060755 0.62911469 3.0826871
-0.33223304 0.62733299 3.0768471
-0.11590699 0.62862241 3.0936248
-0.070950419 0.62794292 3.0911856
-0.026080059 0.62746406 3.0892978
0.026172452 0.62674874 3.085747
0.07059221 0.62389249 3.0712364
0.12614743 0.62046635 3.0532219
0.17282793 0.61892104 3.052335
0.22558825 0.62120533 3.0530686
0.27324677 0.62196189 3.0541804
0.32552329 0.62456924 3.0529277
0.37467197 0.62320995 3.0532172
0.40411097 0.60802138 3.050992
0.48958918 0.61976099 3.0505416
0.5330894 0.6412344 3.0508804
0.55597854 0.64184523 3.0511088
1.8205963 0.64447987 3.0618017
-0.62014312 0.68137878 3.0688703
-0.57646775 0.67839175 3.0751226
-0.52243775 0.67672795 3.0739851
-0.47725874 0.67663407 3.0784395
-0.42422906 0.67598671 3.0806382
-0.37164292 0.67592907 3.0849345
-0.32569852 0.67408502 3.0798368
-0.10868192 0.67506188 3.0945756
-0.071157925 0.67476314 3.0939345
-0.026145739 0.67388636 3.0904162
0.026235973 0.67305541 3.0865879
0.071736835 0.67355984 3.0683684
0.12519975 0.67092216 3.0541143
0.1742802 0.67472315 3.0558114
0.2263125 0.67515856 3.0555515
0.27106643 0.67576045 3.0558994
0.32327139 0.68118882 3.053932
0.37558088 0.67679977 3.0532653
0.42423069 0.68100488 3.0507276
0.51843691 0.66393495 3.0509112
0.55620188 0.65703541 3.0501964
1.8263236 0.66307551 3.0687394
-0.61616981 0.72602242 3.0733964
-0.57067043 0.72583604 3.0785325
-0.52481043 0.72513753 3.0810173
-0.47901142 0.72439146 3.0828297
-0.42597446 0.72400045 3.0863507
-0.37284106 0.72329754 3.0879486
-0.32694629 0.72177958 3.0848923
-0.29192221 0.72250134 3.0737624
-0.10898136 0.72205514 3.0964096
-0.071331747 0.72152495 3.0948484
-0.026206138 0.72034705 3.0902226
0.026302308 0.7197516 3.0876513
0.072805703 0.7296707 3.0717142
0.1225725 0.7276938 3.0541439
0.174695 0.72837877 3.0553172
0.22699261 0.72925645 3.0567663
0.27166039 0.72932643 3.0546324
0.32429314 0.73054713 3.0562718
0.3725149 0.73329741 3.0548787
0.42475438 0.73494953 3.0556278
0.46339771 0.74369371 3.0506527
0.55827874 0.73442978 3.0500598
-0.61880243 0.7746914 3.0789499
-0.573358 0.77483326 3.0855258
-0.52720678 0.77397192 3.0875962
-0.47551826 0.77427477 3.0886765
-0.42253336 0.76972014 3.0875976
-0.3735894 0.77006435 3.0868676
-0.32791269 0.76917672 3.0867538
-0.27735707 0.77838928 3.0849836
-0.22187948 0.79757333 3.0811729
-0.17400628 0.79285139 3.0893407
-0.12421919 0.77219826 3.0930786
-0.071538359 0.76884592 3.0965445
-0.024910981 0.77311575 3.091202
0.026386557 0.77506101 3.0904188
0.078456774 0.77705455 3.0667791
0.12299156 0.77486151 3.0571754
0.17514856 0.77496958 3.0558798
0.22729895 0.77495551 3.0535288
0.27233544 0.77589715 3.0547733
0.32526019 0.77756077 3.0579102
0.37770799 0.77786118 3.0550399
0.42281571 0.77828366 3.0527654
0.47599545 0.7796151 3.0527327
0.51440346 0.79605252 3.051631
-0.62180078 0.82422626 3.0857668
-0.57533813 0.82323045 3.0881209
-0.52893394 0.82218373 3.0897081
-0.47517395 0.82135135 3.0924282
-0.42101428 0.81951928 3.0907598
-0.37506971 0.81859231 3.0912464
-0.32934889 0.81797636 3.0923731
-0.27771556 0.82966489 3.0892067
-0.22279355 0.83112246 3.0885592
-0.17750283 0.83128351 3.0911551
-0.12315725 0.82563823 3.0955083
-0.077384993 0.8180263 3.0961814
-0.02639059 0.82794404 3.0951588
0.026450669 0.82983977 3.08916
0.074434623 0.82242709 3.0693402
0.12740038 0.81846106 3.053405
0.17626314 0.82029307 3.0555608
0.22819683 0.82291293 3.0577445
0.27326632 0.82344365 3.0572457
0.32601807 0.82439429 3.0572731
0.37853307 0.82453173 3.0537324
0.42388627 0.82743829 3.0521853
0.47123113 0.82311893 3.0528548
0.53087103 0.84341973 3.0500116
0.6087383 0.84701318 3.0533903
1.8600318 0.83648294 3.0581822
-0.62381136 0.87282252 3.0871718
-0.57743466 0.87214702 3.0908246
-0.52803689 0.87293482 3.0938709
-0.47458333 0.86831492 3.0941408
-0.42281097 0.86875719 3.0955739
-0.37528789 0.87114352 3.0967374
-0.32505092 0.87078863 3.0951409
-0.27255526 0.87949479 3.0938027
-0.22380485 0.88042766 3.0941033
-0.17815034 0.87981206 3.0939519
-0.12510662 0.88006592 3.0965731
-0.082060635 0.87446815 3.0966613
-0.015096669 0.87563902 3.0967643
0.026558587 0.87868232 3.0933216
0.079045847 0.87316966 3.0733287
0.12212504 0.87181121 3.056437
0.17613541 0.86923283 3.0567267
0.22880009 0.87005115 3.057276
0.27411035 0.87109721 3.0584238
0.32492575 0.87055707 3.058248
0.3768574 0.87410343 3.0560651
0.42515406 0.87289101 3.0531631
0.47073832 0.86466521 3.0532503
0.50937051 0.88295603 3.0518649
0.58906919 0.88809252 3.0507936
0.67216629 0.88618642 3.0510638
0.73545867 0.89943159 3.0500724
-0.62280494 0.91819173 3.0832009
-0.57862258 0.91991639 3.0880396
-0.52583337 0.9248752 3.0892172
-0.47615215 0.9219529 3.0976579
-0.4322212 0.92337936 3.0976791
-0.37506431 0.92307204 3.0980089
-0.31843707 0.92977309 3.0982058
-0.27053851 0.930094 3.0963719
-0.22445226 0.92861164 3.0939281
-0.17867957 0.92807662 3.094157
-0.13500343 0.92851263 3.097111
-0.026560919 0.92045182 3.0990775
0.028174901 0.92563117 3.0947652
0.080751218 0.92369616 3.0716374
0.12552857 0.92733139 3.0594976
0.17528258 0.92367518 3.0581977
0.22962454 0.91837704 3.0594382
0.27525163 0.91998345 3.0622823
0.32016203 0.91899228 3.0560071
0.37397373 0.92171067 3.0609515
0.42196074 0.92705703 3.0567055
0.47501692 0.92740971 3.0551531
0.52632624 0.93152273 3.0516732
0.57526672 0.92893261 3.0518999
0.68885469 0.91350186 3.0503895
0.84931552 0.93785727 3.0502756
1.879997 0.92585337 3.0542362
-0.61903745 0.97188205 3.0771937
-0.57971001 0.97080547 3.0834839
-0.52414536 0.95678157 3.0819054
-0.46814546 0.95955038 3.0857494
-0.42574015 0.9800024 3.0956326
-0.37984884 0.99790931 3.0970707
-0.32042861 0.98072642 3.0990782
-0.27148333 0.97923779 3.0975513
-0.22329357 0.97752637 3.0947416
-0.17920287 0.97657925 3.0936537
-0.12787797 0.97519088 3.0956955
-0.057139255 0.97636312 3.0962377
-0.026656494 0.9835369 3.0985079
0.02673425 0.97585815 3.0948236
0.077832624 0.97597194 3.0718849
0.12645216 0.97914189 3.0588176
0.16999356 0.98195869 3.059901
0.22085264 0.97184598 3.0621316
0.27594805 0.97065222 3.0597744
0.32206491 0.96997386 3.0647817
0.37516096 0.97012943 3.0611441
0.42845017 0.97067517 3.0581484
0.47408473 0.97097981 3.0545053
0.50994372 0.98198301 3.0511754
0.56980902 0.9723376 3.0528102
0.61330378 0.97529995 3.0512996
0.67736191 0.99128515 3.0539443
0.72394013 0.98453283 3.0511179
0.75546134 0.98184848 3.0504372
1.8974876 0.96409774 3.0567946
2.2409635 0.96936399 3.0507042
2.2675915 0.97324991 3.0521786
-0.61237222 1.0247301 3.0779181
-0.58938336 1.0176346 3.0743651
-0.3753252 1.0152391 3.0874679
-0.32695585 1.0302367 3.0936835
-0.27214605 1.0276035 3.0948503
-0.22579247 1.0260782 3.0927563
-0.1799017 1.0263525 3.095665
-0.12886675 1.0315832 3.0966308
-0.070777856 1.0282356 3.0981376
-0.029287316 1.0234982 3.0987785
0.036408227 1.0237043 3.0972917
0.07772281 1.0281285 3.0757675
0.12500116 1.0299512 3.0591416
0.170563 1.0307604 3.0600445
0.22608052 1.027812 3.0626972
0.2754266 1.0223367 3.0622356
0.32305065 1.0185405 3.0640416
0.37654924 1.0193478 3.0623016
0.4297432 1.0192399 3.0571866
0.47583804 1.020249 3.0555637
0.520522 1.0220493 3.0560198
0.57074511 1.021319 3.0539017
0.6260128 1.0251853 3.0519361
0.66988409 1.0106761 3.0515552
0.72601002 1.0244809 3.0512409
1.9052825 1.0020159 3.060786
-0.59904772 1.0669998 3.0816681
-0.30095088 1.0517989 3.0669746
-0.27221715 1.0740963 3.0856247
-0.22663707 1.076014 3.093569
-0.18050309 1.0758529 3.0951798
-0.12660582 1.0748901 3.0942011
-0.072905481 1.0754859 3.0971348
-0.031943899 1.0702249 3.0984251
0.026931267 1.0721503 3.0976143
0.077148743 1.0754875 3.0779874
0.12550612 1.0797762 3.0608816
0.1713894 1.0814457 3.06409
0.22478534 1.0819002 3.0630062
0.27802104 1.073949 3.0609105
0.32436284 1.068452 3.0657485
0.370453 1.0693645 3.0648112
0.42329812 1.0678164 3.055577
0.477395 1.0694162 3.0547278
0.52447599 1.0719926 3.0568769
0.57140511 1.0738932 3.056587
0.62755555 1.0816333 3.0520749
0.67092496 1.0879718 3.051163
0.73707807 1.0806851 3.0516672
0.9222942 1.0586925 3.0510309
1.8945584 1.0734956 3.0609636
1.9011337 1.0771884 3.0716414
2.2656054 1.0868919 3.0545514
-0.57383835 1.132606 3.0566559
-0.30427191 1.1404666 3.081908
-0.27212313 1.1294466 3.0941343
-0.22755402 1.1267036 3.0948281
-0.17335396 1.1253735 3.0935771
-0.11943628 1.1257262 3.096303
-0.073167115 1.1256417 3.0970533
-0.042318515 1.1097189 3.0999684
0.03089981 1.1218925 3.098835
0.07293345 1.1248161 3.0833175
0.1259594 1.1294649 3.0605593
0.17194135 1.1307399 3.0625083
0.22336559 1.1295387 3.0610976
0.27932248 1.1274729 3.0633187
0.32567614 1.1187812 3.0669122
0.37164128 1.1187741 3.0633001
0.4253017 1.118854 3.0586789
0.47938231 1.1199027 3.0560632
0.52604824 1.1213046 3.0546176
0.57291013 1.122849 3.0530486
0.62023175 1.1250026 3.0526025
0.67342788 1.1281046 3.0533636
0.71802229 1.1277695 3.0520709
0.78858131 1.1344826 3.0519352
0.8332544 1.1146412 3.051441
0.85943526 1.1046181 3.0500171
1.8981506 1.1096346 3.0571959
1.9033394 1.1297828 3.0605886
2.1352873 1.1144147 3.0528426
2.1723363 1.1288059 3.0501573
2.2448955 1.1210811 3.0507243
2.2666738 1.1052248 3.0506816
-0.56031895 1.1751059 3.0587947
-0.53810561 1.184976 3.0651469
-0.35292783 1.194929 3.0876145
-0.31656194 1.1839763 3.0914719
-0.27500927 1.1779447 3.0932803
-0.22851178 1.1779354 3.0958683
-0.17419006 1.1773406 3.0967433
-0.11993938 1.1743399 3.0981052
-0.075390935 1.1784501 3.0968509
-0.027045168 1.1796073 3.0985909
0.016822075 1.1740098 3.098815
0.073177941 1.1750382 3.0823574
0.12641865 1.1794578 3.0595326
0.17258216 1.1810105 3.0620146
0.22828761 1.1799656 3.0635419
0.28054127 1.17594 3.0653565
0.32683882 1.1688963 3.0659256
0.37299916 1.1690493 3.0626633
0.42431831 1.1664985 3.0553155
0.47813821 1.1719325 3.0556245
0.52835542 1.1725024 3.055876
0.5751245 1.1735224 3.0526748
0.62296152 1.1764038 3.0537841
0.66540313 1.1810811 3.0523443
0.71575624 1.177981 3.0513332
0.79779708 1.1521182 3.0519409
0.82161862 1.1824894 3.0523529
1.9142784 1.1680837 3.0588655
2.1359539 1.1810498 3.0524652
2.1761191 1.1885726 3.0564313
2.2231815 1.1948378 3.0512772
-0.55540061 1.219914 3.0646658
-0.53271818 1.2291213 3.0688992
-0.47631335 1.2379277 3.0868626
-0.42393231 1.2372205 3.0794306
-0.37248978 1.2276242 3.085984
-0.32261226 1.2287388 3.0883641
-0.276299 1.2302322 3.0952902
-0.2315475 1.2302523 3.0978961
-0.17492755 1.2289692 3.0972159
-0.12038752 1.2279613 3.0965021
-0.078880854 1.2216874 3.0960894
-0.027179303 1.2453618 3.0984337
0.024657881 1.2222506 3.0981581
0.071486481 1.2255034 3.0874369
0.12704003 1.2271339 3.0634506
0.17544989 1.22745 3.0625834
0.21945766 1.2274845 3.0606892
0.27676263 1.2211156 3.0635598
0.32832339 1.2206168 3.0674212
0.37429991 1.2194265 3.0607326
0.42065391 1.2195511 3.0568419
0.47519132 1.2208923 3.054635
0.53026319 1.2231892 3.0541506
0.57769978 1.2252998 3.0534675
0.61979538 1.2242218 3.0522349
0.67630351 1.2204428 3.0533342
0.72163945 1.2250013 3.0532835
0.7599858 1.2155402 3.0536313
0.81736487 1.2047192 3.0510857
1.9118038 1.2035735 3.0533087
2.1466014 1.2223576 3.056186
2.1775205 1.2265049 3.0526793
2.2423179 1.2182405 3.053993
2.2704604 1.2327799 3.0537376
-0.52642739 1.2736565 3.0816517
-0.48085845 1.272264 3.0814054
-0.4287805 1.2781426 3.0811913
-0.36912662 1.2797008 3.0872309
-0.32416221 1.2736778 3.0921042
-0.27725264 1.2719648 3.0953822
-0.22846545 1.2795879 3.0964854
-0.17348817 1.2792717 3.0967538
-0.12084854 1.2794726 3.0951583
-0.074075662 1.2800635 3.0976171
-0.035069544 1.2882807 3.0968773
0.017623397 1.282307 3.0983438
0.073857389 1.2749969 3.0853531
0.12761667 1.2700183 3.0668385
0.17212473 1.2704145 3.0662904
0.22053531 1.2708781 3.0652204
0.27523649 1.2714677 3.068805
0.32948628 1.2714602 3.0650666
0.37585005 1.2709732 3.0601306
0.42217812 1.2723963 3.0540791
0.46905905 1.2672068 3.0539632
0.52720267 1.2772979 3.0559492
0.58033246 1.2776541 3.0538819
0.62828881 1.2801603 3.0533133
0.66935033 1.2774574 3.0527806
0.72395653 1.2680932 3.0517576
0.75635034 1.2699206 3.0507839
0.81702137 1.277547 3.0512831
0.87108469 1.2615252 3.0520837
1.0944568 1.2992253 3.0507586
1.939602 1.2811852 3.0647595
2.1311116 1.2768101 3.0516529
2.156019 1.2633045 3.0576897
2.231662 1.2851057 3.0533519
2.2685766 1.2817576 3.0533288
-0.52381206 1.323754 3.0872746
-0.47673211 1.3236157 3.0876491
-0.41845024 1.3225727 3.0905528
-0.37694046 1.3158425 3.0941896
-0.3259927 1.3201729 3.0979824
-0.2822234 1.3057601 3.0983033
-0.22677015 1.3220266 3.0966873
-0.17110609 1.3225282 3.0983846
-0.12137324 1.3242402 3.0971692
-0.074312612 1.3232414 3.0958812
-0.027352512 1.3238577 3.0978594
0.019622011 1.3229493 3.0957921
0.074254818 1.3286325 3.0877993
0.12816599 1.3201973 3.0669756
0.17468186 1.3196312 3.064044
0.22139417 1.320503 3.0639572
0.27602604 1.3217844 3.0638149
0.33055505 1.3222718 3.0611615
0.37704551 1.3216645 3.0559204
0.42434314 1.3237314 3.0563784
0.47219393 1.3269259 3.0588989
0.52000344 1.3294816 3.0594063
0.57334036 1.3267 3.0544124
0.62204581 1.3305026 3.0542178
0.69494247 1.3194108 3.0527856
0.71929693 1.3208532 3.0521936
0.81883049 1.3372579 3.0521483
1.9378288 1.3158005 3.0631492
1.9516736 1.3047135 3.0516584
2.1467826 1.3397851 3.0550785
2.1821625 1.3361547 3.0546165
2.2375746 1.3311014 3.0593045
2.2845292 1.3297207 3.0568559
-0.5161624 1.3768528 3.0950451
-0.46839157 1.3726352 3.0963213
-0.42600116 1.3661684 3.0968757
-0.36493051 1.3811525 3.0983
-0.32561782 1.3759633 3.0980847
-0.28522786 1.3754115 3.0979741
-0.22115541 1.3668869 3.0972288
-0.16908704 1.3671921 3.0971866
-0.12716787 1.3693234 3.0983422
-0.062892973 1.3732712 3.0985618
-0.024316838 1.3718354 3.0977395
0.022842081 1.3576896 3.098124
0.080485642 1.3778565 3.0884535
0.12876363 1.3731861 3.0668335
0.17561778 1.3735187 3.0659232
0.22247161 1.3738233 3.0644584
0.27243394 1.3723007 3.0621963
0.32661837 1.377661 3.0627799
0.37944359 1.3769866 3.0606241
0.42682281 1.3784854 3.0595469
0.47441468 1.3802408 3.0585122
0.52195549 1.3815694 3.0559986
0.56974936 1.3753971 3.056284
0.61821043 1.3783485 3.056258
0.67405301 1.375104 3.0526519
0.7357825 1.3878186 3.0550392
0.78321147 1.3822724 3.0534923
0.83814138 1.3746424 3.0515566
0.94904071 1.3938178 3.0514381
0.96514356 1.3859428 3.0506964
1.0823948 1.3523093 3.0507429
1.1230645 1.3950574 3.0544477
1.1838752 1.3917266 3.0516567
1.2705454 1.3649018 3.0508795
2.1715913 1.3766544 3.0622926
2.2219028 1.3716038 3.0571384
2.269707 1.3757792 3.0536041
-0.52147019 1.409611 3.0987935
-0.48158121 1.4253001 3.0976846
-0.32132059 1.4286869 3.0997872
-0.28166881 1.4392694 3.0991018
-0.21940929 1.4286432 3.0971885
-0.17184512 1.4249222 3.0950987
-0.11984239 1.4257962 3.0971034
-0.07499674 1.4223554 3.0971961
-0.043351501 1.4050913 3.0995898
0.075857192 1.4183587 3.0928545
0.13154745 1.42711 3.0717587
0.17657962 1.4281343 3.0674679
0.22384334 1.4294058 3.0680313
0.27085507 1.4288497 3.0641031
0.32415855 1.4296337 3.0657129
0.37614363 1.4312686 3.0614285
0.42892838 1.4246378 3.0618219
0.47675574 1.4264838 3.0607841
0.52453738 1.4278024 3.0580456
0.57232845 1.4211459 3.0571969
0.62077796 1.4236397 3.0558872
0.67020094 1.4278612 3.0577002
0.71886182 1.4300233 3.0544662
0.76816463 1.4251086 3.055289
0.81718743 1.4216655 3.0529602
0.87225378 1.4356083 3.0543354
0.90333337 1.4456245 3.0536153
0.9727543 1.4228137 3.0533748
1.0213276 1.4293758 3.0525086
1.0687957 1.4294392 3.051404
1.3446274 1.4319699 3.0537052
1.3644314 1.4436874 3.0524135
1.4386474 1.434965 3.0517282
1.5173416 1.4464148 3.0507989
1.6164726 1.4430937 3.0517464
1.7333698 1.4044316 3.0529916
2.1461453 1.4316475 3.0596652
2.1778007 1.4232923 3.0587471
2.2294669 1.4255886 3.0640697
2.2717071 1.4251634 3.057761
-0.26634488 1.4634948 3.0995557
-0.21222404 1.4758587 3.0973897
-0.18124218 1.4664874 3.0972278
-0.11509598 1.4695537 3.0994749
-0.091193661 1.4602611 3.0998888
0.083431281 1.4771829 3.0968025
0.1279076 1.4714346 3.0726955
0.17756148 1.4755594 3.0713291
0.22482049 1.4750471 3.0680525
0.27277306 1.4785401 3.0725543
0.32030836 1.4789521 3.070133
0.37570003 1.4752547 3.0674961
0.42773595 1.4723132 3.0622239
0.47837442 1.4708698 3.0576684
0.52730703 1.4750142 3.060632
0.57458448 1.4774139 3.0644963
0.62445539 1.4718567 3.0604041
0.6730814 1.4738413 3.0571759
0.72547412 1.471096 3.0525033
0.77166438 1.471607 3.0553331
0.82326084 1.4781575 3.0596981
0.87075949 1.4762745 3.0576367
0.92312068 1.4756893 3.0538504
0.98295099 1.4727364 3.0542631
1.0210348 1.4736997 3.0531342
1.0977782 1.4858412 3.0545225
1.128342 1.4730741 3.0529711
1.1663256 1.4695737 3.0522695
1.2119561 1.4711829 3.0535886
1.2873205 1.4598565 3.0557182
1.4801986 1.4597483 3.0501423
1.5113424 1.4655597 3.0526204
1.5986155 1.4592539 3.0507195
1.9783846 1.494578 3.0707941
2.0773227 1.4661002 3.0510049
2.1325436 1.4707043 3.0621784
2.1775997 1.4738069 3.0629046
2.2196355 1.4776807 3.061269
2.2710855 1.4783418 3.0626073
2.3049085 1.4732137 3.0572834
-0.21152358 1.5172708 3.0985415
-0.059754349 1.515455 3.0996027
-0.043868568 1.533609 3.0986104
0.083769761 1.5231991 3.0958824
0.1310073 1.5242224 3.0777326
0.17855668 1.5235772 3.0747423
0.22621043 1.5238996 3.0731211
0.27411667 1.5254602 3.0735121
0.32218885 1.5275179 3.0743105
0.36971065 1.5266408 3.0686727
0.42072144 1.5256205 3.065629
0.47730026 1.5224959 3.0658553
0.53013557 1.5227996 3.0629444
0.58176929 1.523433 3.0657051
0.62830347 1.5209831 3.0650184
0.67680705 1.5220506 3.0597012
0.72463018 1.5218378 3.0624964
0.77469933 1.5255028 3.0611935
0.82773161 1.5265495 3.0617247
0.87913907 1.5221453 3.0568266
0.92914921 1.525926 3.0589628
0.97938222 1.5283722 3.0525529
1.0234233 1.5253019 3.0557752
1.0779128 1.5257727 3.0575616
1.1212246 1.5282204 3.0572803
1.1700459 1.5288746 3.0555105
1.2318726 1.5326171 3.0518315
1.2761459 1.5467908 3.0522141
1.3601414 1.5405928 3.0544806
1.4196682 1.529398 3.0528007
1.4519465 1.5240297 3.051404
1.5141447 1.5443984 3.0524926
1.6332873 1.5438862 3.0502124
1.6558608 1.5489726 3.0528536
1.9825069 1.5244449 3.0663261
2.1419113 1.5043125 3.0645998
2.177443 1.5248654 3.0665925
2.2351403 1.5271753 3.0622132
2.2807682 1.5215231 3.0603008
-0.17253673 1.573699 3.0998843
0.13596275 1.5708946 3.086246
0.18019469 1.5776426 3.0885346
0.22830541 1.5779835 3.0869019
0.27686691 1.5810379 3.0900249
0.32501301 1.5810461 3.0866215
0.36818668 1.5729879 3.0766158
0.41898993 1.5643703 3.0642793
0.46869543 1.5624436 3.0740726
0.5220654 1.5635246 3.0726705
0.57649153 1.5725522 3.0809243
0.62486631 1.5725536 3.0740497
0.67600161 1.5790437 3.0791323
0.7294113 1.573922 3.0792634
0.78217971 1.5647278 3.070586
0.82473016 1.5685368 3.0701597
0.87405777 1.5800661 3.0797887
0.92344278 1.5845518 3.0823867
0.97792387 1.5733657 3.0734208
1.0294082 1.5762942 3.0765386
1.0766156 1.5793718 3.0792096
1.1246122 1.5774693 3.0788558
1.1751387 1.5700942 3.0697594
1.2216805 1.5739648 3.0600214
1.2733928 1.5786471 3.0583584
1.324891 1.5724686 3.0568917
1.3778226 1.576378 3.0622897
1.4259527 1.5745758 3.0635164
1.4793962 1.5778484 3.066335
1.5158973 1.580547 3.066185
1.5799713 1.5694681 3.0663915
1.6269332 1.5800872 3.0672903
1.6735491 1.5831089 3.0689583
1.7207227 1.5776467 3.069241
1.7663829 1.5961351 3.0683973
1.8252244 1.5752665 3.0649524
1.8701501 1.5923851 3.059865
1.9952197 1.5791068 3.0671263
2.0259433 1.5641212 3.0660231
2.0663495 1.5994703 3.0817614
2.1345301 1.5756879 3.0637641
2.1717834 1.5737977 3.0655403
2.2194967 1.5725563 3.062737
2.2719071 1.5659317 3.061568
2.3059726 1.5693049 3.059751
0.19770505 1.6219029 3.0992103
0.22982812 1.6127945 3.0986736
0.2782388 1.6130184 3.096221
0.33073935 1.623832 3.0983686
0.36045974 1.636363 3.0976622
0.42109931 1.6156781 3.0989585
0.47636175 1.6198107 3.0963674
0.52992553 1.6266035 3.098484
0.5732556 1.6265101 3.0926137
0.62054574 1.6258862 3.0894408
0.67320818 1.6241336 3.0922816
0.72596568 1.6239372 3.0913098
0.77594525 1.6197554 3.0899274
0.82262099 1.6230326 3.0874648
0.87639803 1.6214546 3.0881131
0.92549646 1.625139 3.0888405
0.97777468 1.6265957 3.090677
1.020795 1.629221 3.0906944
1.0715613 1.6264983 3.0925429
1.1269965 1.6250823 3.0901015
1.1792521 1.6287534 3.0881259
1.2317646 1.6267589 3.0733993
1.2787765 1.6255349 3.0628242
1.3317404 1.6253093 3.0669925
1.3744544 1.6225173 3.0674572
1.4301603 1.6243025 3.0743778
1.470924 1.6236712 3.0732307
1.5224925 1.6289505 3.0770316
1.5744531 1.6225934 3.075418
1.6272166 1.6235353 3.0733542
1.6787766 1.625666 3.0720024
1.7242113 1.6300265 3.0700099
1.7761514 1.6213182 3.0646999
1.8220947 1.6239309 3.0691183
1.8656278 1.6227037 3.0599139
2.0176218 1.6258166 3.0670719
2.0757403 1.6243776 3.074882
2.1208925 1.6270137 3.0670316
2.170125 1.6251345 3.061372
2.234004 1.6198605 3.0663328
2.2782924 1.6180121 3.0631692
2.3179502 1.6222848 3.0698309
0.39584312 1.6978018 3.0989609
0.4114123 1.6784046 3.0982845
0.4938688 1.6736608 3.0990396
0.52690327 1.6732334 3.0979271
0.56585783 1.6746341 3.0980384
0.63967329 1.6732843 3.0973494
0.67741799 1.6753318 3.0952768
0.73068935 1.6744659 3.0954955
0.78309155 1.6770951 3.0954239
0.83080149 1.6729804 3.0949094
0.8744486 1.6746922 3.0956745
0.91826975 1.6790525 3.0946825
0.96157658 1.6737934 3.0942261
1.0274725 1.6789659 3.0950735
1.0748426 1.6722754 3.0944903
1.128071 1.6727922 3.0939832
1.1744442 1.6758852 3.0828412
1.213995 1.6555111 3.0708327
1.3407985 1.6585581 3.0572569
1.3761218 1.6719682 3.0646942
1.4236728 1.6679201 3.0695832
1.4729434 1.6753703 3.0672669
1.5223066 1.6740673 3.0733674
1.5759828 1.6764911 3.0743015
1.6225492 1.6711202 3.0718331
1.6722105 1.6790339 3.071774
1.726759 1.6772801 3.0719855
1.7731205 1.6780473 3.0700696
1.8294121 1.6763465 3.0703239
1.8703768 1.6740878 3.0647044
2.0296583 1.6799732 3.0785751
2.0816133 1.6753796 3.0758398
2.1335216 1.6776836 3.0681126
2.177757 1.67551 3.0661824
2.2278848 1.6777939 3.0681887
2.2687588 1.668869 3.0596313
0.51333898 1.72506 3.0995204
0.64731723 1.7237422 3.0969362
0.67650747 1.7204266 3.095489
0.77295732 1.7033124 3.0938177
0.81806964 1.7178802 3.0973516
0.87114781 1.7259859 3.0979462
0.9411335 1.7237563 3.097599
0.97384721 1.7240357 3.0953722
1.0289971 1.7224107 3.0934799
1.083374 1.7170067 3.0967627
1.1231449 1.7285416 3.0954034
1.1705418 1.7287889 3.0874109
1.3858638 1.7062566 3.0554905
1.4274677 1.7164593 3.0760448
1.4759848 1.7210118 3.070353
1.5235379 1.7281951 3.0714498
1.5739141 1.7184395 3.0752938
1.6267426 1.7283003 3.0745382
1.6770495 1.7262117 3.0712352
1.728974 1.7252783 3.069397
1.7782941 1.7243053 3.0680683
1.8257233 1.7238592 3.0685942
1.8757688 1.7314105 3.0692215
2.0245087 1.7284056 3.0777097
2.0657675 1.7140164 3.0728168
2.1181486 1.7268895 3.0745862
2.1741505 1.7255131 3.0654359
2.2322803 1.7326316 3.0762377
2.2747018 1.7270919 3.0638363
0.62800908 1.7670983 3.0984926
0.83311296 1.7583987 3.0962822
0.85576391 1.7536584 3.0955608
0.94797385 1.7868369 3.0982702
0.98169059 1.772827 3.0964184
1.0221539 1.7702377 3.0978107
1.0719739 1.7715427 3.0972483
1.1244342 1.7698591 3.0896254
1.1700711 1.7765148 3.0912471
1.4303632 1.7730128 3.0759075
1.4738246 1.7744675 3.076849
1.5262227 1.7761399 3.0818653
1.5763923 1.7747059 3.0808296
1.6259626 1.7720857 3.0771387
1.6787781 1.7814013 3.0739098
1.7219352 1.7715645 3.0719995
1.7762142 1.7797037 3.067486
1.8274698 1.7699277 3.07412
1.8786907 1.7775437 3.0704663
1.9085081 1.7960713 3.0671799
2.0843415 1.757179 3.0872474
2.2262168 1.7707622 3.0917294
2.2511787 1.7756215 3.0884428
2.3003342 1.7510982 3.0517273
0.93689227 1.8488069 3.0984435
0.96487665 1.8244516 3.0956712
1.0247591 1.8305566 3.0978026
1.076316 1.8302906 3.0960121
1.1166161 1.8315958 3.0987318
1.1738251 1.829064 3.0839922
1.4334074 1.8262081 3.0774515
1.4703802 1.8219349 3.0613141
1.5201514 1.8216785 3.0760241
1.5712801 1.8251956 3.0799949
1.6185427 1.8202006 3.0766366
1.6741883 1.8235838 3.0775974
1.7279215 1.8271885 3.0792811
1.7760996 1.8263927 3.0784402
1.8248514 1.8211836 3.0769978
1.8796402 1.828738 3.0757356
1.9160626 1.8305224 3.0657105
0.83393258 1.8969024 3.0925663
0.96910989 1.8960098 3.0981216
1.0332885 1.8663694 3.0964947
1.0757926 1.8777913 3.0960383
1.1265045 1.8709052 3.098871
1.1675636 1.8703873 3.0959473
1.3955086 1.8613362 3.0647392
1.4277228 1.8790201 3.0726302
1.4810542 1.8728961 3.0758543
1.5430567 1.8665581 3.0820718
1.5758532 1.8740208 3.0833442
1.623237 1.8691447 3.0846472
1.6722376 1.8725771 3.0790677
1.7255541 1.8767128 3.0816348
1.7706839 1.8681476 3.0798695
1.8297334 1.8806329 3.0805428
1.8752472 1.8716059 3.0784893
1.9169664 1.8767478 3.0679021
2.0476136 1.8954375 3.0623305
1.0367255 1.9277266 3.0982401
1.0668467 1.9246162 3.0975678
1.139784 1.9141378 3.0975678
1.179561 1.9208339 3.0910823
1.210681 1.9446416 3.0778084
1.4230464 1.9214891 3.0680337
1.4789023 1.9166809 3.0754805
1.5133035 1.9299884 3.0657248
1.5723817 1.923044 3.0837739
1.6310202 1.9253635 3.0859799
1.672218 1.9205197 3.0820549
1.7279524 1.93065 3.0798342
1.7773137 1.919112 3.0839343
1.8217566 1.9276669 3.0797508
1.8747346 1.926186 3.0833659
1.924262 1.9280246 3.0710201
2.0731058 1.9291062 3.0710096
0.95223898 1.9825692 3.0993173
1.0806458 1.9795942 3.0990796
1.1776186 1.9769939 3.0975082
1.2126276 1.9793611 3.0988772
1.2543948 1.9762728 3.0800042
1.3844608 1.9739605 3.0710659
1.4153204 1.97831 3.0814617
1.4827223 1.962334 3.079211
1.5328795 1.975258 3.0717337
1.574729 1.9748603 3.082335
1.617336 1.9740744 3.0845132
1.6741236 1.98197 3.0894039
1.7267878 1.9782726 3.0881374
1.7782649 1.9727182 3.0832298
1.8344764 1.9779484 3.0816045
1.8787647 1.9766923 3.0801883
1.9294249 1.9721009 3.0681126
2.0831287 1.9665246 3.0786364
2.1186943 1.9826099 3.0755641
1.0134267 2.0361392 3.0976341
1.1914275 2.0318294 3.0974371
1.2220136 2.0251493 3.0960538
1.2732205 2.0184712 3.0877173
1.3239609 2.0188313 3.074966
1.3709782 2.0327897 3.0786188
1.4243228 2.0184436 3.0785582
1.4737986 2.0211196 3.0914254
1.5235684 2.0232718 3.0859756
1.5753671 2.026098 3.0839701
1.6294398 2.025178 3.0879979
1.6671495 2.0275633 3.0830383
1.7152094 2.0225646 3.0887799
1.7715282 2.02861 3.088865
1.8201499 2.0192742 3.0774672
1.8746685 2.0241709 3.082973
1.9274477 2.0244365 3.0748444
2.0905802 2.0299299 3.0909555
2.1308455 2.0319223 3.0799086
2.1662934 2.0165217 3.0685499
0.98194009 2.0823805 3.0962057
1.0732768 2.0683303 3.0964668
1.1789658 2.0760198 3.0974138
1.2203757 2.0700417 3.0939808
1.2778947 2.0652261 3.0907066
1.3263772 2.078073 3.0879192
1.372792 2.0688834 3.0797184
1.4273945 2.0776384 3.0909803
1.4731916 2.0731852 3.0903912
1.5259038 2.0746021 3.0927613
1.5775535 2.0739222 3.0914459
1.6158032 2.0581732 3.0895872
1.6749041 2.075058 3.0943553
1.7287521 2.0754361 3.0925155
1.7808503 2.0763533 3.0842817
1.8317165 2.0696115 3.084584
1.8782781 2.0755458 3.0878825
1.928066 2.0745704 3.0834725
1.9585731 2.0771098 3.07197
2.0872583 2.0741229 3.0921721
2.1194155 2.0775719 3.0802951
2.1805363 2.0710878 3.0813103
2.2129245 2.0840616 3.0625496
1.1897954 2.1284385 3.0959318
1.228555 2.1195586 3.0950868
1.2806572 2.1068931 3.0964203
1.322536 2.1258233 3.0935612
1.3712485 2.1228504 3.0912657
1.4212059 2.1213522 3.0904849
1.4776106 2.13008 3.0923352
1.5238979 2.1206713 3.090323
1.5742395 2.1089814 3.0912404
1.6259304 2.1259208 3.0946901
1.6804154 2.1197364 3.0940676
1.7326549 2.1257856 3.0896661
1.7796369 2.1198268 3.083097
1.8276584 2.1231966 3.0883424
1.8753754 2.1255648 3.0917335
1.924107 2.1203589 3.0843582
1.9654675 2.1321375 3.0719116
2.1154599 2.1311703 3.0911777
2.1761553 2.1222901 3.0823586
2.2171757 2.1263211 3.0704598
1.0603292 2.1746089 3.0990815
1.1113294 2.1966047 3.0998311
1.1626748 2.1567914 3.0984154
1.2265823 2.1933057 3.0975559
1.2838415 2.1810668 3.0982034
1.3201656 2.1725738 3.0915902
1.3585094 2.1672106 3.0891454
1.4316696 2.1809998 3.098129
1.4720877 2.1808531 3.09587
1.5288262 2.1736832 3.0913136
1.575729 2.1796339 3.0930932
1.6197509 2.1698527 3.0926864
1.675239 2.1727755 3.0946465
1.7268769 2.1700778 3.0878358
1.7734551 2.1722307 3.0917358
1.8229706 2.1687183 3.0880275
1.8793323 2.1780798 3.0856135
1.9357357 2.1794395 3.0912104
1.97366 2.179369 3.0701864
2.1249411 2.179462 3.0814176
2.1798649 2.1666439 3.0730579
0.96613866 2.2446344 3.0998855
1.1903238 2.2107279 3.0978336
1.271889 2.2278109 3.0978227
1.3208891 2.2250116 3.0962501
1.3712163 2.2239604 3.0963988
1.4075449 2.2055626 3.0934787
1.4730498 2.2250195 3.0930223
1.5238558 2.21997 3.0917325
1.5781279 2.2254524 3.092026
1.6312304 2.2224433 3.0921621
1.6777385 2.2268112 3.0915844
1.7236364 2.2180645 3.0900848
1.7806908 2.2295444 3.0916629
1.8253785 2.2179775 3.0803254
1.8718467 2.2290041 3.0839939
1.9196221 2.2208829 3.0826535
1.9677966 2.2323613 3.0775666
2.1274202 2.231029 3.0806732
2.1749558 2.2267809 3.068537
0.83220565 2.2970252 3.0980837
0.89575773 2.2824302 3.0990269
0.91391712 2.2832716 3.0959065
0.99153256 2.2978725 3.0975697
1.134504 2.2879024 3.0988331
1.1743693 2.2741709 3.0977528
1.2336957 2.2952371 3.0977769
1.3213737 2.2823999 3.0970125
1.3869026 2.2528737 3.096694
1.4258182 2.2763414 3.0949214
1.4745963 2.2844968 3.0928257
1.5239946 2.2707317 3.0917957
1.5742832 2.2778978 3.0892611
1.6201175 2.2701211 3.0917149
1.6747712 2.2809961 3.0850718
1.7274653 2.2698512 3.0851543
1.7685767 2.2752156 3.0818317
1.8157169 2.267247 3.08182
1.8737259 2.273818 3.0787098
1.9226503 2.2631538 3.0722084
1.9708018 2.2852795 3.0780659
2.1365478 2.2899535 3.0799491
2.1681149 2.2822807 3.0626011
2.3946755 2.2908671 3.0539057
0.39293772 2.3493235 3.099642
0.4105511 2.3490679 3.0974529
0.57132745 2.3390396 3.0979674
0.6261161 2.3451917 3.0977354
0.67166054 2.3492453 3.0955064
0.71646208 2.3325057 3.0997815
0.78125215 2.3399911 3.0973659
0.82719094 2.3391786 3.0954146
0.88692284 2.3141825 3.0979984
0.92062646 2.3359451 3.0965087
0.98031837 2.3340945 3.0934529
1.0246679 2.3111408 3.0955379
1.075 2.3261647 3.0933387
1.1292256 2.3257854 3.0931311
1.1699671 2.3377357 3.09181
1.2237232 2.3259997 3.0930164
1.2682974 2.3268785 3.094897
1.3262923 2.3230479 3.0884011
1.378117 2.3239248 3.0906284
1.4224802 2.3270855 3.0843027
1.4741676 2.33145 3.0810828
1.5205296 2.3166671 3.0840366
1.5786749 2.3259566 3.083035
1.6278963 2.3185852 3.0826614
1.6726633 2.3287058 3.0787408
1.7228763 2.3248012 3.0790172
1.7820252 2.3306479 3.0805776
1.8284426 2.3213496 3.0787611
1.8761995 2.3332856 3.0744624
1.9182744 2.3185537 3.0724187
1.9774781 2.3252881 3.0673201
2.132344 2.3252375 3.0657463
2.3389974 2.3256173 3.0540967
2.3758802 2.3321791 3.0602019
-0.6653834 2.3944807 3.087007
-0.6221354 2.393321 3.0788054
-0.57804501 2.3912029 3.0760725
-0.52845907 2.3900967 3.0853996
-0.47172028 2.3891704 3.0842853
-0.41976139 2.3957713 3.0720282
-0.36768615 2.3931715 3.0912123
-0.33123705 2.391897 3.0814908
-0.27845412 2.392204 3.0890098
-0.24346927 2.3915021 3.099052
-0.0660979 2.3814852 3.0932281
-0.030813852 2.3892524 3.086766
0.022088744 2.39136 3.0895433
0.071510755 2.39007 3.0906723
