ply
format ascii 1.0
comment PCL generated
element vertex 1507
property float x
property float y
property float z
element camera 0
property float view_px
property float view_py
property float view_pz
property float x_axisx
property float x_axisy
property float x_axisz
property float y_axisx
property float y_axisy
property float y_axisz
property float z_axisx
property float z_axisy
property float z_axisz
property float focal
property float scalex
property float scaley
property float centerx
property float centery
property int viewportx
property int viewporty
property float k1
property float k2
end_header
2.173214 2.4228082 2.6752906
2.2289507 2.42189 2.6774058
2.2780986 2.4168887 2.662652
2.3245065 2.4168956 2.6776292
2.3623531 2.4105134 2.671401
0.14861065 -0.55453014 2.7291405
0.18160781 -0.55444843 2.7274218
0.20734683 -0.55270261 2.7175996
0.33137828 -0.5510239 2.7011757
0.37944701 -0.55414343 2.7124519
0.4282521 -0.55754596 2.7245529
0.46856904 -0.5581212 2.7230113
0.52091324 -0.55724794 2.7123432
-0.41205031 -0.50102746 2.7142162
-0.36372387 -0.51117599 2.7009125
0.22921407 -0.54460663 2.7438047
0.26288542 -0.54554415 2.7465777
0.32220152 -0.54458237 2.7375298
0.36355162 -0.54681277 2.7454422
0.42449522 -0.54798079 2.7455904
0.47750723 -0.54745591 2.7371392
0.5304749 -0.54702127 2.7284296
0.57552904 -0.54082 2.7259169
0.61928672 -0.54075706 2.7263112
0.67205131 -0.5401684 2.743577
0.7260018 -0.54009175 2.733912
0.76940864 -0.52657247 2.7277486
0.8306914 -0.51276189 2.7155004
0.85960013 -0.5162515 2.7290142
-0.46310356 -0.49305949 2.7399137
0.84323645 -0.48747495 2.7263429
0.86613595 -0.48025665 2.7195354
0.88706803 -0.43483961 2.7335987
0.88851529 -0.34853435 2.7016096
0.77253985 -0.26974955 2.7494295
0.79474664 -0.22789672 2.7302649
0.87581939 -0.12126114 2.7349422
0.89287537 -0.087458223 2.7290368
0.92161554 -0.080878757 2.7283914
2.3160205 0.65672946 2.7474446
2.2154274 0.77704722 2.7287824
2.2158613 0.82788068 2.7280843
2.2179735 0.87427676 2.7235701
2.2173347 0.92031264 2.7180619
2.1781638 1.0961169 2.7095304
2.1067688 1.3917027 2.7005441
2.1162629 1.4286237 2.7178049
2.1004691 1.4935758 2.7193091
2.0859072 1.5246648 2.7061605
2.0832911 1.5899472 2.7217603
2.075861 1.6245712 2.7112656
2.0650308 1.6735616 2.7207766
2.0459859 1.7243973 2.7214229
2.0620329 1.7259881 2.7144613
2.0388801 1.7785707 2.7202718
2.0626173 1.776504 2.7079844
2.0368171 1.8184227 2.7220979
2.0602086 1.832513 2.7138083
2.04161 1.8648881 2.7326958
2.0521913 1.8755457 2.7168102
2.040822 1.9268469 2.7380898
2.0503714 1.9248582 2.7276528
2.0356102 1.9798465 2.7328243
2.0258877 2.0405169 2.7441306
2.0114224 2.0793824 2.7365942
1.985893 2.1434786 2.7369797
2.0027752 2.1156673 2.7425327
2.4207628 2.1181998 2.7254143
1.9815055 2.1755984 2.7384388
2.418503 2.1704664 2.733062
1.9373429 2.2302818 2.7334812
1.9569426 2.2136102 2.7251916
2.4179082 2.2250173 2.742188
1.9122019 2.2584858 2.7208238
2.3907671 2.2743444 2.7074606
2.4066033 2.2613916 2.7209425
2.3982918 2.3380497 2.7246065
2.4079897 2.3223414 2.7209327
1.8972198 2.3673718 2.7379637
2.3881381 2.3662202 2.7185886
1.3821905 2.4080586 2.74488
1.4405957 2.4183173 2.7328007
1.4749951 2.4317341 2.7355661
1.5240693 2.4220967 2.7370653
1.5788845 2.4281023 2.7316399
1.6213596 2.4302611 2.7235322
1.6794368 2.4287343 2.7268641
1.733843 2.4288664 2.7280104
1.7771651 2.4253118 2.7294195
1.806591 2.4193835 2.7244616
1.8548198 2.4380205 2.7467844
2.0165985 2.4209809 2.7224789
2.0723772 2.4187365 2.7241576
2.1209688 2.4224067 2.7213068
2.183486 2.4268858 2.7455063
2.2245183 2.4208453 2.73068
2.2807472 2.4207926 2.7154679
2.3223522 2.4153593 2.7248604
2.365809 2.4014328 2.7175584
0.13851394 -0.55375272 2.7940242
0.17135532 -0.54408282 2.7789266
0.22224967 -0.53545564 2.7777321
0.28283408 -0.54086185 2.7680213
0.32359782 -0.53222281 2.7851498
0.37717742 -0.53525651 2.7733891
0.42804611 -0.5391103 2.770436
0.47374192 -0.53405327 2.7806818
0.52765876 -0.53081697 2.7740219
0.57241768 -0.52820158 2.7688439
0.62584758 -0.52227026 2.7793906
0.67523015 -0.5200302 2.7773423
0.72227377 -0.51754308 2.7701774
0.75629008 -0.51423639 2.7579033
-0.43866888 -0.49557272 2.756783
0.66257983 -0.49420348 2.7992642
0.72274411 -0.49308178 2.7826409
0.764525 -0.48662621 2.7785263
0.86858797 -0.4842931 2.7861423
0.89833158 -0.41284978 2.7711992
0.89410847 -0.35610622 2.7633226
0.77797198 -0.25805911 2.7696261
-0.49694896 -0.24336147 2.7995205
-0.42821953 -0.24274004 2.7996175
0.78914148 -0.24372232 2.7594013
0.81111634 -0.21028081 2.7629118
0.83105332 -0.18455866 2.7828374
0.87671566 -0.12333053 2.7835789
0.89282757 -0.095646016 2.7735713
1.6844583 0.19375785 2.7787402
1.7199457 0.17201832 2.7754037
2.339443 0.54740232 2.7965572
2.3597429 0.53997892 2.7906432
2.3390248 0.58042818 2.7903798
2.3307154 0.62782794 2.7713735
2.330533 0.67384058 2.794405
2.3215446 0.72087169 2.7730942
2.218915 0.78443903 2.7667942
2.2141945 0.82751918 2.7717814
2.2157357 0.88223487 2.7708015
2.2266438 0.92625409 2.7790842
2.2486517 0.96518344 2.7809854
2.2377689 1.0925064 2.7950714
2.2357156 1.1082911 2.7868676
2.0288301 1.8773313 2.7600527
2.0370123 1.9112011 2.755388
2.0414498 1.9762831 2.7694411
2.0344269 2.0312655 2.7830064
2.0158679 2.0722904 2.7663662
1.9932435 2.1334703 2.759361
2.4120193 2.1353111 2.7687812
1.9731214 2.1957269 2.7731662
2.0043685 2.1830196 2.7989843
2.4135933 2.173542 2.7694874
2.4154899 2.221772 2.7720497
1.9270617 2.2685618 2.7735384
2.3985531 2.2999322 2.7520041
2.4059362 2.2691622 2.7625542
2.3908005 2.3494687 2.7519267
2.0635645 2.3974659 2.7740731
1.3202312 2.4222631 2.791024
1.3621243 2.4188583 2.7686419
1.4209472 2.4280362 2.7784142
1.4764109 2.4264605 2.7759581
1.5254529 2.4321895 2.7804995
1.5733308 2.4206944 2.774096
1.6371244 2.4262495 2.7795544
1.6740365 2.4302492 2.7799022
1.7219366 2.4263203 2.775811
1.7684344 2.4199972 2.768276
1.8335978 2.4300029 2.7753131
1.8828392 2.4229722 2.7713609
2.0722871 2.4060783 2.7601078
2.1256602 2.4121764 2.7743855
2.1709952 2.4197874 2.7770863
2.2212389 2.4188943 2.7774334
2.2704527 2.4211419 2.7716837
2.3424733 2.4269037 2.7809048
2.378123 2.414073 2.7652185
2.4051857 2.4022968 2.7910342
0.099352598 -0.56145281 2.8340147
0.12597325 -0.5580377 2.8160658
0.13279898 -0.54458046 2.8183961
0.17425537 -0.52595866 2.8292766
0.22658856 -0.51749665 2.8273361
0.27397043 -0.5176686 2.8247046
0.32433677 -0.51195133 2.8202724
0.37215659 -0.51487231 2.8160357
0.42264098 -0.51855493 2.8166723
0.47720262 -0.51477665 2.8217006
0.52312183 -0.51400423 2.8198872
0.57608432 -0.51292557 2.8121984
0.6216864 -0.50819248 2.8053398
0.32567447 -0.4935405 2.8344572
0.37235355 -0.49175826 2.8203585
0.42242393 -0.49436915 2.8308735
0.47299775 -0.49697939 2.8408062
0.52497476 -0.4982926 2.8424091
0.57463157 -0.49195793 2.83445
0.6269328 -0.49218988 2.8206155
0.6861003 -0.49334672 2.8183451
0.72482961 -0.48543525 2.8205945
0.79385459 -0.48515543 2.8064342
0.8275888 -0.49284995 2.8468502
0.85889649 -0.49061671 2.8269148
0.90966713 -0.48119214 2.8468428
-0.40816081 -0.36178318 2.8103006
-0.38874686 -0.3682906 2.827122
-0.41865978 -0.3290166 2.8221061
-0.38631335 -0.32132652 2.8382657
-0.46076649 -0.28666642 2.828526
-0.42047855 -0.27298546 2.8147085
-0.38631937 -0.27254349 2.8315678
0.79142535 -0.28574955 2.8423052
0.80013961 -0.25143787 2.8493857
-0.45665297 -0.24351326 2.8057606
-0.41842002 -0.22131872 2.8101931
-0.39079729 -0.22425511 2.82657
0.8094281 -0.23609377 2.8311303
-0.41571259 -0.18922281 2.8100824
-0.38930115 -0.18954457 2.817379
0.86199361 -0.15218566 2.8140182
0.88712293 -0.12609462 2.8482587
1.6958047 0.18168457 2.8299713
1.7150267 0.173786 2.8144512
2.3663979 0.52456951 2.8227069
2.3312869 0.58261865 2.8126152
2.3370407 0.61740977 2.8135319
2.3302042 0.66480625 2.8202555
2.3368208 0.70959216 2.8167298
2.2314563 0.84015203 2.8252664
2.2291868 0.877527 2.8238928
2.2204957 0.92564815 2.8215504
-0.46123186 0.98200768 2.8472118
-0.42247444 0.97391474 2.8366361
-0.38411045 0.9764334 2.8276305
2.2305787 0.97324401 2.8289921
-0.41635835 1.0252048 2.843013
-0.38003573 1.0161393 2.8428447
2.2331133 1.0244238 2.831197
-0.42557928 1.0589063 2.8492105
2.2339807 1.079949 2.8201849
2.2298973 1.1278869 2.8191586
2.2363305 1.1696519 2.823441
2.2350819 1.2219096 2.8415458
2.0679693 1.9750234 2.8221209
2.0634861 2.0241346 2.8297772
2.0262432 2.0952668 2.8048003
2.0209355 2.1449196 2.8099632
2.4163849 2.1836791 2.8152549
2.4316211 2.2167394 2.8200696
2.4354172 2.2865572 2.8281584
2.4349899 2.3339946 2.8443079
2.1315925 2.3951237 2.835228
2.4363084 2.374372 2.8352253
1.1398317 2.4117074 2.8451996
1.1902142 2.4254098 2.845787
1.2296785 2.4167542 2.8193884
1.2816838 2.4235041 2.8271196
1.3282737 2.4193637 2.8213565
1.3759496 2.4243791 2.8313313
1.4299939 2.4201367 2.8269715
1.4702752 2.4188819 2.8265886
1.5323298 2.4232926 2.8239017
1.5726869 2.4305444 2.8453588
1.6155567 2.4269693 2.8187926
1.6756144 2.4303122 2.8343635
1.7224782 2.4261978 2.8284626
1.7840447 2.4262118 2.833277
1.8202291 2.4263375 2.8204012
1.8683206 2.421468 2.8213215
1.9229072 2.4242167 2.8305759
1.9510967 2.4158525 2.8297892
2.1091225 2.4094064 2.8117313
2.1832452 2.4200969 2.8292415
2.2272785 2.4168966 2.8263252
2.2739916 2.415849 2.8086953
2.3233166 2.4225955 2.8239496
2.3779736 2.4240079 2.8258867
2.4118514 2.4088907 2.8242383
-0.052071888 -0.55599719 2.8792624
-0.024317687 -0.55806136 2.8901806
0.072852813 -0.55460769 2.8717601
0.10729608 -0.55346853 2.8651605
-0.052410144 -0.54561979 2.8997176
0.1261584 -0.53685093 2.8767643
0.17227486 -0.5091328 2.8682065
0.17801696 -0.47638437 2.8743505
0.22485758 -0.47717929 2.8686247
0.27338383 -0.47733799 2.8668807
0.32302082 -0.4722032 2.8750696
0.37269381 -0.47352275 2.8791869
0.42279965 -0.47505718 2.8841193
0.47236574 -0.4757109 2.8831584
0.52282089 -0.47851315 2.8710222
0.57506078 -0.46831715 2.8840134
0.62566835 -0.46964595 2.8781741
0.67450958 -0.46807301 2.8777454
0.72607654 -0.46733469 2.8857281
0.77486956 -0.46931684 2.8814938
0.82769126 -0.46891451 2.8868351
0.87528735 -0.4749983 2.8887167
0.90922749 -0.46839246 2.8761542
0.17671373 -0.42254093 2.8810027
0.22511649 -0.42234075 2.8774817
0.27418447 -0.42324495 2.8809533
0.32316312 -0.42378721 2.8812799
0.37279275 -0.42489392 2.8849585
0.42257151 -0.42592421 2.8875477
0.47299755 -0.42730525 2.8919492
0.5227344 -0.42787042 2.8902037
0.57146722 -0.42722654 2.8895452
0.62378865 -0.42276326 2.8910916
0.67546171 -0.42421755 2.8936517
0.72775841 -0.42585427 2.8968229
0.77190775 -0.42669713 2.8952274
0.82607055 -0.42595169 2.8970442
0.8775785 -0.42249545 2.8968318
0.9128412 -0.42222938 2.8875916
-0.38152 -0.35744891 2.8514929
0.17658179 -0.37377584 2.8832853
0.22516817 -0.37396398 2.8825755
0.27416006 -0.37466228 2.8851631
0.32316503 -0.37515113 2.8857069
0.37260017 -0.37593588 2.887902
0.42260233 -0.37707052 2.8922062
0.47246137 -0.37784091 2.8931353
0.52228451 -0.37142754 2.8928452
0.57259572 -0.3722302 2.8929169
0.62345153 -0.3732346 2.8939927
0.67492014 -0.37442261 2.8958654
0.7267819 -0.37566161 2.8974848
0.772946 -0.380597 2.8971417
0.82181782 -0.37935078 2.8969321
0.87617761 -0.37178057 2.8968494
0.91212159 -0.37900251 2.8893986
0.17656916 -0.32530186 2.8868704
0.22489111 -0.32508636 2.8828039
0.27383661 -0.32569605 2.8854795
0.32299277 -0.32634264 2.8879642
0.37205347 -0.32672924 2.8875744
0.42199472 -0.32770947 2.8919079
0.47168782 -0.32831356 2.8922877
0.52446538 -0.32058793 2.8929977
0.57388031 -0.32397723 2.8932641
0.62333363 -0.32387236 2.8973999
0.6724574 -0.32598421 2.8977175
0.72084039 -0.33020088 2.8970487
0.79262686 -0.31264377 2.8988218
0.82249677 -0.32973209 2.8919938
0.86268592 -0.34067455 2.8797042
-0.3814202 -0.27487954 2.8566918
0.17638087 -0.27656502 2.8871763
0.22478625 -0.27653098 2.8847075
0.27367049 -0.27701285 2.8870466
0.3226828 -0.27746651 2.8884912
0.37371039 -0.27383915 2.8883915
0.4216868 -0.27172542 2.8935652
0.47227266 -0.27388412 2.8966663
0.52828699 -0.27277592 2.8936028
0.57860416 -0.27341577 2.8941376
0.62246311 -0.2741918 2.8966658
0.6697765 -0.27875274 2.8977647
0.72516143 -0.28285497 2.8979182
0.78683096 -0.27312389 2.8919175
-0.38088185 -0.21958426 2.8557377
0.17634939 -0.22811112 2.8893158
0.224687 -0.22803585 2.8861449
0.27343228 -0.22833934 2.8872252
0.3223238 -0.22865523 2.8880565
0.36961693 -0.22613975 2.8904357
0.42166156 -0.22293364 2.896107
0.47146574 -0.22341771 2.8974812
0.52844542 -0.22387928 2.8972123
0.57653785 -0.22595614 2.8954704
0.61803955 -0.22682811 2.8980262
0.68057483 -0.22959387 2.8987186
0.71321571 -0.22232367 2.8977876
0.7887854 -0.23638768 2.8986053
0.82035941 -0.22526066 2.8702602
0.17621496 -0.17267376 2.8895304
0.22465973 -0.17273176 2.8883078
0.27305874 -0.17272478 2.88571
0.32217601 -0.17312835 2.8892002
0.37125695 -0.1733955 2.8899479
0.42683914 -0.17351986 2.894938
0.47560427 -0.17480744 2.8949149
0.52746028 -0.17457385 2.8939857
0.57794183 -0.17504847 2.8957708
0.61670852 -0.17309108 2.8974218
0.677131 -0.1774637 2.8988404
0.70943499 -0.19753996 2.8985395
0.83978498 -0.19123745 2.8875809
0.86126214 -0.1648097 2.8767662
0.18008816 -0.12551311 2.8866286
0.2242559 -0.12412117 2.8846695
0.27302572 -0.12433552 2.8869495
0.32485875 -0.12322215 2.889852
0.37338409 -0.12616812 2.8931439
0.42281246 -0.12680553 2.8969238
0.47772586 -0.12545863 2.8961749
0.52728933 -0.12562554 2.8946822
0.57751155 -0.12591703 2.8952646
0.6283769 -0.12979491 2.8970716
0.66857445 -0.12657905 2.8983755
0.88237453 -0.13448654 2.8812551
0.90043187 -0.1137516 2.8913815
0.1760523 -0.075889014 2.8897216
0.22434682 -0.075868517 2.8868439
0.27304009 -0.075972185 2.8882136
0.32198277 -0.076105528 2.8900611
0.37143105 -0.076302558 2.8939316
0.42826176 -0.086275384 2.8975883
0.4811174 -0.075914711 2.8986702
0.52734858 -0.07675568 2.8960817
0.57856882 -0.07750982 2.8951232
0.61211985 -0.086855531 2.8964679
0.91851014 -0.084983587 2.8772933
0.97487587 -0.07126601 2.8861296
1.0248413 -0.068159275 2.8963346
1.0883313 -0.072137825 2.8978531
1.1026374 -0.072123684 2.8936839
0.17615686 -0.027581466 2.8917637
0.22438258 -0.027566209 2.8878937
0.27309313 -0.02760154 2.8893392
0.32491741 -0.026274759 2.8919113
0.37326229 -0.028961344 2.8938057
0.40719208 -0.027783183 2.8990755
0.47773966 -0.027832555 2.8978779
0.52488756 -0.032512281 2.8961861
0.57789773 -0.041950133 2.8987768
0.62134403 -0.02800113 2.8998468
0.18293279 0.020742172 2.8892167
0.2245025 0.020761574 2.8894117
0.27329123 0.020794353 2.8913972
0.3241947 0.019228742 2.8912179
0.37299156 0.022273488 2.8956931
0.4236809 0.020938652 2.8991134
0.47789231 0.0070386692 2.8988619
0.51108336 0.025675828 2.8987675
0.18313517 0.076028042 2.8918102
0.22458397 0.076033391 2.8898566
0.27320123 0.076110542 2.8898301
0.32225758 0.076268435 2.8924549
0.36793721 0.076995008 2.8960977
0.43552515 0.069732331 2.89922
0.1849637 0.12273996 2.8921502
0.2202843 0.11996389 2.8931429
0.27338862 0.1107572 2.8910525
0.32260966 0.1110296 2.8948374
0.37179357 0.11122497 2.8960185
0.52089602 0.11192533 2.8991029
0.19045499 0.15236202 2.8958797
1.5473151 0.17434993 2.8982353
1.5769473 0.18438834 2.8846452
1.7086014 0.16783373 2.8520405
-0.59027624 0.20966461 2.884521
1.589766 0.22367387 2.8807294
1.6199931 0.32814443 2.8858371
1.6189556 0.35081735 2.8819869
1.6586077 0.52619845 2.8992283
1.6581455 0.56471956 2.8929291
2.2313392 0.87157834 2.8509412
-0.46764421 0.93548942 2.8845165
-0.42876413 0.93996423 2.8746271
2.2334766 0.92764872 2.880281
-0.50190175 0.99687117 2.8865287
-0.47168928 0.97139412 2.8655481
-0.41520795 0.9513644 2.8522327
-0.36949101 0.97503406 2.8700004
-0.33475438 0.99381763 2.8942008
2.2274716 0.98268962 2.8727677
-0.50193536 1.0186158 2.8814678
-0.46966144 1.0225385 2.8612278
-0.43929473 1.0289108 2.85112
-0.36770311 1.0304729 2.8562291
-0.32786989 1.0198973 2.8744905
2.2228346 1.023522 2.8800354
-0.5064041 1.0787022 2.8942497
-0.41996717 1.0699574 2.8584263
-0.37709838 1.0635445 2.8665676
-0.33530948 1.0604115 2.8830993
2.2313378 1.0786192 2.8753357
2.2313571 1.1246984 2.8675992
2.2270408 1.1774509 2.8723426
2.2338645 1.2280852 2.8865931
1.7736042 1.2950057 2.8856008
2.2393534 1.2744303 2.8777604
2.2502306 1.2794118 2.8547082
2.240979 1.3238224 2.8799946
2.247448 1.3766332 2.8878155
2.2370327 1.4425676 2.8829124
1.2243152 1.6704742 2.875252
1.2596273 1.6747403 2.871474
1.2274725 1.7109885 2.8656831
1.2517967 1.7344663 2.8732412
1.2343262 1.7767487 2.8817101
1.2584505 1.7681518 2.8765464
1.2366003 1.8221494 2.8751471
1.2665963 1.8285431 2.8889115
1.24461 1.8696339 2.8941994
2.4330237 2.1880789 2.8659091
2.4392021 2.2218649 2.8788261
2.4411261 2.2813165 2.8751843
2.4509192 2.2521372 2.8795238
2.4374313 2.3166833 2.8608024
2.171669 2.389977 2.8800435
2.4315257 2.3789694 2.8825154
0.96248221 2.4049473 2.8920269
1.0198802 2.4171519 2.8912838
1.0736836 2.4199994 2.8783095
1.1211398 2.4191077 2.8797359
1.1691782 2.42325 2.8779345
1.228925 2.4181507 2.8735399
1.2783638 2.4201996 2.8707767
1.3271759 2.4157655 2.8547249
1.3670721 2.4215353 2.8849049
1.4167087 2.420773 2.8824449
1.4744056 2.4180131 2.8727341
1.5263979 2.4153523 2.8751016
1.5754009 2.4151299 2.875232
1.6280129 2.4254692 2.8678401
1.6735699 2.4202046 2.8784404
1.7197603 2.417299 2.8753035
1.7718965 2.4162939 2.8673043
1.8274943 2.4169383 2.8767619
1.868547 2.4179018 2.8816516
1.9190609 2.4160433 2.8762228
1.9722675 2.4136176 2.8815351
2.1815822 2.4096353 2.8601549
2.2226708 2.4134829 2.8723152
2.2718894 2.4147716 2.8577099
2.3350303 2.4204602 2.8748584
2.3829861 2.4194386 2.8733921
2.4110537 2.4080143 2.8748946
-0.15174444 -0.55066121 2.9242439
0.045802314 -0.55585384 2.9160035
0.060140964 -0.55125487 2.9295793
-0.30881023 -0.52535754 2.9360511
-0.27969581 -0.52402461 2.9304662
-0.16857029 -0.53620011 2.9235713
-0.12342791 -0.54318905 2.923872
-0.077101469 -0.54268736 2.9277759
-0.027398959 -0.54311627 2.9173665
0.021755649 -0.54246444 2.9271905
0.078398719 -0.53772473 2.9345391
0.12371556 -0.52296042 2.9315343
-0.32213891 -0.49561605 2.9303498
0.14525642 -0.49572295 2.9402113
0.8341552 -0.42944229 2.9032443
0.76678246 -0.36487591 2.9002964
0.8245554 -0.35679877 2.9025307
0.8772915 -0.37223768 2.9005778
0.69687182 -0.31116506 2.9007666
0.73645574 -0.31667352 2.9014838
0.76967764 -0.32870162 2.9023468
0.82224196 -0.33074984 2.9016795
0.46509531 -0.25168091 2.9006281
0.69114041 -0.2589111 2.9005938
0.72663021 -0.27491978 2.9043443
0.76517087 -0.27859828 2.902808
0.59378588 -0.21070975 2.9014444
0.63715339 -0.21814343 2.9006915
0.66347963 -0.21987224 2.9011159
0.73497367 -0.22951201 2.9049232
0.773238 -0.22383791 2.9028599
0.8200509 -0.21823023 2.9045351
0.63688642 -0.18287404 2.9010537
0.67137778 -0.17550434 2.9016004
0.72604179 -0.1747347 2.9017141
0.77538115 -0.17865174 2.9030108
0.82349622 -0.17068255 2.9046111
0.85808444 -0.1565299 2.9000118
0.15595585 -0.11774676 2.9005604
0.4428916 -0.11849144 2.9002085
0.45001259 -0.12550743 2.9002898
0.62178612 -0.12168192 2.9003131
0.68274075 -0.12446312 2.9017398
0.72484046 -0.12717797 2.9038734
0.77547365 -0.12895581 2.9071281
0.82698423 -0.12666166 2.9078078
0.86963409 -0.12620583 2.9035242
0.42876554 -0.060354386 2.9014692
0.46883178 -0.079037398 2.9007242
0.5638904 -0.069968723 2.900321
0.62906599 -0.070312001 2.9063079
0.67439938 -0.077570245 2.9088295
0.72538179 -0.077744186 2.9071836
0.77446687 -0.07597436 2.9089046
0.82549858 -0.080240011 2.9081724
0.87487841 -0.078427427 2.9076526
0.9140566 -0.066589065 2.9034154
0.97401106 -0.057357505 2.9068055
1.0276753 -0.057532232 2.9044538
1.070997 -0.06345959 2.90242
1.1269306 -0.063836277 2.907064
1.5435034 -0.091144346 2.928546
1.5612822 -0.076017477 2.9277394
1.8970644 -0.0711063 2.9318759
0.43199357 -0.025851781 2.9031165
0.45008034 -0.034825645 2.902303
0.53570944 -0.013935446 2.9033759
0.57854265 -0.020961121 2.9021547
0.62255549 -0.02805993 2.9053373
0.67522997 -0.028189776 2.9130611
0.72559786 -0.028217802 2.9086459
0.76982009 -0.028272443 2.9079542
0.8233816 -0.028398603 2.912612
0.87575114 -0.028470695 2.9111385
0.92033696 -0.028514892 2.9075787
0.97425026 -0.028613575 2.9077699
1.0298198 -0.028749086 2.9108307
1.0762609 -0.028818339 2.9084284
1.1258366 -0.028961547 2.9128516
0.15598118 0.020834863 2.9024239
0.43155599 0.02097241 2.9015012
0.47846055 0.034982968 2.9021378
0.53091943 0.01639956 2.90324
0.5717358 0.021122104 2.9040167
0.62313122 0.02121585 2.9080861
0.67411119 0.021254256 2.9081304
0.72576445 0.02133665 2.9093173
0.77764219 0.021406373 2.9093766
0.82998735 0.021482356 2.9094703
0.8754968 0.021564282 2.9102709
0.92286181 0.022179417 2.9081259
0.97538722 0.021226697 2.9065635
1.0274796 0.021774417 2.9042127
1.075559 0.021891838 2.9064987
1.1268413 0.022065638 2.9154415
1.5808803 0.023322027 2.9303706
0.15607589 0.076329142 2.9035492
0.38898721 0.074356534 2.902766
0.42043886 0.07735724 2.9012823
0.47171557 0.076922841 2.903734
0.52542353 0.077048972 2.9022527
0.57614422 0.077439494 2.9099774
0.62449539 0.077706598 2.9138057
0.67464435 0.077795386 2.909817
0.72620684 0.078037508 2.9103715
0.77478445 0.076210119 2.9099884
0.82576013 0.079033017 2.9101355
0.87539369 0.071576945 2.9093561
0.92235959 0.071922541 2.9134188
0.97476578 0.072081618 2.9087412
1.0286561 0.072342642 2.9069557
1.0772166 0.072718099 2.9104176
1.127739 0.073181681 2.9171669
1.9036267 0.072315425 2.941865
0.16197795 0.12586828 2.9255283
0.23353715 0.13248399 2.9139051
0.27857187 0.12696402 2.9456062
0.3139351 0.12700947 2.9443274
0.427008 0.11787038 2.9169667
0.47522032 0.12500815 2.9122605
0.51752925 0.11688793 2.9068117
0.57444459 0.11283073 2.9162519
0.62528515 0.11311608 2.9167624
0.67704171 0.11350433 2.9192376
0.72916001 0.11390645 2.9214325
0.77493572 0.11437109 2.9258156
0.82180798 0.11087135 2.9190483
0.87206537 0.10779373 2.9228985
0.92538452 0.10706849 2.931982
0.97698975 0.10764141 2.9246552
1.0293474 0.10128114 2.9083302
1.0799732 0.10197914 2.917238
1.1308188 0.10264637 2.9245574
1.60832 0.11605772 2.9448566
-0.66933209 0.18623126 2.9481087
-0.57516122 0.19768482 2.9174004
-0.5257082 0.19294132 2.9236972
-0.47266084 0.19166037 2.9245374
0.19031613 0.17284703 2.9290116
0.21007666 0.17165035 2.9268808
0.50112993 0.15642899 2.9492714
1.5373969 0.18681157 2.9221268
1.5692911 0.19887188 2.9209461
1.6077362 0.16998297 2.9418333
-0.5649085 0.21622598 2.9136779
-0.5268665 0.2228414 2.9285419
-0.47189093 0.2166899 2.9183176
1.4803412 0.21992403 2.9236927
1.5326451 0.23983739 2.9363844
1.5742179 0.24427907 2.9104068
1.6219265 0.2623257 2.9283171
1.6316445 0.32445839 2.9242115
1.6394644 0.37843937 2.9163125
1.6678567 0.46914881 2.9402542
1.6721617 0.52002144 2.9242852
1.673663 0.63243157 2.9102807
1.6825352 0.67503101 2.919029
1.6983228 0.7130146 2.9407523
-0.50407964 0.94315469 2.9124491
-0.48691216 0.92359716 2.9014938
-0.43043426 0.94072628 2.9129202
2.2327511 0.93314177 2.9173114
-0.40380287 0.96069068 2.9292684
-0.375972 0.97856623 2.93859
-0.34618038 0.99149323 2.9327269
2.2270436 0.97540712 2.9210532
-0.54128551 1.0092152 2.9417062
-0.30667955 1.0211326 2.9121108
2.2212093 1.0069768 2.9037478
-0.52202809 1.0662702 2.9020469
-0.32439411 1.0792112 2.9135122
1.7496809 1.0673249 2.9147885
1.7542241 1.0701165 2.9223077
2.2322402 1.0634151 2.9028165
-0.32859254 1.1153865 2.9458096
1.7591672 1.1381404 2.9111767
2.2297671 1.1222277 2.9167354
1.7631055 1.1732785 2.9073937
2.232017 1.1751832 2.9024792
1.7674781 1.2088557 2.9039707
2.232775 1.2195362 2.9252155
1.7918414 1.2917607 2.921216
2.2316387 1.2624824 2.9080591
2.237076 1.3370441 2.9261737
1.8064829 1.398708 2.9496722
2.2352278 1.371097 2.9098098
1.8102732 1.4354192 2.9426484
2.2272668 1.4476269 2.9047172
2.2530036 1.4263003 2.9147696
1.8097148 1.4603008 2.9315326
2.2638004 1.5072601 2.9367688
1.2360414 1.6485524 2.9198389
1.2145519 1.6700505 2.9268522
1.2761413 1.6640148 2.9240787
1.1990883 1.7111785 2.9436548
1.2115685 1.7335091 2.9160378
1.1936631 1.7848643 2.94906
1.2098753 1.778038 2.9232266
1.1972754 1.8151534 2.9458723
1.2187443 1.8291811 2.9143665
1.2279639 1.8737907 2.9263818
1.2667257 1.8779097 2.9011567
2.4414036 2.2417355 2.9189086
2.4421282 2.267689 2.9362233
2.4477482 2.3254278 2.9242408
1.7331092 2.3988423 2.924777
1.9815278 2.3964198 2.9158423
2.2021954 2.3934479 2.9153376
2.4339466 2.3709171 2.9356661
0.82687837 2.4157922 2.9414747
0.88153148 2.4217761 2.9358251
0.92968887 2.4195139 2.9320707
0.97411692 2.4142885 2.9187393
1.0279015 2.418498 2.9265678
1.074181 2.4145691 2.9252026
1.1210426 2.4114349 2.9241734
1.1746876 2.412607 2.922502
1.225158 2.4185791 2.9229252
1.2784053 2.4188075 2.9256868
1.3230315 2.4219661 2.9264073
1.3782325 2.4231691 2.9215114
1.427264 2.4147148 2.9380567
1.4740379 2.412714 2.9209533
1.5265268 2.421546 2.9348345
1.5834928 2.4185398 2.9174993
1.6234614 2.4092216 2.928318
1.6720828 2.4098217 2.9304969
1.7168097 2.4076076 2.9042554
1.7710903 2.421962 2.9200292
1.8228964 2.4115436 2.9300323
1.8844837 2.4092145 2.9179592
1.9230967 2.4017611 2.9134302
1.9640433 2.4077568 2.922492
2.2420766 2.4154932 2.9291799
2.2767959 2.421165 2.916225
2.3195722 2.4202693 2.9234648
2.373662 2.4202394 2.9246688
2.4140768 2.4109154 2.9306138
-0.31143254 -0.50834006 2.9634459
-0.2840279 -0.51054043 2.9783134
-0.17100209 -0.51897109 2.9762983
-0.12490296 -0.52833658 2.9616406
-0.070565633 -0.52672964 2.9813089
-0.025007397 -0.5293842 2.9692998
0.02983137 -0.52378309 2.9650755
0.073455766 -0.51304477 2.9829516
0.11123647 -0.50918639 2.9778178
-0.335547 -0.48349786 2.9885583
-0.28064668 -0.4866569 2.9966345
0.14271981 -0.47782883 2.9635153
0.14730652 -0.42370653 2.9896493
0.14724086 -0.37328091 2.9926662
0.14618728 -0.12113755 2.9844947
0.14574894 -0.07813406 2.9764211
1.3274051 -0.084990479 2.9576213
1.528698 -0.068951204 2.9709234
1.5754974 -0.061302103 2.9546447
0.14566797 -0.02837415 2.9753253
1.1898379 -0.014817371 2.9928174
1.5206695 -0.030630933 2.9915192
1.5926523 -0.04639427 2.9870098
1.9690108 -0.031967912 2.9771309
0.14553739 0.021327019 2.9726522
1.1923541 0.0001960285 2.9991612
1.5043777 0.0002972784 2.9956195
1.6003776 0.046836372 2.9662991
0.14537793 0.07801953 2.9687448
1.6131209 0.062832527 2.9896965
0.24499613 0.1420365 2.9675505
0.33672482 0.12762728 2.9570813
0.37217984 0.12763767 2.9544785
0.42227149 0.13326892 2.9695749
0.46181312 0.1432413 2.9757359
0.53544134 0.13421856 2.9795191
0.58316171 0.13045864 2.9980154
0.66564834 0.13102183 2.999702
0.926525 0.11639607 2.9501145
1.0318021 0.11765029 2.9598732
1.0747812 0.11834984 2.9682894
1.116999 0.1189222 2.9729984
1.1689057 0.11468456 2.9800808
1.6244984 0.14058931 2.973727
-0.67106473 0.18670817 2.9556301
-0.62955219 0.18717439 2.9694026
-0.55837065 0.18741998 2.9829586
-0.50963926 0.18541484 2.9561858
-0.49524745 0.18536298 2.9569764
0.17383663 0.15608518 2.967525
0.23220725 0.15718985 2.9859498
0.4812139 0.15689085 2.960351
0.52203608 0.15846176 2.9859362
1.4864736 0.18561532 2.9919724
1.5407348 0.18474026 2.9549108
1.5598521 0.17147261 2.9922621
1.6375968 0.15743144 2.9971182
1.7434095 0.15852916 2.9775698
1.7746769 0.15851314 2.9629631
1.8301156 0.15992476 2.9707851
1.8612807 0.16056472 2.971179
-0.62914383 0.20143859 2.9668865
-0.51755559 0.22854325 2.9579473
-0.49609035 0.22851357 2.960012
1.4900819 0.20154755 2.9985056
1.5234646 0.22520709 2.9906168
1.6411061 0.28882915 2.9613082
1.7749616 0.2875987 2.9899824
1.8183339 0.28944084 2.9944973
1.64586 0.33039075 2.9842539
1.6557633 0.33072886 2.9847174
1.5783978 0.38416514 2.9953742
1.631826 0.37192339 2.9935005
1.6562313 0.37806019 2.981364
1.8395822 0.371602 2.9971642
1.8578417 0.37122306 2.9846959
-0.40125206 0.44839114 2.9918706
1.5543886 0.43101224 2.9986753
1.6455288 0.41866416 2.9930425
1.6651096 0.42260429 2.9842973
1.4475223 0.49702594 2.9980481
1.5391518 0.48595941 2.9992428
1.59482 0.48863763 2.9976001
1.6700312 0.47603416 2.9726193
1.8708799 0.47936028 2.9941216
-0.35728338 0.51985466 2.9828539
1.6368555 0.53938311 2.9983897
1.6725267 0.52234375 2.9772084
1.8823962 0.52088225 2.9903936
1.6844219 0.57010156 2.9887147
1.8872583 0.56740886 2.9883466
1.6994566 0.60821283 2.9961472
1.8733094 0.60451818 2.9979005
1.9036129 0.60638982 2.9952366
1.7048333 0.65828162 2.997963
1.7056104 0.73198074 2.9504056
1.7221824 0.77127653 2.9728277
1.7300302 0.82311916 2.9764812
-0.51327085 0.93080181 2.9720185
-0.48317122 0.93458325 2.970747
2.2713151 0.94246668 2.993259
-0.54330385 0.98338878 2.9595826
-0.30802259 1.0246247 2.9867115
-0.29195663 1.0351529 2.971806
2.2577896 1.0401859 2.9829049
-0.30736613 1.0891222 2.9640317
-0.29434383 1.0734876 2.9888072
1.7718126 1.0578401 2.9961712
2.2484021 1.0880817 2.9548745
2.2505629 1.0630013 2.965661
1.7900745 1.1689242 2.9978459
2.2639525 1.18358 2.9842179
1.7941432 1.2134318 2.9914761
1.8015908 1.2436643 2.9956913
2.2561753 1.2952368 2.9713178
1.8055257 1.3305911 2.9731529
2.2532406 1.3201278 2.9575033
1.7991012 1.3594254 2.9503219
1.8041604 1.3800789 2.9523017
1.8179721 1.4245638 2.9618523
2.2636995 1.4264264 2.9710026
2.2659385 1.4548012 2.9627638
2.2635634 1.5372008 2.9637775
1.1866763 1.6791055 2.9756818
1.213814 1.6613026 2.9695342
1.2851809 1.6617141 2.9775207
1.3164973 1.6700497 2.9838371
1.1860759 1.7219797 2.9687815
1.1886907 1.7718579 2.9782193
1.1903239 1.8215818 2.9792821
1.1884074 1.8566961 2.9858427
1.2070091 1.8633435 2.9531391
1.2385533 1.9113163 2.970331
1.9227976 2.0289409 2.9717696
2.4387708 2.2858863 2.9853954
1.9889988 2.3194799 2.9870887
2.4335947 2.3304496 2.9714589
-0.61976165 2.3933096 2.9550591
-0.58631831 2.3983345 2.967164
1.1852728 2.398355 2.9588284
1.778985 2.3984313 2.9873881
1.9193627 2.3945923 2.9950058
1.9962912 2.3950963 2.9513104
2.0072241 2.3793082 2.9878488
2.3232706 2.399914 2.9987445
2.4241502 2.3807261 2.9797888
-0.62325633 2.4067168 2.9715641
-0.56149185 2.4036541 2.9779329
-0.51964992 2.4114187 2.9940877
-0.43046924 2.4011559 2.9928238
0.52776992 2.4083796 2.9891651
0.58026606 2.4091434 2.9820166
0.62650156 2.4191527 2.9870467
0.67363346 2.411433 2.9823089
0.72485447 2.4169617 2.982872
0.77680159 2.4146063 2.968811
0.83137363 2.4113615 2.9696434
0.8739475 2.4114633 2.9807405
0.92091656 2.4141011 2.9723048
0.97387105 2.4155498 2.9742959
1.02196 2.4095166 2.9742389
1.075928 2.4117041 2.9756718
1.1294769 2.4121976 2.9742744
1.1612985 2.4042914 2.9752309
1.2242326 2.4133816 2.9726923
1.2733734 2.4163442 2.9815373
1.3269808 2.4097581 2.9771352
1.3749669 2.4138656 2.9721358
1.426065 2.4108937 2.9760692
1.4808567 2.406306 2.9829569
1.5280685 2.4109488 2.9795098
1.5737257 2.4140034 2.9675629
1.6378708 2.4090281 2.9883809
1.6801273 2.4053643 2.9763439
1.720118 2.4103198 2.9713554
1.7751595 2.4045529 2.9729016
1.8318782 2.4059668 2.9716063
1.8723192 2.4052262 2.975224
1.927833 2.4019811 2.9721193
1.9744295 2.4136679 2.9806004
2.2726796 2.4080236 2.9707744
2.3263187 2.4127474 2.9690566
2.3688467 2.410656 2.9749768
2.40696 2.403738 2.9747095
-0.17138176 -0.51054215 3.027324
-0.12707692 -0.51575524 3.0158508
-0.086637467 -0.51587623 3.0262933
-0.022556838 -0.51579064 3.026545
0.020649543 -0.51359493 3.019336
-0.30841815 -0.48624659 3.0074654
-0.2183287 -0.48557296 3.039305
-0.17239855 -0.49899161 3.0474529
-0.14311212 -0.499212 3.0498061
-0.084298775 -0.4987722 3.048548
-0.025598392 -0.49826595 3.046129
0.025590383 -0.4965516 3.0356369
0.076409601 -0.49443802 3.022172
0.12422939 -0.49271685 3.0334218
-0.33186945 -0.16044265 3.044055
1.1950631 -0.067658067 3.0054917
1.2288591 -0.068269461 3.026701
1.272606 -0.068566553 3.0293319
1.3245023 -0.06886135 3.0294094
1.3717257 -0.065240964 3.0272799
1.4286398 -0.069403417 3.0252984
1.4747682 -0.069752336 3.0273581
1.5177374 -0.06992697 3.0216472
1.5808612 -0.070271395 3.0177047
1.7282064 -0.073180109 3.0294213
1.7731644 -0.070225492 3.0242066
1.8220816 -0.077044867 3.0243278
1.8689886 -0.078689359 3.0238791
1.9059073 -0.081071354 3.0226536
1.1962633 -0.037534043 3.0088532
1.2310765 -0.0302781 3.0325596
1.274346 -0.030384716 3.0338752
1.3260617 -0.030518191 3.0333705
1.3789465 -0.030644532 3.0338094
1.4286392 -0.030749297 3.0304804
1.4736282 -0.030889837 3.0334363
1.5121882 -0.03308434 3.0162702
1.5775003 -0.029149646 3.0251696
1.6055832 -0.023214307 3.0114331
1.7297859 -0.034891266 3.0396285
1.7717704 -0.031736594 3.0291445
1.8221356 -0.031893406 3.0283601
1.8713698 -0.032017455 3.0241153
1.911322 -0.032100912 3.0206444
1.1953623 0.030360339 3.0065823
1.2308556 0.023072712 3.0320065
1.2743895 0.023180684 3.0339649
1.3252401 0.023291936 3.031492
1.3792573 0.023430653 3.0344763
1.4255834 0.020941481 3.0319536
1.4769974 0.025189435 3.0285819
1.5275317 0.027077788 3.0205176
1.5773846 0.023934742 3.0294132
1.6117803 0.023996715 3.0229836
1.7392625 0.024491651 3.0423071
1.772858 0.024526348 3.0309858
1.8217793 0.024663327 3.0277553
1.8720673 0.024815196 3.025223
1.9074345 0.024861358 3.0144801
-0.54221272 0.087419182 3.019165
-0.47659579 0.072835043 3.0259058
-0.42931035 0.057788663 3.0050631
1.1948773 0.07558348 3.0047779
1.2306951 0.076399922 3.0309794
1.273862 0.07671424 3.0320718
1.3258986 0.077094167 3.0323355
1.3792735 0.077523485 3.0338626
1.4266291 0.080050372 3.0316217
1.4750921 0.076598376 3.0227256
1.5306081 0.078600407 3.0285709
1.5789074 0.07907322 3.031652
1.6179469 0.082301006 3.0195184
1.7387904 0.080702431 3.0407333
1.7732967 0.080822825 3.0309896
1.8241529 0.08131969 3.0309212
1.8731589 0.081715219 3.026202
1.9101154 0.081936508 3.0179186
-0.72823805 0.1184004 3.0415945
-0.62840885 0.10299223 3.038286
-0.44875079 0.13142152 3.0360475
0.1477143 0.11528116 3.0157077
0.16154237 0.14357963 3.00368
0.2660667 0.14580283 3.045418
0.42606869 0.1457262 3.0316629
0.54629421 0.14671135 3.039603
0.58464098 0.13896768 3.0247395
0.63156295 0.13517973 3.0156569
0.68222427 0.14392775 3.0397875
0.72544742 0.14005415 3.0287209
0.77185529 0.14045484 3.0302141
0.81882113 0.14092219 3.0322762
0.87158567 0.14050953 3.0374322
0.92127448 0.14187276 3.0339572
0.97519392 0.13464241 3.0283995
1.0242697 0.1352099 3.0308487
1.0723885 0.13561796 3.0291154
1.1197253 0.13589318 3.0237844
1.170756 0.13658063 3.0269659
1.224424 0.12397648 3.0300217
1.2741364 0.12266061 3.0316265
1.3263736 0.1232551 3.0323324
1.3782065 0.12378115 3.0303946
1.4259123 0.12208205 3.029072
1.4756588 0.12611522 3.022624
1.532497 0.12570679 3.0311286
1.5788225 0.12630416 3.0303049
1.6229987 0.12671226 3.024194
1.7420878 0.12914756 3.045229
1.774384 0.12916192 3.0315592
1.82241 0.12972936 3.0267284
1.8728561 0.13045262 3.0243649
1.9084501 0.13067171 3.013938
-0.60644883 0.1889347 3.0013828
-0.58671898 0.18959701 3.0148053
-0.45988411 0.17390178 3.0104671
0.17701714 0.18059492 3.0210092
0.23613369 0.18163261 3.0356243
0.25183323 0.16059609 3.0498793
0.4349882 0.16087732 3.0415299
0.47070187 0.16937217 3.0322835
0.521106 0.17496458 3.0225601
0.58531928 0.1620355 3.0469363
0.6383909 0.16243368 3.0474608
0.66139972 0.1626493 3.048316
0.72208881 0.16301559 3.0461023
0.77967447 0.16955857 3.0477464
0.81929594 0.16768283 3.0475762
0.86639333 0.1681551 3.0477753
0.92724055 0.1744706 3.0452662
0.97801566 0.17466386 3.0434494
1.0274632 0.17328791 3.0390301
1.0750937 0.17369391 3.0353525
1.1246562 0.17438239 3.0357068
1.1736845 0.17491968 3.0331662
1.2244639 0.17568003 3.0335596
1.2752653 0.17638181 3.0324333
1.3267509 0.16943884 3.0315814
1.3789521 0.17020816 3.0304327
1.4314917 0.17095578 3.0282831
1.4805615 0.16955948 3.0222614
1.5328025 0.17278548 3.0300648
1.5679539 0.16673753 3.0223746
1.6147096 0.15748644 3.0076709
1.7386725 0.16100302 3.0381203
0.20800838 0.2043433 3.0497217
0.82442778 0.23884772 3.0489683
0.88728416 0.23223236 3.0490196
0.92396069 0.22516721 3.0480685
0.97624069 0.22717871 3.0460427
1.029986 0.22652234 3.0441134
1.0776143 0.22703235 3.0400653
1.1272087 0.22789751 3.0401824
1.1752353 0.22838743 3.0347037
1.2254524 0.22925727 3.0335228
1.2761919 0.23015854 3.0320826
1.3276101 0.22342122 3.0310631
1.3789252 0.224268 3.0278184
1.429266 0.22302872 3.0245821
1.4756641 0.23073182 3.0181055
1.5323433 0.21344239 3.0089223
0.92461044 0.26537305 3.0480309
0.97122383 0.26551425 3.047648
1.0240906 0.27222669 3.0482047
1.080197 0.27305734 3.0447695
1.1285365 0.27375576 3.0411232
1.177253 0.27449879 3.0372746
1.226747 0.27535999 3.0340533
1.2779031 0.27652836 3.0334375
1.3285767 0.27750725 3.0301235
1.3783091 0.27668181 3.0282488
1.4216455 0.28204328 3.0286777
1.4693081 0.28089836 3.0258052
1.5228992 0.27624705 3.019773
1.5757966 0.28327224 3.016645
1.6281704 0.27631137 3.0086079
1.7597556 0.28902 3.01544
1.8050678 0.28987998 3.0064225
-0.46519849 0.322458 3.0372753
0.88870794 0.31509754 3.048877
0.9054504 0.34576559 3.0495601
0.95328879 0.34677812 3.049078
1.0304905 0.32556638 3.0474644
1.0809646 0.32633266 3.0432756
1.1291178 0.32710361 3.0390298
1.1788262 0.32064426 3.0381823
1.2304777 0.32220942 3.0400684
1.2811636 0.32339114 3.0379601
1.3309484 0.32428178 3.0322485
1.3752813 0.32565892 3.0328252
1.4175879 0.32649475 3.0277562
1.4714364 0.32812491 3.0267673
1.5248899 0.32957223 3.0232198
1.5761625 0.33089375 3.0183358
1.6219186 0.32533133 3.0171008
1.6508913 0.31706774 3.0121491
1.7750617 0.32240745 3.021863
1.8287531 0.32339907 3.0090468
1.8812954 0.31739882 3.0104415
-0.59855938 0.39672562 3.0236392
-0.53446221 0.36135095 3.0462489
-0.43415934 0.39415833 3.0223348
0.091182396 0.38640779 3.0389662
0.12488178 0.37672043 3.0431657
0.17886932 0.37958637 3.0407486
0.22261232 0.37947714 3.0380218
0.27410236 0.38005683 3.0398443
0.32566077 0.38052824 3.0403123
0.37750363 0.38117874 3.0415838
0.42900777 0.38136661 3.0385294
0.47414255 0.38228989 3.0415239
0.52642149 0.38290206 3.0408018
0.57843995 0.38322008 3.0370965
0.62537277 0.37870261 3.0383298
0.67507762 0.37568033 3.0353982
0.73046267 0.37085435 3.0366275
0.77620417 0.37146717 3.0341678
0.8217333 0.3719193 3.0298393
0.87393153 0.37420455 3.0277674
0.9287836 0.37282825 3.0295181
0.97874916 0.37513039 3.0255861
1.0254844 0.37577739 3.0205157
1.0737872 0.37692711 3.0188563
1.123569 0.37848198 3.0198171
1.1733948 0.37230501 3.0199022
1.2214578 0.37309155 3.0135067
1.2724196 0.37466487 3.0128469
1.3235189 0.37619019 3.0108585
1.376937 0.37051165 3.013124
1.4277823 0.37173471 3.0073845
1.4763634 0.37340546 3.0062544
1.5200324 0.37494662 3.005022
1.5658131 0.37041312 3.0049291
1.6198087 0.38658345 3.0018535
1.7750227 0.3764793 3.0101707
1.8154968 0.37110758 3.0033541
-0.60216683 0.41389653 3.0405414
-0.41704172 0.42080608 3.002914
0.085605517 0.42121428 3.0453913
0.13174388 0.42437088 3.0456831
0.17506158 0.42768797 3.0467179
0.22534485 0.42315805 3.0466235
0.27224988 0.42410788 3.0483072
0.3266587 0.42575273 3.0458982
0.37395266 0.42465371 3.0451417
0.42460927 0.4276242 3.0416977
0.47457907 0.4267776 3.0404818
0.5272947 0.42776787 3.0418427
0.57983184 0.42846751 3.0405123
0.624439 0.42866632 3.0360956
0.67249835 0.42915875 3.0327942
0.72465271 0.42236188 3.0335395
0.77666634 0.42372581 3.0313032
0.82319504 0.42474434 3.0305636
0.87161893 0.42373306 3.0268135
0.92630875 0.42715222 3.0284579
0.97990119 0.42062408 3.0250461
1.0272481 0.42158794 3.0215898
1.0752212 0.42271215 3.0187492
1.1241809 0.42410886 3.0172389
1.1735398 0.42556056 3.0153835
1.2238377 0.42722642 3.0144055
1.2735739 0.42857662 3.01052
1.3251436 0.43043053 3.0094478
1.3779345 0.42483854 3.0101802
1.4270822 0.42067674 3.0097501
1.4725519 0.42308792 3.0097489
1.5197109 0.42223457 3.0044279
1.5822779 0.42302319 3.0067177
1.6235466 0.42698488 3.0048096
1.6508585 0.44376278 3.000206
-0.39377484 0.48593539 3.0441508
0.085321426 0.47293797 3.0451665
0.11745474 0.49527732 3.0477922
0.16881743 0.47697693 3.0482643
0.22771364 0.48474181 3.0478005
0.27547792 0.47011182 3.0470479
0.32940739 0.47072119 3.0475252
0.37141418 0.47069862 3.044184
0.42315853 0.4710128 3.0417655
0.47529137 0.47161919 3.0406456
0.52337402 0.47099862 3.0411077
0.57493955 0.47452271 3.0391302
0.62584984 0.47408518 3.0384953
0.67127031 0.47478729 3.0366471
0.7252261 0.47613263 3.0371683
0.77799296 0.47656906 3.0312963
0.82449669 0.47764614 3.0301011
0.87141746 0.47883379 3.0290813
0.92245954 0.47582796 3.0265055
0.97698843 0.47601995 3.0246606
1.0293452 0.47525057 3.0223284
1.0790184 0.46964088 3.0247378
1.1269088 0.47068086 3.0198793
1.1779671 0.47290632 3.0219789
1.2272201 0.47428164 3.0179014
1.277555 0.4759565 3.0150506
1.3272158 0.4772723 3.0091915
1.3789049 0.4779526 3.0115666
1.4249098 0.47970173 3.007313
1.4714572 0.46985006 3.0090189
1.5206009 0.46803945 3.0059209
1.5756985 0.47048101 3.0037796
1.6275584 0.47556973 3.0069439
1.6538302 0.47630191 3.0019672
1.7832443 0.48566502 3.0194983
1.8183861 0.47832787 3.0104926
1.8557649 0.47963548 3.0036085
0.091754735 0.52822274 3.0442569
0.10658737 0.5290252 3.0485697
0.19477695 0.51440829 3.0478947
0.22009686 0.53152227 3.0466473
0.2853139 0.52273917 3.0480158
0.32821476 0.54207957 3.0483971
0.37224892 0.50492781 3.0475321
0.4346652 0.52399212 3.0436425
0.47659466 0.52465689 3.0433283
0.52130491 0.52504534 3.040761
0.57297987 0.52484208 3.0422845
0.62761503 0.51997429 3.0422182
0.67291081 0.52055323 3.0391681
0.72453481 0.52036065 3.0383034
0.77632594 0.52361745 3.031776
0.82630599 0.52355283 3.0316589
0.87383842 0.525172 3.0324309
0.92065936 0.52622682 3.0293441
0.96800274 0.52746779 3.0267961
1.0227753 0.52821928 3.027633
1.0778248 0.52494472 3.0222356
1.129372 0.52495235 3.0203292
1.1766704 0.52180743 3.0173452
1.2283869 0.52065003 3.0154204
1.2790239 0.5225904 3.0130837
1.3293166 0.52503312 3.0134349
1.3719152 0.52711368 3.0134311
1.4208951 0.52971768 3.0141346
1.4750726 0.52874041 3.0098736
1.5264194 0.52196044 3.0101714
1.5726827 0.52064055 3.0056283
1.6194046 0.52164853 3.0085015
1.6572638 0.52499038 3.0022752
1.789607 0.51466203 3.0180328
1.8224442 0.5214389 3.0075226
1.8641826 0.52555406 3.0029356
-0.34795144 0.55690593 3.0249264
0.092064634 0.57417345 3.0492611
0.12148923 0.56668824 3.0488443
0.16586286 0.58958465 3.0489681
0.23192388 0.55947906 3.0463815
0.28760666 0.56410456 3.0478776
0.31859359 0.56581783 3.0483313
0.37352622 0.58062577 3.049252
0.43072048 0.57512289 3.0484884
0.47799969 0.57807034 3.0460918
0.52273113 0.57837987 3.0427871
0.57751745 0.57728565 3.0428019
0.62863451 0.5729053 3.0408633
0.67403102 0.57356423 3.0378723
0.72017241 0.57472509 3.0371068
0.77239907 0.57435113 3.0347116
0.82612056 0.57468718 3.0300279
0.87492794 0.57088399 3.0306182
0.92229056 0.57232803 3.0290892
0.97104919 0.57445586 3.030623
1.0196815 0.57633543 3.0301826
1.0734191 0.5778144 3.025692
1.127843 0.57829988 3.0245531
1.1772512 0.57544458 3.0208673
1.2259399 0.57479119 3.0201988
1.2734474 0.56963223 3.0144587
1.3179445 0.5722577 3.0165203
1.3697948 0.57457232 3.0138009
1.4239047 0.57764697 3.0143058
1.4781392 0.58058858 3.0131745
1.5339466 0.57766742 3.0107467
1.5766115 0.56934565 3.0067947
1.6207935 0.56972528 3.0046504
1.6653572 0.58187783 3.0094547
1.7933439 0.56975764 3.0258141
1.8245209 0.56935167 3.0087376
1.8712813 0.57659197 3.0074699
0.0921278 0.61876297 3.0456448
0.10700557 0.61961049 3.0495467
0.17336223 0.60477674 3.0490749
0.26998106 0.63606155 3.0490186
0.42711428 0.62162602 3.0476198
0.4788405 0.62362903 3.0455561
0.52432394 0.62476569 3.0461786
0.5768941 0.62532908 3.0425928
0.62965894 0.62599999 3.0388982
0.67603707 0.62755477 3.0399032
0.72252083 0.62902218 3.039979
0.77452493 0.62625927 3.0385888
0.8269065 0.63032937 3.0348928
0.87587929 0.62307411 3.0321035
0.92432094 0.61887014 3.0296383
0.97269726 0.62085128 3.0295725
1.0215553 0.62297201 3.0294967
1.0692867 0.62424695 3.0247018
1.1195107 0.6268084 3.0255504
1.1700184 0.62932658 3.0254641
1.2219 0.62849683 3.0233634
1.2685226 0.62486857 3.0157089
1.3198601 0.61953813 3.0143075
1.3739408 0.6230256 3.0162408
1.4271172 0.62587845 3.0143259
1.4760123 0.62864745 3.0126841
1.5208583 0.63156742 3.0128107
1.5754589 0.62063551 3.010952
1.6290929 0.62174439 3.0081944
1.6773758 0.62490815 3.0071309
1.7054915 0.63445246 3.0030227
1.8211635 0.61979991 3.0236893
1.869133 0.63035548 3.0042894
0.092332922 0.67920202 3.0440865
0.18149531 0.69620371 3.049046
0.27036184 0.66658533 3.0491083
0.3148703 0.65193188 3.0491481
0.38494921 0.67583489 3.0480824
0.42692655 0.67497164 3.0474131
0.479727 0.66940689 3.0448253
0.52519351 0.6705001 3.0448256
0.5706023 0.67134321 3.0432642
0.62369341 0.67230815 3.0406806
0.67739791 0.67373413 3.0395496
0.72413802 0.67544508 3.0402355
0.77526659 0.6746735 3.0345862
0.82568979 0.67875165 3.0380673
0.87670189 0.6790778 3.0358641
0.92790371 0.67427796 3.0335491
0.97413534 0.67372745 3.0311043
1.0237603 0.66998589 3.0292721
1.0730319 0.67225921 3.0284352
1.1218723 0.67409158 3.0250063
1.1719069 0.67645544 3.0233107
1.222741 0.67910266 3.02214
1.2732831 0.68140131 3.0186813
1.3218371 0.67087835 3.0152338
1.3789178 0.67216718 3.0199156
1.4289988 0.67265165 3.016063
1.474061 0.68021399 3.0170281
1.5232717 0.68087131 3.0146189
1.5693991 0.6689899 3.0100312
1.6209537 0.67395008 3.0166268
1.6749016 0.67519164 3.0125678
1.7120996 0.68527114 3.0066452
1.8356019 0.67397112 3.0288956
1.8786416 0.6746878 3.0126605
0.092606522 0.72564739 3.0462971
0.10748777 0.72615808 3.0480769
0.43018037 0.73364091 3.0475359
0.47343239 0.71950173 3.045577
0.52681249 0.72489214 3.0461595
0.56872785 0.71958774 3.0442181
0.62568361 0.71941441 3.0434024
0.67939049 0.72077101 3.0414922
0.72585219 0.72218931 3.0403755
0.77220267 0.72334492 3.0376368
0.82261437 0.72378266 3.0373471
0.876396 0.72824001 3.033407
0.93026036 0.72916061 3.0327425
0.98049116 0.72850102 3.0327973
1.0269555 0.72553998 3.0301113
1.0743033 0.72301209 3.0288215
1.1251932 0.72217119 3.0264826
1.1740199 0.72387624 3.0211976
1.2257408 0.72717071 3.0218384
1.2779251 0.73051018 3.0218899
1.3289119 0.72254258 3.0192437
1.3779571 0.71760833 3.0152783
1.424341 0.72625417 3.0203152
1.4743521 0.72761565 3.0207222
1.5270257 0.72910202 3.0188546
1.5721622 0.72597963 3.0168226
1.6231077 0.72176951 3.0171587
1.6771197 0.72321415 3.0129647
1.713073 0.73174328 3.0092444
1.8395846 0.72230774 3.0361681
1.8720555 0.72754347 3.0157874
1.9016182 0.72653556 3.0061853
0.092671342 0.77062464 3.0411475
0.24194892 0.77414775 3.0496461
0.39207181 0.77667356 3.0491784
0.42218024 0.77712721 3.0481985
0.46803379 0.78380233 3.0494258
0.5258832 0.77951652 3.0468204
0.57786745 0.77303785 3.0458272
0.6215052 0.77226949 3.0454524
0.67385274 0.77235252 3.0432198
0.72766733 0.76924193 3.0404007
0.77434909 0.77068996 3.0384345
0.82182014 0.77271676 3.0382056
0.87002736 0.7751835 3.0391872
0.92048132 0.77521813 3.0355659
0.97716421 0.78162104 3.0372827
1.0300117 0.78131187 3.0298364
1.0784221 0.77288312 3.0274036
1.1276687 0.76996022 3.0250711
1.1783739 0.77292711 3.0242536
1.2291301 0.77571702 3.0219471
1.2798358 0.77750725 3.0235677
1.3280617 0.77570111 3.0202918
1.3728523 0.77102298 3.0181777
1.4238088 0.77336204 3.0220933
1.477198 0.77655697 3.0178843
1.5239115 0.78022695 3.0175397
1.5710195 0.77321833 3.0185122
1.6237228 0.7700389 3.0202317
1.6714549 0.77855128 3.0197647
1.7181773 0.78034347 3.0185585
1.8441519 0.77964842 3.0421977
1.8725467 0.77765644 3.0188553
1.9066767 0.7781024 3.0045166
0.092951551 0.81756717 3.0425518
0.43869835 0.82492089 3.0498335
0.47412062 0.82351106 3.0462668
0.52141368 0.82700926 3.0487812
0.5853883 0.83182204 3.0471301
0.62211341 0.82955861 3.0455139
0.67597497 0.82658297 3.0435205
0.72657782 0.81871253 3.0420208
0.77744603 0.81928658 3.0424271
0.82449508 0.82082069 3.03984
0.87292922 0.82352471 3.0410037
0.92091817 0.8255412 3.0390625
0.97234631 0.82616156 3.0366228
1.0234585 0.83022708 3.0345054
1.0774894 0.82726437 3.0308897
1.1284896 0.82205755 3.0271468
1.1781975 0.82004291 3.0281291
1.223037 0.82511592 3.0266414
1.2722802 0.83086324 3.0272474
1.3211741 0.83141118 3.0228031
1.3735411 0.81890434 3.0224116
1.4256204 0.82172972 3.0167418
1.4732919 0.82633996 3.0197027
1.5207946 0.83061063 3.0206363
1.5782485 0.82059294 3.0189669
1.6271173 0.82406586 3.0243213
1.675404 0.82697356 3.0269444
1.7205153 0.82929879 3.0241241
1.8753573 0.8241269 3.0231225
1.9269568 0.82858258 3.0156658
0.093219601 0.86461765 3.0430534
0.46975341 0.85685593 3.0480735
0.52825642 0.88674915 3.0489736
0.5794239 0.87770313 3.0458527
0.62227869 0.87769538 3.0471313
0.66826451 0.88303435 3.0480342
0.72633153 0.87983114 3.0484984
0.77998608 0.86763746 3.0436447
0.82721084 0.86928326 3.0410485
