ply
format ascii 1.0
comment PCL generated
element vertex 1533
property float x
property float y
property float z
element camera 0
property float view_px
property float view_py
property float view_pz
property float x_axisx
property float x_axisy
property float x_axisz
property float y_axisx
property float y_axisy
property float y_axisz
property float z_axisx
property float z_axisy
property float z_axisz
property float focal
property float scalex
property float scaley
property float centerx
property float centery
property int viewportx
property int viewporty
property float k1
property float k2
end_header
-0.45471838 0.41638452 1.0796336
-0.43997005 0.41127142 1.0753322
-0.83519334 0.4738515 1.074194
-0.76336831 0.47309321 1.0971222
-0.7214781 0.47584218 1.0950801
-0.69694728 0.47883573 1.0972096
-0.45979759 0.47723201 1.0720751
-0.44741535 0.47741798 1.0580077
-0.83081269 0.52546269 1.0781261
-0.77266061 0.50932258 1.081768
-0.72727144 0.51906878 1.0823895
-0.69678175 0.52116561 1.095274
-0.82393199 0.57318956 1.0731236
-0.82775807 0.62380767 1.0751132
-0.82822055 0.6736629 1.0744505
-0.82967758 0.72467989 1.0754811
-0.83006471 0.7741363 1.0729029
-0.83115149 0.82646036 1.0743227
-0.83135498 0.87423557 1.0740407
-0.83351785 0.92337233 1.0756201
-0.8347373 0.97767997 1.0787785
-0.83521116 1.0276058 1.0757399
-0.83277255 1.0575712 1.0823823
-0.67218405 0.33083302 1.1470157
-0.53471744 0.33538955 1.1060953
-0.8186062 0.37457332 1.111878
-0.67939538 0.38891438 1.1245809
-0.55518395 0.37195978 1.1398356
-0.53911614 0.3686353 1.1359304
-0.46777993 0.37793303 1.1424829
-0.43017977 0.38887286 1.1090153
-0.37637323 0.36088231 1.1107135
-0.82458657 0.4276168 1.1112127
-0.76568735 0.43348551 1.1003923
-0.74268079 0.42170545 1.1008228
-0.69236207 0.42499539 1.123697
-0.46838301 0.41720822 1.1318389
-0.44489926 0.40011746 1.1092288
-0.82496917 0.47625905 1.114141
-0.78210944 0.47905022 1.1016675
-0.74503779 0.46732748 1.1015159
-0.69319934 0.47447348 1.1233168
-0.82409537 0.51677936 1.1131157
-0.78717834 0.50347054 1.1009955
-0.70245486 0.54791093 1.1374533
-0.69469637 0.5204367 1.1254035
-0.81248689 0.59312135 1.1080605
-0.71727431 0.55477071 1.1079634
-0.82098794 0.62595856 1.1238474
-0.82275969 0.6750524 1.1237106
-0.82441986 0.72491491 1.1220345
-0.82573104 0.77535361 1.1255639
-0.827851 0.82503963 1.1237133
-0.82843465 0.8745327 1.1214586
-0.8303324 0.92646044 1.1247714
-0.83027405 0.97524875 1.1269774
-0.83274001 1.0241727 1.1233443
-0.83331925 1.0703788 1.1279413
-0.83671856 1.1030775 1.1488861
-0.67836457 0.34231463 1.1700979
-0.68228865 0.36914033 1.1831217
-0.57806551 0.38167676 1.1809179
-0.5480634 0.3830348 1.1689813
-0.48188251 0.38833356 1.1561373
-0.6872558 0.42588317 1.1745824
-0.59583127 0.4215169 1.1684721
-0.4928956 0.4188894 1.1691344
-0.69144171 0.4754546 1.1757243
-0.69181335 0.52041239 1.1748798
-0.80970836 0.59862453 1.1536536
-0.79627806 0.58943921 1.1581514
-0.70420164 0.55153954 1.1879466
-0.5714469 0.58323848 1.1978319
-0.81587118 0.62684637 1.1769549
-0.57489425 0.60330391 1.1987096
-0.81960887 0.67475563 1.1749525
-0.82100224 0.7262845 1.1716757
-0.82194328 0.77464986 1.1731036
-0.82410467 0.82652003 1.1752053
-0.82504076 0.87601966 1.1718968
-0.82688463 0.92318708 1.173273
-0.82827348 0.97381347 1.1756153
-0.83072996 1.0250155 1.1754428
-0.8304671 1.0757596 1.1746908
-0.82918411 1.1126567 1.1803805
-0.65072423 0.34896147 1.2054377
-0.67875266 0.37230247 1.2184259
-0.62662119 0.3705287 1.246841
-0.59831381 0.37671295 1.2012252
-0.68364853 0.42597118 1.2248063
-0.60830748 0.44859016 1.2296863
-0.58504766 0.43038496 1.2327596
-0.68788821 0.47443989 1.2257602
-0.61824369 0.47117308 1.2403339
-0.59069216 0.47754279 1.2363551
-0.68950367 0.52167368 1.2229604
-0.60520488 0.52375215 1.226243
-0.58685207 0.52394074 1.2249
-0.61143756 0.57566726 1.2371238
-0.5864538 0.57072735 1.2164905
-0.81336391 0.63940495 1.2194633
-0.79286397 0.61486435 1.207093
-0.61204189 0.62263989 1.2392461
-0.59414661 0.6198566 1.2207781
-0.8177557 0.67569911 1.2232918
-0.61372632 0.67170662 1.2480481
-0.59597403 0.6597932 1.2285788
-0.81905311 0.72407508 1.2242527
-0.81932181 0.77188653 1.2225388
-0.82094479 0.82418263 1.2275165
-0.82244945 0.87452036 1.2228564
-0.82437402 0.92560744 1.222858
-0.82463562 0.97547066 1.227284
-0.82617974 1.0296682 1.225884
-0.8271153 1.0753556 1.2250797
-0.82787371 1.123697 1.2278837
-0.82866263 1.1529467 1.2283216
-0.67979521 0.38859764 1.276471
-0.64348984 0.37317032 1.2652457
-0.67902392 0.42443728 1.2786762
-0.58997464 0.44475985 1.2590457
-0.68228662 0.47834751 1.2761213
-0.63546169 0.48742232 1.2613412
-0.59127891 0.46584976 1.2563686
-0.68601948 0.51884663 1.2740902
-0.62235856 0.50895661 1.2523311
-0.80618793 0.64138561 1.2704409
-0.62699074 0.64303076 1.2592766
-0.81575841 0.67626065 1.275449
-0.62218285 0.65926385 1.2541687
-0.81706375 0.72472799 1.2722055
-0.81719631 0.77496207 1.2750815
-0.81825674 0.82456654 1.2763377
-0.8195408 0.87212384 1.2742887
-0.81988853 0.92570877 1.273737
-0.82100606 0.97747535 1.2750885
-0.82242912 1.0259384 1.2775594
-0.8231619 1.0765713 1.2770476
-0.82523268 1.1261249 1.2784318
-0.82505286 1.1723852 1.2766287
-0.67265242 0.39301056 1.3046983
-0.67480195 0.42667845 1.3156822
-0.6747182 0.47658688 1.3053691
-0.68074936 0.52134228 1.3120707
-0.80046874 0.63770783 1.3090901
-0.81401885 0.67681384 1.32814
-0.81622136 0.72626513 1.3250999
-0.81552041 0.77333033 1.3261448
-0.81611663 0.82250106 1.3236941
-0.81659859 0.87476522 1.3275267
-0.81666708 0.92275554 1.3216826
-0.81955141 0.97741288 1.3267071
-0.81944656 1.0277154 1.3273174
-0.82021326 1.0760521 1.3264604
-0.82105905 1.1218957 1.3269091
-0.8221975 1.1752855 1.3221745
-0.82335442 1.2184783 1.3343058
-0.80579793 0.64573443 1.3633113
-0.79703188 0.63638711 1.3779838
-0.81161356 0.67491502 1.3757733
-0.81369776 0.72585696 1.375024
-0.81302166 0.77184802 1.3733633
-0.81478542 0.82823944 1.3741041
-0.81471521 0.87533528 1.3796281
-0.81517094 0.92356396 1.3723879
-0.81594741 0.9739517 1.3770552
-0.81481397 1.0243319 1.3751233
-0.81787306 1.0743163 1.375615
-0.81928349 1.1236361 1.3759141
-0.82007694 1.1743792 1.3720877
-0.82287228 1.2234389 1.3754601
-0.82103205 1.2554175 1.3892533
-0.80524814 0.64691341 1.4403443
-0.81078166 0.6762318 1.422472
-0.81223243 0.72250402 1.4261681
-0.81317085 0.77323765 1.42381
-0.81271774 0.8245638 1.4239254
-0.81259084 0.87720728 1.4254788
-0.81363577 0.92358518 1.4240432
-0.81233621 0.97382748 1.4267201
-0.81374359 1.0234607 1.4249125
-0.81457382 1.0739163 1.425018
-0.81649429 1.1284399 1.4260898
-0.81808436 1.1780944 1.4269507
-0.81940222 1.2218357 1.4240347
-0.82339126 1.2750616 1.4335703
-0.81722879 1.3007456 1.4493936
-0.80371106 0.64984512 1.4875221
-0.79735571 0.63818181 1.457381
-0.80933964 0.6755932 1.4708602
-0.80973679 0.72430384 1.4746051
-0.81093848 0.77657682 1.4749572
-0.80962658 0.82483715 1.4711462
-0.81059164 0.87734693 1.4759599
-0.8111583 0.92626137 1.4769757
-0.81094497 0.97264266 1.4768406
-0.81203902 1.0255052 1.4714961
-0.81219333 1.0736805 1.4780415
-0.81474173 1.1230173 1.4777305
-0.816625 1.1738585 1.4783119
-0.81949365 1.2224065 1.4790477
-0.82056856 1.2721814 1.4692035
-0.8211444 1.3207381 1.4928315
-0.80350614 0.64726776 1.5197682
-0.78547764 0.6412487 1.5364126
-0.806885 0.67598206 1.5295849
-0.80768734 0.72475374 1.5251206
-0.77401328 0.71317291 1.5304945
-0.80719876 0.77381295 1.5252846
-0.76973718 0.7891587 1.5141817
-0.80818599 0.82425958 1.5232484
-0.79194915 0.8118211 1.5457585
-0.80803454 0.87436324 1.5223655
-0.80853289 0.92585927 1.5234097
-0.80884451 0.977 1.5237629
-0.81104368 1.0236802 1.528386
-0.81223744 1.0739007 1.5256983
-0.81325698 1.1302347 1.5277776
-0.81432801 1.1746848 1.5284828
-0.81704754 1.2255536 1.5229386
-0.82003939 1.2800422 1.523615
-0.81906247 1.3206565 1.5301023
-0.81892383 1.3501096 1.5186331
-0.79639918 0.64589626 1.559129
-0.80147588 0.68850315 1.5563123
-0.79414779 0.67241478 1.5581793
-0.80444181 0.71681505 1.5529661
-0.79537117 0.72903174 1.557411
-0.80247307 0.770374 1.5514612
-0.79672021 0.77616018 1.5554777
-0.80191898 0.82631981 1.5512069
-0.79555541 0.84212285 1.5620056
-0.80745387 0.87640315 1.5674973
-0.79503548 0.87276757 1.5845177
-0.8075223 0.92064649 1.5675386
-0.80860084 0.97281343 1.5764836
-0.81025106 1.0271018 1.5729914
-0.81069118 1.0730207 1.5762643
-0.81278116 1.1212642 1.5753751
-0.81495059 1.1781776 1.5764343
-0.81627309 1.2292852 1.5771201
-0.82049382 1.2751495 1.5722705
-0.82022953 1.3163705 1.5774964
-0.82448989 1.3740805 1.5716468
-0.82425332 1.4093577 1.599473
-0.80623829 0.92418164 1.618059
-0.79932135 0.91257346 1.6357141
-0.80938834 0.97142643 1.6281755
-0.8102116 1.020095 1.6184981
-0.81334674 1.0758697 1.6196879
-0.81389481 1.1279472 1.6271271
-0.81559026 1.1765606 1.6294193
-0.81679726 1.2171901 1.6237098
-0.81775588 1.2728066 1.627148
-0.81981528 1.327095 1.6251755
-0.82285398 1.3754694 1.6154022
-0.82422364 1.4259032 1.6405004
-0.80434912 0.93371308 1.6667278
-0.79787004 0.93240476 1.6785039
-0.81001079 0.97632515 1.6745542
-0.81132746 1.0275322 1.6731267
-0.81306434 1.0745364 1.6664829
-0.81330836 1.1269312 1.6695843
-0.81480712 1.1760298 1.6729243
-0.81554252 1.2259841 1.6758977
-0.82214499 1.2783763 1.6857462
-0.82049245 1.3260424 1.6746262
-0.82034171 1.3697774 1.6755887
-0.82117534 1.4155636 1.6713433
-0.82457197 1.4589391 1.6799331
-0.8089509 0.96925265 1.72755
-0.81136167 1.0230386 1.7234159
-0.81170332 1.0761522 1.7220151
-0.81314719 1.1237401 1.7211514
-0.81623203 1.1770719 1.7257172
-0.81657356 1.2267276 1.7301997
-0.81607246 1.2723117 1.7244481
-0.81683522 1.3242266 1.7256104
-0.79810023 1.349208 1.748536
-0.81652623 1.3730096 1.7376165
-0.82291532 1.4238532 1.7254741
-0.82256323 1.4695777 1.7235415
-0.82678777 1.5069667 1.7339896
-0.80735981 0.98500723 1.7610937
-0.79786319 0.95683593 1.7551055
-0.81077164 1.0311507 1.7675103
-0.81183672 1.0761759 1.7699394
-0.81250161 1.1215782 1.7708904
-0.81112969 1.1724387 1.7678916
-0.8098892 1.2281429 1.765216
-0.80970192 1.2806473 1.7612457
-0.81418186 1.3095559 1.7500049
-0.81303459 1.4376928 1.7583697
-0.81803185 1.4780918 1.7674241
-0.82400143 1.5267541 1.774158
-0.82248354 1.1091313 1.816946
-0.4585593 0.64575219 2.0478673
-0.44236684 0.6445629 2.0464268
-0.46233067 0.66939366 2.0353043
-0.43846732 0.66555619 2.0354691
-0.50120288 0.6404627 2.0971508
-0.46990329 0.63462043 2.0766191
-0.4356257 0.63822973 2.0784576
-0.50730306 0.68044275 2.0727615
-0.4832449 0.67686433 2.0731053
-0.42604136 0.66377777 2.066721
-0.47398856 0.70470828 2.057029
-0.57214308 0.6448341 2.1385233
-0.51898128 0.64957774 2.1252158
-0.4377358 0.63022071 2.1176474
-0.56657314 0.65478271 2.1216638
-0.51751453 0.66622514 2.1055257
-0.50538641 0.70933139 2.1004603
-0.49652731 0.71180362 2.1095448
-0.43660402 0.63231659 2.1564875
-0.60098702 0.66979027 2.1794376
-0.5689885 0.68026489 2.1813383
-0.53995192 0.68940163 2.1588855
-0.57201236 0.70762128 2.1935241
-0.50384665 0.94039583 2.1897345
-0.4889822 0.94257814 2.1922655
-0.50254899 0.95484561 2.178853
-0.48193541 0.96137857 2.1900375
-0.61204398 0.69329512 2.217114
-0.56068391 0.67411989 2.2016859
-0.61011642 0.71910441 2.2314193
-0.57785624 0.72149074 2.2141366
-0.5230397 0.7749083 2.2431192
-0.50954086 0.92248744 2.2230673
-0.4843989 0.93182689 2.2184832
-0.52299094 0.95479989 2.2213459
-0.47052732 0.98175967 2.2475526
2.0913062 2.3438981 2.2389367
2.1056488 2.3410196 2.2249308
2.1342046 2.3538647 2.2258048
-0.52458602 0.79155612 2.2742772
-0.52921873 0.80996501 2.2910905
-0.51563621 0.87795478 2.2656693
-0.49698517 0.89541382 2.2867162
-0.51053292 0.91399062 2.2743261
-0.49511558 0.90363097 2.2748861
-0.47198027 0.96742076 2.2598505
2.0250328 2.3455966 2.2855079
2.2146907 2.3336771 2.2585638
2.0472374 2.3516335 2.2801499
2.0835822 2.3549757 2.274389
2.1341548 2.364995 2.2826719
2.1706927 2.3625026 2.2782576
2.2069216 2.3523939 2.2738552
-0.51846659 0.834517 2.320024
-0.51763892 0.86749512 2.3153708
-0.49280393 0.87410289 2.32253
-0.48818102 0.90061855 2.3017802
1.9205889 2.3422723 2.3488672
1.9699733 2.3405998 2.3140619
1.9840705 2.3573654 2.3306293
2.0203679 2.3551464 2.3298867
2.0724039 2.3540316 2.3168278
2.1308901 2.3631587 2.3222632
2.1837635 2.3655114 2.3311203
2.2194824 2.3577101 2.3216183
2.2753551 2.3677466 2.327353
2.3028736 2.3721383 2.343646
2.0559187 2.3491857 2.3914914
1.8969179 2.3549297 2.3835523
1.927164 2.3711967 2.3889711
1.9832075 2.3636117 2.3808861
2.0252683 2.3511851 2.3741388
2.0774422 2.3614745 2.3555617
2.1195204 2.3620467 2.3692088
2.1693988 2.3607941 2.3749485
2.2130287 2.3566515 2.369653
2.2602589 2.3647487 2.3609426
2.310375 2.3711038 2.3794713
2.3619585 2.3719399 2.3736441
1.759039 2.3301914 2.432622
1.8055851 2.3468819 2.4291058
1.9014457 2.3473599 2.4493937
1.9681942 2.3464417 2.4249759
2.037926 2.3484516 2.4023981
1.836206 2.3535144 2.4200015
1.8728235 2.354624 2.4284499
1.9286947 2.3576999 2.4276361
1.9564958 2.3600779 2.413228
2.0379102 2.3686006 2.43472
2.0800219 2.3649676 2.42854
2.1289008 2.3700087 2.4282351
2.1618228 2.3637528 2.4273257
2.2180529 2.3681226 2.438869
2.2682743 2.3738611 2.4135282
2.3235543 2.375736 2.4216783
2.3701091 2.3770781 2.4354362
2.4353445 2.3779781 2.4354851
1.6621913 2.3362157 2.4991837
1.7219973 2.3486335 2.4826245
1.7721984 2.3418174 2.4816136
1.8738505 2.3451657 2.4636199
1.9386499 2.3455935 2.4842894
1.950696 2.3478975 2.4593356
1.7463119 2.3585279 2.4828866
1.7644044 2.3599095 2.4740415
1.82601 2.3660975 2.475445
1.8558369 2.3550539 2.4904184
1.9959105 2.3619003 2.4728751
2.0241702 2.3681085 2.4710903
2.0742221 2.3642535 2.4772274
2.1268721 2.3651938 2.4753077
2.1689961 2.3731475 2.4812992
2.2213919 2.3725142 2.4768386
2.2778718 2.3725307 2.478018
2.3298557 2.3778825 2.4766917
2.3684626 2.3753889 2.4787817
2.4211624 2.3757792 2.472224
1.8724866 2.3499076 2.5335548
1.9315631 2.3494265 2.5158482
1.9812517 2.3492992 2.5254719
1.6359231 2.3592436 2.5480218
1.6777486 2.3581376 2.5226016
1.7276351 2.3523242 2.5342205
1.773389 2.3583887 2.5329046
1.8305048 2.3555226 2.5232809
1.8939631 2.3549414 2.5279078
1.9245056 2.366792 2.5202236
1.9745892 2.3590274 2.5032527
2.0290625 2.3639045 2.5176561
2.081666 2.375813 2.5453892
2.113781 2.3625395 2.5233724
2.1781099 2.3748782 2.5219932
2.2131705 2.3652005 2.5257547
2.266166 2.3644218 2.5323801
2.300163 2.3712065 2.5201445
2.3773701 2.3749394 2.5330992
2.4122255 2.3725252 2.5347528
1.4943893 2.3381655 2.5929694
1.5310745 2.3425167 2.5803301
1.5761029 2.3420334 2.5942121
1.6136398 2.3469892 2.5812571
1.7120628 2.347523 2.5659623
1.8235328 2.3455179 2.5776584
1.5810924 2.3538892 2.570313
1.6211381 2.3539712 2.5679917
1.6792488 2.3553367 2.5727623
1.7480358 2.372963 2.5835981
1.7830588 2.3557565 2.5770264
1.8301644 2.3515134 2.5624065
1.8706965 2.352087 2.5798001
1.9367772 2.3703833 2.5884843
1.983547 2.3748441 2.5870576
2.0263166 2.3740716 2.5794685
2.0709267 2.3754761 2.581413
2.1187582 2.3704979 2.5851529
2.1824999 2.3713083 2.5576324
2.228246 2.3727062 2.5735669
2.2772768 2.3671172 2.5752468
2.3440597 2.3789458 2.5955508
2.3575814 2.3737566 2.5764778
2.4242601 2.3747282 2.5774918
2.450567 2.3729165 2.5549889
-1.01149 2.2254529 2.6389201
-0.97704357 2.2204044 2.643322
1.4259148 2.3368537 2.6247728
1.4775598 2.3431244 2.6274681
1.5256059 2.3388793 2.6256056
1.5891491 2.3441815 2.6293187
1.6112938 2.3388426 2.6094899
1.6813234 2.3474722 2.6234338
1.7061477 2.3458033 2.6068316
1.7569575 2.3499584 2.6244373
1.8562664 2.3472912 2.6020074
1.4904808 2.3587604 2.6243982
1.5783372 2.3537281 2.6491446
1.6449283 2.3500998 2.607897
1.6607459 2.3516438 2.6213102
1.741321 2.3612499 2.6305943
1.7752066 2.3567312 2.6105499
1.813193 2.3573933 2.6233788
1.8742733 2.3610704 2.6340435
1.9229698 2.366991 2.6203392
1.9708627 2.3636932 2.6276412
2.0217659 2.361244 2.6049809
2.0809643 2.3618312 2.6198514
2.1253929 2.3603461 2.6233335
2.1820862 2.3695345 2.6155884
2.2253263 2.3707058 2.6182399
2.2665308 2.375999 2.6455457
2.3149958 2.3778586 2.6144218
2.4725766 2.3743653 2.6388693
-1.0065988 2.2179151 2.6972928
-0.9736374 2.2148654 2.6700797
-0.9256838 2.226948 2.6787491
-0.87365186 2.223249 2.6778941
-0.83331537 2.2230985 2.6885979
1.283076 2.3385758 2.6911068
1.3094875 2.3404305 2.6825273
1.3910848 2.3467808 2.6923876
1.4294672 2.3410962 2.6816158
1.4684019 2.3461244 2.6677911
1.5186465 2.3416448 2.6620045
1.7153064 2.3472872 2.685142
1.7695526 2.3491216 2.656971
1.375898 2.3672509 2.6906917
1.4055574 2.3594987 2.6663332
1.4920679 2.3539758 2.6931226
1.5075344 2.3511348 2.681396
1.5760282 2.3559096 2.6797473
1.6264114 2.3559766 2.6664007
1.6720394 2.3536823 2.6782649
1.7239097 2.3547037 2.6645372
1.7767335 2.3527205 2.6722887
1.8254951 2.3581069 2.680043
1.8833617 2.3658614 2.6789436
1.922262 2.3605514 2.6677785
1.9694046 2.3654778 2.6753857
2.0214717 2.3648155 2.6703198
2.0672998 2.3669667 2.6737473
2.1251736 2.3620439 2.6720824
2.1721566 2.3674867 2.6805992
2.2153993 2.3712211 2.6728745
2.2878952 2.3794878 2.6843953
2.310611 2.3834915 2.6755106
2.4186778 2.3776762 2.6846724
2.6635644 2.3656232 2.6829243
2.7005179 2.3808873 2.685184
2.7698643 2.369627 2.6626635
-0.97669458 2.2158277 2.7206242
-0.91970038 2.218771 2.7164321
-0.88068247 2.2311318 2.727392
-0.82125962 2.2328186 2.7289314
1.1197014 2.3333662 2.7468712
1.1617951 2.3330889 2.7312844
1.2672784 2.3436232 2.7318687
1.32128 2.3443565 2.7195961
1.3776778 2.3416424 2.7160237
1.4238675 2.3326499 2.7136507
1.4766635 2.3395486 2.717917
1.5153065 2.3432195 2.7305481
1.6725957 2.3438578 2.7442179
1.231534 2.3533819 2.7322886
1.3390535 2.3627036 2.7006786
1.3726746 2.3506598 2.7248435
1.4847908 2.3525124 2.7330673
1.542803 2.3525906 2.7244446
1.5701494 2.3557673 2.7219431
1.6300447 2.3568988 2.721916
1.6822953 2.3526895 2.7254295
1.7231644 2.3623602 2.7317116
1.7696546 2.3569565 2.7248974
1.8208928 2.3573723 2.7240398
1.8579895 2.3588758 2.704484
1.9111742 2.3621931 2.7208869
1.9572031 2.373982 2.711859
2.0126348 2.3673136 2.7100182
2.0729973 2.3663929 2.7298419
2.130739 2.3702731 2.7291062
2.167182 2.3701911 2.7278328
2.2161403 2.3637693 2.7302909
2.2780528 2.3699138 2.7222157
2.3131223 2.3674958 2.7418864
2.4780352 2.3686244 2.7245965
2.6158056 2.3757722 2.7394071
2.7267938 2.3752825 2.707098
2.7759187 2.3702624 2.7404571
2.8095078 2.3631029 2.7270951
-1.00684 2.2134883 2.7760806
-0.96964622 2.2260597 2.7790833
-0.92508543 2.2263584 2.7804439
-0.87235391 2.2316573 2.7751656
-0.83171308 2.2319636 2.7794392
-0.80742341 2.2700016 2.7894175
0.9451834 2.3197458 2.7847495
0.96894342 2.3365314 2.7999434
1.0323035 2.3459306 2.7929544
1.0707701 2.3372171 2.7687895
1.1318634 2.3412626 2.7709157
1.1800506 2.3355052 2.7778316
1.2234242 2.3365481 2.7702093
1.2783021 2.3424656 2.771549
1.3222411 2.3428688 2.7764459
1.3858272 2.3470716 2.7703955
1.4222111 2.3466892 2.7919242
1.4834715 2.3467684 2.7640193
1.5804465 2.3475356 2.7774172
1.6284374 2.3441091 2.7678514
1.6702578 2.3440435 2.7663188
1.706094 2.3477802 2.7735608
1.2013123 2.3609407 2.754302
1.358851 2.3541155 2.7733474
1.4236881 2.3522129 2.760988
1.4664247 2.3615568 2.7937307
1.5342122 2.3533974 2.7889585
1.5773008 2.3517432 2.7652235
1.6115667 2.3542705 2.7718754
1.7309285 2.3572278 2.7749293
1.7765592 2.3610473 2.7767475
1.8230114 2.3537006 2.7596822
1.879511 2.3702807 2.775281
1.918099 2.3612976 2.7739477
1.9737511 2.3672678 2.7683086
2.0333331 2.3704798 2.7625971
2.0711963 2.3669069 2.7780831
2.1302931 2.371825 2.779043
2.1760361 2.3712802 2.7712648
2.2557085 2.3672051 2.7817163
2.3359506 2.3715596 2.7828929
2.3766615 2.3737216 2.774648
2.4288392 2.3678298 2.7593102
2.4631088 2.3724546 2.7687631
2.5311708 2.3704381 2.7925737
2.5826139 2.3815577 2.7759795
2.6738462 2.3902147 2.7777405
2.7211506 2.3764451 2.7679899
-0.97760522 2.2153385 2.8242698
-0.9251858 2.2221105 2.8204243
-0.88150322 2.2254395 2.8197539
-0.82292235 2.2327285 2.8276629
-0.80085003 2.2986507 2.828763
-0.79878306 2.2759752 2.8328297
-0.80004585 2.3131118 2.8143654
-0.78071129 2.3303521 2.8413036
0.83099157 2.3292773 2.8279371
0.87231284 2.3497231 2.8441334
0.92518348 2.338903 2.8293979
0.97870678 2.3370879 2.8237028
1.0223787 2.3396153 2.8138335
1.073228 2.3355381 2.8185036
1.1214664 2.3384559 2.8241727
1.168475 2.3407495 2.8350954
1.2142707 2.3345587 2.8219128
1.2772429 2.3415799 2.8225927
1.3209579 2.3377602 2.8221099
1.3751519 2.3429534 2.8222766
1.4287816 2.3398941 2.8176014
1.4575059 2.3402257 2.8443141
1.5672015 2.3453698 2.8006654
1.6245525 2.3463478 2.8140349
0.89060897 2.353102 2.8437378
1.1187893 2.3500154 2.8051424
1.482039 2.3547363 2.8155558
1.5205179 2.3599594 2.8351362
1.5567374 2.3563945 2.822516
1.6735051 2.3559005 2.8244178
1.7302759 2.35831 2.8296125
1.7733526 2.3582218 2.8273087
1.8200454 2.3551526 2.8068728
1.8761135 2.371546 2.8307002
1.9269108 2.3694413 2.8343287
1.9903113 2.3805435 2.8373377
2.0265682 2.3697422 2.8192418
2.1237872 2.3666832 2.8215981
2.1887219 2.3668551 2.82686
2.2371082 2.3687351 2.8465555
2.2765307 2.3697708 2.8213487
2.3373175 2.3731742 2.835371
2.3624301 2.3691759 2.8099322
2.4288883 2.3768721 2.8281381
2.4733684 2.3719251 2.8208849
2.5323267 2.3701801 2.8444495
2.5535655 2.3714621 2.8311439
-0.99379379 2.1999128 2.8823104
-0.97539061 2.213587 2.8720663
-0.92488784 2.2222698 2.8809183
-0.87469929 2.23018 2.8740256
-0.82698613 2.22858 2.8744793
-0.80199796 2.2599101 2.8610206
-0.77803653 2.3279855 2.8781805
-0.7304225 2.3407023 2.8743258
-0.67185998 2.3334811 2.8686135
-0.62278849 2.3394053 2.8854558
-0.57085299 2.3351905 2.889019
-0.51929837 2.3314295 2.892338
-0.47517353 2.3221946 2.8868787
-0.43347004 2.3239918 2.8946013
-0.39881623 2.3182673 2.8914676
0.44240999 2.3264546 2.8966749
0.47628665 2.3272998 2.8933001
0.53663015 2.3332152 2.8920562
0.579036 2.3337188 2.8858566
0.62943184 2.3324912 2.8754857
0.67810363 2.330559 2.8770981
0.72663903 2.3380086 2.8801453
0.77321512 2.3383231 2.8737383
0.81913906 2.342948 2.8741851
0.87673205 2.3359256 2.8763037
0.9191938 2.339488 2.8756564
0.96911484 2.3439424 2.879324
1.0224061 2.3390496 2.8747084
1.0788264 2.336184 2.8799958
1.1283735 2.3357544 2.8685544
1.1728721 2.3379331 2.8782084
1.2175047 2.3400531 2.8652751
1.2706292 2.3444273 2.8796663
1.3136796 2.3377583 2.8754289
1.3713536 2.3443441 2.8872848
1.4254332 2.3412962 2.86975
1.5233896 2.3468199 2.8840117
1.7293842 2.3499334 2.8911071
2.1238499 2.3497412 2.8869898
1.2509788 2.3537323 2.8722744
1.3478425 2.3520534 2.8697894
1.3701098 2.351058 2.8784785
1.4858565 2.3546121 2.879544
1.5386143 2.3517036 2.8642058
1.5788702 2.3554864 2.8752315
1.6223291 2.3614976 2.8660839
1.6716491 2.3619137 2.8835804
1.7235937 2.3542047 2.8726032
1.7885506 2.3675802 2.8881099
1.8301992 2.3634841 2.8730011
1.8649825 2.3623364 2.8661072
1.9152775 2.3593924 2.8692498
1.9799192 2.3717477 2.8745165
2.0216019 2.3696377 2.8731322
2.0810938 2.3627274 2.8739128
2.1316309 2.3669229 2.8647563
2.1783407 2.366956 2.8664634
2.2321148 2.3645253 2.8917837
2.289892 2.3743229 2.8706512
2.3382833 2.3743894 2.8880339
2.3739848 2.3708632 2.8733695
2.4115188 2.3690035 2.8775718
2.4736953 2.3715174 2.8637459
2.519912 2.3671722 2.8746269
2.5570467 2.3731861 2.8861511
-0.99265188 1.8143764 2.9480278
-1.0025213 2.0309734 2.944406
-1.0000728 2.1456683 2.9426293
-1.0026438 2.1853294 2.9293573
-0.98956776 2.1941862 2.9460669
-0.88146973 2.1981285 2.9447746
-0.96885681 2.2117505 2.9240143
-0.92938375 2.21541 2.9340189
-0.87891072 2.2172172 2.920346
-0.82552546 2.220808 2.9308395
-0.79371119 2.2334237 2.9287143
-0.80106932 2.2970104 2.9284236
-0.79318023 2.2574091 2.9105794
-0.77730191 2.318264 2.9211152
-0.72475469 2.3423936 2.9200177
-0.68335551 2.3374839 2.9184937
-0.63359994 2.3426135 2.9294577
-0.57487178 2.3343189 2.9204006
-0.52310687 2.3383875 2.9204307
-0.46756098 2.3341701 2.9277833
-0.42629242 2.3348093 2.9310825
-0.36911502 2.3343461 2.9314067
-0.32211524 2.3363791 2.9303529
-0.26619756 2.3278348 2.9268894
-0.23190625 2.3292058 2.9201992
-0.18143435 2.3298519 2.9239483
-0.1391924 2.3295636 2.9255059
-0.080411792 2.3376834 2.9375117
-0.029425204 2.323621 2.9206207
0.021218916 2.3407459 2.9422081
0.076122656 2.3296964 2.9356391
0.11823701 2.3269496 2.9310403
0.17327152 2.3328173 2.9281139
0.22423489 2.335886 2.929142
0.27554232 2.3362842 2.9341855
0.32558122 2.3302546 2.922364
0.38150552 2.3388824 2.9326279
0.42483395 2.3328524 2.9315419
0.4805631 2.3377986 2.9258091
0.53188217 2.3323801 2.9247296
0.57648534 2.332242 2.9342637
0.62298173 2.3352935 2.9269977
0.66750747 2.3326669 2.9271703
0.72509748 2.3348396 2.9270842
0.77751732 2.3375034 2.9193532
0.82119018 2.3377495 2.9234366
0.87982929 2.3412306 2.9347143
0.9235673 2.3422801 2.9247944
0.9775672 2.3382969 2.9222691
1.0334362 2.3337345 2.9265831
1.0787905 2.3364952 2.9316986
1.1177038 2.3446441 2.9307258
1.1802691 2.3408554 2.9290903
1.2268257 2.3464828 2.9307518
1.2731698 2.3432636 2.9242475
1.3423283 2.3467174 2.9219165
1.4823127 2.3439651 2.91819
1.550385 2.3471694 2.9329627
1.6860807 2.3442779 2.9255571
0.43032327 2.3525052 2.9312201
0.58406883 2.3540485 2.9110425
1.1532069 2.351527 2.9410043
1.2268405 2.3572192 2.9235651
1.3049518 2.3525951 2.9257967
1.3795218 2.3556671 2.9396231
1.4154093 2.355617 2.9247775
1.4668781 2.3570933 2.9249346
1.521642 2.3630562 2.9297819
1.5878469 2.3623619 2.9391727
1.6315541 2.3620875 2.9317484
1.6619147 2.355696 2.9207001
1.7174401 2.358711 2.911494
1.7826138 2.3657303 2.9319236
1.8262472 2.3637378 2.919754
1.8749844 2.3595238 2.9302044
1.9243006 2.3538489 2.9225204
1.9807922 2.3625717 2.9197605
2.027786 2.3680401 2.9321167
2.0711107 2.3611877 2.9249961
2.1310315 2.3585954 2.9227424
2.1735077 2.3638921 2.9294188
2.226675 2.3663213 2.9320972
2.2854042 2.3703122 2.9168372
2.3232567 2.3725729 2.9293664
2.3623552 2.3690696 2.9126093
2.4238045 2.3610013 2.9234002
2.4653087 2.3721375 2.9245415
2.5111117 2.3771739 2.928144
-0.97769237 1.8369464 2.9639921
-0.97204286 1.8750209 2.9751053
-0.92118752 1.8710077 2.9695208
-0.87873292 1.8983886 2.9754343
-0.97935057 1.9249364 2.9691069
-0.92311919 1.9236763 2.9754341
-0.873308 1.929401 2.974375
-0.82516205 1.9274073 2.9730561
-0.97476411 1.9774756 2.9695425
-0.93025851 1.9724727 2.9713495
-0.87884504 1.9749731 2.9759197
-0.82345098 1.9732507 2.9723797
-0.79670686 1.9862093 2.9945033
-1.004783 2.0018992 2.969569
-0.97338992 2.03179 2.9715159
-0.9226228 2.0256615 2.9712625
-0.87472886 2.0208638 2.9728854
-0.8267054 2.0278797 2.9729879
-0.79896653 2.0169582 2.989677
-0.97840238 2.0761983 2.9679184
-0.9270466 2.0731938 2.9689076
-0.87526691 2.0782342 2.9747431
-0.82183808 2.0827782 2.9807689
-0.97822803 2.1214864 2.9631774
-0.91968614 2.1204357 2.9687021
-0.87926763 2.133111 2.9729338
-0.82628495 2.1279657 2.9775746
-0.96872538 2.1714001 2.9582357
-0.92403603 2.1763697 2.9610348
-0.87693435 2.1680512 2.9582772
-0.82924193 2.1781235 2.963129
-0.79730457 2.1838076 2.9785235
-0.91086799 2.2074504 2.9508233
-0.86582595 2.201658 2.9536598
-0.79674697 2.2163928 2.9558313
-0.77389759 2.3268945 2.9748361
-0.72485024 2.3360806 2.9801216
-0.67108446 2.343112 2.9741557
-0.62015164 2.3366177 2.9696095
-0.57935536 2.3425555 2.9774361
-0.52931446 2.3349314 2.9751313
-0.47674417 2.3373661 2.9721887
-0.41762584 2.3333921 2.9743602
-0.3732481 2.3349655 2.9812095
-0.31741324 2.334734 2.9730217
-0.27282864 2.3342531 2.9760163
-0.21793957 2.3341148 2.9762528
-0.17801769 2.3367326 2.9762862
-0.13228308 2.3313334 2.9768155
-0.08107882 2.3315089 2.978523
-0.033268288 2.3327346 2.977572
0.024773423 2.3305779 2.9748955
0.069043532 2.3244495 2.9730275
0.12719518 2.3293178 2.977715
0.17490141 2.3293009 2.9724329
0.22636896 2.3325765 2.9738085
0.27840343 2.3371565 2.9793699
0.32997662 2.3385875 2.976877
0.37729406 2.3371458 2.9753883
0.43274462 2.3315387 2.9702282
0.47734556 2.3400724 2.9757128
0.52533501 2.3386734 2.9756405
0.57016075 2.3373511 2.9840047
0.62232268 2.3386934 2.9771562
0.68051189 2.3412666 2.9785745
0.72948498 2.3358047 2.9754968
0.77110398 2.3322697 2.9689436
0.82771784 2.3401101 2.9720314
0.87881637 2.3443141 2.9742978
0.92293149 2.3365996 2.9703128
0.96998793 2.3357544 2.9744575
1.0275525 2.3381796 2.9797275
1.0771997 2.3298893 2.9715562
1.1260983 2.3327591 2.9725952
1.1699935 2.340879 2.9761415
1.2212521 2.3450167 2.9834692
1.2784419 2.3387244 2.963378
1.3306838 2.3466034 2.9844162
1.3952978 2.3491061 2.962759
1.4186509 2.3488021 2.9726467
1.5270911 2.3490484 2.9873984
1.9897674 2.3490417 2.9685552
-0.11510471 2.3546214 2.9578934
0.85796756 2.3525901 2.9554288
1.3228019 2.3506556 2.9545808
1.3721924 2.3559098 2.9821873
1.4431307 2.3592072 2.9782543
1.4774215 2.3585525 2.9727488
1.5291941 2.3565259 2.9570663
1.5740196 2.3644578 2.9903672
1.6222509 2.3568401 2.9699066
1.6668184 2.3597641 2.9813249
1.7245679 2.3606503 2.9683831
1.7680914 2.3696196 2.9788771
1.8218056 2.3644476 2.9751625
1.870863 2.3591492 2.9770393
1.9110339 2.3533931 2.9751205
1.9757856 2.3551037 2.9874096
2.0313277 2.3641412 2.9704795
2.0815187 2.3582873 2.9774303
2.1359105 2.3650889 2.9557848
2.1754551 2.3676662 2.9846988
2.2128339 2.3763347 2.9765868
2.2739284 2.3693111 2.9737377
2.3867388 2.3835428 2.9760492
2.5094664 2.3649197 2.9592769
-0.97509396 1.8429501 3.0030622
-0.80217952 2.145649 3.02685
-0.79992282 2.1567352 3.0084894
-0.79690105 2.2391171 3.0406671
-0.79427516 2.2877295 3.0216172
-0.76813447 2.3272855 3.029036
-0.72787154 2.347734 3.0475354
-0.68216223 2.3407047 3.0258124
-0.62343293 2.3376644 3.0182831
-0.57132769 2.3385785 3.0279567
-0.52235699 2.3385353 3.026619
-0.47827643 2.3376622 3.0195303
-0.43376178 2.3374934 3.0315905
-0.37213755 2.3333962 3.0210586
-0.32851079 2.3306735 3.0216126
-0.27184007 2.330982 3.0182297
-0.22032368 2.3334754 3.0248911
-0.16827013 2.3354998 3.0219321
-0.12501912 2.3293185 3.0239224
-0.081838861 2.3283293 3.0238202
-0.025895167 2.3364472 3.0268908
0.017256387 2.3296371 3.0181072
0.07333941 2.3286996 3.0244892
0.12528861 2.3332772 3.0290606
0.18063723 2.3267901 3.0316858
0.22588775 2.3301654 3.033628
0.28173712 2.3412323 3.0308945
0.33244014 2.3318923 3.0145209
0.37693417 2.3314652 3.0265403
0.42125309 2.3368864 3.0288875
0.47392654 2.3398159 3.0264111
0.52312708 2.3402371 3.023746
0.57807523 2.3303301 3.0159953
0.62350047 2.3376579 3.0183744
0.66949898 2.3374031 3.0272408
0.71811593 2.334481 3.0228136
0.77712572 2.3320584 3.025017
0.83181345 2.3377676 3.0208125
0.86833632 2.3369329 3.0200319
0.92597193 2.3400564 3.0280712
0.96987027 2.3403423 3.0291672
1.0261564 2.3411391 3.0270555
1.0655199 2.3370147 3.0220399
1.132521 2.3405116 3.0189981
1.1770215 2.3459117 3.0377276
1.2274331 2.3388739 3.0104847
1.2772431 2.3478236 3.006078
1.331421 2.3457241 3.0219743
1.3776746 2.3443966 3.0420444
1.6250627 2.3479176 3.0247855
1.7820753 2.3457992 3.0316396
1.9835339 2.3451023 3.0123403
0.93110865 2.3530624 3.0449533
1.0013794 2.3507271 3.0230122
1.2977245 2.350508 3.0416076
1.3879733 2.3533466 3.0250409
1.4247265 2.3576708 3.0303822
1.4752001 2.3540225 3.017451
1.523212 2.3576093 3.0334234
1.5738862 2.3596106 3.0246131
1.621081 2.3581724 3.0218556
1.6818123 2.3622618 3.0210221
1.7178521 2.3606157 3.0297139
1.7777551 2.3589857 3.011411
1.8189442 2.3568411 3.0311241
1.875103 2.3582282 3.0262771
1.9312495 2.3590789 3.0197847
1.974584 2.3573313 3.0391312
2.0268567 2.3620396 3.0171244
2.0722444 2.3604219 3.0192883
2.1128221 2.3631504 3.0157728
2.1673756 2.3703616 3.0198607
2.2008286 2.3754699 3.0332065
2.2924845 2.3687091 3.0118117
2.3135517 2.3699422 3.0000298
2.3882194 2.384886 3.0309489
-0.80797154 2.1265528 3.0681593
-0.80053216 2.1880438 3.090348
-0.8015666 2.2171569 3.0791893
-0.79009855 2.2961233 3.0697842
-0.76433176 2.3308017 3.0760701
-0.72330499 2.3438456 3.0784299
-0.66928357 2.3470347 3.0810544
-0.63015163 2.3407941 3.0647364
-0.57942897 2.3325782 3.0670106
-0.52264386 2.3330364 3.0707321
-0.4690429 2.3327894 3.0687971
-0.41751274 2.3390722 3.0832398
-0.3804667 2.3363314 3.0664029
-0.32439202 2.3338251 3.0717149
-0.27528274 2.3342636 3.0727913
-0.22235319 2.3308113 3.0682714
-0.17017181 2.331609 3.0754139
-0.11334175 2.3337882 3.0719614
-0.074184015 2.3319409 3.0789337
-0.030503482 2.3284519 3.0749302
0.021846963 2.330394 3.0775673
0.074167356 2.3294847 3.0757148
0.12653762 2.3301957 3.0752785
0.17004618 2.3282042 3.0709567
0.23127361 2.3277166 3.0726624
0.27522063 2.3420959 3.0662079
0.3230204 2.3358231 3.0626066
0.36708745 2.3297086 3.0674653
0.42554191 2.3343146 3.0760443
0.47898507 2.3385198 3.0753019
0.53221786 2.3361773 3.0736973
0.57263994 2.337023 3.0810959
0.62172204 2.337569 3.0705941
0.67415142 2.3271661 3.0648229
0.73084885 2.3393581 3.0709114
0.76960582 2.3361635 3.0855007
0.82039165 2.341536 3.0768476
0.92334175 2.3449414 3.0810986
0.97426283 2.3425884 3.0776494
1.026358 2.339534 3.0740223
1.0647541 2.3381374 3.0861428
1.1349168 2.3461883 3.0769835
1.1689012 2.3477633 3.0813444
1.2297598 2.3455212 3.0735371
1.2773545 2.3449841 3.0798321
1.3719152 2.3475285 3.0891759
1.4858907 2.3486221 3.0868497
1.6012974 2.3490217 3.0800438
1.7802973 2.3494573 3.0834959
-0.67191762 2.3503749 3.0969198
0.88192207 2.3526416 3.0806649
1.0905488 2.3538895 3.0762742
1.1104192 2.3576574 3.075772
1.1889941 2.3515306 3.0804362
1.2722731 2.3539333 3.055799
1.3273677 2.352555 3.0733156
1.3603022 2.3526831 3.0813248
1.4347398 2.3597271 3.0836854
1.471573 2.3593223 3.0681417
1.5282301 2.3564644 3.0815206
1.5771811 2.3551211 3.0687101
1.6351168 2.3571467 3.077867
1.6745172 2.3596239 3.0635417
1.7303923 2.3675721 3.0790298
1.7616297 2.3542471 3.0710542
1.8226036 2.3548155 3.0709941
1.8704493 2.357295 3.0731897
1.9371562 2.3587437 3.0626607
1.992406 2.3590963 3.0797269
2.0256362 2.3637671 3.0690112
2.0737631 2.3648224 3.0752442
2.1206686 2.3602803 3.0716515
2.1750352 2.3700044 3.0730171
2.2288318 2.3649645 3.0721009
2.2923517 2.3691812 3.0649645
2.3193195 2.3762825 3.060854
2.353158 2.3699696 3.0790484
-0.80542457 2.13095 3.148196
-0.798684 2.1305852 3.1124022
-0.80327159 2.1691854 3.115741
-0.79197061 2.1953034 3.1392431
-0.7921226 2.2223339 3.1247683
-0.8005479 2.2906859 3.1319597
-0.79532617 2.2757392 3.1114554
-0.77242225 2.3317552 3.1325927
-0.73568785 2.3372324 3.1025448
-0.67617708 2.3473501 3.1275861
-0.60296243 2.3412676 3.1313562
-0.57247186 2.3442523 3.1283216
-0.52961487 2.3400936 3.1263855
-0.4703851 2.3396668 3.1212149
-0.42535198 2.3357265 3.1211083
-0.36885086 2.3385415 3.139364
-0.33110884 2.3321102 3.1167371
-0.27535254 2.3313041 3.1338165
-0.22545274 2.3396404 3.1258788
-0.17194183 2.3288987 3.1227367
-0.12256293 2.3367462 3.1214747
-0.075237662 2.3382988 3.1384492
-0.030934781 2.3377697 3.1383259
0.022114627 2.3351755 3.1349068
0.07521043 2.3360107 3.1353714
0.12854277 2.3401334 3.1395242
0.18114761 2.3402386 3.1238627
0.2260205 2.3401618 3.1351671
0.26944351 2.3413069 3.1167209
0.32306853 2.3398848 3.1222286
0.37188205 2.3334692 3.123569
0.42705983 2.3373499 3.1283929
0.48359227 2.3387227 3.1183894
0.52083343 2.3375974 3.1295028
0.58489078 2.3401299 3.1326413
0.63062531 2.3442142 3.1310549
0.67390174 2.343621 3.1348343
0.72348469 2.3364913 3.1183145
0.77123284 2.3278387 3.1274593
0.82451171 2.3435659 3.1294651
0.88003635 2.3474908 3.1225967
0.92467523 2.3371315 3.1156516
0.96327311 2.3343163 3.1205566
1.012702 2.3441062 3.1217661
1.0963645 2.3482263 3.1042337
1.12243 2.346457 3.1321445
1.1795942 2.3462481 3.1240404
1.2196776 2.3435476 3.126657
1.2796357 2.3476715 3.1226218
1.3163223 2.3472037 3.1090784
1.468995 2.3476167 3.1337094
1.5056034 2.3461823 3.1166017
1.62798 2.3456597 3.1272998
1.6643028 2.3473206 3.1354458
1.7356274 2.3473399 3.1466928
-0.71431392 2.3549764 3.1312354
-0.67789948 2.3533473 3.1355326
-0.62889808 2.3550813 3.1343811
0.85473263 2.3523641 3.1352668
0.9264937 2.3508832 3.1163483
0.99075615 2.3566689 3.145741
1.1212835 2.3531947 3.1233001
1.3427367 2.3518343 3.1268134
1.3930709 2.3584764 3.1183271
1.4262704 2.362469 3.1220143
1.4588655 2.3558247 3.1298866
1.5393273 2.3547425 3.116178
1.5779181 2.3607812 3.1307735
1.6183099 2.3550084 3.1251206
1.6801033 2.3570254 3.1112673
1.7274405 2.3554254 3.1194007
1.7910539 2.3570685 3.1363206
1.8339481 2.3626156 3.124269
1.8744324 2.3559301 3.1227274
1.9257045 2.3608918 3.1197762
1.9843357 2.3628931 3.1150591
2.0081058 2.3580215 3.1170835
2.0724585 2.3660634 3.127533
2.1018162 2.3554268 3.1071854
2.1727297 2.3692029 3.1237686
2.2231698 2.3603356 3.1271141
2.2730265 2.3602195 3.1126537
2.3207743 2.3680067 3.1234612
-0.79671484 2.1371942 3.1967821
-0.79719716 2.1563134 3.1892405
-0.79240972 2.282974 3.1958494
-0.77852064 2.3246098 3.1778188
-0.72824937 2.3439307 3.1674767
-0.69018424 2.3466105 3.1600108
-0.57275957 2.3460374 3.1781654
-0.52792275 2.3471656 3.1859732
-0.48466206 2.3435438 3.1687443
-0.42296067 2.3428369 3.1783972
-0.37117422 2.3355994 3.1701028
-0.3261553 2.3421502 3.1655142
-0.29909745 2.3402009 3.1650126
-0.2361398 2.3356471 3.1630716
-0.16955718 2.3349981 3.1743121
-0.11708041 2.3358998 3.182652
-0.076091826 2.3473868 3.1853268
-0.031183071 2.3364837 3.1711178
0.022347277 2.3371294 3.1720579
0.080334313 2.3331447 3.1746054
0.12946303 2.3391099 3.1727073
0.17704153 2.3327284 3.173847
0.2189039 2.3322866 3.1769407
0.27244505 2.3334827 3.1717858
0.32318789 2.3350065 3.177114
0.38815665 2.338268 3.1546421
0.43694359 2.3428848 3.1911805
0.46782464 2.3421917 3.1725335
0.52722305 2.3436773 3.181283
0.57638174 2.3377829 3.1751723
0.62603623 2.3426652 3.1654129
0.6771239 2.3387942 3.1695507
0.72535723 2.3443923 3.1778712
0.82153887 2.3426993 3.1655312
0.87532616 2.3434184 3.1696544
0.9183197 2.349031 3.1715612
1.1680955 2.3462539 3.1568792
1.6589086 2.3475695 3.1824169
2.2465265 2.3439095 3.1503775
-0.70565015 2.3500035 3.1984172
-0.65868205 2.3631377 3.1885359
-0.62149668 2.3597431 3.1898448
-0.57583725 2.3585253 3.1950355
-0.48346287 2.3504374 3.1961875
-0.2112602 2.3564477 3.1927729
0.7913242 2.3609254 3.1977453
0.93733239 2.3508887 3.1696839
0.97872853 2.3533356 3.1817849
1.0277548 2.3604085 3.1794069
1.0758713 2.355664 3.1785314
1.1244644 2.3515506 3.1778913
1.1672783 2.3539109 3.1882854
1.227941 2.3540087 3.1892967
1.2764332 2.3573394 3.1784418
1.3315283 2.3603809 3.1777451
1.3738533 2.3623888 3.1793578
1.4277031 2.3599274 3.1796401
1.4823052 2.356256 3.1700509
1.5250692 2.3574944 3.1689618
1.5711775 2.355382 3.1786404
1.6226711 2.3560755 3.1685104
1.6807684 2.3512583 3.1787629
1.7104623 2.3523898 3.1670241
1.7681866 2.3608487 3.184356
1.8205895 2.3635428 3.1787031
1.8778701 2.3644161 3.1747503
1.9056876 2.3527091 3.1632912
1.9812677 2.3530927 3.1715412
2.0275381 2.3609629 3.160182
2.0839558 2.3715034 3.197288
2.1194301 2.3662982 3.1671023
2.1621792 2.3701797 3.1746097
2.2092052 2.378243 3.1872277
2.3182869 2.3761172 3.1676755
-0.79763663 2.2706938 3.23246
-0.771209 2.3343318 3.2253532
-0.72848225 2.346673 3.2263401
-0.46825197 2.3467035 3.2286758
-0.41396013 2.3482089 3.2367027
-0.377004 2.3446367 3.2352936
-0.32094944 2.342685 3.2195976
-0.27550754 2.3405182 3.2199409
-0.23545335 2.3422463 3.2337351
-0.18108946 2.3422556 3.236577
-0.13390419 2.3367565 3.2278309
-0.076364242 2.3382268 3.2078171
-0.027861234 2.3340645 3.2168076
0.022581661 2.3364327 3.2236271
0.073132738 2.3349082 3.2244747
0.13078971 2.3359842 3.2209699
0.17262556 2.3296921 3.2166002
0.22218078 2.3394709 3.2395401
0.33171386 2.3451233 3.2399974
0.36507514 2.3441463 3.2001388
0.42194241 2.3415639 3.2266629
0.48213589 2.3428431 3.2307055
0.51956594 2.3393717 3.2242296
0.5817737 2.3397806 3.228385
0.62460017 2.3442185 3.2221503
0.66830826 2.34496 3.2222834
0.71840692 2.3435328 3.223772
0.75642669 2.3478577 3.2229748
0.8225913 2.3443265 3.223439
0.87060624 2.3407755 3.2268085
0.98040062 2.3474462 3.2237282
1.0384233 2.3476872 3.2349663
1.0752189 2.3466833 3.2235899
1.1204607 2.3439913 3.2068453
1.2256585 2.3488319 3.2221999
1.3871882 2.346221 3.2459621
1.4743303 2.3484063 3.2170534
1.5630604 2.3479793 3.2241251
1.6143475 2.3473787 3.2457442
-0.6774618 2.358732 3.2303691
-0.6274941 2.3641644 3.2314837
-0.5791868 2.354105 3.224582
-0.52463835 2.3549025 3.2331889
-0.46950948 2.352921 3.2371864
-0.43320343 2.3538916 3.2426298
-0.38445675 2.3529546 3.2104173
-0.22146091 2.3513355 3.2204623
-0.17616887 2.3501265 3.221041
0.27568564 2.350467 3.2159719
0.31421801 2.3501925 3.2484417
0.37316543 2.3533397 3.2388802
0.40281159 2.3539903 3.2101099
0.55127287 2.3514421 3.2248785
0.62624627 2.3529637 3.2282
0.78746867 2.3584654 3.2321806
0.84956944 2.3519268 3.2099731
0.91830683 2.3589308 3.2299969
0.95120049 2.357841 3.2333291
1.0209138 2.3535113 3.2191234
1.125556 2.354599 3.2212968
1.1744243 2.3526897 3.2305706
1.2196397 2.3555124 3.2209339
1.2833186 2.3564289 3.2288284
1.3197076 2.3564544 3.22346
1.3716798 2.355068 3.2237442
1.4272261 2.3568058 3.2202961
1.4778024 2.3539507 3.2247155
1.5329825 2.3539448 3.2172577
1.5874972 2.3557084 3.2267523
1.6295241 2.3558154 3.2201347
1.6783137 2.3555455 3.2317693
1.7290344 2.3584318 3.213758
1.7824829 2.3581238 3.2341094
1.8326846 2.3613837 3.2312233
1.8736068 2.3649924 3.2330501
1.9317605 2.3772252 3.241086
1.965827 2.360873 3.226301
2.0243127 2.3604565 3.2103148
2.0795929 2.3692684 3.2459922
2.1297858 2.3689358 3.2167728
2.2894287 2.3680665 3.2239001
-0.80039966 2.1961532 3.2885299
-0.80022472 2.2139759 3.2781031
-0.79788738 2.2257581 3.2587063
-0.77165741 2.3296735 3.2684135
-0.72269368 2.3392386 3.2538593
-0.67838907 2.3453383 3.2702777
-0.56361479 2.3469765 3.2532356
-0.52749741 2.3493729 3.2614286
-0.47182548 2.3462193 3.2637844
-0.42558786 2.3438649 3.2655377
-0.38831472 2.3399825 3.2637548
-0.30636665 2.3421772 3.2737725
-0.2696923 2.341233 3.2749741
-0.22341093 2.3357193 3.2700031
-0.17860739 2.3460772 3.2867115
-0.1184422 2.3380206 3.2685986
-0.068479046 2.3465705 3.2763295
0.022841133 2.3350534 3.2750313
0.077660821 2.3362522 3.2760391
0.12351483 2.3421168 3.2831903
0.16918971 2.3412638 3.2803695
0.22419335 2.3427536 3.2798584
0.27320358 2.3384035 3.2828147
0.32518315 2.3453846 3.2768812
0.37104473 2.3457901 3.2735708
0.42603835 2.3396978 3.2717636
0.47417998 2.336271 3.2616565
0.52460957 2.3428221 3.2800839
0.57635516 2.3428185 3.2823765
0.62379229 2.3478618 3.282721
0.66692638 2.3426888 3.2833912
0.72530234 2.347477 3.2653749
0.76057529 2.3422797 3.2514265
0.82437772 2.3479936 3.2850621
0.87136269 2.3397975 3.2823563
0.98886055 2.3440027 3.2810149
1.0263765 2.3440185 3.2716544
1.0755646 2.34442 3.2692318
1.1866684 2.3457503 3.2697163
1.2241409 2.3447027 3.2770288
1.2635754 2.3467743 3.2884719
1.3005819 2.3447416 3.2733202
1.3666817 2.3409998 3.2868659
1.5944766 2.3466592 3.252852
-0.66953343 2.355669 3.2680535
-0.62777734 2.3595154 3.2708981
-0.5830844 2.3515744 3.2570186
-0.52778542 2.3506732 3.2632778
-0.36321527 2.3549509 3.2871573
-0.33501947 2.3506958 3.2835317
-0.068346702 2.353204 3.2640698
-0.013729579 2.351022 3.2974939
0.27861935 2.3525631 3.2633066
0.55557817 2.3514233 3.2607267
0.62913567 2.3518062 3.2505546
0.72646481 2.3512146 3.270618
0.78564668 2.3528962 3.2809582
0.8006162 2.3515916 3.2571931
0.89964586 2.3500144 3.2720902
0.93117905 2.3590412 3.2782857
0.96536094 2.3525267 3.2735298
1.1299022 2.3550844 3.2804718
1.1581175 2.3547931 3.2719798
1.2652829 2.3513126 3.2539535
1.3365333 2.3577585 3.2818952
1.36107 2.3505082 3.2619979
1.4266005 2.3545246 3.2661982
1.472476 2.3568456 3.2742336
1.5197875 2.3554099 3.253696
1.5734062 2.3586197 3.2813699
1.6739855 2.3573079 3.2817929
1.7425722 2.3705759 3.2740843
1.8094423 2.3608155 3.2726765
2.0376759 2.36761 3.2659898
-0.79722768 2.2759497 3.3356998
-0.77972758 2.3203921 3.3215821
-0.73596746 2.3410385 3.3169143
-0.67380875 2.3475218 3.3243554
-0.64644247 2.3447897 3.3121004
-0.53529102 2.3468418 3.3308094
-0.47348136 2.3449016 3.3261123
-0.4239037 2.3486643 3.3460844
-0.37656844 2.3440166 3.3438716
-0.32837516 2.3428733 3.3241143
-0.27261001 2.3390539 3.3263102
-0.22587229 2.3426819 3.3159292
-0.19238521 2.340431 3.3266087
-0.11537398 2.345691 3.3246808
-0.069143474 2.3439534 3.3232124
-0.019963402 2.3411112 3.3318832
0.023024652 2.332154 3.3160954
0.078470014 2.3447435 3.3241794
0.12436161 2.3396273 3.3158383
0.17031038 2.3385561 3.3126955
0.21682513 2.3435009 3.3175979
0.28180099 2.3378532 3.3240166
0.32234386 2.3389542 3.3190207
0.37878042 2.3420641 3.3132739
0.41244656 2.3453197 3.3240001
0.47749591 2.3460269 3.3181124
0.58163208 2.3457186 3.3230524
0.61772263 2.3413923 3.3116121
0.69320136 2.3453736 3.3054867
0.71462178 2.3452744 3.3206553
0.84733152 2.3413358 3.3088956
0.98568928 2.3399329 3.314899
1.0251106 2.3438187 3.3111174
1.0775468 2.3455939 3.320312
1.1293987 2.3453193 3.325995
1.1505409 2.3495779 3.3266988
-0.71444416 2.3543329 3.3148444
-0.61985183 2.3590982 3.3181515
-0.57372218 2.3609741 3.3274543
-0.5220198 2.355418 3.3200083
-0.48692536 2.3566093 3.3135552
-0.42197779 2.3565948 3.3205802
-0.37501746 2.3529153 3.3198161
-0.1618917 2.3510244 3.3307304
-0.14337909 2.3509295 3.3312657
-0.03218323 2.3577223 3.3067887
0.078171887 2.3537505 3.3006182
0.24545775 2.3529439 3.3294563
0.45006844 2.3575299 3.319077
0.53665727 2.3524384 3.3388019
0.63911831 2.351769 3.3234744
0.73199815 2.3504574 3.3062222
0.76223528 2.3574913 3.3110299
0.82411778 2.3552489 3.3342543
0.9353317 2.3507552 3.3038161
1.048004 2.352802 3.318995
1.2957219 2.3514199 3.3271384
1.501773 2.353214 3.3005717
1.5925602 2.3530524 3.3087792
1.7399713 2.3741889 3.3278067
1.825316 2.3615019 3.3136544
-0.7997036 2.2455697 3.3660724
-0.78709316 2.272541 3.3908429
-0.77336764 2.3446469 3.3862288
-0.50214118 2.3473301 3.3731613
-0.46437275 2.346205 3.3757842
-0.43654209 2.3478613 3.3811145
-0.37049136 2.3458006 3.3842919
-0.32200944 2.3438647 3.3667378
-0.2949909 2.3422008 3.3849096
-0.21921964 2.3428326 3.3717339
-0.17235136 2.3396418 3.3692656
-0.12586513 2.3415582 3.3736467
-0.076023191 2.3423507 3.3698092
-0.032441489 2.3396142 3.3540952
0.0046831369 2.3386574 3.3528459
0.079123534 2.3410313 3.3647373
0.230039 2.3475077 3.3965647
0.32204774 2.3337224 3.3706551
0.4912332 2.3396711 3.3632991
0.51359624 2.3375633 3.3954444
0.62467653 2.3489468 3.3593824
0.78072745 2.3475115 3.3697965
0.80988145 2.3497379 3.3676307
0.90247804 2.3499463 3.3885515
1.0340827 2.3478093 3.395277
1.0812069 2.3457239 3.3801787
1.1361926 2.3402348 3.3569353
-0.75437915 2.3541279 3.3843591
-0.72097826 2.3545809 3.3779471
-0.68092912 2.3532457 3.3697309
-0.62598169 2.3541512 3.3667421
-0.58011562 2.359091 3.3804748
-0.5329349 2.3588796 3.3863225
-0.48661456 2.3630948 3.3979933
-0.40933374 2.3534095 3.3918915
-0.3338722 2.3521814 3.3965962
-0.051254164 2.3510547 3.3703129
0.042018421 2.3511894 3.3706126
0.21944015 2.3534746 3.3684921
0.27637899 2.3514647 3.3809781
0.55094975 2.3549871 3.3784258
0.70066339 2.3517947 3.3516526
0.87379169 2.3539333 3.374299
1.0186932 2.35373 3.3677866
1.0564893 2.3527133 3.3567955
1.1045729 2.3545678 3.3878851
1.2314155 2.3565178 3.3970606
1.6069648 2.3591633 3.3810244
-0.79462802 2.2657173 3.4382482
-0.76891971 2.3314679 3.4258695
-0.74043185 2.3415275 3.426517
-0.66284621 2.3470297 3.4277592
-0.62339717 2.3482926 3.4225528
-0.35498512 2.3485842 3.4274809
-0.32627821 2.3464248 3.426527
-0.20245688 2.3364811 3.4194014
-0.18436158 2.3459256 3.434056
-0.12768041 2.3470242 3.4376769
-0.070522301 2.3422983 3.4132111
0.023584697 2.3450441 3.4177833
0.22182953 2.341207 3.4254184
0.26997107 2.3494606 3.4348588
0.30722335 2.3446426 3.4253345
0.42334583 2.3406842 3.4480278
0.49665001 2.346535 3.4106822
0.52836746 2.3423631 3.4391751
0.73815429 2.3436227 3.4105115
0.77548248 2.3445365 3.4184666
0.82599354 2.3496728 3.4036686
0.87009019 2.346489 3.429852
0.96393669 2.3450756 3.4481325
1.0316414 2.3449299 3.4321859
1.0810773 2.3470528 3.4233117
1.1378219 2.3447154 3.4464743
1.1764414 2.3438146 3.4345036
1.306152 2.3469183 3.444325
1.5909653 2.3497112 3.4397459
1.6109985 2.349663 3.4319055
-0.71209699 2.3522036 3.4277301
-0.67443436 2.355756 3.4131072
-0.62297839 2.3534443 3.4173889
-0.57394695 2.3535991 3.4115074
-0.52736849 2.3574545 3.4231122
-0.47000721 2.3555677 3.4268913
-0.43209106 2.3560386 3.4315295
-0.37481105 2.3541815 3.4340699
-0.26936421 2.3544741 3.4232903
-0.071028233 2.3508451 3.4445553
-0.033130445 2.3514788 3.4459321
0.11761814 2.352092 3.4077294
