ply
format ascii 1.0
comment PCL generated
element vertex 1437
property float x
property float y
property float z
element camera 0
property float view_px
property float view_py
property float view_pz
property float x_axisx
property float x_axisy
property float x_axisz
property float y_axisx
property float y_axisy
property float y_axisz
property float z_axisx
property float z_axisy
property float z_axisz
property float focal
property float scalex
property float scaley
property float centerx
property float centery
property int viewportx
property int viewporty
property float k1
property float k2
end_header
0.053152159 -0.5018698 0.85026467
-1.0547872 -0.46644068 0.86650997
-1.0433962 -0.482952 0.88222867
-0.85550481 -0.46616921 0.88913608
-0.82149982 -0.47286573 0.87654287
-0.77379525 -0.47408122 0.87441093
-0.7248413 -0.4748868 0.87342668
-0.67437857 -0.47440967 0.87263054
-0.62415355 -0.47564307 0.87116855
-0.57404613 -0.47637939 0.87071019
-0.52583241 -0.47705618 0.86977935
-0.475389 -0.47677583 0.86995178
-0.42382553 -0.47690633 0.86967039
-0.37456042 -0.47725013 0.86980307
-0.32420653 -0.4766748 0.87001908
-0.27380595 -0.47671625 0.8698625
-0.2247086 -0.47694898 0.86981398
-0.17394802 -0.47644228 0.86968714
-0.12510101 -0.47698379 0.86934656
-0.076196976 -0.47640127 0.86913848
-0.026177403 -0.47576928 0.86927527
0.023905383 -0.47543269 0.86869681
0.074029446 -0.47580925 0.86733031
0.12401198 -0.4763971 0.866458
0.17546012 -0.47507027 0.86507517
0.22470871 -0.47387555 0.86375213
0.27307448 -0.47240511 0.86347908
0.32319576 -0.47186932 0.86175728
0.37495905 -0.47095346 0.86070073
0.4253875 -0.47077748 0.86059529
0.47392523 -0.47028568 0.86067766
0.52326584 -0.46920207 0.86035997
0.57536542 -0.46995321 0.86059433
0.62686843 -0.46896434 0.86036575
0.67400438 -0.46972516 0.85968846
0.72272915 -0.4675644 0.85920274
0.77502924 -0.46507499 0.85781902
0.82471955 -0.46218166 0.85571206
0.87476736 -0.46048266 0.85401195
0.92032123 -0.45732707 0.85209417
-1.0603114 -0.42593235 0.87480062
-0.85163951 -0.42609298 0.88937819
-0.82301491 -0.42557991 0.88378054
-0.77389544 -0.42483681 0.88269603
-0.72365248 -0.42554194 0.88269979
-0.67465663 -0.42453483 0.88275945
-0.62525123 -0.42480448 0.8828572
-0.5754053 -0.42482728 0.88248062
-0.52472061 -0.4245522 0.88286072
-0.47516713 -0.42569801 0.88373983
-0.42479473 -0.42495373 0.8839106
-0.37501681 -0.42458487 0.88447553
-0.32539582 -0.42502743 0.8850804
-0.2749919 -0.4248293 0.88518423
-0.22432396 -0.42424932 0.88525897
-0.17476127 -0.42541444 0.88496262
-0.12620382 -0.42465937 0.88492042
-0.076206252 -0.42533574 0.88486344
-0.026090082 -0.42439711 0.8849687
0.023830943 -0.42407644 0.88435054
0.073852658 -0.42474586 0.88378727
0.12418769 -0.42594352 0.8822636
0.17494549 -0.42500812 0.88070148
0.22469975 -0.42552128 0.87887371
0.27465767 -0.42449877 0.8779307
0.32419375 -0.42502427 0.87596303
0.37412468 -0.42589927 0.87452108
0.42513075 -0.42482224 0.87381274
0.47544715 -0.42499414 0.87358803
0.52543527 -0.42572349 0.87274635
0.57549518 -0.4253836 0.87249696
0.62545824 -0.424992 0.87202549
0.67546159 -0.42557541 0.87095517
0.7248469 -0.42472398 0.86938512
0.77485049 -0.42476422 0.8661086
0.82576978 -0.42470202 0.86304957
0.87508577 -0.42464778 0.85951567
0.92295164 -0.42391199 0.85519642
0.96749562 -0.42178026 0.85301208
-1.0662522 -0.37637594 0.87506104
-0.85472494 -0.38443419 0.8935833
-0.82206261 -0.37461883 0.88656008
-0.77356315 -0.37470591 0.88539451
-0.72517329 -0.37574068 0.88554007
-0.67476261 -0.37506443 0.88498199
-0.62569642 -0.37434191 0.88550228
-0.57519001 -0.37494022 0.88578081
-0.52466446 -0.37490228 0.88575423
-0.47421017 -0.37492836 0.88667566
-0.42420116 -0.37501404 0.88717169
-0.37407014 -0.37444776 0.88776994
-0.32390431 -0.37500224 0.88889533
-0.27385318 -0.37462196 0.88918102
-0.22489385 -0.37502307 0.88982558
-0.17546777 -0.37452266 0.8899259
-0.12550323 -0.37455058 0.88994807
-0.075416878 -0.37594914 0.89004678
-0.02582562 -0.3751643 0.89014024
0.023592565 -0.37493068 0.88963562
0.073798858 -0.37498084 0.88896233
0.12457587 -0.37582147 0.88797349
0.1735265 -0.37451178 0.88676417
0.2249627 -0.3756586 0.88504231
0.27474451 -0.37462655 0.88396233
0.32477421 -0.37429869 0.8825624
0.3746174 -0.37494895 0.88081563
0.42448694 -0.37535906 0.87950826
0.4744986 -0.37416381 0.87834197
0.52480239 -0.37520257 0.87707037
0.57441175 -0.375422 0.87627822
0.62396836 -0.37471536 0.87533569
0.6739049 -0.37504438 0.87394041
0.72347534 -0.37520701 0.87190884
0.77580994 -0.37483039 0.86878312
0.82499176 -0.37370184 0.86535716
0.87422544 -0.37494677 0.86119097
0.92541546 -0.37316912 0.8573072
0.97341281 -0.37562484 0.85309482
1.0157536 -0.37597716 0.8511222
-1.0703394 -0.32505637 0.87667185
-0.85657138 -0.33136976 0.89491057
-0.82470053 -0.32446614 0.88751012
-0.77574915 -0.32524893 0.88575298
-0.72421652 -0.32377869 0.88465822
-0.67400074 -0.32482028 0.88466477
-0.62367463 -0.32499164 0.88449085
-0.5746243 -0.32515436 0.88488865
-0.52403778 -0.32451028 0.88521051
-0.47457379 -0.32435676 0.88622952
-0.42491764 -0.32470605 0.88706368
-0.37473279 -0.32452467 0.88777506
-0.3246634 -0.32481599 0.88901985
-0.27519685 -0.32501993 0.88967729
-0.22460073 -0.32421172 0.89048773
-0.17390983 -0.32534263 0.89095342
-0.12322094 -0.32469755 0.8910802
-0.075009748 -0.3255516 0.89132768
-0.025785854 -0.32579878 0.89145845
0.024689898 -0.32570139 0.89129001
0.076306656 -0.32561484 0.89057016
0.12553607 -0.32452852 0.88980186
0.1757925 -0.32461718 0.88868517
0.22557299 -0.32427999 0.8874802
0.27489647 -0.32543862 0.88639319
0.32448024 -0.32458028 0.88463557
0.37486005 -0.32461748 0.8829546
0.42495817 -0.32517418 0.88116056
0.47458714 -0.32498893 0.87953687
0.52415597 -0.32522735 0.87769973
0.57471704 -0.32451242 0.87628508
0.62554115 -0.32529202 0.87490278
0.67530364 -0.32401621 0.87264806
0.72504753 -0.3243784 0.8702389
0.77476776 -0.32501253 0.8671295
0.82469034 -0.32409796 0.86437279
0.8726573 -0.32556847 0.86065108
0.92399234 -0.32508749 0.85678196
0.97067261 -0.32826868 0.85292506
1.0101202 -0.32303843 0.85170579
-1.0730581 -0.27498585 0.87468684
-0.85433912 -0.27924049 0.89412975
-0.82153189 -0.2751008 0.88633716
-0.77400696 -0.27428111 0.88473421
-0.7248143 -0.27402195 0.88323569
-0.67547822 -0.27573258 0.88289177
-0.62616897 -0.27516723 0.88274038
-0.57516915 -0.27510378 0.88288462
-0.52459365 -0.27463463 0.88331586
-0.47502723 -0.2754063 0.88421679
-0.42478797 -0.27396026 0.88484937
-0.37455794 -0.27460635 0.88611031
-0.32503161 -0.27472362 0.88735759
-0.27479577 -0.27547652 0.88830167
-0.2250054 -0.27439976 0.88955879
-0.1755323 -0.27455375 0.88988572
-0.12578273 -0.27553496 0.89034814
-0.074285038 -0.27480483 0.89016688
-0.024915213 -0.27564281 0.89036053
0.025208015 -0.27595028 0.89007413
0.075151943 -0.27499697 0.88978022
0.12438021 -0.27510098 0.88934016
0.1743872 -0.27423006 0.88833851
0.22363786 -0.27501678 0.88723904
0.27555197 -0.27499127 0.88643247
0.32511836 -0.27488372 0.88481879
0.3756009 -0.27546626 0.88253605
0.42515561 -0.27464426 0.88028282
0.47482917 -0.27508023 0.8779406
0.52419239 -0.27524659 0.87624842
0.57393146 -0.27442801 0.8738867
0.62447715 -0.27450436 0.87184101
0.67424762 -0.27413708 0.86958766
0.72375137 -0.27510813 0.86733311
0.7754131 -0.27510035 0.86473572
0.82396215 -0.27411047 0.86071831
0.8736605 -0.27483684 0.85738587
0.92210782 -0.27433836 0.85351449
0.96870881 -0.28383809 0.85136586
-1.0731844 -0.22533768 0.87399828
-0.85398006 -0.2264013 0.89337826
-0.82301021 -0.22394036 0.88705349
-0.77472502 -0.2258494 0.88511473
-0.72502309 -0.22513948 0.88280201
-0.67414653 -0.22486733 0.88019037
-0.62410462 -0.22532034 0.87963796
-0.57443762 -0.22535138 0.88000745
-0.52476758 -0.22512266 0.8805092
-0.4749935 -0.2247254 0.88135916
-0.42398635 -0.22405884 0.88243073
-0.37476933 -0.22513893 0.8832413
-0.32514134 -0.22429396 0.88435
-0.27458766 -0.22519673 0.88587505
-0.22428347 -0.22493535 0.88683742
-0.17484142 -0.22385632 0.88724655
-0.12491549 -0.22608759 0.88761306
-0.074717075 -0.22525083 0.88729453
-0.024844384 -0.22483228 0.88750535
0.024872975 -0.22476874 0.88724828
0.074732319 -0.225209 0.88714784
0.12480535 -0.22584392 0.88659036
0.17579687 -0.22498126 0.88579494
0.22530837 -0.22416005 0.88490385
0.27450114 -0.22474498 0.88396007
0.32528368 -0.2252218 0.88050157
0.3746286 -0.22468117 0.87853813
0.4243772 -0.22434664 0.8775298
0.47434163 -0.22516745 0.8751545
0.52472627 -0.22563051 0.87283838
0.57438171 -0.22414164 0.8704564
0.62461472 -0.22435182 0.86792541
0.67503053 -0.22506535 0.86536115
0.72469676 -0.22478107 0.86266577
0.77368337 -0.22532836 0.85982645
0.82351178 -0.22471581 0.85671556
0.87222451 -0.22549354 0.85349566
0.91495866 -0.23105733 0.8519215
0.95812988 -0.24878806 0.85135859
-1.0627363 -0.18083423 0.8830834
-1.0457699 -0.15950686 0.86028403
-0.8552326 -0.17266089 0.8931765
-0.82376873 -0.17454998 0.88480657
-0.77450734 -0.17552197 0.88287795
-0.72537321 -0.17454864 0.88019836
-0.67645836 -0.1749454 0.87745565
-0.6248976 -0.17501548 0.87712759
-0.57429332 -0.17521191 0.87750024
-0.52437687 -0.17477012 0.87756705
-0.47427905 -0.17471445 0.87824088
-0.42538241 -0.17400536 0.87900722
-0.37431806 -0.17505075 0.87982243
-0.32510424 -0.1748067 0.8809396
-0.27501515 -0.17514203 0.88237661
-0.2254338 -0.17423768 0.88310814
-0.17504227 -0.17468938 0.88353199
-0.12499933 -0.17578754 0.88393247
-0.074337631 -0.17582747 0.88336873
-0.025155576 -0.17468452 0.88362443
0.024573943 -0.17507593 0.88346702
0.075585894 -0.17508781 0.88316965
0.12523741 -0.17641319 0.88301319
0.17480507 -0.17439216 0.8820613
0.22507121 -0.17382327 0.88080692
0.27507177 -0.17588948 0.88034636
0.32446191 -0.17443503 0.87517661
0.37461686 -0.17426832 0.87411869
0.42406586 -0.1746214 0.87260121
0.47399041 -0.17472787 0.87057596
0.52481049 -0.17525987 0.86790925
0.57473272 -0.17434916 0.86555266
0.62478274 -0.17406505 0.86259556
0.67419326 -0.17557392 0.86049873
0.72402459 -0.17492934 0.85736966
0.77482677 -0.17558315 0.85481685
0.8211289 -0.17735077 0.85219473
0.85981512 -0.18588242 0.85146552
0.92002237 -0.18551174 0.85046983
-1.0523796 -0.12308888 0.88400495
-1.0466183 -0.12577818 0.86280805
-0.85436469 -0.1413427 0.89191449
-0.82154596 -0.12349056 0.88037705
-0.77514732 -0.1260259 0.87837023
-0.72476518 -0.1248686 0.87655962
-0.67478502 -0.12467511 0.87373728
-0.62543792 -0.12497202 0.87392294
-0.57510179 -0.12507947 0.87381715
-0.52420706 -0.12499441 0.87417942
-0.47510958 -0.124255 0.87456948
-0.42465377 -0.12530312 0.8756339
-0.37495551 -0.12460333 0.87602907
-0.32412618 -0.12415908 0.87724185
-0.27473629 -0.12637708 0.87851697
-0.22483797 -0.12488873 0.87893265
-0.17469327 -0.12380186 0.87927639
-0.12431196 -0.12539195 0.87924451
-0.075069755 -0.12480307 0.87870616
-0.026428549 -0.12485991 0.87879539
0.024385335 -0.12463347 0.87844092
0.075087056 -0.12477112 0.87847036
0.12528542 -0.12467115 0.87803763
0.1745844 -0.12486447 0.87744111
0.22467259 -0.12438462 0.87577033
0.2749998 -0.12511699 0.87248051
0.3257775 -0.12571187 0.87001795
0.37507188 -0.12372801 0.86935598
0.42475516 -0.12536877 0.86778873
0.4757356 -0.12487629 0.86492693
0.52466196 -0.12421141 0.8625102
0.57434994 -0.12532316 0.8598271
0.62442744 -0.1239619 0.85694605
0.67482251 -0.1257288 0.85416329
0.72472209 -0.1286016 0.8528043
0.7663703 -0.13736737 0.85159242
0.81996858 -0.14317827 0.85005319
-1.0556976 -0.076256387 0.87382913
-1.047457 -0.073526427 0.89230061
-0.85642797 -0.068826474 0.89092398
-0.81908846 -0.074724413 0.87631166
-0.77217281 -0.075094014 0.87463832
-0.7248404 -0.073914014 0.87266272
-0.6750561 -0.075762898 0.87039387
-0.62489724 -0.075509623 0.87038875
-0.57476372 -0.074633799 0.87045234
-0.52459341 -0.073836558 0.8705371
-0.47451118 -0.074497022 0.87091893
-0.42513368 -0.076862045 0.87181306
-0.37504178 -0.075216554 0.87216413
-0.32475477 -0.073595688 0.8728686
-0.2749359 -0.075324759 0.87411767
-0.22543997 -0.074788831 0.87470084
-0.17479791 -0.074166328 0.87466794
-0.12483855 -0.073990293 0.87434107
-0.076841354 -0.073419787 0.87365359
-0.030629242 -0.078109108 0.87520635
0.02715476 -0.080524556 0.87587696
0.076813646 -0.075347431 0.8733297
0.12515624 -0.073600397 0.87291723
0.17486243 -0.073549539 0.8720277
0.22498125 -0.074837036 0.87077326
0.27578962 -0.075193465 0.86911434
0.3245126 -0.074122295 0.86544418
0.37516639 -0.074882232 0.86408776
0.4251011 -0.075213417 0.86186802
0.47454983 -0.076509148 0.85967565
0.5252105 -0.073429942 0.8562519
0.57400382 -0.075783156 0.85416812
0.62246299 -0.08096949 0.85248864
0.67088252 -0.091652758 0.85131896
0.72793996 -0.095619999 0.85086769
-1.056416 -0.025730385 0.86908489
-1.0461854 -0.027939545 0.89304906
-0.82298326 -0.027395062 0.87461197
-0.77502626 -0.025271624 0.87144446
-0.72426021 -0.025595045 0.86889291
-0.67372864 -0.027270189 0.86670649
-0.62438369 -0.025673315 0.86692679
-0.57390493 -0.025901075 0.86716163
-0.52504694 -0.025390854 0.86722505
-0.47556421 -0.026430773 0.86723083
-0.42529318 -0.026574316 0.86769384
-0.37453881 -0.026315618 0.86767989
-0.32432643 -0.026229121 0.86851728
-0.27368289 -0.025609814 0.86943984
-0.22393192 -0.025265353 0.86984754
-0.17498252 -0.025642261 0.86976403
-0.12586647 -0.024690125 0.86959672
-0.079499893 -0.025797833 0.86968619
-0.045854643 -0.032299545 0.87295008
0.042925678 -0.046034258 0.87604392
0.082816653 -0.031774737 0.87006754
0.12426702 -0.025126871 0.86794847
0.17505164 -0.025155403 0.86685038
0.2247844 -0.025323775 0.86536604
0.27313355 -0.025151012 0.86104655
0.32386228 -0.025892232 0.86028969
0.37496799 -0.025740778 0.85869199
0.42530605 -0.026391111 0.85622334
0.47484097 -0.028702866 0.85351962
0.52097619 -0.032457963 0.85167825
0.56381774 -0.039920654 0.85053545
-1.0587897 0.023085428 0.86891353
-1.045882 0.028000349 0.89001685
-0.82150477 0.024432676 0.87110597
-0.77546835 0.023169 0.86823118
-0.72560477 0.023162704 0.86562246
-0.67501599 0.024780106 0.86299753
-0.62468439 0.024028355 0.86343753
-0.5746482 0.023515718 0.86351895
-0.52494645 0.023647172 0.86333442
-0.47367027 0.024258969 0.86305171
-0.42473033 0.023908351 0.86316156
-0.37446055 0.024437195 0.86311924
-0.32483593 0.023955813 0.86348236
-0.27604431 0.023462819 0.86449069
-0.22465046 0.023208758 0.86488885
-0.17449228 0.0232099 0.86502546
-0.12568103 0.024917461 0.86450732
-0.081260525 0.023732534 0.86536562
-0.048970554 0.016738629 0.87283266
0.043614224 1.1897613e-05 0.89086288
0.090361103 0.01188331 0.86765057
0.12528634 0.02352746 0.86275572
0.17365538 0.02466156 0.86124313
0.22531947 0.023239128 0.85957992
0.27548742 0.023082674 0.85628074
0.32698402 0.022462832 0.85412353
0.3732453 0.020391958 0.85337758
0.42089421 0.012926542 0.85192037
0.46809784 0.0025850206 0.85086232
-1.0533556 0.074811697 0.8665098
-1.0470279 0.078616686 0.88244343
-0.82177949 0.075407147 0.86881495
-0.77365494 0.075112015 0.86523145
-0.72546935 0.073808417 0.86192906
-0.67628598 0.075763039 0.85959226
-0.625871 0.074675456 0.85975146
-0.57608169 0.075330406 0.85962307
-0.52456766 0.073897064 0.85929954
-0.47326192 0.075825773 0.85870606
-0.42471015 0.075477935 0.85862941
-0.37571698 0.075113654 0.85806513
-0.32571259 0.075284511 0.85855407
-0.27508748 0.074370243 0.85949594
-0.22516942 0.073153302 0.86024898
-0.17498055 0.075013995 0.85954338
-0.12531866 0.076493837 0.8591339
-0.081970893 0.07668148 0.86002928
0.093875349 0.083144002 0.86521083
0.12821516 0.076813214 0.85706711
0.17517053 0.076035455 0.85528928
0.22405314 0.074014716 0.85408026
0.27278066 0.069535211 0.85209072
0.3257311 0.057037842 0.85084879
0.36379328 0.0517193 0.8504439
-1.0515333 0.11077273 0.86718649
-1.0455432 0.12783147 0.87880981
-0.85242879 0.11879191 0.88186884
-0.8181057 0.12366767 0.86477345
-0.77525944 0.12480772 0.86198372
-0.72344375 0.12507279 0.85874295
-0.67570889 0.12570594 0.85650575
-0.6254493 0.12471896 0.85617268
-0.57648891 0.12474044 0.8556
-0.52478838 0.12469169 0.85517007
-0.47288603 0.12580208 0.85445148
-0.42430672 0.12447806 0.85406685
-0.3766827 0.12520848 0.85373533
-0.32487747 0.12520161 0.85347486
-0.27475861 0.12521355 0.85438645
-0.22557463 0.12375692 0.85493362
-0.17567563 0.12573612 0.85429585
-0.12508251 0.12586829 0.85379684
-0.081856109 0.12622795 0.85429007
-0.048687734 0.13058722 0.86146319
0.094473742 0.13316394 0.85655755
0.12678505 0.11854009 0.85210955
0.1732866 0.11177324 0.85119754
0.21985704 0.10577871 0.85086071
0.28024578 0.11708778 0.85127145
-1.0526389 0.16874304 0.88137215
-1.0449277 0.17630331 0.87682676
-0.81830138 0.17466293 0.86319804
-0.77317643 0.17469965 0.85906571
-0.72396779 0.17425665 0.85602736
-0.67431819 0.17593528 0.85370761
-0.62417102 0.17382151 0.85271221
-0.57313079 0.17408299 0.8524251
-0.52441543 0.17024735 0.85180497
-0.47442105 0.16833559 0.85134751
-0.42613241 0.16165355 0.85123533
-0.37821087 0.1620231 0.85083491
-0.32184488 0.15838954 0.85079587
-0.27570957 0.16203941 0.85091919
-0.22806317 0.1588967 0.85106575
-0.17473751 0.15733732 0.85101706
-0.1247016 0.15546609 0.85079938
-0.07144545 0.1561088 0.85131371
-0.036867071 0.17319779 0.85557032
0.084632173 0.1612601 0.8538878
0.10406195 0.15248483 0.85064679
-1.0532633 0.23478644 0.8938753
-1.0424595 0.22298694 0.87835181
-0.8171711 0.21784732 0.86210269
-0.77433199 0.21551418 0.85943013
-0.72467226 0.21650493 0.85575831
-0.67563081 0.21414915 0.85306495
-0.62519068 0.220083 0.8532896
-0.58081841 0.22679275 0.85550112
-0.52524203 0.21697564 0.85364062
-0.47113323 0.22943649 0.85577202
-0.42387569 0.23245835 0.85260844
-0.32425785 0.24381793 0.85590041
-0.29777268 0.24621178 0.86481547
-0.16341919 0.24467075 0.85080409
-0.14028277 0.24476998 0.85396111
-0.007232029 0.20715235 0.85182661
0.031523433 0.22008353 0.8508082
0.30953786 0.24944285 0.85664284
-1.1109409 0.29153085 0.85668367
-1.051128 0.27726683 0.87775582
-1.0453279 0.27433357 0.87934834
-0.61758924 0.27113467 0.88099891
-0.59527415 0.25842142 0.87551087
-0.32018 0.25833881 0.88249844
-0.28275093 0.26284233 0.87782341
-0.085447386 0.26118469 0.88652122
0.071170799 0.26275751 0.89060742
0.18651481 0.25637463 0.87025517
0.22670224 0.2558876 0.86131746
0.28756967 0.26842576 0.8720451
0.31836212 0.27728289 0.87229478
0.35629779 0.26646334 0.88076448
0.4925909 0.28310359 0.8806591
0.5219987 0.27825144 0.87600601
0.5735752 0.27800894 0.88277787
0.61957479 0.27660388 0.88235497
0.66798133 0.27978268 0.89134115
-1.1260918 0.32441342 0.86055988
-1.0517009 0.33440652 0.8816781
-1.0444146 0.32257274 0.87831199
0.29882053 0.31580389 0.87457329
0.31390831 0.32557362 0.87351143
0.49180874 0.32826692 0.8839311
0.52221441 0.32078162 0.8859154
0.57134485 0.31286162 0.89297265
0.62253892 0.30439344 0.8957032
0.65352482 0.30046225 0.89564574
-1.1571553 0.37947392 0.87064457
-1.1352859 0.37680244 0.8653596
-1.0510283 0.38909477 0.88613069
-1.0454816 0.3722384 0.87940621
0.005719515 0.39471641 0.89953506
0.31342921 0.36796731 0.87181073
0.48319 0.35670054 0.89908588
0.50066251 0.35123637 0.89999282
-1.1615583 0.41774169 0.87000346
-1.1378137 0.42813444 0.86686897
-1.0503713 0.43045217 0.89980984
-1.044293 0.42472151 0.88007545
-0.0034449594 0.43960294 0.89645183
0.01966913 0.43075064 0.89654845
0.052149735 0.44265142 0.89883614
-1.1303346 0.46731907 0.86428154
-1.0440713 0.47239664 0.87808341
-0.0074166278 0.47476137 0.89147192
0.024415838 0.47386876 0.89032149
0.053464711 0.47826195 0.89489019
-1.1130462 0.50576848 0.85715491
-1.0540513 0.50601864 0.87648457
-1.0428878 0.52638078 0.88107556
-0.0099571319 0.52437782 0.88865662
0.024816679 0.52274394 0.88400793
0.053160846 0.52456725 0.88714904
-1.0586904 0.58029228 0.86312276
-1.0443062 0.57463318 0.88325673
-0.010887714 0.55982673 0.88518029
0.025274221 0.56190842 0.87982744
0.053353131 0.55486441 0.87736374
-1.0614706 0.60763395 0.87425172
-1.043205 0.62764847 0.87651736
-1.0360465 0.6713739 0.88302976
-1.0341694 0.72016948 0.8913424
-1.0133716 -0.50677896 0.90928936
-0.97440535 -0.51156545 0.91690695
-0.92530614 -0.51251954 0.91643411
-0.88813609 -0.51113266 0.9050597
-1.0243863 -0.47186244 0.92202026
-0.97382474 -0.47704658 0.93792415
-0.92673087 -0.47579667 0.93618399
-0.89301991 -0.48534265 0.91997695
-1.0524777 -0.41647086 0.90586126
-1.0292376 -0.4251914 0.93067861
-0.97908789 -0.43058288 0.94594485
-0.92950964 -0.4244625 0.94367182
-0.89911056 -0.44374686 0.92876261
-1.0558209 -0.37259519 0.9107098
-1.0308239 -0.37484443 0.93795681
-0.97432715 -0.38974756 0.94900715
-0.9208622 -0.37740377 0.94364947
-0.86555731 -0.37488508 0.90236026
-1.0574181 -0.32465097 0.91394967
-1.0320992 -0.32644981 0.94091004
-0.92387044 -0.32949132 0.94570911
-0.86851412 -0.30494171 0.9054051
-1.058328 -0.27513197 0.91503286
-1.0343423 -0.2751272 0.94148922
-0.9893508 -0.27994823 0.94957334
-0.92491186 -0.27516177 0.94627339
-0.86411846 -0.26154977 0.9009487
0.3915866 -0.28665274 0.92739666
-1.0585829 -0.22564983 0.91482598
-1.0313679 -0.22406709 0.94092298
-0.97722054 -0.21713181 0.94886702
-0.92573017 -0.22459237 0.94518524
-1.0554429 -0.18228965 0.90778303
-1.0298793 -0.17400151 0.93231964
-0.98434454 -0.1708129 0.94683671
-0.92181313 -0.1741588 0.94441402
-1.0534463 -0.12444067 0.90744787
-1.0317956 -0.12741658 0.92934203
-0.97660714 -0.12324045 0.94309527
-0.93266582 -0.12389577 0.94457221
-1.0511074 -0.067144327 0.90097129
-1.0299528 -0.077056654 0.92670959
-0.9730075 -0.075067535 0.94065541
-0.92590547 -0.073744781 0.93948227
0.29248285 -0.077823214 0.91511726
-1.0298793 -0.028136235 0.9262256
-0.97380358 -0.025892362 0.93705869
-0.93123555 -0.026420467 0.93857837
-0.89754063 -0.024624174 0.92486787
-1.0305688 0.024703326 0.92457342
-0.97478288 0.02454558 0.93524384
-0.93151063 0.024022425 0.93744797
-0.89251679 0.013714977 0.91984349
-1.0304073 0.076575801 0.923244
-0.97495842 0.076490648 0.93408173
-0.93178511 0.074235067 0.93538314
-0.89662695 0.086744614 0.92053366
-1.0279901 0.12615068 0.92318892
-0.97278458 0.12427983 0.932796
-0.92778933 0.12486114 0.93201286
-0.89973235 0.10436375 0.92216712
-1.0287445 0.17554282 0.92211187
-0.97239929 0.17424425 0.93092811
-0.9292236 0.17532511 0.93199521
-0.89614654 0.19150968 0.91704273
-1.027508 0.22494291 0.9210847
-0.97205341 0.22601838 0.93095279
-0.92621946 0.22327383 0.92974836
-0.84111637 0.24916176 0.91034365
-1.0282676 0.27460292 0.92113322
-0.97349763 0.27562922 0.92980576
-0.92470825 0.27571103 0.93246406
-0.87425524 0.27770677 0.9298225
-0.83263415 0.27486596 0.93226665
-0.61161745 0.28437778 0.90865952
-0.57987934 0.28086537 0.92233735
-0.39083484 0.28925449 0.94531977
-0.34187302 0.26432163 0.90405428
-0.16534376 0.28281185 0.93313318
-0.12984788 0.28453282 0.94058317
-0.062511563 0.28048235 0.92914754
-0.03627535 0.28193015 0.92937309
0.025938947 0.28437057 0.91808462
0.068552203 0.28171238 0.92275858
0.19233152 0.28479144 0.93289787
0.22450788 0.29316792 0.94361275
0.26699841 0.29435235 0.93995601
0.48767 0.28300941 0.91897058
0.68127197 0.29715812 0.90472347
0.70821327 0.29322809 0.91687715
-1.0283295 0.32596859 0.92024803
-0.97315383 0.32489699 0.92822927
-0.9266209 0.32469618 0.93230277
-0.87328327 0.32567823 0.93030709
-0.83665806 0.32377881 0.93561327
-0.65104979 0.30785286 0.92845374
-0.63678324 0.30357611 0.9185161
-0.56596535 0.30382395 0.92132276
-0.1570812 0.30490837 0.93963283
-0.13167766 0.32082963 0.94538498
-0.0058338237 0.31856328 0.94674265
0.02636742 0.32281247 0.92210644
0.056629445 0.32423884 0.92475671
0.2410731 0.34481031 0.94092029
0.25932178 0.32283172 0.93767732
0.53275931 0.34526721 0.90457886
0.57726038 0.33681875 0.90996283
0.62579483 0.32992077 0.91634864
0.66970772 0.32359093 0.91724938
-1.0278208 0.37535265 0.92019176
-0.97273028 0.37614459 0.92897707
-0.92453003 0.37427837 0.93308157
-0.87462151 0.37563512 0.93197685
-0.841151 0.37584996 0.93835247
-0.17129418 0.38559145 0.94851094
-0.1076844 0.36418581 0.94210929
-0.086195268 0.38154581 0.94295996
-0.010500975 0.38440362 0.93204999
0.023943832 0.37564278 0.908472
0.063941099 0.38149375 0.92718226
0.12917313 0.39155132 0.94599485
0.17594738 0.38525602 0.94429475
0.22174567 0.37400043 0.93297708
0.25038689 0.35271531 0.91882437
0.48921385 0.3806389 0.9150539
0.5233556 0.37587649 0.92112482
0.57171249 0.37085247 0.93071151
0.62142187 0.36577791 0.94029617
0.66381943 0.36233678 0.94092876
-1.0288167 0.42485443 0.92048186
-0.97389233 0.42528024 0.92749536
-0.92465389 0.42472056 0.93316567
-0.87336129 0.42480928 0.93220419
-0.84307784 0.42570755 0.93857318
-0.10211954 0.40392485 0.92263442
-0.070074089 0.42226195 0.94103497
-0.021307435 0.43063226 0.92858565
0.03456476 0.41292372 0.90174121
0.075048685 0.42436603 0.93127644
0.12535506 0.42469963 0.94105971
0.17478131 0.42489651 0.93554807
0.21689039 0.42264932 0.92592126
0.5308755 0.40192235 0.93844604
-1.0289789 0.47424927 0.91939133
-0.97251409 0.47586024 0.92859054
-0.92486423 0.4745658 0.93308902
-0.87401122 0.47470817 0.93284762
-0.84457397 0.47341669 0.93853766
-0.058404833 0.46066436 0.94102842
-0.02985971 0.46748507 0.93062711
0.078580491 0.46926254 0.926211
0.12419 0.47072423 0.93197423
0.17283534 0.46921626 0.92440271
0.20650582 0.46430311 0.92563403
-1.0279604 0.52404249 0.91832745
-0.9739188 0.52371609 0.92700696
-0.92512894 0.52583444 0.9326461
-0.87394732 0.52553195 0.93292642
-0.84553468 0.52755404 0.94112694
-0.017973663 0.5181874 0.90817422
0.072853103 0.52545094 0.92234963
0.12727253 0.5286566 0.92588192
0.15996565 0.52554405 0.92165709
-1.0270401 0.57354546 0.91664624
-0.97429639 0.57546508 0.92609811
-0.92509216 0.57517064 0.93135512
-0.87290639 0.57425863 0.93041307
-0.84543067 0.57759124 0.93952113
-1.0295509 0.6250416 0.91752237
-0.97508746 0.62332463 0.92390335
-0.9226473 0.62489766 0.92536056
-0.87256473 0.62461746 0.92899162
-0.84457105 0.62685245 0.94083744
-1.0252708 0.67588532 0.91796446
-0.97596174 0.67203486 0.92285687
-0.92489564 0.67581546 0.92130286
-0.87272245 0.67255014 0.92251587
-0.84437931 0.67491829 0.936046
-1.0232761 0.72580975 0.91834754
-0.97466832 0.72468841 0.92252833
-0.923392 0.72464943 0.91980618
-0.87418783 0.72478789 0.91972125
-0.84320718 0.72370607 0.93300629
-1.0235194 0.7741099 0.9183833
-0.97695857 0.77714676 0.92341632
-0.92495829 0.77491772 0.92164624
-0.87147528 0.77575028 0.91816664
-0.84410918 0.77565295 0.93395615
-1.013029 0.82047051 0.9230625
-0.9708975 0.82514858 0.92271841
-0.92488831 0.82461619 0.92626047
-0.87525386 0.83031702 0.92284596
-0.84276778 0.82303244 0.93253684
-0.96853286 0.86796552 0.92230076
-0.92466015 0.87537515 0.92551595
-0.87365055 0.87615305 0.92229408
-0.84234864 0.87322903 0.9342072
-0.92022306 0.92137343 0.92536443
-0.87257087 0.92570925 0.92146808
-0.84320039 0.92504746 0.93251795
-0.87656242 0.96131772 0.92146939
-0.84203005 0.95794201 0.93008786
-0.96905911 -0.41140905 0.95139176
-0.94571817 -0.41842571 0.95050585
-1.0031826 -0.36511976 0.95149034
-0.97807068 -0.3734439 0.95271218
-0.94162232 -0.37153625 0.95170367
-1.0078467 -0.31509465 0.95231223
-0.97588909 -0.32611984 0.95443779
-0.93947053 -0.32118493 0.95195031
-1.0100882 -0.27666616 0.95208818
-0.97505558 -0.2754457 0.95424098
-0.94057178 -0.27264562 0.95167589
-1.0112759 -0.22571684 0.95097566
-0.97410256 -0.22510572 0.95261443
-0.94505769 -0.22563289 0.95141625
-1.0095271 -0.19922404 0.95149171
-0.96455449 -0.17634445 0.95151216
-0.94491827 -0.1759669 0.95219135
-0.95301622 -0.14456691 0.95029128
-0.8231771 0.28262857 0.97329235
-0.58140343 0.27582368 0.9556579
-0.41890019 0.2991522 0.99331385
-0.39159533 0.28747422 0.96439785
-0.15799218 0.29479229 0.95271271
-0.12399548 0.29487643 0.95408475
-0.094236664 0.29596716 0.96785182
-0.021068728 0.29381913 0.96191204
0.083414465 0.29605585 0.95238841
0.12121504 0.2946803 0.96889156
0.17285098 0.29646927 0.96860367
0.21550477 0.29840747 0.9512617
0.25930464 0.29915377 0.95761204
-0.83103222 0.32368481 0.97364682
-0.41640243 0.30484307 0.98816872
-0.31567892 0.32703507 0.98363298
-0.29839528 0.32718614 0.98162293
-0.16609833 0.30599585 0.96073109
-0.11711897 0.32191452 0.96623278
-0.077030785 0.33003673 0.98421872
-0.028978972 0.32927206 0.98626137
0.020398704 0.34347925 0.99498385
0.084268279 0.33033165 0.98474914
0.12669535 0.32562551 0.97731787
0.17593746 0.3259334 0.97270435
0.22468114 0.32431561 0.95683891
0.25478041 0.3119579 0.95480269
-0.83454549 0.37487513 0.97495902
-0.17550401 0.37080872 0.95898479
-0.10341474 0.35604495 0.96187413
-0.069982477 0.36957353 0.9618234
-0.033093464 0.37416142 0.96911031
0.021480344 0.3631748 0.98296458
0.084748991 0.37135142 0.96460354
0.12227416 0.37071878 0.96722341
0.17294598 0.36405855 0.96692204
0.21296211 0.35601777 0.9517228
0.59181029 0.39206231 0.95119619
0.63129729 0.3868984 0.95768517
0.66231382 0.38190141 0.9594785
-0.83838439 0.42479461 0.973185
-0.34702289 0.40044075 0.99742812
-0.058354605 0.41206136 0.95306975
-0.031721748 0.41921014 0.95959795
0.097698964 0.40527272 0.95123369
0.1025953 0.41038725 0.95010096
0.57473403 0.40397397 0.95958179
0.61250675 0.41132852 0.98263192
-0.84143806 0.47530127 0.97515625
-0.054323539 0.45935759 0.95418268
-0.040387422 0.46303451 0.95236403
-0.84145397 0.52434766 0.97433275
-0.84112436 0.57510626 0.97449982
-0.84011817 0.62484515 0.97628558
-0.83900517 0.67593127 0.97571999
-0.83972484 0.72469783 0.97724801
-0.83914196 0.77346677 0.97629732
-0.83850187 0.82501328 0.97601527
-0.83863175 0.87561327 0.97475576
-0.83897918 0.92564446 0.97238404
-0.83861905 0.97305727 0.97698784
-0.81924886 0.29263502 1.023919
-0.79826981 0.29111463 1.0431753
-0.82829553 0.32518926 1.0241258
-0.46607739 0.31847921 1.0469759
-0.42047906 0.31321254 1.0314316
-0.30681232 0.33372235 1.0033518
-0.29952854 0.3314935 1.0036021
-0.10606004 0.34950224 1.0028543
-0.098250285 0.34835336 1.0000827
-0.010343564 0.33158872 1.0064217
0.023634026 0.3480598 1.0023508
-0.83210659 0.37421095 1.0241762
-0.45491537 0.38732061 1.0475389
-0.3597652 0.37611678 1.0205746
-0.057553533 0.36404887 1.01328
-0.021669406 0.3668752 1.0114115
0.023629557 0.35293657 1.0008798
0.096320465 0.36775839 1.001366
0.10836087 0.36837316 1.0006851
-0.83507311 0.42684191 1.0250087
-0.83670628 0.47505489 1.0241151
-0.83696175 0.52403325 1.0231898
-0.76053798 0.52266908 1.0386518
-0.74184287 0.52044189 1.0390351
-0.48690939 0.54045618 1.0420945
-0.8343392 0.57353538 1.0240093
-0.48531479 0.55652285 1.0428146
-0.83359247 0.62456787 1.0257909
-0.83381802 0.6748172 1.0250815
-0.83335686 0.72516364 1.0256189
-0.83378124 0.7747584 1.0249763
-0.83458108 0.82314146 1.0254275
-0.83490884 0.87399644 1.0234334
-0.83574802 0.92423582 1.0245043
-0.83581674 0.97498786 1.0247364
-0.83738828 1.0169736 1.0307498
-0.81795567 0.32611108 1.0679221
-0.52328902 0.32268116 1.0858196
-0.47141939 0.32720232 1.0572144
-0.41595307 0.33896571 1.0688187
-0.38857946 0.34551978 1.0862606
-0.82508832 0.37760562 1.0743375
-0.77072579 0.3850798 1.0941267
-0.7259469 0.38036373 1.0913366
-0.69119632 0.38531202 1.085936
-0.46978763 0.37412965 1.0620583
-0.41620559 0.37738019 1.0808342
-0.83152455 0.42223242 1.0749397
-0.77222395 0.41967338 1.096084
-0.72048008 0.42387992 1.0955778
-0.69664627 0.42457747 1.0955794
-0.46949202 0.41018248 1.06384
-0.44118953 0.41236234 1.0841345
-0.8346011 0.47627187 1.0758592
-0.75858277 0.47411224 1.0965947
-0.72260797 0.47499818 1.0954106
-0.69691986 0.47488442 1.0957531
-0.4554725 0.46939215 1.0595576
-0.44601181 0.47309488 1.0556451
-0.83149958 0.52721727 1.0752697
-0.77204162 0.51016241 1.080407
-0.72659934 0.51935321 1.0831099
-0.69787747 0.5154351 1.0952338
-0.82478625 0.5747059 1.0728937
-0.7791723 0.55714631 1.0580482
-0.82692534 0.62516409 1.074226
-0.82708681 0.67432797 1.0756395
-0.82773662 0.72500515 1.07455
-0.8298105 0.7744543 1.0746366
-0.83041155 0.82572997 1.0747128
-0.83183128 0.87672031 1.0718329
-0.83242357 0.92320359 1.0753316
-0.83436018 0.97345567 1.0762339
-0.83572692 1.029816 1.0756611
-0.83387607 1.0589393 1.0837766
-0.56333858 0.34267032 1.1337664
-0.5246709 0.33778661 1.1045607
-0.43084225 0.33569518 1.1036911
-0.8179689 0.37212205 1.1110106
-0.78419471 0.38358223 1.1009114
-0.68238503 0.39373931 1.1287247
-0.55486304 0.37510604 1.1383809
-0.54031521 0.36945134 1.1463675
-0.46606117 0.37736526 1.1419666
-0.4359588 0.38653436 1.1056316
-0.38816178 0.36647385 1.1368707
-0.82540786 0.42804223 1.1123362
-0.77659017 0.43188879 1.1016332
-0.74057209 0.42516327 1.1008387
-0.69142717 0.42387328 1.1231143
-0.46808678 0.41760796 1.1393751
-0.82588273 0.47511083 1.1163341
-0.78241616 0.47651109 1.1024216
-0.74647033 0.46567422 1.1009086
-0.69332516 0.47620437 1.1239585
-0.82456827 0.51811051 1.1123112
-0.78301585 0.5028584 1.1015859
-0.7006526 0.54472303 1.1196574
-0.69419426 0.5209254 1.1242547
-0.81078202 0.59173334 1.1071292
-0.72149605 0.55355924 1.1123993
-0.82048815 0.62530494 1.1266214
-0.82287264 0.67376608 1.1253033
-0.8234024 0.72493023 1.1257558
-0.82562017 0.77594578 1.1231533
-0.8268975 0.82407689 1.1224091
-0.82889855 0.87502128 1.1220816
-0.82916039 0.9269228 1.1218899
-0.83204895 0.97694266 1.1258456
-0.83269548 1.0231352 1.1236639
-0.83280337 1.0705861 1.1280758
-0.67758745 0.34072348 1.1669976
-0.68053675 0.36867383 1.1826864
-0.57176983 0.37719333 1.167829
-0.54694593 0.38533917 1.1658412
-0.48015231 0.39017802 1.1562926
-0.38851342 0.3842048 1.1538721
-0.68661273 0.4265185 1.1763276
-0.49004698 0.41652852 1.1650817
-0.69045645 0.47526577 1.175125
-0.69127613 0.52065188 1.1737404
-0.80521381 0.59695232 1.1626589
-0.79545832 0.59139854 1.1639769
-0.5722661 0.59394586 1.1958096
-0.81646121 0.62597668 1.1770639
-0.82000047 0.67330223 1.1768817
-0.820216 0.72046012 1.1750808
-0.82275343 0.77410036 1.1735055
-0.82341832 0.82360971 1.1770213
-0.82549369 0.87460291 1.1701345
-0.82657027 0.92402095 1.1729844
-0.82767242 0.97639298 1.1753633
-0.82898128 1.0268928 1.172016
-0.82919824 1.0758488 1.1748254
-0.82963133 1.1178185 1.1815821
-0.67823797 0.37124252 1.2192131
-0.6816473 0.42775488 1.2279378
-0.607656 0.44404563 1.2243931
-0.584189 0.43088257 1.2267402
-0.68755847 0.47325075 1.2243725
-0.61091024 0.472736 1.2352924
-0.58680052 0.484532 1.2369869
-0.68923676 0.52109885 1.2230859
-0.60497981 0.53003836 1.228128
-0.58552021 0.52338195 1.2262069
-0.60971367 0.57518691 1.2350023
-0.58785534 0.57222128 1.2190272
-0.81254983 0.6362704 1.2162533
-0.79436487 0.61879283 1.2167367
-0.60907018 0.6261586 1.2374055
-0.58580536 0.62141758 1.2131282
-0.81667441 0.67438638 1.2231824
-0.61009526 0.66077614 1.2436181
-0.59013504 0.65332901 1.216542
-0.81858397 0.72594798 1.2233456
-0.81936651 0.77434027 1.2241182
-0.82008713 0.82393622 1.2257997
-0.82213515 0.87590712 1.2248445
-0.82408345 0.92893922 1.2255038
-0.82316726 0.97583842 1.2251519
-0.82531452 1.0252675 1.2215103
-0.82653147 1.0764264 1.2243891
-0.82827431 1.1234268 1.225944
-0.8279264 1.1535282 1.2392583
-0.6764636 0.3857874 1.2805496
-0.63521361 0.366956 1.2574646
-0.68043768 0.42176229 1.2762121
-0.58731556 0.44274879 1.253352
-0.68093544 0.47737303 1.2758571
-0.63950372 0.48105547 1.2632918
-0.59137714 0.46927327 1.2556275
-0.68642598 0.5191474 1.2748474
-0.80591279 0.64167231 1.2637709
-0.81561464 0.67586064 1.2736216
-0.81675106 0.72323495 1.2727216
-0.81809431 0.77507323 1.2737434
-0.81770784 0.82558441 1.2745515
-0.81913239 0.87610811 1.2796723
-0.82069737 0.92306024 1.2740344
-0.82159054 0.97603732 1.2810738
-0.82299137 1.0262666 1.2739943
-0.82292378 1.0757825 1.2745503
-0.82535338 1.1300319 1.2779272
-0.82473582 1.1712004 1.2746135
-0.67047244 0.39425269 1.3056059
-0.67480654 0.42828494 1.3134431
-0.67566758 0.48714066 1.3044872
-0.68087071 0.52142859 1.3123147
-0.80441058 0.64161515 1.3060162
-0.81325066 0.67408425 1.3237699
-0.81423539 0.7239964 1.3229889
-0.81519264 0.77368921 1.3232547
-0.81563586 0.82452804 1.3269094
-0.81681865 0.8759461 1.3258094
-0.81876922 0.92758316 1.3249406
-0.81758052 0.97254747 1.3259625
-0.81843936 1.0240053 1.3214456
-0.82151085 1.0767515 1.326857
-0.82017398 1.124386 1.3247948
-0.82180703 1.1767424 1.3204329
-0.8208288 1.2097346 1.3322268
-0.80606687 0.64594889 1.3637797
-0.79772496 0.63694048 1.379182
-0.81254005 0.67656314 1.3756607
-0.81268406 0.7240864 1.3750223
-0.8125515 0.7761755 1.377196
-0.81382287 0.82820374 1.3765632
-0.815651 0.87477988 1.3767891
-0.81459606 0.91923398 1.3718073
-0.81471986 0.97198713 1.3770002
-0.81598872 1.0260617 1.3717667
-0.81802922 1.0761833 1.3736581
-0.81730098 1.1262012 1.3764368
-0.82044464 1.1770984 1.3734237
-0.82160127 1.2297763 1.3752766
-0.80225414 0.64529705 1.4246677
-0.81050891 0.67930233 1.4267008
-0.81106126 0.72638649 1.4212499
-0.81136066 0.77345651 1.4313226
-0.81222034 0.82520884 1.4260597
-0.81239372 0.87590349 1.4252073
-0.81354195 0.9261868 1.4243009
-0.81342095 0.97466058 1.426639
-0.81478691 1.026507 1.4241914
-0.81524605 1.0767211 1.424962
-0.81661016 1.1265444 1.4230419
-0.81768966 1.1749049 1.4272754
-0.81913877 1.2191755 1.4222416
-0.82266128 1.2688423 1.4256544
-0.80759442 0.6480006 1.4549783
-0.79841149 0.63902682 1.4593108
-0.80902952 0.67489684 1.4774668
-0.80972487 0.72516799 1.4728088
-0.81119257 0.77457023 1.4778957
-0.81100857 0.82625884 1.4775095
-0.80986917 0.87386566 1.4759974
-0.81165069 0.92262012 1.4744036
-0.8108173 0.97206891 1.4747955
-0.81103462 1.0208669 1.4733226
-0.81262261 1.0759273 1.4737492
-0.81591153 1.129907 1.476365
-0.81466883 1.1733625 1.4731842
-0.81775385 1.2215265 1.4707313
-0.81952631 1.2742726 1.472718
-0.82051808 1.3129271 1.4721245
-0.80231118 0.64630604 1.5174959
-0.79243779 0.63590419 1.5316943
-0.80662924 0.67756641 1.5285947
-0.80718005 0.72657669 1.5265238
-0.77699691 0.71591526 1.5363967
-0.8081702 0.7754004 1.5247374
-0.77898401 0.79863888 1.5323716
-0.80747533 0.82451135 1.5281564
-0.78882188 0.81742179 1.5480938
-0.80977535 0.87429518 1.524073
-0.81022429 0.92330527 1.5265707
-0.80880708 0.975393 1.5287589
-0.80993623 1.0220963 1.5264016
-0.81144434 1.074407 1.5232915
-0.81090444 1.1198709 1.5151417
-0.81443709 1.1734451 1.5210547
-0.8169471 1.227834 1.5232717
-0.8185187 1.2776761 1.5207798
-0.82458049 1.3340698 1.5253286
-0.82218903 1.3636868 1.5362462
-0.79489452 0.64467597 1.5561833
-0.80227733 0.67674643 1.5564783
-0.79434121 0.6711697 1.5622356
-0.80470067 0.71273106 1.5550327
-0.79695827 0.72626179 1.5593137
-0.80448425 0.7679531 1.5570357
-0.79605401 0.77254945 1.5592989
-0.80320114 0.82325494 1.5555559
-0.79575223 0.82638997 1.5560397
-0.8044945 0.87647563 1.5653031
-0.79495984 0.86899012 1.5825491
-0.80825365 0.92156434 1.5765336
-0.81051147 0.97584659 1.5828981
-0.80802226 1.0261934 1.5772656
-0.81176168 1.0754703 1.5750952
-0.81336331 1.1293554 1.5719771
-0.81473601 1.1761103 1.5793674
-0.81593668 1.2203199 1.5739861
-0.81738985 1.2718564 1.5719337
-0.82107383 1.3237827 1.5716823
-0.82194924 1.366474 1.5784856
-0.82622933 1.4040713 1.5911598
-0.79607588 0.8894375 1.6109768
-0.80721611 0.93408746 1.6280042
-0.79892933 0.90173566 1.6126993
-0.80834019 0.97869718 1.6253774
-0.80823392 1.0231009 1.6257631
-0.81101495 1.0755072 1.6284961
-0.81219006 1.1218549 1.6208378
-0.81342638 1.1744355 1.6243721
-0.81764561 1.2258337 1.6276941
-0.81530184 1.2726215 1.6206503
-0.81845999 1.3253388 1.6248192
-0.82212126 1.3747633 1.6234678
-0.82366049 1.4227588 1.6352141
-0.80142534 0.93539214 1.6654044
-0.80893248 0.97326237 1.6783621
-0.80956745 1.028365 1.6760795
-0.81135046 1.0780867 1.6822414
-0.8131187 1.1227056 1.6749212
-0.81417221 1.178509 1.67284
-0.81471115 1.2320336 1.671095
-0.81732309 1.2843519 1.6813543
-0.81908208 1.3169507 1.672332
-0.82045829 1.3755457 1.6787808
-0.8219372 1.4232605 1.6740303
-0.82315487 1.4645324 1.684413
-0.80683309 0.97757757 1.7284749
-0.80849755 1.0263721 1.7223102
-0.80924815 1.0742977 1.7228224
-0.81109619 1.1266835 1.7281382
-0.8155061 1.1722193 1.7217867
-0.81455374 1.2204864 1.7206236
-0.81548792 1.2747611 1.7236539
-0.81732905 1.3344053 1.7279683
-0.79475415 1.3383172 1.7446244
-0.8172676 1.3742363 1.7268376
-0.82308602 1.4277201 1.7281837
-0.82280511 1.4683319 1.7282977
-0.82959121 1.5120765 1.7398692
-0.80413884 0.97124803 1.7583745
-0.81101829 1.0304866 1.7714375
-0.81043613 1.0743408 1.7668753
-0.81233549 1.1271061 1.773028
-0.81138992 1.1769694 1.7718891
-0.81254315 1.2344813 1.7722086
-0.8093127 1.2758261 1.7608961
-0.8173213 1.3198831 1.753378
-0.80528587 1.3773373 1.7536309
-0.81260502 1.4241298 1.7561662
-0.81711489 1.462638 1.7614574
-0.82266921 1.5189078 1.770911
-0.82369041 1.1159184 1.8170727
-0.44785681 0.64509612 2.0473537
-0.46342286 0.67097259 2.0401134
-0.44080353 0.66264272 2.0346336
-0.50067365 0.63978636 2.0949364
-0.46963832 0.63399124 2.0716665
-0.43850419 0.63651168 2.0729456
-0.50628018 0.67522621 2.0820189
-0.48763067 0.67113876 2.0682704
-0.43131447 0.67267579 2.0735233
-0.51017696 0.70136738 2.0750992
-0.56696993 0.64508289 2.1403522
-0.51353478 0.64410007 2.1267476
-0.45789644 0.61768043 2.1020393
-0.43778789 0.62934005 2.1069107
-0.57069564 0.65392101 2.1308379
-0.52000004 0.66054219 2.1112366
-0.42877361 0.66840005 2.1078117
-0.50675273 0.71124905 2.1061389
-0.49795991 0.71385735 2.1156313
-0.56904793 0.6366564 2.1504359
-0.5736922 0.67640364 2.1791377
-0.54193717 0.68281776 2.1688058
-0.50421482 0.93545896 2.1930466
-0.48718175 0.94085014 2.19348
-0.48657525 0.95656502 2.1855168
-0.61047173 0.69151419 2.2114186
-0.56169987 0.67534137 2.2056754
-0.60829705 0.71256572 2.2288363
-0.57396561 0.71622026 2.2114015
-0.52509576 0.76399374 2.2282546
-0.50690234 0.91210663 2.2132258
-0.4855513 0.93019611 2.2181919
-0.46710372 0.95168227 2.2382548
2.0679803 2.3366747 2.2432551
2.1265781 2.3548384 2.232398
-0.52868658 0.79761648 2.291676
-0.49227574 0.78325754 2.2916706
-0.51353997 0.88226032 2.2832806
-0.49422908 0.89356357 2.2935903
-0.51300818 0.91186327 2.2822866
-0.49734551 0.91352868 2.2834816
2.0318108 2.3436246 2.2779765
2.0721264 2.3520393 2.284034
2.1294663 2.3687067 2.2783473
2.1679745 2.3606973 2.2832456
2.2264588 2.3641131 2.2861183
-0.51669937 0.82870305 2.3213463
-0.49268597 0.84398657 2.3401499
-0.51115793 0.86586779 2.3131151
-0.49198705 0.87811387 2.3276765
1.9301174 2.3435555 2.3446419
1.9565278 2.3447611 2.329277
2.0042984 2.3439705 2.3363488
2.0752637 2.3492231 2.3375695
1.9969203 2.3524163 2.3145745
2.0327032 2.3561981 2.3233216
2.0814817 2.3550866 2.322516
2.1274307 2.3682964 2.3192685
2.170577 2.3606813 2.3323038
2.2139719 2.356585 2.3270233
2.2829447 2.3516099 2.3233643
2.3486619 2.3645866 2.341686
-0.49591193 0.83170617 2.3599088
1.8663642 2.3486149 2.3934505
2.1909487 2.3474581 2.3802297
2.2090013 2.3479438 2.3685491
1.8932379 2.3503613 2.3789282
1.9361925 2.3631179 2.3907471
1.9786466 2.3540537 2.3690131
2.0251653 2.351064 2.3740156
2.0699933 2.3578212 2.3821743
2.1206295 2.358886 2.3737774
2.1698954 2.3613913 2.3755014
2.2332776 2.3549855 2.3634288
2.2835808 2.3708048 2.3761995
2.3477445 2.363693 2.3840582
2.368026 2.365993 2.3736839
1.9022466 2.3444071 2.4038501
1.9695386 2.3496757 2.4498074
2.0957632 2.3394368 2.4324019
1.830677 2.357338 2.429286
1.8790627 2.363888 2.4353514
1.9351388 2.3592007 2.4325809
1.9754137 2.3534129 2.4106991
2.0364101 2.366884 2.4329548
2.0845246 2.3542709 2.4221048
2.1176527 2.353045 2.4187331
2.1742318 2.3676021 2.4251552
2.2225156 2.3728635 2.4437366
2.2715871 2.371289 2.4213963
2.32833 2.3713925 2.4108968
2.374419 2.3632264 2.4083743
2.4184644 2.3614955 2.4186041
1.7189538 2.3444827 2.4782369
1.8209736 2.3497081 2.4636075
1.8683778 2.3490937 2.4732277
1.7481292 2.3609827 2.4854708
1.7774738 2.3564169 2.4740694
1.8200796 2.362669 2.463891
1.8678988 2.3542297 2.4679763
1.9217037 2.3535798 2.4734514
1.9785017 2.3567848 2.4761121
2.0196171 2.3603199 2.4755659
2.0704391 2.3616021 2.4690585
2.1229539 2.36182 2.493993
2.1741855 2.3690608 2.470855
2.2153959 2.3664079 2.4816773
2.2736046 2.3804204 2.4796898
2.3293211 2.3708711 2.4716339
2.375448 2.363956 2.4765053
2.4151602 2.3667326 2.4757237
2.5148509 2.3627868 2.4894364
1.6864982 2.3465199 2.5003731
1.7192365 2.3393793 2.5097218
1.7896647 2.3476 2.5198746
1.8300016 2.3489127 2.5377855
1.6332176 2.3553529 2.543824
1.6810033 2.3626561 2.5274684
1.7220846 2.3548419 2.5314362
1.7664689 2.3549793 2.5184653
1.8303431 2.3535192 2.5175817
1.8785577 2.3553629 2.5175679
1.9176915 2.3582363 2.5284138
1.972967 2.3592675 2.5329895
2.0273218 2.3722749 2.5325236
2.0726814 2.3649101 2.522449
2.1274116 2.3587506 2.5296359
2.1691656 2.3655977 2.5272825
2.2267065 2.3699434 2.5244391
2.2818971 2.3804436 2.5264854
2.3101518 2.3690457 2.5245669
2.3856189 2.3646955 2.5165458
2.4975135 2.3640614 2.5044534
1.5274624 2.3370171 2.5742812
1.5732747 2.3378491 2.5896246
1.7245235 2.3472011 2.5983906
1.7924459 2.3452299 2.5550897
2.0916793 2.340935 2.5680885
1.582989 2.3567393 2.5734348
1.6159149 2.3545671 2.5814614
1.6739117 2.3552656 2.5697374
1.7250473 2.3550105 2.5797954
1.7723651 2.3531156 2.5793591
1.8293729 2.3530247 2.5858681
1.875299 2.3556657 2.5616193
1.9353631 2.3686547 2.5865974
1.968493 2.3573644 2.5755212
2.0293474 2.3626313 2.5694637
2.0693183 2.3642125 2.578289
2.1205537 2.3721306 2.579263
2.1804862 2.3698535 2.5791881
2.2341101 2.3662736 2.5735738
2.2808592 2.3708372 2.579308
2.3189681 2.3627648 2.5609732
2.4480889 2.370517 2.5524054
2.4619834 2.3650267 2.580214
2.5033467 2.3684814 2.5562022
-1.0071341 2.2158692 2.6275558
-0.98522443 2.2207634 2.6412082
1.4286734 2.3414087 2.629899
1.4737316 2.3387444 2.6293678
1.5174744 2.3437989 2.627341
1.5738226 2.3427174 2.6158762
1.6213862 2.34479 2.632586
1.6643906 2.3480878 2.6338167
1.721831 2.3476572 2.6276591
1.7547677 2.3470294 2.6211665
1.8402376 2.3493192 2.6150811
1.8581411 2.3496618 2.6046352
1.9933898 2.3490007 2.6032166
1.4849842 2.3500617 2.6147199
1.5075161 2.3587043 2.6157465
1.5667098 2.3578577 2.6418118
1.6364784 2.3503542 2.6129184
1.6785494 2.352216 2.612247
1.7879305 2.3541436 2.6264656
1.8303034 2.3592424 2.6368816
1.886243 2.3627748 2.6081674
1.9167504 2.3651836 2.6248858
1.9507954 2.3587251 2.6034784
2.0321641 2.3642943 2.6253304
2.0884552 2.3678479 2.6160514
2.1148787 2.3690169 2.6454084
2.1800842 2.3709421 2.6270828
2.2309809 2.3674064 2.631846
2.3282855 2.3724995 2.6190648
2.4449 2.3660529 2.6436443
2.4617653 2.3639834 2.627331
-1.0016749 2.2070658 2.6840985
-0.97178572 2.217608 2.6677089
-0.92904043 2.2222424 2.6737404
-0.88136095 2.2224338 2.6746471
-0.82983303 2.2138062 2.6773593
1.3287709 2.3445163 2.6798189
1.3562963 2.3335159 2.652385
1.4287285 2.3410826 2.6762838
1.4675188 2.3389499 2.670543
1.5099274 2.3401473 2.6770172
1.5583752 2.3496907 2.6535771
1.6336908 2.3489652 2.6918833
1.7259541 2.3436794 2.6598508
1.3340927 2.3539505 2.6906736
1.3905799 2.3544765 2.6848407
1.4010328 2.3519034 2.6577501
1.5430411 2.3526196 2.6657462
1.5719727 2.3527315 2.6901405
1.6154819 2.3527417 2.6674132
1.6796572 2.3520474 2.6715989
1.7107738 2.3531604 2.6967802
1.7741474 2.355221 2.6638699
1.8151649 2.3584025 2.6726344
1.8776602 2.3688169 2.6764538
1.9319527 2.361402 2.663054
1.9756665 2.3633816 2.6825237
2.0294278 2.3741465 2.6808214
2.0757258 2.3669696 2.6833065
2.1228151 2.3691945 2.6746461
2.1764131 2.3592281 2.6785905
2.2039835 2.3689435 2.6767678
2.2757568 2.3668537 2.6700964
2.7019286 2.3821311 2.6865866
-1.0008513 2.2250545 2.7427063
-0.9755432 2.2223122 2.7264276
-0.92181695 2.2238719 2.7227168
-0.87980586 2.228497 2.7290838
-0.82059264 2.2311935 2.7269034
1.1686562 2.329952 2.7244635
1.2259567 2.3426566 2.7198033
1.2672331 2.3435404 2.7317815
1.3357112 2.3460875 2.7344351
1.3832283 2.3453486 2.7313118
1.4249523 2.3412137 2.729264
1.4773844 2.3408344 2.7194748
1.5242549 2.3421795 2.7376249
1.5804198 2.3478508 2.7179782
1.6278868 2.3482983 2.734129
1.6811136 2.3487587 2.706356
1.8123226 2.3463006 2.7113008
1.2313372 2.3529856 2.731864
1.2815217 2.3512948 2.7093034
1.3178319 2.3540833 2.7223527
1.3688645 2.3527179 2.7107193
1.5357994 2.3506627 2.7054465
1.5820044 2.3502038 2.720767
1.6270523 2.3529451 2.7282379
1.6766787 2.3589826 2.7245815
1.7246697 2.3544464 2.7323053
1.7742983 2.3612323 2.7149451
1.8234792 2.3606944 2.727845
1.8778683 2.3635471 2.7216814
1.9342731 2.3682439 2.7166224
1.9873977 2.3590937 2.7122893
2.0212228 2.3614931 2.7246981
2.072576 2.3658926 2.729275
2.1261396 2.3651412 2.7231503
2.1710868 2.3642955 2.7147117
2.2407122 2.3699403 2.72439
