ply
format ascii 1.0
comment PCL generated
element vertex 1413
property float x
property float y
property float z
element camera 0
property float view_px
property float view_py
property float view_pz
property float x_axisx
property float x_axisy
property float x_axisz
property float y_axisx
property float y_axisy
property float y_axisz
property float z_axisx
property float z_axisy
property float z_axisz
property float focal
property float scalex
property float scaley
property float centerx
property float centery
property int viewportx
property int viewporty
property float k1
property float k2
end_header
-1.0828831 -0.23343769 0.84806335
0.87783366 -0.21804211 0.84963155
0.92557776 -0.21757391 0.84813422
0.97393513 -0.22537489 0.84496236
1.024272 -0.22353913 0.84261686
1.0592464 -0.23020473 0.84090167
-1.0576547 -0.18696621 0.84725147
-1.0350099 -0.16760388 0.83164394
0.83102387 -0.16153729 0.84860158
0.87387419 -0.17281671 0.84724659
0.9238981 -0.17446214 0.84500229
0.97231251 -0.17431037 0.84177685
1.0233259 -0.17593093 0.83875221
1.0537271 -0.19175135 0.83796996
-1.0417053 -0.12749775 0.8427617
0.68788785 -0.10350672 0.84905916
0.73055005 -0.10704219 0.84865743
0.77794373 -0.11729078 0.84800696
0.82563192 -0.12453368 0.84614557
0.87290817 -0.12468112 0.84259146
0.92366958 -0.1255192 0.84010476
0.97446215 -0.12452627 0.83702224
1.0216397 -0.12736417 0.83492672
-1.0388982 -0.07961686 0.83582866
0.58783925 -0.053808048 0.84934902
0.6306811 -0.059980378 0.84876174
0.67785305 -0.069107391 0.84728312
0.7258395 -0.073689081 0.8454513
0.7752887 -0.075285316 0.84333873
0.82459092 -0.073466823 0.84047765
0.87373704 -0.07611876 0.83829147
0.92203534 -0.076282509 0.83577365
0.97440422 -0.074017204 0.83252454
1.0173652 -0.075521834 0.83152735
-1.0465044 -0.047014676 0.84251153
0.48654595 -0.0070759049 0.84908056
0.52859926 -0.01423076 0.84848595
0.57855612 -0.023255913 0.84740645
0.62602985 -0.024915617 0.8449766
0.67529535 -0.026561216 0.84245926
0.72512996 -0.027458046 0.84035456
0.77598184 -0.025099454 0.8376773
0.82472742 -0.026136849 0.83554292
0.87376821 -0.026549138 0.83342046
0.92517799 -0.026303507 0.83155215
0.97644705 -0.025753003 0.82961571
1.0138493 -0.025527334 0.82765365
0.30528572 0.035974521 0.84476221
0.38216823 0.043566257 0.84932083
0.42690879 0.034858257 0.84797108
0.47545379 0.027426505 0.84627748
0.52319956 0.023330431 0.8443855
0.57418925 0.023885073 0.84180295
0.62450922 0.023142014 0.83920997
0.67416936 0.024400899 0.83641422
0.72412974 0.025332535 0.83395547
0.77422237 0.021937743 0.83259922
0.82475072 0.023907693 0.83036077
0.87542808 0.02509385 0.82830411
0.92410231 0.023186633 0.82739079
0.97550845 0.023981128 0.82581538
1.01136 0.021917107 0.82491952
-1.0576396 0.072845034 0.84976321
-1.0285486 0.078539312 0.82565874
0.21946312 0.097784117 0.84977937
0.27884021 0.088293113 0.84889531
0.32393423 0.078773707 0.84663463
0.37482646 0.076222688 0.84592241
0.42385128 0.074549086 0.8433314
0.47434139 0.075156972 0.8400991
0.52606416 0.075231761 0.83749038
0.57609886 0.07402724 0.83528614
0.62466776 0.075653359 0.83287144
0.67367488 0.075035527 0.83050889
0.72546458 0.07580971 0.82864529
0.77713281 0.074177593 0.82746887
0.82555407 0.075129211 0.82545143
0.87715513 0.075166523 0.82424313
0.92577302 0.074991733 0.82352984
0.97335154 0.073875032 0.82205731
1.0118092 0.076537535 0.8228367
-1.0386753 0.12679656 0.83984256
-0.32238358 0.14571956 0.84988034
-0.14357176 0.14878115 0.84971082
-0.093471073 0.14658852 0.84974098
0.13223709 0.13756409 0.84864473
0.17631009 0.13418798 0.84793508
0.22571945 0.12801203 0.84739751
0.27402157 0.12409759 0.84534359
0.32329789 0.12510647 0.84177417
0.37448144 0.12549569 0.83975893
0.42661539 0.12477013 0.83657211
0.47489601 0.12467768 0.83371037
0.52489346 0.1255274 0.83122855
0.57518756 0.12463658 0.82917005
0.62456638 0.12502401 0.82699293
0.67386508 0.1251806 0.82533389
0.72348601 0.12566212 0.82393634
0.77373034 0.12436971 0.82304901
0.82516688 0.12445924 0.82157815
0.87272233 0.1259546 0.8207134
0.92423463 0.12540545 0.82058829
0.97511303 0.12434506 0.8199935
1.0126914 0.12648383 0.81967217
-1.0309572 0.17050296 0.83519322
-0.99540681 0.19539742 0.80346793
-0.66168272 0.19490996 0.849554
-0.62224132 0.18868636 0.84985054
-0.57676345 0.19237304 0.84948343
-0.51962346 0.18898138 0.8490783
-0.47370085 0.18405864 0.84899807
-0.4239037 0.17973174 0.84843034
-0.37569165 0.17931426 0.84797466
-0.32620028 0.17857854 0.84781778
-0.27417499 0.1821807 0.84821165
-0.22502038 0.18184209 0.84795105
-0.17394133 0.17920549 0.84794837
-0.12436293 0.17750816 0.84731638
-0.077770084 0.17735873 0.84682345
-0.04298741 0.18413047 0.84780967
0.091981336 0.18056954 0.8451975
0.12787606 0.17524715 0.84392267
0.17482574 0.17585537 0.84318954
0.22399956 0.17448001 0.8417595
0.27420411 0.17442298 0.83943844
0.32302338 0.17519851 0.8362456
0.37538806 0.17478646 0.83343834
0.4256494 0.17534514 0.83010048
0.47557715 0.17481862 0.82773238
0.52528435 0.17513098 0.82508975
0.57542968 0.17474626 0.82313931
0.62432796 0.17486133 0.82158005
0.67341518 0.17498903 0.82017654
0.7237137 0.17460179 0.8191765
0.77400351 0.17558268 0.81896049
0.82343507 0.17383593 0.81766868
0.87397778 0.17399853 0.81791407
0.9242242 0.17464121 0.81776679
0.97450995 0.17453212 0.81797129
1.0160352 0.17673753 0.81825089
-1.0306327 0.22951086 0.84046191
-0.67097062 0.20983499 0.84916872
-0.621387 0.21943191 0.84891194
-0.57426399 0.21877924 0.84844095
-0.52420938 0.21692903 0.84812063
-0.47587994 0.21566263 0.84795606
-0.42453545 0.21694006 0.84662402
-0.37340134 0.21775946 0.84479523
-0.32410565 0.21894488 0.84415728
-0.27574065 0.22075973 0.84389621
-0.22464161 0.21968521 0.84253955
-0.17606238 0.21983869 0.84278101
-0.12512882 0.22151738 0.84306598
-0.075792 0.22097449 0.84199131
-0.030623984 0.22295824 0.84192717
0.024416232 0.23386292 0.84075081
0.079561666 0.22515698 0.83914775
0.1265552 0.22033326 0.83840185
0.17511363 0.22225609 0.83773381
0.22506997 0.22198233 0.83649445
0.27473047 0.22161278 0.83451533
0.32531643 0.22110297 0.83141845
0.37337247 0.22287016 0.82671756
0.42410108 0.21943955 0.82545304
0.47560617 0.21950158 0.82230723
0.52463895 0.21846758 0.81999761
0.57506776 0.21838389 0.8186906
0.62652254 0.2198927 0.81699097
0.67539686 0.22182654 0.81561947
0.72569674 0.21969533 0.81469882
0.77404737 0.21972209 0.81478059
0.82302648 0.2210201 0.81398731
0.87539613 0.21821596 0.81332624
0.92570633 0.21789302 0.81508636
0.97487199 0.21890229 0.81682932
1.0209606 0.22171496 0.81635833
-1.0693532 0.2715067 0.82692373
-1.0298774 0.26747465 0.83850676
0.38744935 0.2620019 0.81141537
0.40139475 0.26843029 0.82985622
0.66282874 0.25204331 0.83859438
-1.0287335 0.32268065 0.84219998
-1.0270714 0.36952698 0.8420161
-1.0303694 0.44830695 0.84803098
-1.0293623 0.48184803 0.84504527
-1.0638654 0.57909417 0.84921664
-1.0267893 -0.51449525 0.87287617
-0.97633493 -0.526353 0.87596911
-0.92488539 -0.5274961 0.87498552
-0.87560201 -0.52149177 0.87427014
-0.8279171 -0.51213706 0.8680582
-0.77480847 -0.50653487 0.86011946
-0.72595656 -0.50428128 0.85714543
-0.67579424 -0.50340557 0.85564768
-0.62549752 -0.50143129 0.85523862
-0.5792439 -0.50052166 0.85281992
-0.53328115 -0.50143921 0.8516928
-0.46877092 -0.50177139 0.85053551
-0.38192683 -0.50020111 0.85164952
-0.32840157 -0.50122529 0.85176039
-0.27387223 -0.50132316 0.85160619
-0.2252003 -0.50087261 0.85218364
-0.19640012 -0.50066274 0.85226429
-0.13999075 -0.50070029 0.85067028
-1.0549678 -0.46517015 0.86665905
-1.044282 -0.48240411 0.88226384
-0.85863668 -0.47080743 0.89106011
-0.82234383 -0.47273135 0.87628078
-0.77442491 -0.47405642 0.87449342
-0.72561318 -0.47503209 0.87324381
-0.67539102 -0.47579002 0.87180233
-0.62369311 -0.47589269 0.8707974
-0.57573795 -0.47705412 0.86934668
-0.52651733 -0.4768872 0.86911243
-0.47470602 -0.47669056 0.86899024
-0.42360386 -0.47650298 0.86956412
-0.37395215 -0.47688186 0.86970544
-0.32431808 -0.47663227 0.86991525
-0.27404329 -0.47688589 0.8695668
-0.22459286 -0.47656894 0.86971468
-0.17410922 -0.4765949 0.8690601
-0.12459798 -0.47780621 0.86832923
-0.076417297 -0.47661543 0.86865872
-0.026166065 -0.47559005 0.86894894
0.02389846 -0.4752726 0.86840796
0.073997736 -0.47561049 0.86697459
0.12421264 -0.47560942 0.86641073
0.17544118 -0.47501051 0.86450189
0.2247553 -0.47359455 0.86376977
0.27301437 -0.47274667 0.86304623
0.32303265 -0.47154716 0.86166871
0.37536031 -0.4709819 0.86076957
0.42646754 -0.47040594 0.86080426
0.4751507 -0.4699657 0.86049139
0.52377445 -0.46919975 0.86032289
0.57465279 -0.46843079 0.86126083
0.62588054 -0.46893924 0.86058873
0.67425525 -0.46898833 0.86043447
0.72262621 -0.46803743 0.8588782
0.77488881 -0.46655318 0.85701203
0.8238706 -0.46104926 0.85558075
0.87299734 -0.46163583 0.85419196
0.91899282 -0.45779508 0.85192794
0.97501278 -0.45117676 0.85186601
-1.0606365 -0.42365065 0.87474221
-1.0489072 -0.44767818 0.89345825
-0.85694855 -0.42486379 0.89239734
-0.82228917 -0.42567071 0.8828072
-0.77451378 -0.4243238 0.88256907
-0.72488296 -0.42599973 0.88217306
-0.67488325 -0.4250693 0.88237339
-0.62470376 -0.42540863 0.88228321
-0.57424468 -0.42586669 0.88237584
-0.52486014 -0.42495331 0.88269591
-0.47493023 -0.42479244 0.88347036
-0.42474216 -0.42490479 0.88380331
-0.37493351 -0.42564288 0.88418144
-0.32507005 -0.42536515 0.88460892
-0.27479416 -0.4252184 0.88488722
-0.22447716 -0.42412946 0.88504666
-0.17458941 -0.42568839 0.88499355
-0.1261517 -0.42537811 0.88440031
-0.076188833 -0.42525566 0.88469726
-0.026086833 -0.42433769 0.88483781
0.023835186 -0.42413515 0.88446647
0.073824599 -0.424582 0.88344103
0.1241691 -0.4258745 0.8821249
0.17480876 -0.42497289 0.88063699
0.22536492 -0.42485493 0.87890047
0.27511597 -0.42469856 0.87781054
0.32484123 -0.425037 0.87599003
0.37466198 -0.42611247 0.87450117
0.42511609 -0.42524222 0.87408805
0.47416216 -0.42478657 0.87328005
0.52422208 -0.42535916 0.8724795
0.57443988 -0.42502502 0.87236977
0.62455201 -0.42532441 0.87233579
0.67431343 -0.42572448 0.8711983
0.72539955 -0.42529005 0.8694337
0.77404147 -0.42504552 0.86629188
0.82524675 -0.42527178 0.86369091
0.87531823 -0.42575783 0.85889208
0.92301136 -0.4240599 0.85576063
0.97029567 -0.42071283 0.85288316
1.0050966 -0.41663817 0.85134751
-1.0665435 -0.37432131 0.87632608
-0.85412765 -0.37556574 0.89218992
-0.8227095 -0.37540543 0.88612127
-0.77446079 -0.37543732 0.88486171
-0.72441179 -0.37538812 0.88479459
-0.67436635 -0.37481228 0.88507354
-0.62528569 -0.37482652 0.88465881
-0.57461679 -0.37545484 0.88506019
-0.52427912 -0.3746922 0.88542289
-0.47376686 -0.37442151 0.88636303
-0.42365068 -0.37488574 0.88674212
-0.37410003 -0.37496451 0.88765675
-0.32365605 -0.37543532 0.88866931
-0.27397066 -0.3743276 0.88907653
-0.22483905 -0.37547463 0.88944417
-0.17537872 -0.37424579 0.88949448
-0.12549141 -0.37515253 0.88969928
-0.075394861 -0.37584007 0.88979095
-0.02581173 -0.37504297 0.88986343
0.023585005 -0.37480715 0.88934726
0.074011706 -0.37483135 0.88873804
0.12504497 -0.37575191 0.88786662
0.17398942 -0.37440509 0.8867749
0.22459553 -0.37561792 0.88496435
0.27471662 -0.37459376 0.88388222
0.32430333 -0.3741357 0.8823992
0.37493739 -0.37505901 0.8809166
0.42447919 -0.375357 0.87928802
0.47447506 -0.37510151 0.87839729
0.52430838 -0.3751764 0.87721151
0.57414526 -0.37519005 0.87642479
0.62442207 -0.3751781 0.87547529
0.67438179 -0.37543309 0.87377059
0.72391319 -0.37519646 0.87185013
0.77566469 -0.37466601 0.86868453
0.82541317 -0.37500381 0.86523741
0.87414438 -0.37513489 0.86174101
0.924752 -0.3744047 0.85711032
0.97391433 -0.37585583 0.85367411
1.0119555 -0.37384403 0.85110152
1.0611666 -0.3857131 0.85010415
-1.0704839 -0.32452515 0.87599444
-0.85742652 -0.32399935 0.89531279
-0.8240549 -0.32483676 0.88676667
-0.77569896 -0.3240656 0.88508177
-0.72479719 -0.32541683 0.88428158
-0.67494684 -0.32559854 0.88428169
-0.6249553 -0.3237468 0.88429517
-0.57448643 -0.32443267 0.88457626
-0.52494687 -0.32475609 0.88483089
-0.47478956 -0.32465357 0.8858428
-0.42516097 -0.32472661 0.88662916
-0.37534928 -0.32507867 0.88755906
-0.32486767 -0.32502857 0.88891792
-0.27493665 -0.32472238 0.88960755
-0.22435649 -0.32433072 0.89015716
-0.17384936 -0.32523471 0.89065152
-0.12317681 -0.32438847 0.89084005
-0.074976452 -0.32524225 0.89107019
-0.02534746 -0.32596332 0.89128166
0.024239507 -0.32561991 0.89110088
0.075699516 -0.32542682 0.89059985
0.12550573 -0.32455245 0.88986897
0.17583416 -0.32469222 0.88888913
0.22596087 -0.32470256 0.88733435
0.27533787 -0.325625 0.88626856
0.32491744 -0.32412568 0.88475114
0.37450811 -0.32471493 0.88275659
0.42495555 -0.32534897 0.88121408
0.47514129 -0.32490146 0.87942493
0.52514976 -0.32478261 0.8778044
0.57501841 -0.32457212 0.87620974
0.62526238 -0.32540095 0.87505001
0.67550236 -0.32458779 0.87294394
0.72464079 -0.3248139 0.87034887
0.77487141 -0.32368347 0.86792123
0.82514364 -0.32580194 0.8642047
0.87581575 -0.32514781 0.86010069
0.92400545 -0.32463434 0.85618305
0.97329938 -0.32827285 0.85264969
1.0200032 -0.31986004 0.85122722
-1.0731103 -0.27511975 0.87476534
-0.85596603 -0.27410063 0.89395332
-0.82238728 -0.27514142 0.88539952
-0.77487397 -0.27524006 0.88401055
-0.72577125 -0.27495077 0.88315052
-0.67559093 -0.27533445 0.88249213
-0.62525499 -0.27413112 0.88216621
-0.57600474 -0.27526897 0.88266301
-0.52496523 -0.27497286 0.88308096
-0.47484288 -0.27490482 0.88416839
-0.4246783 -0.27445871 0.88475496
-0.37417653 -0.27470395 0.88559568
-0.32488364 -0.27505931 0.88696289
-0.27514282 -0.27456245 0.8885079
-0.2254011 -0.27442536 0.88912684
-0.17589204 -0.27443707 0.88958532
-0.1260832 -0.27536932 0.8898977
-0.074237876 -0.27440917 0.88955712
-0.025317727 -0.27575341 0.89006549
0.025206178 -0.27594066 0.89003104
0.075313099 -0.27469856 0.889503
0.1243629 -0.27507237 0.88925076
0.17449307 -0.27439705 0.88823026
0.22382683 -0.27503383 0.88718158
0.27530631 -0.27492413 0.88633996
0.32490066 -0.2749348 0.88500619
0.37512597 -0.27546632 0.88269049
0.42466375 -0.27498606 0.8803885
0.47511598 -0.27474737 0.87807369
0.5243395 -0.27467969 0.87614244
0.57336825 -0.27480593 0.87399596
0.62453073 -0.27445242 0.87193733
0.67441398 -0.27435052 0.86991572
0.72439486 -0.27484649 0.86742616
0.77427846 -0.27455646 0.86465555
0.82307845 -0.27477548 0.86162156
0.87372649 -0.27547663 0.85801166
0.92407525 -0.27678686 0.85357785
0.9709509 -0.28610992 0.85178584
1.0084293 -0.28026006 0.85099554
-1.0738047 -0.22537114 0.8746044
-0.85338479 -0.22387359 0.89216399
-0.82358098 -0.22448063 0.88654464
-0.77538717 -0.22605814 0.88465983
-0.72436708 -0.2252056 0.88188922
-0.67338073 -0.22480002 0.87971544
-0.6239422 -0.22480577 0.87941045
-0.57455528 -0.22518656 0.87968999
-0.52440143 -0.22475508 0.88044536
-0.47460034 -0.22471835 0.88083416
-0.42445314 -0.22463872 0.88201976
-0.37495694 -0.22486408 0.88292581
-0.32520783 -0.22442333 0.88394713
-0.27478558 -0.22506845 0.88556182
-0.22441392 -0.22470506 0.88649672
-0.17466408 -0.2241936 0.88698465
-0.12469736 -0.22577292 0.88716769
-0.074716285 -0.22525258 0.88729763
-0.02484159 -0.22479391 0.88735545
0.02487638 -0.22478795 0.88732183
0.074709542 -0.22513933 0.88688129
0.12480339 -0.22583453 0.88656366
0.17576627 -0.22499484 0.88584143
0.2254696 -0.22431991 0.88475281
0.27471191 -0.22451404 0.88390368
0.32516882 -0.2251987 0.88034439
0.37430754 -0.22445594 0.87837034
0.42467567 -0.22462031 0.87730849
0.47475174 -0.22559053 0.87523055
0.52452666 -0.22536032 0.87289459
0.57490063 -0.2242498 0.87034488
0.62512183 -0.2248951 0.86789155
0.67488635 -0.22432168 0.8654899
0.72476196 -0.2252447 0.86317468
0.77493155 -0.22379081 0.8597641
0.82411116 -0.22548081 0.85672265
0.87376237 -0.22676794 0.85383439
0.92035288 -0.23288538 0.85141629
0.96826315 -0.24406387 0.8508299
-1.0611067 -0.17791343 0.88061297
-1.0486608 -0.17013499 0.85640073
-0.85378069 -0.17996053 0.89223617
-0.82205832 -0.17362888 0.88408822
-0.77465409 -0.17596216 0.88253379
-0.72610229 -0.17482202 0.87961072
-0.67481172 -0.17479581 0.87709308
-0.62447214 -0.17416182 0.87651765
-0.57521433 -0.17528856 0.87693894
-0.52455735 -0.17522721 0.87720525
-0.47419643 -0.17485052 0.87783116
-0.42550111 -0.17420815 0.87877202
-0.37426412 -0.17516378 0.87926978
-0.32501277 -0.17496715 0.88061672
-0.2751286 -0.17530984 0.88217109
-0.22540601 -0.17421949 0.88301426
-0.1750866 -0.17501841 0.88326925
-0.12494483 -0.17571652 0.88355482
-0.074335195 -0.17581512 0.88329941
-0.025149032 -0.17463446 0.88336051
0.024570415 -0.17505477 0.88337111
0.07538379 -0.17495209 0.88302809
0.12503445 -0.17651789 0.88303405
0.17466076 -0.17415379 0.88183713
0.22484657 -0.17376094 0.88072115
0.27468178 -0.1755856 0.88067728
0.324467 -0.17502424 0.87538433
0.37459722 -0.17426261 0.87406713
0.42446995 -0.17469059 0.87270874
0.47462305 -0.1750493 0.87049711
0.5252707 -0.17538834 0.86802638
0.57480443 -0.1744346 0.86567253
0.6242919 -0.17483659 0.86277598
0.6746074 -0.17452581 0.86033964
0.72363853 -0.17487651 0.85761106
0.77384365 -0.17457664 0.85477483
0.82246751 -0.18021461 0.85245192
0.86894339 -0.19177531 0.85143119
-1.0545384 -0.12481288 0.87992227
-1.0472906 -0.12516211 0.87315667
-0.85246128 -0.14380895 0.88953924
-0.82178432 -0.12400155 0.88009787
-0.7752139 -0.12600385 0.87805212
-0.72471601 -0.12456663 0.8759886
-0.67510754 -0.1244226 0.87340951
-0.62494791 -0.12487072 0.87323588
-0.57460743 -0.12518924 0.87354928
-0.5235402 -0.12507579 0.87375879
-0.47452503 -0.12388475 0.87443972
-0.4244222 -0.12542753 0.87513793
-0.37527913 -0.12495213 0.87575811
-0.32410267 -0.12441507 0.87672502
-0.27486274 -0.12618966 0.87821597
-0.22458749 -0.12474949 0.87872094
-0.1744431 -0.12386742 0.87904274
-0.12428852 -0.12536667 0.87905854
-0.075056642 -0.12477641 0.87852973
-0.026524425 -0.12494064 0.87839711
0.02428066 -0.12449116 0.87836552
0.075067312 -0.1247415 0.87824631
0.12562744 -0.12473526 0.87796307
0.17492829 -0.12475414 0.87720853
0.22438318 -0.12451532 0.87547779
0.27499515 -0.12494378 0.87242544
0.32600272 -0.12571493 0.8700484
0.3750571 -0.123724 0.86932337
0.42447311 -0.12511587 0.86762112
0.47514313 -0.12515843 0.86501873
0.52420986 -0.12446131 0.8623696
0.57450819 -0.12535807 0.86006737
0.62433094 -0.12403517 0.85728896
0.67417961 -0.12567122 0.85438293
0.72443205 -0.12852183 0.85263723
0.76713508 -0.13789862 0.85195339
0.80217868 -0.14193006 0.85121465
-1.0547584 -0.075135313 0.87268335
-1.0487095 -0.076104611 0.89540708
-0.85479176 -0.074217983 0.8888458
-0.81943834 -0.07398206 0.87540013
-0.77266943 -0.075822785 0.87415087
-0.72501719 -0.073763967 0.87234217
-0.67520893 -0.075085089 0.86956543
-0.6256938 -0.075950839 0.87011135
-0.57490456 -0.074692391 0.87019956
-0.52463949 -0.07405474 0.87019551
-0.47478673 -0.074240647 0.87090319
-0.42442805 -0.076840617 0.8713634
-0.37440532 -0.075133182 0.87172556
-0.32457483 -0.073555715 0.87238699
-0.27485031 -0.075301513 0.87383395
-0.22535162 -0.074759848 0.87434214
-0.1747476 -0.074145637 0.87443942
-0.12518823 -0.073659882 0.87412035
-0.077268191 -0.073878743 0.87346059
-0.031112863 -0.078552656 0.87515825
0.027332813 -0.080636635 0.87575769
0.076691501 -0.075364247 0.87310767
0.1250184 -0.073538244 0.87269056
0.17557074 -0.073404342 0.87190551
0.22566471 -0.075000145 0.87059712
0.27574259 -0.075265214 0.86882418
0.32425046 -0.074075125 0.86530221
0.37509429 -0.075091772 0.8639515
0.42530516 -0.074995607 0.86176962
0.47453678 -0.076726668 0.8595019
0.52533066 -0.073634513 0.85623676
0.57401377 -0.076071151 0.8542521
0.62177587 -0.080504328 0.85221857
0.66830486 -0.090722702 0.85133123
0.71011555 -0.097265959 0.85084438
-1.0588957 -0.027147045 0.87401789
-1.0457712 -0.014715417 0.89261836
-0.82342106 -0.026552282 0.87318689
-0.77607054 -0.025901668 0.87113839
-0.72393209 -0.025583006 0.86849731
-0.67317772 -0.027071353 0.86645812
-0.62389058 -0.02582331 0.86673033
-0.57354182 -0.025885019 0.86662072
-0.52448624 -0.025629019 0.8668257
-0.47502828 -0.026467388 0.86719966
-0.42477116 -0.026346061 0.86708987
-0.37431616 -0.026303936 0.86715895
-0.32464591 -0.026485587 0.86827159
-0.27452737 -0.025632236 0.86887658
-0.2244724 -0.02498755 0.86949605
-0.17499217 -0.025642684 0.86981827
-0.12580833 -0.024675692 0.86920512
-0.078863285 -0.026047457 0.86968344
-0.045364518 -0.032217912 0.87290436
0.045566689 -0.044496734 0.87317723
0.083060704 -0.031099126 0.86991495
0.12414808 -0.025218355 0.86779135
0.17500682 -0.025148824 0.86663842
0.22486348 -0.0251361 0.86483556
0.27328017 -0.025319742 0.86090881
0.32361999 -0.02606919 0.86026251
0.37418112 -0.025498075 0.85838658
0.42430589 -0.026546812 0.85613877
0.47392672 -0.028134705 0.85352743
0.52069777 -0.034884091 0.85202104
0.56164545 -0.039478894 0.8509683
0.60778797 -0.047217339 0.85014349
-1.0589318 0.025077572 0.86628789
-1.0467662 0.024717771 0.88888955
-0.82026422 0.024402084 0.86980277
-0.77405143 0.023073658 0.8675791
-0.72430497 0.022874223 0.86507791
-0.67471915 0.025059948 0.86261714
-0.62463546 0.023561256 0.86297846
-0.57542503 0.024497736 0.86279672
-0.52531958 0.023199238 0.86273825
-0.47350988 0.024250418 0.86276501
-0.42452121 0.023819171 0.86274821
-0.37466192 0.024149939 0.86268491
-0.32504484 0.024289625 0.86292827
-0.27593207 0.023453288 0.86414278
-0.22454599 0.023199502 0.86448503
-0.17414494 0.023796925 0.86467606
-0.12564987 0.024914378 0.86429703
-0.081174485 0.023560002 0.86512321
-0.049037818 0.016755695 0.8740316
0.043536168 1.187632e-05 0.88926852
0.092040785 0.00717988 0.86738783
0.1251847 0.023613004 0.862661
0.17386958 0.024975315 0.86092007
0.22538117 0.023065271 0.85918623
0.27554783 0.023245974 0.85582525
0.3270126 0.022460282 0.85420406
0.37411538 0.020685662 0.85312724
0.42167455 0.011978128 0.85188466
0.46287626 0.0027659007 0.85093403
-1.0552405 0.078508668 0.86803085
-1.0472518 0.07416112 0.88742089
-0.82083905 0.075316638 0.86783826
-0.77398014 0.074084438 0.86424631
-0.72618675 0.074670136 0.86124295
-0.67580658 0.075704008 0.85899192
-0.6258226 0.074937493 0.85914421
-0.57634205 0.075327292 0.85932702
-0.52428472 0.07386139 0.85884333
-0.4729408 0.075772963 0.85812581
-0.42450085 0.075441726 0.8582111
-0.37573025 0.074634515 0.85773665
-0.32550883 0.075237937 0.8580156
-0.27496395 0.074341796 0.85910833
-0.22541188 0.073163323 0.85973299
-0.17550386 0.075254895 0.85923624
-0.12542868 0.07646019 0.85894716
-0.082861841 0.076293394 0.85947841
0.094931699 0.085688949 0.86214644
0.12805533 0.076592661 0.85674113
0.17480652 0.076392613 0.85491711
0.22399536 0.073836818 0.85372573
0.27241689 0.065612845 0.85248083
0.32372144 0.057966325 0.85069925
0.36259288 0.051706843 0.8506307
-1.0510987 0.1223198 0.87286192
-1.0464168 0.12550423 0.87985224
-0.82016796 0.12279816 0.86520332
-0.77474248 0.12554668 0.86129075
-0.72438502 0.12420778 0.85841507
-0.67582917 0.12588675 0.85570145
-0.6260879 0.12473845 0.85559148
-0.57678235 0.12517798 0.85502112
-0.52446198 0.12461301 0.8546313
-0.47251791 0.12570585 0.85379356
-0.42407444 0.12440894 0.85360044
-0.37626579 0.12470128 0.85322815
-0.32469395 0.12501042 0.85311335
-0.27472264 0.12519753 0.85427576
-0.22558314 0.12383001 0.85419202
-0.1758465 0.12547132 0.85377699
-0.1247706 0.12579025 0.85329413
-0.080802925 0.12663303 0.85385644
-0.046302591 0.12461211 0.86407661
0.093427993 0.13102184 0.85741299
0.12664266 0.11636839 0.85210377
0.17290345 0.11108378 0.85093343
0.21695581 0.1060677 0.85083461
0.28014937 0.11844508 0.85086942
-1.0525286 0.1812468 0.8801226
-1.0444031 0.17533134 0.87510842
-0.82018042 0.17633034 0.86307067
-0.77494156 0.1743179 0.85895079
-0.72451794 0.17501517 0.85567629
-0.67455727 0.17502925 0.85272056
-0.62437356 0.1742637 0.85239178
-0.57239503 0.1713988 0.851951
-0.52486843 0.16872108 0.85163605
-0.47441337 0.16608293 0.85121155
-0.42772323 0.16008136 0.85093403
-0.378236 0.15827738 0.85051095
-0.32507062 0.15430215 0.85075557
-0.2750766 0.15869305 0.85082948
-0.22743192 0.15771566 0.85100836
-0.18390474 0.15664288 0.85060138
-0.13122302 0.15398383 0.85057116
-0.072459064 0.15469037 0.85162991
-0.033593878 0.17857391 0.85501713
0.085417397 0.16131985 0.85426843
-1.0507362 0.20923227 0.87580478
-1.0434254 0.22516114 0.87942392
-0.81808168 0.2184554 0.86109048
-0.7752474 0.21558848 0.85797185
-0.72554088 0.21598259 0.8550216
-0.67588347 0.21523838 0.85251337
-0.62438083 0.22214642 0.85292608
-0.58534157 0.22936764 0.85560036
-0.5336163 0.2207685 0.85341036
-0.47770938 0.23494886 0.85651499
-0.42378289 0.23725736 0.85144353
-0.32863209 0.24229057 0.85347301
-0.29262865 0.24595866 0.85631782
-0.15731138 0.24498695 0.85269988
-0.022625292 0.23384605 0.8536635
0.024041831 0.22927225 0.85279846
0.23806345 0.24995305 0.8576895
0.32508817 0.24962898 0.8532322
-1.1166053 0.29618716 0.86022747
-1.0509083 0.28306726 0.87770039
-1.0454633 0.2717014 0.87817061
-0.61809891 0.2725068 0.88434458
-0.59618896 0.2565693 0.8685385
-0.31138456 0.25455832 0.87531805
-0.26750872 0.27536154 0.88089842
-0.08735431 0.25993404 0.88512164
0.060547352 0.26417112 0.89594507
0.18782704 0.25997919 0.8799023
0.23180227 0.25676557 0.86407536
0.28795061 0.26612723 0.86875379
0.32052961 0.27568689 0.87178725
0.36852896 0.2697919 0.89865524
0.4145889 0.25177395 0.85139525
0.49285987 0.28484926 0.87847418
0.52406001 0.27835333 0.87505776
0.57484889 0.27833262 0.88302416
0.62099004 0.27711868 0.88272727
0.67030531 0.27994201 0.89287221
-1.1234412 0.33080071 0.85904497
-1.0538006 0.33645442 0.87900418
-1.0453123 0.32190984 0.88049197
0.31423476 0.32267871 0.87404871
0.48815823 0.32450792 0.87670082
0.52116859 0.32200062 0.88592792
0.56891984 0.31258696 0.89166403
0.62271076 0.30414847 0.8946439
0.6816321 0.31667709 0.8997786
0.78228521 0.33463085 0.88167071
-1.1580691 0.38744834 0.86897832
-1.1338058 0.37715104 0.86305326
-1.0554091 0.38640916 0.88198757
-1.0437915 0.3705014 0.8826052
0.0057216184 0.39714679 0.89916939
0.48284024 0.39238971 0.89929444
0.50025749 0.35095227 0.89926487
-1.1590228 0.41753179 0.86588103
-1.1393212 0.42426822 0.8649925
-1.0546941 0.42550075 0.88381219
-1.0444874 0.42182708 0.87837297
-0.0044689006 0.43475664 0.89658558
0.020665074 0.43034863 0.89649761
0.052177716 0.44752353 0.89767003
-1.1332715 0.46708807 0.86535752
-1.0516661 0.46985996 0.87693995
-1.0446584 0.47458509 0.88130122
-0.0073868288 0.47567567 0.89108115
0.023750991 0.47502837 0.88949156
0.052383188 0.4749448 0.89155251
-1.0513399 0.52247226 0.86838108
-1.043785 0.52634221 0.8786841
-0.0097870063 0.52560133 0.88714689
0.024914185 0.52425069 0.88338804
0.053179488 0.52473384 0.88746786
-1.0568373 0.58262765 0.86148012
-1.0428548 0.57111394 0.88069916
-0.0098567354 0.56180608 0.88389331
0.026006345 0.56234366 0.87900645
0.053606406 0.55274171 0.88380975
-1.0535823 0.61006981 0.86882603
-1.0428319 0.62525755 0.87988573
-1.0404768 0.67116326 0.88386977
-1.036096 0.71348548 0.89056462
-1.0146346 -0.50581521 0.91008854
-0.97387862 -0.51033622 0.9175368
-0.92705822 -0.51177686 0.91821289
-0.88689107 -0.50742477 0.90611935
-1.0247885 -0.47226077 0.92075628
-0.97605962 -0.47472611 0.93901271
-0.92992777 -0.47327617 0.93686688
-0.8926608 -0.48538503 0.91843361
-1.0524496 -0.41645458 0.90583444
-1.0280143 -0.42410275 0.9313634
-0.97539127 -0.42856881 0.94585252
-0.92839766 -0.42328048 0.9423818
-1.0548822 -0.37432265 0.9131273
-1.0309684 -0.37574521 0.93766242
-0.98031169 -0.38662541 0.94891685
-0.9221397 -0.37319666 0.94355363
-0.86446482 -0.37731406 0.9001736
-1.0578332 -0.32477766 0.91430932
-1.0300224 -0.32671264 0.94120508
-0.99357468 -0.33958969 0.94941998
-0.91966844 -0.32370225 0.94412369
-0.86847699 -0.31068656 0.90366691
-1.0585349 -0.27472505 0.91594821
-1.0331682 -0.27590913 0.94127613
-0.9931972 -0.29354256 0.94999802
-0.92476696 -0.27046987 0.94433987
0.38973436 -0.28769261 0.92247647
-1.0589269 -0.2245298 0.91513401
-1.0327201 -0.22340336 0.94060558
-0.9708491 -0.21790668 0.94902694
-0.92735332 -0.22709036 0.94444805
-0.86711872 -0.22103079 0.90258223
-1.0543979 -0.18049106 0.90375298
-1.0305059 -0.17427081 0.93076676
-0.9818843 -0.16980825 0.94754398
-0.92553335 -0.17238148 0.94476008
-1.0529082 -0.1310453 0.90525424
-1.0311083 -0.12677041 0.9273439
-0.97468305 -0.12432378 0.94347328
-0.92889196 -0.12285031 0.9426173
-1.052194 -0.074618518 0.90132523
-1.0297469 -0.0766875 0.92715836
-0.97273099 -0.076352954 0.94051969
-0.92590678 -0.073437802 0.93826133
-0.89877117 -0.051561236 0.92527646
0.29228216 -0.078929037 0.91357422
-1.0516144 -0.042544801 0.90262336
-1.0311526 -0.027586006 0.92501587
-0.97443783 -0.026055619 0.93618232
-0.93232459 -0.026211902 0.93831402
-0.89579016 -0.039892096 0.92267317
-1.0307603 0.024705732 0.92474633
-0.97420561 0.024540395 0.93469805
-0.92985278 0.023969503 0.93577206
-1.031303 0.077026442 0.92244142
-0.97467071 0.075767361 0.93267453
-0.92942214 0.075123727 0.93335325
-0.8927784 0.083515823 0.91678125
-1.0281191 0.12738156 0.92261529
-0.97202516 0.12435415 0.93114471
-0.92570853 0.12442265 0.93032908
-0.89785796 0.10414632 0.92024601
-1.0502516 0.16144376 0.90110517
-1.030756 0.1762598 0.92072242
-0.97183788 0.17414348 0.93039715
-0.9277997 0.17506315 0.9305625
-0.89482147 0.19411168 0.91515982
-1.0282972 0.22549345 0.92130411
-0.97265816 0.22605048 0.92939889
-0.92714679 0.22440173 0.92881423
-0.8983658 0.20358503 0.91712761
-1.0282938 0.27478507 0.91964859
-0.97451121 0.27613968 0.92885226
-0.92566973 0.27483943 0.93107039
-0.87521166 0.27713776 0.92872036
-0.8326304 0.27536687 0.93159801
-0.61329609 0.28468019 0.91147816
-0.58092016 0.28349203 0.92212504
-0.30865178 0.29563728 0.93526828
-0.2809934 0.2891348 0.90683156
-0.16458261 0.28648663 0.93264079
-0.1294343 0.28485978 0.94030595
-0.068606324 0.27717459 0.92193073
-0.034898292 0.28504747 0.93361372
0.024945989 0.28410792 0.91831994
0.069623508 0.28532648 0.92644459
0.18444924 0.28729486 0.94208741
0.22501293 0.29399133 0.94626075
0.26666504 0.2927663 0.93673104
0.37713119 0.27265087 0.90677506
0.48709169 0.28211144 0.91418409
0.51173294 0.2737149 0.90136492
0.67723161 0.29865065 0.9056223
0.7059477 0.2922805 0.9139328
-1.0276943 0.3238585 0.92002755
-0.97209448 0.32543942 0.9277153
-0.92525178 0.32447901 0.93163776
-0.87346226 0.32458064 0.92962444
-0.83776248 0.32437947 0.93558985
-0.56565028 0.30657008 0.92003971
-0.1582676 0.30584356 0.94191301
-0.13465843 0.32281896 0.94516468
-0.088253707 0.34843647 0.94190067
-0.016288776 0.30790341 0.93260109
0.025022803 0.32272446 0.92254919
0.055489369 0.3278816 0.92162585
0.24226972 0.34012705 0.94337845
0.258959 0.3211098 0.93704259
0.53201044 0.34463388 0.90341556
0.57936299 0.33442181 0.90888059
0.62501985 0.33030814 0.91601205
0.66969061 0.32256633 0.91692644
0.73321146 0.33344522 0.9123078
0.76107645 0.336687 0.93244421
0.82127053 0.34767044 0.90937668
-1.0276181 0.37407011 0.92044401
-0.97174329 0.37511554 0.9272871
-0.92511261 0.37459028 0.93215799
-0.8752358 0.37561622 0.93062377
-0.841313 0.37396771 0.93694901
-0.17183173 0.37627292 0.94416749
-0.10804482 0.36124074 0.93950135
-0.090261877 0.38073161 0.94326425
-0.0047711357 0.38600779 0.92623144
0.024134101 0.37579948 0.9079119
0.066047624 0.38314754 0.92834598
0.12790424 0.39145356 0.94642043
0.17821315 0.38536152 0.94341058
0.22362071 0.37332666 0.93561399
0.48915675 0.37934941 0.91453707
0.52463251 0.37403381 0.91999531
0.57215679 0.37172511 0.93098849
0.62191045 0.36457089 0.93969154
0.66329265 0.36438656 0.94272894
-1.0295497 0.42451435 0.91867948
-0.97303909 0.42459658 0.92793155
-0.92379194 0.42498025 0.93239415
-0.87498194 0.42533779 0.93219978
-0.84461802 0.42540255 0.9380939
-0.10340153 0.40899566 0.93421704
-0.072479054 0.42525411 0.94169229
-0.021521237 0.42842603 0.93074602
0.035068203 0.41132224 0.90170902
0.075568445 0.42523277 0.93212235
0.12531932 0.42372221 0.94081783
0.17597772 0.42611837 0.93426478
0.21618181 0.42290398 0.92631847
0.5339964 0.40379366 0.93970972
0.55937815 0.40411168 0.94927216
-1.02775 0.47474328 0.91873932
-0.97415543 0.47409385 0.9271782
-0.9251619 0.47375745 0.93180096
-0.87255967 0.47581387 0.93189472
-0.84500772 0.47301137 0.93980163
-0.061927572 0.4570432 0.93345028
-0.030225571 0.46499446 0.93000776
0.077957615 0.47091249 0.92420983
0.1254358 0.47205365 0.93131196
0.17488289 0.47166479 0.92606121
0.20640005 0.46375787 0.91553193
-1.0282774 0.52486414 0.91695255
-0.9732756 0.52444726 0.92628676
-0.92526317 0.52566338 0.93201172
-0.87380195 0.52446741 0.93143278
-0.84632856 0.52390164 0.94017106
-0.017950915 0.5151661 0.90801889
0.074529134 0.52384537 0.92122173
0.12259626 0.52961993 0.92827505
0.15765174 0.52976501 0.9294858
-1.0269049 0.57521111 0.91649354
-0.97360277 0.57509506 0.92545873
-0.92440522 0.57576859 0.92966467
-0.873712 0.57472467 0.9299441
-0.84487903 0.57379836 0.93795931
-1.0258321 0.62421542 0.91676587
-0.97285354 0.62313467 0.92282706
-0.92373002 0.62614286 0.92476487
-0.87519908 0.62563205 0.92823893
-0.84486181 0.62461901 0.93991071
-1.0238484 0.67460757 0.9164198
-0.9734056 0.67369175 0.92098939
-0.92705834 0.67376161 0.92040795
-0.87413836 0.67322528 0.92118615
-0.84485298 0.67649341 0.9340533
-1.0255649 0.72599435 0.91748941
-0.97281659 0.72492534 0.9213385
-0.92432868 0.72433275 0.91922736
-0.87509233 0.72546428 0.91844761
-0.84434962 0.72413266 0.93322992
-1.0234157 0.77216703 0.91780031
-0.97531927 0.7748332 0.92190278
-0.92361438 0.77299911 0.91993761
-0.87405777 0.77518588 0.91777843
-0.84314156 0.77463663 0.93289733
-1.0125078 0.81808829 0.92126232
-0.97227746 0.82499337 0.92120987
-0.92685437 0.82371712 0.92387021
-0.87444133 0.82690865 0.92060453
-0.84360844 0.82429898 0.93237293
-1.0000157 0.85456729 0.92147386
-0.96614265 0.87071711 0.92056876
-0.92542392 0.8746708 0.92368239
-0.87394428 0.87427235 0.92260593
-0.84373176 0.87383699 0.93352973
-0.92055202 0.91724503 0.92199236
-0.87535989 0.9244523 0.92099005
-0.84339905 0.92460352 0.93401134
-0.86968285 0.96056694 0.92086577
-0.8440547 0.96202308 0.93623441
-0.9699375 -0.41129962 0.9517352
-1.0069938 -0.36678743 0.95077491
-0.97517431 -0.37242359 0.95240128
-0.94373208 -0.37782601 0.9511798
-1.0085183 -0.31472898 0.95173091
-0.97509181 -0.32459727 0.95362508
-0.94146103 -0.32571647 0.95148253
-1.0087397 -0.26994446 0.95194989
-0.97434318 -0.27397725 0.95295554
-0.94262737 -0.28778964 0.95200253
-1.0085945 -0.22137329 0.9506911
-0.97591794 -0.22660747 0.95239067
-0.94342566 -0.20855474 0.95314401
-0.96429974 -0.18156318 0.95233351
-0.94495022 -0.18163076 0.95117635
-0.95048261 -0.12008689 0.95065206
-0.94238675 -0.14988655 0.95011127
-0.82369125 0.28347623 0.97195756
-0.58255565 0.27610546 0.95533496
-0.40974373 0.29349768 0.97491688
-0.38520244 0.29011968 0.96622205
-0.12549074 0.29604137 0.95509106
-0.096867189 0.29664344 0.96990478
-0.019359397 0.29306152 0.96129328
0.081066638 0.2960453 0.95249385
0.12229262 0.2945973 0.9674207
0.16872086 0.29466489 0.96423
0.22282577 0.29554558 0.95191139
0.25835302 0.29805112 0.95408154
-0.83127451 0.32558337 0.97481787
-0.41676727 0.30649075 0.98476171
-0.3622151 0.30340993 0.97590739
-0.31349188 0.32996884 0.98691642
-0.29496181 0.32394585 0.98887634
-0.15526958 0.30588704 0.95351577
-0.11584113 0.32465762 0.96792775
-0.075872198 0.32899493 0.98409069
-0.029961722 0.329485 0.98513126
0.014409374 0.34347901 0.99438471
0.083160095 0.33125353 0.98481572
0.12604241 0.32658952 0.97809285
0.17605489 0.32595909 0.97202379
0.22313988 0.3233479 0.95812523
0.25598869 0.30953097 0.95658451
-0.83487636 0.37449971 0.97341508
-0.3485373 0.38081416 0.99009985
-0.17612517 0.36225775 0.9550879
-0.10344732 0.35114214 0.96763116
-0.071640827 0.37287107 0.96302134
-0.032881729 0.37411135 0.97224194
0.021262757 0.36325642 0.98499453
0.083423838 0.37156269 0.96574557
0.1235279 0.37041271 0.96694785
0.1719377 0.36460662 0.9664048
0.20753667 0.35781181 0.95277762
0.58217186 0.39690468 0.9525671
0.62867641 0.38646573 0.95549405
0.65951997 0.38501072 0.95991993
-0.83907855 0.42437926 0.97486722
-0.062561162 0.42359778 0.95357573
-0.031227918 0.41983426 0.96170324
0.57656282 0.40338793 0.95691866
0.60296804 0.40492281 0.9673292
-0.84199119 0.47491661 0.97551787
-0.047543805 0.4537428 0.95065838
-0.84192681 0.5267936 0.97334772
-0.45788333 0.51959634 0.98615283
-0.84140247 0.57608289 0.97445476
-0.84024811 0.62412381 0.97683138
-0.84018606 0.67551672 0.97458351
-0.83962023 0.72359824 0.97645026
-0.83906323 0.7748754 0.97713375
-0.83932155 0.82676214 0.97470188
-0.83919519 0.87616026 0.97284615
-0.839441 0.92692357 0.97419941
-0.83972979 0.97261494 0.97738427
-0.84065801 1.0030751 0.99380809
-0.82135487 0.29270452 1.0195061
-0.79806685 0.28549013 1.0241185
-0.82793796 0.32416299 1.0256747
-0.46615806 0.31987894 1.0427616
-0.40405911 0.31134734 1.0121939
-0.39791271 0.30081362 1.005718
-0.0086963205 0.32784912 1.008357
0.027071929 0.34555441 1.0012538
-0.83320111 0.37529176 1.0255799
-0.4610641 0.3937121 1.0377021
-0.35815433 0.37798288 1.0165589
-0.058345836 0.36358944 1.0101762
-0.020400593 0.3690716 1.0124511
0.029458024 0.35497406 1.0014509
0.096324794 0.37027526 1.0007781
0.10804451 0.36876723 1.0007946
-0.83518106 0.42277017 1.0237354
-0.83771884 0.47402373 1.0255247
-0.45010483 0.47426721 1.0492052
-0.83733392 0.52427536 1.0242904
-0.75989175 0.52492112 1.0379784
-0.74150181 0.51884037 1.0390838
-0.48277664 0.52431345 1.0323266
-0.83520472 0.57427394 1.0246922
-0.77078575 0.55114955 1.0466602
-0.83440667 0.6240679 1.025279
-0.83438665 0.67564249 1.0238345
-0.8333497 0.72516489 1.0256044
-0.83373117 0.77467841 1.0260812
-0.83501208 0.82481724 1.0264903
-0.83526254 0.87480545 1.023656
-0.83665037 0.92442924 1.0242059
-0.83747357 0.9744305 1.0258276
-0.8373062 1.0128495 1.0282385
-0.81845564 0.32604915 1.068167
-0.52435929 0.32371426 1.097702
-0.47036004 0.32832301 1.059028
-0.4160144 0.34563753 1.0691493
-0.38639483 0.34857351 1.0972848
-0.82375151 0.37371057 1.0718787
-0.7716046 0.3866967 1.0948921
-0.72457457 0.38023052 1.0896045
-0.69003123 0.38467482 1.0841082
-0.62331009 0.35637549 1.0649719
-0.47128075 0.37074682 1.0627224
-0.42410523 0.37897995 1.0863457
-0.83122146 0.42307687 1.0760399
-0.77218121 0.42211094 1.095901
-0.72444278 0.42529392 1.0954763
-0.6971873 0.42064065 1.0949472
-0.46504772 0.40987283 1.0754359
-0.43245646 0.41159716 1.0634755
-0.83508676 0.47437453 1.0730957
-0.76383114 0.47394517 1.097085
-0.72434676 0.47553906 1.0952395
-0.6971162 0.47728375 1.0949938
-0.46200708 0.47513512 1.0722284
-0.44812989 0.47248754 1.0616243
-0.83139706 0.52585202 1.0766318
-0.77439284 0.5128454 1.0797884
-0.72668481 0.51968396 1.0818092
-0.69714731 0.5182941 1.0952817
-0.82457715 0.5745067 1.0731438
-0.79822642 0.58210689 1.0940396
-0.82781142 0.62498468 1.0746881
-0.82748288 0.67493415 1.0743839
-0.8286314 0.72585303 1.0767862
-0.82964897 0.77391607 1.0735966
-0.83062589 0.82481569 1.0762371
-0.83282983 0.8743549 1.075667
-0.83421516 0.92493892 1.0739667
-0.83540612 0.97571903 1.0761523
-0.83533967 1.0243272 1.0732666
-0.83533645 1.0588847 1.0872418
-0.67295831 0.3312141 1.1483369
-0.55998772 0.33945984 1.1348419
-0.5318833 0.33982703 1.1127352
-0.81932771 0.37486285 1.1097169
-0.75027072 0.38871494 1.1003004
-0.67748487 0.38846004 1.1252043
-0.55427581 0.37531304 1.1392812
-0.54943949 0.38342816 1.1242208
-0.46714103 0.37858257 1.1408439
-0.43085456 0.38054737 1.1074978
-0.38227606 0.36658567 1.1182652
-0.8239435 0.42667779 1.1113579
-0.7768628 0.43547338 1.1008326
-0.74687475 0.41537765 1.1005433
-0.69300252 0.42549127 1.122893
-0.46993729 0.41657981 1.1381192
-0.82672948 0.47581676 1.113885
-0.78173077 0.47672403 1.1018593
-0.74874842 0.46448329 1.1016592
-0.69383299 0.47546887 1.1249002
-0.824552 0.51715273 1.1122193
-0.79128736 0.50077629 1.1015062
-0.70147473 0.54536569 1.1210004
-0.69448382 0.52123141 1.1257918
-0.8099227 0.59399176 1.1084833
-0.7119804 0.5527088 1.1119267
-0.82184297 0.62699735 1.1251382
-0.82282829 0.67524034 1.127255
-0.82454699 0.72596854 1.1243243
-0.82555163 0.77564824 1.1232872
-0.82808924 0.82554811 1.125532
-0.8290152 0.874681 1.1222206
-0.83007729 0.92600989 1.126158
-0.83237797 0.97601789 1.126983
-0.83244318 1.0227758 1.1251858
-0.8326152 1.0689925 1.128585
-0.67984062 0.34348515 1.1696761
-0.5728755 0.34847146 1.1529602
-0.68089134 0.37048736 1.1828936
-0.57899588 0.37922916 1.1762837
-0.54645431 0.38806933 1.1640388
-0.48113838 0.39027867 1.1556767
-0.68854421 0.42639309 1.1732595
-0.48980007 0.41810104 1.1646549
-0.6910463 0.47576305 1.175027
-0.69247329 0.52123874 1.1758986
-0.80825198 0.59754777 1.1515785
-0.79699159 0.58997113 1.1591994
-0.70406044 0.55142897 1.1877084
-0.57006085 0.57722485 1.1966457
-0.81627083 0.62707806 1.1768346
-0.82025576 0.67364705 1.1763641
-0.82019508 0.72284925 1.1731385
-0.82242727 0.77567881 1.1736664
-0.82402927 0.82409137 1.1784614
-0.82495338 0.87237108 1.1720064
-0.82673508 0.92324954 1.1745021
-0.82702106 0.97234905 1.1738287
-0.82894671 1.0276909 1.1790475
-0.82914031 1.0796837 1.1735994
-0.82963181 1.1132435 1.1809769
-0.67756176 0.37048432 1.2196943
-0.62528372 0.36973786 1.2441797
-0.68406743 0.42624205 1.225557
-0.60739881 0.44507805 1.2243886
-0.58757955 0.43250915 1.2284048
-0.68808943 0.47368976 1.2251358
-0.61326498 0.47417879 1.2344564
-0.59280878 0.47859901 1.2360724
-0.70103699 0.54995984 1.2498413
-0.68848717 0.51830727 1.2200347
-0.60617709 0.52456927 1.2281612
-0.58763403 0.52114677 1.2264471
-0.60664022 0.5767619 1.2321939
-0.58566409 0.56921989 1.2144691
-0.81254166 0.63749319 1.219474
-0.79499513 0.61378282 1.2030398
-0.6099183 0.62566471 1.2377384
-0.58803785 0.61785829 1.2146369
-0.81762058 0.67437613 1.2242341
-0.61538684 0.65206277 1.2404696
-0.58849949 0.65151829 1.2131704
-0.81931418 0.72658747 1.2244558
-0.82002312 0.77424026 1.2277769
-0.82139671 0.82242417 1.2294078
-0.82288563 0.87397057 1.225999
-0.82529283 0.92489135 1.2250298
-0.82457978 0.97435671 1.2266048
-0.82479542 1.0188302 1.2255247
-0.82729119 1.0719684 1.2259371
-0.8274439 1.127037 1.2284061
-0.82862788 1.1587213 1.2369137
-0.67931885 0.38669106 1.2792414
-0.64568281 0.37442884 1.2695606
-0.68080848 0.42242333 1.2760285
-0.58811474 0.44186968 1.2572348
-0.68175125 0.47784314 1.2769194
-0.63457543 0.48477969 1.257305
-0.59119463 0.47000927 1.2579979
-0.68708283 0.52009898 1.271293
-0.63174987 0.51030862 1.2640197
-0.6252467 0.57898396 1.2538991
-0.80814207 0.64392489 1.2760786
-0.62272936 0.61778378 1.2525163
-0.81557262 0.67613393 1.2750452
-0.81711537 0.72355437 1.2732854
-0.81812173 0.77465582 1.2765528
-0.81834584 0.82463056 1.2764366
-0.81884605 0.87333679 1.2736712
-0.8210156 0.92558736 1.2770277
-0.82259226 0.97432452 1.2751081
-0.82312685 1.0276103 1.2768277
-0.82331109 1.0730828 1.2730613
-0.82398409 1.1244586 1.2787106
-0.82486439 1.1721281 1.2763553
-0.66985095 0.39066681 1.3036942
-0.67593837 0.42916703 1.3137099
-0.67523468 0.47799665 1.306061
-0.68173134 0.52087855 1.312534
-0.79992205 0.6372723 1.3081961
-0.81361121 0.67404258 1.3259712
-0.8153404 0.72369432 1.3232927
-0.81557202 0.77475399 1.3255615
-0.81669319 0.82497209 1.3271006
-0.81716418 0.87451059 1.3182853
-0.81682247 0.92444628 1.3292242
-0.81951511 0.97413337 1.3231326
-0.81990457 1.0214676 1.3218056
-0.82185626 1.0753962 1.3278034
-0.82205087 1.1225328 1.3263276
-0.8224932 1.173015 1.3224059
-0.82380307 1.2132643 1.3347571
-0.80414772 0.6444115 1.3605256
-0.79734945 0.63664067 1.3785328
-0.81357038 0.67954051 1.3741262
-0.8135944 0.7269876 1.3731327
-0.81418389 0.7749368 1.3745117
-0.81606948 0.82723236 1.3761605
-0.81558216 0.87356293 1.371567
-0.81484526 0.9220472 1.3741299
-0.81568009 0.97403067 1.3724385
-0.81752056 1.0285771 1.3757215
-0.81782669 1.0754124 1.3755924
-0.81980735 1.1243452 1.3768036
-0.81904829 1.1750879 1.3710847
-0.82089871 1.2269758 1.370419
-0.81829906 1.2589378 1.3889438
-0.80322134 0.64528573 1.4367115
-0.81102562 0.67472899 1.4218911
-0.81228638 0.72453153 1.4247518
-0.81282592 0.77386433 1.4247146
-0.81287009 0.8221218 1.4225912
-0.81285393 0.87274772 1.4246197
-0.81345576 0.92169619 1.4237154
-0.81403786 0.97451472 1.4261295
-0.81481808 1.0211123 1.4237012
-0.81571823 1.0779771 1.4253823
-0.81502217 1.1251842 1.4267613
-0.81860602 1.1737547 1.4270778
-0.82016194 1.2257221 1.423263
-0.82244205 1.2744676 1.4297869
-0.79546666 0.63585842 1.4644165
-0.80879003 0.67493278 1.4727114
-0.81107783 0.72623056 1.4720206
-0.8107937 0.77365494 1.4759077
-0.81134355 0.82597244 1.476765
-0.81206352 0.87455267 1.476776
-0.81193399 0.92550451 1.4750611
-0.81155396 0.97234732 1.4763805
-0.81310815 1.0243009 1.4769971
-0.8119064 1.0736707 1.4756609
-0.81421739 1.1259172 1.4773046
-0.81501663 1.1761522 1.4721614
-0.81691223 1.2235955 1.4701889
-0.81970501 1.2745394 1.4730175
-0.82316148 1.323123 1.4835927
-0.80263561 0.6473797 1.5071616
-0.79607624 0.63965237 1.5276241
-0.80667317 0.67428184 1.5283281
-0.808658 0.72234821 1.5245991
-0.78111464 0.72822398 1.5414181
-0.80717599 0.77588916 1.5290124
-0.79411888 0.76217628 1.5470848
-0.80789047 0.82511586 1.5268887
-0.79215139 0.81635654 1.544291
-0.80923915 0.87523979 1.5200989
-0.81053036 0.92583627 1.5260634
-0.80828136 0.97226578 1.5248319
-0.81228727 1.0240756 1.527961
-0.81222022 1.073033 1.5277196
-0.81377977 1.1234595 1.529793
-0.81380534 1.1693331 1.5206794
-0.81631112 1.2215815 1.5218029
-0.82040232 1.2776656 1.5246129
-0.81758517 1.3254054 1.5161362
-0.79482895 0.64462274 1.5560549
-0.7957418 0.67674345 1.5558809
-0.80506217 0.72498566 1.5559815
-0.79596329 0.72446597 1.5584433
-0.80047095 0.75117069 1.5542864
-0.79335624 0.77570838 1.5517569
-0.80424422 0.84186506 1.5500429
-0.79518145 0.82576686 1.5549046
-0.8058098 0.87709481 1.5631031
-0.79257578 0.86638212 1.5777773
-0.8089174 0.92803258 1.5754145
-0.8122595 0.974567 1.5759288
-0.81037909 1.0215913 1.575747
-0.81084412 1.0695622 1.5753465
-0.81279421 1.1223527 1.5794404
-0.8129319 1.1705941 1.5737901
-0.81637073 1.2229069 1.5767066
-0.8180787 1.2705196 1.5750226
-0.82131171 1.3242371 1.5722444
-0.82318431 1.3702201 1.5730046
-0.80396402 0.89719796 1.6009552
-0.79901135 0.89271724 1.6169171
-0.80629891 0.92746669 1.6197017
-0.79912847 0.91235328 1.6353194
-0.80994904 0.97555512 1.6254486
-0.80936587 1.0193678 1.621735
-0.81159234 1.0762688 1.62967
-0.81272143 1.1275177 1.6305959
-0.81555289 1.1781164 1.6228137
-0.81405842 1.213549 1.6278518
-0.81693447 1.2707381 1.6226089
-0.8213253 1.3257955 1.625815
-0.82089347 1.3720006 1.629293
-0.82407552 1.4169706 1.6250204
-0.80519718 0.94304949 1.6741389
-0.79909015 0.92294455 1.6579176
-0.8089081 0.97521186 1.6753802
-0.809901 1.0275488 1.6766564
-0.80940014 1.0749037 1.6736531
-0.81355929 1.1282516 1.6797847
-0.81542784 1.1829213 1.6684103
-0.81609201 1.2284633 1.6760718
-0.81954497 1.2743027 1.6755387
-0.819125 1.3194414 1.6748339
-0.8204537 1.3770622 1.67443
-0.82073289 1.421917 1.6749511
-0.82406616 1.4580799 1.6788752
-0.79929268 0.94521624 1.7051501
-0.80877495 0.98125559 1.7241369
-0.81263697 1.023599 1.7273233
-0.81132734 1.0772908 1.7242737
-0.8092342 1.1183892 1.7272218
-0.81584877 1.1708523 1.7193104
-0.81519628 1.2249589 1.7252485
-0.81411004 1.2764261 1.7202883
-0.81925029 1.3340676 1.7353077
-0.81865597 1.3726956 1.7270991
-0.82231408 1.4263204 1.7286955
-0.82300663 1.474085 1.7247219
-0.82751971 1.5083009 1.7355247
-0.80611706 0.97579515 1.7572167
-0.79568696 0.95422608 1.7503184
-0.80867928 1.0278158 1.7590834
-0.81178135 1.0722709 1.7664009
-0.81239325 1.1311828 1.7766155
-0.81307405 1.1772728 1.7690936
-0.80901092 1.2230846 1.7620651
-0.81102049 1.2731634 1.7625484
-0.79997253 1.2825962 1.7589328
-0.81187546 1.3236639 1.763773
-0.80710721 1.3679736 1.7561052
-0.81482959 1.4280194 1.7609711
-0.81595355 1.4667412 1.7579521
-0.8223955 1.5236809 1.7705983
-0.82006389 1.1212947 1.8039308
-0.46359682 0.64562988 2.0466757
-0.44770211 0.64487332 2.0466466
-0.46257994 0.66975927 2.0364313
-0.44019151 0.66171968 2.0317943
-0.5014717 0.6408062 2.0982757
-0.47103605 0.63287628 2.0727296
-0.43810689 0.63591647 2.0710638
-0.51200253 0.68457115 2.0751536
-0.48542625 0.67866457 2.0733483
-0.43105116 0.67225718 2.0723422
-0.47962511 0.71308845 2.0814905
-0.57243413 0.64517599 2.1396594
-0.51861233 0.64911592 2.1237049
-0.46422267 0.61914438 2.1062264
-0.43826339 0.63519073 2.1269443
-0.56855661 0.65709913 2.1291373
