ply
format ascii 1.0
comment PCL generated
element vertex 1504
property float x
property float y
property float z
element camera 0
property float view_px
property float view_py
property float view_pz
property float x_axisx
property float x_axisy
property float x_axisz
property float y_axisx
property float y_axisy
property float y_axisz
property float z_axisx
property float z_axisy
property float z_axisz
property float focal
property float scalex
property float scaley
property float centerx
property float centery
property int viewportx
property int viewporty
property float k1
property float k2
end_header
-1.2746385 -0.57127929 2.9360526
-0.2350152 -0.52387428 2.9052794
0.48003477 -0.51891875 2.925735
1.1732427 -0.51790082 2.9196782
1.9216064 -0.51081789 2.9038525
2.0072913 -0.50022221 2.9037545
2.1061466 -0.50844002 2.91502
1.7870746 -0.47083187 2.9088168
1.8255308 -0.47469118 2.9214728
1.8790008 -0.47677913 2.9311917
1.925426 -0.47423217 2.9350808
1.9752612 -0.48274475 2.9273329
2.02542 -0.4802826 2.9331286
2.0750315 -0.47600752 2.9403107
2.1230614 -0.47114429 2.9438829
2.1512229 -0.49865052 2.9469955
1.1785452 -0.42743394 2.9155648
1.7292094 -0.40551347 2.9191303
1.7811499 -0.42254287 2.9346225
1.8242158 -0.42875305 2.9414454
1.8702484 -0.42663854 2.942107
1.9184883 -0.41374525 2.9437501
1.9877129 -0.43031427 2.9488254
2.0136755 -0.41220403 2.9456947
2.0510786 -0.40880376 2.9463854
2.101151 -0.44519663 2.9488201
1.1849374 -0.36892858 2.9234021
1.6721194 -0.36427113 2.9253304
1.7259984 -0.37528959 2.9334652
1.7824082 -0.3789489 2.9445307
1.8220145 -0.38059816 2.9428284
1.8708093 -0.37250978 2.9464436
1.915369 -0.37692702 2.9426985
1.9615707 -0.35537818 2.9498849
2.0287004 -0.39128396 2.9482577
1.1818134 -0.32376269 2.9193122
1.6321827 -0.3068561 2.9100296
1.6734023 -0.32574901 2.9309304
1.7292552 -0.32895067 2.9431643
1.7808676 -0.32651591 2.9442253
1.8218157 -0.32818365 2.9448256
2.0822678 -0.33616465 2.9494448
1.1853949 -0.27302444 2.9317751
1.6303492 -0.27585256 2.9089775
1.6685495 -0.27835518 2.9259415
1.7190298 -0.27589405 2.940901
1.7785 -0.27035266 2.9468977
1.8248098 -0.26599205 2.9467757
1.8693644 -0.2546168 2.9463508
-1.4744945 -0.21957734 2.9305575
1.188413 -0.22193189 2.9422481
1.6202078 -0.23226769 2.9069927
1.6718669 -0.22684151 2.9293394
1.7227834 -0.22303984 2.9393697
1.7814165 -0.21635446 2.9467041
1.828483 -0.22165179 2.9487836
1.8669227 -0.20652105 2.9452987
1.9813805 -0.22239304 2.9438365
-1.4707544 -0.16928235 2.9289691
1.1839962 -0.18419406 2.9330668
1.6209532 -0.1754705 2.9061108
1.6745672 -0.17264901 2.9311483
1.7234634 -0.16933127 2.9431624
1.7766144 -0.1886573 2.9484775
1.824121 -0.17582943 2.9481778
1.876009 -0.17493074 2.9479687
1.9101944 -0.17571066 2.9489443
-1.4703892 -0.11692914 2.9265213
1.5859691 -0.13657328 2.9034507
1.6267395 -0.12650594 2.9098763
1.6741592 -0.11978126 2.9351761
1.7238996 -0.12468704 2.9455338
1.7651734 -0.1253859 2.9485564
1.8395323 -0.12648579 2.9488089
-1.4714408 -0.090964995 2.947063
1.1855861 -0.05816545 2.9002273
1.6220279 -0.09123949 2.9024932
1.6707639 -0.07715667 2.9386947
1.7233224 -0.077758074 2.9456799
1.7743405 -0.070398748 2.9484723
1.8296871 -0.074824624 2.9479227
-1.4692056 -0.026851868 2.9220965
-0.33510259 -0.01406291 2.9457965
1.1854612 -0.043569885 2.9000883
1.6212451 -0.022539262 2.9020152
1.6706361 -0.030656613 2.9390259
1.724084 -0.032835465 2.9475651
1.7725477 -0.031029455 2.9459524
1.8285364 -0.034386404 2.9482751
1.8750902 -0.023436092 2.9469848
2.1277568 -0.032316465 2.9471707
-1.4677062 0.0078366119 2.9227211
-0.32799384 0.021211922 2.9457586
1.6247556 0.027903756 2.9148834
1.6705832 0.022746691 2.9332993
1.7187508 0.019895175 2.9468467
1.7633486 0.023985429 2.9472208
-1.4730082 0.075986437 2.9325352
-0.32320863 0.072626315 2.9148474
1.6169156 0.076813079 2.9102347
1.6696329 0.077847496 2.9365585
1.7242639 0.062948659 2.9474087
1.7647479 0.063296728 2.9491608
-1.4729683 0.10577891 2.913969
-0.33079326 0.13935779 2.9056594
-1.4715599 0.17211944 2.9325492
-0.32496065 0.17479765 2.9148893
-1.4712992 0.23482047 2.9229238
-0.31786996 0.21666697 2.912791
-1.4796582 0.26968542 2.9284358
-1.4820217 0.32329896 2.9291506
-1.4823922 0.37858301 2.9431353
-1.4903605 0.43485993 2.9262536
-1.4904348 0.47544721 2.9399624
-1.4865828 0.52604818 2.9319713
-1.4805982 0.56657797 2.9264932
-1.4747964 0.6286006 2.9237804
-1.4899497 0.67796135 2.9280949
-1.5015844 0.74536848 2.9398355
-1.4867146 0.71093118 2.9344661
-1.4925046 0.76400459 2.9176245
-1.5057683 0.82528275 2.9325428
-1.4967653 0.82840014 2.925993
-1.4977177 0.86072928 2.9465728
-1.5063391 0.93014979 2.9391184
-1.425225 1.7812148 2.9186106
-1.4677076 1.8110952 2.9392009
-1.4118639 1.8045686 2.9487898
-1.3921103 1.8176494 2.9407558
-2.2668362 2.1304693 2.9150016
-2.323808 2.1954751 2.9061565
-2.2736874 2.1729386 2.9152391
-2.3156867 2.216152 2.9018977
-2.2725067 2.2212043 2.9160309
-2.2426116 2.2489522 2.9148397
-2.2683098 2.2554302 2.9101536
-2.2339907 2.2691603 2.9094665
-1.3890051 2.2553911 2.9399967
-1.3305575 2.2643178 2.9379158
-1.2611688 2.3629422 2.9379544
-1.2204881 2.3665423 2.9295104
-1.1818089 2.373502 2.9248867
-1.1288655 2.3769546 2.925457
-1.070296 2.3838315 2.9299409
-1.0280411 2.3818851 2.9275088
-0.96902353 2.3802984 2.9139037
-0.92082548 2.3855462 2.9270489
-0.87430143 2.3933125 2.9178519
-0.83386755 2.3904231 2.9275398
-0.77699155 2.3970277 2.9285126
-0.73170435 2.3908939 2.9304185
-0.67137653 2.3918765 2.9437492
-0.63413286 2.3821723 2.9382429
0.67996544 2.3914793 2.9417267
0.73268282 2.3939905 2.9342904
0.77248549 2.3829913 2.9115
0.84294331 2.3942702 2.9444649
1.2907076 2.3948827 2.9157259
1.348318 2.3841376 2.9161594
1.3877554 2.3903687 2.9091706
1.4222692 2.3700511 2.9040117
1.4890769 2.3873034 2.9406691
1.5317892 2.3862782 2.9335451
1.5801072 2.3888729 2.9287827
1.629737 2.3792109 2.9246497
1.672541 2.3892086 2.926239
1.7204719 2.3942032 2.9239147
1.7865231 2.3895838 2.9250312
1.8313681 2.3900712 2.9235008
1.8795495 2.3943806 2.9260406
1.926959 2.3865199 2.9196284
2.0277023 2.3983169 2.9379928
2.0758317 2.3985965 2.9088182
2.1094718 2.3958442 2.9306986
2.1504986 2.3985848 2.9093564
2.2423241 2.396102 2.9435239
-0.81285489 2.4004128 2.924715
0.8053149 2.4037216 2.9308989
1.0784928 2.4132707 2.9039552
1.1341112 2.4015903 2.90642
1.1998544 2.4096341 2.93203
1.2324286 2.403594 2.9119329
1.4588423 2.4007177 2.9338009
1.5795449 2.4002819 2.9190779
1.9860013 2.40183 2.9224248
2.005724 2.4026594 2.9119806
2.1428123 2.4116631 2.9377072
2.1940668 2.405829 2.9432325
2.235606 2.4085221 2.9207265
2.2686839 2.4026523 2.9128079
2.3242691 2.4099104 2.91364
2.3862987 2.4130573 2.9280818
2.4286244 2.4054501 2.9361417
2.4686434 2.4152284 2.9264579
2.5334315 2.4186196 2.9399965
2.5952663 2.4290898 2.9151468
-1.2289139 -0.60855186 2.9637611
-1.1754475 -0.62141526 2.9647655
-1.1245129 -0.62033319 2.9728792
-1.2819632 -0.57907802 2.9794922
-0.53506917 -0.58960295 2.9836335
-0.48977685 -0.56593585 2.9816523
-1.279781 -0.5346005 2.993789
-0.45789468 -0.51193535 2.9722576
0.47915882 -0.51863122 2.9661496
0.54284537 -0.5171864 2.9937832
0.56989646 -0.51529193 2.9791758
0.60145891 -0.51746786 2.9879913
0.84342158 -0.522789 2.9807956
0.87177122 -0.52242088 2.9820404
0.90802139 -0.51867771 2.9886012
1.1819719 -0.52343154 2.9839077
2.2171438 -0.506073 2.971034
-0.46394265 -0.47470883 2.9679272
0.53645045 -0.48229435 2.9617062
0.57348895 -0.48319566 2.9627001
0.61538672 -0.47859669 2.9747121
1.9257594 -0.4516407 2.9508817
1.9726653 -0.45498964 2.9563007
2.0256939 -0.45775229 2.9528441
2.1182253 -0.48024303 2.9522581
2.1841516 -0.4893879 2.9943306
2.210279 -0.49142668 2.9969366
-0.46461564 -0.42495018 2.9772897
1.1699888 -0.4184835 2.9645691
1.8815722 -0.40068918 2.9535112
1.9312919 -0.42774945 2.9537642
1.9727268 -0.41753736 2.9523106
2.0281541 -0.43586525 2.953536
2.0715373 -0.43065047 2.953918
2.1186845 -0.42691749 2.9560771
-1.2836539 -0.37843406 2.9790308
-0.46691334 -0.39088279 2.9953251
1.8974785 -0.35251766 2.9500911
1.9388194 -0.36706024 2.9551215
1.9791908 -0.37628007 2.9547954
2.019989 -0.37190849 2.9569881
2.0731945 -0.37539941 2.9530902
2.1233308 -0.38503212 2.9622347
-1.4596751 -0.3078284 2.9859402
-1.4474452 -0.30851144 2.9978781
-0.37602562 -0.30081341 2.9782112
1.8124332 -0.30095777 2.9507732
1.87657 -0.31960905 2.9529021
1.9315802 -0.32208198 2.9562025
1.9756023 -0.32399455 2.9574041
2.0177908 -0.32554337 2.9546545
2.0606928 -0.32412845 2.9553518
2.115371 -0.33029568 2.9610696
-0.37508681 -0.27862579 2.9721324
-0.32889137 -0.27545306 2.9672985
1.7322831 -0.29811811 2.9509001
1.7579799 -0.28840792 2.9503527
1.8213944 -0.26940548 2.950963
1.8778485 -0.27602357 2.9535308
1.9299651 -0.27347067 2.9574234
1.9736315 -0.27505898 2.9582102
2.0201635 -0.27647865 2.9549434
2.0779657 -0.27892941 2.9600549
2.1221561 -0.28071311 2.9615986
-1.551935 -0.24861668 2.99142
-1.5260363 -0.24611861 2.9650896
-1.4697577 -0.23036061 2.9808056
-0.34046909 -0.24369253 2.9866569
1.7497905 -0.23550905 2.9511979
1.7707131 -0.22830996 2.9533014
1.8227493 -0.22162445 2.9506083
1.8798145 -0.22599857 2.9535286
1.9283624 -0.22493716 2.958046
1.9566938 -0.22540919 2.9521942
2.0295448 -0.22780417 2.9571421
2.0795937 -0.23244166 2.9641473
2.1177509 -0.23100968 2.966866
-1.4694977 -0.17619254 2.9767046
1.1997306 -0.1642389 2.9729524
1.7473127 -0.17235628 2.9502015
1.7780621 -0.16515936 2.9519207
1.8484814 -0.15855029 2.9510772
1.8924485 -0.17556001 2.9541144
1.9295998 -0.17661221 2.9591322
1.9746462 -0.179878 2.9582481
2.0250208 -0.1787277 2.9585166
2.0822065 -0.17808309 2.9668972
2.1219828 -0.18136722 2.9673576
2.1535697 -0.16599806 2.9795547
-1.4674515 -0.1251042 2.9805357
-0.34010535 -0.10020901 2.9887559
1.7808526 -0.12581179 2.9546134
1.8209891 -0.12633048 2.9518573
1.8817472 -0.12736912 2.9555235
1.925352 -0.12812878 2.9577305
1.9698634 -0.12891132 2.9600785
2.0230076 -0.12971184 2.9574974
2.0828717 -0.13088924 2.9627907
2.1311066 -0.13183601 2.9658413
-1.4687902 -0.073047347 2.9637499
-0.33967909 -0.071485989 2.9855125
1.7777674 -0.094182789 2.9536989
1.8238652 -0.081987187 2.9532759
1.8828201 -0.07948947 2.9584315
1.9254237 -0.079914026 2.9590919
1.9694196 -0.080369242 2.9606831
2.0260725 -0.080980666 2.9632616
2.0817368 -0.081551529 2.9625132
2.1244926 -0.085278094 2.9611766
-1.4665768 -0.033382364 2.9743104
-0.33139089 -0.028462157 2.9765079
1.7273716 -0.015273651 2.9534039
1.8217295 -0.027301811 2.9521294
1.8799058 -0.035434596 2.9544616
1.9239578 -0.031633299 2.9574986
1.968194 -0.031819005 2.9594965
2.0226605 -0.034081101 2.9630048
2.075361 -0.032263901 2.9648807
2.1120663 -0.028263453 2.965651
-1.4688411 0.027119221 2.978905
-0.32904348 0.02126793 2.9552312
1.7321434 0.027274935 2.9517667
1.780378 0.024078654 2.9534028
1.8243008 0.022638325 2.9546344
1.8766067 0.026018849 2.9590766
1.9262695 0.024632828 2.9610293
1.9704269 0.024780773 2.9628346
2.0243838 0.022783607 2.964421
2.0787058 0.025208099 2.9669294
2.1263011 0.013819518 2.9645398
-1.4720968 0.08078146 2.9756269
-0.3359023 0.056633186 2.9524493
1.7242041 0.081311978 2.9526184
1.7778519 0.084638037 2.9594138
1.8272082 0.079806298 2.9560804
1.87861 0.080395602 2.9586546
1.9287372 0.081019022 2.9640265
1.9722334 0.081491031 2.9647019
2.0181048 0.08206933 2.967725
2.0765924 0.077314049 2.9712605
2.122293 0.075057432 2.971077
-1.4741321 0.12283871 2.9695575
2.1177642 0.11708783 2.9963183
2.1509042 0.10046271 2.9778984
-1.4734751 0.1740911 2.9724092
-0.33641696 0.19839911 2.9528911
-1.4751589 0.2269623 2.9762988
-1.477145 0.27989927 2.9715378
-1.4783708 0.32399932 2.9793189
-1.4777092 0.36587304 2.9713516
-1.4832211 0.42906564 2.9764922
-1.4827067 0.47839341 2.9643509
-1.4890263 0.52771384 2.9767437
-1.4794745 0.56397408 2.9691582
-1.473978 0.63041496 2.9781594
-1.4862958 0.67136794 2.97824
-1.5091585 0.73352581 2.9575639
-1.4884844 0.71999085 2.9782205
-1.5001581 0.79161036 2.9660306
-1.4884712 0.76883769 2.9782155
-1.4881028 0.82015884 2.9786563
-1.489925 0.87373304 2.9830897
-1.4916639 0.92629766 2.9778054
-1.5003592 0.96637857 2.966938
-1.4920214 0.97125834 2.9878762
-1.4934738 1.018741 2.9892869
-1.5011799 1.0733211 2.9814651
-1.4994873 1.0561109 2.9824214
-1.5022004 1.1381674 2.9653845
-1.5051855 1.2176584 2.9899037
-1.5068957 1.2515464 2.9830124
-1.4981112 1.2741396 2.9989362
-1.5083288 1.348616 2.9971666
-1.5066593 1.3635517 2.9880669
-1.5167451 1.52157 2.9972892
-1.4340545 1.7816594 2.9781909
-1.4051056 1.8006346 2.9850283
-1.3993121 1.8101314 2.9644084
-1.418764 2.2710488 2.9920268
-1.3688219 2.2611988 2.9806089
-1.319079 2.2681525 2.9739907
-1.2970119 2.2740822 2.9848027
-1.2871077 2.3419981 2.9744473
-1.2669314 2.3635595 2.9940982
-1.2301153 2.362833 2.9679518
-1.1774468 2.3692055 2.9670186
-1.1176953 2.3744197 2.9753923
-1.0746839 2.3721724 2.9727807
-1.0172347 2.3759692 2.9713964
-0.98006916 2.3825724 2.975913
-0.92948943 2.3841767 2.9708426
-0.87724674 2.3823762 2.9693975
-0.82416612 2.3812337 2.9805813
-0.77531815 2.392679 2.9751844
-0.73706532 2.3946164 2.9801047
-0.67603445 2.3910778 2.9760351
-0.62281168 2.3962817 2.9753571
-0.56894594 2.3926516 2.9739914
-0.51302171 2.3806713 2.9559548
-0.4639174 2.3942468 2.9799128
-0.42130601 2.3984857 2.9905076
-0.39509746 2.397608 2.9923625
-0.32385173 2.3845479 2.9829211
-0.23824331 2.392174 2.9991672
-0.13402243 2.3877723 2.9989436
0.27266854 2.3895335 2.9934528
0.45412853 2.3880775 2.9734018
0.51939613 2.3907785 2.9791851
0.58221179 2.387152 2.9649217
0.61342967 2.3935022 2.9735556
0.73180556 2.3933771 2.9854538
0.75629306 2.3964493 2.9670086
0.83033204 2.3907609 2.9778888
0.92705446 2.3961036 2.9967029
1.4284693 2.3924975 2.9743354
1.4686344 2.3847795 2.97597
1.5241654 2.3955832 2.9783616
1.5724492 2.3851848 2.9714632
1.6181296 2.3936086 2.97368
1.6877753 2.3949664 2.984591
1.7232803 2.3923566 2.9625537
1.7791033 2.3952911 2.9602215
1.8151867 2.386939 2.9715989
1.8768554 2.3961334 2.9756365
1.9221951 2.396508 2.9813607
1.9891551 2.3980246 2.9605806
2.0292251 2.3922055 2.9736757
2.1065433 2.3951044 2.9796648
2.2833993 2.3990078 2.9722595
2.503207 2.398469 2.9765346
-0.71169877 2.4023626 2.9665551
-0.55246818 2.4022253 2.9775259
-0.51881057 2.4074569 2.9891667
-0.44798037 2.401787 2.9914975
0.43952295 2.4027982 2.9938853
0.48370492 2.4061325 2.9924707
0.52678269 2.4038744 2.9835737
0.57809377 2.400032 2.9707649
0.63355184 2.4038415 2.9833355
0.67119366 2.4047594 2.994808
0.71773726 2.4157367 2.9768817
0.78583419 2.4065599 2.9737821
0.82310832 2.4129267 2.9736128
0.87547427 2.4105837 2.9844468
0.92660999 2.4126034 2.983062
0.9778291 2.4209228 2.998518
1.0236988 2.4207861 2.9913857
1.3625754 2.4072125 2.9830871
1.7726655 2.4026375 2.9975169
1.8537587 2.4031153 2.9999893
1.9672048 2.4063184 2.9877117
2.0970607 2.4037242 2.9524913
2.1743906 2.4063134 2.9733992
2.2233074 2.4073277 2.9767897
2.3056285 2.4015546 2.9620407
2.3571968 2.4343593 2.9887981
2.407871 2.4147327 2.9687617
2.469979 2.4061944 2.9614987
2.5994039 2.410943 2.9866245
2.616261 2.4075463 2.9671431
0.98833942 2.4516454 2.9823139
-1.268724 -0.60134816 3.0207791
-1.2246482 -0.60630059 3.0260201
-1.1691524 -0.6091308 3.0049374
-1.1234552 -0.60915816 3.0171757
-0.57460761 -0.60792321 3.0340829
-1.2862709 -0.58689451 3.0233254
-0.54051483 -0.57356757 3.0168407
-0.47691664 -0.50965726 3.0005071
0.62348801 -0.5237087 3.0221214
0.9282279 -0.51307034 3.0250549
1.1862079 -0.51848543 3.0171418
1.2043424 -0.5044359 3.0219638
-0.49720201 -0.45665982 3.0400674
0.59029019 -0.46915129 3.0128853
1.2090673 -0.47511259 3.0329359
2.192852 -0.4743745 3.0084131
-1.2931319 -0.42436212 3.0379171
-0.49261901 -0.4232626 3.0148137
1.197929 -0.44372118 3.0337765
1.2058735 -0.42848301 3.0339372
-0.47855371 -0.37986422 3.0232937
0.14867879 -0.36242241 3.0230548
0.16979602 -0.36109638 3.0112486
1.199917 -0.3524642 3.0471177
1.2131932 -0.37476394 3.0358198
-1.4278722 -0.31099486 3.0324764
-1.336145 -0.3283565 3.0245941
0.13476288 -0.33002046 3.0392754
0.17088345 -0.34882146 3.0312037
1.2131943 -0.33655685 3.038939
-1.5233126 -0.26920718 3.0157511
-1.4700308 -0.27738702 3.0140049
-1.4421642 -0.27769774 3.0420365
-0.40135634 -0.27478239 3.0068862
-0.31569853 -0.27090016 3.024579
2.2072976 -0.27260271 3.0480893
-1.4590721 -0.22459137 3.0147793
-1.4451188 -0.22563113 3.0359774
1.2102875 -0.22884922 3.0384605
2.1998854 -0.23764381 3.0401025
2.203104 -0.21242437 3.0460098
-1.4617236 -0.17360628 3.02017
-1.4476677 -0.17143101 3.0438442
2.1978776 -0.18641686 3.0400872
-1.456566 -0.11982745 3.0169272
-1.445505 -0.12440681 3.0408766
-1.4607605 -0.077206053 3.0172107
-1.4467179 -0.077718548 3.0444965
-0.33103251 -0.065448277 3.0386019
-1.4593951 -0.030727986 3.0187116
-1.446329 -0.030914912 3.0442343
-0.3285262 -0.043280907 3.0158412
-1.4593412 0.023542186 3.0210676
-1.4486105 0.023701275 3.0490239
-1.4605883 0.077760041 3.0167332
-1.4476327 0.078319117 3.0462897
-1.462152 0.12440174 3.0188124
-1.447333 0.12511854 3.0445108
-1.4603947 0.17334785 3.021492
-1.4496503 0.16439553 3.0480464
0.92505366 0.17101984 3.0192544
0.98574352 0.17800611 3.0429938
1.0303797 0.17042591 3.0318279
1.0650538 0.17116892 3.0379646
-1.4627696 0.22295634 3.0272622
-1.4683185 0.28073025 3.0239918
-1.4682604 0.32861778 3.0329592
-1.4709519 0.3748937 3.022054
-1.4670563 0.42286301 3.0283954
-1.4747324 0.47384444 3.0171096
-1.4708631 0.52591747 3.024662
-1.4667864 0.57036424 3.0333836
-1.4718666 0.63021237 3.0381317
-1.4739842 0.68005872 3.0282774
-1.4709322 0.73090559 3.027874
-1.4716928 0.77339667 3.0267854
-1.4721384 0.83252656 3.0321918
-1.4744387 0.87950677 3.0314438
-1.4793957 0.92405206 3.0222411
-1.4790272 0.97461551 3.0227871
-1.4822854 1.0257097 3.0268111
-1.4899172 1.0745056 3.0184634
-1.4845096 1.1230253 3.0353844
-1.4909824 1.1789858 3.029669
-1.4917265 1.2266175 3.02126
-1.5062287 1.2974671 3.0097749
-1.4870789 1.2623112 3.0212231
-1.4933734 1.3005617 3.0232537
-1.5053006 1.4209474 3.0393713
-1.5178758 1.4756925 3.0364635
-1.5290947 1.5171007 3.0284073
-1.5280585 1.6010953 3.0391343
-1.5286732 1.70595 3.0440881
-1.4746279 1.77484 3.0264704
-1.4246215 1.7803936 3.0214837
-1.4113694 1.9881685 3.0454125
-1.4165939 2.000742 3.0249419
-1.3989751 2.0006256 3.0314877
-1.4135001 2.074609 3.0334101
-1.4378827 2.2833772 3.0440826
-1.3574694 2.2891734 3.0443051
-1.324111 2.2786336 3.0403786
-1.3036652 2.344893 3.0308313
-1.269514 2.3489239 3.049118
-1.2792183 2.3565583 3.0310466
-1.226216 2.3629158 3.0267527
-1.175549 2.3701193 3.0287302
-1.1265152 2.3661826 3.0168881
-1.0728678 2.3711631 3.0310352
-1.0288547 2.3715436 3.0222337
-0.97397614 2.3826861 3.0237103
-0.92091751 2.3766434 3.0256588
-0.86997461 2.3818924 3.0155218
-0.83018082 2.3863103 3.0308294
-0.77719909 2.3810773 3.0260487
-0.71624374 2.3924737 3.0256112
-0.67463803 2.3907933 3.0278478
-0.62842828 2.3916519 3.0198405
-0.5868364 2.3951175 3.0198383
-0.5147543 2.3943181 3.0410457
-0.47543445 2.3940694 3.034646
-0.42462897 2.3910573 3.0312722
-0.38109428 2.3924117 3.0377221
-0.31742966 2.392539 3.0102618
-0.27047098 2.3944585 3.0131297
-0.23044884 2.3922884 3.01647
-0.1785154 2.3958726 3.0239162
-0.065234445 2.3937917 3.0250573
-0.02182854 2.3961592 3.0451887
0.062518068 2.3952549 3.0324938
0.1617393 2.3957856 3.04129
0.23019671 2.3978488 3.0068274
0.26644862 2.3941615 3.03319
0.38967863 2.399972 3.0296764
0.46813354 2.3982139 3.0182564
0.52798688 2.3918951 3.0019722
0.57859987 2.3971469 3.0238991
0.62098914 2.3965883 3.0276639
0.6917038 2.3974764 3.0161273
0.71524984 2.399714 3.0495605
0.76210719 2.3972311 3.0016458
0.827847 2.3940179 3.0300121
0.87644958 2.394217 3.0248427
0.91510361 2.3934803 3.0322506
0.98887962 2.3992269 3.0206382
1.0681801 2.3986549 3.0340405
1.1662599 2.3969734 3.0387938
1.4414343 2.395781 3.014101
1.4681243 2.3908365 3.0361252
1.5201819 2.3879688 3.0198445
1.5699668 2.3863742 3.0265291
1.6275692 2.3917186 3.0227051
1.6732143 2.3934617 3.0215454
1.7356501 2.3930073 3.0154417
1.771147 2.3944333 3.0291321
1.8106304 2.3964517 3.0119762
1.8908339 2.3948081 3.0112519
1.9164462 2.3956869 3.0447576
1.9754698 2.3970809 3.0138514
2.4631965 2.3989949 3.0062838
-0.60956204 2.4041057 3.0048342
-0.56698942 2.4008651 3.0247324
-0.52730411 2.4043832 3.0266101
-0.47453937 2.4072611 3.0175946
-0.38007027 2.4035594 3.0183287
-0.33397734 2.4047267 3.029897
-0.29334974 2.4003661 3.0390291
-0.2113881 2.4035094 3.0374155
-0.15282661 2.4027901 3.0338216
-0.11772883 2.4016364 3.0280535
-0.082552172 2.4000168 3.0158672
-0.030413123 2.4018261 3.0189183
0.021782758 2.4034708 3.0210502
0.082790904 2.4054036 3.0226359
0.13107437 2.4078124 3.0326033
0.17890076 2.4085758 3.023205
0.2404325 2.4045994 3.0314586
0.2848475 2.4019973 3.0418155
0.31931666 2.406424 3.0278008
0.36861044 2.4100833 3.0244765
0.42052519 2.4054186 3.0247607
0.49647018 2.4083283 3.027529
0.54896766 2.4073689 3.0187953
0.55920988 2.4049234 3.0312476
0.66733956 2.4049287 3.0304365
0.71269804 2.4088793 3.0270531
0.7729094 2.4039223 3.0345993
0.80255657 2.4040055 3.0194716
0.89330947 2.4007621 3.0115738
0.92563522 2.4064617 3.029182
0.96323901 2.4111795 3.0256889
1.0293519 2.4056325 3.0272553
1.0707617 2.4033546 3.0212169
1.1277803 2.4103765 3.0322254
1.177588 2.4106083 3.0354676
1.230788 2.4167855 3.0455434
1.4272555 2.4029098 3.030618
1.6737012 2.4015887 3.0020313
1.7948172 2.400707 3.027272
1.8475504 2.4007094 3.0446455
1.8700657 2.404999 3.0397978
1.9594134 2.401058 3.0299182
2.07725 2.4062061 3.0174482
2.1235223 2.4058676 3.037497
2.1701095 2.4139001 3.023025
2.2328763 2.4192886 3.0433345
2.264415 2.4210184 3.0260499
2.3481135 2.4255767 3.0308106
2.3622222 2.4193695 3.0093527
2.4223347 2.4190648 3.020359
2.4948244 2.4099565 3.0054722
2.5316923 2.4051874 3.0245621
2.5530772 2.4060183 3.0107045
-1.2054207 -0.60443711 3.0562062
-1.1743723 -0.60441267 3.0644484
-1.1306767 -0.60181093 3.0613513
-0.56246704 -0.61084628 3.0505238
-1.2726289 -0.57462293 3.0696623
-1.2228471 -0.57796913 3.0826344
-1.175809 -0.58183652 3.0910761
-1.1402543 -0.58355439 3.0904231
-0.070856191 -0.59714538 3.0921497
-1.274121 -0.53005213 3.076333
-1.2313045 -0.5220561 3.092988
-1.193168 -0.53426802 3.0962126
0.89008701 -0.5149262 3.063611
0.96285087 -0.5326007 3.0624447
1.1816872 -0.52378368 3.0865142
1.200019 -0.51238042 3.0759306
-1.2781619 -0.4739871 3.0770094
-1.2363708 -0.47132465 3.0949206
0.58375198 -0.47577581 3.057327
1.1924626 -0.46285218 3.0616498
1.2107711 -0.48875102 3.0916774
2.2766776 -0.47000402 3.0799387
2.3281341 -0.46399054 3.0763826
2.3598332 -0.47383839 3.0661538
2.4093406 -0.48018676 3.0961268
-1.3046832 -0.40480909 3.0672722
-1.2768226 -0.42148906 3.0829296
-1.2402217 -0.42492709 3.0955131
-0.52066529 -0.44946164 3.0917158
1.2104609 -0.41233534 3.0911021
2.2425785 -0.4244284 3.0836987
2.2839665 -0.41854438 3.0901651
2.3218501 -0.41543823 3.0820258
2.3679812 -0.43300512 3.0989025
2.4057019 -0.4083257 3.0996692
-1.3129377 -0.37110487 3.0731559
-1.2787063 -0.37517598 3.0916681
-1.2470633 -0.39072284 3.0983837
0.1941566 -0.35150868 3.0537097
1.2154503 -0.38032711 3.0846405
2.223593 -0.37783468 3.0619907
2.2934115 -0.37497929 3.0904288
2.3322396 -0.37143585 3.0884745
2.3686247 -0.36975846 3.0891838
-1.402944 -0.31237742 3.0561852
-1.3696432 -0.31192312 3.0616152
-1.3217626 -0.3258177 3.0778081
-1.2868065 -0.32833895 3.0937777
0.12826777 -0.30765149 3.059855
0.16568509 -0.3237713 3.0719306
1.2200791 -0.32246462 3.0834861
2.2133207 -0.3247157 3.0524759
2.2934349 -0.33131257 3.0943825
2.3266084 -0.32902205 3.091573
2.3705521 -0.32592028 3.0956774
-1.4182535 -0.27382481 3.0607121
-1.3713995 -0.28106642 3.0676386
-1.3246609 -0.28111875 3.0824494
-1.2855875 -0.28113076 3.0940351
0.13105935 -0.2838738 3.0686853
0.15171219 -0.2958467 3.0898759
1.2181075 -0.28090945 3.07252
2.2921045 -0.27873293 3.0966511
2.3279965 -0.27987272 3.0938492
2.3677223 -0.28147513 3.0954034
-1.422915 -0.21925357 3.0660634
-1.370666 -0.22624896 3.0691528
-1.32446 -0.22637089 3.0850699
-1.2880617 -0.23160963 3.0957782
1.2177004 -0.20640016 3.0871141
2.2904787 -0.24363309 3.0967913
2.3213787 -0.22662659 3.0884626
2.3563974 -0.24500109 3.0829995
-1.4218569 -0.17209132 3.0658946
-1.3710194 -0.17162505 3.072418
-1.3246504 -0.17170337 3.0879691
-1.2935327 -0.17173119 3.0975797
0.1828469 -0.16732262 3.0709424
0.21009995 -0.16208616 3.0823419
1.2220852 -0.18601093 3.091872
2.320055 -0.19154325 3.0885882
-1.4212803 -0.125039 3.0662344
-1.3722848 -0.12486628 3.0767798
-1.3251345 -0.12485855 3.0906436
-1.2937505 -0.12486279 3.0996208
-0.33507502 -0.11044258 3.0749087
0.18732208 -0.14681198 3.0725105
0.21044791 -0.14759134 3.0879183
-1.4212885 -0.078045078 3.0672939
-1.3721104 -0.077939957 3.0774546
-1.3252568 -0.0779595 3.0919638
-0.3332465 -0.087855242 3.058584
-1.4208676 -0.031054368 3.0669551
-1.3720145 -0.031023376 3.0777867
-1.32538 -0.031048205 3.0927954
-1.2932198 -0.031037314 3.0999484
-1.4214443 0.023758749 3.0681648
-1.3732451 0.023725763 3.0805368
-1.3295916 0.026845455 3.0943501
-1.4240072 0.078733414 3.0730329
-1.3726405 0.078462444 3.0785208
-1.3311952 0.078506529 3.093925
-1.4236641 0.12576814 3.0711589
-1.3736024 0.12548651 3.0795543
-1.3356012 0.12557738 3.0942366
2.0232115 0.11829253 3.0912609
2.0874588 0.11911093 3.0857742
-1.4245011 0.1729431 3.0712893
-1.3753711 0.17267422 3.0818777
-1.3327324 0.17040703 3.094837
0.99363029 0.19810085 3.0834403
1.0273511 0.182107 3.062552
1.090386 0.17493166 3.0553124
1.1227084 0.17582619 3.0642843
2.0948038 0.17901635 3.0943456
2.1265571 0.17884946 3.0729983
-1.4524683 0.23519011 3.0506363
-1.4253829 0.22017281 3.0710175
-1.377355 0.22001365 3.0841713
-1.3393583 0.21681301 3.0952318
2.0883489 0.20388445 3.0835745
2.1208315 0.20458296 3.080337
-1.4550549 0.27483648 3.0536664
-1.4274541 0.27555385 3.0722749
-1.3784885 0.27518699 3.083545
-1.3411436 0.27196738 3.0974395
-1.4582658 0.33833572 3.0558801
-1.4291303 0.33099875 3.0719805
-1.3753396 0.3322261 3.0871522
-1.3487161 0.3148312 3.0944724
-1.4581004 0.37761483 3.0521948
-1.4307353 0.37868494 3.0715256
-1.3753762 0.37860748 3.0889511
-1.457128 0.42685497 3.0649376
-1.4258728 0.42688775 3.0761743
-1.3722827 0.42483559 3.0898957
-1.4567976 0.47407719 3.059181
-1.4205254 0.47513866 3.0793109
-1.3710015 0.47441849 3.0900271
-1.4523362 0.52268869 3.063525
-1.4229099 0.52350301 3.0789349
-1.3757424 0.5209139 3.0903893
-1.4545695 0.57107013 3.0620871
-1.4260792 0.5723514 3.0796824
-1.3769488 0.57172704 3.0919082
-1.4573096 0.6198054 3.0611322
-1.4293923 0.62146747 3.0801439
-1.3802842 0.62085372 3.0927839
-1.4592677 0.66836166 3.0579393
-1.4285531 0.67194974 3.0787868
-1.3833641 0.66553509 3.0932257
-1.4614284 0.7091769 3.055939
-1.4269018 0.71981138 3.0795593
-1.3808386 0.71674764 3.0959888
-1.4585874 0.77773821 3.0679154
-1.4251542 0.77116603 3.0873153
-1.3878719 0.76649928 3.0973766
-1.4602938 0.81880647 3.0638657
-1.4312825 0.8228603 3.0914888
-1.3963757 0.82129508 3.0963619
-1.4564639 0.87413895 3.0710316
-1.4230856 0.87283778 3.0909882
-1.3998117 0.85558867 3.0976436
-1.4646893 0.92563725 3.0735092
-1.4285877 0.92768753 3.0939734
-1.4657763 0.9749229 3.0737121
-1.427972 0.97680527 3.0937085
-1.4661989 1.0304832 3.0754397
-1.4216586 1.0180272 3.0983007
-1.4683329 1.0748004 3.0761392
-1.4222612 1.0825059 3.0983014
-1.4700882 1.1205397 3.0896657
-1.4429623 1.1022013 3.0976124
-1.4781603 1.1736196 3.0841548
-1.4817992 1.2222737 3.065506
-1.4884357 1.2846678 3.0840678
-1.4912256 1.3289006 3.0763118
-1.5014311 1.3807219 3.0598581
-1.4943472 1.36493 3.079215
-1.5023731 1.4225593 3.093684
-1.510367 1.4728633 3.0828664
-1.508924 1.5137933 3.0598657
-1.5058236 1.5794182 3.0906312
-1.5111408 1.6103029 3.0667586
-1.519237 1.6714146 3.0857255
-1.5147309 1.7287452 3.0871277
-1.4756311 1.7418499 3.0964921
-1.5150477 1.7636858 3.0677135
-1.4736395 1.756076 3.071743
-1.428091 1.7674705 3.0724843
-1.4148769 1.8093452 3.0615292
-1.4347628 1.8699433 3.0876169
-1.44241 1.9151607 3.0865703
-1.4258199 1.9806747 3.0816374
-1.418485 2.0641258 3.0541425
-1.4260925 2.1921554 3.0639849
-1.4411882 2.270309 3.0626707
-1.4245255 2.3061156 3.0853629
-1.3169494 2.341208 3.0796165
-1.25587 2.3391867 3.0783863
-1.2432444 2.3498425 3.0986626
-1.2779486 2.3521805 3.0771492
-1.2209473 2.3606021 3.0830786
-1.1693405 2.3547451 3.0657074
-1.1205635 2.3646383 3.0731034
-1.0815122 2.3676162 3.0702357
-1.0201027 2.3706255 3.0733876
-0.98148161 2.3756776 3.0755727
-0.92837644 2.3689697 3.0676439
-0.87397748 2.3781025 3.0717797
-0.82363492 2.3848286 3.078079
-0.77045923 2.3852482 3.0780957
-0.72791773 2.3855994 3.0811357
-0.66696548 2.3886759 3.0701382
-0.62098837 2.3889923 3.0732799
-0.57839531 2.3927205 3.0780461
-0.51911235 2.3968 3.0781772
-0.47354293 2.3905222 3.0759761
-0.42145732 2.3966603 3.0901699
-0.37879848 2.3946748 3.0806789
-0.33088097 2.3939927 3.0751593
-0.28700697 2.3942661 3.0825329
-0.22433595 2.3939183 3.069309
-0.1715634 2.3942986 3.0726011
-0.1189709 2.3986201 3.0801444
-0.066119827 2.3998957 3.0831208
0.26016638 2.3906779 3.0798779
0.3306309 2.3987188 3.0677099
0.3862536 2.3980045 3.0957565
0.44800851 2.3958962 3.0862072
0.47611508 2.3944414 3.06936
0.50172824 2.3982737 3.0825603
0.57185793 2.39446 3.0674717
0.6222589 2.3964481 3.0707664
0.67907226 2.3974059 3.0532908
0.73810363 2.3984525 3.0787997
0.81608135 2.3994026 3.0997744
0.86800081 2.3934507 3.0798683
0.92573267 2.3970368 3.083045
0.96332341 2.3977823 3.0806518
1.0305164 2.3978181 3.0810275
1.0687537 2.3930299 3.0821366
1.1225203 2.3947222 3.074775
1.1582309 2.3997641 3.0835733
1.230793 2.3979771 3.0960093
1.2577941 2.3967378 3.0850058
1.4312747 2.3911259 3.0516965
1.4664376 2.3845842 3.0682459
1.570514 2.3826814 3.0625582
1.6215538 2.3932374 3.0776932
1.6764778 2.3947542 3.0761659
1.7231023 2.3935895 3.0518219
1.7852484 2.3943276 3.0663745
1.8221022 2.3944187 3.0626357
-0.54672128 2.4011695 3.0800111
-0.36617237 2.4009538 3.0672557
-0.26111728 2.4086533 3.0859497
-0.17216042 2.4026315 3.0832536
-0.11288148 2.4053705 3.0665085
-0.083609045 2.4043274 3.0715697
-0.035215825 2.4038761 3.0801899
0.022081107 2.4071052 3.0759728
0.079372212 2.4038537 3.0794902
0.12453283 2.4092963 3.0801654
0.18420115 2.4049387 3.0721633
0.2247777 2.4069028 3.0690928
0.26928446 2.4018936 3.0766611
0.30470374 2.4028156 3.0751972
0.37529647 2.4024436 3.0683053
0.4263258 2.4044385 3.0792019
0.48116758 2.4020081 3.0555902
0.52780056 2.4045403 3.0699077
0.673908 2.4018886 3.0778666
0.72075278 2.4063377 3.0809124
0.78551698 2.4067044 3.0801954
0.83034539 2.4064884 3.0700915
0.86452711 2.4017613 3.0558615
0.94287264 2.4008563 3.0717371
0.98938388 2.4055758 3.0783656
1.0100797 2.4015284 3.0733004
1.0961949 2.4025033 3.0685728
1.1316028 2.400445 3.0547912
1.1875422 2.403492 3.0795088
1.2242452 2.4035592 3.0674129
1.29135 2.4081981 3.0769138
1.3294755 2.4097853 3.0786519
1.374313 2.404875 3.0946894
1.4034077 2.4068584 3.0865257
1.5054797 2.4023325 3.0794182
1.5520139 2.4069395 3.0876598
1.7776617 2.4099786 3.0961242
1.8755281 2.4050512 3.0828903
1.9258645 2.409821 3.0871866
1.9731762 2.4092312 3.0716105
2.0372362 2.4283519 3.0803235
2.0728207 2.4107068 3.0604913
2.1211681 2.4057927 3.0883465
2.1776915 2.4084129 3.0709546
2.2261028 2.4135413 3.0881598
2.264317 2.4115262 3.0598438
2.3434815 2.4315615 3.0717802
2.3760102 2.4201624 3.0723345
2.4229491 2.4195673 3.0750251
2.4771111 2.4119394 3.0769889
2.548413 2.400363 3.0586543
-0.13154717 -0.60157406 3.113796
-1.1621351 -0.56326681 3.1062236
-1.1228186 -0.56709945 3.1152196
-0.17733234 -0.58382457 3.127038
-0.14645208 -0.59347606 3.1113987
-0.064232275 -0.58230668 3.1356468
-0.041142724 -0.55435354 3.1091275
-1.1708884 -0.52292085 3.1063731
-1.1210479 -0.52604061 3.1194825
-1.0874228 -0.52791047 3.1279693
1.1851699 -0.51560295 3.127558
-1.2083008 -0.46904808 3.1025105
-1.1696601 -0.4726229 3.1098568
-1.1220459 -0.47144383 3.1191127
-1.0739697 -0.47353688 3.127038
-1.0218989 -0.45057473 3.1284828
-0.97430152 -0.4501422 3.1355159
-0.94348055 -0.45026127 3.1427727
1.1908249 -0.47926348 3.1235023
2.3847156 -0.46107462 3.1006491
2.4250689 -0.46366963 3.1013303
2.4840975 -0.46069244 3.1257329
2.5247681 -0.46673498 3.1299217
2.5617394 -0.46655709 3.1353185
-1.2192724 -0.41794664 3.1023819
-1.1754273 -0.42156339 3.1112173
-1.1202189 -0.42137939 3.1236503
-1.0721191 -0.420892 3.1312191
-1.0243418 -0.42048872 3.1389022
-0.98019475 -0.42576119 3.1434894
-0.92668861 -0.4444561 3.1420126
1.192888 -0.44071311 3.1329501
1.2062606 -0.41631877 3.1248651
2.3858442 -0.40798688 3.1081018
2.4242957 -0.44026318 3.1088305
2.4717839 -0.42394689 3.131531
2.5213568 -0.41862646 3.1428955
2.5520399 -0.42065442 3.1461623
-1.2295994 -0.37317687 3.105057
-1.1752493 -0.37464634 3.1148624
-1.1194971 -0.37430418 3.1256871
-1.0717934 -0.37400088 3.1343265
-1.0242425 -0.37372506 3.1425962
-0.98777467 -0.38407123 3.1493056
-0.49220026 -0.3606658 3.1121552
1.2153832 -0.37737718 3.1293137
2.2775295 -0.37525749 3.10289
2.4279172 -0.37148979 3.1184282
2.4743614 -0.38299328 3.1304226
2.5264187 -0.37239653 3.1364548
-1.2636116 -0.32840991 3.1011951
-1.230577 -0.32795614 3.1055267
-1.1744881 -0.32757971 3.1164427
-1.1190467 -0.32735431 3.1280065
-1.0713171 -0.32708585 3.1364717
-1.0241967 -0.32697716 3.1459486
-0.99209124 -0.33445567 3.1492157
0.18386367 -0.30002606 3.1324844
1.2105464 -0.32886305 3.1205044
2.2769613 -0.331462 3.1060143
2.4281361 -0.32120511 3.1197262
2.4826059 -0.32479861 3.137594
2.5319371 -0.33674076 3.1466455
-1.2623228 -0.28118122 3.1012065
-1.2300754 -0.28096452 3.1074274
-1.1746135 -0.2807864 3.1198843
-1.1190346 -0.28056616 3.1310675
-1.071329 -0.28033817 3.1395497
-1.030648 -0.28653356 3.1478958
0.12589629 -0.27150163 3.1247759
0.16192126 -0.27341908 3.1247785
1.2185322 -0.26943818 3.1302042
2.2738559 -0.2786586 3.1058121
2.3997948 -0.28313637 3.1031423
2.4310122 -0.2673443 3.1189165
2.4742317 -0.26963857 3.1311302
2.5278428 -0.27245602 3.1465292
-1.267601 -0.22126724 3.1032028
-1.2304578 -0.22636478 3.1114175
-1.1799811 -0.22794421 3.1213222
-1.1248337 -0.22433968 3.1313584
-1.0710036 -0.22573106 3.141536
-1.0392863 -0.23340525 3.1466293
0.13369621 -0.21477567 3.1348746
0.15272132 -0.20845917 3.1150928
1.2107944 -0.22245157 3.1164186
2.2830918 -0.2229927 3.1083252
2.3830299 -0.22946425 3.1074917
2.4208283 -0.22215907 3.1171832
2.4645557 -0.22366172 3.1217394
2.5124741 -0.2263535 3.1476445
-1.2697896 -0.17169963 3.1035926
-1.2296815 -0.17156892 3.1118569
-1.1744579 -0.17150088 3.124841
-1.1189188 -0.17137505 3.1360452
-1.0714866 -0.17128389 3.1452835
0.13333805 -0.17921619 3.1277788
0.16343437 -0.18947367 3.1303375
0.211472 -0.17797972 3.1019504
2.28233 -0.19133914 3.1055436
2.369797 -0.19344279 3.1034961
2.4176924 -0.19514692 3.1145644
2.464335 -0.19671626 3.1229157
2.5010359 -0.19818546 3.1347928
-1.2733191 -0.12483154 3.1045938
-1.2301358 -0.12476851 3.1145124
-1.1745397 -0.12468327 3.1265469
-1.1183798 -0.12453099 3.1359987
-1.0755336 -0.12670474 3.1444821
-1.2783002 -0.077971905 3.1055915
-1.2299497 -0.07789278 3.1150482
-1.1768847 -0.079296142 3.1275835
-1.1223568 -0.076267511 3.1386735
-1.0712318 -0.079698898 3.1469488
-1.2755368 -0.031042233 3.1047161
-1.2303367 -0.031051507 3.1165636
-1.1751852 -0.031045511 3.129818
-1.119642 -0.031036641 3.141077
-1.0843221 -0.034938738 3.1488404
-1.310941 0.0080520827 3.1003885
-1.2787185 0.023684049 3.1071346
-1.2287349 0.025464989 3.1192317
-1.1739024 0.022055596 3.13096
-1.1197947 0.023581116 3.1415033
-1.0831316 0.0053664041 3.1495762
-1.3113657 0.078520007 3.1006341
-1.2798415 0.078499883 3.1092162
-1.2242405 0.078430124 3.1223993
-1.1688349 0.078379549 3.1351004
-1.1208848 0.078292459 3.1439188
-1.3122561 0.12558474 3.1016338
-1.2810793 0.12559144 3.1111181
-1.2243967 0.12538879 3.1216898
-1.1693268 0.12533909 3.1353536
-1.1220402 0.12528758 3.1460905
2.0189347 0.11951911 3.1363642
-1.3136101 0.1806148 3.1029134
-1.2739427 0.17269857 3.1134357
-1.2175643 0.17247121 3.1247919
-1.1701922 0.17240001 3.1361127
-1.1248962 0.17038989 3.1466565
2.0757468 0.17694207 3.1230838
2.157917 0.15564717 3.1194794
-1.3189312 0.22399405 3.1030209
-1.2747768 0.21988386 3.1133757
-1.2192763 0.21976559 3.1271195
-1.1712701 0.21957213 3.1369355
-1.1277332 0.21936175 3.1448419
2.0467513 0.20477524 3.1237614
-1.3113515 0.27798313 3.1063797
-1.2688106 0.27521667 3.1171494
-1.2205075 0.27493271 3.1272056
-1.1727754 0.27478051 3.1379325
-1.1296762 0.27707565 3.1448267
-1.3181685 0.33078283 3.1049109
-1.2703022 0.33060205 3.117063
-1.2222389 0.33035406 3.1279211
-1.1737695 0.32996938 3.1369181
-1.1304637 0.327521 3.1459544
-1.319918 0.37851423 3.1052129
-1.2723765 0.37841895 3.1183753
-1.2245376 0.37822846 3.1300633
-1.1762691 0.37789577 3.1398878
-1.1328679 0.37216523 3.1469486
-1.3225713 0.42665192 3.1070976
-1.2745179 0.42641005 3.1192997
-1.2255883 0.42585078 3.1285024
-1.1782122 0.42580536 3.140872
-1.1469355 0.43377149 3.1488907
-1.324697 0.47480023 3.1072147
-1.2766098 0.47454765 3.1195929
-1.2280449 0.4741016 3.1299944
-1.1797256 0.47370541 3.1401477
-1.1390487 0.47319129 3.1468909
-1.3609109 0.53989965 3.1006427
-1.3269827 0.52316028 3.1071513
-1.2788167 0.52288872 3.1196282
-1.2302021 0.52240229 3.1301782
-1.1790147 0.52373058 3.142071
-1.149297 0.51366806 3.1471004
-1.329543 0.57180452 3.1071804
-1.2784351 0.57324338 3.1212311
-1.22268 0.56962675 3.1338046
-1.1681701 0.57047868 3.1446514
-1.350311 0.63762534 3.1047742
-1.3223414 0.6193521 3.1107447
-1.2684774 0.62061107 3.1254013
-1.2202655 0.62034398 3.1374586
-1.1729648 0.61750919 3.1456454
-1.3569696 0.67482221 3.1041803
-1.3205458 0.67056453 3.1146257
-1.2716426 0.67000359 3.1261973
-1.2224736 0.66926187 3.1362021
-1.1754094 0.670515 3.1447883
-1.3604435 0.72457612 3.1043506
-1.3234627 0.72003227 3.1138232
-1.2749996 0.71975243 3.1268752
-1.2260938 0.7191841 3.1379914
-1.18139 0.7160778 3.1464686
-1.3670428 0.77417862 3.1049054
-1.3274069 0.77031827 3.1148551
-1.2784159 0.7697776 3.1270704
-1.2296777 0.76936054 3.1390886
-1.1848596 0.76848042 3.1473463
-1.3722523 0.82130688 3.1041925
-1.3279103 0.82235909 3.1153941
-1.2748077 0.82072705 3.1314914
-1.2245524 0.81736124 3.1404419
-1.3685019 0.87233996 3.1069474
-1.3202314 0.87243801 3.1224499
-1.2717204 0.87238055 3.136703
-1.2261326 0.87342644 3.1441858
-1.1885111 0.8866666 3.1495144
-1.406805 0.91664124 3.101253
-1.3751267 0.92525315 3.1117334
-1.3250982 0.92429042 3.1238153
-1.2741526 0.92259938 3.1326864
-1.2299336 0.92005271 3.1449611
-1.3793577 0.97695172 3.1104033
-1.3299055 0.97647315 3.124361
-1.2795968 0.97531128 3.1354184
-1.2322482 0.97681755 3.1467927
-1.4536941 1.015969 3.1006289
-1.4214519 1.0436162 3.1061637
-1.3748752 1.028712 3.1158864
-1.3200748 1.030301 3.1332486
-1.2690398 1.0286876 3.1430097
-1.2365345 1.0451014 3.1489122
-1.4262409 1.0697585 3.1035042
-1.3739361 1.0749731 3.1186619
-1.3235159 1.0739777 3.1313632
-1.2775056 1.0722177 3.1453371
-1.4566158 1.1359924 3.1057155
-1.4202899 1.1202277 3.105999
-1.379728 1.1207149 3.1210768
-1.3297358 1.120221 3.1354845
-1.2868741 1.1187375 3.1439235
-1.4569944 1.1793926 3.1094224
-1.4201941 1.1763811 3.1129873
-1.3691058 1.1751601 3.1263142
-1.3194594 1.1751422 3.1420174
-1.2853812 1.1742274 3.1496947
-1.4733616 1.2276163 3.1114426
-1.4260135 1.2227682 3.1137199
-1.3742797 1.2292285 3.1298857
-1.3261724 1.2310097 3.1438365
-1.2897265 1.2196736 3.1487427
-1.4709828 1.2745881 3.1143594
-1.4271642 1.2703489 3.117759
-1.3824829 1.2730069 3.1316948
-1.3344899 1.2757061 3.1427274
-1.4714954 1.3272479 3.1120372
-1.4220589 1.326107 3.1190414
-1.3713412 1.3257283 3.1351318
-1.3290093 1.3253186 3.1477349
-1.4720138 1.3820561 3.1193368
-1.4258742 1.3732903 3.1226919
-1.3790379 1.375343 3.1389942
-1.3435384 1.3651006 3.1487269
-1.47359 1.4274696 3.1169116
-1.4189328 1.4237392 3.1268034
-1.3731546 1.4239353 3.1428626
-1.5041778 1.4919286 3.1204481
-1.4794763 1.4775442 3.1231198
-1.4264694 1.4738889 3.1282985
-1.3794339 1.4762657 3.1454999
-1.3405035 1.498513 3.1459081
-1.5040576 1.5175252 3.1105175
-1.4740478 1.5219005 3.1321802
-1.4204916 1.5255864 3.129576
-1.3814362 1.5231676 3.1440251
-1.3434658 1.518892 3.1466076
-1.5118331 1.5512328 3.1166523
-1.4802063 1.5714686 3.1287129
-1.4221069 1.5731016 3.1301353
-1.3879611 1.5733455 3.1425772
-1.514689 1.641228 3.1122098
-1.475535 1.6265659 3.1236246
-1.4263533 1.6212085 3.1286449
-1.3826166 1.6244814 3.1455371
-1.5096303 1.6712862 3.1120107
-1.4782916 1.6773285 3.1241162
-1.4197131 1.6741803 3.1244636
-1.3833081 1.674507 3.1424122
-1.4795728 1.7203054 3.1163876
-1.4224738 1.7233425 3.1215065
-1.3744274 1.7136837 3.1446292
-1.4158111 1.7775327 3.1337202
-1.384522 1.7707748 3.1455634
-1.4262854 1.8111804 3.1473641
-1.3778718 1.8232077 3.1451459
-1.4257529 1.8750997 3.1440032
-1.3818296 1.8803177 3.1421552
-1.4224693 1.9271108 3.1378875
-1.4225287 1.9658378 3.1185229
-1.4128109 2.0101535 3.1262097
-1.4317122 2.1309898 3.1374843
-1.4292132 2.1760814 3.1250579
-1.1015531 2.177181 3.1103384
-1.0838468 2.1774428 3.1158164
-1.428558 2.2214499 3.1389129
-1.4289519 2.2776809 3.1368363
-1.4195638 2.3066244 3.1188183
-1.3703784 2.3143539 3.1392682
-1.3178959 2.3315282 3.1243515
-1.2757744 2.3444839 3.1288619
-1.2223556 2.3441954 3.1363897
-1.1757286 2.34319 3.1341293
-1.130426 2.3441508 3.1261818
-1.0845162 2.343874 3.1392889
-1.2181962 2.3546219 3.1141348
-1.1664778 2.3613691 3.1019273
-1.1277052 2.3567829 3.1071613
-1.0694458 2.3644934 3.1202946
-1.0252235 2.3611898 3.1240885
-0.97416276 2.367353 3.1214409
-0.92111999 2.3694649 3.1253588
-0.8789528 2.3749561 3.124675
-0.82333672 2.3759599 3.123925
-0.77491969 2.3751769 3.1257534
-0.72641671 2.3831649 3.1318192
-0.67881256 2.3834641 3.123039
-0.62826467 2.3837855 3.1232333
-0.56509644 2.3913434 3.1255708
-0.52363622 2.3907695 3.121969
-0.47563505 2.3907204 3.131603
-0.42819062 2.3893821 3.128418
-0.37962779 2.3948746 3.1268482
-0.32540131 2.3901672 3.1256001
-0.27623439 2.3934727 3.1251621
-0.21816358 2.3959737 3.1236105
-0.17338455 2.3941832 3.1235127
-0.11662902 2.3942301 3.1291385
-0.07551907 2.3916483 3.1233659
-0.027542949 2.3964648 3.1268628
0.034166414 2.3979414 3.1264579
0.08433646 2.3969512 3.1129673
0.12082034 2.3984647 3.1483331
0.16423987 2.3972604 3.1107974
0.21863563 2.3978412 3.1317635
0.27275088 2.397032 3.1387494
0.3444635 2.3983352 3.1347826
0.38035452 2.3990176 3.1322732
0.52740622 2.3987353 3.1497788
0.5787859 2.3963842 3.1215823
0.63501287 2.3966038 3.1306629
0.65241617 2.3943689 3.1247132
0.79730481 2.3971643 3.1007581
0.82188827 2.3982935 3.1333728
0.86432922 2.3901768 3.1126781
0.96276307 2.3917525 3.1279807
1.0284103 2.3958867 3.116396
1.1478287 2.3979464 3.1227028
1.1763622 2.3936403 3.13342
1.2029729 2.3976336 3.1047406
1.2736156 2.3907142 3.1100247
1.3145359 2.3977854 3.1061215
1.3723313 2.3943415 3.130177
1.4225422 2.3974497 3.1329911
1.477821 2.3995352 3.128149
1.5451785 2.3972697 3.1389282
1.5829794 2.396944 3.1221981
1.6345425 2.3977904 3.1439896
1.6700501 2.3937387 3.1212206
1.7200558 2.3967805 3.102634
1.8364669 2.3978879 3.1372139
1.8557477 2.3976426 3.1268995
-0.35406777 2.4032676 3.1403751
-0.33329669 2.4007337 3.1042886
-0.23907708 2.4005821 3.1226432
-0.16452149 2.4024971 3.1175625
-0.13777184 2.4012349 3.1169851
0.0044828579 2.4028931 3.1216137
0.057888996 2.4039316 3.122534
0.1290863 2.4036729 3.1204474
0.18330562 2.4145684 3.1324511
0.21779308 2.400537 3.1123552
0.28044647 2.4043741 3.1133151
0.32115808 2.4050128 3.1195948
0.37065464 2.4028664 3.1209974
0.42551059 2.4013591 3.130681
0.47059211 2.402832 3.1273606
0.5250507 2.4059942 3.1244833
0.58023977 2.4028144 3.1299362
0.63135517 2.4007287 3.1013331
0.67558336 2.4056885 3.1181099
0.73632681 2.4039288 3.122344
0.77710551 2.4029229 3.1249158
0.83855617 2.4030833 3.1180799
0.89693987 2.4047587 3.1252913
0.92581314 2.408885 3.1240292
0.99931276 2.4139004 3.149786
1.0958555 2.4052548 3.1488302
1.119969 2.410233 3.136055
1.1861227 2.4008334 3.1148565
1.235292 2.4062309 3.1459875
1.253095 2.4046245 3.1376729
1.3304732 2.400568 3.1245706
1.4295491 2.4007812 3.1079085
1.4693269 2.4021757 3.1217709
1.5292933 2.4062691 3.117393
1.5667878 2.4012561 3.1360497
1.6079166 2.4058206 3.1253738
1.7471415 2.401675 3.1423149
1.7737445 2.4091697 3.126812
1.8170395 2.4045825 3.1125395
1.8888183 2.4025545 3.1179721
1.9339895 2.4126127 3.1347203
1.9760728 2.4061468 3.1241653
2.0346861 2.4073246 3.1174324
2.0818686 2.417778 3.1333714
2.1336837 2.421361 3.1340437
2.1757574 2.413415 3.11936
2.2290642 2.407496 3.1265304
2.2697721 2.4185641 3.1215839
2.3272974 2.4259462 3.1159451
2.3635004 2.4215484 3.1191604
2.4275012 2.4137504 3.1149945
2.46646 2.4110475 3.1381373
2.5757241 2.4051564 3.1055601
2.983799 2.4112208 3.1109588
-0.61584336 -0.56283301 3.1771526
-0.59981173 -0.57267451 3.1749961
-0.1728335 -0.58395195 3.1842346
-0.1189577 -0.59132862 3.1834249
-0.080251932 -0.58129543 3.1723049
-0.026693305 -0.55040538 3.174598
-0.65095198 -0.53005743 3.1973224
-0.022867735 -0.53882587 3.1753731
1.1308554 -0.52648079 3.1869063
1.1678154 -0.51790595 3.1745405
-0.88184309 -0.45052329 3.1566813
-0.82020921 -0.450829 3.1700127
-0.77446204 -0.45136166 3.1815672
-0.72819585 -0.45164463 3.1908801
1.1722883 -0.49252096 3.1656427
2.5898376 -0.46074826 3.1533127
2.6293263 -0.46444336 3.1659675
2.6585617 -0.46628714 3.1656625
2.714061 -0.4589529 3.1853468
2.7734942 -0.45724571 3.1955812
-0.96191335 -0.4126786 3.152669
-0.92526543 -0.4168669 3.1585939
-0.87357312 -0.42163551 3.1671312
-0.82422179 -0.42328367 3.1755295
-0.77575022 -0.42092553 3.1896925
-0.73934621 -0.43131295 3.194473
-0.69327974 -0.44920826 3.1782639
-0.5374403 -0.43301004 3.1941791
1.1928577 -0.43862033 3.1796374
1.210357 -0.41247869 3.1587632
2.5819409 -0.42376179 3.1618056
2.6264036 -0.42674837 3.1667204
2.6663828 -0.43019184 3.1793144
2.7215748 -0.42500472 3.1921968
-0.97163177 -0.36828348 3.1519735
-0.92964661 -0.37330061 3.1584628
-0.87605405 -0.37368131 3.1720648
-0.82188606 -0.37383926 3.1831737
-0.77763432 -0.37607056 3.1928461
-0.52162099 -0.38635206 3.1976125
1.2067492 -0.36614895 3.1763952
2.5253406 -0.36449081 3.1534221
2.5857482 -0.37307754 3.1664515
2.6258402 -0.37089458 3.1717985
2.6744628 -0.37779304 3.1801867
2.7019255 -0.35741442 3.1936712
-0.97193879 -0.32440534 3.1536524
-0.93018097 -0.32680443 3.163733
-0.87619948 -0.32700786 3.1760235
-0.82203913 -0.3271662 3.1872029
-0.78368038 -0.32741949 3.1962197
1.2067634 -0.3256332 3.1716506
2.5208814 -0.30915198 3.1525788
2.5750122 -0.31814203 3.1610267
2.6217575 -0.32392633 3.1710424
2.667222 -0.32955435 3.1782656
2.7160921 -0.32024258 3.195797
-1.0167278 -0.27254641 3.1521854
-0.97706252 -0.28013954 3.1577616
-0.93077511 -0.28028145 3.168726
-0.87638086 -0.28033859 3.1796474
-0.82419813 -0.28243148 3.1905389
-0.79182297 -0.29635739 3.1983535
-0.67414796 -0.26188675 3.177022
-0.4111836 -0.27666432 3.1978939
-0.38731533 -0.27608722 3.193078
0.095420308 -0.25931248 3.1904597
0.11053894 -0.26662123 3.1857572
0.18525589 -0.27206439 3.1579731
1.2100435 -0.2695823 3.1684618
2.5793164 -0.27502111 3.1579602
2.6135681 -0.27665833 3.1646929
2.671968 -0.27628994 3.1857662
-1.0192727 -0.22319192 3.1540234
-0.97780633 -0.22581731 3.1630547
-0.93065786 -0.22572428 3.1712067
-0.87666601 -0.22587663 3.1835475
-0.83066499 -0.22609647 3.1948504
-0.67187679 -0.22002265 3.1871824
0.0915782 -0.23258111 3.1911986
0.11993194 -0.23212177 3.1667988
0.15551217 -0.23499969 3.1709862
1.1998852 -0.20708391 3.1910405
1.2066215 -0.22208819 3.1735144
2.5439107 -0.21837969 3.1526349
2.5850875 -0.22027485 3.1685321
2.6244054 -0.21701786 3.1727896
2.6742558 -0.22746412 3.1845622
-1.0242733 -0.17122255 3.1544635
-0.97786552 -0.17128664 3.1655459
-0.92396289 -0.17141974 3.1787579
-0.86982363 -0.17151366 3.1907301
-0.83902937 -0.17940867 3.1976171
-0.6643613 -0.18530014 3.1906095
0.09546423 -0.15259117 3.1963265
0.11015841 -0.19735999 3.1779845
1.2064636 -0.18966337 3.1630034
2.6873527 -0.18666705 3.1882279
-1.0558378 -0.11673129 3.150377
-1.0244031 -0.12449522 3.1563187
-0.9781478 -0.12457475 3.1679053
-0.92352444 -0.12457449 3.1786854
-0.87026191 -0.12477144 3.1937644
0.095292337 -0.1218306 3.191385
0.12688518 -0.11921079 3.1713355
0.15607713 -0.11411916 3.186769
-1.0723313 -0.062233411 3.1504896
-1.0245194 -0.077766195 3.1576738
