ply
format ascii 1.0
comment PCL generated
element vertex 1481
property float x
property float y
property float z
element camera 0
property float view_px
property float view_py
property float view_pz
property float x_axisx
property float x_axisy
property float x_axisz
property float y_axisx
property float y_axisy
property float y_axisz
property float z_axisx
property float z_axisy
property float z_axisz
property float focal
property float scalex
property float scaley
property float centerx
property float centery
property int viewportx
property int viewporty
property float k1
property float k2
end_header
-1.1382297 1.2837411 1.9289873
-1.1332259 1.3248138 1.9242853
-1.1373194 1.3760242 1.9227358
-1.1368641 1.4202188 1.9218922
-1.1420072 1.4677893 1.9108957
-1.155545 1.5741197 1.9093846
-1.1542 1.6684691 1.9150946
-1.1432747 1.6705192 1.9380655
-1.1528213 1.7349567 1.900932
-1.1492785 1.7254571 1.9267973
-1.1522369 1.753173 1.9275992
-1.1201295 -0.502307 1.9943678
-1.0791605 -0.5075683 1.9683639
-1.0269445 -0.5041101 1.970212
-0.99085397 -0.50173765 1.9895806
-1.1523075 -0.46276924 1.976072
-1.1328487 -0.48962259 1.971796
-1.0224595 -0.49137774 1.9802078
-0.96056628 -0.47616118 1.9685587
-0.82182002 -0.48535252 1.9695349
-0.72809738 -0.49522614 1.9697492
-0.65777016 -0.49259833 1.9532708
-0.62717372 -0.49180055 1.9567409
-0.57272971 -0.49242449 1.9708414
-0.52177978 -0.48980731 1.9694965
-0.48160115 -0.48889011 1.9725894
-0.42258427 -0.48793992 1.9637719
-0.38092324 -0.48851177 1.9679286
-0.3267087 -0.48637062 1.9730326
-0.2693646 -0.48671454 1.9750708
-0.23011194 -0.48438033 1.9841952
-0.17530803 -0.48275661 1.9709378
-0.12231827 -0.47954386 1.9705956
-0.090414248 -0.47699222 1.9750978
0.38813174 -0.46274093 1.9609896
0.42706478 -0.46472096 1.9569087
0.4782719 -0.46373379 1.9716334
0.51912838 -0.46440235 1.9701184
0.58593357 -0.46710855 1.9808438
0.61790317 -0.46636382 1.9823159
0.68127215 -0.47100487 1.9797585
0.71931374 -0.46776584 1.9649267
0.79153341 -0.47221112 1.9660509
0.83060819 -0.48311839 1.9728107
0.87803793 -0.47668934 1.9775171
0.92023146 -0.47407183 1.9850819
0.97871834 -0.47292981 1.9723675
1.0179365 -0.46834156 1.9750549
1.0795705 -0.47022358 1.9604062
1.1290045 -0.47057265 1.9753879
1.1606283 -0.45860061 1.9797509
1.239915 -0.46225485 1.9631802
1.2752465 -0.46532127 1.9627957
1.334991 -0.46439397 1.9694442
1.4823403 -0.46432018 1.9770694
1.5287174 -0.46482894 1.9762467
1.6440135 -0.45654923 1.9761573
-1.1519489 -0.43068331 1.980865
-1.1458462 -0.42311248 1.9711838
-1.1510787 -0.37117714 1.9651107
-1.1464632 -0.37788516 1.9762422
-1.1529967 -0.31984925 1.9750749
-1.1476561 -0.33293697 1.9679464
-1.1529897 -0.27398252 1.9788783
-1.1552643 -0.21871774 1.9740099
-1.1468525 -0.24007633 1.9613726
-1.1567618 -0.17808627 1.9720104
-1.1586558 -0.1258703 1.978212
-0.96764177 -0.10122517 1.9686865
-1.1576836 -0.073253646 1.9784613
-0.97040337 -0.064209729 1.9754547
-0.93889058 -0.069926657 1.9509236
0.77600837 -0.058619343 1.9512897
0.83974528 -0.059301913 1.9589387
0.87240648 -0.059834938 1.969179
1.1344327 -0.055289175 1.9687862
1.1726925 -0.058858324 1.9861864
1.6272802 -0.057265535 1.986746
1.6680429 -0.057854444 1.9919796
-1.1586472 -0.023732705 1.9793667
0.64874947 -0.014370827 1.9518478
0.67375344 -0.016025268 1.9538152
0.72630537 -0.022798065 1.9541628
0.77625602 -0.028298127 1.9594876
0.82307947 -0.029091354 1.96735
0.87563115 -0.029473558 1.9747478
1.0953075 -0.015223058 1.9605913
1.1237482 -0.026765034 1.9700277
1.1582041 -0.036684126 1.9913148
1.6873401 -0.046201184 1.9820279
1.7202474 -0.024819186 1.9762883
-1.1597192 0.021301704 1.9815176
0.5274505 0.040862981 1.9543176
0.58075982 0.031975113 1.9600036
0.62358713 0.028032301 1.9658737
0.67459166 0.023155365 1.9706771
0.72307843 0.026245911 1.973961
0.77295941 0.01999623 1.9785318
0.82625204 0.021578657 1.9864056
0.88364393 0.017037136 1.9766266
1.0801009 0.028639818 1.9699484
1.1158427 0.010707683 1.9841322
1.7375754 0.022214493 1.9791199
1.7591327 0.036009695 1.9537014
-1.1589627 0.075674422 1.977369
0.3876597 0.092589617 1.9528704
0.43289176 0.081202775 1.9557395
0.48000056 0.078246377 1.9609669
0.52503216 0.077905536 1.9676726
0.57451552 0.077683419 1.9769348
0.62479824 0.076898992 1.9817626
0.67377359 0.077401996 1.9877268
0.72209936 0.071958311 1.9906344
0.77213115 0.060081851 1.9970744
0.81961644 0.056701664 1.9976909
0.88959658 0.071475789 1.9741415
1.0330175 0.081820793 1.9592342
1.068634 0.072675146 1.9797536
1.1034725 0.057896458 1.9976082
1.744671 0.065919861 1.9867489
1.7684091 0.081145756 1.9730421
-1.1595322 0.12649165 1.9794476
0.3261894 0.12632972 1.956331
0.37280419 0.12355798 1.9650182
0.42275345 0.12427913 1.9701833
0.4750661 0.1254691 1.9820001
0.52535176 0.12512086 1.9884354
0.57334167 0.12165567 1.991212
0.62383151 0.11967676 1.9964205
0.89033216 0.12028544 1.9766012
0.90198195 0.12009378 1.9566031
0.98576719 0.13703278 1.9593738
1.0246547 0.12476441 1.9733304
1.0579895 0.12497745 1.9931399
1.7754953 0.12474257 1.9775784
1.8084674 0.13821372 1.9593604
-1.1605241 0.17680576 1.9769688
0.24219729 0.18812799 1.9555181
0.27514812 0.17685811 1.9595209
0.32643422 0.17161608 1.9748299
0.3758733 0.17041434 1.9860221
0.4264349 0.16835107 1.9902129
0.47191495 0.16205847 1.9924479
0.50925553 0.15600324 1.9966326
0.89079833 0.17177068 1.9800258
0.91225648 0.17834628 1.9562073
0.97932333 0.17756586 1.9700056
1.013741 0.16232768 1.983405
1.7873487 0.17218064 1.9832628
1.8168691 0.18091656 1.9654368
-1.1599736 0.22366592 1.974969
0.23368403 0.20771956 1.9624913
0.28082097 0.20682912 1.9805084
0.32285133 0.20493014 1.9936849
0.89375275 0.20687769 1.9928559
0.91924393 0.20663542 1.9692889
0.96686494 0.21106741 1.9842316
1.7923167 0.2055161 1.992925
1.8141162 0.21294789 1.9778271
-1.1611603 0.2705186 1.9741471
-1.1597589 0.32335457 1.9743154
-1.1600386 0.37929195 1.9772354
-1.1598684 0.42497653 1.9714798
-1.1604549 0.47896206 1.9809017
-1.1596707 0.52366537 1.9735378
-1.158026 0.57537842 1.9721974
-1.1582677 0.62672764 1.9755074
-1.1572487 0.67956764 1.9788634
-1.1559646 0.72270262 1.9784615
-1.155215 0.77019548 1.978501
-1.1467518 0.7948001 1.9789599
-1.1429033 0.82564211 1.9758334
-1.1429379 0.87786657 1.9763715
-1.139068 0.92759669 1.9744425
-1.1369621 0.97181952 1.9832815
-1.1339107 1.0256895 1.9757636
-1.1411825 1.0830543 1.9775612
-1.1360196 1.1211407 1.9792068
-1.1413873 1.1824106 1.9738696
-1.1416419 1.2417614 1.9842901
-1.1383469 1.2706972 1.9694557
-1.1370256 1.3178471 1.9736209
-1.1437051 1.3802755 1.9705974
-1.1453395 1.4210241 1.9855365
-1.1447413 1.5853775 1.9904259
-1.1526785 1.608947 1.9954213
-1.1435798 1.6271812 1.9711037
-1.1364996 1.6539873 1.9591786
-1.1481557 1.7089549 1.9505594
-1.108969 -0.50453484 2.0099032
-1.086489 -0.50408101 2.0167916
-0.70302814 -0.50094479 2.0238261
-0.69343239 -0.50140357 2.0281286
-1.1550543 -0.46454287 2.0264752
-1.1318063 -0.48936006 2.0239687
-1.0706156 -0.49612039 2.0250673
-0.98780632 -0.48708141 2.0248423
-0.75402957 -0.49398544 2.0274441
-0.72502035 -0.4968538 2.0239861
-0.65197957 -0.49328151 2.0022542
-0.61111438 -0.49436527 2.0272791
-0.57593757 -0.49721828 2.0351677
-0.51976579 -0.49523547 2.0369318
-0.46473116 -0.49234536 2.033546
-0.42887741 -0.49158499 2.0356297
-0.37760371 -0.48947868 2.0247452
-0.31925666 -0.49079993 2.0313036
-0.27003086 -0.4886106 2.0412197
-0.21885701 -0.48610988 2.0261929
-0.174366 -0.48140559 2.0177708
-0.12497024 -0.48020568 2.0151489
-0.083112948 -0.48083171 2.033679
0.54354888 -0.47076467 2.0169353
0.57272333 -0.46577311 2.0182791
0.63012409 -0.46751183 2.0229535
0.67263502 -0.46687633 2.0202415
0.73079348 -0.47000727 2.0208941
0.78085434 -0.4740057 2.0266902
0.82327712 -0.47359207 2.0202999
0.87089491 -0.47826192 2.0297773
0.92267495 -0.47026062 2.0181143
0.97120827 -0.47179368 2.0093012
1.0306059 -0.47086492 2.0386827
1.0787226 -0.4705731 2.0285199
1.1272089 -0.46925774 2.0216756
1.1730583 -0.46235546 2.0251985
1.2034523 -0.45131221 2.0446913
1.276176 -0.46269244 2.0111325
1.3312905 -0.46566755 2.0172272
1.3652815 -0.46315509 2.0357342
1.5752618 -0.4570753 2.0250981
1.6107495 -0.46049029 2.0250182
-1.1556938 -0.42980987 2.0187199
-1.1488903 -0.41256657 2.0381987
-1.1545229 -0.3740758 2.0256567
-1.1574702 -0.32350475 2.0294285
-1.1556451 -0.27435753 2.0231013
-1.1576763 -0.22581491 2.0206561
-1.1580747 -0.17626159 2.0203052
-1.1598275 -0.12830193 2.0259924
-1.1605445 -0.07740315 2.0262132
1.2307252 -0.058287513 2.0287929
1.2586743 -0.065221265 2.0333996
1.583462 -0.057829112 2.0423803
1.615917 -0.057707194 2.0167866
-1.1615514 -0.025661122 2.0235379
1.1815087 -0.022419857 2.0113633
1.2247847 -0.029184317 2.0371184
1.2509158 -0.043495867 2.0440416
1.638134 -0.042691797 2.0410831
1.681209 -0.029483609 2.027899
1.7092953 -0.017174087 2.008142
-1.1620072 0.02384996 2.0279305
0.87160814 0.035733692 2.0068271
1.1308711 0.034595057 2.0065465
1.1699853 0.021695592 2.0230913
1.2108762 0.0057221288 2.0469453
1.692245 0.016969752 2.0354359
1.7122607 0.029312884 2.0132554
-1.1633573 0.075495079 2.0339427
0.67746085 0.099356294 2.004343
0.73131973 0.089963533 2.0043681
0.77961785 0.079590447 2.004035
0.82645863 0.080339037 2.0114224
0.86756676 0.072943173 2.0153611
1.0998166 0.089906685 2.0134468
1.1294047 0.074754342 2.022825
1.160332 0.071288362 2.0380666
1.698191 0.060266219 2.0390949
1.7228687 0.080777481 2.0252376
-1.1635035 0.12677412 2.0309951
0.57951057 0.14433706 2.0036609
0.62653756 0.14206204 2.0092328
0.67401642 0.12755741 2.0104299
0.72576338 0.12185827 2.0135977
0.77474713 0.12245049 2.0197201
0.82347852 0.12157858 2.0280266
0.8708666 0.12269006 2.0241132
1.0827416 0.12505214 2.0099542
1.1234938 0.12658094 2.0385394
1.7347394 0.12538701 2.0311308
1.7586722 0.13570943 2.0108907
-1.1646798 0.18000433 2.0296628
0.38574982 0.19412118 2.0036612
0.42664456 0.19345172 2.0082657
0.47769544 0.18672484 2.0075219
0.52443963 0.17863511 2.0093648
0.57496119 0.17701805 2.0164678
0.62202525 0.17657138 2.0194519
0.67629707 0.17298687 2.0294423
0.72586215 0.1733761 2.0346496
0.77391016 0.1699089 2.0365608
0.81684136 0.16864371 2.0460017
0.8741014 0.17406668 2.0242493
1.0311199 0.18401325 2.0069971
1.0742975 0.17658967 2.0309217
1.1113546 0.15553617 2.0435691
1.7398907 0.16676421 2.0439005
1.7631165 0.17546515 2.0190279
-1.1623652 0.22576132 2.0238013
0.33104363 0.21266226 2.0005445
0.37457389 0.20990215 2.0106897
0.42020983 0.20890023 2.0210662
0.47662425 0.20840473 2.0194178
0.52803731 0.20828709 2.0264754
0.58089602 0.20949459 2.0289879
0.63006306 0.20544292 2.0366583
0.67204291 0.20437345 2.0409002
0.72537041 0.20880167 2.0428061
0.76802146 0.21092136 2.0436749
0.81020463 0.20589632 2.0449533
0.88096941 0.20948859 2.0183132
0.99695635 0.21253905 2.0012789
1.0274329 0.20934458 2.0131531
1.0704633 0.20598517 2.0401061
1.7791764 0.21282826 2.0229928
-1.164928 0.27470627 2.0237947
-1.1654688 0.32344416 2.020627
-1.163831 0.37253147 2.0189421
-1.1648462 0.43138832 2.0252554
-1.1625618 0.46898985 2.0205834
-1.1628401 0.52782649 2.0291834
-1.1595806 0.57139319 2.0173409
-1.1605299 0.62534261 2.0270894
-1.1617109 0.67348319 2.0261588
-1.1596467 0.72900015 2.0278211
-1.1591681 0.77348202 2.0235527
-1.149406 0.79463398 2.0286722
-1.1502447 0.82881123 2.0195999
-1.1452917 0.82402098 2.0221906
-1.142517 0.88033086 2.022337
-1.1378139 0.9246729 2.021276
-1.1371387 0.97325683 2.0263429
-1.1344577 1.0183315 2.0238891
-1.1369005 1.0748696 2.0242722
-1.1376274 1.1201484 2.0202203
-1.1509371 1.189772 2.0236883
-1.1438364 1.1802789 2.0250916
-1.1502723 1.2251621 2.0372753
-1.144197 1.2225398 2.0191817
-1.1501365 1.2738651 2.0455697
-1.1448803 1.2797502 2.0232854
-1.1511503 1.3492295 2.0419738
-1.1407226 1.3123021 2.0255349
-1.1438426 1.3797157 2.0219531
-1.1521904 1.4447927 2.0247931
-1.144356 1.43092 2.0381114
-1.1479729 1.4674084 2.0375171
-1.1472269 1.5199838 2.0407691
-1.1511326 1.5863898 2.0472419
-1.1490599 1.5962085 2.034966
-1.1515514 1.618726 2.0262179
-1.1473879 1.6318579 2.0055346
-1.1559607 1.6568031 2.01138
-1.0347536 -0.50212926 2.0816591
-0.68825114 -0.50233501 2.0808766
-0.6229232 -0.50032759 2.0861011
-0.47852194 -0.5014925 2.0705681
-1.1525908 -0.46296614 2.0680261
-1.135044 -0.48786399 2.0665665
-1.0543642 -0.4842777 2.0987141
-1.0353198 -0.48601931 2.0856204
-0.7576434 -0.48933899 2.0542104
-0.72030878 -0.49500862 2.0697448
-0.6726113 -0.49627519 2.0735657
-0.63120651 -0.49456614 2.0588675
-0.57699108 -0.49670005 2.0790863
-0.52271163 -0.49434924 2.0785117
-0.47415176 -0.49425283 2.0794783
-0.42646518 -0.49392498 2.0838358
-0.37777546 -0.4899337 2.0870798
-0.32188204 -0.49000052 2.0718422
-0.27326122 -0.48904634 2.0799429
-0.22931325 -0.48593432 2.0685592
-0.17651471 -0.48407638 2.0729482
-0.13138029 -0.48546582 2.0811377
-0.088178113 -0.48332754 2.0734797
0.63707501 -0.46411633 2.0648127
0.67118669 -0.46631172 2.0678108
0.72544378 -0.47182789 2.0729825
0.77613384 -0.4689973 2.0702064
0.82473642 -0.46905401 2.0776339
0.88044578 -0.46533558 2.0765262
0.92156148 -0.46452579 2.0718987
0.97565782 -0.47164467 2.070219
1.0273435 -0.47025171 2.0848286
1.0752203 -0.46789694 2.0645416
1.1303422 -0.46612799 2.0739968
1.1738933 -0.46592316 2.0755036
1.2117294 -0.4586198 2.0827165
1.3238215 -0.46252841 2.0531383
1.3924091 -0.46084535 2.0782976
-1.1578872 -0.42741451 2.0647681
-1.0334055 -0.40333012 2.0943706
0.88478851 -0.43876809 2.068831
-1.1573348 -0.37359765 2.0714762
-1.0214001 -0.3899101 2.0843272
-1.1568993 -0.32245672 2.0646966
-1.160894 -0.27500355 2.0700245
-1.1614819 -0.22519682 2.0703247
-1.1626449 -0.17599031 2.0728488
-1.165504 -0.12568195 2.0796371
-1.1656646 -0.072547756 2.0737355
1.2844687 -0.058773879 2.0597825
1.3089209 -0.06273561 2.0603876
1.5347834 -0.05801934 2.0794597
1.5721384 -0.058072496 2.0613589
1.6184267 -0.058445066 2.0534937
-1.1653627 -0.032466013 2.0705001
1.2434213 -0.010685936 2.0550423
1.2722379 -0.024979075 2.0657685
1.3063773 -0.031077337 2.0829496
1.5928428 -0.046973031 2.0887353
1.6265833 -0.028035061 2.0778925
1.663148 -0.017302223 2.0536168
-1.1678674 0.017470716 2.0784326
1.2276732 0.025539622 2.0610461
1.2728416 0.020197507 2.0878143
1.6343333 0.017499486 2.0874207
1.6703141 0.027985711 2.0642476
-1.1655918 0.074558757 2.0840893
1.1812471 0.080024004 2.0571246
1.2195431 0.076476753 2.07918
1.2533549 0.067287952 2.0940566
1.6759025 0.076681167 2.0757208
-1.1650072 0.12985864 2.0783265
0.85808825 0.14531669 2.0531158
1.148544 0.11915786 2.0532815
1.1814216 0.12840071 2.0793717
1.2171152 0.11116721 2.0905359
1.6920427 0.12160678 2.0846746
1.7078863 0.1320619 2.0656099
-1.1689914 0.17555678 2.074914
0.79072392 0.19587331 2.0540717
0.82897091 0.18377952 2.0585485
0.86203396 0.17872627 2.0664184
1.1277218 0.17781007 2.0663309
1.1659766 0.17394648 2.0896528
1.6930879 0.16469249 2.0966957
1.7210387 0.17667231 2.0722947
1.7570788 0.19551484 2.0563266
-1.1681755 0.22567326 2.0819085
0.44472229 0.22114854 2.0676346
0.45305052 0.2203131 2.0583637
0.64551657 0.21440783 2.0661926
0.68457621 0.2138653 2.051924
0.79104424 0.20625901 2.0541916
0.88134754 0.21589854 2.0762618
1.0955154 0.2166266 2.0708463
1.1207556 0.20969574 2.0756462
1.1618116 0.20998637 2.0960412
1.7323078 0.21267791 2.0870938
1.7694635 0.21530317 2.0692089
-1.1675937 0.27503061 2.0764344
-1.1682094 0.32749438 2.0704985
-1.1685357 0.37887874 2.0727315
-1.1682224 0.42548454 2.0736547
-1.1665503 0.47418201 2.0709486
-1.1679997 0.52172899 2.0747852
-1.1661654 0.57639092 2.0774937
-1.1693083 0.6315015 2.0843294
-1.1628969 0.67613173 2.0744886
-1.1647276 0.7296775 2.0775442
-1.1616799 0.77484488 2.0724418
-1.1582328 0.82592982 2.0779409
-1.1589003 0.85161269 2.0853045
-1.148651 0.87267077 2.0689435
-1.1511878 0.90060264 2.0819826
-1.1438568 0.92639309 2.0743814
-1.1369063 0.97149324 2.067775
-1.1417708 1.0225488 2.0766807
-1.1423436 1.0711567 2.0840623
-1.1446295 1.1315352 2.0814178
-1.1462246 1.1676322 2.0719626
-1.1515074 1.2216849 2.0917568
-1.1481439 1.2280116 2.0752888
-1.1535078 1.2825958 2.0717762
-1.1475028 1.2661781 2.0773313
-1.1526814 1.3337398 2.071897
-1.1411754 1.3152519 2.0714371
-1.1515572 1.3689989 2.079607
-1.146929 1.3683782 2.0805714
-1.150586 1.4148799 2.0755184
-1.1457897 1.4243282 2.0952439
-1.1504637 1.4928885 2.0663414
-1.1465647 1.4768064 2.081476
-1.1470468 1.527704 2.0747039
-1.1509733 1.582231 2.0699658
-1.1458033 1.5699406 2.0741184
-1.1513748 1.6236577 2.0636392
-1.1270306 -0.50565183 2.1215453
-0.75375122 -0.50059378 2.106849
-0.73196721 -0.50027472 2.110714
-0.65763909 -0.50044835 2.1283016
-1.1616124 -0.47199225 2.1320214
-1.1484592 -0.49635854 2.1251612
-0.76409417 -0.49305484 2.1380663
-0.71360207 -0.4970184 2.1256723
-0.66947877 -0.49219102 2.131377
-0.62558645 -0.49310324 2.1301801
-0.57453936 -0.49041101 2.121356
-0.52275473 -0.48577887 2.1148663
-0.47749597 -0.48525697 2.1169877
-0.42463204 -0.48242432 2.1091034
-0.36987197 -0.4809314 2.1185884
-0.32349762 -0.47915703 2.1297014
-0.2788054 -0.48984766 2.1370056
-0.21912763 -0.48472303 2.1190636
-0.1738601 -0.48778906 2.1353083
-0.12131604 -0.48549908 2.1276505
-0.090021074 -0.48371106 2.1208613
0.73305857 -0.46559843 2.1021829
0.76667947 -0.47110406 2.1208737
0.83232194 -0.46664369 2.1183205
0.87885779 -0.46226624 2.1204517
0.93596423 -0.45818734 2.1208117
0.97602642 -0.46771973 2.1226592
1.0252357 -0.46653 2.1355975
1.0774851 -0.46746361 2.1219532
1.1160108 -0.46726903 2.1063163
1.1755409 -0.46423349 2.1296849
1.2171249 -0.46714079 2.1287799
1.3247993 -0.4594239 2.1035736
1.3919251 -0.46845096 2.1246333
-1.1622353 -0.42475575 2.1224325
0.9297151 -0.4469195 2.1224988
-1.1617479 -0.37667847 2.1296122
-1.0585123 -0.39078864 2.1482663
-1.0300088 -0.38432628 2.1166072
-1.1636795 -0.32344931 2.1142008
-1.1645204 -0.27343142 2.1209598
-1.1654012 -0.22330575 2.1268146
-1.167799 -0.17335485 2.1249321
-1.1664821 -0.12221126 2.122308
-1.1697526 -0.078968868 2.1242054
1.3445386 -0.056513578 2.1010029
1.3761549 -0.057106957 2.1149566
1.426369 -0.057720907 2.12075
1.477388 -0.058101881 2.1140051
1.5045246 -0.058229875 2.1063132
-1.1710291 -0.025193989 2.1223414
1.3372432 -0.02812588 2.1074245
1.3736253 -0.026846178 2.1209922
1.4267994 -0.030363698 2.1334918
1.4810208 -0.032678671 2.1428859
1.5294018 -0.029810229 2.1396723
1.5755484 -0.028190089 2.1210926
1.6048645 -0.02341502 2.1047781
-1.1692883 0.022502147 2.1223454
1.2932773 0.028473137 2.1015341
1.3247342 0.024049884 2.1148975
1.3709953 0.019171271 2.1338224
1.4089005 0.0091328323 2.1479445
1.5491422 0.012431487 2.145746
1.576624 0.023810374 2.136457
1.6121616 0.030978309 2.1123636
-1.1704413 0.078277215 2.1258645
1.2795324 0.072327554 2.1136451
1.322943 0.075520277 2.1341774
1.3564805 0.063967898 2.1430736
1.5870458 0.064797841 2.1421525
1.6230314 0.077457391 2.1215947
1.666855 0.097685538 2.1135559
-1.1693137 0.12433332 2.1240499
1.2352824 0.13120411 2.1128371
1.2727916 0.12423461 2.128871
1.3148715 0.10965414 2.1466634
1.6350116 0.12664251 2.1390746
1.6674808 0.12811406 2.1129911
-1.1705525 0.16886844 2.1209531
1.1931109 0.17270643 2.1058245
1.2227203 0.17671868 2.1250048
1.2596022 0.1713108 2.1422505
1.6820345 0.1771241 2.1266639
1.7101005 0.1970592 2.1155591
-1.1730589 0.22646616 2.1348462
1.1873555 0.20449185 2.1097157
1.2198433 0.20967287 2.1382682
1.6978953 0.2108507 2.1463034
1.7145433 0.21604528 2.1195335
1.777997 0.2240369 2.1020346
-1.1716421 0.27563408 2.133393
-1.1727246 0.32424328 2.1248596
-1.1718218 0.37167484 2.1260493
-1.1710064 0.4207668 2.1273332
-1.1698649 0.47682542 2.1236458
-1.1707314 0.52469516 2.1238599
-1.1670644 0.5785147 2.1233249
-1.1671172 0.622419 2.122021
-1.1673346 0.67718184 2.1231716
-1.1646893 0.72556525 2.12151
-1.1669269 0.77902031 2.118726
-1.1608289 0.82408619 2.1263027
-1.1546633 0.87316793 2.1189876
-1.1470227 0.886338 2.13657
-1.1433048 0.92565715 2.1193783
-1.1502197 0.98887855 2.1078563
-1.1447573 0.97341454 2.1260972
-1.1537344 1.0260078 2.1322894
-1.143684 1.0322667 2.1234386
-1.1426728 1.0815923 2.1237569
-1.1511258 1.1306016 2.1158078
-1.1473136 1.1206832 2.1358361
-1.1520697 1.1718609 2.1327024
-1.1458066 1.1798 2.1315117
-1.1525836 1.2202249 2.1202438
-1.1471943 1.23237 2.1273358
-1.1526117 1.291523 2.1113236
-1.1451089 1.2692809 2.1254668
-1.1527205 1.3171662 2.1161394
-1.1450274 1.3222179 2.1245537
-1.1525751 1.3775659 2.1261055
-1.147638 1.3577807 2.1365776
-1.154637 1.4479214 2.1041293
-1.1453797 1.4128114 2.1195879
-1.1531256 1.4555833 2.134059
-1.1462947 1.4804429 2.1212659
-1.1469374 1.5150814 2.1217909
-1.1605078 1.6287574 2.1272726
-1.1503093 -0.50209844 2.1542659
-1.12983 -0.51086712 2.182862
-0.73805577 -0.50099242 2.1640589
-1.1617957 -0.47286773 2.1725152
-1.1218853 -0.49962038 2.1524532
-0.71960306 -0.48195624 2.1761456
-0.67582607 -0.48722175 2.1527815
-0.63054878 -0.48707259 2.1746323
-0.56790656 -0.48439437 2.173774
-0.37060857 -0.4798992 2.181355
-0.31225517 -0.48280483 2.1508033
-0.27640608 -0.47826192 2.1790881
-0.22488776 -0.48674834 2.1757562
-0.17635974 -0.48444709 2.1683552
-0.1259806 -0.4845477 2.1793535
-0.091982543 -0.47844076 2.1694093
0.99374628 -0.46740761 2.1509647
1.0259726 -0.46325317 2.1798792
1.0779215 -0.46615976 2.1777391
1.124311 -0.4665063 2.1625504
1.1613804 -0.46654183 2.1816773
1.22329 -0.46351162 2.1730282
-1.1626451 -0.42745316 2.1766028
-1.1628294 -0.37306052 2.1743417
-1.0587413 -0.38172305 2.163604
-1.1647688 -0.32439449 2.1673498
-1.077091 -0.34081504 2.1928515
-1.167716 -0.27690929 2.1758342
-1.1688895 -0.22811982 2.1807435
-1.0770879 -0.21879329 2.1947951
-1.1699771 -0.17479321 2.1714921
-1.0723227 -0.17947465 2.1762779
-1.1730721 -0.12911524 2.1750813
-1.1730938 -0.072831258 2.1756444
-1.1720693 -0.028143438 2.1726315
-1.0745142 -0.026050916 2.188072
1.4381187 -0.011386673 2.1506851
1.4719962 -0.011451681 2.1535358
1.5193962 -0.023456821 2.1510124
-1.1729211 0.024242032 2.1756051
-1.0631657 0.022646995 2.1828032
1.3809646 0.041217759 2.158119
1.4278845 0.028661896 2.1611259
1.4733864 0.024222123 2.1648118
1.5250099 0.026601408 2.1643405
1.555854 0.048594173 2.1546187
-1.1736956 0.074129641 2.1747615
1.3483161 0.09311612 2.1532037
1.3798748 0.080328882 2.1634948
1.4236122 0.075786725 2.1774228
1.4774976 0.079806343 2.1878145
1.5293651 0.079198912 2.1877184
1.5738754 0.081203453 2.1718917
1.6058656 0.091549687 2.1510463
-1.1737106 0.12285955 2.174562
-1.0624778 0.1403496 2.1781487
1.3277711 0.12633297 2.1634862
1.373486 0.12198909 2.1813889
1.4076884 0.11297434 2.1857395
1.4786017 0.10879981 2.196893
1.5373362 0.1100159 2.1981566
1.5747938 0.12636839 2.1841798
1.6118149 0.13329519 2.1631193
-1.172866 0.17887028 2.1705086
1.280767 0.17988709 2.1593003
1.3162324 0.17359833 2.1760969
1.3688841 0.15407233 2.1956499
1.6262406 0.17822164 2.1823411
1.66239 0.18195297 2.1603391
-1.1738889 0.22294514 2.1693752
1.2431071 0.21174949 2.1542153
1.2672981 0.21388179 2.1710958
1.334494 0.20063928 2.1985354
1.6252112 0.21098405 2.1941826
1.6714542 0.21372052 2.1691031
-1.1751735 0.27058917 2.1862416
-1.1742564 0.32305902 2.1681316
-1.1730351 0.37550917 2.1684799
-1.1769568 0.42152473 2.1794155
-1.177099 0.47167185 2.1758606
-1.1724077 0.52631128 2.174082
-1.174383 0.57659084 2.1709716
-1.1744965 0.63002032 2.1849291
-1.1731057 0.67820358 2.1724143
-1.1712736 0.72639924 2.174535
-1.1729302 0.77448374 2.1795769
-1.1648232 0.82242 2.1807177
-1.1568094 0.87273473 2.1765027
-1.1449375 0.89979136 2.1577156
-1.1530844 0.93249393 2.1849127
-1.1478424 0.92432362 2.1762412
-1.1545314 0.9831351 2.1810172
-1.1453459 0.98561168 2.1914935
-1.1512647 1.0164489 2.1618223
-1.1463882 1.0228035 2.1803856
-1.1532569 1.0715704 2.177289
-1.1446562 1.0810523 2.1867676
-1.1556766 1.1286428 2.1764073
-1.1471334 1.1343611 2.1708586
-1.150637 1.1664984 2.1653392
-1.148175 1.1762568 2.155349
-1.1512251 1.2039554 2.1500766
-1.1469969 1.2270559 2.1697078
-1.1555698 1.2726364 2.1985815
-1.1468655 1.2713894 2.1779985
-1.151598 1.3233939 2.1763508
-1.1471978 1.3230616 2.1777873
-1.1514962 1.3773308 2.1729105
-1.1431481 1.3726528 2.17697
-1.1520406 1.4240228 2.168344
-1.1525327 1.4658245 2.1786842
-1.1497006 1.4691769 2.175909
-1.1639304 1.5482659 2.187463
-1.1699599 1.5958694 2.1744545
-1.1622257 1.610015 2.1865623
2.3211336 2.0358582 2.1985338
2.3293278 2.0598128 2.1952996
-1.156489 -0.50333929 2.220886
-1.1324883 -0.51468766 2.226573
-1.1604869 -0.47707286 2.2274699
-0.7703222 -0.48167571 2.228339
-0.72318149 -0.48201674 2.2123704
-0.64344358 -0.49015093 2.240906
-0.55578601 -0.49765372 2.2380366
-0.52615184 -0.4957768 2.2340786
-0.48278221 -0.4937166 2.2310195
-0.40879825 -0.48727447 2.2110362
-0.39717335 -0.48630303 2.2079437
-0.2544409 -0.47675318 2.203342
-0.22197789 -0.47777653 2.2284777
-0.17773668 -0.48120454 2.2253745
-0.12404476 -0.48536548 2.2248681
-0.093919277 -0.47244713 2.2173874
1.0906031 -0.46014702 2.2052102
1.1315162 -0.46273935 2.2048721
1.1744275 -0.46244603 2.221225
1.2125611 -0.46218619 2.2400227
-1.1647962 -0.43078083 2.2247436
-1.1671306 -0.37474802 2.224951
-1.1706814 -0.32338232 2.2284789
-1.1720642 -0.2741642 2.2169321
-1.1711442 -0.22764419 2.2316937
-1.1012152 -0.24130368 2.2242141
-1.0851266 -0.22345151 2.2018168
-1.1731914 -0.17354539 2.2219253
-1.1740781 -0.12225394 2.2242117
-1.1742138 -0.075128652 2.2278154
-1.1736997 -0.031225218 2.2256796
-1.1191065 -0.029793987 2.236465
-1.086573 -0.011137082 2.2036796
-1.1747286 0.023450237 2.2295384
-1.1097893 0.028191652 2.2310011
-1.0901498 0.019354267 2.2244618
-1.1740639 0.075619534 2.2274208
-1.107954 0.071079358 2.2279007
-1.086903 0.078284346 2.2213972
-1.1770319 0.12231967 2.2314804
-1.1148336 0.12265946 2.2364559
-1.0879734 0.11156037 2.2179661
1.3960731 0.1432275 2.2027745
1.4308777 0.12920533 2.2056823
1.4751754 0.13108221 2.2164345
1.5250627 0.13198778 2.212924
1.5638055 0.14790873 2.2099314
-1.1748263 0.17290536 2.223336
1.3750727 0.17516848 2.2140176
1.4230478 0.17221546 2.2250791
1.4734052 0.1695745 2.2367704
1.528929 0.16996944 2.2377274
1.5767437 0.18027529 2.2219689
-1.1760136 0.2274356 2.2215805
1.3172282 0.21247894 2.2063398
1.3700457 0.21019293 2.2313333
1.4110034 0.21276093 2.2471793
1.5594529 0.21209206 2.2486384
1.6040126 0.20836972 2.2301846
-1.1773539 0.28192344 2.2241235
-1.1823355 0.32576263 2.2265368
-1.180119 0.37370872 2.2200549
-1.1769464 0.43204817 2.2253563
-1.1789342 0.47658962 2.2270947
-1.1783524 0.52034873 2.2232668
-1.1762846 0.56635785 2.2201235
-1.175151 0.61804754 2.2216122
-1.1757014 0.67048633 2.2197843
-1.1748474 0.72432226 2.222676
-1.1768603 0.77491617 2.2315199
-1.1651056 0.82096016 2.2243395
-1.1634403 0.87626082 2.2249882
-1.1567135 0.92277956 2.2296858
-1.1665896 0.96693754 2.2448034
-1.1483935 0.97004801 2.2036424
-1.1591644 1.0328392 2.2377391
-1.1481929 1.0231066 2.2166152
-1.1577272 1.0806307 2.2333817
-1.1574235 1.1277089 2.2310884
-1.148111 1.1269392 2.2098508
-1.1569819 1.1731852 2.2286351
-1.1568326 1.21728 2.2268658
-1.1487644 1.2410773 2.2325001
-1.1531293 1.2775861 2.2264566
-1.1472002 1.2778493 2.2239313
-1.1463207 1.3183336 2.2197144
-1.150345 1.359228 2.2170875
-1.1480165 1.3846982 2.2364542
-1.1577021 1.4317062 2.2212937
-1.1566772 1.4603564 2.2188289
-1.1693461 1.5422829 2.2055118
-1.1670977 1.5967866 2.2081983
2.3110671 1.9937586 2.2107666
2.313138 2.0230749 2.2232199
2.315429 2.062288 2.2103987
-0.6191957 -0.50424403 2.2577615
-1.1576141 -0.463974 2.2714956
-1.1452403 -0.49098086 2.2564905
-0.63808858 -0.49463981 2.263603
-0.48313415 -0.48958811 2.2652256
-0.42197302 -0.49132589 2.268122
-0.35421219 -0.49085993 2.2871125
-0.34130642 -0.48836014 2.2765875
-0.17308968 -0.47836286 2.2685344
-0.12422501 -0.48562098 2.2783127
-1.1668241 -0.41911265 2.2700315
-1.1643029 -0.37306958 2.2688651
-1.1671615 -0.32858044 2.2724881
-1.1243644 -0.34031111 2.2622859
-1.1693816 -0.27618712 2.2724774
-1.1717497 -0.21994263 2.2736082
-1.1716299 -0.17094456 2.2729599
-1.1688913 -0.12257659 2.2652998
-1.1641454 -0.075996928 2.2620213
-1.1437763 -0.075817637 2.26301
-1.1717429 -0.027279876 2.2730286
-1.1418419 -0.028940044 2.2598796
-1.1660426 0.023835277 2.2781348
-1.1457207 0.023670388 2.2676079
-1.1692923 0.076813087 2.2719026
-1.1437886 0.076293856 2.2628784
-1.1675084 0.12201086 2.2715089
-1.1742383 0.17348383 2.2730672
1.4389455 0.19588375 2.2549028
1.4834607 0.19427338 2.2550042
1.5265608 0.19394654 2.2562947
-1.1769139 0.22525954 2.2757597
1.4182878 0.213837 2.2586813
1.4770339 0.21006238 2.2628806
1.5311341 0.21159846 2.2567949
-1.1822602 0.27805889 2.2787964
-1.1814137 0.32303745 2.2713556
-1.1835935 0.37480521 2.2761478
-1.1835779 0.4213953 2.2741139
-1.1850889 0.47428185 2.2814891
-1.1815637 0.52668691 2.2659116
-1.1847056 0.57844019 2.285969
-1.1835166 0.62558693 2.2759762
-1.1813221 0.67452675 2.2799602
-1.1814781 0.72118032 2.2716708
-1.1790284 0.77821797 2.280411
-1.1647121 0.82639414 2.2627368
-1.1645416 0.88052243 2.2811646
-1.1617682 0.92160386 2.2809353
-1.1650316 0.97945571 2.2804315
-1.1620098 1.0280573 2.2723835
-1.1584755 1.0777005 2.2723577
-1.1567914 1.128889 2.2634821
-1.1584789 1.1813202 2.281476
-1.154088 1.2173759 2.2678177
-1.1459413 1.2326486 2.2655005
-1.1577613 1.2840886 2.2716105
-1.1490133 1.2551709 2.2631192
-1.1551988 1.3412617 2.2761786
-1.1589228 1.371685 2.2707903
-1.1633394 1.4310379 2.2718344
-1.1497319 1.4418986 2.2504082
2.3105853 1.9729748 2.2810948
2.3073068 2.0268395 2.2793863
2.1919522 2.4175558 2.286031
-1.1171126 -0.49287906 2.344687
-0.63382232 -0.49320036 2.3144274
-0.56255996 -0.49112418 2.3166471
-0.52378774 -0.49219608 2.3279731
-0.48462433 -0.49874446 2.3086908
-0.41764688 -0.4886429 2.3250182
-0.35834366 -0.48529917 2.3153784
-0.34834293 -0.48710021 2.3251152
-0.27464074 -0.48700941 2.3311968
-0.16593258 -0.48397756 2.3233502
-1.1736286 -0.31192747 2.3080494
-1.1726159 -0.29966313 2.307199
-1.1620345 0.2392267 2.3048773
-0.55489337 0.23913151 2.3351889
-0.52753383 0.2396252 2.3444192
-0.49594808 0.23814927 2.334163
-0.2732752 0.23672235 2.3441825
-0.22399111 0.24000527 2.3427925
-0.17600116 0.2403537 2.330467
-1.1736624 0.2684707 2.3286567
-1.1316656 0.28691056 2.3105853
-1.1845081 0.32704088 2.3245642
-1.1424803 0.31980219 2.3298173
-1.1840416 0.37256709 2.3160083
-1.1852971 0.42391837 2.3306758
-1.128953 0.44582492 2.3158982
-1.1864517 0.47608939 2.3272219
-1.1436712 0.47602782 2.342556
-1.1864375 0.52487737 2.3194401
-1.1868511 0.57475513 2.3362436
-1.1831441 0.62484241 2.3256941
-1.1780747 0.67703485 2.3176959
-1.1859177 0.72746593 2.3330503
-1.183857 0.77400219 2.3342917
-1.1733086 0.82261413 2.3267293
-1.1646852 0.86812794 2.3225458
-1.1584917 0.91636151 2.3076098
-1.1623269 0.97064406 2.3158455
-1.1644046 1.0246089 2.3243728
-1.1592573 1.0696267 2.3146269
-1.1619632 1.1270853 2.3255181
-1.1611249 1.1674715 2.3221211
-1.155475 1.2109208 2.3102033
-1.1617588 1.2571921 2.3307335
-1.1569618 1.3718039 2.3046823
2.2937274 1.9873409 2.3238339
-1.2334118 2.0356121 2.3391669
2.2886052 2.0477071 2.3353038
2.3069668 2.0169485 2.3051932
2.303082 2.0625284 2.308327
2.1237597 2.4194531 2.3343251
2.1701033 2.4321945 2.3232622
2.2188451 2.4391596 2.342334
2.2690086 2.4460216 2.3400338
-0.98648149 -0.45801276 2.3934162
-0.83413923 -0.49022374 2.3791335
-0.47754478 -0.49775693 2.3617463
-0.40816671 -0.49790117 2.3711002
-0.3761633 -0.49387351 2.3550885
-0.30617598 -0.49217188 2.3535676
-0.28822583 -0.48709598 2.3735702
-0.20524451 -0.48569718 2.386898
-0.17020153 -0.48468617 2.3837097
-0.98227638 -0.44177985 2.3918653
-0.9352023 -0.44204354 2.3575022
-0.20146073 0.14762349 2.3711131
-1.0589819 0.19329806 2.3700163
-0.20234643 0.15967554 2.3810492
-1.0608113 0.21444158 2.3604426
-1.0456717 0.21113667 2.3698363
-0.65508211 0.2351204 2.3973849
-0.63175792 0.23302345 2.3791907
-0.57008183 0.23398125 2.3998942
-0.45687073 0.2414576 2.3728166
-0.40691954 0.23911832 2.3553736
-0.23436475 0.24858071 2.3518124
-1.1737734 0.28937539 2.357899
-0.79367346 0.27361888 2.3965752
-0.27841562 0.25263906 2.3873103
-0.24756569 0.25050792 2.3692782
-1.1760807 0.32788911 2.364466
-1.1147186 0.31322432 2.3710744
-1.1791769 0.37591755 2.3698604
-1.1829097 0.42875284 2.3859069
-0.81343162 0.4444102 2.3998671
-0.79800445 0.4305481 2.3938909
-1.1836894 0.47928789 2.3783894
-0.81344748 0.47444779 2.3958943
-0.79653227 0.47151363 2.3840013
-1.1786746 0.52681345 2.3751001
-0.81431168 0.53506112 2.3896377
-0.79734164 0.52578318 2.3785815
-1.1828439 0.56923068 2.379493
-0.80648381 0.56520313 2.3871868
-1.192258 0.62319738 2.3892393
-1.1891458 0.67625713 2.3824184
-1.1862558 0.72120744 2.3769875
-1.1808754 0.7739501 2.3715734
-1.1746757 0.81769979 2.3776894
-1.1758016 0.86242068 2.3617244
-1.1657692 1.0249404 2.3707566
-1.1721007 1.0748811 2.380837
-1.1718119 1.1104201 2.367465
-1.1707435 1.1876777 2.3812375
-1.165749 1.2089413 2.3606501
-1.2357588 2.0417342 2.3963253
-1.2287304 2.065383 2.3837266
2.2945683 2.0511558 2.3837078
-1.2352036 2.112025 2.3969266
2.0888989 2.4399962 2.3891308
2.1216943 2.437957 2.3779974
2.1766987 2.4371755 2.3778479
2.222424 2.4349816 2.3747587
2.2704055 2.4346786 2.3732097
2.3246138 2.4310653 2.3690641
2.3521101 2.4228559 2.3937545
-1.1559445 -0.57297564 2.4320683
-1.0607814 -0.51297605 2.4380679
-0.5482288 -0.50323153 2.4385502
-1.1443284 -0.48618287 2.4045858
-1.0506161 -0.45847967 2.4217105
-1.0221589 -0.4655661 2.4125662
-0.9365235 -0.45132387 2.4120014
-0.85747457 -0.48465174 2.409662
-0.82114458 -0.48748589 2.4114158
-0.77593172 -0.48809367 2.4271069
-0.74480873 -0.49846259 2.4423413
-0.56767976 -0.4932746 2.4164314
-0.51829261 -0.49750692 2.4142957
-0.49859646 -0.48959166 2.4388022
-0.16043383 -0.47846821 2.4126043
-1.1729333 -0.43604183 2.4415202
-1.0371771 -0.44832453 2.441153
-0.97170192 -0.43363732 2.4250813
-0.93327248 -0.42511001 2.427058
-0.20589297 0.13926837 2.4237385
-1.0727429 0.18462829 2.4171309
-0.21675709 0.16192326 2.4138985
-1.0387422 0.22574462 2.4272425
-0.98305446 0.22678716 2.4311583
-0.92113382 0.22936329 2.4350002
-0.67455387 0.23784475 2.4229379
-0.60051244 0.23676081 2.4245346
-0.55953145 0.23694159 2.4330468
-0.52705342 0.23740773 2.4428318
-0.47586831 0.23653135 2.4405899
-0.42779535 0.23611432 2.4421196
-0.39139226 0.23551394 2.439873
-0.81451118 0.28293064 2.4143002
-0.79588437 0.29445437 2.4213691
-1.1313307 0.3368341 2.4252617
-0.81841773 0.32728297 2.4220829
-0.79749638 0.32207122 2.4267712
-0.87276024 0.37118205 2.4288964
-0.81149393 0.38104621 2.4161842
-0.7974596 0.37334752 2.4187269
-0.82411432 0.41901019 2.4202943
-0.79421586 0.42291087 2.4229617
-1.186278 0.47604573 2.4015658
-0.83851284 0.46975547 2.4325693
-0.79294848 0.47653827 2.412127
-0.83218789 0.51712048 2.4199557
-0.79487771 0.52002031 2.4119465
-1.1771839 0.5873251 2.4109225
-0.83230996 0.5789119 2.4220293
-0.79943842 0.58381987 2.4161251
-1.1776134 0.62882459 2.4200306
-1.1783577 0.67460483 2.416491
-1.1786562 0.72539008 2.4314578
-1.1811675 0.77277589 2.4295003
-1.1744837 0.81983674 2.4230912
-1.1813662 0.99271184 2.4266806
-1.1743078 1.0144404 2.4151077
-1.1718503 1.0831958 2.4223118
-1.1815519 1.1320828 2.4282804
-1.1761187 1.175541 2.4177275
-1.2327456 2.0341535 2.4198966
-1.2378445 2.0704968 2.4369526
-1.2323288 2.1335199 2.4282625
1.9645959 2.4172533 2.4353728
2.0865891 2.4298735 2.4161105
2.1175725 2.4298897 2.4233329
2.1732807 2.4406011 2.43098
2.2250645 2.4349842 2.4258473
2.2776647 2.4279695 2.4277756
2.3200593 2.436439 2.4168177
2.3709359 2.4424086 2.4351757
-1.1575413 -0.57855392 2.4752316
-1.091599 -0.50898975 2.4775426
-0.71785283 -0.50087029 2.4603276
-0.6664083 -0.50355327 2.4839978
-0.64585733 -0.50191128 2.4791818
-1.1752864 -0.46091166 2.4749849
-1.1009607 -0.48205319 2.469579
-1.0818216 -0.47262982 2.4709136
-0.86034763 -0.47197145 2.4780021
-0.82624769 -0.47620612 2.4671781
-0.77345443 -0.47556233 2.4648316
-0.72425205 -0.4811441 2.4653566
-0.69528061 -0.48992786 2.4734042
-0.63328242 -0.49338427 2.4808114
-0.5311479 -0.49769959 2.4757786
-0.15266308 -0.47903928 2.4779139
-1.1789162 -0.42705482 2.4743323
-1.0675261 -0.42630035 2.4791155
-1.0319352 -0.43080321 2.4819205
-0.96857381 -0.41845548 2.4731681
-0.9248305 -0.42050698 2.4568048
-1.2020162 -0.39722675 2.4763546
-1.1938198 -0.37948558 2.4925692
-0.95897025 -0.38971522 2.4966297
-0.93613774 -0.39465496 2.4780421
-1.1893487 -0.32593858 2.4806767
-1.1878003 -0.28484905 2.4576535
-1.188828 -0.21535872 2.464783
-1.1800778 -0.17068797 2.4642625
-1.1822457 -0.050765079 2.4881504
-1.2011523 -0.012584013 2.4969361
-1.196009 0.025785495 2.4861183
-1.0229892 0.19918659 2.4631677
-0.98015326 0.19806316 2.4598923
-0.92284065 0.19607621 2.4764416
-0.87999249 0.19128528 2.4906602
-0.82971478 0.19204965 2.488539
-0.78329676 0.19671647 2.4902561
-0.74520671 0.19639085 2.4938798
-0.22205409 0.18957259 2.4717622
-1.0255082 0.21633759 2.4581208
-0.97972077 0.21033558 2.4580336
-0.9229179 0.21618952 2.4775794
-0.87634957 0.22368161 2.481611
-0.8280136 0.2217534 2.4844949
-0.77763277 0.21983075 2.4860651
-0.72634214 0.22099175 2.4859395
-0.67455906 0.21988559 2.4936802
-0.62491292 0.22118029 2.4918427
-0.56888419 0.21861356 2.4963634
-0.53364271 0.22143513 2.4989638
-0.36580554 0.23800211 2.468688
-0.32548934 0.23902084 2.4831212
-0.27748287 0.23878483 2.4844999
-0.22368546 0.23875709 2.4877763
-0.16941373 0.23780188 2.480623
-1.1779664 0.28755778 2.4830406
-1.1432571 0.26478761 2.4575276
-0.86691147 0.29222921 2.4959788
0.53198206 0.27655002 2.4723191
-1.1620779 0.32224515 2.4721978
-0.86606514 0.32926172 2.4902823
-0.83153892 0.3414546 2.4793708
-0.79730958 0.32030398 2.4843116
-1.1802099 0.36042684 2.4968381
-1.1458292 0.36065623 2.4756558
-0.87054336 0.3799246 2.469137
-0.83328336 0.3646988 2.4587288
-0.61548007 0.39207867 2.4980652
0.53908873 0.38990209 2.4956238
-0.86998343 0.42426097 2.4917881
-0.61918718 0.41938499 2.4841745
-0.59720504 0.42891708 2.4973879
0.53428799 0.42329511 2.4946866
0.55248195 0.43960041 2.4938624
-1.1822357 0.47703379 2.4870343
-0.87159365 0.4759393 2.4833605
-0.62000489 0.46813095 2.4873426
-0.59678918 0.47758469 2.4896307
0.52850956 0.47469664 2.4901168
0.55412734 0.45927918 2.4990549
-0.87524033 0.52534288 2.483772
-0.61695689 0.51957101 2.4795506
-0.59660661 0.520298 2.4830198
0.52936393 0.52270389 2.4867246
0.55722111 0.52480495 2.4928665
-0.87860519 0.5685336 2.4836562
0.52870858 0.5738126 2.4863951
0.56125528 0.570566 2.4929962
-0.87677449 0.61296612 2.484108
0.53872573 0.60930973 2.4840574
0.55799121 0.60430104 2.4960408
-1.184636 0.98815793 2.4832287
-1.1800268 1.0308552 2.4591098
-1.1907902 1.0671538 2.4727972
-1.1920825 1.1144195 2.4972613
-1.1925856 1.1692767 2.4790549
-1.2424667 2.0320163 2.4796638
-1.2445965 2.0715683 2.4860659
-1.2394514 2.114727 2.4659102
1.8819268 2.4009743 2.4633358
1.9309647 2.4299083 2.4762959
1.961495 2.4350989 2.4646959
2.0886931 2.4351897 2.4649224
2.1337013 2.4381049 2.4820232
2.1821578 2.4331524 2.4699628
2.2267447 2.4338768 2.4768937
2.2657292 2.4279604 2.4767809
2.3158581 2.4236953 2.4642189
2.3764892 2.4344821 2.473527
2.4204826 2.4307032 2.4774475
2.4622314 2.422503 2.4944806
2.0290313 2.4745243 2.4814916
-1.1724194 -0.46400142 2.5225751
-1.1320026 -0.46994504 2.5289893
-0.86650503 -0.46963069 2.5370073
-0.82528663 -0.47261724 2.5141804
-0.77411377 -0.47630054 2.5217392
-0.68340528 -0.49238476 2.5156381
-1.187669 -0.4163124 2.5235598
-1.0903308 -0.41149089 2.5212333
-1.0300255 -0.4149473 2.5242512
-0.9860903 -0.41201675 2.5104864
-0.93697137 -0.41912064 2.5275779
-1.1884441 -0.37967888 2.5260854
-1.0727448 -0.38404194 2.5167615
-1.022921 -0.38573334 2.5244186
-0.97174704 -0.37105292 2.5272844
-0.93594658 -0.37925756 2.5196245
-1.1921663 -0.32650611 2.519917
-1.0703818 -0.34336802 2.5384128
-1.0123652 -0.33407521 2.5496459
-0.98279554 -0.34131202 2.5458419
-1.2013211 -0.28472105 2.5174103
-1.1966183 -0.28228423 2.5204301
-1.1956583 -0.22185771 2.5205288
-1.1939487 -0.17742862 2.5269172
-1.1877867 -0.14218578 2.529007
-1.1872555 -0.064481013 2.5300653
-1.2035401 -0.02575363 2.5332119
-1.2045681 0.019707847 2.5353653
-1.2106096 0.069479793 2.5316372
-1.2100949 0.13723747 2.5443547
-1.2111877 0.170004 2.5452147
-0.82585382 0.18572199 2.5001652
-0.61955166 0.21985604 2.5029154
-0.58971667 0.21935184 2.5017598
-0.52070516 0.21717146 2.5044916
-0.47578394 0.21827398 2.505471
-0.42624724 0.21774201 2.5051353
-0.37763146 0.21758312 2.5086181
-0.32744005 0.21695727 2.5171797
-0.27344292 0.21864915 2.5201001
-0.22194472 0.21847562 2.5183039
-0.17436385 0.22180896 2.5254052
-0.1418997 0.22354698 2.5232654
-1.1632633 0.28918219 2.5258954
0.53430545 0.29315969 2.5115817
0.55182052 0.29273328 2.5052791
-1.1676469 0.31573978 2.5386777
-1.127542 0.33816835 2.5466549
-0.873155 0.33191001 2.5107169
-0.80454302 0.3107827 2.5079284
-0.79254454 0.32338166 2.5108976
0.53163266 0.32680511 2.514173
0.55538476 0.32538986 2.5188971
-1.1820399 0.38498023 2.5240078
-1.1431592 0.39310509 2.5095236
-0.89804655 0.36827916 2.5396905
-0.62374258 0.38728231 2.5062261
-0.59585655 0.38574627 2.5145872
0.52960527 0.37267026 2.5178118
0.55546534 0.39287096 2.5128238
-1.1942837 0.42030764 2.5268781
-1.0654451 0.42335775 2.5173397
-0.90063375 0.44573176 2.5385051
-0.89361215 0.42332643 2.5209687
-0.65028691 0.40695414 2.5076797
-0.59926206 0.40578806 2.5087838
0.52091247 0.41971117 2.5139461
0.56371033 0.4230988 2.5180433
-1.2002622 0.47122315 2.5267498
-1.1977729 0.47674316 2.5205669
-0.89601851 0.46876931 2.522296
0.51753175 0.47168565 2.5034156
0.56287289 0.47369128 2.5081995
-1.1978219 0.5094384 2.5160868
-0.91012061 0.54564846 2.5124202
-0.89390683 0.52243388 2.5088027
0.57219833 0.51970261 2.5155404
-1.2026081 0.57675302 2.5492203
-0.89902246 0.58474433 2.5140185
0.56747144 0.57064968 2.5156131
-1.2020558 0.62947237 2.5388641
-0.89911753 0.61022359 2.5100622
-1.2037326 0.67681414 2.5336623
-1.2021214 0.70238948 2.5249863
-1.1918737 0.95116991 2.5474868
-1.2001842 1.0672615 2.5323923
-1.1958694 1.072493 2.5203047
-1.2008239 1.1089009 2.5202279
-1.1951898 1.1302123 2.5375919
-1.2424332 2.0730269 2.5062718
-1.2416549 2.129586 2.5202544
-1.2490126 2.1739726 2.5115027
-1.2494545 2.2187912 2.5394096
1.8204845 2.4115534 2.5175135
1.875384 2.4224145 2.5245485
1.9191078 2.4194944 2.5090504
1.9650841 2.4378438 2.5219586
2.0837958 2.4298408 2.5165412
2.122807 2.438494 2.5332613
2.1737208 2.4378076 2.5240159
2.2309439 2.4303486 2.5195897
2.2723227 2.4266129 2.521904
2.3242521 2.4285629 2.5227566
2.3738229 2.42746 2.5200541
2.4294939 2.4224691 2.5294955
2.4705245 2.4210002 2.5325003
-1.1718565 -0.59067482 2.5644276
-1.1810457 -0.46553656 2.5862565
-0.71183753 -0.47233862 2.5850778
-0.69961143 -0.47270817 2.5894485
-1.1832484 -0.41506192 2.5634761
-1.1311487 -0.41532421 2.5817962
-1.1922264 -0.37008852 2.5747848
-1.1232253 -0.37968758 2.56725
-1.0751748 -0.3742443 2.5624185
-1.0271552 -0.36596692 2.5658278
-0.94299209 -0.35787049 2.5505617
-1.1947874 -0.32412088 2.5814185
-1.0758606 -0.31841838 2.5731881
-1.0308433 -0.33235782 2.574825
-0.97651368 -0.32924017 2.5739615
-0.94513309 -0.34586826 2.5575624
-1.2019165 -0.26980656 2.568284
-1.1984744 -0.2705031 2.5771794
-1.1159214 -0.26315179 2.5949998
-1.0790638 -0.27301463 2.5838323
-1.0148468 -0.28047734 2.597168
-0.95399183 -0.26502985 2.5883534
-1.2032058 -0.2337696 2.5735586
-1.1999671 -0.22456689 2.5835116
-1.107484 -0.22986196 2.5947754
-1.0717115 -0.2265785 2.5872951
-0.98108083 -0.22581069 2.5948615
-1.2052391 -0.18571143 2.5970533
-1.1990609 -0.15833463 2.5849788
-1.1089636 -0.17648241 2.5837822
-1.0736492 -0.17605215 2.5870817
-1.0329207 -0.17580746 2.5942857
-0.96567345 -0.16780569 2.5871472
-0.94728255 -0.18609077 2.5747209
-1.1910768 -0.12451878 2.5689836
-1.1047502 -0.12367438 2.5760477
-1.0747753 -0.12334316 2.5772874
-1.0322127 -0.12763698 2.5883305
-0.97632521 -0.14162707 2.5789306
-1.2028023 -0.066050053 2.5958192
-1.194981 -0.074142493 2.5678959
-1.0857298 -0.091111556 2.584115
-1.0336978 -0.09113723 2.5992036
-1.206002 -0.019493159 2.5705118
-1.1997722 -0.03900715 2.557096
-1.2060236 0.019969353 2.5705009
-1.2073668 0.0711096 2.566237
-1.2125401 0.1209655 2.5715907
-1.2104445 0.17172749 2.5758157
-0.20494501 0.20810118 2.5545015
-1.1730833 0.2844398 2.586566
1.0705109 0.28826946 2.5898166
-1.1639018 0.32989687 2.5791168
-1.1447958 0.3263866 2.553256
0.52689326 0.31807131 2.5657172
1.0788866 0.32157254 2.5895147
-1.1195005 0.37009433 2.5937324
0.50849289 0.39167765 2.5961256
1.0802814 0.37432766 2.5911455
1.1003324 0.38349181 2.5997229
-1.1909328 0.42632559 2.5729115
-1.1023178 0.40825322 2.5841849
0.33012688 0.42281628 2.5827541
0.36284664 0.43763 2.5700736
0.49552172 0.4103477 2.5940094
0.51462328 0.41047114 2.5923808
1.0774763 0.42825219 2.5806699
1.111928 0.44893336 2.5844417
-1.2012849 0.47258195 2.5685525
-1.1966995 0.47361916 2.5852108
-1.0961738 0.45834115 2.563513
0.34036583 0.46842471 2.5752418
0.37216106 0.47534645 2.5753634
1.0758754 0.47903511 2.5703993
1.630265 0.49551719 2.5985532
-1.2042365 0.53108269 2.5599768
-1.1957465 0.52143228 2.5697193
0.33567241 0.52077448 2.5813017
0.36734626 0.5275954 2.5668664
1.0717841 0.5258801 2.5677605
1.6275797 0.52995515 2.5888228
-1.2038977 0.58060092 2.5684226
-1.1998131 0.56176037 2.5794017
0.33470324 0.55680406 2.5687745
0.36504614 0.56159073 2.5582247
1.6465853 0.5528481 2.5862453
-1.2061639 0.6252203 2.582917
-1.204384 0.67830473 2.5808036
-1.1982067 0.67925811 2.566726
-1.2042797 0.73088604 2.5723739
-1.2076722 0.76980883 2.5787747
-1.2068321 0.81618851 2.580554
-1.1977832 0.81011558 2.5612245
-1.2032548 0.99051762 2.5725746
-1.2000256 1.0240624 2.5832994
-1.1958101 1.0480446 2.5658429
-1.2040746 1.0830753 2.5748053
-1.1977147 1.0773376 2.5612476
-1.2034148 1.1379765 2.5550983
-1.1977441 1.1049889 2.5523343
-1.2065299 1.154222 2.5966146
-1.2140743 1.2181135 2.5929279
-1.2064298 1.2674297 2.5963378
-1.2044139 1.3079667 2.5754697
-1.2496734 2.0380478 2.554014
-1.2566738 2.0914538 2.5965741
-1.2597077 2.1205297 2.5859127
-1.2502792 2.1719568 2.577297
-1.2498589 2.1873205 2.5645308
-1.2524897 2.2080526 2.5578377
-1.2483994 2.2295067 2.589606
1.6323373 2.391535 2.5973129
1.6846331 2.4044313 2.5870447
1.8181543 2.4141643 2.5636032
1.8863766 2.4277155 2.5839458
1.9241651 2.4214892 2.5716348
2.0728369 2.4280403 2.5789149
2.1295271 2.4337616 2.57602
2.1715584 2.4363794 2.5853071
2.2212734 2.4333479 2.5732038
2.2733712 2.4242468 2.5738831
2.3200576 2.4296393 2.5618424
2.3757598 2.4250379 2.5724447
2.4159074 2.4229472 2.575278
2.4800382 2.4205542 2.5722985
2.525589 2.4081345 2.5889797
1.9890161 2.4554667 2.5621996
2.0269177 2.4706488 2.5829909
2.0470519 2.5004284 2.5520418
-1.1840142 -0.46190637 2.6279068
-0.61658549 -0.49065652 2.6307247
-0.30225796 -0.47722507 2.6291051
-1.1925917 -0.43105108 2.6249597
-1.2019364 -0.36543718 2.6441908
-1.1861523 -0.37770465 2.6224098
-1.1951855 -0.32298654 2.6330307
-1.1258966 -0.31867123 2.6140506
-1.0228201 -0.30471262 2.60641
-0.98072386 -0.30461022 2.6063509
-1.2029802 -0.28542042 2.6277797
-1.1994746 -0.26865622 2.6298225
-1.1203413 -0.27302969 2.6046078
-1.0570467 -0.26983887 2.6127868
-1.0223137 -0.26838294 2.6170382
-0.98362195 -0.27398625 2.6062019
-1.2018021 -0.20064077 2.6222012
-1.1962308 -0.22635657 2.6085093
-1.1178235 -0.23722182 2.6011848
-1.0535033 -0.23761047 2.6243742
-1.0242057 -0.22252242 2.6084297
-0.98282719 -0.234653 2.6067083
-1.2052259 -0.1676245 2.631305
-1.1992556 -0.18685371 2.6173337
-1.0089188 -0.17506659 2.6040816
-0.98613268 -0.18861911 2.6028566
-1.204551 -0.12728398 2.6313696
-1.0709726 -0.10462744 2.6010711
-0.95803177 -0.14274807 2.6058922
-1.2078952 -0.073618844 2.6317184
-1.065259 -0.091600157 2.6052985
-1.0139784 -0.091129653 2.6041555
-1.2079967 -0.023827255 2.6208546
-1.2129447 0.016313214 2.6248634
-1.2120379 0.076932251 2.6297815
-1.2131897 0.12689333 2.6308441
-1.2138524 0.1741036 2.6159656
-1.1790588 0.28916138 2.6336532
1.6392359 0.28878823 2.6270552
1.6568041 0.29842949 2.6199799
-1.1736034 0.33128071 2.6176927
-1.1451496 0.34745005 2.6207376
1.6400099 0.32769307 2.6347208
1.6577013 0.32443526 2.6219788
-1.1688231 0.36195391 2.6214633
0.49411699 0.38517654 2.6122692
0.52038825 0.37529713 2.6055341
1.0662768 0.36556563 2.6270285
1.6426659 0.37812686 2.6338449
1.6545606 0.37759566 2.623297
