ply
format ascii 1.0
comment PCL generated
element vertex 1519
property float x
property float y
property float z
element camera 0
property float view_px
property float view_py
property float view_pz
property float x_axisx
property float x_axisy
property float x_axisz
property float y_axisx
property float y_axisy
property float y_axisz
property float z_axisx
property float z_axisy
property float z_axisz
property float focal
property float scalex
property float scaley
property float centerx
property float centery
property int viewportx
property int viewporty
property float k1
property float k2
end_header
-1.1730226 2.1307645 5.6940193
-1.1756206 2.1643434 5.6989989
-1.1359358 2.181251 5.6932206
-1.1770147 2.2246971 5.6900959
-1.1310953 2.2196569 5.6833725
-1.4510849 2.2757349 5.694911
-1.1709636 2.2798185 5.6954207
-1.1497916 2.2568519 5.6944695
-1.2139292 2.3267715 5.6990294
-1.166594 2.3338695 5.6831241
-1.1234106 2.3199804 5.6950316
-1.5144452 2.3857665 5.6728649
-1.471923 2.3733568 5.6908646
-1.4280529 2.3734648 5.6991544
-1.3814514 2.3981538 5.6871686
-1.1653618 2.3748384 5.6643066
-1.1249368 2.3667066 5.6900511
-1.0956247 2.380605 5.6883388
-1.4649153 2.408906 5.6716995
-1.4264616 2.4000914 5.6840091
-1.3752475 2.4164813 5.6527224
-1.3031288 2.4176891 5.6679058
-1.1354363 2.4017718 5.6550236
-1.0757083 2.4180348 5.6763802
-1.0182588 2.4272187 5.6537743
-0.87394202 2.4275744 5.6717205
-0.8318274 2.4311502 5.6847
-0.77415621 2.4317803 5.6919484
-0.72956216 2.4278808 5.6868515
-0.51005775 2.4434712 5.6639361
-0.45287445 2.445087 5.6711221
-0.56954825 2.452117 5.680109
-0.5125941 0.027431456 5.7170053
-0.48676044 8.5391686e-05 5.7364268
-0.51390308 0.054916233 5.7314587
-0.82514328 1.0265441 5.7155218
-0.85614836 1.0722589 5.7295647
-0.82987726 1.074295 5.7431822
-0.74569845 1.059644 5.7488198
-0.85751241 1.1297488 5.7315331
-0.83186704 1.1467853 5.7479401
-0.85776043 1.1719254 5.7275796
-0.83150107 1.1742378 5.7416348
-0.85821873 1.2144303 5.7247829
-0.83141577 1.216053 5.7351885
-0.86080861 1.2741086 5.7339025
-0.83412242 1.2620753 5.747788
-0.86207712 1.3320584 5.7337914
-0.83524477 1.3339813 5.7448654
-0.862391 1.3746219 5.729207
-1.4972785 1.4338481 5.7038326
-0.86122423 1.4147706 5.7145438
-0.83823031 1.4373931 5.7494063
-1.5290372 1.479696 5.703773
-1.4986308 1.4777609 5.7015119
-0.86254466 1.4730592 5.7137337
-1.5166113 1.5241807 5.7053294
-1.4732605 1.5377653 5.7080293
-1.5636185 1.5712262 5.7050648
-1.5191716 1.5838243 5.704236
-1.4746821 1.5820026 5.7054605
-0.86665905 1.5646746 5.7257891
-0.84100509 1.5694041 5.745934
-1.5247635 1.63257 5.7167101
-0.86583084 1.6335927 5.7069602
-0.84238732 1.6286372 5.7446856
-1.5238121 1.6745355 5.7046556
-0.8695277 1.683001 5.7229371
-1.5212487 1.7295216 5.702951
-1.4667909 1.7320317 5.704052
-0.87383467 1.7339723 5.7426372
-1.5351105 1.7727232 5.7090373
-1.4700661 1.7789104 5.7075071
-1.0773267 1.7984337 5.7317319
-1.5270931 1.8225054 5.7061572
-1.4746358 1.8276459 5.7157998
-1.430418 1.8406644 5.7160444
-1.3832227 1.8352587 5.7066154
-1.3301169 1.8249941 5.7151351
-1.2703552 1.837852 5.7331696
-1.2214375 1.8291017 5.712347
-1.1603299 1.8228743 5.7011113
-1.0665727 1.8330119 5.7462459
-1.5191755 1.8725152 5.7033653
-1.4764348 1.8730934 5.7130451
-1.4180907 1.8721206 5.7202549
-1.3729427 1.8838546 5.7161703
-1.3297935 1.8694326 5.7264595
-1.2673358 1.8787851 5.7333465
-1.2244596 1.8766228 5.7168164
-1.1053287 1.8831599 5.7062035
-1.0823176 1.8784707 5.742445
-1.4720887 1.9121214 5.706778
-1.4198284 1.9176769 5.7172356
-1.3773203 1.9331276 5.7243457
-1.3326842 1.9167325 5.7289371
-1.2791128 1.9204097 5.7328434
-1.2271398 1.9237822 5.7194195
-1.1947423 1.917855 5.7060089
-1.1068232 1.9285687 5.7039981
-1.0829567 1.922618 5.7360072
-1.4810579 1.980127 5.7069087
-1.4173847 1.9738489 5.7150598
-1.3794706 1.9794958 5.7229133
-1.3332131 1.9751569 5.7175221
-1.2764659 1.9765584 5.7307315
-1.2270191 1.9666575 5.7086482
-1.1110288 1.9789134 5.7154822
-1.0716803 1.9713116 5.7441945
-1.0285406 1.985729 5.7463398
-1.4832978 2.0265517 5.7049146
-1.4260364 2.0274305 5.7177625
-1.3661574 2.0245123 5.7194424
-1.3219048 2.0231645 5.7227821
-1.2799188 2.025311 5.7357311
-1.2311298 2.0308681 5.7137151
-1.1994096 2.0402975 5.7005415
-1.1114155 2.0369847 5.703445
-1.0711926 2.0279899 5.7277875
-1.0309536 2.0336673 5.7493172
-1.4697652 2.0568199 5.7039199
-1.4293196 2.0756705 5.7199664
-1.3705155 2.0744939 5.726707
-1.3263955 2.0735569 5.7313032
-1.2814745 2.0712142 5.7317743
-1.2356381 2.0816703 5.7237554
-1.0735345 2.0756283 5.7294455
-1.032492 2.080029 5.7471404
-1.4804906 2.130193 5.7304583
-1.4327002 2.1242023 5.7221718
-1.3733716 2.1224301 5.7274461
-1.3284442 2.1203127 5.7289777
-1.2840397 2.1189017 5.7321243
-1.2286848 2.1344826 5.7251611
-1.1317942 2.1344616 5.710012
-1.0749984 2.1217573 5.7261539
-1.033381 2.1252093 5.7410121
-1.4521737 2.1752574 5.7274523
-1.4204791 2.171423 5.7225399
-1.3758278 2.169919 5.7261133
-1.320263 2.1711991 5.7242646
-1.2810769 2.1607847 5.731142
-1.2246749 2.174552 5.7194386
-1.1181378 2.1647644 5.7082505
-1.0814971 2.1780891 5.7205639
-1.0345972 2.171119 5.7364407
-1.4540101 2.2364459 5.7187185
-1.421586 2.2314451 5.7110844
-1.3773482 2.2306492 5.7166133
-1.3195863 2.2315559 5.7286353
-1.2752538 2.2305322 5.7330203
-1.2275226 2.2232151 5.7209311
-1.0761367 2.2254915 5.7342629
-1.0389752 2.2384512 5.74508
-1.4232706 2.277899 5.7055717
-1.3798325 2.2784896 5.7146835
-1.3210623 2.277849 5.7228651
-1.2772826 2.2778735 5.7299819
-1.2242917 2.2795093 5.7144375
-1.1227806 2.2752085 5.7041931
-1.0816 2.2800372 5.7222281
-1.025241 2.2692804 5.7433386
-1.4668435 2.3339617 5.7024741
-1.4260726 2.3262844 5.7041607
-1.3835182 2.3285191 5.7173014
-1.3218205 2.3229995 5.7136045
-1.2710166 2.3329153 5.7332826
-1.2496231 2.3099172 5.7333097
-1.0836399 2.3280492 5.7207937
-1.0333933 2.3252366 5.747498
-0.98425907 2.3337579 5.7478127
-1.3847382 2.3745422 5.7094812
-1.3247827 2.3721049 5.7135329
-1.2667747 2.3731623 5.7255383
-1.2185874 2.3795209 5.7080441
-1.0809022 2.3714638 5.7212524
-1.0287211 2.379153 5.7336512
-0.97000349 2.3783364 5.7388573
-0.92622 2.3928585 5.7395349
-0.88263988 2.3933654 5.7456017
-0.76486343 2.3900514 5.7494092
-1.3248589 2.4015622 5.7052021
-1.2621845 2.4127495 5.715929
-1.0252328 2.4147356 5.7012739
-0.9691658 2.4199719 5.7208495
-0.92343181 2.4147508 5.7136316
-0.87871444 2.4117579 5.7113934
-0.82171625 2.4149954 5.7251673
-0.77712595 2.412046 5.7224813
-0.73436511 2.4147646 5.7329745
-0.68020803 2.4214289 5.7275996
-0.61685622 2.4247322 5.7275453
-0.57275283 2.4223518 5.7251549
-0.52799559 2.4311485 5.7102489
-0.47034699 2.4323339 5.7165904
-0.38363177 2.4330301 5.7227812
-0.25300956 2.4303339 5.7215338
-0.22371784 2.4263835 5.713079
-0.050637193 2.4361243 5.738946
0.0073506245 2.4344172 5.7350788
-0.52713281 -0.36827612 5.7684116
-0.48055735 -0.36788848 5.7648835
-0.42121392 -0.35908577 5.7745366
-0.352222 -0.35916582 5.7787976
-0.53158408 -0.31754979 5.7684774
-0.47629359 -0.31752402 5.7711086
-0.42183307 -0.3181048 5.7845502
-0.36610851 -0.3177681 5.7807369
-0.32429147 -0.31742603 5.7761269
-0.53166682 -0.27615777 5.7707071
-0.47579718 -0.27580601 5.7664299
-0.42152199 -0.27641106 5.7818203
-0.36615008 -0.2763339 5.7826052
-0.32406715 -0.27582288 5.7734985
-0.51770687 -0.23466362 5.771122
-0.47564629 -0.23434781 5.7657042
-0.42097041 -0.24843442 5.7750039
-0.36631173 -0.24879965 5.7858868
-0.32453412 -0.24859084 5.7826157
-0.5171777 -0.17923826 5.7664771
-0.47564301 -0.17918901 5.7669892
-0.42092437 -0.16557539 5.776155
-0.36695856 -0.16614287 5.7983198
-0.32511079 -0.16599628 5.7947721
-0.51783788 -0.12422414 5.7747493
-0.47567618 -0.12403433 5.7682166
-0.42091766 -0.12416507 5.7767863
-0.36599201 -0.12424541 5.7834992
-0.32442266 -0.12420917 5.783144
-0.53137213 -0.068932615 5.7713027
-0.47995552 -0.07342577 5.7647748
-0.51764518 -0.027526703 5.7733755
-0.48806486 -0.027417785 5.7517753
-0.51564443 8.7149776e-05 5.7510867
-0.47498018 0.055170774 5.7605605
-0.53804928 0.73002177 5.7633271
-0.47949326 0.72301221 5.7855062
-0.42385915 0.72296333 5.7879786
-0.36848867 0.72340858 5.7940531
-0.32649997 0.72284395 5.7911906
-0.29868424 0.72279906 5.7918205
-0.53079087 0.7698279 5.7821331
-0.47956324 0.76482773 5.7827311
-0.42377052 0.7645095 5.7832332
-0.36849424 0.76517141 5.7907372
-0.32673088 0.75117427 5.792953
-0.57548147 0.80458164 5.7591243
-0.5350616 0.82028818 5.7734404
-0.48032287 0.82175076 5.7868934
-0.42375672 0.82008576 5.778018
-0.36819205 0.82013398 5.7809129
-0.32671121 0.83458167 5.7850652
-0.56460953 0.89256018 5.782712
-0.53100127 0.87225944 5.7751584
-0.4808369 0.87840629 5.7876945
-0.42478484 0.87779832 5.7865381
-0.37387589 0.87355572 5.7920127
-0.32743222 0.86430252 5.7951336
-0.56490636 0.93489259 5.781404
-0.46748567 0.92138547 5.7914629
-0.43023917 0.93064451 5.7920461
-0.60533547 0.97444046 5.7603507
-0.56621075 0.97899467 5.7900829
-0.52426356 0.96499616 5.79423
-0.48189461 0.96415532 5.7915525
-0.42629588 0.97880507 5.7968941
-0.66420841 1.035109 5.7776923
-0.61810935 1.0266404 5.7870917
-0.56722283 1.0227656 5.7955513
-0.52467102 1.0217491 5.7923708
-0.47755483 1.0160943 5.7899461
-0.42657372 1.0214152 5.7957954
-0.72847295 1.0802604 5.7588329
-0.67791301 1.076632 5.7690973
-0.62271613 1.0778908 5.7800393
-0.56662118 1.0776584 5.7826419
-0.52468038 1.077738 5.7857389
-0.48314652 1.0787469 5.7935729
-0.44089171 1.0641742 5.7944489
-0.83226496 1.1193513 5.7543736
-0.72059852 1.1337301 5.7645621
-0.6781978 1.1330285 5.7643986
-0.62811607 1.1305366 5.7799892
-0.5679189 1.1221944 5.7905226
-0.52531523 1.1210845 5.7874455
-0.48345053 1.1214867 5.791945
-0.75034809 1.1504254 5.7739062
-0.72271073 1.1791624 5.7758417
-0.6794523 1.1771126 5.7691941
-0.62027949 1.1707617 5.7897911
-0.56389791 1.1609417 5.7926364
-0.52625388 1.1652 5.7922468
-0.4845311 1.1661248 5.7992401
-0.80638516 1.2344937 5.7567081
-0.72375023 1.2230297 5.7782817
-0.68221176 1.2241592 5.7869816
-0.62556684 1.2234375 5.7878442
-0.58355111 1.2378378 5.79041
-0.52740186 1.2099508 5.7991385
-0.48480597 1.223067 5.7950306
-0.81743759 1.2839432 5.761004
-0.75263858 1.2665126 5.7757869
-0.72503155 1.2674431 5.7824388
-0.6832788 1.2824426 5.7879186
-0.62719786 1.2830087 5.7947068
-0.56500381 1.2758366 5.7883821
-0.52819961 1.282233 5.7978048
-0.47190627 1.2964858 5.7997022
-0.80817109 1.3215821 5.7569032
-0.72723192 1.3277901 5.7915053
-0.68333268 1.3248025 5.7819128
-0.62728769 1.325528 5.7893572
-0.50059533 1.3260182 5.7997694
-0.47193402 1.3247478 5.7957911
-0.41562563 1.3249241 5.7994428
-0.83767307 1.3801074 5.7548761
-0.75346273 1.3805999 5.7647781
-0.72844446 1.3724527 5.7945142
-0.68523538 1.3709135 5.7914448
-0.64260089 1.3704114 5.7925458
-0.5013274 1.3844653 5.7994218
-0.47246256 1.3544487 5.7979255
-0.83833146 1.4093794 5.7548003
-0.71051866 1.4356518 5.7937107
-0.67164767 1.4286175 5.7880936
-0.62903714 1.4281931 5.7896366
-0.57295185 1.4293435 5.7982535
-0.52072144 1.4331121 5.7969227
-0.8311525 1.4790925 5.7599387
-0.70170891 1.4747649 5.7933769
-0.67326438 1.4745704 5.7948761
-0.63057113 1.4741839 5.7965622
-0.51622748 1.4714307 5.7932577
-0.82787645 1.5146916 5.7646084
-0.75721306 1.5007342 5.7744393
-0.7103892 1.5109434 5.7797313
-0.67326874 1.517112 5.7875051
-0.6308006 1.5030797 5.7937689
-0.58830214 1.5315301 5.7921362
-0.81577373 1.5752666 5.770196
-0.72204429 1.5819435 5.7848682
-0.67536241 1.5645021 5.797863
-0.61782843 1.5628502 5.7960167
-0.57491577 1.5762434 5.7933521
-0.53252542 1.5910542 5.7957358
-0.41862601 1.5900266 5.7982712
-0.81665963 1.648017 5.7630153
-0.71840549 1.6223013 5.7870455
-0.63323087 1.6227174 5.7952671
-0.57056099 1.6293825 5.7877669
-0.53301382 1.6351696 5.793026
-0.44716874 1.6189766 5.7935381
-0.83351785 1.6817741 5.7743936
-0.7050271 1.6527095 5.789607
-0.61885983 1.6508486 5.7896976
-0.85037136 1.744138 5.779223
-0.83033061 1.7231021 5.7783055
-0.77888519 1.7440856 5.7858977
-0.73551482 1.7429307 5.7858953
-0.67891073 1.7442938 5.7951703
-0.63561749 1.7431684 5.7947206
-0.59213573 1.7413375 5.791728
-0.86423808 1.7719247 5.7691994
-0.82284385 1.7750158 5.7835531
-0.77984357 1.7748619 5.7870955
-0.72275543 1.7752573 5.7934484
-0.65070873 1.7739465 5.7949529
-0.62184596 1.7732174 5.7947049
-0.57872272 1.7725148 5.7954164
-1.0271136 1.8392755 5.771286
-0.98145342 1.8344765 5.7613573
-0.92401087 1.8342414 5.7671204
-0.86698788 1.8205346 5.7782378
-0.82455182 1.821739 5.7864075
-0.78156346 1.8218396 5.7907562
-0.72438031 1.8223165 5.7973909
-0.66120076 1.8242637 5.7924647
-0.62234086 1.8175607 5.7902484
-0.58461261 1.8236943 5.7962346
-1.0558889 1.882459 5.758357
-1.0278617 1.8837576 5.7658954
-0.98457003 1.8834428 5.7700648
-0.9254607 1.8801718 5.7665992
-0.86921036 1.8826745 5.7804008
-0.82641149 1.8833522 5.7868557
-0.78316385 1.8830583 5.790051
-0.72519678 1.881779 5.7912307
-0.66665763 1.8787191 5.786479
-0.62291276 1.87655 5.7830906
-0.58525705 1.8734994 5.7922378
-1.0563322 1.9263823 5.7509394
-1.014142 1.9281574 5.7615867
-0.97104192 1.928259 5.7670279
-0.92673087 1.9258661 5.7647467
-0.86990607 1.9273205 5.7752647
-0.82741427 1.9288205 5.7841296
-0.78370208 1.9274809 5.7842255
-0.72593504 1.9268751 5.7875557
-0.66896856 1.9284122 5.7969227
-0.62513983 1.9263725 5.7940989
-0.56725407 1.9250412 5.7941408
-1.0144944 1.9720118 5.7534599
-0.98108357 1.9675508 5.759604
-0.92819399 1.9721 5.7637644
-0.87007666 1.9708472 5.766305
-0.82694924 1.9708931 5.7708492
-0.7846657 1.973085 5.7813764
-0.72656715 1.971724 5.7825418
-0.66927022 1.9724816 5.7895613
-0.62630832 1.9731894 5.7949533
-0.5880453 1.9784724 5.7979836
-0.53978622 1.9727497 5.7996144
-1.001372 2.0177391 5.7521267
-0.97311294 2.0333252 5.7553282
-0.93486863 2.0289631 5.7621593
-0.87210584 2.0331113 5.7658916
-0.8285439 2.0323701 5.7681808
-0.78560138 2.0187039 5.7780333
-0.72855383 2.0203731 5.7880168
-0.6753189 2.0290387 5.7873693
-0.57917148 2.0289965 5.7944312
-0.53097254 2.0381911 5.7940526
-1.0037251 2.0658307 5.7549572
-0.97569138 2.0820861 5.75984
-0.92678165 2.0708323 5.7632403
-0.87342912 2.0795288 5.7640038
-0.81096083 2.0701594 5.7734456
-0.77262044 2.0657825 5.7795086
-0.72912133 2.0652909 5.7820063
-0.66682559 2.0709941 5.7885194
-0.62891734 2.0826457 5.794745
-0.58996975 2.0716469 5.7960858
-0.54146928 2.0800073 5.7934356
-1.0065708 2.1296363 5.7565837
-0.97784132 2.1301603 5.7614622
-0.93412924 2.1295998 5.7649212
-0.87680918 2.1310825 5.7752981
-0.81803769 2.128999 5.7755313
-0.77444029 2.1285863 5.7785759
-0.73068702 2.1276536 5.7799296
-0.68844259 2.1312675 5.7934647
-0.61083555 2.1350241 5.7953191
-0.57193071 2.1292281 5.7966404
-1.0093991 2.1791999 5.7614007
-0.96590304 2.1793694 5.7670488
-0.9215306 2.1774971 5.767077
-0.87800932 2.1775305 5.771883
-0.8190484 2.1751261 5.7714429
-0.77545333 2.1748555 5.7749128
-0.73251879 2.176511 5.7832394
-0.67382228 2.174314 5.7822914
-0.61634433 2.1760952 5.7915125
-1.0204072 2.2208405 5.75734
-0.96731383 2.2262235 5.7638283
-0.9252969 2.230135 5.7789812
-0.8800658 2.2262526 5.773674
-0.81962705 2.2202187 5.7639794
-0.77622759 2.2205851 5.7691278
-0.73284894 2.2210345 5.7742825
-0.67486143 2.2212579 5.7797623
-0.61746085 2.2236853 5.7905951
-0.57483053 2.2419205 5.7994471
-0.54544336 2.2407839 5.7984586
-0.42862475 2.238513 5.7993588
-0.96865809 2.2730451 5.7599583
-0.9270485 2.2781618 5.7779818
-0.87595409 2.2815301 5.7645164
-0.82658309 2.2793128 5.763905
-0.77880943 2.2716436 5.7764845
-0.73412001 2.2685213 5.7725205
-0.67686152 2.2715523 5.7851925
-0.61802399 2.2693365 5.7840853
-0.45835283 2.2708631 5.7983394
-0.42898688 2.2840478 5.7924199
-1.0134896 2.3047335 5.7528996
-0.96461183 2.3138425 5.7544618
-0.92744589 2.322969 5.7681913
-0.88926005 2.3298147 5.7760215
-0.81983966 2.326462 5.7747555
-0.77088529 2.3255358 5.7771573
-0.73054957 2.3113372 5.7722535
-0.67800617 2.3191438 5.7827983
-0.61957991 2.3187633 5.7864184
-0.57581037 2.3186617 5.7893419
-0.53245604 2.3348756 5.7922282
-0.48905501 2.3367069 5.7994795
-0.40033746 2.3157034 5.7922211
-0.37145218 2.3171921 5.7972841
-0.92729735 2.3664246 5.7547393
-0.88383758 2.367389 5.7619262
-0.82476825 2.3801508 5.7593093
-0.76585233 2.3639407 5.7652712
-0.72176695 2.3775139 5.7625442
-0.67871624 2.3799679 5.772222
-0.61971217 2.3775971 5.7710867
-0.57611787 2.3782585 5.7758694
-0.53235883 2.3783116 5.7789106
-0.47450691 2.3807819 5.7884889
-0.41555279 2.3776655 5.7840614
-0.3718172 2.3778033 5.7864923
-0.32866988 2.3969002 5.7950153
-0.26986879 2.393631 5.7892199
-0.22625715 2.3955019 5.7950692
-0.18246281 2.3957105 5.7966409
-0.13869792 2.3966448 5.7997642
-0.51712441 2.4190316 5.7598505
-0.42873615 2.4135735 5.7518797
-0.38514 2.4136791 5.7542806
-0.3417815 2.4154627 5.7604766
-0.26901633 2.4151921 5.7625179
-0.18197906 2.4184678 5.7727275
-0.1189561 2.4302852 5.7760582
-0.021834388 2.4287286 5.7992239
0.036672935 2.4283142 5.7981849
0.06574104 2.4215484 5.7818508
0.15310055 2.4336996 5.7707162
0.21226047 2.4291971 5.797668
0.62369692 2.43611 5.7934399
-0.32732961 0.78042084 5.8011413
-0.29955542 0.76673102 5.805162
-0.31391475 0.8236323 5.8076448
-0.28128746 0.81878734 5.8078284
-0.35596076 0.89381897 5.8018851
-0.30980185 0.88562727 5.8120341
-0.27318519 0.88313073 5.8277707
-0.52440196 0.92329466 5.8002958
-0.49637181 0.9231897 5.8012652
-0.37056705 0.92335373 5.8085017
-0.31462127 0.92338812 5.8108988
-0.2725662 0.92306536 5.8102789
-0.24547847 0.92638636 5.8320088
-0.41249773 0.95125222 5.8031645
-0.37084413 0.96604133 5.8083348
-0.31468385 0.96551585 5.8073206
-0.27267495 0.9653976 5.8080783
-0.23577207 0.9717986 5.8188624
-0.37120226 1.0230532 5.8076072
-0.31505781 1.0227213 5.8079519
-0.27343112 1.0242094 5.817832
-0.23150578 1.0249364 5.8232303
-0.18053897 1.0324839 5.8401332
-0.4230516 1.084969 5.8044128
-0.37213683 1.0818079 5.8154955
-0.31570587 1.0809596 5.8131132
-0.27356619 1.0808662 5.8139753
-0.23169689 1.0819666 5.8210883
-0.17585808 1.0842369 5.8346081
-0.13380101 1.0856118 5.8428493
-0.049196724 1.0992185 5.8393793
-0.42807066 1.1232908 5.8041935
-0.37212253 1.1238971 5.8098965
-0.32965368 1.1227821 5.8058314
-0.27407125 1.1250354 5.8194203
-0.23230627 1.1270511 5.8310547
-0.17615262 1.1283031 5.8388419
-0.11503494 1.1188108 5.8405747
-0.077470943 1.1146419 5.8443851
-0.58466125 1.1838217 5.8092694
-0.48480564 1.1668103 5.8026485
-0.42918429 1.1684747 5.813818
-0.37344569 1.1702006 5.8249874
-0.31573427 1.1652899 5.8028002
-0.27402779 1.1670126 5.812973
-0.23251949 1.1704519 5.8311033
-0.17602907 1.1697853 5.8291602
-0.11501294 1.16561 5.8334007
-0.077512942 1.157594 5.8420887
-0.039887875 1.176806 5.8417759
-0.57030392 1.2114323 5.803565
-0.51424015 1.2402759 5.8062501
-0.42981285 1.2265457 5.8145413
-0.37389332 1.2280574 5.8242826
-0.32200375 1.2227997 5.8243079
-0.27530664 1.2290008 5.8323712
-0.23316294 1.2302006 5.8393226
-0.17181225 1.2248821 5.8385024
-0.12005412 1.2302206 5.8416486
-0.077547424 1.2145947 5.8370476
-0.039911494 1.2343932 5.8391366
0.007199748 1.2461413 5.8489323
0.063800991 1.2171608 5.8494959
-0.50025684 1.2828341 5.8021817
-0.47199279 1.2685342 5.8049202
-0.42974478 1.2827249 5.8054409
-0.3741554 1.2854369 5.8203592
-0.31282225 1.2801541 5.8208489
-0.21914491 1.2733154 5.8368754
-0.17651811 1.272017 5.8318701
-0.13437404 1.2743181 5.8431849
-0.035291113 1.2748151 5.8464127
-0.5719769 1.3280224 5.8041606
-0.44402274 1.3255554 5.8008113
-0.37353975 1.3256161 5.8043804
-0.31788713 1.3288487 5.8207798
-0.27567428 1.3013519 5.8299618
-0.22892617 1.3224792 5.8384461
-0.18146379 1.3112897 5.8331838
-0.12508608 1.3136864 5.8449006
-0.02116362 1.3339307 5.8488383
0.092249997 1.3041636 5.8464317
-0.61470264 1.357042 5.8001637
-0.56774664 1.3668585 5.8035197
-0.52044219 1.3663478 5.8043098
-0.47398815 1.3871306 5.8121777
-0.43119195 1.3719107 5.8119984
-0.37033319 1.3781716 5.8206406
-0.31881809 1.3752161 5.8309412
-0.22932953 1.3815619 5.8398895
-0.17724675 1.3765359 5.840591
-0.11580042 1.3723798 5.8448157
-0.077989787 1.3919429 5.844943
-0.049586736 1.3635499 5.8496733
-0.57329863 1.4301912 5.80165
-0.50220585 1.4151949 5.8050122
-0.47502881 1.4469177 5.8156796
-0.43264556 1.4332725 5.8223872
-0.37583441 1.4330947 5.8243198
-0.32386151 1.4285526 5.82797
-0.27671561 1.4198527 5.8342962
-0.23422147 1.4346706 5.8356977
-0.16336109 1.4217533 5.8449726
-0.12065195 1.4210598 5.842803
-0.57394564 1.4743471 5.8011608
-0.4330619 1.4773083 5.8210735
-0.3763566 1.4776726 5.8251572
-0.31937754 1.4769909 5.8247442
-0.27706984 1.4785358 5.8323102
-0.24859779 1.4782823 5.8321681
-0.17774145 1.4657435 5.8429399
-0.12078769 1.465317 5.8422294
-0.078152567 1.4660068 5.8454638
-0.049719263 1.4810953 5.8466825
-0.56076574 1.5337745 5.8025179
-0.51832652 1.5200312 5.8093648
-0.47538361 1.5189967 5.8078527
-0.43795267 1.5157131 5.8162918
-0.37631145 1.5201054 5.8170671
-0.31509316 1.5265002 5.8250108
-0.27740374 1.5372517 5.8294644
-0.24931876 1.5253294 5.8416939
-0.17310505 1.5188228 5.8375912
-0.11607745 1.5273863 5.8333344
-0.078212321 1.5240846 5.8401375
-0.03553668 1.540751 5.8470936
0.035746451 1.5108253 5.846704
-0.67628711 1.5951288 5.8005614
-0.51405579 1.5735544 5.8056693
-0.47609115 1.5781012 5.8063025
-0.4380717 1.5729675 5.8076882
-0.37648121 1.5776751 5.8095841
-0.32046312 1.5818458 5.8271542
-0.27777308 1.5820606 5.8295259
-0.23511258 1.5827068 5.8331776
-0.17813841 1.5830753 5.8358879
-0.12100723 1.5676477 5.8351393
-0.078228079 1.5671281 5.8337073
-0.049761068 1.5678337 5.8365455
-0.67688614 1.6250516 5.8003511
-0.50484389 1.6217966 5.8004785
-0.47694942 1.6236812 5.8088436
-0.4200063 1.6237561 5.8120766
-0.37740174 1.6243178 5.8160515
-0.33598226 1.6306678 5.84057
-0.2781617 1.6270862 5.8297639
-0.24938339 1.6255416 5.825099
-0.17799616 1.6246579 5.8236828
-0.13528188 1.62501 5.8257308
-0.078366101 1.6269686 5.8334579
-0.035588585 1.6286727 5.839839
-0.6487574 1.6545203 5.8004622
-0.50554168 1.6525307 5.8030677
-0.47711101 1.6527268 5.8053865
-0.42072412 1.6550674 5.8165836
-0.3648985 1.6606973 5.8389745
-0.32179987 1.6599087 5.8378925
-0.2783826 1.6569457 5.8289704
-0.23520795 1.6545837 5.8219204
-0.1783043 1.6559131 5.8279657
-0.13524306 1.6530417 5.8186488
-0.049811017 1.6549817 5.826396
-0.70854747 1.7468752 5.8014169
-0.56450462 1.744151 5.803021
-0.52287412 1.7483387 5.8196697
-0.37956527 1.748172 5.8266373
-0.32200384 1.7468867 5.8246875
-0.2649163 1.748003 5.8303633
-0.2220034 1.7485439 5.8333936
-0.1217313 1.7491069 5.8372612
-0.68033779 1.7766161 5.801435
-0.52276504 1.7766403 5.8125987
-0.46641105 1.7658739 5.8306704
-0.4233523 1.7659073 5.8329473
-0.37978566 1.7778875 5.8242226
-0.3224234 1.7778029 5.8262887
-0.26501811 1.7774191 5.8269901
-0.22198687 1.7770752 5.8270912
-0.17925605 1.7652904 5.8394337
-0.12189864 1.7801881 5.8392944
-0.0644622 1.7654468 5.8415599
-0.021424294 1.7665966 5.8455796
0.016883854 1.7726202 5.8486958
0.15098292 1.76755 5.8474588
-0.72489715 1.8235741 5.8013897
-0.68094134 1.8068733 5.8005505
-0.56551421 1.8045589 5.8014994
-0.52278256 1.8196714 5.8036747
-0.46584383 1.8211238 5.8116417
-0.42342222 1.8236378 5.8219056
-0.38074437 1.8255337 5.8299508
-0.32268241 1.8222387 5.8217726
-0.26536763 1.8228279 5.8256288
-0.22253597 1.8245809 5.8324585
-0.17937928 1.8239846 5.8315587
-0.12207747 1.8259666 5.8389297
-0.064590618 1.8265347 5.8413553
-0.021489449 1.8439126 5.8480573
0.036078457 1.8127632 5.8465786
-0.5679704 1.8987032 5.8079367
-0.52454352 1.8833317 5.8107958
-0.46681774 1.8823823 5.8111925
-0.42438152 1.8709419 5.8257957
-0.38161337 1.8728774 5.8338442
-0.32311577 1.88217 5.8172235
-0.26592928 1.884207 5.8254962
-0.22283173 1.8701495 5.8309369
-0.17974955 1.8708004 5.8339672
-0.12691151 1.8793159 5.8294463
-0.064732879 1.8737216 5.8447218
-0.021494659 1.8731441 5.8431501
-0.59718275 1.9289229 5.8038468
-0.52519125 1.9288127 5.80826
-0.46762562 1.9288425 5.8117108
-0.4251231 1.9174687 5.8263769
-0.38182819 1.9171679 5.8275042
-0.3237372 1.9289989 5.8188686
-0.26614279 1.9288775 5.8204927
-0.22334188 1.917701 5.8347044
-0.18011251 1.9178528 5.8362017
-0.117694 1.923679 5.8392663
-0.064815238 1.9193563 5.8424397
-0.021532629 1.9197052 5.84374
0.016970633 1.9261826 5.8477025
0.079598039 1.9366854 5.8478589
-0.56850475 1.9580815 5.8003154
-0.51112896 1.9732757 5.8029571
-0.46864083 1.9763474 5.8144555
-0.42585808 1.9785492 5.8232517
-0.38257617 1.97873 5.8258176
-0.32447565 1.9766544 5.8220959
-0.26666689 1.9759669 5.8220773
-0.22377808 1.9792163 5.8329287
-0.18054925 1.9803742 5.8373308
-0.12278851 1.9812424 5.8409262
-0.064939484 1.9806335 5.8397651
-0.021578982 1.9816141 5.8429327
0.036288209 1.9681339 5.8491397
0.06517408 1.966536 5.8442211
-0.62825483 2.0226593 5.8027248
-0.51179856 2.019124 5.8003683
-0.46897745 2.0210254 5.8083286
-0.42617178 2.0233619 5.8173461
-0.38289371 2.0237403 5.8204889
-0.32488504 2.0225081 5.8193526
-0.26706514 2.0222344 5.8205781
-0.2242084 2.0264428 5.8339562
-0.18099847 2.0288601 5.841938
-0.12295462 2.0271533 5.8380566
-0.064914361 2.0239136 5.8293653
0.094402365 2.0311329 5.849906
-0.62881005 2.0533686 5.8008637
-0.51346141 2.0835626 5.8051505
-0.46964371 2.0672717 5.8060532
-0.42641413 2.0679059 5.8101587
-0.38328183 2.0692263 5.8159404
-0.32542679 2.0693183 5.8186026
-0.26762998 2.0698495 5.8221149
-0.22464627 2.0739117 5.8348494
-0.18619597 2.0714638 5.8436737
-0.12326847 2.0758429 5.8423138
-0.060200095 2.0659485 5.8298779
-0.021659195 2.0759764 5.8436079
0.021899275 2.0771666 5.8469439
0.065455548 2.0622137 5.8490787
-0.66041863 2.1198573 5.8079939
-0.63063961 2.1173551 5.8033662
-0.53407896 2.1274767 5.8088398
-0.47127435 2.1324368 5.8116732
-0.42719004 2.1151206 5.8099833
-0.38481134 2.12115 5.8286271
-0.32629514 2.1328447 5.819654
-0.26769352 2.1282899 5.8092461
-0.22491302 2.1344509 5.827364
-0.17668605 2.1315572 5.835093
-0.12356084 2.1246717 5.8461595
-0.065370508 2.1249611 5.8476048
-0.02169754 2.1232111 5.8430262
0.0073882104 2.1246998 5.8471494
-0.66084903 2.1502981 5.8043904
-0.57343721 2.1783936 5.8007393
-0.52555919 2.1709106 5.8122849
-0.47224915 2.1804552 5.8125548
-0.41967332 2.1648359 5.8304906
-0.38018635 2.1706879 5.8194947
-0.32704675 2.1813951 5.8219643
-0.26859623 2.1790428 5.8177395
-0.2250215 2.1790543 5.8190589
-0.18623757 2.1687753 5.8208947
-0.12364134 2.1699238 5.8393641
-0.065483518 2.1720707 5.8457913
-0.021748478 2.17187 5.845479
0.0074080094 2.1890604 5.8487988
-0.5742206 2.2104557 5.8010402
-0.52598113 2.2211392 5.8042068
-0.47281465 2.2267215 5.8080111
-0.42824009 2.207458 5.8018665
-0.38527441 2.2254961 5.8092833
-0.32735753 2.2271221 5.8160086
-0.26915592 2.2273088 5.8185248
-0.22556362 2.2279994 5.8216267
-0.18189321 2.2281439 5.8230429
-0.12870695 2.227015 5.8351264
-0.021796549 2.2204096 5.8468695
0.022023827 2.234859 5.842597
-0.57585233 2.2750745 5.8018608
-0.53192931 2.2743261 5.802844
-0.48825189 2.2745461 5.8060899
-0.40012357 2.2707939 5.8011551
-0.37121552 2.2720163 5.8056216
-0.3275041 2.2718387 5.8069801
-0.27016881 2.279397 5.8283834
-0.22595343 2.2755971 5.819973
-0.18243313 2.2785764 5.8286476
-0.11937217 2.2728088 5.8425775
-0.065788552 2.2850304 5.8468885
-0.021832846 2.2825332 5.8407412
0.026913106 2.2710717 5.8389411
0.080518328 2.2664378 5.840519
0.12449737 2.2685924 5.8455505
-0.53263974 2.3065457 5.8025331
-0.46948877 2.3168089 5.8049335
-0.43058124 2.3363457 5.8018112
-0.32820436 2.3205509 5.8075171
-0.27014947 2.3230965 5.8159761
-0.22629863 2.3229008 5.8168125
-0.18277881 2.3267384 5.8274846
-0.12439711 2.3295591 5.8356223
-0.065862946 2.3317349 5.8417292
-0.021878071 2.3165314 5.8446984
0.017190643 2.3227284 5.833014
0.080764562 2.3174305 5.846601
0.12471987 2.3166466 5.8441014
-0.32887319 2.3691554 5.807045
-0.27021572 2.3675165 5.805131
-0.22642316 2.3680265 5.8077016
-0.18274426 2.3701596 5.8139997
-0.12438855 2.3734612 5.8231783
-0.065846555 2.3749051 5.8273897
-0.02193493 2.3665719 5.847383
0.022166727 2.3830428 5.8475924
0.081002355 2.3829815 5.8470836
0.12515765 2.3836625 5.848228
0.16905396 2.3803389 5.8392901
0.21341026 2.3834829 5.8460126
0.30160367 2.3829432 5.8419838
-0.10963116 2.4000528 5.8084488
-0.070670962 2.412215 5.8118477
-0.021922963 2.4092607 5.8314328
0.022125352 2.4080601 5.828516
0.095328532 2.4028711 5.8154569
0.12462925 2.4029181 5.8151855
0.1687806 2.4058235 5.8214321
0.22767454 2.4080672 5.8254695
0.27276701 2.4174869 5.8469505
0.47831413 2.4429619 5.8195243
0.53894258 2.42149 5.8437514
0.56734759 2.4167213 5.8302889
0.62630731 2.416826 5.8263164
-0.21816647 0.95777792 5.8500366
0.53392029 0.99656773 5.896709
-0.1339204 1.0442501 5.8531837
0.078040287 1.0484812 5.8775721
0.1205231 1.0483333 5.8762817
0.26230001 1.0488508 5.8761373
-0.10571877 1.07265 5.8511605
-0.021096243 1.0751746 5.8655434
0.016622292 1.0664921 5.8709278
0.077985421 1.0759816 5.8696222
0.13465601 1.0764049 5.8712554
0.17728314 1.0772806 5.875298
0.28142783 1.0685436 5.8777747
0.33417234 1.0662529 5.889967
0.37697044 1.0667008 5.8906527
0.40562838 1.0672705 5.8925562
-0.030502729 1.1216155 5.8558984
0.021383274 1.1339498 5.8698125
0.082676642 1.1229256 5.862433
0.13469227 1.119133 5.8672414
0.1771985 1.1192653 5.8672342
0.27749264 1.1238635 5.8886189
0.33437622 1.1238177 5.8864403
0.37770975 1.1115404 5.8969913
0.42065185 1.1120666 5.8978553
-0.021091089 1.1597357 5.8532157
0.02137433 1.1618001 5.863626
0.077948876 1.1746085 5.8546419
0.13958734 1.172551 5.8677764
0.17739394 1.1772653 5.8663635
0.28196362 1.184317 5.8747444
0.33475697 1.1820227 5.885684
0.37816393 1.1842117 5.8948727
0.40704429 1.1995142 5.8967719
-0.021113897 1.2175959 5.8517895
0.026122471 1.229238 5.8609729
0.078149036 1.248482 5.8595672
0.13498734 1.220996 5.8671217
0.17790698 1.2233253 5.8775735
0.27733681 1.2227271 5.8721323
0.33508325 1.2260094 5.8859272
0.37804025 1.2266197 5.8871493
0.42133132 1.2280772 5.8922019
-0.10618358 1.2758086 5.8504076
-0.077834301 1.2757821 5.8505836
0.0072162161 1.2774241 5.8584585
0.063894629 1.2756536 5.850112
0.1209611 1.2654307 5.8698931
0.27808943 1.2688569 5.8822646
0.33048746 1.2645591 5.8832402
0.36924377 1.2766086 5.8920803
0.40743643 1.272157 5.8924885
-0.10637692 1.3349319 5.8526068
-0.077997521 1.3352696 5.8543859
-0.035364132 1.3201321 5.852643
0.02145095 1.3224883 5.8631315
0.078245625 1.3355558 5.8556337
0.13990721 1.3268558 5.8597455
0.17798981 1.3235174 5.8659759
0.27852306 1.3279949 5.8831387
0.32130355 1.3277385 5.8806105
0.36472765 1.3298976 5.8885055
0.41775051 1.3270276 5.8953557
0.48519358 1.3287557 5.8995833
0.52324557 1.3474165 5.8925538
-0.078039862 1.3644156 5.8531799
-0.021215141 1.379837 5.856359
0.026205793 1.3754069 5.8583865
0.078366898 1.3802109 5.857657
0.13520752 1.3794785 5.8538332
0.17844136 1.3982249 5.8698735
0.29289421 1.3712227 5.8778849
0.32159126 1.3717942 5.8793406
0.36508286 1.3741341 5.8876877
-0.035453208 1.4233186 5.8528547
0.0072439318 1.4250896 5.8602204
0.07845626 1.4244692 5.8573132
0.27903503 1.416239 5.8804798
0.32181472 1.4156518 5.8766346
0.3653118 1.4179478 5.8844872
0.4088949 1.4201496 5.8917565
-0.021254882 1.4678738 5.8532114
0.021502174 1.4684367 5.8554535
0.078628898 1.4704003 5.8630095
0.1310461 1.466682 5.8672905
0.16437156 1.4713874 5.8657227
0.27952307 1.4760184 5.8813019
0.32226807 1.4749451 5.8755059
0.36564136 1.4765251 5.8801746
0.40940374 1.4793792 5.8896384
-0.021331897 1.5160588 5.8670015
0.016797267 1.535573 5.8653464
0.078782663 1.5305752 5.8649621
0.12162265 1.5440241 5.8587599
0.1502887 1.5305142 5.8638091
0.28006816 1.5219058 5.8851967
0.38096926 1.5236115 5.8880243
0.4098354 1.5240695 5.8885007
-0.021342445 1.574001 5.859622
0.078803509 1.5739523 5.8591051
0.12163592 1.5727942 5.8543158
0.28025821 1.5660356 5.881587
0.32385978 1.5685565 5.8895845
0.36723837 1.5694425 5.8911924
0.41070813 1.5705595 5.8934126
-0.10716621 1.6023266 5.8527055
-0.021330776 1.6017191 5.8511229
0.026386717 1.6238748 5.8586965
0.064604521 1.605211 5.8636689
0.12196076 1.6200217 5.8620944
0.16053835 1.6188768 5.8755507
0.28055114 1.6251789 5.8771043
0.3244074 1.6288961 5.8890371
0.36792481 1.6301192 5.8917646
0.41157371 1.6316192 5.895299
0.093231842 1.6619625 5.8506227
0.28116775 1.6720653 5.8821645
0.32489416 1.6746371 5.8897247
0.36863244 1.6765926 5.8948717
0.41187835 1.6761769 5.8914905
0.23773694 1.7283875 5.8676691
0.28128111 1.7160358 5.8762407
0.32476705 1.7172815 5.879004
0.36873457 1.7204618 5.8881993
0.41267556 1.7373388 5.8915806
0.73457211 1.745515 5.8982453
0.036071051 1.7548133 5.8571091
0.079247974 1.769874 5.8561101
0.12234912 1.7690306 5.8528199
0.18026516 1.7729309 5.8646665
0.22392014 1.7761937 5.8744807
0.28156775 1.7756014 5.8708248
0.32467404 1.7600741 5.8686914
0.55951667 1.77291 5.8996863
0.70525265 1.7740227 5.8928146
-0.021475304 1.8139379 5.8504138
0.016941955 1.8355058 5.8538756
0.079419605 1.8313293 5.8565493
0.12267666 1.8170367 5.8595724
0.16656655 1.8240279 5.8813834
0.22449301 1.824236 5.880753
0.28214574 1.8225987 5.8737879
0.021782691 1.8776846 5.8573036
0.079615176 1.8792815 5.861948
0.12298381 1.8649726 5.8650293
0.16653624 1.8670037 5.8707161
0.22456136 1.8682189 5.8732061
0.28250405 1.8683589 5.8719163
0.036241699 1.9077492 5.8545327
0.079641573 1.9088159 5.8575039
0.12313692 1.9252174 5.8596554
0.16667493 1.9265647 5.8629851
0.22483978 1.9285545 5.8677344
0.28282985 1.9285007 5.8659129
0.32663247 1.9303679 5.8700686
0.35624576 1.9335768 5.8786526
0.0073708948 1.9739017 5.8663535
0.094190098 1.9686403 5.8502073
0.12331865 1.9715551 5.8585024
0.16722554 1.976492 5.872427
0.2252616 1.9758387 5.8691645
0.28375798 1.978668 5.8758516
0.32848039 1.9850858 5.8933692
0.37649599 1.9720742 5.8837914
-0.021663006 2.0328393 5.855309
0.021883562 2.0176203 5.8566866
0.075034246 2.0111001 5.8526173
0.12363167 2.0201886 5.863256
0.16757026 2.024313 5.8745089
0.22560905 2.0225227 5.8679857
0.28416568 2.0249448 5.873313
0.32863504 2.0298605 5.8859348
0.3725445 2.0304179 5.8857956
0.43110716 2.0309892 5.8846617
-0.16715102 2.0947635 5.8503966
-0.079893321 2.0950434 5.8524451
0.085018158 2.0866604 5.8584247
0.12383971 2.0818312 5.8592291
0.16761523 2.0831065 5.8620634
0.22579531 2.0678442 5.8623176
0.28472066 2.072715 5.8743887
0.32926822 2.077651 5.8868237
0.42760774 2.0718184 5.8959975
0.62469792 2.0871878 5.8975301
0.036540419 2.1276841 5.855288
0.080275334 2.1282647 5.856575
0.12392941 2.1270592 5.8527498
0.16803578 2.1320775 5.865798
0.2264415 2.117588 5.868341
0.27062905 2.1205945 5.875442
0.3151823 2.1251774 5.8866072
0.36958984 2.1339598 5.8940492
0.44811732 2.1155014 5.8983216
0.47804475 2.147362 5.8962274
0.59578729 2.118299 5.8971734
0.026909748 2.1718438 5.859694
0.080383331 2.1751399 5.8539324
0.12424792 2.1763716 5.8567362
0.16851138 2.1821012 5.8713865
0.22705352 2.1819534 5.8696446
0.27093777 2.1815944 5.8674088
0.31056091 2.1807775 5.878304
0.37447551 2.1730838 5.8838997
0.43410498 2.177671 5.8935394
0.47828668 2.1778848 5.891777
0.50797951 2.1790314 5.8931794
-0.065701842 2.2236719 5.8552198
0.0074230595 2.2229106 5.8534837
0.080503464 2.2221045 5.8509712
0.12439004 2.2227402 5.852129
0.1687842 2.2295017 5.8691616
0.22753695 2.2306972 5.8709445
0.27181298 2.2327127 5.87497
0.32089576 2.2237556 5.8779907
0.37499803 2.2202682 5.8807888
0.43002319 2.2211988 5.8950081
0.47833318 2.2075357 5.8847899
0.5189696 2.2331583 5.8931465
-0.06578099 2.2553346 5.8537216
-0.021844549 2.254529 5.8518729
0.1689246 2.2754261 5.8623838
0.22804338 2.2797256 5.8721123
0.27249238 2.2824655 5.8779254
0.31197846 2.2791243 5.8818831
0.37579829 2.2839565 5.8777914
0.42090273 2.2741237 5.8923893
0.16926421 2.3243234 5.8626881
0.2279797 2.3231416 5.8583274
0.27241948 2.3260491 5.8643656
0.32192484 2.3193758 5.8732963
0.37536573 2.3254678 5.8589392
0.42042634 2.3158081 5.8737431
0.450789 2.3202763 5.8835449
0.52647519 2.3431144 5.8954992
0.57107645 2.3435893 5.8938251
0.61633182 2.3464737 5.8979421
0.69142145 2.3493862 5.8995333
0.036869455 2.3529644 5.8542056
0.081020176 2.3540542 5.8565969
0.12518881 2.3548062 5.8579435
0.16926214 2.3538647 5.8548198
0.23330171 2.3665602 5.857656
0.27264386 2.3721802 5.8568821
0.32180813 2.3676941 5.8575559
0.37606013 2.374119 5.8576441
0.42100245 2.378088 5.8653708
0.4664709 2.383925 5.8774729
0.52702439 2.3752851 5.8934517
0.57920462 2.3858378 5.8615899
0.61640733 2.3764586 5.8903337
0.67686248 2.3802173 5.895093
0.72200525 2.3819385 5.8956671
0.4211801 2.4234254 5.8552022
0.52111322 2.4102976 5.8714218
0.63158339 2.4074578 5.8839664
0.67636347 2.4082003 5.8823009
0.73521996 2.4211495 5.8683949
0.76784885 2.4154289 5.8922739
0.82884121 2.4194512 5.8964119
0.93436706 2.4220591 5.8917837
1.1486936 2.4327919 5.8916779
0.53481966 0.94121867 5.9129171
0.57715338 0.94048756 5.9056754
0.60666943 0.94207442 5.9137492
0.53437006 0.96891546 5.9048462
0.57723683 0.98338377 5.9019079
0.60666478 0.98489571 5.9090729
0.27783275 1.0254874 5.9077039
0.33484638 1.0256877 5.9069076
0.36940852 1.0103503 5.9293914
0.40628597 1.0262382 5.9071369
0.37833315 1.1419237 5.9031162
0.40702495 1.1423391 5.9040055
0.26407588 1.1701117 5.9017086
0.40729991 1.171689 5.904283
0.43627259 1.2013671 5.9045243
0.49502808 1.2912418 5.908071
0.43757963 1.3484195 5.9016147
0.42361253 1.3783088 5.9030142
0.49545354 1.3785118 5.9001656
0.52470827 1.3799329 5.9045911
0.43853956 1.4088861 5.9056067
0.48182651 1.4237599 5.9030838
0.32408017 1.5264239 5.9011993
0.35298517 1.5268946 5.9019122
0.70638037 1.7477281 5.9081345
0.59054697 1.7788482 5.9175243
0.63490748 1.7805777 5.9201918
0.67962021 1.7830591 5.9251556
0.73726851 1.7811234 5.9139776
0.78392249 1.7729754 5.9346828
0.83016092 1.7925985 5.9441581
0.87008542 1.7843355 5.947412
0.93392527 1.7944045 5.9397211
0.97764617 1.7936708 5.9324574
1.0389411 1.7832639 5.9429493
0.57656235 1.8244494 5.9153919
0.63108826 1.8225881 5.922483
0.66986126 1.8317872 5.9157777
0.72572362 1.8326138 5.9309511
0.76914549 1.8166645 5.9260988
0.80099899 1.8224856 5.942441
0.89021599 1.8246408 5.9409037
0.93496943 1.8258456 5.9401808
1.0412594 1.8315536 5.9470096
1.0705593 1.8163908 5.9452076
0.53349328 1.8707571 5.9169393
0.57237786 1.8801928 5.9113793
0.6229102 1.8759999 5.9276843
0.66665411 1.8754013 5.922523
0.7271328 1.8802524 5.933136
0.77170438 1.8668182 5.936471
0.81210834 1.8745188 5.9407449
0.87650359 1.8709239 5.9397473
0.92159069 1.872756 5.94102
0.95266259 1.8758831 5.9477425
1.0432322 1.8794301 5.9487681
1.0723294 1.8637671 5.9456391
0.3884308 1.934536 5.9281788
0.41826746 1.9369918 5.9343472
0.51965725 1.9175016 5.9171939
0.58235067 1.9199604 5.9046292
0.62273812 1.9194418 5.9164371
0.66810334 1.923548 5.9257507
0.728791 1.928732 5.9369807
0.77301788 1.928899 5.9337144
0.81240076 1.9242827 5.9321136
0.87297791 1.9280152 5.9378915
0.92246246 1.9188102 5.936975
0.95415515 1.9232032 5.9473629
0.43188646 1.9761615 5.9091954
0.47633979 1.9784708 5.9137678
0.52009165 1.9777002 5.9088974
0.57902801 1.9788872 5.9087172
0.62403721 1.9821849 5.9155536
0.66470575 1.981793 5.9272423
0.72837412 1.9864447 5.9202499
0.77429956 1.9763398 5.9336028
0.81975937 1.9793041 5.9384108
0.88529104 1.9728793 5.9446392
0.97105575 1.9718798 5.9486513
0.4470498 2.0225117 5.9053898
0.47639868 2.0226908 5.904345
0.52098489 2.0250931 5.908803
0.58113879 2.0302296 5.9200363
0.62491006 2.0290744 5.9136024
0.67470503 2.021651 5.9191279
0.72942525 2.0335588 5.9185581
0.77484322 2.0220079 5.927516
0.82065743 2.0258169 5.9345045
0.88040131 2.0272126 5.9327993
0.92645168 2.0160606 5.9424124
0.37433061 2.0841928 5.9035463
0.47715652 2.0699611 5.9032717
0.52188337 2.0727272 5.9085627
0.58120728 2.0745978 5.9101868
0.62529904 2.0597665 5.9103036
0.67008722 2.0764847 5.9091234
0.72609836 2.0773869 5.9224873
0.77703661 2.0721421 5.933773
0.82239068 2.0745971 5.9366665
0.86693138 2.0747936 5.9328799
0.92911708 2.0813336 5.9453764
0.38943207 2.1158741 5.9022236
0.42897418 2.137274 5.9004421
0.47813487 2.1183403 5.9046512
0.52279532 2.1204915 5.908061
0.56647718 2.1186924 5.9002633
0.62586111 2.1205304 5.9012856
0.6714201 2.1248436 5.9099255
0.73855942 2.1242974 5.933043
0.77940333 2.1230075 5.9409866
0.8231256 2.1209359 5.9310179
0.86878836 2.1238201 5.9346857
0.90041667 2.1432502 5.9406996
0.9596374 2.1128187 5.9397717
0.52805668 2.1612236 5.9019094
0.58326966 2.1705666 5.9091825
0.6291998 2.1762929 5.9216175
0.67468774 2.1797776 5.9277692
0.73454273 2.1813912 5.9273028
0.7798506 2.1836376 5.9295058
0.82534891 2.1712742 5.9359083
0.8691417 2.1692417 5.9259558
0.90187502 2.1765409 5.9428139
0.99305034 2.1803827 5.9433894
1.0235264 2.1667531 5.9472208
0.46571708 2.2470875 5.90448
0.53913933 2.2155464 5.9026232
0.57987982 2.2306464 5.9113808
0.63054764 2.2254407 5.9228973
0.67570114 2.2275777 5.9251719
0.73535681 2.2284341 5.9225478
0.78059042 2.2303278 5.923635
0.8266058 2.2192702 5.9334431
0.87109041 2.2188001 5.9277525
0.91910887 2.2418356 5.9407988
0.98014998 2.2298143 5.9458251
1.0256995 2.231266 5.9444313
1.0561101 2.2322528 5.9434104
0.4660784 2.2784209 5.9011993
0.52646744 2.2836707 5.9113436
0.57091576 2.2836032 5.90832
0.61568856 2.2698681 5.9120073
0.67655873 2.2750034 5.9208612
0.72247922 2.2792122 5.9281635
0.7670964 2.2790093 5.9237227
0.82325584 2.2783332 5.9311409
0.87363046 2.2700651 5.9332662
0.91406101 2.281513 5.9302869
0.98148328 2.2778001 5.9420471
1.0268399 2.278718 5.9391456
1.0579673 2.2812016 5.9419379
0.4818455 2.3275514 5.9003391
0.52654386 2.3137264 5.9043398
0.57142073 2.3153126 5.9055266
0.61607045 2.3157921 5.9036231
0.67197746 2.3308282 5.9098129
0.72131139 2.3201475 5.906538
0.76788938 2.3260887 5.9177237
0.8348704 2.3227835 5.9312744
0.87536502 2.3194721 5.9329262
0.92667729 2.3280952 5.9355025
0.97801846 2.3214076 5.9411035
1.0276303 2.3104823 5.9356065
1.06005 2.3308268 5.9413528
1.1842061 2.3234017 5.9491038
0.72215909 2.3526597 5.9052668
0.76887506 2.3738475 5.9128046
0.83061141 2.3797009 5.9217501
0.87564766 2.3800993 5.9182396
0.92176121 2.3832157 5.9211845
0.97011077 2.3765748 5.9412622
1.0171435 2.3810568 5.9471493
1.1765103 2.3784711 5.9484119
1.2329397 2.3905206 5.9425564
1.2802759 2.3941827 5.9448781
0.96975017 2.4057682 5.9305482
1.0155171 2.4073758 5.9291849
1.0762053 2.4084532 5.9243541
1.1241066 2.4144356 5.9331641
1.1685382 2.4127188 5.9227533
1.2152166 2.415617 5.92344
1.3417971 2.4261706 5.9307694
1.3724706 2.4268003 5.9273744
1.437676 2.4040794 5.9447784
1.5328141 2.4101746 5.9435544
1.3414429 1.5417187 5.9854794
1.3711872 1.5270181 5.9839349
1.4181663 1.5445724 5.9848423
1.4802442 1.5325119 5.9885373
1.5246744 1.5323336 5.980113
1.5575902 1.5205518 5.9896789
1.3260783 1.5707176 5.9799833
1.3743725 1.5751393 5.9899569
1.4201963 1.5765343 5.9881201
1.4814529 1.578446 5.9854822
1.526886 1.5792472 5.9808121
1.5605245 1.5532863 5.9956956
1.6252716 1.5880724 5.9979391
1.3342253 1.6240406 5.9846287
1.3752599 1.620759 5.9856596
1.4164238 1.617548 5.98667
1.4781133 1.6298538 5.9837308
1.5162747 1.6136057 5.9948864
1.2857654 1.6649749 5.9894342
1.3304925 1.6800383 5.9805279
1.3771865 1.6825979 5.9827671
1.4261266 1.6867627 5.9709511
1.4817977 1.6681579 5.9701033
1.5343511 1.676796 5.9932261
1.5978951 1.6806697 5.9962378
1.2872393 1.7264167 5.9847474
1.3340049 1.7291803 5.9875922
1.3790144 1.7295612 5.9819541
1.4288206 1.7357364 5.9960508
1.4723792 1.7192714 5.986217
1.5198269 1.7222126 5.9887328
1.5672328 1.7099584 5.9933138
0.89038318 1.7661088 5.9541278
0.93480438 1.7666287 5.9512582
0.98440695 1.7764651 5.9795375
1.0115874 1.7722253 5.9618993
1.0705608 1.7720834 5.9543724
1.1030805 1.7769045 5.9668784
1.1804307 1.7819016 5.9739208
1.2288938 1.7727491 5.990057
1.2733406 1.7724285 5.9825234
1.3193138 1.7741926 5.9818144
1.3666477 1.7775813 5.9863253
1.4289507 1.7807946 5.9875164
1.4768434 1.7844433 5.9922543
1.5081921 1.7710546 5.9956231
1.6349376 1.7783667 5.9984674
0.8330391 1.8283048 5.9586568
0.86195618 1.8271066 5.9518924
0.9821251 1.8314297 5.9534812
1.0122848 1.8177955 5.9568701
1.1196563 1.8241916 5.9651093
1.1831582 1.8307021 5.9785395
1.2292855 1.8329347 5.9796295
1.2754008 1.8200419 5.982955
1.3214154 1.8218107 5.9820881
1.3688195 1.8252866 5.9865265
1.4296825 1.8266286 5.9812517
1.4771413 1.8297987 5.9840775
1.5747421 1.8387251 5.9972849
1.6206249 1.8093412 5.9977856
0.8335585 1.8589541 5.9561458
0.98456061 1.8803935 5.9587569
1.014545 1.8811021 5.9575777
1.0760128 1.8998567 5.9596181
1.1215088 1.8717866 5.9655714
1.183153 1.8753455 5.9690094
1.2301155 1.8789026 5.9741201
1.2774673 1.8678408 5.9831438
1.3232461 1.8691757 5.9808159
1.3686888 1.8700217 5.9764366
1.4263345 1.8687066 5.9804072
1.4803007 1.8637743 5.990448
1.5132391 1.8673389 5.9966846
0.9852035 1.9260726 5.9529223
1.0156316 1.9275973 5.9542127
1.0639955 1.9347062 5.970809
1.1227682 1.9185268 5.9625244
1.183681 1.9208661 5.9618683
1.2320237 1.9266584 5.9735203
1.2801023 1.9315569 5.9823027
1.3277898 1.935632 5.9881525
1.3739983 1.9223083 5.9896832
1.4191823 1.9225197 5.9830656
1.453808 1.9286177 5.997025
1.5459954 1.9007156 5.9950328
1.5802525 1.935908 5.9983778
0.8376708 1.9570922 5.9660645
0.92635596 1.9713869 5.9520321
0.97268414 1.9751635 5.9585028
1.0338264 1.9785132 5.9617629
1.0812759 1.9837244 5.9720469
1.1258526 1.9685159 5.9688387
1.1717131 1.9704456 5.9687562
1.2193335 1.9750503 5.9764781
1.2804091 1.9769787 5.9736376
1.3294328 1.9831076 5.9853497
1.3758372 1.9700128 5.987545
1.4242489 1.9746094 5.9941845
0.97435105 2.023175 5.9584579
1.0218449 2.0289083 5.9701929
1.0664951 2.028749 5.9643068
1.1293124 2.0194697 5.9768639
1.1742026 2.019516 5.9710507
1.2247981 2.0157523 5.9688621
1.2691938 2.0279512 5.983129
1.3163588 2.0161257 5.9894915
1.3785467 2.0190773 5.9888296
1.4241356 2.0196679 5.983223
1.4566952 2.0230367 5.9881344
1.554363 2.0323424 5.9996996
0.91586959 2.0701311 5.96106
0.97580159 2.0708866 5.9566879
1.0239964 2.0780394 5.9720931
1.0652966 2.0758271 5.9764762
1.1264077 2.0781763 5.9756088
1.1755903 2.0818281 5.9638314
1.2167484 2.0789089 5.9654503
1.2711959 2.0762591 5.9818292
1.3188717 2.0652051 5.9902172
1.3793691 2.0504632 5.9853401
1.4283798 2.0710487 5.990221
1.4724532 2.0814145 5.9975047
0.92222804 2.1279399 5.956183
0.99321842 2.1209981 5.959373
1.0225859 2.1199648 5.9529691
1.0769629 2.1190968 5.9749546
1.1372789 2.1197793 5.9691525
1.1782244 2.1315155 5.966157
1.2291956 2.1231434 5.966167
1.2720072 2.1227617 5.9745798
1.3200811 2.1274614 5.9809394
1.3820835 2.1300242 5.9786186
1.4300817 2.1189179 5.9862633
1.4965824 2.1274204 5.9998765
1.6764135 2.1270406 5.9977775
1.7196454 2.1403699 5.9959469
0.93558264 2.1856492 5.9644775
0.97356778 2.1614282 5.9533257
1.0727741 2.1757195 5.9663553
1.1290314 2.1731565 5.9672017
1.169885 2.1847091 5.9634318
1.2220988 2.1784146 5.9692669
1.2739646 2.1712587 5.9724402
1.3220731 2.1759949 5.9785624
1.3696297 2.1795728 5.9812479
1.4162359 2.1662912 5.9827867
1.4768215 2.1686633 5.9951558
1.5297368 2.1769586 5.9938293
1.5609887 2.1933305 5.9875216
1.7540876 2.1757596 5.9951167
0.91953135 2.2129676 5.9513474
1.0877976 2.2207997 5.953054
1.1208197 2.2267983 5.9652424
1.1686864 2.2320271 5.9731722
1.2280054 2.2302403 5.9599199
1.2746084 2.2176268 5.9637918
1.3241205 2.2247782 5.9760914
1.3717294 2.2284021 5.9786315
1.419515 2.2320442 5.9809103
1.4842103 2.2228174 5.9906034
1.5646503 2.2290127 5.9936037
1.0898716 2.270154 5.9525023
1.1225833 2.2755232 5.9626808
1.1687791 2.2774525 5.9616594
1.2311927 2.2813497 5.9632988
1.2767743 2.2667263 5.9619837
1.3251457 2.2719307 5.9686871
1.3735455 2.2768891 5.9744854
1.4370854 2.2814023 5.976234
1.4681667 2.2672353 5.9778223
1.5177846 2.2731743 5.9854341
1.5687671 2.2808096 5.9971266
1.6167692 2.2837679 5.9962425
1.0009712 2.3483279 5.9508114
1.0922514 2.3203058 5.9533157
1.1234102 2.3224413 5.9548578
1.1536924 2.3227005 5.9514723
1.2325788 2.3292649 5.9576187
1.2812425 2.3201656 5.9705267
1.3288232 2.3238382 5.9729204
1.3751554 2.3251538 5.9690733
1.4285821 2.3246126 5.9736419
1.4714856 2.3333721 5.9747186
1.5051509 2.3230128 5.9861903
1.5727936 2.3327026 5.99997
1.6247717 2.3236778 5.9961553
1.6689156 2.3384156 5.9969015
1.0318549 2.3501151 5.9517326
1.0847564 2.3761108 5.9546299
1.1257095 2.37254 5.9544697
1.1550959 2.3557324 5.950367
1.2340873 2.3624334 5.9565754
1.2812843 2.3657341 5.9581347
1.3247117 2.3812025 5.9624619
