ply
format ascii 1.0
comment PCL generated
element vertex 1459
property float x
property float y
property float z
element camera 0
property float view_px
property float view_py
property float view_pz
property float x_axisx
property float x_axisy
property float x_axisz
property float y_axisx
property float y_axisy
property float y_axisz
property float z_axisx
property float z_axisy
property float z_axisz
property float focal
property float scalex
property float scaley
property float centerx
property float centery
property int viewportx
property int viewporty
property float k1
property float k2
end_header
1.2737159 -0.48046303 1.1217111
1.328531 -0.48260269 1.1243153
1.3755492 -0.48209295 1.1301898
1.425382 -0.48216304 1.1254398
1.4656492 -0.47870678 1.1308742
-0.71475202 -0.47536665 1.1805167
-0.67670363 -0.47604871 1.1758004
-0.62344408 -0.47196528 1.1747155
-0.57495219 -0.47061846 1.1743522
-0.52567381 -0.46980983 1.1754161
-0.47129977 -0.4691647 1.1730065
-0.42364779 -0.47034889 1.173681
-0.37438524 -0.47051957 1.1748108
-0.32448295 -0.47139603 1.176592
-0.27201381 -0.47188663 1.1748155
-0.22535667 -0.47178376 1.1745946
-0.17619666 -0.47253504 1.1734419
-0.12608992 -0.47480214 1.1778527
-0.075270571 -0.47584513 1.1770551
-0.024025971 -0.47971752 1.1759075
0.02364317 -0.47778723 1.1776614
0.075310029 -0.4781805 1.1729187
0.12404579 -0.47932532 1.1746243
0.17548358 -0.48028675 1.1713102
0.22640646 -0.480712 1.1713681
0.27380115 -0.48036429 1.1736192
0.32347587 -0.48040542 1.1764916
0.37399814 -0.48090038 1.1733477
0.42755169 -0.48047355 1.1748282
0.47755724 -0.47992897 1.1717802
0.52518809 -0.48060128 1.174957
0.57422322 -0.48009083 1.1766332
0.62235314 -0.47993904 1.1739186
0.67208451 -0.48029432 1.1751605
0.72344631 -0.48187786 1.1722516
0.7719841 -0.48056751 1.173524
0.82581657 -0.48740491 1.1750623
0.87303513 -0.48342356 1.1766034
0.9255628 -0.4820689 1.1764194
0.97457814 -0.48008111 1.1717099
1.0241442 -0.48149076 1.1748289
1.0786654 -0.48382145 1.1787524
1.1193049 -0.48287904 1.1677023
1.1779734 -0.48422399 1.1819676
1.226701 -0.48367941 1.1723813
1.2761897 -0.48389652 1.1723309
1.326391 -0.48283255 1.1724868
1.3660494 -0.47717026 1.1703842
1.4288278 -0.48212275 1.1753772
1.4792527 -0.47796676 1.1776074
1.5204477 -0.47883496 1.1764547
1.5585206 -0.47912338 1.1932358
-0.75789165 -0.47409037 1.2280763
-0.72342825 -0.479197 1.226248
-0.67616165 -0.47709736 1.2248712
-0.62686044 -0.47342736 1.2252659
-0.57254088 -0.47118112 1.222886
-0.52619135 -0.4705883 1.226548
-0.4770073 -0.4698267 1.223511
-0.4261547 -0.46985066 1.2209499
-0.37548661 -0.47074595 1.2230273
-0.32440978 -0.47047612 1.2288027
-0.27649367 -0.47146893 1.2211601
-0.22573069 -0.4706462 1.223112
-0.17473486 -0.47187492 1.2194947
-0.12428799 -0.47259137 1.2235192
-0.073853679 -0.47391856 1.2271185
-0.025858412 -0.47226566 1.2269298
0.027091002 -0.47561055 1.2233332
0.074313968 -0.47712609 1.2219024
0.12580982 -0.47722718 1.2209381
0.17533685 -0.47817388 1.2200469
0.22394635 -0.47904533 1.2220509
0.27619901 -0.47868219 1.2222096
0.32266763 -0.47877577 1.2253443
0.37649968 -0.4790889 1.2237425
0.42630029 -0.4791598 1.2258668
0.47417241 -0.47911263 1.2207997
0.5255667 -0.47925782 1.2251761
0.57131851 -0.47789145 1.2280585
0.62574571 -0.47975701 1.225776
0.67434525 -0.47952938 1.2241986
0.7257579 -0.48304012 1.2277434
0.77619219 -0.48163092 1.2240208
0.82231754 -0.48152694 1.2205385
0.8724612 -0.48967904 1.2265791
0.92851251 -0.48264712 1.223103
0.97164661 -0.48081246 1.2254348
1.0218828 -0.48151731 1.2282841
1.0744365 -0.48257735 1.2251686
1.1278768 -0.48287916 1.2201014
1.1722693 -0.48498493 1.2241178
1.2281263 -0.484191 1.2234423
1.2755669 -0.48399052 1.2223117
1.3206073 -0.48435792 1.2269205
1.3675759 -0.4840855 1.2309539
1.4220566 -0.4820593 1.2252321
1.4693795 -0.48086309 1.2190593
1.5302662 -0.47869998 1.2174463
1.5687236 -0.47583881 1.2315162
1.6067646 -0.48019654 1.2341089
-0.025356809 0.092590392 1.2494705
-0.02424263 0.1329972 1.2488557
-0.025447015 0.18144476 1.2476254
0.0035312132 0.19434161 1.2498246
-0.019238099 0.20818076 1.2414904
0.018503565 0.21146643 1.2424276
0.055313099 0.209223 1.2405124
-1.0397211 0.97535098 1.2395309
-1.0409366 1.0155662 1.2430451
-1.0433812 1.0854721 1.2465006
-1.0406194 1.1357046 1.2387495
-1.0353667 1.161588 1.2322841
-1.0211052 1.2183851 1.2071289
-0.76027042 -0.48385817 1.2744825
-0.72130847 -0.48108381 1.2779638
-0.67302591 -0.47686622 1.2748634
-0.62495446 -0.47640264 1.2758425
-0.57713962 -0.47274008 1.2734543
-0.52531022 -0.47040051 1.2742387
-0.47747031 -0.47109425 1.2723429
-0.42487454 -0.47071853 1.2747656
-0.37650031 -0.47067714 1.2738835
-0.32482064 -0.46938291 1.2725126
-0.27687645 -0.47120616 1.2755708
-0.22648151 -0.47166547 1.2744366
-0.17564729 -0.47165748 1.2734815
-0.12533925 -0.4720757 1.2761425
-0.073330149 -0.47230831 1.2785838
-0.024636218 -0.46627298 1.2698824
0.02064657 -0.47294459 1.2718791
0.075703047 -0.47460884 1.2751238
0.12628967 -0.4758175 1.2745047
0.17364323 -0.47651616 1.2774878
0.22663631 -0.47745368 1.2690239
0.2741822 -0.47706917 1.2727857
0.32701257 -0.47757572 1.2747709
0.37437871 -0.47689369 1.2733123
0.42416468 -0.47670946 1.2763466
0.47555956 -0.4773356 1.2729337
0.52287102 -0.4774996 1.2718012
0.57471436 -0.47662547 1.2771591
0.62256062 -0.47713807 1.274189
0.67882037 -0.4780575 1.2737339
0.72478122 -0.47806725 1.2785231
0.77513564 -0.48352656 1.2776172
0.82520252 -0.48023549 1.2742491
0.87432975 -0.48328078 1.2716101
0.92600566 -0.48988307 1.2759119
0.9706133 -0.4820728 1.2754198
1.0275638 -0.48083907 1.2766261
1.0755171 -0.48024139 1.2640129
1.1276037 -0.48341015 1.2692492
1.1729316 -0.48300594 1.2791175
1.2269146 -0.48422113 1.2707107
1.2785741 -0.48287502 1.2789288
1.3242394 -0.48433533 1.278168
1.3634757 -0.48163265 1.2795923
1.4212543 -0.48213747 1.2665368
1.4765434 -0.48039168 1.2883059
1.520196 -0.48095089 1.2699286
1.5782697 -0.47891116 1.2702632
1.6206267 -0.47598201 1.281034
1.6755961 -0.48645592 1.2909834
-0.020643337 -0.42728987 1.2763757
-0.023913557 -0.39574197 1.2990745
-0.018643573 -0.31177753 1.2680253
0.019234734 -0.307363 1.2839164
0.070702262 -0.30239677 1.2927507
-0.022489905 -0.27456716 1.2578704
0.02368447 -0.27373731 1.266899
0.072676904 -0.27370414 1.2816947
0.1103515 -0.27636892 1.2957605
-0.022720441 -0.22635888 1.2569841
0.022740167 -0.2239867 1.2667748
0.072849117 -0.22599895 1.2837931
0.10959139 -0.22483395 1.2967106
-0.022344662 -0.1747586 1.2581359
0.022583619 -0.17387766 1.2680777
0.072647966 -0.17596638 1.2852446
0.10632765 -0.17597498 1.2971588
-0.022514299 -0.12323033 1.2560912
0.022838632 -0.12436863 1.267722
0.072490387 -0.12631164 1.2862875
0.10586625 -0.12767947 1.2970073
-0.022479389 -0.075007424 1.2563722
0.022789352 -0.075707451 1.2680945
0.072334953 -0.07685037 1.2861354
0.10586596 -0.07602147 1.2969105
-0.02242705 -0.026935747 1.2550805
0.022767257 -0.02721478 1.2677889
0.07223206 -0.027613064 1.2854778
0.10644696 -0.027326079 1.2968996
-0.022810027 0.024251848 1.2546722
0.022754975 0.024193028 1.2665873
0.072183102 0.024568332 1.2845746
0.10694589 0.027291982 1.2959744
-0.023986818 0.073022366 1.2550274
0.022761444 0.075614668 1.2659259
0.072191924 0.076711409 1.2832484
0.10628204 0.078393087 1.2974381
-0.022975229 0.1235446 1.2537367
0.022800596 0.12423281 1.2657363
0.072331496 0.12608261 1.2833195
0.11227664 0.12883297 1.2959636
-0.023785869 0.16853422 1.2555531
0.023132838 0.17416367 1.2624179
0.072475217 0.1755988 1.282156
0.10860667 0.17143454 1.287809
0.026102887 0.20639095 1.2535174
0.068331823 0.20401886 1.2688596
-1.0625921 0.97466391 1.2773322
-1.0600716 1.0195314 1.2853619
-1.0484047 1.0170851 1.2596524
-1.058755 1.07502 1.2840313
-1.0458658 1.0661709 1.2538753
-1.0536383 1.1276935 1.2708598
-1.0537442 1.1707463 1.2751156
-1.0497288 1.1783139 1.2611082
-1.0631609 1.2271352 1.2890129
-1.0614469 1.268989 1.2888585
-1.0457728 1.2586768 1.2530049
-0.80406398 -0.48773256 1.3326941
-0.77317286 -0.48918292 1.334522
-0.72207868 -0.48476768 1.3314745
-0.67564106 -0.47870222 1.325528
-0.6221664 -0.47676876 1.3290871
-0.57408839 -0.47350889 1.3253511
-0.52228975 -0.47217181 1.3231364
-0.47291985 -0.47252676 1.3245367
-0.42340192 -0.47209457 1.3254344
-0.37541217 -0.47187454 1.3254654
-0.32542777 -0.47131032 1.3282974
-0.274501 -0.47108501 1.3244102
-0.22522406 -0.47075954 1.3244004
-0.17448851 -0.47083744 1.3268508
-0.12676919 -0.47066584 1.3260095
-0.076193221 -0.47176662 1.324284
-0.023583889 -0.46260741 1.322482
0.027583415 -0.46976104 1.3190351
0.074147061 -0.47263113 1.3248625
0.12320787 -0.47307691 1.3241788
0.17781073 -0.47375286 1.3260241
0.22251156 -0.4744252 1.3190633
0.2757763 -0.47411332 1.324754
0.32405367 -0.47493017 1.3234494
0.37513864 -0.47526827 1.327374
0.42604798 -0.47625223 1.3276777
0.47275814 -0.47555277 1.3247499
0.52609318 -0.47551149 1.3178838
0.576069 -0.47557673 1.3231938
0.62476814 -0.47595453 1.3221641
0.67536598 -0.47606647 1.3272532
0.72742361 -0.47608665 1.3264982
0.77993685 -0.48278704 1.3242923
0.82564342 -0.48083767 1.3286757
0.87336665 -0.47977483 1.3278133
0.92231536 -0.48784134 1.3259258
0.97525603 -0.48481607 1.3208883
1.0186647 -0.47975814 1.3220893
1.0704615 -0.47939923 1.3219582
1.1231517 -0.4803313 1.3239362
1.174611 -0.47903305 1.3266966
1.224297 -0.48271984 1.323285
1.2716624 -0.48046747 1.3282071
1.3304527 -0.48143098 1.3251958
1.373847 -0.48287669 1.3347657
1.4219344 -0.48477039 1.330425
1.4735657 -0.48202392 1.3293939
1.5468199 -0.48144269 1.3259604
1.5792613 -0.48023403 1.3168302
1.6005731 -0.48130187 1.3316849
-0.021964943 -0.41400823 1.3065689
-0.021095918 -0.37379336 1.329069
-0.017697154 -0.34154347 1.3224906
0.075374544 -0.3120693 1.3069892
0.1315866 -0.31365901 1.315938
0.16615605 -0.31181282 1.3317236
0.21250841 -0.30302402 1.3482685
0.13486466 -0.27205327 1.3052248
0.17566511 -0.27503216 1.3196081
0.22178474 -0.27293503 1.3373212
0.25625676 -0.25782976 1.3484496
0.1345727 -0.22338474 1.3052357
0.17344809 -0.22578831 1.3183054
0.22299308 -0.22474673 1.3362679
0.25655717 -0.22467907 1.3473027
0.1314659 -0.17326395 1.306549
0.1740168 -0.17510191 1.3196234
0.2229816 -0.17427965 1.3379219
0.25251392 -0.17592761 1.3489807
0.13074253 -0.12310351 1.3071764
0.17379586 -0.12429744 1.32488
0.22446401 -0.12597713 1.3436421
0.13143268 -0.074916072 1.305968
0.17316721 -0.073020197 1.3227003
0.22367954 -0.088530838 1.3430769
0.25826877 -0.089844957 1.3472811
0.13143784 -0.026741773 1.30571
0.16837253 -0.026305996 1.3212001
0.13146582 0.021261288 1.3060896
0.16068 0.018731069 1.3187033
0.13165145 0.072056785 1.3059897
0.15573013 0.058071103 1.3206886
0.12931553 0.11314766 1.3048252
-1.0793567 0.98082489 1.3251369
-1.0759284 1.0212388 1.3309832
-1.0732118 1.0693189 1.3277873
-1.0704365 1.1218541 1.3221425
-1.0734437 1.1766396 1.3272316
-1.0734518 1.2258927 1.3271289
-1.0704335 1.2666864 1.3258982
-1.0775499 1.3156703 1.3365794
-0.82307875 -0.5009228 1.3991052
-0.82284623 -0.4982515 1.378087
-0.77278703 -0.49157503 1.3742336
-0.72621769 -0.48455039 1.3693728
-0.67289644 -0.48261356 1.3794869
-0.62832516 -0.47890535 1.3831092
-0.57441103 -0.47471029 1.3740757
-0.52398574 -0.47236612 1.3710753
-0.47698456 -0.47373351 1.3741219
-0.42599377 -0.47195101 1.3723481
-0.37641627 -0.47304434 1.3781427
-0.32571623 -0.47080955 1.3723373
-0.27547699 -0.47174433 1.3726062
-0.2235513 -0.47099161 1.3754177
-0.17453608 -0.47057796 1.3779907
-0.12266126 -0.47086552 1.3788185
-0.074882634 -0.47099814 1.3757254
-0.032373969 -0.46571857 1.3755684
0.024440777 -0.46852058 1.3695557
0.074556231 -0.47088581 1.377431
0.1245949 -0.47194874 1.3745061
0.17314005 -0.47260681 1.3741819
0.2271075 -0.47229421 1.3713007
0.27638048 -0.47080776 1.3732568
0.32480997 -0.47061172 1.3738329
0.37342224 -0.47138578 1.3729268
0.42312086 -0.47190958 1.3726072
0.47632155 -0.4729346 1.3732888
0.52361465 -0.47682783 1.3760067
0.57292038 -0.47567433 1.3686013
0.62652928 -0.4744277 1.3707305
0.67396295 -0.47516152 1.3792439
0.72709733 -0.47629413 1.3840754
0.77356243 -0.47740003 1.3748924
0.82053018 -0.48385987 1.372503
0.87417877 -0.47888246 1.3760061
0.92824703 -0.48062417 1.373273
0.97372419 -0.49052924 1.371349
1.0254238 -0.48090029 1.3769366
1.0799412 -0.4781155 1.3725561
1.1306125 -0.47687367 1.3792392
1.179172 -0.47680813 1.3769183
1.2181073 -0.47689956 1.3673419
1.263424 -0.47592074 1.3716542
1.330128 -0.48015961 1.3791802
1.376531 -0.47769368 1.3714685
1.4203697 -0.47901127 1.3742523
1.4626667 -0.48445338 1.3935764
1.5232826 -0.48734745 1.3821369
1.5718335 -0.48653793 1.375432
1.6351678 -0.48348862 1.3719523
1.6789932 -0.4821752 1.3846903
1.7188877 -0.48501393 1.3641856
-0.010451955 -0.44365042 1.3715537
0.18341133 -0.3171432 1.3531708
0.22699118 -0.3100943 1.3604994
0.27396607 -0.30622864 1.3688829
0.32615346 -0.30749437 1.388678
0.35621119 -0.30605084 1.3961986
0.24260575 -0.29735878 1.3580587
0.27709565 -0.27486068 1.3577111
0.32509235 -0.27420372 1.3731146
0.37402722 -0.27250376 1.3885691
0.40672874 -0.26528463 1.3981181
0.2819432 -0.2248145 1.3565708
0.32400581 -0.22519927 1.3697668
0.37392741 -0.22527269 1.3866719
0.40778342 -0.23039405 1.3973161
0.27648821 -0.17508653 1.3567244
0.32226554 -0.17489746 1.3700715
0.37486053 -0.1752277 1.3885911
0.4040117 -0.17510648 1.3974396
0.24963774 -0.11090294 1.3500601
0.27651989 -0.12400378 1.3559234
0.32479277 -0.12659246 1.3714205
0.37355703 -0.12360896 1.3866688
0.40782186 -0.12768012 1.3982426
0.23194198 -0.075598024 1.364846
0.27924615 -0.084940352 1.3615314
0.32326669 -0.085195184 1.3738226
0.37448797 -0.088031352 1.3856984
0.40965864 -0.089061417 1.3961982
0.19663846 -0.045469917 1.3526903
-1.0867606 0.98125619 1.3712982
-1.0806919 1.0252045 1.3641468
-1.0806057 1.0756855 1.3704211
-1.0820432 1.126895 1.3774102
-1.0825293 1.1747158 1.3723408
-1.0840564 1.2298702 1.3745637
-1.0847902 1.2789484 1.3798312
-1.0855846 1.3206789 1.3767033
-1.0885918 1.3525324 1.3807176
-0.86373377 -0.50573063 1.4276408
-0.8203606 -0.50197309 1.42383
-0.86214197 -0.49794403 1.4000974
-0.817505 -0.49685961 1.4167714
-0.76914132 -0.49273807 1.4285698
-0.73056549 -0.48767599 1.4251069
-0.67367047 -0.48328373 1.4259228
-0.62836128 -0.47745302 1.4362304
-0.57545841 -0.47466621 1.421059
-0.5261656 -0.4746812 1.4275721
-0.47322607 -0.47490856 1.4319552
-0.42485079 -0.47300029 1.421615
-0.37486148 -0.47390696 1.4291079
-0.32291222 -0.47239521 1.4210664
-0.272358 -0.47182903 1.4227098
-0.22315271 -0.47110799 1.4224981
-0.17534837 -0.47108504 1.4278737
-0.12271829 -0.47007698 1.4306479
-0.07548248 -0.47050112 1.4297451
-0.043319933 -0.46639109 1.4274174
0.020270571 -0.46938887 1.4271265
0.074423775 -0.4688676 1.4232711
0.12599677 -0.47143191 1.4264243
0.17513004 -0.47172558 1.4255807
0.22601417 -0.47119001 1.4255167
0.27215409 -0.46958393 1.4219602
0.32423216 -0.46920165 1.4279488
0.3735705 -0.47047365 1.4227268
0.42678761 -0.46994293 1.4223741
0.47404045 -0.46995285 1.4233345
0.52277058 -0.47059783 1.4186308
0.57527655 -0.47287628 1.4207064
0.62431204 -0.47524133 1.4236772
0.67725682 -0.47399187 1.4238578
0.71780372 -0.47280735 1.420761
0.77739084 -0.47583285 1.4269693
0.82223254 -0.48010471 1.4280829
0.8754819 -0.48218966 1.4250395
0.92663777 -0.47891951 1.4201192
0.97369653 -0.48175272 1.4251404
1.023362 -0.48120457 1.4269499
1.0740558 -0.47676685 1.4204847
1.1246897 -0.47367996 1.4270098
1.1784451 -0.47170812 1.4245315
1.2280949 -0.47393462 1.4274522
1.2714344 -0.47585469 1.4310265
1.3208067 -0.47498536 1.4242846
1.3734362 -0.47832087 1.4241635
1.4186537 -0.47754365 1.4207098
1.4805319 -0.48175415 1.4315718
1.5254303 -0.48100108 1.4256952
1.5726417 -0.48540524 1.4274815
1.623476 -0.48436347 1.4257773
1.6778407 -0.48261201 1.4209971
1.702619 -0.47897467 1.4069705
-0.005194196 -0.44552302 1.4141726
0.38029715 -0.30643183 1.4051653
0.41846961 -0.3059049 1.4186677
0.47132617 -0.30479759 1.4369148
0.50771415 -0.30560082 1.4467974
0.38676539 -0.29676434 1.403447
0.42997116 -0.27634683 1.4087698
0.47372845 -0.27290371 1.4223338
0.52269608 -0.27222496 1.4395078
0.55436832 -0.26701039 1.4489293
0.43226233 -0.22017199 1.4064754
0.47366846 -0.22702949 1.4197001
0.52544886 -0.22455907 1.4376872
0.55765009 -0.22715643 1.4489598
0.43138766 -0.1739839 1.4061649
0.4759503 -0.17603981 1.420763
0.52363271 -0.17541727 1.4364487
0.5576573 -0.17670925 1.4479836
0.43286371 -0.12428401 1.4061387
0.47699201 -0.12664413 1.4196911
0.52495861 -0.12459505 1.43601
0.55662441 -0.12320485 1.4469836
0.37655982 -0.075594231 1.4074932
0.43014884 -0.083650731 1.4132525
0.47629485 -0.087774552 1.4196305
0.52272642 -0.087413967 1.4355912
0.55545866 -0.090366676 1.4456443
-1.1012182 0.97595942 1.429437
-1.0928143 0.98611069 1.423179
-1.0926279 1.026636 1.4170355
-1.0920419 1.07857 1.4223368
-1.0917546 1.121864 1.4256269
-1.0917526 1.174172 1.4247985
-1.0918884 1.2321111 1.4288331
-1.1004071 1.2711595 1.4421103
-1.0917206 1.2793719 1.4215559
-1.1021098 1.3145103 1.4409759
-1.089245 1.324885 1.418427
-1.0935798 1.3784114 1.4260098
-0.90627033 -0.50709957 1.4763161
-0.880422 -0.50979072 1.4660127
-0.82154608 -0.50243402 1.475932
-0.79693437 -0.50013733 1.498499
-0.80958617 -0.4995482 1.475667
-0.77499664 -0.49531919 1.4743472
-0.72624558 -0.49182233 1.4803827
-0.68608576 -0.48484308 1.4669691
-0.6178171 -0.47807103 1.4768975
-0.57574809 -0.47677183 1.4761341
-0.52676058 -0.47623777 1.4766399
-0.47965443 -0.47641599 1.4765228
-0.43319711 -0.47525126 1.4730294
-0.36963254 -0.47450811 1.4748534
-0.32433185 -0.47332722 1.4765962
-0.27595934 -0.47250009 1.4698466
-0.22469051 -0.47127596 1.4718982
-0.17315616 -0.47027072 1.4734133
-0.12973683 -0.47119802 1.4807844
-0.076568417 -0.47005478 1.4773307
-0.045318134 -0.4642401 1.4730216
0.024614749 -0.4682861 1.4747189
0.075871855 -0.46910068 1.4728656
0.12553234 -0.46907848 1.4729307
0.17514563 -0.47042176 1.4728262
0.22257997 -0.46938932 1.470943
0.2715883 -0.46925291 1.4764448
0.32156256 -0.46909106 1.4753146
0.37526205 -0.46836632 1.4693396
0.42335162 -0.46884868 1.4744499
0.47279266 -0.47012827 1.4794459
0.53031325 -0.46997604 1.4730121
0.57547164 -0.47012594 1.4750587
0.62246573 -0.47115868 1.4685357
0.67218029 -0.47240758 1.47291
0.72625667 -0.47328493 1.47653
0.77563459 -0.47367147 1.4694195
0.82429862 -0.47450742 1.4759479
0.87506223 -0.48256752 1.4758354
0.92607081 -0.47761649 1.4709696
0.9735899 -0.47600976 1.4777305
1.0250078 -0.47575483 1.4755077
1.0753778 -0.46779969 1.4806298
1.1238127 -0.47288957 1.4744616
1.1695385 -0.47167251 1.4762337
1.2219805 -0.47246853 1.4870799
1.2745701 -0.47142729 1.4742697
1.3300269 -0.47542411 1.471442
1.3735015 -0.47559088 1.479439
1.4201319 -0.47466034 1.4782438
1.4702003 -0.47777748 1.4660708
1.5159198 -0.48107615 1.488171
1.5792031 -0.4803907 1.4782268
1.63387 -0.48348716 1.4841243
1.6704496 -0.48483816 1.474758
1.7281696 -0.4836688 1.480368
1.7592398 -0.47993863 1.4969932
1.8054415 -0.47330081 1.4812584
0.48461419 -0.31442937 1.4589219
0.53772485 -0.30632645 1.4664885
0.57417792 -0.3065756 1.4744382
0.61208677 -0.30305049 1.4865472
0.54151273 -0.29357928 1.4541453
0.57835871 -0.27576041 1.4606526
0.62633622 -0.2738449 1.4778296
0.67059153 -0.26835224 1.4939893
1.079533 -0.26677045 1.4943817
1.1106284 -0.27199182 1.49822
0.57979113 -0.22503407 1.4566234
0.62367451 -0.22461362 1.4728352
0.67314374 -0.22586423 1.4925338
1.0826755 -0.22298236 1.4937013
1.1143904 -0.22601569 1.4968252
0.57889104 -0.17512627 1.4561511
0.62400442 -0.17258017 1.4731799
0.66991949 -0.17540278 1.4899132
0.70212686 -0.16913584 1.4993496
1.082747 -0.17142279 1.4920809
1.1092798 -0.16338387 1.4930748
0.58257943 -0.12259755 1.4552161
0.62619245 -0.12608375 1.4738077
0.67317814 -0.12346929 1.4918528
0.7003935 -0.12267023 1.4987966
1.0834395 -0.12418053 1.4945279
1.113387 -0.12300125 1.4935099
0.49439228 -0.072359569 1.4628624
0.52442163 -0.072998971 1.4698333
0.57839781 -0.083407529 1.4610972
0.62477982 -0.086319484 1.47726
0.67033368 -0.09085501 1.4887754
1.0840724 -0.089837588 1.4940528
1.1185122 -0.087492906 1.4940891
-1.1040546 0.98305649 1.4826764
-1.0967839 0.98806024 1.4722488
-1.1022544 1.0252924 1.4759436
-1.0978378 1.0255716 1.4795175
-1.1011176 1.0758212 1.4687382
-1.0972863 1.0680541 1.4771856
-1.1031308 1.1255114 1.4715388
-1.098087 1.1204965 1.4818668
-1.1008313 1.1674991 1.4906876
-1.0974089 1.1652249 1.4718499
-1.1020002 1.2113918 1.478563
-1.0955724 1.2312292 1.4613534
-1.1022031 1.270192 1.4820249
-1.0953785 1.2829525 1.4715592
-1.1026604 1.33936 1.4812982
-1.0957174 1.3097485 1.4736798
-1.1033387 1.3700707 1.4767644
-1.0999619 1.3893361 1.4656684
-1.1069813 1.4276421 1.4900711
-0.92342967 -0.51085353 1.5245898
-0.87190682 -0.51026922 1.5189155
-0.83191025 -0.50665104 1.5079226
-0.81034744 -0.49708217 1.5266794
-0.77047396 -0.49309582 1.525167
-0.72630984 -0.49191123 1.5352823
-0.66982186 -0.48597363 1.5276926
-0.62330031 -0.47912925 1.5271298
-0.5744341 -0.47980598 1.5257902
-0.52656251 -0.47998309 1.528313
-0.47810596 -0.47762623 1.5285292
-0.42637533 -0.47653264 1.5201664
-0.37879518 -0.47529697 1.519822
-0.32428366 -0.47366753 1.5239356
-0.27472743 -0.47363096 1.5251253
-0.22421457 -0.47296372 1.5263456
-0.17273249 -0.47106412 1.5256348
-0.1230626 -0.47207403 1.5273569
-0.073047273 -0.46928397 1.5228785
-0.042942144 -0.45953557 1.5213324
0.023230663 -0.46742341 1.5244329
0.072526902 -0.46813491 1.5192077
0.12362813 -0.46833527 1.5221245
0.17482778 -0.46981302 1.5226095
0.22167219 -0.46901479 1.5189178
0.27597752 -0.47076043 1.5288482
0.32971573 -0.46871379 1.5245423
0.3748123 -0.46926114 1.5241942
0.42446545 -0.46915099 1.5274678
0.47821897 -0.46837124 1.520779
0.52099657 -0.47006056 1.5253022
0.57530087 -0.47190857 1.5281719
0.62354261 -0.47077999 1.5246271
0.67655867 -0.47075781 1.5282112
0.72800869 -0.47245163 1.5278026
0.77493012 -0.47438732 1.5268316
0.82363373 -0.47200629 1.5246048
0.8768028 -0.47569409 1.5282853
0.92265934 -0.4790546 1.5238525
0.97705263 -0.4743427 1.5281335
1.0256932 -0.47276941 1.5254816
1.0616864 -0.46607283 1.5267339
1.1235878 -0.46870789 1.522042
1.1687067 -0.46995407 1.5190228
1.2300884 -0.46844456 1.5296251
1.2746177 -0.47131699 1.5309442
1.3259299 -0.47158596 1.5227808
1.3872226 -0.47529426 1.5421945
1.4261082 -0.47494856 1.5285832
1.4771105 -0.47680303 1.5357375
1.5264729 -0.47628167 1.5254896
1.5757366 -0.47616893 1.5241327
1.6171112 -0.47642606 1.53757
1.667708 -0.47680065 1.5160931
1.7358754 -0.48077187 1.5247171
1.7814802 -0.47541812 1.5186232
1.0749538 -0.43908477 1.5150536
0.0094235605 -0.38990533 1.5401217
1.0913918 -0.3779161 1.5391802
1.1047133 -0.38466299 1.544125
0.62824249 -0.30783731 1.5082145
0.66768253 -0.3017568 1.5064108
0.72371262 -0.30513269 1.5307454
0.7777797 -0.30279422 1.5464715
1.0845127 -0.31322724 1.5275003
0.69143504 -0.27876174 1.5032246
0.72684824 -0.27494591 1.5175086
0.77482349 -0.27403918 1.5335319
0.80853581 -0.26444298 1.5449739
1.0471349 -0.27269047 1.5389874
1.0623603 -0.27522114 1.5117652
1.1284373 -0.2764321 1.5080559
1.1737702 -0.27555948 1.520909
1.2213312 -0.27585858 1.5335338
1.2659661 -0.26227155 1.5452524
0.69734317 -0.21812788 1.5037706
0.72542387 -0.22228003 1.5127512
0.77500236 -0.22601208 1.5312309
0.81396812 -0.22356597 1.5443046
1.0455164 -0.2254194 1.5424514
1.0585225 -0.22161992 1.5159729
1.1333181 -0.22771186 1.5045502
1.1780368 -0.22315569 1.5151
1.2270694 -0.22566579 1.5337535
1.2623216 -0.22784474 1.5439216
0.69471693 -0.17692558 1.5018334
0.72768319 -0.17544046 1.5134475
0.77779204 -0.17487527 1.5322177
0.81404978 -0.17392938 1.5441104
1.0479585 -0.17402644 1.5426173
1.0583316 -0.17224801 1.5156378
1.1308624 -0.17814453 1.5025179
1.1742837 -0.17641339 1.5161445
1.2250201 -0.17157362 1.5311751
1.2700148 -0.17762883 1.5451626
0.69186741 -0.13631976 1.5034391
0.72588551 -0.12495772 1.5122215
0.77460688 -0.12386248 1.5305632
0.81120485 -0.1265073 1.545938
1.0451652 -0.12673487 1.5391984
1.0594174 -0.11965562 1.5143373
1.1419126 -0.12233032 1.5026897
1.177496 -0.12542365 1.5150763
1.2195404 -0.12480777 1.5278255
1.2632996 -0.12421618 1.5409195
0.64871567 -0.07597781 1.5024589
0.68121439 -0.075964436 1.5144083
0.72366822 -0.082512751 1.518294
0.7744354 -0.082429066 1.5338585
0.80812562 -0.089755572 1.542907
1.0477836 -0.093231693 1.5477514
1.0691453 -0.079807855 1.5203421
1.1290998 -0.074476309 1.5083879
1.1697595 -0.080779098 1.5124871
1.2188255 -0.08461386 1.5296326
1.2646774 -0.091292202 1.5440829
-1.1121725 0.98481566 1.5304164
-1.1057321 1.0226344 1.5234972
-1.1074708 1.0799087 1.5225486
-1.1076652 1.1256796 1.5327016
-1.1075108 1.1777401 1.5279119
-1.104763 1.2258133 1.5267603
-1.0994071 1.2118708 1.51113
-1.1046482 1.2696218 1.5188751
-1.1073234 1.3216238 1.5265943
-1.1061816 1.3839811 1.526619
-1.1061194 1.4269041 1.5200617
-1.1063051 1.4596163 1.5289286
-0.95798731 -0.51006973 1.5672013
-0.92636025 -0.51633632 1.5811162
-0.8677755 -0.5114671 1.5773015
-0.82460713 -0.50322735 1.5848485
-0.76986009 -0.49432617 1.5777694
-0.72746301 -0.49122992 1.5710953
-0.67649919 -0.48619065 1.57593
-0.62469095 -0.48150221 1.5741872
-0.5783959 -0.48181242 1.5750526
-0.52436978 -0.48119545 1.5770456
-0.47642645 -0.48099577 1.577123
-0.42076337 -0.47877789 1.5767938
-0.3706165 -0.47748336 1.5796896
-0.32683739 -0.47544646 1.5765071
-0.27712837 -0.47461367 1.5782454
-0.22187306 -0.47382095 1.5772367
-0.17425895 -0.47435701 1.5711135
-0.12563273 -0.47147417 1.5824929
-0.071861267 -0.472157 1.5760566
-0.044426925 -0.45611954 1.577768
0.029722823 -0.46968231 1.5778686
0.078037336 -0.47077838 1.5758547
0.12384875 -0.46788767 1.5722051
0.17464526 -0.46957576 1.5768732
0.22704737 -0.46940565 1.570662
0.27756107 -0.47037637 1.5723095
0.32528374 -0.47106409 1.5731218
0.3766661 -0.46913251 1.5774047
0.42526701 -0.46962458 1.5736494
0.47282371 -0.46988574 1.5664243
0.52155644 -0.46897855 1.5765541
0.57594121 -0.47087809 1.5744758
0.62744403 -0.46861836 1.5786363
0.67317832 -0.47039619 1.5759174
0.72363937 -0.47056669 1.568602
0.7780109 -0.47084945 1.5705827
0.81770164 -0.47232348 1.5748128
0.86986703 -0.47210723 1.5705476
0.92458379 -0.4733212 1.5666392
0.97203708 -0.47236642 1.5772117
1.0244921 -0.4707934 1.5762148
1.0766128 -0.46587348 1.571434
1.1369482 -0.46153885 1.5656451
1.1758002 -0.4661026 1.5745422
1.2110834 -0.46886256 1.5680534
1.2720885 -0.4706172 1.5822457
1.3326982 -0.47298029 1.57899
1.3653837 -0.4681204 1.5740314
1.425457 -0.47317162 1.5759071
1.4769179 -0.4743391 1.5811533
1.533721 -0.47503874 1.5801681
1.5570753 -0.47216552 1.5639826
1.6340179 -0.47596475 1.5701182
1.6906695 -0.47991678 1.5614194
1.7228845 -0.47544965 1.5741122
1.7739112 -0.47664592 1.5721912
1.8150382 -0.47502464 1.559921
-0.0056496379 -0.41276968 1.5523701
0.0044981455 -0.41453695 1.5690998
1.1358966 -0.44947425 1.5761901
0.027264437 -0.39020023 1.5619539
1.1172788 -0.37430158 1.5826813
0.77045864 -0.30719066 1.5506307
0.82297397 -0.30352247 1.559412
0.8697921 -0.30158573 1.5821409
1.0673673 -0.30402607 1.5649529
0.77925003 -0.29937017 1.5502343
0.83455485 -0.27570865 1.5564314
0.87670946 -0.27378666 1.5702139
0.92184246 -0.27290958 1.5860871
0.95559686 -0.26758134 1.5943062
1.0350529 -0.27375177 1.5784327
1.2833265 -0.27519944 1.5532438
1.3260008 -0.27431464 1.5714549
1.370731 -0.27450117 1.5854772
1.4052922 -0.26851794 1.5959587
0.84192866 -0.22542325 1.5572662
0.87699103 -0.22707956 1.5681025
0.92554742 -0.22217286 1.5854514
0.95871586 -0.23326899 1.5966991
1.0311959 -0.22686142 1.578416
1.2900324 -0.22968645 1.5559663
1.3218632 -0.22145666 1.5628259
1.3728045 -0.2264543 1.5833774
1.4023414 -0.2391897 1.5964464
0.83481246 -0.17411155 1.5526041
0.87494212 -0.177682 1.5678455
0.92520446 -0.17260189 1.5839113
0.95928842 -0.17069364 1.5967269
1.0342498 -0.17605825 1.5738102
1.2907723 -0.16345468 1.5521486
1.3236459 -0.17506821 1.5644113
1.3739297 -0.17883117 1.5824281
1.4171029 -0.16534726 1.5951942
0.83508027 -0.12437724 1.5556248
0.8733173 -0.12780561 1.5684261
0.92399031 -0.12268896 1.5840653
0.96366227 -0.12477261 1.5980611
1.031896 -0.12370344 1.5764925
1.29072 -0.12328224 1.5533661
1.3247406 -0.1267775 1.5645231
1.3713083 -0.12255269 1.5789329
1.4101269 -0.12570146 1.5944121
0.83059305 -0.082527868 1.5562638
0.87135613 -0.086318977 1.5669876
0.92020237 -0.084995553 1.5826348
0.95885301 -0.090627588 1.5948032
1.0389472 -0.087253809 1.5793327
1.0649503 -0.073045962 1.5718445
1.280592 -0.078220516 1.5555768
1.3297538 -0.07683415 1.5782157
1.368803 -0.081453256 1.5835209
1.4119339 -0.082400784 1.596408
-1.1154325 0.98672086 1.5699555
-1.1127051 1.0268706 1.5713695
-1.1131458 1.0726553 1.5691773
-1.1136317 1.1258314 1.5790889
-1.1112535 1.1791101 1.5753149
-1.1099733 1.2218466 1.5737195
-1.1111861 1.2714828 1.573011
-1.1103468 1.3238814 1.5755024
-1.1131843 1.3697373 1.5780251
-1.1144931 1.4258393 1.5756727
-1.1153467 1.474243 1.5800689
-1.1177768 1.5170114 1.5999845
-1.0086626 -0.51189142 1.6260394
-0.97200364 -0.51442075 1.6227465
-0.91944152 -0.51519096 1.6277186
-0.87398732 -0.51084805 1.6143376
-0.8378818 -0.5046823 1.6332839
-0.81986791 -0.49690983 1.6219873
-0.78248048 -0.49718079 1.6247537
-0.70419216 -0.49045518 1.6253252
-0.67333412 -0.48951969 1.6311653
-0.61707473 -0.48434508 1.6224002
-0.56783295 -0.48321268 1.6255832
-0.52495033 -0.48209599 1.6245977
-0.47487974 -0.47978219 1.6272693
-0.42658213 -0.48108378 1.6314427
-0.37836555 -0.48008099 1.6273767
-0.32030106 -0.47763327 1.6230905
-0.27394754 -0.47639108 1.6211488
-0.22679681 -0.47526672 1.6241363
-0.17566766 -0.47528124 1.6246605
-0.12238916 -0.47449556 1.6289997
-0.075415403 -0.47046393 1.6241146
-0.046210878 -0.4663952 1.6426656
0.030771311 -0.46778584 1.6184214
0.080048755 -0.4713155 1.6262803
0.12218873 -0.47069517 1.6328862
0.17060544 -0.46816874 1.6256523
0.22401373 -0.46787041 1.6220685
0.27434298 -0.46848854 1.620142
0.32184294 -0.4704341 1.6225098
0.37292191 -0.47040817 1.6219177
0.42987758 -0.46994692 1.6236925
0.47646379 -0.47015235 1.6248617
0.52966911 -0.47186437 1.6276625
0.57805055 -0.46885911 1.6261488
0.62416422 -0.47053215 1.6293294
0.67768657 -0.46902892 1.619568
0.72833943 -0.47073567 1.6260043
0.77253562 -0.47164664 1.6226754
0.82214296 -0.47018036 1.6294435
0.8707518 -0.47269979 1.6274668
0.9248839 -0.4703393 1.6176473
0.97292501 -0.46208781 1.6236249
1.0259492 -0.46860224 1.6262454
1.0720115 -0.46905649 1.6145954
1.1212603 -0.46509299 1.6259618
1.1948588 -0.46255195 1.6313982
1.2213151 -0.46841368 1.620221
1.2697423 -0.47263056 1.6215284
1.3317963 -0.46997538 1.6263337
1.3820969 -0.47246662 1.6420064
1.4196959 -0.47513196 1.6297737
1.4765006 -0.47225842 1.6302053
1.5267298 -0.47342762 1.6228569
1.5695155 -0.47010806 1.6227796
1.6298153 -0.47012654 1.6227994
1.6863991 -0.47311082 1.6165514
1.7143741 -0.47281283 1.6385083
1.7839607 -0.47692174 1.6024766
0.98573118 -0.4290618 1.6368904
0.94400471 -0.30218169 1.6118112
0.97281718 -0.30872592 1.6227685
0.93852258 -0.29611227 1.6029677
0.98096269 -0.27429402 1.6084431
1.0167623 -0.27900246 1.6129572
1.4327441 -0.27045316 1.6065811
1.4765666 -0.2714577 1.6211348
1.5282874 -0.2704497 1.6407019
1.5504749 -0.27432001 1.6452726
0.97936696 -0.22357766 1.6040138
1.0092832 -0.22086421 1.6086138
1.4335696 -0.22262065 1.6067661
1.4753126 -0.22494306 1.6187415
1.5197861 -0.22931723 1.6332923
1.562807 -0.21351039 1.6469518
0.9800542 -0.17636266 1.6034749
1.0118027 -0.17651249 1.6073843
1.4332706 -0.19000737 1.606943
1.4704612 -0.17621894 1.6161401
1.5248253 -0.17743112 1.6373569
1.5610958 -0.17383711 1.6426452
0.98239261 -0.12274951 1.6045105
1.0127157 -0.12699969 1.6095911
1.4352907 -0.12710942 1.6046407
1.4718029 -0.12962195 1.6153996
1.5194268 -0.1194496 1.6344743
1.5523531 -0.11839654 1.6438814
0.9815836 -0.084767036 1.6102304
1.0195764 -0.084511466 1.6146537
1.0560361 -0.070577689 1.6313744
1.3888023 -0.066203102 1.6034863
1.4225187 -0.083690993 1.6053077
1.470824 -0.081946075 1.6227907
1.517952 -0.082169428 1.6330922
1.5530263 -0.07537879 1.646769
-1.1237075 0.98848403 1.6189798
-1.1194624 1.0242223 1.6221834
-1.1204976 1.0755773 1.6269202
-1.1178479 1.1210657 1.6272712
-1.1172581 1.1765107 1.6285419
-1.1159599 1.2257307 1.6181757
-1.1150385 1.2800703 1.6210878
-1.1143856 1.3252161 1.621569
-1.1162945 1.3768586 1.622716
-1.1202072 1.4276431 1.6261767
-1.1208572 1.4691042 1.6322501
-1.1253915 1.5238254 1.6311346
-1.0524688 -0.51309168 1.6913755
-1.0238411 -0.5150727 1.6719522
-0.9826389 -0.51726574 1.6733278
-0.92125493 -0.51333702 1.6709814
-0.88146448 -0.50969356 1.6726584
-0.83577794 -0.50408047 1.6802067
-0.75107896 -0.50641525 1.688246
-0.73460996 -0.50118566 1.6736988
-0.80944431 -0.49821502 1.6729307
-0.79040331 -0.49515343 1.6614356
-0.70808834 -0.49067196 1.6709194
-0.67586571 -0.48920456 1.6718936
-0.62858945 -0.48795286 1.6784489
-0.5775581 -0.48276454 1.6735085
-0.52434945 -0.48215532 1.675105
-0.46886 -0.48063985 1.6754216
-0.42639628 -0.48111048 1.6742399
-0.37365404 -0.47979528 1.6748774
-0.32678956 -0.47945651 1.6802981
-0.2748808 -0.47742215 1.6746053
-0.22833785 -0.47560531 1.6774858
-0.17423679 -0.47346383 1.6696178
-0.1297826 -0.47504589 1.6804736
-0.074734762 -0.47250563 1.6695774
-0.046963803 -0.46171355 1.6717255
0.023731565 -0.46952593 1.6790494
0.071697786 -0.47077581 1.6727886
0.13156253 -0.47046176 1.6722714
0.18242893 -0.46808365 1.6695155
0.22794999 -0.46942595 1.679237
0.27561936 -0.47022566 1.6799604
0.32151711 -0.4693692 1.6740229
0.37521741 -0.47082421 1.6744437
0.42176449 -0.46953255 1.6701972
0.47627571 -0.4679203 1.6801361
0.52672809 -0.4684599 1.6717899
0.56900221 -0.46858612 1.67146
0.62162769 -0.46907648 1.6751106
0.67671716 -0.46898684 1.6687677
0.72672039 -0.46923929 1.6713409
0.78056294 -0.46697399 1.6665397
0.82672358 -0.46713662 1.6722448
0.86894238 -0.46850324 1.6622078
0.9209671 -0.4705466 1.6727451
0.96788824 -0.47120261 1.6741056
1.0355542 -0.46144599 1.6638364
1.0787953 -0.46953613 1.6775612
1.1213629 -0.46947199 1.6763299
1.1616188 -0.4670929 1.6811767
1.229638 -0.46034181 1.675808
1.2712784 -0.46962214 1.6764562
1.3189163 -0.47195864 1.6741208
1.3768473 -0.46756539 1.6757892
1.4280009 -0.46785578 1.6713525
1.4722604 -0.47142187 1.6751175
1.5232314 -0.47038755 1.6716959
1.5539687 -0.46785915 1.6715269
1.6129274 -0.46849963 1.6971849
0.99176818 -0.41658291 1.657093
1.0179999 -0.42599282 1.6610403
0.99221486 -0.373209 1.665658
1.0115495 -0.37535298 1.6690826
0.9408142 -0.32295895 1.6612818
0.97915584 -0.32887065 1.6678642
1.0115455 -0.34017286 1.6715938
1.5394738 -0.2843639 1.6511512
1.5789567 -0.27773795 1.6584103
1.6279665 -0.26770279 1.6728153
1.6746005 -0.27384645 1.6860732
1.7070714 -0.26891127 1.6909608
1.5839224 -0.22598001 1.658258
1.6257678 -0.22573352 1.6663854
1.6788058 -0.22141193 1.6850177
1.7197146 -0.22405754 1.6955752
1.5855023 -0.16794403 1.6560701
1.6259643 -0.18198849 1.6679122
1.6783229 -0.17324501 1.6859708
1.7233976 -0.17238247 1.6977892
1.5814981 -0.12534675 1.655116
1.6211046 -0.12301783 1.6663532
1.6777096 -0.12690882 1.6855423
1.726496 -0.11602898 1.6967688
1.0265311 -0.071005166 1.6578842
1.0526962 -0.071562707 1.662643
1.5870028 -0.083496228 1.6554499
1.6240722 -0.080013357 1.6678867
1.671343 -0.08112096 1.685773
1.7205323 -0.0882366 1.6953202
-1.12761 0.98965889 1.671558
-1.1243689 1.0219177 1.6710068
-1.1228939 1.0726088 1.6773429
-1.1220633 1.129776 1.6749548
-1.120396 1.1758996 1.6758195
-1.1211814 1.2287574 1.6753032
-1.1216216 1.2796143 1.6728392
-1.1237513 1.3266784 1.6763004
-1.1237849 1.3722636 1.6758691
-1.1247717 1.4207449 1.6721443
-1.1238683 1.4653414 1.6766365
-1.1301019 1.5235847 1.6748024
-1.1315017 1.5686238 1.681868
-1.0601265 -0.5106976 1.7312404
-1.0269438 -0.51374614 1.7219745
-0.97203898 -0.51633316 1.7186427
-0.92575449 -0.51311928 1.7268505
-0.86879909 -0.5060147 1.7199984
-0.82279474 -0.50672036 1.7392278
-0.77557522 -0.50940037 1.7218231
-0.83224571 -0.49683538 1.7349305
-0.72345448 -0.49494416 1.728441
-0.67457187 -0.49083391 1.7228503
-0.62897748 -0.48798177 1.7214155
-0.57698601 -0.48570833 1.7279297
-0.52494013 -0.48246962 1.7196715
-0.47203302 -0.4815667 1.7218301
-0.42182526 -0.48281303 1.7257644
-0.37508848 -0.48092914 1.7213792
-0.34531561 -0.4804239 1.7331989
-0.27396375 -0.47764269 1.7206464
-0.21799763 -0.47909024 1.7329004
-0.17472129 -0.47733241 1.7260392
-0.12137055 -0.47581947 1.7244463
-0.079564862 -0.47409335 1.7171683
0.031395096 -0.46658725 1.7134725
0.070211031 -0.46738705 1.7205073
0.12710622 -0.47079715 1.7244222
0.17232159 -0.46751752 1.7194519
0.22173977 -0.46862602 1.7198102
0.27020627 -0.46985283 1.7230403
0.32580432 -0.46996576 1.7177411
0.37535563 -0.47014236 1.7280328
0.41964602 -0.46884489 1.7208539
0.46513346 -0.46920574 1.7316744
0.5206207 -0.47104716 1.7317039
0.5732227 -0.46809468 1.7257276
0.62465256 -0.46906945 1.7248741
0.66706181 -0.46685976 1.717044
0.72457564 -0.46883699 1.7260621
0.77478755 -0.46963072 1.7280366
0.83160418 -0.46804023 1.727674
0.87303579 -0.46777776 1.7203099
0.92084754 -0.46905699 1.7182312
0.9751882 -0.47093701 1.7189677
1.0079833 -0.46964097 1.7372059
1.0932698 -0.46855655 1.7396575
1.1182683 -0.4669787 1.7195402
1.1744218 -0.4657093 1.7238945
1.2042624 -0.4588438 1.7347786
1.2755142 -0.46008599 1.7185574
1.3273255 -0.46650329 1.725557
1.3772993 -0.46615478 1.7266461
1.4313732 -0.4699482 1.732152
1.4842 -0.47058937 1.7408187
1.5278583 -0.47270617 1.7214814
1.6072953 -0.4731496 1.7314479
1.6844881 -0.46880499 1.713058
1.2384293 -0.44727093 1.7078341
1.2523671 -0.44246584 1.7290964
1.738691 -0.27215981 1.7017959
1.7788863 -0.26686147 1.7146134
1.8195826 -0.26883191 1.7260008
1.874245 -0.26257551 1.7435158
1.7335925 -0.23870558 1.7010512
1.7782096 -0.22822036 1.7137854
1.8315232 -0.22291957 1.7299567
1.8725194 -0.22186857 1.739561
1.7280538 -0.17286877 1.7022989
1.775107 -0.17588553 1.7174686
1.8307452 -0.17349601 1.7295262
1.878018 -0.17823742 1.7418987
1.736585 -0.14054012 1.7031162
1.7732716 -0.12691346 1.7132361
1.8280311 -0.12514313 1.7293105
1.8806044 -0.12125108 1.748435
1.9019576 -0.10265771 1.7478743
1.6444795 -0.062877446 1.7043923
1.685164 -0.063582204 1.7062054
1.7301593 -0.075164169 1.7035424
1.7672504 -0.078417383 1.718057
1.8185608 -0.088663474 1.7286696
1.8541812 -0.078633212 1.7471131
-1.1567768 0.99430799 1.7294433
-1.1343688 0.98944664 1.7245615
-1.1316564 1.0312284 1.7270765
-1.1291572 1.0750061 1.7260405
-1.1281862 1.1209416 1.7263981
-1.1273011 1.1748627 1.7218394
-1.1276848 1.2233092 1.7255656
-1.1304609 1.2749139 1.7262937
-1.1289144 1.3277617 1.7242435
-1.1282622 1.3775364 1.7249658
-1.1280392 1.4218122 1.7215391
-1.1293581 1.4743311 1.7248523
-1.135159 1.5221162 1.7280012
-1.1339076 1.5706016 1.7230285
-1.0527438 -0.51043087 1.7663243
-1.0219129 -0.51293713 1.7763689
-0.97310334 -0.5170337 1.7772007
-0.92221314 -0.51114088 1.7692119
-0.88177896 -0.50731999 1.7700721
-0.82320827 -0.5028159 1.768911
-0.7808491 -0.5062021 1.7655271
-0.817159 -0.48405567 1.7871237
-0.77610767 -0.49715894 1.7822735
-0.724729 -0.49624646 1.779747
-0.68599242 -0.49620616 1.7842513
-0.61897433 -0.48937482 1.772903
-0.57274443 -0.48650926 1.775714
-0.52947617 -0.48787776 1.7870063
-0.48561519 -0.48440802 1.7732353
-0.42225736 -0.48176807 1.7750533
-0.37196314 -0.48339716 1.7835139
-0.32331023 -0.4848175 1.7712187
-0.27849963 -0.47856957 1.7681084
-0.23152219 -0.47988963 1.7727426
-0.17419648 -0.47674307 1.7787877
-0.12142945 -0.47470373 1.7704283
-0.077053882 -0.4739922 1.7742889
0.037827451 -0.46700245 1.7690307
0.082458034 -0.46966666 1.7724887
0.12434844 -0.47004575 1.7692416
0.18043068 -0.46613857 1.7717882
0.22455972 -0.46637642 1.7789851
0.27652434 -0.46842462 1.7714756
0.32375655 -0.46848252 1.7693386
0.37402225 -0.46925211 1.7768002
0.42958272 -0.46804893 1.7714634
0.47201607 -0.46970424 1.7726711
0.52654874 -0.46804175 1.7749161
0.57444263 -0.46588504 1.7701793
0.62361813 -0.46641141 1.7691569
0.67600596 -0.46677294 1.7769181
0.72269857 -0.46601051 1.7757879
0.78218508 -0.47051311 1.7821327
0.81800461 -0.4669989 1.7733986
0.86052674 -0.46618661 1.7795506
0.92321122 -0.46960518 1.7717793
0.97831678 -0.46807441 1.7687405
1.0279924 -0.47085559 1.7805824
1.0718092 -0.46907908 1.7764418
1.1116254 -0.46393746 1.767251
1.1671655 -0.46550345 1.7626733
1.2112776 -0.46914867 1.7845473
1.286919 -0.45112005 1.7570528
1.3265963 -0.46703491 1.7829705
1.3679531 -0.47175202 1.763864
1.4210683 -0.46882614 1.7737724
1.4834903 -0.46746069 1.7717049
1.5277338 -0.46863842 1.7638009
1.5612181 -0.47066635 1.7515168
1.6188104 -0.4704445 1.7770913
-0.81148714 -0.44160426 1.7943958
0.20964016 -0.44939399 1.766896
1.8760883 -0.2755129 1.7580242
1.9298584 -0.27062565 1.7671769
1.9836285 -0.26742405 1.7863376
2.0234911 -0.26434025 1.7891458
1.9297817 -0.2267831 1.763641
1.9712187 -0.22577782 1.7723876
2.0223761 -0.221745 1.7892574
2.0539622 -0.2234166 1.7871192
1.8976941 -0.17238607 1.7608606
1.9287125 -0.17049126 1.7617655
1.9767828 -0.18076952 1.7781129
2.0256393 -0.17014615 1.7939537
2.0588698 -0.17731835 1.7957562
1.8889806 -0.13135231 1.7557254
1.921555 -0.12090581 1.7594264
1.9793682 -0.12368277 1.7846293
2.0231235 -0.13125136 1.7899615
2.0535905 -0.13238811 1.7944129
1.831349 -0.059780564 1.7719241
1.8793777 -0.067962736 1.7582823
1.9127897 -0.075575411 1.7632841
1.9665881 -0.075660504 1.7752881
2.0187886 -0.082925335 1.7885939
2.0545855 -0.083901346 1.797678
1.8422301 -0.045012344 1.7899816
1.8695238 -0.026674705 1.7713047
1.9262525 -0.03207076 1.7651328
1.979067 -0.027778292 1.7797726
2.0218432 -0.025351003 1.7837055
2.0538485 -0.011062826 1.7985725
1.8812 0.022239845 1.786996
1.9223186 0.02325041 1.770547
1.968646 0.029601786 1.7734157
2.0265455 0.027731253 1.7867148
2.0519974 0.0010712458 1.7969574
1.889792 0.064751163 1.7917774
1.9202626 0.079166993 1.7827957
1.9735131 0.077925131 1.7811604
2.0304041 0.08016897 1.7890139
2.0544517 0.073907398 1.7976639
1.9270111 0.12163993 1.7869189
1.9737433 0.12529211 1.7789592
2.0263021 0.1246007 1.7831181
1.9330822 0.16163753 1.7905221
1.9736956 0.17611694 1.7861584
2.0189378 0.17538403 1.7899035
2.055589 0.17719954 1.7922534
1.9834512 0.20681359 1.7922214
2.0156591 0.21312954 1.7833948
-1.1476496 0.79122061 1.7978486
-1.1524453 0.83065605 1.7920108
-1.1443646 0.82782936 1.7964628
-1.1538516 0.88607091 1.797482
-1.1467584 0.85989666 1.7947403
-1.1541054 0.90711266 1.7892886
-1.1427873 0.93041396 1.7926873
-1.1382853 0.97396946 1.780817
-1.1340982 1.0229657 1.7847821
-1.1279827 1.0728731 1.7793112
-1.1285168 1.126507 1.7803015
-1.1274157 1.1706941 1.7737089
-1.1284782 1.2214435 1.7735869
-1.130206 1.273965 1.7726274
-1.1285434 1.3233378 1.772379
-1.1280886 1.3772962 1.7725561
-1.1306772 1.426808 1.7697237
-1.1310239 1.4778603 1.7773933
-1.1311781 1.526166 1.7687738
-1.1371396 1.5717905 1.7714558
-1.143479 1.6293167 1.7732834
-1.1161162 -0.50891739 1.8297464
-1.0823934 -0.51353848 1.8238671
-1.0156951 -0.51162136 1.8196846
-0.97126895 -0.50951195 1.8222994
-0.92477077 -0.50558478 1.8178285
-0.87839633 -0.50308001 1.8136021
-0.66538471 -0.50065011 1.8199452
-1.143872 -0.48003873 1.8418376
-0.86234438 -0.48419222 1.8312507
-0.82128716 -0.47553095 1.8188883
-0.77426547 -0.49308342 1.8224506
-0.72745365 -0.49380094 1.8299805
-0.67866033 -0.4951044 1.8203224
-0.62473446 -0.48856446 1.8203627
-0.5749051 -0.48394188 1.8243273
-0.52488399 -0.48585808 1.831262
-0.47325885 -0.48444363 1.8166567
-0.44671333 -0.48481005 1.8041855
-0.38100797 -0.48219803 1.8200027
-0.32761246 -0.48276594 1.8256912
-0.27946997 -0.48133048 1.8238122
-0.22204016 -0.48050055 1.8207213
-0.18059802 -0.47945833 1.823698
-0.12597841 -0.47536781 1.8180341
-0.076633863 -0.47585365 1.8262432
0.07055185 -0.46704072 1.8183978
0.12211817 -0.47026289 1.8304633
0.16492093 -0.46633735 1.8215295
0.23569708 -0.46667528 1.8333489
0.27829695 -0.46897316 1.8292327
0.32485825 -0.46859294 1.820803
0.37667295 -0.46900854 1.8268042
0.42956701 -0.46679336 1.8176829
0.48438373 -0.46772465 1.8209019
0.5197075 -0.46654898 1.8204483
0.56970394 -0.46659955 1.8215424
0.62873083 -0.46835864 1.8245471
0.67042428 -0.46638227 1.8308626
0.72311735 -0.46543297 1.8194745
0.77478957 -0.46844092 1.8283176
0.82549226 -0.46943322 1.8277924
0.86524647 -0.47096837 1.8289505
0.92875469 -0.47261587 1.828717
0.97303605 -0.4680419 1.8258148
1.0297602 -0.47098002 1.8204979
1.0734019 -0.45867756 1.824659
1.1301141 -0.46164358 1.8135996
1.1706443 -0.47293437 1.8248669
1.2405971 -0.4702931 1.8298738
1.2641702 -0.46304482 1.8355255
1.3764606 -0.46681586 1.83228
1.4173673 -0.46823081 1.8234568
1.4710586 -0.46835029 1.8186016
1.523926 -0.46664822 1.82283
1.579051 -0.47006693 1.8047533
1.6115611 -0.46534431 1.823413
1.6505548 -0.47010303 1.8249986
-1.144029 -0.41766563 1.8357614
-0.81484312 -0.4464525 1.8387929
-1.1595775 -0.35032377 1.8386301
-1.1424378 -0.37469402 1.8386326
-1.1563743 -0.32940146 1.8363453
-1.146165 -0.32555649 1.8377401
-1.1539274 -0.27510491 1.8356113
-1.1438502 -0.27882487 1.8432503
-1.1587784 -0.22800508 1.8310096
-1.1438081 -0.23007008 1.8366494
-1.1550944 -0.17778325 1.8293192
-1.1447815 -0.17772323 1.8333635
2.0637031 -0.16961423 1.8006833
-1.1536845 -0.13276654 1.8358095
-1.1474699 -0.11868292 1.8412728
2.0607939 -0.11459449 1.8017404
-1.158167 -0.074634053 1.8336364
-1.1475383 -0.079048507 1.8429273
0.28796074 -0.070612073 1.8369995
0.30605978 -0.079220876 1.8284006
0.92219043 -0.064603865 1.8355781
0.96764606 -0.066693462 1.8356177
1.7824382 -0.056292634 1.826243
1.8041068 -0.0562227 1.8055644
2.0389132 -0.059545334 1.8072313
2.0604784 -0.059793845 1.8036473
-1.162068 -0.030540146 1.8351923
-1.1446025 -0.029347366 1.8351688
0.27062985 -0.023584241 1.8415674
1.7936661 -0.039415579 1.8381453
1.8272876 -0.026567558 1.8238117
2.0602117 -0.047614079 1.8037024
-1.1573696 0.024999006 1.8333151
-1.1474332 0.02504026 1.843769
1.8347988 0.017211562 1.8295742
1.8608062 0.029839696 1.8135518
-1.1569512 0.077912688 1.8245654
-1.1480514 0.081060223 1.8367106
1.8434035 0.059039533 1.8446685
1.8753332 0.078452766 1.825595
-1.1572125 0.12859775 1.8252941
-1.1463993 0.12902857 1.838768
1.8844773 0.12006978 1.8277696
1.909803 0.13584858 1.8072191
2.0647767 0.14748541 1.8026958
-1.1568164 0.17824222 1.826118
-1.1466317 0.17822556 1.8308375
1.8963951 0.16631047 1.841711
1.9170094 0.17689061 1.8178884
2.0770166 0.17915863 1.8108549
-1.1575519 0.22673959 1.8212577
-1.1465371 0.23059113 1.8313437
1.8968811 0.20801118 1.8440087
1.9360501 0.20798776 1.8213207
-1.1579171 0.28131491 1.8327277
-1.1475415 0.27289727 1.8424815
-1.1614752 0.32531506 1.8415245
-1.1486619 0.30561975 1.8474066
-1.1551836 0.37120968 1.8381946
-1.1572577 0.42206907 1.8330876
-1.1484666 0.43447486 1.8486829
-1.1586473 0.47286415 1.8256996
-1.1487275 0.48507977 1.8393183
-1.1550652 0.5260933 1.8301767
-1.1545029 0.57807249 1.8243252
-1.1473246 0.5879972 1.8244356
-1.1543888 0.62712628 1.8172585
-1.1461045 0.62695807 1.8416249
-1.1595304 0.6803593 1.8187127
-1.1467124 0.67225504 1.8268965
-1.1532136 0.72151613 1.8077877
-1.1453998 0.72626221 1.8275839
-1.1686499 0.76193053 1.8170017
-1.1425453 0.77915972 1.8288746
-1.1848553 0.8411755 1.8225534
-1.1350311 0.82278043 1.8177513
-1.1332065 0.87950683 1.816355
-1.1887856 0.91537309 1.8253089
-1.1275872 0.9269014 1.8230565
-1.1228343 0.97276002 1.816478
-1.1205078 1.0237983 1.8188366
-1.122072 1.0822902 1.8209095
-1.1209129 1.1242148 1.8082719
-1.1267221 1.1684206 1.8263901
-1.1257885 1.2288589 1.8206964
-1.1249511 1.2782137 1.8162459
-1.1266556 1.3279225 1.8262148
-1.1277176 1.3722252 1.8222944
-1.127703 1.4241173 1.8159275
-1.1340985 1.4755125 1.8254963
-1.1355957 1.5307034 1.8227202
-1.1369567 1.5844384 1.8293444
-1.1503431 1.6399738 1.8459598
-1.1412644 1.6274496 1.8153931
-1.1511964 1.6776935 1.8184217
-1.140098 1.6548716 1.8461162
-1.1070297 -0.50357729 1.8758756
-1.0837766 -0.5150131 1.8734261
-1.032155 -0.51456183 1.885249
-0.96850836 -0.50248522 1.8566549
-0.93967932 -0.50028634 1.8578696
-0.67945921 -0.50177187 1.8602529
-1.1529092 -0.45578122 1.8530608
-1.1371571 -0.4780055 1.8735907
-0.9770599 -0.49699298 1.8751049
-0.91428113 -0.49715614 1.8533711
-0.81572592 -0.47748417 1.8714889
-0.77473015 -0.4875437 1.8646551
-0.72634196 -0.49150455 1.8669981
-0.68354648 -0.49553394 1.8881687
