ply
format ascii 1.0
comment PCL generated
element vertex 1465
property float x
property float y
property float z
element camera 0
property float view_px
property float view_py
property float view_pz
property float x_axisx
property float x_axisy
property float x_axisz
property float y_axisx
property float y_axisy
property float y_axisz
property float z_axisx
property float z_axisy
property float z_axisz
property float focal
property float scalex
property float scaley
property float centerx
property float centery
property int viewportx
property int viewporty
property float k1
property float k2
end_header
-0.026132481 0.47432244 0.71876121
0.014867304 0.47458678 0.74099392
-0.054635361 0.52443284 0.70298731
-0.024928799 0.52416509 0.71866012
0.014835973 0.52549386 0.74044997
-0.05570145 0.55730492 0.70255989
-0.023098037 0.56260985 0.71975458
0.016579363 0.57173961 0.74144703
0.090757191 -0.5021137 0.75308371
0.12807497 -0.50467068 0.76257157
0.17543986 -0.50668049 0.77135324
0.22895846 -0.50729167 0.78120393
0.27634159 -0.51344371 0.77525955
0.32504305 -0.51613873 0.77438676
0.37476748 -0.51689631 0.77626455
0.42484757 -0.51727599 0.77424389
0.47625092 -0.51378328 0.77577406
0.5196169 -0.51021099 0.76821375
0.5705443 -0.50236189 0.78986043
0.72454655 -0.51096725 0.75455594
0.88445735 -0.50541139 0.77053875
0.92793423 -0.50697541 0.77934015
0.96940416 -0.50958079 0.76820803
-0.0049974844 -0.45291144 0.75126654
0.029650215 -0.46421081 0.76006067
0.074442327 -0.47585893 0.77389753
0.12016997 -0.48718703 0.78639001
0.16594157 -0.49690986 0.79384547
0.2101527 -0.49756631 0.79722917
0.52496332 -0.49269503 0.77637279
0.57605553 -0.48210004 0.77232748
0.83645678 -0.4919942 0.7632004
0.87859362 -0.49486458 0.77446252
0.93260586 -0.49352115 0.76503646
0.95867515 -0.49966884 0.76716083
1.0203222 -0.49039626 0.79415023
-0.010363933 -0.41912064 0.75414252
0.023440521 -0.42449877 0.76954776
0.066266492 -0.42533636 0.79030371
0.59750402 -0.44935688 0.79665178
0.69613874 -0.43797061 0.75898874
0.71211666 -0.44451523 0.78373367
-0.016475542 -0.37617415 0.75687134
0.024790242 -0.37482628 0.77687979
0.062518232 -0.37629208 0.79501575
-0.015363352 -0.33388579 0.76035714
0.02545937 -0.32578367 0.77864295
0.059814773 -0.32416606 0.79531461
-0.010492755 -0.29797554 0.76314652
0.030000828 -0.27644348 0.78093112
0.060404878 -0.27377659 0.79478848
0.032925747 -0.23095666 0.78176832
0.062328056 -0.22516708 0.79453754
0.03722512 -0.18072024 0.78498113
0.065698832 -0.17697501 0.79466051
0.071693704 -0.13049299 0.79547781
0.079954565 -0.073568642 0.79693335
0.083839454 -0.030323852 0.79646593
0.08607953 0.028040793 0.79600686
0.08726801 0.076287732 0.79359615
0.10224622 0.080788001 0.79911488
0.041920625 0.10803563 0.77511019
0.083716378 0.12675789 0.78823173
0.10446712 0.12485898 0.7974177
0.042173799 0.19662565 0.76772511
0.080598541 0.17522888 0.78414631
0.10729513 0.17672321 0.79662776
0.034941878 0.23281124 0.75942022
0.07625135 0.2262971 0.77934009
0.10851506 0.22623368 0.79577941
0.03602954 0.27588019 0.75729829
0.074447609 0.27493063 0.77676177
0.10837813 0.27479261 0.79517406
0.037730169 0.32442442 0.75591761
0.073729813 0.32494277 0.7758112
0.10905204 0.32430229 0.79510415
0.039113589 0.37541637 0.75646484
0.074558176 0.37454444 0.77538705
0.10994548 0.37555897 0.79474175
0.039545842 0.42505699 0.75576901
0.075504594 0.42407221 0.77524161
0.11027241 0.42503002 0.79449445
0.040262248 0.47376832 0.75534695
0.074775852 0.47576699 0.77436537
0.11101688 0.47524458 0.79398072
0.039888393 0.5241574 0.75461781
0.073919117 0.5247907 0.77330375
0.1107177 0.5260905 0.793562
0.041528188 0.57455158 0.75469685
0.075641856 0.57491976 0.77326721
0.11216637 0.57482123 0.79385972
0.044751387 0.60249543 0.75624245
0.078826882 0.61143291 0.77459311
0.11255672 0.61913866 0.79313445
0.23844276 -0.50287306 0.80786842
0.27737126 -0.5047121 0.81608838
0.32552657 -0.50650108 0.82289863
0.37423474 -0.50857943 0.8261342
0.42559871 -0.50892252 0.82560986
0.47321588 -0.50683194 0.81821978
0.51291394 -0.50350505 0.82653189
0.57275432 -0.5030244 0.81499791
0.87318915 -0.50081104 0.80318487
0.93502855 -0.5050379 0.82463676
0.99112892 -0.50778812 0.82946479
1.0195247 -0.51272762 0.82109326
0.09720213 -0.45508346 0.80077058
0.13134439 -0.46533728 0.81080794
0.17724662 -0.4760316 0.82398283
0.22157641 -0.48704442 0.82940298
0.2694281 -0.49553436 0.83923811
0.31798497 -0.49916244 0.84592676
0.38776645 -0.49113569 0.84716272
0.42099953 -0.49664053 0.84630865
0.49920115 -0.49774247 0.801835
0.5284375 -0.49323276 0.82678485
0.58237439 -0.47842467 0.82131869
0.60695767 -0.45935252 0.82739621
0.87845653 -0.49321255 0.80933863
0.92585737 -0.47483623 0.82950801
0.98750567 -0.48924589 0.8189739
1.0224117 -0.49473849 0.82694048
0.0913966 -0.42203489 0.80434638
0.12550092 -0.42489341 0.82086825
0.16857263 -0.42725861 0.84117407
0.61417168 -0.44193718 0.8368268
0.085678063 -0.37377581 0.80725312
0.12394604 -0.37516907 0.82616562
0.15991569 -0.37582019 0.84478277
0.084289931 -0.32385054 0.80756211
0.12496085 -0.32504168 0.82820636
0.1592038 -0.32653344 0.84564567
0.085157223 -0.27529761 0.80756181
0.12468095 -0.27493355 0.82784295
0.15954328 -0.27399981 0.84526926
0.086293563 -0.2259538 0.80653352
0.12381027 -0.22427481 0.82567596
0.16033788 -0.22417763 0.84410203
0.088588782 -0.17556956 0.80579829
0.1253808 -0.17542228 0.82458699
0.16245686 -0.17349268 0.84308326
0.091001853 -0.12632187 0.80460358
0.1246333 -0.12498806 0.8210898
0.16545154 -0.12411053 0.84199065
0.094480082 -0.077200852 0.80304694
0.12542613 -0.074490987 0.81817842
0.16822146 -0.074379332 0.84034926
0.09597981 -0.03047066 0.80162466
0.12650926 -0.025307814 0.81652135
0.17043078 -0.025938209 0.83886075
0.095266834 0.0098824212 0.80063522
0.12537211 0.023121139 0.81363004
0.1726505 0.024851786 0.83756727
0.12745553 0.074075028 0.81192166
0.17440538 0.075059794 0.83577567
0.12941042 0.12422971 0.81045896
0.17450419 0.12479364 0.83364296
0.20249514 0.130041 0.84825295
0.13214724 0.17362119 0.81027293
0.17435826 0.17535493 0.83245093
0.2026608 0.17492513 0.84784663
0.13212544 0.22453184 0.80891287
0.17419167 0.22515708 0.83170599
0.20444907 0.22455116 0.84788907
1.0665972 0.24154894 0.84135503
0.13281463 0.27565354 0.808734
0.17446724 0.27458847 0.83135825
0.20372112 0.27414238 0.84700835
0.13428099 0.32406133 0.80872852
0.17464502 0.32481787 0.83099365
0.20430274 0.32233122 0.84732383
0.13477226 0.37465701 0.80882692
0.1745103 0.37434915 0.83037359
0.20519829 0.37412506 0.847027
0.13477483 0.42603642 0.80819505
0.17456613 0.42486742 0.83009768
0.20551448 0.42512897 0.84663296
0.1357573 0.47351101 0.80824023
0.17488235 0.47471851 0.82945609
0.2058658 0.47642592 0.84659523
0.13600889 0.52491212 0.80751938
0.17502518 0.52344692 0.82871741
0.20748729 0.5239532 0.8468675
0.13611953 0.57560092 0.80650723
0.17390309 0.57355595 0.82730657
0.20791429 0.57375962 0.84576523
0.13751671 0.62455308 0.80689847
0.17461123 0.62445629 0.82728589
0.20783246 0.62342453 0.84540862
0.14564097 0.65376735 0.81107068
0.18011513 0.66280258 0.8297295
0.20972271 0.67262262 0.84636575
0.37933919 -0.50239056 0.85115099
0.42919707 -0.50256652 0.88409382
0.4729372 -0.5051322 0.87585318
0.51015645 -0.50567138 0.87756318
0.55992967 -0.50348985 0.86357737
0.93312657 -0.51015693 0.87063515
0.96290994 -0.50838274 0.87695616
1.0261513 -0.50202054 0.87864679
1.0884273 -0.50610185 0.88437951
1.1182526 -0.50670326 0.87446105
0.19936721 -0.4504056 0.85142434
0.22981015 -0.46466666 0.86077726
0.27575767 -0.47467473 0.8758046
0.32224178 -0.48961464 0.87362832
0.37113401 -0.49571142 0.87386417
0.41267937 -0.49679798 0.8759535
0.5348562 -0.49549189 0.87456024
0.55322653 -0.49423662 0.87204129
0.6150226 -0.45512354 0.85886574
0.9229393 -0.46918333 0.86532247
0.97385406 -0.49081114 0.87948143
1.0305417 -0.49611837 0.87726218
1.0935678 -0.48598576 0.89217246
1.1295383 -0.4891645 0.88636142
1.162208 -0.48357168 0.88824135
0.19157112 -0.42015848 0.85478598
0.2249409 -0.42499352 0.87077063
0.26388904 -0.42524198 0.89186305
0.6267072 -0.43204468 0.86742616
0.65365386 -0.42749915 0.88768429
0.91150182 -0.43951112 0.88947612
0.18417066 -0.374432 0.85708511
0.22421236 -0.37455866 0.87777179
0.25877145 -0.3784031 0.895437
0.18375817 -0.32427144 0.85834843
0.22420971 -0.3253327 0.87909329
0.25602329 -0.32320741 0.89630419
0.18427581 -0.27515376 0.85823208
0.22396001 -0.27492133 0.8785792
0.25683227 -0.27392778 0.89631593
0.1856903 -0.22664015 0.85782582
0.22498702 -0.22410654 0.87791646
0.25862062 -0.22443926 0.89554369
0.18704145 -0.17510264 0.85619074
0.22457533 -0.17552598 0.87590224
0.260252 -0.17286991 0.89495623
0.19129433 -0.12567134 0.85556024
0.22453165 -0.12462609 0.87321669
0.26242551 -0.12334799 0.89303994
0.19147247 -0.079183944 0.85309482
0.22464032 -0.074616075 0.87040156
0.26593846 -0.074565634 0.89268565
0.6600852 -0.054704279 0.8835454
0.19441047 -0.026286753 0.85180837
0.22369806 -0.026063858 0.86781555
0.26573557 -0.02560553 0.89034414
0.64393991 -0.032382548 0.86795759
0.65468061 -0.021073721 0.87923086
0.19849433 0.021179317 0.85196054
0.22479866 0.023484334 0.86568362
0.26824296 0.024522681 0.88928127
0.66130519 0.015211221 0.88636565
0.19983229 0.078713566 0.85038769
0.2238903 0.074861422 0.86298662
0.26953226 0.074624695 0.8879528
0.22584131 0.12462583 0.86156893
0.27182522 0.12469661 0.88668942
0.22730619 0.1746079 0.86132681
0.27286023 0.17510676 0.88620234
0.22845297 0.2239511 0.86140299
0.27347618 0.2252471 0.88633609
1.0457556 0.24611199 0.8985033
1.0608808 0.24160166 0.87599117
0.22894108 0.27509817 0.86166775
0.27439025 0.27451974 0.88661081
1.0834736 0.25564024 0.85988486
1.1189872 0.2767269 0.88898331
0.22821857 0.32433718 0.86059034
0.27462673 0.32565168 0.88629019
1.1353575 0.3346597 0.89355725
1.1664191 0.33360845 0.89853811
0.23002908 0.37412238 0.86119556
0.27426696 0.37573802 0.88540602
0.30030915 0.35998094 0.89957064
1.1209747 0.37585124 0.88427222
0.23108633 0.42569196 0.86103266
0.27492011 0.42455369 0.88520956
0.30097318 0.42242694 0.89911133
1.098938 0.42657056 0.85688853
1.1178585 0.42296565 0.88717067
0.23066999 0.4748987 0.86016232
0.27444655 0.47456026 0.88422298
0.30193895 0.48033735 0.8989563
1.114238 0.47104648 0.89109433
0.23167771 0.52483487 0.86021811
0.27430859 0.52459288 0.8836121
0.30191672 0.52514201 0.89895588
1.1161522 0.52183008 0.89539856
0.23213813 0.57447791 0.85988092
0.27414379 0.57384491 0.88308072
0.3016111 0.57832563 0.89784902
1.1177102 0.55551821 0.89737737
0.2328864 0.62463683 0.85974663
0.27369878 0.62402362 0.88269591
0.30111384 0.62562692 0.89779973
0.23403721 0.67363459 0.85969621
0.27539504 0.6736474 0.88246936
0.30440634 0.67862195 0.89783353
0.24151836 0.70633703 0.86349219
0.2795738 0.7164892 0.88395745
0.30467424 0.73284209 0.89744264
0.66555417 -0.55214018 0.94193137
0.44319248 -0.50192803 0.90830499
0.47768492 -0.50225186 0.91252661
0.52254349 -0.50320488 0.92610967
0.55062264 -0.50056398 0.93536538
0.65756178 -0.50877744 0.94802761
0.93810713 -0.50829929 0.93065435
0.9625085 -0.50680006 0.91880965
1.0217636 -0.50294763 0.91187841
1.0819752 -0.50215775 0.91983354
0.2935442 -0.45580584 0.90232879
0.32763472 -0.46693003 0.91272777
0.37412751 -0.47703373 0.9276011
0.42224765 -0.49206176 0.92742461
0.47349742 -0.49707535 0.93718892
0.52766395 -0.49727687 0.92586112
0.55716336 -0.49558946 0.93057042
0.65737426 -0.49868327 0.93892008
0.93083888 -0.48779899 0.92721099
0.97992384 -0.48577029 0.91921693
1.0187134 -0.49257201 0.91626626
1.0813121 -0.48555851 0.92779833
1.1213677 -0.47727802 0.92218429
1.1777694 -0.47743911 0.92592686
1.2201926 -0.47546217 0.92391056
1.2576499 -0.4753924 0.94767338
0.28823972 -0.42103294 0.90603495
0.32445648 -0.42535588 0.92487973
0.35979486 -0.4270376 0.94336683
0.6468876 -0.42120227 0.90302235
0.66171902 -0.42386514 0.92882109
0.91279477 -0.43226644 0.92523599
0.28344136 -0.37348211 0.90890217
0.32394698 -0.37536681 0.92955524
0.35777301 -0.37673041 0.9468351
0.28099495 -0.32585961 0.90866798
0.32502142 -0.32456091 0.93140858
0.3565073 -0.32246843 0.94720912
0.28123417 -0.27528867 0.90863878
0.3248477 -0.27478021 0.9307785
0.35728154 -0.27007234 0.94716859
0.28325477 -0.2255789 0.90861803
0.32465172 -0.22488266 0.92973769
0.35811263 -0.22260122 0.94676864
0.28472555 -0.1761308 0.90748894
0.32420793 -0.17478967 0.92754537
0.35851076 -0.17286129 0.944947
0.28693539 -0.12677789 0.90652722
0.32475844 -0.12481434 0.92598969
0.36122006 -0.12565158 0.94511467
0.29100981 -0.076215774 0.90601349
0.32543454 -0.0743443 0.92408979
0.36186844 -0.075338729 0.94347042
0.67702001 -0.066855349 0.91565621
0.29080182 -0.027932659 0.90377069
0.3232708 -0.025715241 0.92112464
0.36309388 -0.024811864 0.942765
0.29286057 0.022722619 0.90305704
0.32235867 0.02401465 0.91869187
0.36255306 0.023790279 0.9409399
0.29518047 0.078366913 0.90231478
0.32299772 0.0753254 0.91735572
0.36543101 0.075717561 0.94055134
0.29680172 0.12614241 0.90129745
0.32375833 0.12521847 0.91542852
0.36715052 0.12585053 0.93969095
0.68494064 0.11319829 0.93285137
0.29854852 0.17129688 0.90158629
0.3253369 0.1756078 0.91587955
0.3692081 0.17382826 0.94028145
0.68943614 0.18088567 0.9357416
0.7030645 0.19994192 0.94631881
0.29784477 0.21524076 0.9004215
0.32422405 0.22511669 0.91491199
0.36844417 0.22617245 0.93969917
0.99805033 0.24423328 0.93043232
1.0317861 0.24291407 0.92451411
1.0567619 0.2383519 0.9383111
1.1746783 0.24876803 0.92631453
0.29751042 0.27355087 0.90117449
0.32535419 0.27463266 0.91510057
0.36881736 0.27516493 0.93924022
1.0258888 0.25038752 0.92635345
1.125002 0.28334066 0.9169212
1.1729233 0.29527852 0.91413075
0.32409519 0.32422861 0.91400993
0.36851463 0.32569376 0.93938363
1.12745 0.3230902 0.91008914
1.1691983 0.31918925 0.90929788
0.32404965 0.3750284 0.91321731
0.36886212 0.37443197 0.93880343
1.1174673 0.37211382 0.90883917
0.32555407 0.42595097 0.91354996
0.36816087 0.4248493 0.93790007
1.1200211 0.4202854 0.91315746
0.32647452 0.47523835 0.91340667
0.36978588 0.47525167 0.93849778
1.1240789 0.46951735 0.91604036
0.3268407 0.52461135 0.91322631
0.3713603 0.52434427 0.9390083
1.1258951 0.52557552 0.91549778
1.1503569 0.52294546 0.94465357
0.32623658 0.57398546 0.91293824
0.36953396 0.57405394 0.9377386
1.1295128 0.56871986 0.9205597
0.32653067 0.62414956 0.91278774
0.36997089 0.62354648 0.93702668
1.1571983 0.62143201 0.94879419
0.32746559 0.67285484 0.91244298
0.37087023 0.67364049 0.93719643
0.32751101 0.72434986 0.91135406
0.37119648 0.72436446 0.93661875
0.33438021 0.76087797 0.9139244
0.37403551 0.77259594 0.93814015
0.38943055 0.80543 0.94709992
0.41051531 0.81255889 0.94904554
0.67050517 -0.55551428 0.95984268
0.54434103 -0.50068873 0.96422321
0.5608443 -0.50126827 0.96337587
0.92421478 -0.50854015 0.96534586
0.9833594 -0.50170732 0.96782374
0.38946271 -0.45636725 0.95442164
0.42730677 -0.46966958 0.96649283
0.47327429 -0.47989115 0.97877151
0.5226292 -0.49366894 0.97792244
0.56267792 -0.49581817 0.97548866
0.63360929 -0.49224266 0.97211075
0.67718124 -0.46387538 0.97842681
0.84619129 -0.47084796 0.97075397
0.8814081 -0.48799291 0.97821426
0.91960555 -0.49412644 0.97094542
0.98165786 -0.4942075 0.97895271
1.087042 -0.49631298 0.95271134
1.1221904 -0.4645417 0.97345179
1.1795211 -0.47283554 0.97610271
1.2283924 -0.47100937 0.97220355
1.2756675 -0.47529703 0.98358524
1.3066843 -0.47246408 0.97843975
0.38465151 -0.42336297 0.95786464
0.42481413 -0.42437974 0.97944659
0.45752952 -0.427333 0.99634033
0.69372237 -0.41624269 0.98780751
0.70797956 -0.41174364 0.99648803
0.92108291 -0.43116927 0.96761858
0.38217553 -0.37395415 0.95996398
0.42411068 -0.37511978 0.98221129
0.45245466 -0.37510681 0.99713141
0.38100991 -0.32506824 0.95999271
0.42407969 -0.32490587 0.9825455
0.45361456 -0.32694143 0.99827635
0.38058081 -0.27635774 0.95912766
0.42429152 -0.27512068 0.98241353
0.45356628 -0.27172965 0.99820894
0.69533861 -0.26963961 0.96611202
0.38204476 -0.2267922 0.95939612
0.42528391 -0.22488508 0.98205948
0.45622835 -0.22372644 0.99813265
0.71819884 -0.245269 0.99329168
0.38286141 -0.17422648 0.95831722
0.42317963 -0.1760523 0.98034686
0.45385191 -0.170214 0.99733728
0.38523164 -0.12497225 0.95853353
0.42477143 -0.12460798 0.97953945
0.45668516 -0.12838472 0.99714339
0.38594162 -0.073380895 0.95675731
0.42300865 -0.076273642 0.97734332
0.45702362 -0.070106164 0.9960621
0.38924813 -0.026974915 0.95732915
0.42322412 -0.027232084 0.97600126
0.45601326 -0.026563844 0.99468887
0.70163494 -0.0052729007 0.98254055
0.38928893 0.023855252 0.95606035
0.42545772 0.024516959 0.97574037
0.45735201 0.02306723 0.99393833
0.72987443 0.00021370541 0.98915583
0.39205292 0.073099189 0.9555282
0.4256877 0.076113217 0.97425908
0.46003106 0.073918745 0.99413401
0.69865847 0.086018324 0.95405036
0.71200848 0.094583087 0.99343383
0.39287257 0.12023508 0.95462757
0.42406237 0.12566435 0.97218686
0.46012756 0.12405768 0.99295169
0.71386349 0.12489889 0.98774707
0.39379579 0.17629372 0.95454901
0.42450109 0.17491917 0.97203612
0.4613519 0.17442989 0.99312896
0.71452045 0.16529489 0.98478085
1.2144274 0.18893597 0.98305118
0.39430648 0.2238837 0.95349348
0.42408153 0.22454099 0.97135729
0.45993331 0.22408722 0.99284351
0.70561361 0.20533107 0.95613432
0.94395405 0.23654498 0.984873
0.97539771 0.23774782 0.97203028
1.0144949 0.23740938 0.95948821
1.1846085 0.24767785 0.99821699
1.2121146 0.22559261 0.97975165
0.39407933 0.27593458 0.95403892
0.42450055 0.27457026 0.97130078
0.46238491 0.27513278 0.99358338
0.73861504 0.27165675 0.99341685
1.1442066 0.27624121 0.95595676
1.1834087 0.26796654 0.98478967
1.2081699 0.25108355 0.97277176
0.39247492 0.32006696 0.95280683
0.42479131 0.32600316 0.97197145
0.46135005 0.32225108 0.99313456
1.1761192 0.32223302 0.98845798
0.3949714 0.37333959 0.9544335
0.42510685 0.37570688 0.97142506
0.46100202 0.37215814 0.99252111
1.1238813 0.37502679 0.97278064
1.1831526 0.3635515 0.99084783
0.39407796 0.42430991 0.95372182
0.42412329 0.42535448 0.97066754
0.46160308 0.42197436 0.99290979
1.1830759 0.41456777 0.99094784
0.39448878 0.47271612 0.95375365
0.42430559 0.47506434 0.97052389
0.46134862 0.47433066 0.99209338
0.71890455 0.46318597 0.96493971
1.1798785 0.47383535 0.98523605
0.3956103 0.52368259 0.95340949
0.4242554 0.5253126 0.97040701
0.46448213 0.52519792 0.9933269
1.1705416 0.52218449 0.97539979
0.3942861 0.57629329 0.95226055
0.42368045 0.5749234 0.96941781
0.46304795 0.57672483 0.99185896
1.1728349 0.57501578 0.98137242
0.39551517 0.62587941 0.95237756
0.42553309 0.62648612 0.97022486
0.46470502 0.62342954 0.99244958
1.1729999 0.62214643 0.97682971
0.39572391 0.68086046 0.95285511
0.42502093 0.67524225 0.96819669
0.46477708 0.67361975 0.99142593
1.1844473 0.65136379 0.99268717
0.3956731 0.72927058 0.95217842
0.42246994 0.72424906 0.96777815
0.46317926 0.72007972 0.99197233
0.3970665 0.77623636 0.95268756
0.42626265 0.77531415 0.96607322
0.47074834 0.77468401 0.98458862
0.50565517 0.78613919 0.99756867
0.39946821 0.80221164 0.9513697
0.43076646 0.81131512 0.95791203
0.47632068 0.82431263 0.97831529
0.50836724 0.82486057 0.99558616
0.48860788 0.85777801 0.98275018
0.5130254 0.86634618 0.99688768
0.58313817 -0.50162417 1.0025134
0.60191798 -0.50110739 1.0266588
0.88423741 -0.50577492 1.0361712
0.93341655 -0.50175416 1.0354002
0.95429748 -0.50266045 1.0487057
0.48703945 -0.46193582 1.0068756
0.5255776 -0.47078559 1.0191646
0.57089823 -0.48228145 1.0287739
0.61158818 -0.49211299 1.0398245
0.76226562 -0.48208141 1.0417244
0.86577338 -0.48457518 1.034862
0.93716651 -0.49653277 1.0054513
0.96724254 -0.48970425 1.0212599
1.0259384 -0.45263639 1.0364858
1.1228143 -0.45582023 1.0150533
1.1825981 -0.46597081 1.0094341
1.2246647 -0.46273881 1.0089986
1.2706693 -0.46515486 1.0098484
1.3181165 -0.4732748 1.0154282
0.4823508 -0.42415145 1.0106739
0.52481174 -0.42360252 1.0334753
0.55521953 -0.42827371 1.0486639
0.70532817 -0.40547821 1.0038753
0.93733048 -0.43837023 1.0112113
1.0456588 -0.44353104 1.0332921
1.0739894 -0.41973585 1.0297296
1.1123878 -0.42495522 1.0244297
1.2656902 -0.44996276 1.0035497
0.4774546 -0.3733584 1.0111381
0.52398497 -0.37543204 1.0361899
0.55219507 -0.38453278 1.0490639
0.71551132 -0.3904936 1.0185963
1.0800906 -0.39684251 1.0437737
1.1237729 -0.39474073 1.0398011
0.47741315 -0.32340795 1.0116966
0.52427483 -0.3256844 1.0366536
0.55023712 -0.31346294 1.0489531
0.73264062 -0.31078449 1.0359272
0.47700363 -0.27548796 1.011577
0.52265102 -0.27380636 1.0362859
0.7360968 -0.2757656 1.0352448
0.48007908 -0.22442749 1.0122944
0.52419358 -0.22388799 1.0364405
0.74565834 -0.22420245 1.0487747
0.47924995 -0.17497329 1.0114468
0.52379483 -0.17589797 1.0365454
0.55280763 -0.1873534 1.0498174
0.74479413 -0.16800819 1.0479106
0.48066756 -0.12472041 1.0112736
0.52399009 -0.1237767 1.0356477
0.48058343 -0.076884948 1.0099385
0.52371013 -0.07489787 1.0343077
0.55388921 -0.065528087 1.0498285
0.72767413 -0.079552509 1.0222173
0.4814299 -0.023817236 1.0093344
0.5232805 -0.027547207 1.0332813
0.55267996 -0.026272664 1.0486984
0.48330531 0.023171628 1.0093828
0.52494156 0.023901023 1.032943
0.55259973 0.025075397 1.0484921
0.73616266 0.0039764228 1.004928
0.75103486 0.029267928 1.0399456
0.48513427 0.073708713 1.0087249
0.52371037 0.075553469 1.0309867
0.5532378 0.082087055 1.0475799
0.72998554 0.084858172 1.0081863
0.48448807 0.12496968 1.0076283
0.52332014 0.1253415 1.0297352
0.55589706 0.12555842 1.0478646
0.48608398 0.17530368 1.0083719
0.52495569 0.1742074 1.0304791
0.55386156 0.18000172 1.0481387
0.72267962 0.1965816 1.0040938
1.1361628 0.18625754 1.0306672
1.1763971 0.18765782 1.0221068
1.206756 0.1928215 1.0129039
0.48536164 0.22422792 1.0080397
0.52405852 0.22576948 1.0304787
0.55587971 0.21960855 1.0479164
0.73770583 0.22839706 1.0182824
0.89936852 0.23263752 1.0466714
0.92970848 0.23371337 1.0343096
0.95999837 0.2320665 1.0195599
1.0272813 0.22325541 1.0253756
1.0791117 0.234164 1.0330353
1.136516 0.23196116 1.0370897
1.172734 0.22441892 1.0186099
1.2034745 0.21829124 1.0048352
0.48654643 0.27402082 1.0087785
0.52425176 0.2758086 1.0304422
0.55462521 0.26721346 1.0476081
0.7427842 0.27210638 1.0164425
0.7514773 0.2955257 1.0303223
1.1766318 0.27996635 1.0056611
0.48639089 0.32915765 1.0084426
0.52513331 0.32498175 1.0313057
0.55442184 0.32579204 1.0472006
0.74592268 0.33044723 1.0224853
0.7570852 0.31862825 1.0310938
1.1853871 0.33194327 1.0103426
1.2034729 0.34250489 1.0325022
0.48508647 0.37725246 1.0072734
0.52436346 0.37403527 1.0303339
0.55510092 0.38171521 1.0473208
0.7474786 0.38177267 1.020312
0.75494498 0.37104648 1.0277174
1.0932676 0.38195422 1.0160605
1.1025139 0.38249287 1.0165808
1.1767341 0.36577374 1.0174854
0.48566028 0.42662278 1.007293
0.52467018 0.42398036 1.0301807
0.55527222 0.42724219 1.0474795
0.7494145 0.42551282 1.0274519
0.75525248 0.42945179 1.0259548
1.184581 0.4286963 1.0184542
0.48607877 0.47513929 1.0074692
0.52367181 0.47484744 1.0291167
0.55547482 0.47981265 1.0468968
0.7489565 0.4765166 1.0077153
0.75779825 0.46875152 1.0316086
1.1852897 0.47646779 1.0214944
0.48910621 0.52456814 1.0081846
0.52458888 0.52510756 1.0287167
0.5567764 0.52538079 1.0468243
0.74816453 0.51631504 1.003336
0.75799787 0.51491112 1.028071
1.1799059 0.52445281 1.0201033
0.48890713 0.57472157 1.0078189
0.52500212 0.57488978 1.0283287
0.55757117 0.57481295 1.0466639
1.1771413 0.57331222 1.0230347
0.48821017 0.62820643 1.0059954
0.52345335 0.62481725 1.0267142
0.55690849 0.62657827 1.0460356
1.1762067 0.62458491 1.0205029
0.4889167 0.67495948 1.0054032
0.52380699 0.67491698 1.0249254
0.55871165 0.67873466 1.0441828
1.1798261 0.65311545 1.0113505
0.48830929 0.72381413 1.0057789
0.52511704 0.72296774 1.0262141
0.56036216 0.72417825 1.0451783
0.48554406 0.75572288 1.005531
0.52703059 0.77266341 1.0202315
0.5688225 0.77960962 1.0411221
0.53147376 0.82316577 1.0094246
0.57306063 0.82369757 1.0357332
0.61069232 0.84780252 1.0498872
0.5342291 0.871032 1.00958
0.57744801 0.8763386 1.0342023
0.60796964 0.87536085 1.0468129
0.57848966 0.91626966 1.0303959
0.61342061 0.92494005 1.0443988
0.63109815 0.95499444 1.0483361
1.0941813 -0.71491462 1.086006
1.0957711 -0.67189234 1.0625881
0.70679218 -0.60780096 1.0978767
0.67333829 -0.57106054 1.0860209
0.7047407 -0.57073349 1.0945922
0.6391269 -0.52398217 1.0687677
0.66722798 -0.52574211 1.0869133
0.7263515 -0.50283158 1.0932789
0.84032416 -0.50218439 1.0789939
0.86469555 -0.50306332 1.0653552
0.93388569 -0.50136203 1.0697968
0.95377398 -0.50098252 1.0700445
0.58465004 -0.4625048 1.0576924
0.62523866 -0.47183639 1.0715336
0.66867673 -0.47983927 1.0850449
0.72506171 -0.48955563 1.0889307
0.77952468 -0.46758389 1.0708028
0.82487017 -0.49542549 1.0854958
0.87037873 -0.49196354 1.0791682
0.92135024 -0.49642089 1.0870656
0.96639425 -0.49034885 1.0766047
1.0172988 -0.45524701 1.0726388
1.3982768 -0.45640332 1.0771228
1.425921 -0.46684062 1.0832307
0.57850885 -0.42544562 1.0629169
0.62224728 -0.42456913 1.0862789
0.77956438 -0.43425918 1.079448
0.975932 -0.44606167 1.0705178
1.0343748 -0.43864727 1.0728359
1.0590386 -0.42999789 1.0669671
0.54448789 -0.37319049 1.0501436
0.57636273 -0.37457874 1.0642649
0.61947775 -0.3746115 1.0873189
0.74400866 -0.35734069 1.0603456
1.092021 -0.39779666 1.0565988
1.1289997 -0.38588467 1.0704339
1.1709784 -0.36678144 1.080047
0.57348728 -0.32502046 1.063153
0.61774671 -0.32496828 1.087055
0.7424072 -0.32071084 1.0546076
1.1937013 -0.34146386 1.094614
0.54874146 -0.2930699 1.0502927
0.5742135 -0.27372721 1.0638856
0.62069571 -0.2752651 1.0890176
0.74070489 -0.27398539 1.0563456
0.5498668 -0.22701071 1.0513068
0.57540572 -0.22603396 1.0645223
0.62061489 -0.22369002 1.0894763
0.7447437 -0.22867306 1.0586884
0.76647717 -0.23995797 1.0722438
0.54647005 -0.18156886 1.0510474
0.57415557 -0.17457594 1.0646342
0.62048173 -0.17491071 1.0892692
0.74751967 -0.16556492 1.0600049
0.54904532 -0.11489109 1.0500827
0.57561201 -0.12589668 1.0642478
0.62175721 -0.12550858 1.0892011
0.57509542 -0.075212173 1.06332
0.62016952 -0.073993661 1.0874109
0.57609409 -0.027391335 1.0626065
0.62228006 -0.024956219 1.0881121
0.5756017 0.023353061 1.0615872
0.62246609 0.024077177 1.0877711
0.57608819 0.074297085 1.0611025
0.62011898 0.074495643 1.0856525
0.57888436 0.12452284 1.0616872
0.62221187 0.12493498 1.0856342
0.99387443 0.13181587 1.0720928
1.0226647 0.13222937 1.0697426
0.57980072 0.17560202 1.0625945
0.62460786 0.17407349 1.0871434
0.93901223 0.19041149 1.060192
0.98385209 0.19682406 1.0857365
1.0731745 0.18936518 1.0853604
1.1269472 0.19623472 1.0728041
0.57972378 0.22696748 1.0627221
0.62398326 0.22476715 1.0871818
0.77158946 0.2141362 1.0876911
0.83420682 0.22309691 1.0859133
0.87387973 0.22791907 1.0718484
0.92671198 0.22587435 1.0745659
0.96244711 0.21056713 1.0847759
1.029556 0.22602741 1.0719017
1.0901349 0.21320088 1.0779898
1.1254188 0.21614443 1.0661342
0.57789916 0.27634642 1.0616611
0.62162393 0.27578104 1.0864906
0.57876945 0.32524288 1.0620918
0.62400967 0.32600641 1.0871898
0.65151268 0.343245 1.0996784
0.76184165 0.3080059 1.0549355
0.57922852 0.37323123 1.0616579
0.62098086 0.37627262 1.0855383
1.1167819 0.39830565 1.0677593
0.57918555 0.4244197 1.0613525
0.62197793 0.42527637 1.0851219
0.65002102 0.44069728 1.0978776
1.1105092 0.40700215 1.07932
0.57877338 0.47385719 1.0604064
0.62174004 0.47617888 1.0851628
0.57984775 0.52416021 1.0603174
0.62469912 0.5250299 1.0860008
0.65408915 0.52484941 1.098541
0.5833866 0.57504338 1.061653
0.62464374 0.57631671 1.0848436
0.58188963 0.62649655 1.0597453
0.62254405 0.62386197 1.0820769
0.65310574 0.62624288 1.0987724
0.81606382 0.61034834 1.0957794
0.5817228 0.67345238 1.0584682
0.6242044 0.67440629 1.0822725
0.65480256 0.67827481 1.0985256
0.582241 0.72346246 1.0578452
0.62496758 0.72256362 1.0810692
0.65849942 0.72185975 1.0977805
0.58689362 0.76901186 1.0579513
0.62473309 0.77455956 1.0773609
0.65848953 0.77656728 1.0959774
0.59934646 0.8280099 1.0540997
0.62394792 0.8257367 1.0650431
0.66405088 0.82851332 1.0890237
0.63289654 0.87379366 1.0622711
0.67261046 0.88014573 1.0856042
0.63838458 0.91777527 1.0568491
0.67149484 0.92391068 1.0740875
0.70733333 0.92707324 1.0929823
0.64498973 0.96196234 1.0588589
0.68039244 0.97181576 1.0771182
0.7108013 0.97004652 1.0916231
0.71223325 1.0123264 1.0931166
1.0942879 -0.72119462 1.1160753
1.1087991 -0.71417785 1.1165154
1.1494222 -0.66159028 1.1201341
1.1673629 -0.66685414 1.107245
0.73224145 -0.61474729 1.1113158
0.75929451 -0.62042677 1.1191909
1.1558564 -0.64883244 1.1019839
0.6963501 -0.58507174 1.1036797
0.72837597 -0.58528578 1.1109134
0.76567513 -0.55631346 1.1374629
0.87584925 -0.58119226 1.1231693
0.68996406 -0.52365381 1.1036047
0.72530907 -0.5302133 1.1184837
0.76321572 -0.5346449 1.1315081
0.87486124 -0.52756703 1.1140679
1.0208374 -0.50194699 1.1064357
0.68355805 -0.4612745 1.1112645
0.72443116 -0.47091928 1.1228874
0.76456565 -0.47231868 1.1351787
0.83819807 -0.48559415 1.1145755
0.87426454 -0.48838529 1.1267376
0.92630219 -0.48941186 1.1121014
0.9910289 -0.46444511 1.1186965
1.0135474 -0.46284875 1.1291945
1.3429402 -0.47574875 1.1405934
1.3588904 -0.4785009 1.1394951
1.4407104 -0.47851413 1.1072623
1.4678175 -0.49035612 1.1425987
0.6447975 -0.41783753 1.1005644
0.67462826 -0.42518198 1.1142323
0.72470313 -0.42630032 1.138441
0.77747792 -0.43749261 1.133123
0.80324763 -0.43282986 1.1100715
0.92724317 -0.40411791 1.1459904
1.0268663 -0.43727168 1.1278234
1.0970467 -0.42617571 1.1360841
1.1205436 -0.41674843 1.1270779
0.64564306 -0.37636358 1.1033114
0.6733861 -0.37587047 1.1160768
0.71787822 -0.37192568 1.1398221
0.79715198 -0.36488438 1.1477376
1.1444025 -0.39016673 1.1411139
1.1657052 -0.36919037 1.1247846
0.64405072 -0.32336277 1.101496
0.67456454 -0.32419786 1.1192806
0.71407098 -0.33009514 1.1397735
1.1459153 -0.34636128 1.1440908
1.181133 -0.33924705 1.1289411
1.2223223 -0.32242024 1.1398139
0.64466244 -0.27467164 1.102523
0.67435479 -0.27450791 1.118798
0.71291411 -0.27535892 1.1418047
1.2518443 -0.29841 1.1477668
0.64544654 -0.22481441 1.1021885
0.6755662 -0.22512831 1.118607
0.71784866 -0.22401407 1.141643
0.82426453 -0.22881196 1.1427763
1.2103133 -0.209396 1.1108482
0.64258379 -0.17926146 1.1005206
0.67504174 -0.17420228 1.1180384
0.71972454 -0.17605174 1.1418314
1.2373402 -0.16783985 1.128175
0.64749306 -0.12319249 1.1020093
0.67425066 -0.1242428 1.1177049
0.7157169 -0.12703909 1.1389903
1.2506377 -0.14317261 1.1434058
0.64571965 -0.079356678 1.1019156
0.6734367 -0.07450635 1.1172917
0.7163167 -0.077045836 1.1398784
0.6439569 -0.023224333 1.1007575
0.67462999 -0.026112825 1.1165524
0.71804941 -0.026791586 1.1399734
0.64511567 0.00014701979 1.1030035
0.67575967 0.024305604 1.1168998
0.71911281 0.02236459 1.1400349
0.64521265 0.078580178 1.1009696
0.6738174 0.075091101 1.1148044
0.71791208 0.077218123 1.1395723
0.64762121 0.13137189 1.1012392
0.67297578 0.12478447 1.1131592
0.7189467 0.12540504 1.139038
0.64939892 0.16508137 1.1009868
0.67329508 0.175027 1.1133432
0.71941483 0.1742557 1.1393276
0.96536547 0.18926047 1.1255409
1.0301845 0.19113211 1.1042427
1.0650053 0.19440034 1.1087314
1.1194764 0.19858579 1.1050338
0.64702988 0.22817564 1.1012216
0.673711 0.22380048 1.1142874
0.71946561 0.22504072 1.1392597
0.78432739 0.22107576 1.1240941
0.84768414 0.23565899 1.1035761
0.86993665 0.2382824 1.1075974
0.94257212 0.20721197 1.128868
0.96852523 0.21974802 1.1214539
1.0288395 0.22746754 1.1193461
1.0749077 0.21461692 1.1174049
1.1125622 0.2146465 1.104211
0.64589471 0.26982811 1.100769
0.67401195 0.27423024 1.1148895
0.71666056 0.27628937 1.1383909
0.64910132 0.31198239 1.1024823
0.67543387 0.32481527 1.1162986
0.71610349 0.32603502 1.1391388
0.64701492 0.37057391 1.1017716
0.67402935 0.37711334 1.1156368
0.718705 0.37482935 1.1403168
1.0580859 0.39303017 1.1308137
0.64801258 0.42103159 1.1001381
0.67491114 0.42602497 1.114866
0.71891683 0.42339799 1.1397227
1.1210501 0.44527635 1.1437477
0.64790881 0.46191874 1.1015598
0.671772 0.47446355 1.1121725
0.71752495 0.47731254 1.1390073
1.0890408 0.4669992 1.1431866
0.67501414 0.52569216 1.1136787
0.72126275 0.52325141 1.1392542
0.67375821 0.57436883 1.1120951
0.7220974 0.57567066 1.1390876
0.64827943 0.62135404 1.1020181
0.67792791 0.62368757 1.1134828
0.72532988 0.62575144 1.1390135
0.68078566 0.6725173 1.1129775
0.72538084 0.67532641 1.1370832
0.75068516 0.68061799 1.1474934
0.83596945 0.66158789 1.1208084
0.68033904 0.72586459 1.111114
0.72575355 0.72433907 1.1348367
0.84993887 0.72032815 1.1399556
0.68376511 0.77715999 1.1113178
0.72582859 0.77614027 1.1327304
0.83671868 0.7646969 1.1076969
0.68826181 0.82180208 1.1079139
0.72518194 0.82417959 1.1256833
0.76051706 0.82799196 1.1419306
0.69187951 0.86707687 1.102918
0.72247106 0.87312484 1.1116586
0.76836884 0.87551266 1.134469
0.72753441 0.91788411 1.106142
0.77338409 0.92373532 1.1322227
0.7392568 0.97369242 1.1125488
0.77290189 0.97381479 1.1319996
0.73695898 1.019365 1.1092334
0.77459455 1.0236412 1.1280706
0.80402333 1.018747 1.1485018
0.78074336 1.0613923 1.132269
0.80784875 1.0761377 1.1443137
0.9246465 -0.7141372 1.1855916
0.89575016 -0.69722903 1.1653571
0.92157412 -0.68992966 1.1895275
0.92120779 -0.64054066 1.1928102
0.92239177 -0.56776136 1.1856341
0.95806307 -0.50250942 1.1557622
0.77854007 -0.45642009 1.1545504
0.89245284 -0.47950298 1.1584325
0.91772616 -0.47582704 1.1760794
0.987966 -0.46365273 1.1957262
1.0220796 -0.4679426 1.1799299
1.0736045 -0.45631897 1.1794078
1.1418337 -0.45238987 1.1668582
1.3487465 -0.47256142 1.1629534
1.3821541 -0.47573146 1.1705179
1.4099597 -0.47610274 1.1809745
1.4867141 -0.49095356 1.1749121
0.74293947 -0.40488639 1.1517924
0.77989572 -0.42247799 1.1617843
0.80497646 -0.40248251 1.1735328
1.0374596 -0.4347572 1.1722351
1.0786033 -0.41946346 1.1807148
1.1205808 -0.4196927 1.1738772
1.1689216 -0.41221237 1.1681277
0.74211895 -0.37823221 1.1527251
0.77458912 -0.37454784 1.1682042
0.80723876 -0.37254816 1.1773686
1.0764724 -0.35044137 1.1798351
1.1267298 -0.38807505 1.1705253
1.1689862 -0.36756346 1.1793883
0.73950124 -0.32278204 1.1550587
0.77525085 -0.32471076 1.1712205
0.81041813 -0.32286593 1.1813543
1.0889549 -0.34593183 1.1884098
1.1190482 -0.34209394 1.1875851
1.1683654 -0.33700976 1.1633142
1.232435 -0.32002315 1.1618928
0.73530203 -0.27837378 1.1542863
0.77239108 -0.27342293 1.1733729
0.81738067 -0.27528399 1.1920818
1.2328023 -0.28145626 1.1766081
1.2746197 -0.28840408 1.1827028
0.74046642 -0.22810486 1.1547418
0.77548289 -0.22514166 1.1748888
0.81837684 -0.22718774 1.1931967
1.1808841 -0.20353761 1.1957271
1.2222005 -0.23528188 1.1943343
1.2701128 -0.2049052 1.1753583
0.74359018 -0.1730527 1.1550333
0.77585393 -0.17453724 1.1711469
0.82035619 -0.17465886 1.1909169
1.2292752 -0.15939431 1.175945
1.2634882 -0.17123722 1.1775663
0.74053025 -0.12286209 1.1541334
0.77253705 -0.12456137 1.1693588
0.81500238 -0.12369435 1.1847591
1.2243665 -0.13366492 1.172169
1.2669266 -0.1201928 1.1723433
0.74252057 -0.072804824 1.1531115
0.77719188 -0.073722951 1.1701416
0.81494159 -0.076638773 1.1789526
1.2311437 -0.098069213 1.1717138
0.74442405 -0.031094415 1.1546088
0.77749544 -0.025342302 1.1687778
0.80655557 -0.023269823 1.169943
0.74341863 0.024662236 1.1531192
0.77880728 0.022291331 1.1713485
0.81743741 0.023494093 1.1836028
0.74406362 0.070109598 1.1537114
0.77644569 0.073286511 1.1701208
0.81748301 0.076502241 1.1852912
0.74538094 0.11669298 1.1529856
0.77621233 0.12621811 1.1698247
0.81867737 0.12505966 1.1843054
0.74304992 0.1771211 1.1524119
0.77530396 0.17537007 1.1691391
0.81969893 0.17337298 1.1870903
0.74647558 0.22026496 1.1530583
0.77734447 0.22551864 1.167485
0.8221392 0.2223593 1.1895343
0.92809975 0.22949171 1.1750443
0.96326083 0.23124957 1.1704134
0.74157006 0.27493161 1.1533685
0.77439445 0.27441829 1.1715192
0.82690817 0.27238151 1.193361
0.7410481 0.32869807 1.1532794
0.77604926 0.32300407 1.1733437
0.81384659 0.32420594 1.1939973
0.9377892 0.30541578 1.1844605
0.74023694 0.37600935 1.15289
0.77474618 0.37493899 1.1721689
0.81326562 0.37596473 1.1918045
0.85218734 0.36088923 1.1901274
0.74433368 0.43025813 1.1555907
0.77357221 0.42621928 1.1703441
0.81391072 0.4213976 1.1924571
0.85860109 0.42874157 1.1959443
1.1166563 0.44794303 1.1981006
0.74186099 0.47193751 1.1529143
0.77506852 0.47403306 1.1706553
0.81405222 0.47596708 1.1910284
0.85226583 0.48436967 1.1832938
1.1152736 0.45878643 1.1825869
0.74552035 0.53385502 1.1528128
0.77513349 0.52392042 1.1693676
0.81752646 0.52370632 1.1910751
0.86025643 0.538656 1.1919332
0.74423134 0.58197349 1.151065
0.77403498 0.57192552 1.1667992
0.81594247 0.57661015 1.1888596
0.8543272 0.58518773 1.1794614
0.77271265 0.62366897 1.164852
0.81742138 0.62847489 1.1885718
0.7747646 0.67406541 1.1636895
0.8190462 0.67420346 1.188152
0.77730179 0.72224545 1.163259
0.82126588 0.71980518 1.1875368
0.77642912 0.77162868 1.1607269
0.82096833 0.77559263 1.1844093
0.86467052 0.79213256 1.195096
0.78667611 0.82442129 1.1559702
0.82425207 0.82328558 1.1741998
0.86686969 0.83271813 1.1912671
0.79141498 0.86098415 1.1526352
0.82242525 0.87230259 1.1653179
0.86745071 0.87095219 1.1876999
0.79872549 0.90913731 1.1501069
0.82785916 0.91929263 1.1646506
0.87375069 0.92974514 1.193698
0.82403946 0.97612357 1.1646794
0.87118834 0.97440934 1.1905317
0.82597965 1.0227097 1.1599272
0.86272329 1.0259937 1.1848143
0.83674079 1.0746835 1.1666657
0.87143552 1.0800771 1.1842438
0.83900541 1.1073687 1.1634934
0.87674701 1.1259099 1.1833073
0.90059888 1.1239774 1.1987557
0.9845224 -0.75506377 1.2124946
0.94302797 -0.71476853 1.2010285
0.96889478 -0.72552389 1.2129276
0.9354496 -0.66999531 1.2049198
0.9670409 -0.68761599 1.228639
1.0179827 -0.68930238 1.2420905
0.991561 -0.60855734 1.2415755
0.93924546 -0.5877589 1.2114667
0.93146461 -0.47431928 1.2140118
0.97626942 -0.47785878 1.2288538
1.0268294 -0.47264001 1.2379881
1.0586324 -0.45529404 1.2215457
1.4542605 -0.48310938 1.2123839
0.8730635 -0.43185085 1.2034519
0.97507584 -0.44431514 1.221634
1.0757508 -0.41779205 1.2268161
1.1262624 -0.4042733 1.2316923
1.1380239 -0.39354947 1.2319992
1.1681174 -0.37909013 1.2199738
1.2069422 -0.35154286 1.2236127
1.1813496 -0.34143126 1.2409005
1.2210464 -0.32149374 1.2191784
1.2731098 -0.31834346 1.2244493
1.3026199 -0.32043466 1.2384272
1.2248483 -0.28100935 1.2393613
1.2662855 -0.27704009 1.2304782
1.3075287 -0.26351446 1.228177
0.82598984 -0.20666812 1.201493
1.1932721 -0.20381293 1.2303959
1.2399272 -0.22125034 1.2270999
1.2746612 -0.21776724 1.2189356
1.3004884 -0.23982202 1.2213495
0.83036375 -0.19022542 1.2033513
1.1911163 -0.17639638 1.2305315
1.2277694 -0.17066519 1.2313408
1.2647443 -0.18681231 1.2253996
1.1955464 -0.13643344 1.2479625
1.2249914 -0.13050272 1.2350525
1.2545966 -0.10513479 1.2228811
1.2295982 -0.093004495 1.2353916
0.84069943 0.28107414 1.2041246
0.85202754 0.28937474 1.2055724
0.94343221 0.26935911 1.2269664
0.95838338 0.2838344 1.2409091
1.0174004 0.29569855 1.2054387
0.83805734 0.3262994 1.2061323
0.85679245 0.3257446 1.2110053
0.96424985 0.3140392 1.2321817
0.83913982 0.37018904 1.2071712
0.85835892 0.37437174 1.2125628
0.83931941 0.42357054 1.2070954
0.85921627 0.42533359 1.211527
1.1225473 0.44109002 1.2124635
0.8395645 0.47311774 1.2044605
0.86097628 0.47442886 1.2104115
0.84297925 0.52334207 1.2031852
0.86240375 0.52426523 1.2115127
0.84184629 0.56415552 1.20556
0.86380047 0.5789814 1.2116184
0.84444374 0.62059987 1.2060102
0.86774069 0.62875283 1.2137358
0.84558249 0.68924803 1.2052517
0.87735927 0.67538065 1.2183657
0.84404665 0.73232222 1.2030321
0.87804878 0.72150826 1.218595
0.90007818 0.73260164 1.2233549
0.83849621 0.76802921 1.2010032
0.87683833 0.77220744 1.2159281
0.9179641 0.76883936 1.2321049
0.88900602 0.81954306 1.209362
0.90254849 0.83574307 1.2077534
0.96283495 0.8187741 1.2455285
0.88876051 0.89517838 1.2038549
0.89170694 0.98217916 1.2040954
0.92801517 0.97635543 1.2224371
0.95983046 0.98736858 1.2417572
0.89481586 1.0228015 1.2038558
0.92733651 1.0246112 1.2245271
0.97256058 1.0262059 1.2400124
0.89637184 1.0714927 1.2057381
0.92274719 1.0778362 1.2160563
0.96229684 1.0688719 1.245429
0.93161285 1.1297184 1.2194576
0.96218902 1.1238075 1.2396921
0.92791057 1.1687677 1.2138804
0.95817399 1.1764852 1.2309625
1.1151077 -0.80881006 1.2984222
1.0772877 -0.76343602 1.2900999
1.1123805 -0.79842913 1.2997621
1.0354538 -0.71769118 1.2680824
1.0751916 -0.72308803 1.2762071
1.1270082 -0.73267603 1.2987128
1.0325165 -0.68256211 1.2623783
1.0627937 -0.67937458 1.2652924
1.1230417 -0.65403074 1.2932773
1.1522382 -0.66137391 1.2951894
1.0205896 -0.63058376 1.2632196
1.0593479 -0.64191926 1.2858853
0.9832387 -0.4658795 1.2663459
1.0212488 -0.46764261 1.2755153
1.0707654 -0.4713676 1.2761431
0.97651672 -0.42725411 1.2726314
1.0194033 -0.42562124 1.2919205
0.98669624 -0.38111392 1.2827201
1.0096172 -0.37473878 1.2956873
1.1664771 -0.35198888 1.2595806
0.98632753 -0.32356232 1.2846541
1.0077206 -0.3273887 1.2960064
1.1713613 -0.32417482 1.2679621
1.2047508 -0.31941134 1.2553965
0.98916394 -0.26919398 1.2856219
1.0107673 -0.29328254 1.299405
1.1808803 -0.27658683 1.2755265
1.2137016 -0.26381287 1.2586831
1.3248895 -0.26390722 1.2720758
0.98952675 -0.22503798 1.2901071
1.1802859 -0.22341514 1.2799163
1.2141435 -0.22725123 1.2662811
0.99010819 -0.17582943 1.2938118
1.1831471 -0.17467709 1.2871395
1.2208192 -0.18616819 1.2737286
0.99254704 -0.1216704 1.2973106
1.1764888 -0.12769845 1.275708
1.2169437 -0.11168721 1.2655671
0.98556924 -0.08129739 1.2812241
1.0078185 -0.069331452 1.294542
1.1804849 -0.092780359 1.2692338
1.2094214 -0.093285382 1.2585859
0.98359913 -0.017851472 1.2759193
1.0037733 -0.025454426 1.2877959
0.98694026 0.026276454 1.2831149
1.0093904 0.022555372 1.2949753
0.98438102 0.070343576 1.2834625
1.0093273 0.075803325 1.2979144
0.98328906 0.12193827 1.2829943
1.0036216 0.13019435 1.2965248
0.99087799 0.17013009 1.2903538
1.0060327 0.16024452 1.2969509
0.96888208 0.28627551 1.2618955
1.0112613 0.28824723 1.2854881
0.97092569 0.33274627 1.2691449
1.0203063 0.30210546 1.2948496
1.0843135 0.33563295 1.2802321
0.97724819 0.37638611 1.2786393
1.0171067 0.37308767 1.2933458
1.0992684 0.350633 1.2956035
1.1231399 0.3716113 1.2931175
0.98235017 0.42485929 1.2820545
1.0110182 0.42321166 1.2952722
1.1511716 0.44130751 1.2573994
0.98243427 0.47303835 1.281165
1.0113662 0.47897401 1.2966683
0.98262793 0.5233382 1.2800514
1.009326 0.52501643 1.2948287
0.98196471 0.57309353 1.2812799
1.011654 0.57678908 1.297157
0.98054695 0.6226747 1.2790642
1.0088772 0.625507 1.2953354
0.94780123 0.69256592 1.2534254
0.97985715 0.67199081 1.275887
1.0089257 0.66252553 1.2950282
0.97708815 0.72462219 1.2751001
1.0084412 0.72229403 1.293749
0.97675854 0.7748214 1.2681158
1.014395 0.78006035 1.2863152
0.98688298 0.81658006 1.2648576
1.0215583 0.82333481 1.2836103
1.0511912 0.83323485 1.2967696
1.0415756 0.9464137 1.2945607
1.4944447 0.93796623 1.2985007
1.5261214 0.93707263 1.2859796
1.5666474 0.92051262 1.2893711
1.035181 0.99501312 1.2946327
1.4828961 0.97368181 1.2841926
1.5142719 0.97083503 1.2728583
0.97942638 1.0415077 1.2544518
1.4781154 1.0244472 1.2860718
1.5029116 1.0146523 1.2769761
0.98655832 1.0725321 1.2582343
1.0183033 1.0910647 1.2744734
1.4831784 1.073822 1.2893693
0.98535842 1.1227577 1.2564865
1.028051 1.1255776 1.2849265
1.0519465 1.1403083 1.2946688
0.98849219 1.1686596 1.2543432
1.0234942 1.1687759 1.2830284
1.0503112 1.1664188 1.2963799
0.99163896 1.213203 1.2601908
1.0329032 1.2131462 1.2867334
1.1320772 -0.80645698 1.3064816
1.1791178 -0.81304681 1.3389765
1.2018753 -0.81966466 1.3456248
1.1297318 -0.77856994 1.3173636
1.1600969 -0.78492832 1.3309937
1.1293228 -0.74806553 1.3132616
1.1896569 -0.70931607 1.343877
1.0890656 -0.66308004 1.302626
1.1285256 -0.67786157 1.3122098
1.1603808 -0.67680758 1.308529
1.029233 -0.45531595 1.3015207
1.0891155 -0.45810512 1.3102061
1.126075 -0.46863955 1.3280604
1.0344284 -0.42142248 1.3038633
1.0791305 -0.4214215 1.3240366
1.1120579 -0.42787677 1.3408988
1.0370408 -0.37290487 1.3103403
1.0717299 -0.37232834 1.3222526
1.0287684 -0.32467443 1.3083017
1.0733621 -0.32674056 1.3298951
1.1087999 -0.33003026 1.3439356
1.1802189 -0.30409494 1.3116382
1.0315777 -0.27655885 1.311227
1.0744483 -0.27420714 1.3317031
1.1030525 -0.27951363 1.3461059
1.187295 -0.29785758 1.3210695
1.0223421 -0.22469433 1.3081023
1.0753304 -0.22515595 1.3345109
1.1811093 -0.22257064 1.3111252
1.0250324 -0.17572996 1.3139617
1.0695198 -0.17622934 1.3361458
0.99719489 -0.14452618 1.3015851
1.0241152 -0.12369742 1.3142009
1.0665563 -0.12651883 1.3377199
1.1748185 -0.11762612 1.3006207
1.0347266 -0.07865154 1.3161622
1.0723742 -0.074277051 1.3404584
1.1822455 -0.094606876 1.3104693
1.0340815 -0.02975422 1.3085428
1.0742286 -0.021603685 1.3346369
1.0347515 0.022950204 1.3130445
1.0675708 0.021856336 1.331043
1.0307697 0.07859236 1.310456
1.0746233 0.072699897 1.3366373
1.0326661 0.12495268 1.3127793
1.0736464 0.1224066 1.336135
1.101153 0.10635727 1.3486835
1.0249633 0.17132454 1.3087122
1.0689414 0.17480519 1.3344585
1.0457752 0.2997039 1.3138801
1.0580297 0.29992551 1.3071179
1.0429809 0.31801462 1.3065678
1.0744784 0.32586521 1.3197775
1.1218278 0.32790893 1.3285117
1.1888567 0.33605391 1.3457661
1.0322475 0.38316357 1.304356
1.078303 0.37381658 1.3198522
1.1241055 0.37384668 1.3289691
1.0405931 0.4269107 1.3134876
1.072877 0.42782828 1.324855
1.1068759 0.44238311 1.3370876
1.0341947 0.47296014 1.3083076
1.0717891 0.47176269 1.326295
1.1117518 0.47305423 1.3450606
1.0343366 0.52448165 1.308937
1.0758647 0.5232954 1.3295557
1.1118253 0.52573115 1.3470254
1.0327445 0.57461298 1.3084168
1.0748092 0.57506126 1.3279809
1.1115652 0.57723212 1.3471843
1.0358859 0.62318105 1.3091834
1.0765462 0.62592137 1.3313745
1.1080626 0.6030184 1.3442078
1.029022 0.67475194 1.3070916
1.0741528 0.67510581 1.330503
1.1086341 0.66914302 1.3466061
1.035329 0.72056627 1.3101315
1.0748454 0.7246685 1.3284379
1.1146698 0.73943579 1.3498918
1.0396889 0.76488292 1.3094203
1.0722618 0.77281874 1.3244148
1.0466938 0.80893087 1.3027029
1.079731 0.8197152 1.3231179
1.1098576 0.8244127 1.3430985
1.1193037 0.86905265 1.3491757
1.0898724 0.94803375 1.3369787
1.1023729 0.93363923 1.34606
1.4832423 0.93354261 1.3280813
1.5168799 0.91269529 1.314281
1.0801623 0.97253108 1.3231919
1.445805 0.98613054 1.3432456
1.4634838 0.97313392 1.3292632
1.070192 1.0144792 1.3134929
1.1113129 1.0287539 1.3458682
1.4465544 1.0181339 1.3384051
1.4583477 1.0221977 1.3161713
1.0919523 1.0770435 1.3351243
1.466902 1.0740625 1.3243045
1.4827384 1.1136336 1.3283526
1.5035858 1.1450198 1.3484349
1.0703464 1.1694 1.3104926
1.0828441 1.2195064 1.3286791
1.1130695 1.2347852 1.3401089
1.1035076 1.2540324 1.3403467
1.1957165 -0.83033854 1.3507723
1.1793488 -0.70399469 1.3504733
1.7070495 -0.51953226 1.374679
1.766221 -0.51573795 1.378345
1.1678908 -0.46666196 1.3529482
1.1293013 -0.41907761 1.3564126
1.1756293 -0.41726974 1.3776122
1.2080193 -0.41130358 1.3891894
1.1277026 -0.37613726 1.3579241
1.1781355 -0.37485981 1.3854712
1.2020441 -0.38823292 1.3999326
1.1344136 -0.31996763 1.3610773
1.1738553 -0.32211179 1.3792106
1.2096813 -0.30561781 1.3936806
1.1294984 -0.27306664 1.3622022
1.1745976 -0.27602306 1.3847575
1.2234739 -0.27243072 1.3911896
1.1275281 -0.2239033 1.362049
1.1743016 -0.2253122 1.3859603
1.2027111 -0.23717713 1.3965237
1.0966126 -0.18078065 1.3518139
1.1299322 -0.17765774 1.3672764
1.1755774 -0.17073767 1.3905088
1.2482787 -0.15950949 1.3948196
1.0943971 -0.12672432 1.3540467
1.1238419 -0.12553743 1.3683994
1.1684457 -0.12462785 1.3919511
1.0936974 -0.078174368 1.3561982
1.1218287 -0.0753152 1.3683524
1.1592023 -0.07989914 1.3883543
1.0995703 -0.030997094 1.3500626
1.127625 -0.027164297 1.3678612
1.1655474 -0.02901572 1.393598
1.123371 0.025428141 1.363229
1.1725894 0.029548002 1.3891639
1.1255893 0.074907623 1.365154
1.1719559 0.080156349 1.3920259
1.0931561 0.14951944 1.3503423
1.1220188 0.12702301 1.3636715
1.1660525 0.12701069 1.3878549
1.0933937 0.17615904 1.35291
1.1282735 0.1750569 1.3701432
1.166707 0.17236254 1.3884267
1.1372887 0.20311588 1.3841424
1.1519145 0.20427983 1.3864175
1.1778406 0.33239293 1.3748057
