ply
format ascii 1.0
comment PCL generated
element vertex 1558
property float x
property float y
property float z
element camera 0
property float view_px
property float view_py
property float view_pz
property float x_axisx
property float x_axisy
property float x_axisz
property float y_axisx
property float y_axisy
property float y_axisz
property float z_axisx
property float z_axisy
property float z_axisz
property float focal
property float scalex
property float scaley
property float centerx
property float centery
property int viewportx
property int viewporty
property float k1
property float k2
end_header
1.0280085 0.57081068 3.2545247
1.0769978 0.5691396 3.2586567
1.1227804 0.5717805 3.2642686
1.169894 0.57485652 3.2718883
1.2268704 0.57852036 3.2800369
1.2732227 0.57827932 3.2872982
1.3257689 0.57020533 3.2942398
1.3623114 0.57031935 3.2982476
0.99311876 0.64871043 3.2574632
1.0293829 0.62646866 3.2579274
1.0802869 0.61980367 3.262475
1.125486 0.62227809 3.2658837
1.1722578 0.62538272 3.2722068
1.2241535 0.62675053 3.280581
1.2718616 0.62884331 3.2904556
1.3212527 0.62172312 3.2955725
0.98444694 0.68074936 3.2526741
1.0290685 0.67263097 3.258605
1.0734324 0.66953546 3.2616127
1.1198506 0.67290699 3.2684417
1.1764928 0.6771968 3.2771578
1.223637 0.68045837 3.2824173
1.2722775 0.67596233 3.29106
1.3232895 0.67295498 3.2936933
0.99389941 0.7141341 3.2506566
1.0327768 0.71922141 3.2567329
1.0761467 0.72032881 3.2626064
1.1231132 0.72422874 3.2706063
1.1780736 0.72772211 3.2741404
1.2232528 0.72769082 3.2792687
1.2770375 0.72128582 3.2908342
1.3213947 0.71932554 3.2969575
0.98057216 0.77590752 3.2541621
1.0257249 0.76844066 3.2615509
1.0713326 0.77243865 3.2598498
1.1254576 0.77522266 3.2695186
1.1769501 0.77733278 3.2777269
1.2224239 0.77905524 3.2825429
1.2745221 0.76829171 3.288929
1.3006208 0.79156005 3.2991047
1.3643682 0.78592795 3.2952747
0.93436116 0.83285272 3.2513614
0.97264194 0.82849008 3.2536438
1.0200095 0.81946045 3.2628858
1.0732278 0.82257748 3.2642646
1.1291213 0.82739359 3.2716699
1.1766316 0.83175558 3.2786858
1.2268536 0.82408184 3.2862108
1.271534 0.82274961 3.2902384
1.3184032 0.82503825 3.2970092
0.93368167 0.88083917 3.2526727
0.97184193 0.87673891 3.2576468
1.0233837 0.87148774 3.2647426
1.0781447 0.87592769 3.2701998
1.127817 0.87733275 3.2741334
1.1702522 0.88031816 3.2774744
1.227954 0.87195516 3.2879157
1.2740295 0.8726247 3.2928853
1.3116052 0.86060429 3.2911549
0.87334424 0.94003087 3.2504809
0.91716224 0.92723221 3.2552657
0.97455782 0.92138374 3.2597265
1.0262668 0.92341018 3.2644296
1.0789988 0.92592448 3.2703509
1.1219264 0.93214148 3.2755082
1.178015 0.92296606 3.2853453
1.2265847 0.92244053 3.2891259
1.2712985 0.92660028 3.2951171
0.83454019 0.96087492 3.2500234
0.85245764 0.97088599 3.2516556
0.92911702 0.96781176 3.2567439
0.97537065 0.97141331 3.2601178
1.0305375 0.97691607 3.2678854
1.0753595 0.98007578 3.2690392
1.1255485 0.9736501 3.2794397
1.1772139 0.97178137 3.2864244
1.2239418 0.9813298 3.291904
1.2690142 0.98553753 3.2936752
1.3311517 0.96993911 3.2961035
0.89106101 1.0267376 3.2569749
0.92290497 1.021742 3.2559633
0.97678959 1.0224057 3.2620416
1.0215553 1.0318453 3.2683856
1.0701464 1.024545 3.2713521
1.1276252 1.0230579 3.2832289
1.1754398 1.0282271 3.2893956
1.2189157 1.0290467 3.2888062
1.2783947 1.0196043 3.295013
0.77181578 1.0618912 3.2501855
0.88802457 1.0649891 3.2533207
0.92927098 1.0740007 3.2600088
0.97481179 1.0787196 3.2658165
1.0199121 1.0742066 3.2703674
1.0769764 1.0730051 3.282717
1.1228883 1.0768629 3.2845685
1.1675266 1.0766515 3.289865
1.2294213 1.075025 3.2942965
1.2636899 1.063991 3.2960372
0.84442639 1.12059 3.2554371
0.87887526 1.1224985 3.2548032
0.92738897 1.1246512 3.2597356
0.9700582 1.1298356 3.2682426
1.0237849 1.1201047 3.2728949
1.0755006 1.1243622 3.282562
1.1210852 1.123872 3.2848763
1.1758053 1.1209691 3.2894714
1.2253789 1.1216677 3.2944648
1.2510777 1.1360779 3.2959192
0.84020269 1.1766274 3.2527046
0.87739867 1.174004 3.2560253
0.92320889 1.1756321 3.2654843
0.97603661 1.1727005 3.2712982
1.0290773 1.1763102 3.2772171
1.0759315 1.1732041 3.2846551
1.1229895 1.1698545 3.2909596
1.1788768 1.1748998 3.2923205
1.2247359 1.1763155 3.2959418
1.2756764 1.1857848 3.299747
0.74719405 1.2386032 3.2500558
0.78702021 1.2296318 3.251894
0.82889777 1.225489 3.2569864
0.87436867 1.2271192 3.2662754
0.92323905 1.2200481 3.2676272
0.97566789 1.2234612 3.2729983
1.0190542 1.2275047 3.2789807
1.0728811 1.221251 3.2845798
1.1270225 1.2251098 3.2894201
1.1746588 1.2219269 3.2953956
1.2215104 1.220373 3.2968607
1.2775211 1.20471 3.2999809
0.74834132 1.2570469 3.2505674
0.7772215 1.2742612 3.2526422
0.81707865 1.2765895 3.2560985
0.87351894 1.2707791 3.265336
0.92439049 1.2725712 3.2664418
0.97413009 1.273772 3.2784002
1.0218683 1.2717589 3.2815969
1.0754955 1.2755555 3.2862048
1.1196048 1.2759302 3.2870984
1.1700302 1.2745947 3.2952588
0.72991395 1.3351498 3.2556984
0.77471215 1.3277843 3.2579041
0.82281357 1.322448 3.25755
0.87793994 1.3276151 3.2675064
0.92169482 1.3217432 3.267992
0.96944171 1.3210561 3.2808406
1.025564 1.3279592 3.2867825
1.0805362 1.3242519 3.2894442
1.1261915 1.3191825 3.2901998
1.1682534 1.3190724 3.2964237
0.68745035 1.3834078 3.2524314
0.72620016 1.381608 3.2534282
0.77414203 1.3727218 3.2582278
0.82828635 1.3772031 3.2656133
0.87320989 1.3754129 3.270479
0.92176682 1.3754667 3.2788365
0.97075075 1.3746265 3.2784772
1.0259821 1.3739147 3.2876372
1.0751152 1.3709958 3.2883401
1.1236639 1.3745203 3.2956836
1.1710807 1.3745047 3.2986689
0.63868475 1.4361682 3.2504609
0.67552018 1.4236808 3.2527664
0.72556162 1.4261545 3.2583995
0.77660656 1.4270815 3.265085
0.82848376 1.4208889 3.2661059
0.87297142 1.4255617 3.2700503
0.92278528 1.4205636 3.2779951
0.98094779 1.4237813 3.2837288
1.0245214 1.4234813 3.2868626
1.0726414 1.4283419 3.2937219
1.1250596 1.4288908 3.2956653
0.64148825 1.4760512 3.2539389
0.67693812 1.4830438 3.2573624
0.7357049 1.4744245 3.2651937
0.77917099 1.4712127 3.2653248
0.8209188 1.4787642 3.2697563
0.87285775 1.4734489 3.275876
0.9278003 1.4710793 3.2821529
0.97711331 1.4730145 3.2828991
1.0238117 1.4744332 3.2879093
1.0730544 1.4723635 3.2917855
1.1328843 1.4587595 3.2998359
0.59242338 1.5295564 3.2509279
0.6307193 1.5260264 3.2549624
0.67495042 1.5236968 3.2519879
0.73078805 1.5232502 3.2648652
0.77103347 1.5236566 3.2623208
0.82270002 1.5263038 3.2722275
0.87712169 1.5234498 3.2776084
0.92660564 1.5241076 3.2841294
0.97295779 1.5273838 3.2848275
1.0253055 1.5231268 3.2906511
1.0704809 1.5248806 3.2934101
1.1003371 1.5138478 3.2976859
0.57869917 1.588418 3.2528801
0.62969184 1.5723032 3.253567
0.67767143 1.5748098 3.2579055
0.72310442 1.5775917 3.267699
0.77627039 1.576322 3.276355
0.8277092 1.5763514 3.278038
0.8781271 1.5724771 3.280724
0.92536712 1.5776297 3.2854083
0.97159368 1.5734712 3.2867062
1.0303653 1.5741258 3.2918253
1.078474 1.5766001 3.2972882
1.1134428 1.5822533 3.2976644
0.54684192 1.6449617 3.2503734
0.5882374 1.6083286 3.2518525
0.62755305 1.6264544 3.2564602
0.66923714 1.6285552 3.2615631
0.72237897 1.6245432 3.2657244
0.77698445 1.6229025 3.2742331
0.82838124 1.6225835 3.2784855
0.87374741 1.6280113 3.2823091
0.92077351 1.6251373 3.2852321
0.97866613 1.6212689 3.2884722
1.0223757 1.6305439 3.2971759
1.0621318 1.6255283 3.2947311
0.53692216 1.6718315 3.2515259
0.57275218 1.6829239 3.2556705
0.62182605 1.6777073 3.2605219
0.67225742 1.6701483 3.2635601
0.72718793 1.6783789 3.2715232
0.77543241 1.6706709 3.2743225
0.81759173 1.6758941 3.2784376
0.87320477 1.6772079 3.2846146
0.93061632 1.6763366 3.2870383
0.97327483 1.6758257 3.2908044
1.0246985 1.6891237 3.2983439
1.0599531 1.6716778 3.2970607
0.44713804 1.7205886 3.2507739
0.47181463 1.7270281 3.252605
0.52083093 1.7312008 3.2550793
0.56893498 1.7198614 3.2551019
0.62352234 1.7288809 3.2652075
0.67621303 1.723112 3.2663143
0.72990388 1.7192111 3.2704728
0.77585518 1.725394 3.2748609
0.82457018 1.7256155 3.2818754
0.87679374 1.7227659 3.2832379
0.92900294 1.7235281 3.2873092
0.97495091 1.7304935 3.2913983
1.0158906 1.7155426 3.2901926
0.48506421 1.777353 3.2562757
0.52053505 1.7812223 3.2594054
0.57243454 1.773504 3.2580576
0.62348658 1.7739029 3.2631793
0.68003923 1.7761742 3.2676256
0.72572011 1.7733086 3.2748673
0.77115196 1.7691655 3.2794456
0.82809305 1.7791829 3.2884493
0.87554938 1.7719523 3.285732
0.92008924 1.778922 3.2902558
0.96700203 1.7754285 3.2942071
0.46892422 1.8155839 3.2509704
0.52263695 1.822955 3.2583399
0.57602817 1.8279352 3.2607183
0.63262689 1.8286088 3.2687354
0.67545706 1.8218549 3.2745762
0.72109312 1.8270473 3.2769034
0.77659249 1.8255441 3.2845659
0.82075644 1.8266077 3.2866168
0.86966139 1.8279885 3.2919691
0.923967 1.8129318 3.2932079
0.99049771 1.812616 3.2988317
0.4729982 1.8878137 3.2553661
0.5256924 1.8683776 3.2626903
0.57945275 1.8736982 3.2653589
0.62473512 1.8788996 3.2684052
0.67193723 1.8760409 3.2707953
0.72327518 1.8677096 3.2720487
0.77507043 1.872484 3.2757599
0.82841092 1.8660928 3.2835038
0.87065268 1.8747858 3.2939143
0.96587574 1.8520558 3.296771
0.48692504 1.9305242 3.2553473
0.52856219 1.9223189 3.2614779
0.57924581 1.9204129 3.2644255
0.62220746 1.9239626 3.2672372
0.67460901 1.9315491 3.2764809
0.72593069 1.9202219 3.2788086
0.77703363 1.9274105 3.2911663
0.82620674 1.9267372 3.2956903
0.87815267 1.9127185 3.295275
0.91857761 1.9361787 3.2991157
0.4068127 1.9862139 3.2515249
0.47724614 1.9705071 3.2553368
0.52311039 1.9784455 3.2633634
0.56871784 1.9804661 3.2690222
0.62220854 1.9684252 3.2711296
0.67790812 1.976452 3.2764308
0.72659576 1.9783299 3.2832551
0.77180117 1.9722548 3.2922099
0.82448113 1.9770195 3.2947001
0.43199563 2.0275829 3.2560503
0.47785527 2.0225103 3.2588043
0.52620143 2.0255406 3.2661557
0.57138056 2.0290024 3.266041
0.6236977 2.0205507 3.2743928
0.67753547 2.0196407 3.2766948
0.72460055 2.0310428 3.2842436
0.77324444 2.0222661 3.2913461
0.82347065 2.0253656 3.2956424
0.85118139 2.0180752 3.297462
0.3761557 2.0890632 3.254658
0.42895603 2.0769565 3.2524803
0.48232633 2.0624132 3.2567549
0.52323645 2.0718765 3.2633851
0.57578462 2.0803199 3.273906
0.6302157 2.0713768 3.276788
0.67654395 2.0703743 3.2807319
0.72455055 2.0757301 3.2897856
0.7736454 2.0675075 3.291465
0.83914185 2.0870059 3.2984588
0.85832059 2.0895336 3.2988164
0.34104469 2.1085391 3.2516279
0.38106173 2.1214046 3.2535477
0.43193325 2.12887 3.2565684
0.47161624 2.1249669 3.2645619
0.52305609 2.1193635 3.2682676
0.57881123 2.127136 3.273248
0.62605852 2.1263824 3.2840617
0.67113549 2.1213322 3.2798808
0.728625 2.1274436 3.2883041
0.77665102 2.1260889 3.2967558
0.82226163 2.1083755 3.2980297
0.39150953 2.1677542 3.2532794
0.42491978 2.1741512 3.2536597
0.4740335 2.1787589 3.2631912
0.52375805 2.1725445 3.2687881
0.57276809 2.1742413 3.2729988
0.62035424 2.1770332 3.2829654
0.67656898 2.1727571 3.288964
0.72386271 2.1766174 3.2909565
0.7704407 2.1614423 3.2969098
0.80782408 2.1547141 3.2984788
0.34594545 2.2287648 3.2519183
0.37812656 2.2170429 3.2534347
0.42459893 2.2268515 3.2538121
0.47434512 2.2320507 3.2622139
0.52943343 2.2237854 3.2676895
0.57626778 2.2238636 3.2739401
0.62620395 2.2269688 3.2793572
0.67385739 2.2213545 3.2866039
0.72328192 2.2299619 3.2940555
0.77752495 2.2383437 3.2971706
0.81497282 2.2290752 3.2987618
0.38325113 2.2548039 3.2506621
0.42524463 2.2667267 3.2547948
0.47703561 2.2810986 3.2609475
0.52687329 2.271961 3.2721221
0.57071799 2.2741742 3.2756805
0.62378395 2.2795045 3.2796283
0.67791778 2.2714756 3.2866237
0.72396421 2.2784402 3.2955303
0.76145524 2.2710888 3.2967839
0.43181944 2.309525 3.2524483
0.47901353 2.3270612 3.2540061
0.52597946 2.3239472 3.2620173
0.57274973 2.3189747 3.2669916
0.62673306 2.3234293 3.2766063
0.6688838 2.3255408 3.2804978
0.72757894 2.3269398 3.2913697
0.77638429 2.3343952 3.293448
0.82018048 2.3353252 3.2958417
0.88425177 2.3399477 3.2990437
0.57473063 2.3637969 3.2571895
0.62307459 2.3728461 3.2628815
0.67377251 2.3756566 3.2666621
0.72380537 2.3756773 3.2741153
0.77292246 2.3800294 3.2810025
0.82886761 2.3751454 3.2809193
0.87393415 2.3761139 3.2853115
0.9263913 2.3801327 3.2911177
0.97067618 2.3755693 3.2934401
1.0264512 2.3847358 3.2933314
1.0768292 2.3915768 3.2903993
1.1801531 2.3897622 3.298728
0.63429242 2.4081562 3.2553828
0.65264732 2.407558 3.2516143
0.73074877 2.4209845 3.2569208
0.76961821 2.4075005 3.2681162
0.82458735 2.4045689 3.2530282
0.87628865 2.4092171 3.2677493
0.92121983 2.4119096 3.2710435
0.979747 2.4099817 3.2769718
1.0253015 2.4104507 3.2727034
1.0704988 2.4097772 3.2663784
1.1238056 2.4101357 3.2812877
1.1721385 2.4118676 3.2779202
1.2241102 2.4165606 3.2692456
1.2833875 2.4137986 3.2830553
1.3238674 2.417532 3.2753582
1.3694487 2.4215362 3.2657769
1.4200827 2.4243088 3.2730076
1.4761099 2.4270346 3.2778316
1.5131028 2.4141941 3.2646947
1.5687468 2.42767 3.2749681
1.6243629 2.4321845 3.2747397
1.6734927 2.4298511 3.2677207
1.7239758 2.4355252 3.27742
1.7631902 2.4360583 3.2680445
1.8261557 2.4427414 3.2649498
1.8770343 2.4368384 3.2772839
1.9110062 2.4315848 3.2752285
1.9775105 2.4413855 3.2824678
2.0219369 2.4255691 3.2802284
2.0673673 2.4431849 3.287349
2.1016819 2.447324 3.2758458
2.2409883 2.4461567 3.2971296
2.3672631 2.4479032 3.2768524
2.4381208 2.4450438 3.2812111
2.4665048 2.441632 3.2556674
2.5369189 2.4474375 3.2772954
2.5780354 2.4451485 3.2736073
2.6346986 2.4471295 3.2675915
2.1290226 2.4551716 3.2747087
2.1716805 2.4581039 3.2814159
2.2221653 2.4577971 3.2772827
2.2760172 2.4606173 3.2767029
2.3255701 2.4583445 3.2686715
2.3758974 2.4564428 3.2605047
2.4206498 2.4593456 3.2649126
2.5268116 2.459085 3.2501416
2.583087 2.450593 3.2519715
2.6730549 2.4526002 3.2517755
2.7209337 2.4545414 3.2820027
2.7505589 2.4614911 3.2753286
2.829335 2.4603424 3.2768006
2.8770404 2.4728589 3.2683704
2.9661279 2.4785967 3.277266
3.066292 2.4734483 3.2530136
3.1228838 2.4776983 3.2851586
1.6665169 -0.4555622 3.3371847
1.7062222 -0.45113888 3.3350751
1.8276515 -0.47291669 3.324296
1.8542677 -0.47523692 3.3334796
1.9339993 -0.49074268 3.3181148
1.9728781 -0.48047221 3.32865
2.0158198 -0.46640527 3.3455167
1.5892638 -0.43035927 3.346792
1.6052172 -0.43860465 3.3374553
1.6737969 -0.43325239 3.3437431
1.7154062 -0.44899017 3.3127892
1.7523382 -0.44958228 3.3040559
1.5877218 -0.37693229 3.3339586
1.6229048 -0.37846383 3.3375876
1.670131 -0.39873692 3.3497603
1.4186082 -0.30102673 3.300909
1.4798617 -0.30831262 3.302599
1.578307 -0.31619066 3.3324828
1.6206304 -0.32693398 3.3436422
1.3922629 -0.28404626 3.3064876
1.4281791 -0.26987153 3.3029554
1.466107 -0.26858279 3.3028166
1.579504 -0.27366388 3.3376548
1.6166073 -0.27248889 3.3437765
1.383729 -0.22225755 3.3042622
1.4294173 -0.21738347 3.3030205
1.4709845 -0.21807098 3.3019876
1.5785865 -0.23068872 3.3379955
1.6153342 -0.22614615 3.3455057
1.3881083 -0.19149971 3.3011494
1.4423751 -0.1716433 3.3074729
1.4723063 -0.17106438 3.3040192
1.5786884 -0.17940122 3.3404088
1.6121149 -0.17162219 3.3480711
1.3382573 -0.12709111 3.3026943
1.3754362 -0.12745076 3.3026903
1.428683 -0.11685569 3.3040102
1.4712245 -0.11386861 3.303273
1.5925512 -0.1082477 3.3438132
2.3073258 -0.10989977 3.3375623
1.3281553 -0.089371026 3.302871
1.3749107 -0.088548057 3.3022869
1.429597 -0.071487911 3.3070004
1.4741496 -0.066929422 3.3064089
1.5816628 -0.067980669 3.332746
2.3177066 -0.076704323 3.3312943
1.3496119 -0.032992359 3.3017762
1.3805969 -0.02975462 3.3046985
1.4234993 -0.031099662 3.3050132
1.4743967 -0.024936818 3.3073599
1.5976135 -0.033961132 3.3416173
1.6200548 -0.02117056 3.346715
2.3330522 -0.026968496 3.3210969
1.3497525 0.0002262848 3.3022287
1.3785157 0.016891779 3.3042176
1.4270505 0.017000709 3.3078058
1.4751749 0.017069578 3.3090858
1.5015136 0.025505811 3.3035624
1.5801777 0.01741671 3.346782
1.6207458 0.017499609 3.3481143
2.3297162 0.015355393 3.3199768
1.3493236 0.08325848 3.3003898
1.3862009 0.050188296 3.3000381
1.4269917 0.067193545 3.3071766
1.4739345 0.067452006 3.3058255
1.584268 0.072127506 3.3380444
1.6156061 0.064762168 3.3474431
2.3272436 0.078822084 3.3211102
1.3776207 0.10011864 3.3010018
1.4301423 0.11542445 3.308074
1.474219 0.11786146 3.3054159
1.5030861 0.12656817 3.305306
1.5875336 0.12012156 3.3397343
1.6276518 0.12413652 3.3441226
2.3348336 0.12582323 3.3180194
2.367398 0.14834227 3.3124607
1.3732408 0.17344525 3.3017075
1.4285125 0.16781299 3.3081305
1.4774269 0.1686338 3.3110371
1.5017549 0.16012202 3.3013225
1.5824536 0.1670946 3.3380282
1.6184286 0.17231588 3.347003
1.3330114 0.224462 3.3011227
1.3735055 0.21906973 3.3037927
1.4319109 0.22037053 3.3083391
1.4760772 0.21893151 3.3058898
1.7562602 0.20851037 3.3283973
1.9360247 0.21308894 3.3428912
1.3663962 0.26932192 3.3025041
1.4319215 0.26898181 3.3113403
1.4763806 0.27315351 3.3079898
1.5193189 0.27959132 3.3129056
1.5682184 0.28079316 3.3128281
1.6163509 0.29031402 3.3092442
1.6736857 0.29290131 3.323199
1.7085994 0.29300269 3.3115535
1.335668 0.34973994 3.3000708
1.378237 0.31988603 3.3021448
1.4208182 0.31878093 3.3044202
1.4735978 0.32116187 3.3159232
1.522334 0.32256889 3.3167093
1.5730157 0.32428312 3.3200979
1.623701 0.32591239 3.3219442
1.6756934 0.32772553 3.3248034
1.7096424 0.32762566 3.3111887
1.7883216 0.32393178 3.3425536
1.8243221 0.32300252 3.3384418
1.8783795 0.33631256 3.3496597
1.9733759 0.33748728 3.3228908
1.3367141 0.38332894 3.3000543
1.3725675 0.37001958 3.3033106
1.4230629 0.36965284 3.3058989
1.4738295 0.37187925 3.3126607
1.526296 0.3744123 3.3215063
1.5708007 0.37361768 3.3236759
1.6239679 0.38104424 3.333796
1.6807719 0.38056567 3.330878
1.8239508 0.3695859 3.346019
1.8709847 0.37134317 3.3464966
1.9113069 0.37293518 3.3469632
1.9566823 0.35540691 3.3310988
2.3135071 0.37933776 3.3305969
1.3777704 0.419011 3.3061159
1.427508 0.42134535 3.3119497
1.4759716 0.4231818 3.3131523
1.5309771 0.42674085 3.3272827
1.5705055 0.42823967 3.3274004
1.6210628 0.42872286 3.3339987
1.6734987 0.42412198 3.3329918
1.7113606 0.42855945 3.3330402
1.7872608 0.4373664 3.3310111
1.8235395 0.41911846 3.3449063
1.8600824 0.40688884 3.349973
2.2977393 0.40423664 3.3053372
2.304064 0.42374706 3.3126123
1.341048 0.45977354 3.3039925
1.376425 0.46741351 3.3039956
1.4314249 0.46925107 3.3121178
1.4754257 0.47656357 3.3122153
1.5274565 0.47553638 3.3239815
1.5733676 0.48044789 3.3284063
1.6265522 0.47488356 3.3356242
1.6786319 0.46879974 3.3389473
1.7264748 0.47280371 3.3363183
1.7726765 0.45987937 3.3276377
1.8181549 0.46704316 3.3461423
1.3897748 0.52088094 3.302238
1.4242818 0.52563238 3.3105094
1.4737028 0.52690893 3.3194427
1.5240417 0.52963811 3.3229034
1.5725547 0.52878147 3.3256583
1.6184753 0.52113676 3.3306603
1.6719239 0.52145398 3.3403521
1.725198 0.52335334 3.3348463
1.7717927 0.5310539 3.3417056
1.8009214 0.51116747 3.3490784
1.3825146 0.57175064 3.3015473
1.4238074 0.57484508 3.3092229
1.4746805 0.57825136 3.3155735
1.5254021 0.58007348 3.3253591
1.5801522 0.5714795 3.3283539
1.6235949 0.57185274 3.3395927
1.6732771 0.56990486 3.3432648
1.7197317 0.5849911 3.3458583
1.7622054 0.56288058 3.3499207
2.4997871 0.57215601 3.3483109
1.3477964 0.61326301 3.3033004
1.3766823 0.62334067 3.3037014
1.4273113 0.62708473 3.3107662
1.4799696 0.63149601 3.32077
1.5196809 0.62529004 3.3232017
1.5729556 0.62087923 3.3321929
1.6235615 0.62379092 3.3327379
1.6668332 0.63119072 3.3412938
1.7103046 0.62738591 3.3463287
1.3730252 0.67306447 3.3051641
1.4242972 0.67636281 3.3097472
1.4716395 0.67992908 3.317054
1.5243322 0.67015249 3.3273132
1.5753423 0.67362034 3.3299596
1.6289444 0.67798465 3.3363788
1.6710078 0.67818773 3.343164
1.7139791 0.67952871 3.3490248
2.5269322 0.65045583 3.3360767
1.3364967 0.74227852 3.3033814
1.3752917 0.72809386 3.3083398
1.4223672 0.72803026 3.3117557
1.4775261 0.72086179 3.3188546
1.5259471 0.72244722 3.3230369
1.5728271 0.72406304 3.3292413
1.6223733 0.7310611 3.3357701
1.6719395 0.71752578 3.3419163
1.7197686 0.72172135 3.3471735
2.5445368 0.7319662 3.3462877
1.32935 0.77676159 3.3034172
1.3767138 0.77404141 3.3044217
1.4306813 0.77151006 3.3154576
1.4727955 0.76883447 3.3187606
1.5251579 0.77908134 3.3287201
1.5715041 0.77958292 3.3266637
1.6257778 0.77035695 3.336518
1.6774088 0.77542156 3.3457181
1.7232399 0.77607512 3.3451767
1.7574325 0.77951986 3.3498671
1.3446223 0.84860778 3.3060024
1.3702412 0.8293786 3.3072064
1.4217238 0.82001376 3.3133051
1.4751195 0.82602257 3.3240995
1.5236781 0.82807374 3.3279982
1.5775821 0.8260771 3.3319056
1.6244398 0.81913048 3.3376045
1.6769121 0.82893419 3.3421047
1.7246107 0.82693416 3.3431652
1.2911566 0.89771563 3.3042612
1.3267635 0.88193357 3.3022335
1.3758113 0.87153882 3.3038883
1.4235864 0.87156433 3.3142283
1.4750664 0.8822757 3.3233972
1.5255929 0.87356365 3.3273308
1.572711 0.87044364 3.3295083
1.6253837 0.87659556 3.3383305
1.6755302 0.87120068 3.3454022
1.7100194 0.87529927 3.3427672
1.2760468 0.94987595 3.3035145
1.3306159 0.91852474 3.305196
1.3767118 0.92581505 3.3106859
1.4235741 0.92927766 3.3207471
1.4738153 0.92522806 3.3252394
1.5236732 0.92061633 3.3273859
1.5691634 0.92230797 3.3298151
1.6217178 0.93207723 3.3414371
1.6710645 0.91322255 3.3480988
1.7181897 0.92391205 3.3497658
1.2887573 0.96223885 3.3016236
1.3234761 0.97180814 3.3052812
1.3770213 0.97836018 3.3145177
1.4261074 0.97403276 3.3177111
1.4741552 0.96795017 3.3230703
1.5248811 0.97836733 3.3279743
1.5701745 0.97767431 3.3347466
1.6262883 0.97350448 3.3362889
1.6797386 0.96658558 3.3480065
1.2634664 1.038271 3.3013134
1.3245008 1.0294997 3.309274
1.3667901 1.0264797 3.3072815
1.4241829 1.0225489 3.3204091
1.4726747 1.0255685 3.3246527
1.5223316 1.0264728 3.3313072
1.5805776 1.0242031 3.3388038
1.6206735 1.0249296 3.3415439
1.6579266 1.0493975 3.3496578
1.284066 1.0831984 3.3091047
1.3242255 1.0773393 3.311203
1.3766354 1.0726601 3.3121667
1.4266617 1.075747 3.3203762
1.4768798 1.078572 3.3273373
1.5257244 1.0690957 3.3305542
1.5759608 1.0781995 3.3375936
1.6273298 1.0734631 3.3449521
1.6664668 1.0747951 3.3470764
1.7000861 1.0713582 3.3451409
1.2821989 1.1238217 3.3072162
1.3249325 1.1243664 3.3150201
1.3705125 1.1244138 3.3137934
1.4226623 1.1234192 3.3151467
1.4800831 1.1261034 3.3267353
1.5232798 1.1241782 3.3271482
1.5661758 1.1275461 3.3369155
1.6192894 1.1315063 3.3448806
1.2787745 1.1691735 3.3050807
1.3271585 1.1761824 3.3131649
1.3750553 1.1773463 3.3195546
1.4295546 1.1740513 3.3230705
1.4728824 1.1731578 3.3271616
1.5243938 1.1747597 3.3311672
1.5756546 1.1744014 3.3373933
1.6224676 1.1750768 3.3447673
1.6598454 1.1726286 3.3459899
1.2467753 1.2427719 3.3099689
1.27022 1.2282954 3.3051255
1.3200886 1.229364 3.3124573
1.3801833 1.2194303 3.3146358
1.4282761 1.2290813 3.3208473
1.4737966 1.2301382 3.3297138
1.5244466 1.2195276 3.335041
1.5714095 1.2290581 3.3413353
1.6256653 1.2275332 3.3479955
1.1801374 1.2619674 3.3013821
1.2265851 1.2743217 3.3040767
1.2773522 1.2733517 3.3077028
1.328794 1.2753793 3.3171206
1.3743954 1.2803881 3.3192971
1.4241765 1.2725455 3.3227859
1.4804584 1.2815795 3.3352425
1.5228581 1.2770162 3.3383853
1.5709361 1.2894092 3.3473873
1.600695 1.2917694 3.3439169
1.1411356 1.3438284 3.3015211
1.1908966 1.3424191 3.302007
1.2244515 1.3242881 3.3045566
1.2733114 1.3214428 3.3096113
1.323669 1.3283945 3.3144238
1.3737346 1.3258201 3.3192921
1.4240943 1.3230988 3.3233273
1.4686365 1.3229221 3.3270462
1.5284733 1.3279766 3.3404839
1.5719168 1.3239865 3.3443928
1.1266456 1.390278 3.3008027
1.1999649 1.3692425 3.30268
1.2270595 1.3771343 3.3088195
1.2750635 1.3732221 3.307179
1.3297765 1.3784225 3.3164206
1.3756236 1.3741192 3.3250306
1.4219985 1.3795673 3.3266551
1.479602 1.3791355 3.3412316
1.5275545 1.3712045 3.3417475
1.5795255 1.3684776 3.3440568
1.6108539 1.3541328 3.3489296
1.1474668 1.41193 3.3013139
1.1779052 1.4260092 3.3043137
1.2264117 1.4231404 3.3090038
1.2772903 1.4240849 3.3123145
1.3243628 1.4236166 3.3222847
1.3775471 1.4266853 3.325346
1.4256622 1.4246154 3.3309634
1.4780871 1.4274267 3.3427768
1.5220188 1.4173187 3.3439655
1.5530682 1.4140046 3.3406165
1.0997713 1.495675 3.3018451
1.1235254 1.4809549 3.3081427
1.1748427 1.476539 3.3083498
1.2227303 1.472908 3.3109448
1.2697792 1.4745594 3.3160388
1.3234109 1.4714459 3.3183866
1.3721964 1.4749 3.3287928
1.4275525 1.4772167 3.3365841
1.4699922 1.4749575 3.3429365
1.5019355 1.4708378 3.3480392
1.1301054 1.5285553 3.3091288
1.1768509 1.5234782 3.3067312
1.2235649 1.529598 3.3123009
1.2757851 1.5224994 3.3193142
1.3221989 1.5206318 3.3208382
1.3716764 1.5284977 3.3299918
1.4217068 1.5254647 3.3382008
1.4773459 1.5275103 3.3442838
1.0883005 1.5738027 3.3000996
1.1306739 1.5648832 3.3036785
1.1768848 1.5783788 3.3110013
1.2254055 1.5753052 3.3142087
1.2761078 1.574423 3.3216879
1.3241035 1.5701298 3.3276587
1.3791828 1.5728204 3.3355637
1.4268934 1.5744821 3.3392403
1.4673955 1.5719761 3.3399456
1.0287451 1.6288848 3.300952
1.0943962 1.6266018 3.3026879
1.1253531 1.6253984 3.3058496
1.1698731 1.6233956 3.3120291
1.228344 1.6227944 3.3185744
1.2722746 1.625358 3.3212783
1.3243009 1.6255078 3.3300025
1.3757807 1.6243417 3.3354712
1.4281895 1.6236364 3.341464
1.4617617 1.6307724 3.3471727
1.0245315 1.671247 3.3044939
1.0861187 1.664107 3.3040247
1.1235812 1.6755657 3.3072865
1.1752154 1.6721033 3.3132942
1.2239021 1.6740097 3.3224263
1.27473 1.6725805 3.3232551
1.3207008 1.677251 3.3293037
1.3754977 1.6734362 3.3353813
1.4247543 1.6756138 3.3404949
0.99388999 1.7319577 3.3073525
1.0299916 1.7214475 3.3062561
1.0731997 1.7226008 3.3065326
1.123273 1.7242537 3.3091524
1.1761655 1.72667 3.3170195
1.2256384 1.7244104 3.3210859
1.2772784 1.7245722 3.3294511
1.3292738 1.727481 3.3355484
1.370911 1.7266573 3.3403215
1.4234977 1.7215281 3.347713
0.99807835 1.7836452 3.3035026
1.0243965 1.7737926 3.3075478
1.073342 1.7729784 3.3070796
1.1282151 1.7755101 3.3113303
1.1785929 1.775993 3.3253732
1.222086 1.7772428 3.3203633
1.2752239 1.7764273 3.3333418
1.3310934 1.7773374 3.3412516
1.3585173 1.775288 3.3438861
0.92812395 1.8359166 3.301863
0.97065121 1.8261172 3.3015001
1.029857 1.8306261 3.310569
1.0756409 1.8168049 3.3121505
1.1266768 1.8334353 3.3234317
1.174083 1.8125775 3.3215415
1.226482 1.8297455 3.3326752
1.2754972 1.8187795 3.337923
1.3266375 1.8293324 3.3471274
0.89392591 1.868309 3.3016372
0.9293893 1.8740937 3.3049195
0.9715358 1.8808285 3.3083291
1.0282321 1.8772874 3.3093455
1.0746536 1.8705603 3.3146496
1.1216061 1.8694792 3.3177013
1.1711121 1.8731018 3.328717
1.220071 1.8740207 3.3387971
1.2711271 1.8697544 3.3450587
1.3100146 1.8667588 3.3423219
0.80451709 1.9027815 3.3016236
0.86346316 1.9331474 3.3050308
0.92289257 1.926852 3.301497
0.9760012 1.9254955 3.3076918
1.0239575 1.9220978 3.3109336
1.0739785 1.9217961 3.3190703
1.1238165 1.9205456 3.3250551
1.1798111 1.9295652 3.336216
1.2270906 1.9215934 3.3417983
1.2657336 1.9260774 3.3465331
1.3277479 1.9296201 3.3493099
0.87537837 1.9666698 3.3022442
0.92528027 1.9773459 3.310693
0.9693777 1.9784445 3.3096886
1.0211334 1.9701287 3.3168113
1.0788988 1.9726766 3.3279917
1.1222806 1.9763411 3.330569
1.1723924 1.977522 3.3334107
1.2227507 1.9661533 3.3409851
1.2853646 1.9680731 3.3479767
1.3155015 1.971518 3.3453002
0.87216866 2.0224361 3.3062551
0.91885686 2.0192361 3.3052526
0.97318506 2.0288956 3.3186071
1.0274243 2.0187926 3.3201578
1.0781667 2.0283866 3.3246202
1.1304861 2.0168355 3.3278422
1.1801919 2.0277324 3.3381481
1.2188015 2.0025549 3.3453043
1.2743299 2.0357749 3.3469899
0.79999512 2.0614665 3.3024623
0.81974697 2.0747688 3.3013725
0.88085747 2.0730939 3.3059661
0.92544419 2.0702178 3.3114557
0.97681236 2.0825121 3.3208532
1.025628 2.0701954 3.3287499
1.0740668 2.0749245 3.3249099
1.1250672 2.0655117 3.3365777
1.1720448 2.0713954 3.338403
1.2194216 2.0787759 3.3465259
1.2688874 2.0701942 3.3464935
0.76620114 2.1041248 3.3015969
0.82734901 2.1396577 3.3091631
0.87424505 2.1335053 3.3092091
0.91854638 2.1217484 3.3113892
0.97810233 2.1282437 3.3213277
1.0271324 2.130146 3.3231752
1.0676823 2.120507 3.3297632
1.1225264 2.1245697 3.3360848
1.1744746 2.1249695 3.3433855
1.229453 2.1169765 3.3453457
1.2648977 2.1072433 3.3496516
0.77367908 2.1857319 3.3028097
0.83209461 2.1796358 3.3141847
0.87443715 2.1861744 3.3121376
0.92736506 2.169008 3.3163643
0.97407329 2.1845727 3.327127
1.0181129 2.1855969 3.3223345
1.0767332 2.1758852 3.3388557
1.1229998 2.1718264 3.3335483
1.1756567 2.1768832 3.3441627
1.2142462 2.1834917 3.348505
0.78245002 2.211602 3.3033717
0.82816035 2.2192276 3.3064768
0.87500483 2.2320132 3.3104503
0.9234786 2.2187743 3.3182778
0.9744963 2.2293236 3.3234463
1.0251548 2.2288122 3.3305113
1.0713009 2.2239158 3.3351593
1.1195751 2.2366619 3.345952
1.177508 2.2232571 3.3422451
1.2272676 2.2303736 3.3466225
0.77354884 2.2888231 3.3022344
0.82484883 2.2756553 3.3068671
0.87629855 2.2802663 3.3111031
0.92200392 2.2769096 3.311554
0.97480679 2.2742267 3.3189423
1.0229719 2.2753232 3.3248985
1.0703249 2.2733352 3.3298626
1.124965 2.2766712 3.3358397
1.1746247 2.2738655 3.3431735
1.2271723 2.2768142 3.3464887
1.2780993 2.2697287 3.347373
1.3122318 2.2887692 3.346899
0.78482205 2.303978 3.3038306
0.82318622 2.3073611 3.3014157
0.8705799 2.324271 3.3042271
0.92339873 2.3286903 3.305769
0.9733544 2.3235302 3.3125391
1.0272285 2.3289807 3.316164
1.0749693 2.321105 3.3231962
1.1188016 2.3335254 3.3307872
1.1695516 2.3271143 3.3337164
1.2221026 2.3299398 3.3365731
1.2700036 2.315783 3.3451352
1.3326781 2.3463182 3.3491597
0.94451278 2.3502202 3.3009136
0.98534572 2.3579924 3.3029013
1.0258583 2.3644071 3.3024914
1.0769613 2.3633921 3.3075733
1.1207341 2.3757541 3.3145299
1.1714994 2.3692429 3.317179
1.2220232 2.3776429 3.3165512
1.2685033 2.3738153 3.3293264
1.323738 2.3767507 3.3372161
1.3752941 2.3844578 3.3393586
1.4226856 2.3867033 3.3407655
1.4534411 2.3792529 3.3393431
1.2346917 2.4029598 3.3024552
1.2555231 2.406064 3.3007126
1.3218492 2.4024518 3.3152113
1.381065 2.4091871 3.3198297
1.4255435 2.412915 3.3127899
1.4706167 2.4088285 3.3301747
1.5229702 2.4160309 3.3292758
1.5839999 2.4165552 3.3283541
1.6256155 2.4170327 3.334631
1.677079 2.4273498 3.3255546
1.7186272 2.4261963 3.3331542
1.7701559 2.4281542 3.3133268
1.8251317 2.4306033 3.32021
1.8810949 2.4349079 3.3199127
1.9318461 2.4376857 3.3239119
1.9708441 2.4378953 3.3290255
2.0320954 2.4397175 3.3253808
2.0772107 2.434176 3.316263
2.1208181 2.4384434 3.3257329
2.1720533 2.4390764 3.3239784
2.2191541 2.4387817 3.3315287
2.2700486 2.445281 3.3316898
2.3222249 2.4451361 3.3179865
2.3803904 2.4403675 3.3276832
2.4277656 2.4453964 3.3451636
2.458905 2.4444499 3.3231649
2.5149517 2.4462643 3.3477654
2.576453 2.4424849 3.3280921
2.628336 2.4497459 3.3374531
2.6828589 2.4486837 3.3274438
2.8081419 2.4486036 3.3299634
2.1655128 2.4525216 3.3006096
2.3538322 2.4558668 3.3008559
2.4141781 2.4530547 3.3126626
2.5242963 2.455744 3.3221877
2.5854743 2.4516838 3.3114097
2.6524174 2.451834 3.3250828
2.7729254 2.4593384 3.3163121
2.8334801 2.451318 3.3171976
2.8634419 2.4579606 3.309521
2.9409833 2.463223 3.3273764
2.9745698 2.4610362 3.3296549
3.0247948 2.4537718 3.3071811
1.6332141 -0.45018926 3.3528128
1.823795 -0.45882991 3.3582115
1.8915204 -0.46981716 3.3753519
1.9274899 -0.4735592 3.3669097
1.9808096 -0.46203181 3.376509
2.0062282 -0.45934063 3.3685627
1.6331023 -0.43283346 3.3542066
1.672966 -0.41676021 3.3537903
1.7306705 -0.42023012 3.3656864
1.7769918 -0.42289174 3.373853
1.8233397 -0.42710039 3.3718483
1.8755461 -0.42724928 3.3768866
1.9289533 -0.42747965 3.3824184
1.9748617 -0.42816749 3.3799424
2.0149436 -0.42825279 3.3631871
1.6496201 -0.36334819 3.3523264
1.6823013 -0.37348443 3.3556836
1.7279664 -0.37584418 3.3641586
1.7714558 -0.368862 3.3677998
1.8185879 -0.3712846 3.3763535
1.8718534 -0.37126127 3.379956
1.9268333 -0.37838 3.3829551
1.9752868 -0.37749362 3.3812363
2.0148792 -0.37813255 3.3713677
1.5881753 -0.34399551 3.3515308
1.6346954 -0.3280578 3.351918
1.6804279 -0.32965532 3.3551941
1.7255672 -0.33163151 3.3627656
1.7719822 -0.32498854 3.3720634
1.8291336 -0.32307148 3.3738494
1.8819965 -0.3199189 3.3774831
1.9311781 -0.32215783 3.3864992
1.976324 -0.323663 3.3871298
2.0176518 -0.32131559 3.3721769
1.6477416 -0.28509575 3.3538344
1.6790124 -0.27731481 3.3557136
1.725729 -0.27924347 3.3664858
1.7687069 -0.28051078 3.3686402
1.8233052 -0.28025654 3.3764508
1.8840784 -0.27572545 3.3840771
1.9297911 -0.27152306 3.3834083
1.9723109 -0.26909837 3.3837106
2.0156682 -0.26956451 3.3721874
1.5838171 -0.2057154 3.3502367
1.6382316 -0.21828716 3.3516788
1.6792749 -0.22529709 3.3589981
1.7251372 -0.22674561 3.368124
1.7756169 -0.23007746 3.3694539
1.8310889 -0.2269942 3.3774433
1.8815012 -0.23087426 3.3818395
1.924834 -0.22842917 3.3847938
1.9723159 -0.22417614 3.3861294
2.0209241 -0.22456481 3.3725166
1.6274537 -0.17208731 3.3530464
1.6782354 -0.17312056 3.3590724
1.7238299 -0.17421104 3.3677733
1.7718872 -0.17260902 3.3712323
1.8258662 -0.17843433 3.3762534
1.8816714 -0.17751342 3.384465
1.9252744 -0.17823173 3.3838465
1.9731754 -0.1793253 3.3895309
2.0201237 -0.17948081 3.3731508
1.584908 -0.11996071 3.3554397
1.6308801 -0.12290066 3.3557057
1.6786126 -0.1211189 3.361418
1.7212604 -0.12167135 3.364372
1.7710081 -0.12491488 3.3710327
1.8256232 -0.12102859 3.3775873
1.8802633 -0.12404738 3.3836286
1.9275237 -0.12479363 3.3895104
1.9744272 -0.12548314 3.393445
2.0160019 -0.12579471 3.3871014
2.2937007 -0.1105953 3.3729134
1.6292795 -0.068617888 3.3534739
1.677044 -0.069008224 3.359293
1.721487 -0.069388978 3.3658264
1.774879 -0.07203605 3.3730302
1.8294512 -0.067779221 3.3793454
1.8821201 -0.070771582 3.3880653
1.9269981 -0.071104422 3.3896723
1.9730862 -0.071458019 3.3922474
2.0326447 -0.077862754 3.3904679
2.0501304 -0.053822905 3.3880618
2.2983236 -0.092625692 3.3986835
2.3100796 -0.068953425 3.3699284
1.5824318 -0.025432924 3.3515663
1.6436082 -0.034192123 3.353739
1.6757004 -0.025644956 3.3570213
1.7210089 -0.025793208 3.3653293
1.7722638 -0.024183603 3.3715236
1.8267605 -0.027861571 3.3781598
1.8822165 -0.026290573 3.3886874
1.9232556 -0.023398766 3.390034
1.9736981 -0.026529836 3.3937566
2.0279469 -0.017593 3.3895819
2.0504358 -0.035726205 3.3887305
2.3186553 -0.027243286 3.3736324
1.6222147 0.017547566 3.3510952
1.6752062 0.0176383 3.3560238
1.7192636 0.017754799 3.3618784
1.7700077 0.015378447 3.3706512
1.8261886 0.020261465 3.3800478
1.8809429 0.018196447 3.3863575
1.9276242 0.01832048 3.3912232
1.9681051 0.013930956 3.3938205
2.033937 0.021130089 3.3886178
2.3218758 0.019228047 3.3782871
1.6441137 0.069373578 3.3542793
1.6768793 0.069658354 3.3588517
1.7207435 0.070048176 3.3642457
1.7714727 0.068034261 3.3729527
1.8262457 0.073255077 3.3795838
1.8805405 0.071539558 3.3850782
1.9285702 0.072028123 3.3923378
1.9648274 0.054395728 3.3975444
2.0299735 0.077326298 3.3922839
2.0502357 0.072896823 3.387856
2.3172152 0.074938558 3.370858
1.6463966 0.10402609 3.3582935
1.6765338 0.12161678 3.3570526
1.7224326 0.12244385 3.3664467
1.7715255 0.12067007 3.3719432
1.8275568 0.12632979 3.380827
1.8804859 0.12488271 3.3838093
1.9296689 0.12579434 3.3930521
1.974703 0.12638851 3.3936589
2.0249937 0.1271072 3.395541
2.2996604 0.11256044 3.3999958
2.3243709 0.13072224 3.3675306
1.6441618 0.19019254 3.3509603
1.6735142 0.17368339 3.3581109
1.7204772 0.17455769 3.3609216
1.7666408 0.17570932 3.3694279
1.8239852 0.17703311 3.3774583
1.879149 0.17809141 3.3795979
1.9285663 0.17940103 3.3892596
1.9745311 0.18035264 3.3915024
2.0197816 0.18498895 3.39502
2.3202319 0.15001433 3.3918061
2.5320351 0.17242342 3.372108
1.7924097 0.21072887 3.356925
1.8239074 0.21134269 3.3561416
1.8645207 0.21197972 3.3517978
1.9105997 0.21320474 3.3562033
1.8601729 0.33620852 3.3559647
2.0173545 0.34194472 3.3586431
1.875842 0.36763433 3.3523707
1.9188021 0.39220393 3.3585353
1.9708766 0.38654909 3.3721802
2.0220332 0.3771601 3.3745244
2.0708556 0.3736926 3.3875527
2.1210644 0.36701274 3.3933752
2.2334542 0.37205318 3.3985531
2.4172115 0.37765002 3.3679352
2.4916563 0.37376603 3.3971617
1.8452607 0.44291353 3.3590238
1.8807675 0.43039426 3.3615899
1.9269081 0.42962518 3.3694401
1.9722995 0.42277873 3.371372
2.0222576 0.42574555 3.3788466
2.0748975 0.42005396 3.3900738
2.1166582 0.44130582 3.3987055
2.1637216 0.42498964 3.3991284
2.2353954 0.42815492 3.3963928
2.382813 0.42533505 3.3892698
2.4390395 0.43812019 3.3928394
1.7802702 0.49270365 3.3522038
1.8266206 0.48316562 3.353447
1.8789669 0.47705573 3.3615422
1.9258118 0.47407785 3.3630631
1.9784542 0.46917772 3.3773811
2.0255904 0.47176909 3.3798449
2.0788589 0.47568688 3.3910067
2.1174889 0.46904424 3.3971987
2.2394097 0.4661676 3.3987017
2.2886689 0.46865246 3.3973138
2.3119314 0.46958774 3.394109
2.379215 0.46046555 3.3929584
2.4143329 0.49400261 3.3893595
1.8240982 0.5312615 3.3567877
1.8811836 0.52302939 3.3630688
1.9331164 0.52075148 3.3708107
1.9836655 0.52462608 3.3802545
2.0320809 0.52783275 3.3845365
2.0822484 0.52222627 3.3914244
2.1188519 0.53369766 3.3921022
1.6820402 0.59452671 3.3521674
1.7427812 0.57105935 3.3519878
1.7758131 0.58203298 3.3533621
1.8187033 0.57566768 3.3546846
1.8683174 0.56745785 3.3588874
1.9265455 0.57526058 3.3722358
1.9712107 0.58366334 3.3808231
2.0150101 0.57361752 3.389003
2.0655789 0.57759279 3.3957908
2.508831 0.59334433 3.3577266
1.6833357 0.61247587 3.3524473
1.7461002 0.62493348 3.3514376
1.780524 0.62185967 3.3530648
1.8241793 0.6217916 3.3588822
1.8710445 0.62561834 3.3648453
1.9186814 0.62653017 3.3752677
1.9681517 0.62486213 3.379823
2.019021 0.62034088 3.3896477
2.0604568 0.64297837 3.3979304
2.5247521 0.61634952 3.3762262
1.7341541 0.6570968 3.3509057
1.7742655 0.67430425 3.3529196
1.8308574 0.67753428 3.3634751
1.8778129 0.67269272 3.3705664
1.9314747 0.67291027 3.383601
1.9738668 0.6720531 3.3830271
2.0245812 0.67688304 3.3909981
2.0723953 0.67753094 3.3971076
1.6917481 0.72979784 3.3524227
1.7729403 0.72504395 3.359551
1.8221022 0.7310394 3.3589873
1.8827791 0.71941394 3.3725071
1.9305042 0.72384548 3.3779144
1.9781994 0.72811967 3.3818953
2.032249 0.72533333 3.3966198
2.0891774 0.70154661 3.3979089
2.5396602 0.73611259 3.3772199
1.7702956 0.77685821 3.3547335
1.8182888 0.77778101 3.3645406
1.8690605 0.77092141 3.3705621
1.9210197 0.77913237 3.3784778
1.9739277 0.77546567 3.3864903
2.0246468 0.77182251 3.3957336
2.0656259 0.78803086 3.3965805
2.1429558 0.76293302 3.3978491
1.7807391 0.82434559 3.3626602
1.8259517 0.8259387 3.3707409
1.8682492 0.8260051 3.3722825
1.9190165 0.82615626 3.3800559
1.9668713 0.82194233 3.3858817
2.0183287 0.8280893 3.3947363
2.0541687 0.82221651 3.3975449
1.7406281 0.87739944 3.3546839
1.7783824 0.87589318 3.3615584
1.8291085 0.87855035 3.3710701
1.8800236 0.87303793 3.3772233
1.927075 0.87518793 3.3855388
1.9736631 0.87689483 3.3917546
2.0222516 0.87576246 3.3925076
2.0789478 0.87762797 3.3991361
2.1101258 0.89494437 3.3981938
1.6812228 0.92736381 3.3520467
1.7192538 0.92445564 3.351907
1.7698327 0.92484021 3.3611128
1.8264856 0.92224038 3.3656178
1.8805205 0.92938346 3.3799248
1.9299421 0.92847902 3.3842361
1.982038 0.92026716 3.3939815
2.0329106 0.91297704 3.3969135
2.0755975 0.91996789 3.3948936
2.6087337 0.90148473 3.3612003
1.6849587 0.99626839 3.3526092
1.7224324 0.97703755 3.3516879
1.7739227 0.97310209 3.3620515
1.8180729 0.97490817 3.367779
1.8611972 0.97595578 3.3705311
1.9277056 0.97513115 3.3807902
1.9818789 0.96459597 3.3911772
2.0016291 0.98056126 3.3956769
2.0729516 0.97570133 3.3987114
1.6727175 1.0212854 3.3520246
1.7285422 1.0265404 3.3562136
1.7788671 1.0272578 3.3642466
1.823507 1.0230935 3.3677423
1.8751777 1.0251381 3.3778176
1.9240655 1.0244339 3.3809664
1.9767648 1.0297509 3.3951213
1.6820081 1.0712208 3.3513699
1.7189534 1.076494 3.3569171
1.7707514 1.0782319 3.3638098
1.8328825 1.0738572 3.3743041
1.8787677 1.0767114 3.3811612
1.9235092 1.0733935 3.3845348
1.9788719 1.0664583 3.3973107
1.6376432 1.1109897 3.3510158
1.6761768 1.1244583 3.3528476
1.723158 1.1252358 3.3582458
1.7743124 1.1283649 3.3701777
1.8218606 1.1278505 3.3733022
1.880867 1.1240879 3.382108
1.9241693 1.1402938 3.3833435
1.9542011 1.1331614 3.3989875
1.6918299 1.1748438 3.3578219
1.7303311 1.1751242 3.3604949
1.777921 1.1802895 3.3730609
1.8292862 1.1743526 3.3723845
1.8711625 1.177453 3.379817
1.9206835 1.1761003 3.3889532
1.9673806 1.1773027 3.3904712
1.597414 1.2354095 3.3523209
1.6290424 1.2300867 3.3548706
1.6719975 1.2263047 3.3582747
1.7208971 1.2207487 3.3599327
1.7741028 1.2272801 3.3704014
1.8292395 1.2255392 3.3851638
1.8835913 1.224843 3.3870227
1.9268938 1.2238458 3.3922944
1.9734432 1.2217284 3.397022
1.5702072 1.2709081 3.3509667
1.6232541 1.2723318 3.3535216
1.6789335 1.2766461 3.3594332
1.722422 1.2730161 3.362361
1.7705678 1.2723916 3.3730967
1.8235714 1.2693297 3.3831336
1.8776498 1.2708572 3.3889582
1.929879 1.2728324 3.3929348
1.9646297 1.2739429 3.3946533
2.0210423 1.2820437 3.3960454
1.6273143 1.3232785 3.3576057
1.6705967 1.3217046 3.3606791
1.7227782 1.3257244 3.3710091
1.7733004 1.3257573 3.3730259
1.825967 1.3226457 3.3821826
1.8748597 1.3218323 3.3908875
1.9185629 1.3238711 3.3914609
1.9570155 1.3240838 3.3947377
2.0303824 1.3353224 3.3973475
1.5998067 1.3963459 3.3589251
1.6277616 1.3788776 3.3562508
1.6752745 1.3720874 3.3654389
1.7219515 1.3723222 3.3683846
1.7734509 1.3732406 3.3720825
1.8277404 1.3706816 3.3849201
1.8849161 1.3756919 3.3946264
1.9374753 1.3737943 3.3974741
1.9706937 1.3636231 3.3939612
1.5443412 1.4497098 3.3583465
1.5800233 1.4220583 3.3532224
1.619964 1.4230826 3.3583283
1.6724792 1.4270688 3.3706973
1.7281761 1.4291697 3.3742733
1.7700684 1.4217926 3.3776104
1.8293172 1.4239001 3.3922629
1.8704243 1.4257083 3.3952453
1.9032199 1.4104097 3.3976033
1.9612328 1.4333199 3.3983862
2.0319142 1.4092152 3.3989804
1.5319105 1.473514 3.3537188
1.5778126 1.4799908 3.3648696
1.6215068 1.4712821 3.3610501
1.6763471 1.4728981 3.3726757
1.7190653 1.4748418 3.3727131
1.7740422 1.4765949 3.3872442
1.8248098 1.4724282 3.3926454
1.8776493 1.4782825 3.3926229
1.9188129 1.4978029 3.3999157
1.5195869 1.5228126 3.3544497
1.5700771 1.5222183 3.3563721
1.6242954 1.5253557 3.3660734
1.676126 1.5243025 3.3711405
1.7265997 1.5291488 3.3808339
1.769521 1.5226682 3.3857598
1.8151459 1.5180835 3.3946731
1.8627865 1.5097117 3.3981929
1.9358333 1.5138823 3.3974972
1.965206 1.5043263 3.3974812
1.5276289 1.5784016 3.3589172
1.5746663 1.5705954 3.3662663
1.6203643 1.57937 3.3715863
1.6677632 1.5709538 3.3769987
1.7260231 1.5800546 3.381227
1.776558 1.5756165 3.3823779
1.8228348 1.5734028 3.3948574
1.8674519 1.574258 3.3970068
1.9060576 1.5597413 3.3991334
1.4323804 1.6284103 3.3513885
1.4866791 1.6198474 3.362987
1.5238909 1.6225765 3.3617229
1.5760528 1.6242601 3.3676956
1.627905 1.6238463 3.3735757
1.6768551 1.6280006 3.3809953
1.7233671 1.618191 3.3811836
1.7687083 1.6328006 3.3850749
1.8248333 1.6248126 3.3965218
1.3703026 1.6940244 3.351433
1.4856834 1.6764181 3.3610852
1.5246097 1.667926 3.3627913
1.5713733 1.6785648 3.3709855
1.6235045 1.6726835 3.378037
1.6839371 1.6798629 3.3832569
1.7248421 1.6718547 3.3845997
1.7737483 1.6750668 3.388633
1.8181038 1.6695766 3.3944778
1.8569217 1.6809958 3.3953497
1.3984339 1.7428355 3.3551064
1.4290698 1.7466646 3.3534753
1.4708029 1.7249365 3.3636091
1.5225987 1.7190552 3.365123
1.5783564 1.723266 3.3712974
1.627051 1.7261367 3.3850513
1.6722734 1.7247202 3.3901029
1.7269717 1.7260437 3.3889024
1.7822318 1.7273706 3.3958006
1.8410981 1.7126962 3.3982158
1.8587693 1.701792 3.3911128
1.3229533 1.7949736 3.350246
1.3821783 1.7730386 3.3548625
1.4203745 1.777606 3.3570011
1.4702451 1.7733929 3.3596725
1.5267385 1.7763284 3.3755469
1.5710282 1.7728854 3.378191
1.6312746 1.7779268 3.3836262
1.6765897 1.7746229 3.3856511
1.7259691 1.778945 3.3912435
1.762711 1.7777324 3.3994694
1.8094385 1.7861576 3.3994446
1.3260236 1.8175023 3.3503716
1.3776133 1.8158622 3.353756
1.4219236 1.8254538 3.3593926
1.4747883 1.8243191 3.362705
1.5291528 1.8243703 3.3676763
1.5747604 1.8245437 3.3757222
1.6227024 1.8267857 3.38729
1.6698263 1.8222735 3.3841186
1.7218475 1.8226929 3.3895864
1.7836362 1.811546 3.3989298
1.817857 1.8330662 3.3987486
1.3344769 1.8753011 3.3519449
1.3697963 1.87648 3.3659384
1.4221997 1.8750777 3.3690929
1.4714476 1.8793325 3.3689947
1.5223792 1.867664 3.3709641
1.5787051 1.8811128 3.3786674
1.6260595 1.8769567 3.3909945
1.6784831 1.8800622 3.3945179
1.7190146 1.8681643 3.3900335
1.286513 1.9172586 3.3525817
1.3144516 1.9220568 3.3535645
1.3780935 1.9263958 3.3629775
1.4187728 1.9203953 3.3697135
1.4772121 1.9280627 3.3751512
1.5268637 1.9198915 3.3778491
1.5753677 1.9329933 3.3870616
1.6282189 1.9201674 3.3887367
1.6795504 1.9328285 3.3902335
1.7180752 1.9161282 3.3938625
1.2491585 1.9880868 3.3528259
1.2754654 1.984291 3.3523684
1.3267906 1.9558625 3.3560648
1.3736728 1.9790763 3.3635204
1.4243939 1.9656286 3.3659072
1.4695644 1.9758257 3.370471
1.5229428 1.9754452 3.3833339
1.5770699 1.9823135 3.386605
1.6242161 1.9651086 3.3864012
1.6733572 1.9779007 3.3933182
1.7264211 1.9544669 3.3970149
1.2245686 2.0306654 3.3523169
1.2729554 2.0149176 3.3522871
1.3269845 2.0168772 3.3612387
1.3695979 2.0244529 3.3618927
1.4233072 2.0244796 3.3665745
1.4802577 2.0283146 3.3769825
1.5238301 2.0261316 3.3802383
1.5696747 2.0264192 3.3872659
1.6201346 2.0208468 3.3901932
1.6756824 2.0406997 3.3982961
1.2378808 2.0559578 3.3515284
1.3248302 2.0751026 3.3598197
1.3779238 2.0746675 3.3639386
1.4232929 2.076117 3.3738196
1.4677109 2.0755866 3.3800459
1.5206674 2.0730672 3.3792331
1.5792077 2.0773914 3.3889418
1.6237085 2.0752463 3.3912401
1.6646265 2.0689993 3.3946579
1.7002553 2.0664458 3.3912525
1.2111372 2.1495917 3.3545651
1.2846041 2.131705 3.3582299
1.321014 2.1332991 3.3641357
1.3662894 2.123909 3.3691859
1.4205641 2.1212072 3.3756955
1.4754294 2.1249883 3.3785574
1.5249152 2.1218221 3.377579
1.5757689 2.1244261 3.3865259
1.6263828 2.1238518 3.3891981
1.6808541 2.1374173 3.3932853
1.2332481 2.1647668 3.3530927
1.2724432 2.1716816 3.3574924
1.3230286 2.1762424 3.3581951
1.3728559 2.1724081 3.3657222
1.4236945 2.1694462 3.3741741
1.4776058 2.1770453 3.3778641
1.529284 2.1854842 3.3788023
1.5745296 2.1749396 3.3882983
1.6229061 2.179086 3.3910911
1.6656685 2.1726165 3.3948462
1.724256 2.1747253 3.3985503
1.1377381 2.2100382 3.3521442
1.2383813 2.2022567 3.3522027
1.2729186 2.2223492 3.3545079
1.3272129 2.2271011 3.3597343
1.3810805 2.223959 3.3655415
1.4253107 2.2233164 3.3712819
1.4682233 2.2200811 3.37272
1.5154099 2.2325311 3.3775287
1.5740311 2.2270188 3.3911538
1.6087688 2.2344618 3.391077
1.3265563 2.2785242 3.3536322
1.37085 2.2658913 3.3580341
1.4302464 2.2814176 3.3668642
1.4765068 2.2716215 3.370487
1.5218817 2.2828455 3.3807003
1.5691111 2.2733772 3.3839667
1.6211154 2.2743316 3.3882878
1.6627309 2.2741475 3.3943748
1.7021533 2.2971041 3.3957865
1.3208443 2.3296137 3.354264
1.3725049 2.3190353 3.355515
1.4196869 2.3328354 3.3621235
1.477298 2.3230076 3.3646228
1.5302112 2.3232641 3.3721416
1.578029 2.3259027 3.380877
1.6261058 2.3281989 3.3887067
1.6734741 2.3288124 3.3936434
1.7183021 2.3154173 3.3980935
1.3787372 2.358798 3.3539729
1.4231474 2.3678899 3.3533792
1.473907 2.3683131 3.3649333
1.5299778 2.3788249 3.3635399
1.5834695 2.3736553 3.3694448
1.6343853 2.3800733 3.3827004
1.6808307 2.3792138 3.3851604
1.7237465 2.3799725 3.3915689
1.7802612 2.39501 3.3931429
1.8904527 2.3987634 3.3974493
1.5725508 2.4019599 3.3535681
1.644619 2.4004409 3.3672519
1.6791487 2.4069414 3.3638086
1.7321396 2.4135783 3.3678253
1.7771066 2.4211578 3.3687341
1.828724 2.4145033 3.3733804
1.8763714 2.4245212 3.3766232
1.9220538 2.4314926 3.375046
1.9786375 2.4292612 3.3843174
2.0258431 2.4363616 3.3730111
2.0843713 2.435065 3.3823688
2.1290889 2.4285572 3.3806694
2.1810255 2.4398861 3.3731098
2.2223299 2.4295578 3.3832941
2.2848883 2.440038 3.3670111
2.320833 2.4376867 3.377578
2.3716102 2.4319241 3.3817332
2.4296021 2.4365122 3.383059
2.4824691 2.4353306 3.3757019
2.5356426 2.4445505 3.3892236
2.6345043 2.443706 3.3808603
2.6714127 2.4473305 3.3630576
2.7699606 2.4429317 3.3769841
2.9746985 2.4457176 3.3944039
2.5790923 2.4548132 3.3816204
2.732866 2.4548824 3.3772385
2.852098 2.4643087 3.3964915
2.9113169 2.4535902 3.3937705
2.9624157 2.4583964 3.366082
