ply
format ascii 1.0
comment PCL generated
element vertex 1497
property float x
property float y
property float z
element camera 0
property float view_px
property float view_py
property float view_pz
property float x_axisx
property float x_axisy
property float x_axisz
property float y_axisx
property float y_axisy
property float y_axisz
property float z_axisx
property float z_axisy
property float z_axisz
property float focal
property float scalex
property float scaley
property float centerx
property float centery
property int viewportx
property int viewporty
property float k1
property float k2
end_header
-0.42220065 0.77619839 3.1075089
-0.37694466 0.77698249 3.1146245
-0.32365316 0.77704006 3.1188552
-0.27041203 0.77726245 3.1231472
-0.22482856 0.77774245 3.1274879
-0.1793246 0.7787689 3.1336231
-0.12601219 0.77946502 3.1381481
-0.072625719 0.78064656 3.1440332
-0.042090565 0.78189147 3.1494484
-0.45332161 0.82308704 3.1013486
-0.42355245 0.82448268 3.1094961
-0.37829363 0.8256489 3.1178622
-0.32478866 0.82563663 3.1218855
-0.27142856 0.8260718 3.1269722
-0.22559738 0.82627863 3.1302059
-0.17972414 0.82639813 3.1326663
-0.12634388 0.82760209 3.1389894
-0.072810017 0.8286497 3.1441069
-0.028735803 0.82763857 3.1483886
0.0039012947 0.81365174 3.1487668
-0.50155509 0.8885076 3.1007376
-0.45889196 0.87598515 3.1036696
-0.42496717 0.87319857 3.1114128
-0.37939128 0.87404817 3.118443
-0.32568559 0.87392688 3.1220903
-0.27210385 0.874152 3.126374
-0.22620106 0.87452394 3.1302195
-0.18023337 0.87477005 3.1330767
-0.12669885 0.87599832 3.1392362
-0.073014066 0.87703991 3.1441467
-0.028799962 0.8777231 3.1470807
-0.50302321 0.9372009 3.1005611
-0.46267349 0.92104465 3.1051781
-0.42628315 0.92200303 3.1120019
-0.37518406 0.92481154 3.1210101
-0.32223779 0.92169076 3.1249418
-0.27316552 0.92372841 3.1295476
-0.22688991 0.92335099 3.1307752
-0.17326033 0.92454153 3.1371107
-0.11944643 0.92540157 3.1417496
-0.07325539 0.92627263 3.1456461
-0.026942644 0.91688758 3.147599
0.0039217025 0.91076177 3.1491055
-0.46537951 0.96952134 3.1032486
-0.42777735 0.97149396 3.1133227
-0.37403822 0.97206783 3.1198852
-0.32040536 0.97314167 3.1274376
-0.27400371 0.97290349 3.129657
-0.22760752 0.97257912 3.1311357
-0.17371196 0.97331399 3.1358483
-0.11979091 0.9744997 3.1413937
-0.073480785 0.97552669 3.1456814
-0.042508006 0.9676488 3.1473153
-0.47307858 1.0217934 3.1047463
-0.42924321 1.0212281 3.1137836
-0.37538329 1.0220418 3.1210282
-0.32143643 1.0227603 3.1273863
-0.27482376 1.0222787 3.1289141
-0.22831586 1.0220609 3.1308222
-0.17436129 1.0235076 3.1375873
-0.12015886 1.0240499 3.1410091
-0.073721863 1.0254475 3.1462758
-0.036477972 1.0295703 3.1491666
-0.50784338 1.0702746 3.1026943
-0.47427955 1.0651264 3.1052289
-0.42546433 1.0737467 3.1168542
-0.37200823 1.0705696 3.1216595
-0.32270229 1.0734602 3.1289835
-0.27610496 1.0737205 3.1328008
-0.22944294 1.0737697 3.1355221
-0.17492497 1.0734364 3.1369755
-0.12067281 1.0751299 3.1436422
-0.072063804 1.0762715 3.1480105
-0.042772189 1.0593222 3.1480627
-0.47086668 1.1211017 3.1073811
-0.42451429 1.1220306 3.1145961
-0.37050527 1.1236149 3.123812
-0.32392105 1.1243939 3.1295679
-0.27713761 1.1245738 3.1331716
-0.23012747 1.1238327 3.1337168
-0.17575546 1.1254723 3.1407185
-0.12112875 1.1260842 3.1442223
-0.085944451 1.1221225 3.1458261
-0.47517312 1.1720805 3.1064138
-0.42426112 1.1725408 3.1169784
-0.37215158 1.1756347 3.1257319
-0.32524028 1.1759768 3.1302764
-0.27823898 1.1761336 3.133811
-0.22560492 1.1781559 3.1379654
-0.17181164 1.1758548 3.1429608
-0.12361844 1.1761354 3.1464379
-0.51263946 1.2056504 3.10005
-0.47227123 1.2222849 3.1067436
-0.42050567 1.2265679 3.1188991
-0.37341991 1.2268276 3.1237497
-0.32659721 1.228156 3.1308203
-0.27934262 1.2279983 3.1336112
-0.22424294 1.2280481 3.1368017
-0.16933076 1.2293204 3.1424544
-0.13002227 1.2301223 3.1458273
-0.50815636 1.280647 3.1026142
-0.46898577 1.2773485 3.109673
-0.42275643 1.2805519 3.1222334
-0.37746954 1.2790771 3.1281171
-0.32794562 1.2806678 3.1305127
-0.27852052 1.2785192 3.1339951
-0.22518574 1.2806392 3.1367531
-0.16978532 1.2720917 3.1399031
-0.12578605 1.2761228 3.1469564
-0.50218892 1.3290433 3.1024463
-0.47096878 1.3302522 3.1087527
-0.42411765 1.324321 3.1206772
-0.3744131 1.3213793 3.127249
-0.32967433 1.3271313 3.135397
-0.27970296 1.3236701 3.1358476
-0.22265692 1.3241236 3.1378734
-0.17070675 1.3167441 3.1460695
-0.12306795 1.313434 3.1485882
-0.09119755 1.3016181 3.1495588
-0.5043242 1.3744215 3.103363
-0.47314385 1.3761616 3.1108322
-0.42592293 1.3697939 3.1217906
-0.37822175 1.370054 3.1267333
-0.33073866 1.3713082 3.1334312
-0.27484551 1.3707833 3.1360171
-0.2192301 1.3718481 3.1415706
-0.17158717 1.3734212 3.1472874
-0.13937201 1.3547024 3.1469591
-0.51377404 1.4259162 3.1074672
-0.47522244 1.4221485 3.1116405
-0.42840785 1.4258838 3.1247811
-0.38053042 1.4264832 3.1305206
-0.32486114 1.4283494 3.1390855
-0.27057916 1.4256129 3.1417773
-0.21875206 1.4295402 3.1482496
-0.17781067 1.4285656 3.1479456
-0.51807833 1.4703341 3.1112204
-0.48059565 1.4750268 3.1170082
-0.43096498 1.4746424 3.1300128
-0.37476954 1.4754572 3.1369271
-0.3205463 1.4783858 3.1389375
-0.27342564 1.4749982 3.1474357
-0.2175529 1.4712012 3.1483974
-0.17314708 1.4717115 3.1481116
-0.5208531 1.5186483 3.1139526
-0.47579131 1.5245552 3.1226797
-0.42281532 1.5210639 3.1332335
-0.36875498 1.524222 3.1411519
-0.31829381 1.5271389 3.1462765
-0.28763098 1.5238594 3.1464701
-0.52096611 1.5802953 3.1174407
-0.47385478 1.5741717 3.1238356
-0.41951832 1.572703 3.138191
-0.37395176 1.57133 3.1434999
-0.31798929 1.5824354 3.1470454
-0.28917462 1.5727575 3.1489697
-0.51935935 1.6280705 3.1216938
-0.47025964 1.6245748 3.1287136
-0.42437765 1.6242865 3.1438262
-0.37277874 1.6228112 3.1457179
-0.32374018 1.6315289 3.1476474
-0.29003164 1.6101114 3.1463397
-0.52075225 1.6735042 3.1141601
-0.47245705 1.6768203 3.1260834
-0.42662075 1.6765125 3.1411471
-0.37461138 1.6636829 3.1486185
-0.52387071 1.7248226 3.1162064
-0.47491586 1.7268776 3.1258156
-0.42474455 1.7265285 3.1444354
-0.39381218 1.7250961 3.1495194
-0.52549821 1.7632985 3.1120825
-0.47638819 1.7737241 3.1182466
-0.4389078 1.7796319 3.1403096
-0.39542738 1.7654865 3.1487772
-0.46339393 1.8291668 3.1262105
-0.44160947 1.8227993 3.1356561
-0.46443763 1.8751726 3.1144836
-0.43361637 1.8747319 3.1428716
-0.45117629 1.9234723 3.1249619
-0.42718849 1.920972 3.1413374
-0.43375355 1.9739078 3.1377525
-0.4273746 2.0275526 3.1467788
-0.42698362 2.0796247 3.1450989
-0.4292821 2.1255038 3.1439228
-0.39401838 2.1137838 3.1475589
-0.43728092 2.1771367 3.1376066
-0.39771843 2.1861088 3.1490672
-0.43637973 2.2187297 3.1291437
-0.39888969 2.2100904 3.1486881
-0.18719667 2.2474711 3.1134846
-0.41942188 2.270215 3.1445646
-0.38346025 2.2575741 3.147979
-0.2065341 2.2685626 3.1418242
-0.42200509 2.3197405 3.1431305
-0.36916494 2.331558 3.1472454
-0.32748768 2.3422821 3.1423213
-0.29759037 2.3284094 3.1490653
-0.22564702 2.3278387 3.1357243
-0.16663338 2.3315275 3.1378841
-0.4230659 2.3612428 3.1296651
-0.3689827 2.3637633 3.1255486
-0.32475302 2.3765557 3.1249559
-0.28031388 2.3680377 3.1343524
-0.23484376 2.3671191 3.1189785
-0.16137183 2.3702552 3.1325741
-0.1221703 2.384665 3.12585
-0.075548373 2.3926613 3.1246626
-0.031091832 2.3935034 3.1263885
0.022292776 2.3953383 3.1288633
0.080104597 2.3977382 3.1226354
0.11169589 2.394731 3.143708
0.21030371 2.3986773 3.144814
0.12911281 2.4084005 3.1180284
0.17389721 2.4081001 3.1244614
0.21827237 2.4058313 3.1192334
0.27260771 2.4065108 3.1304669
0.32653397 2.4113734 3.1274538
0.3771002 2.4190547 3.124182
0.42998287 2.4215844 3.1335771
0.47131896 2.4155309 3.1265841
0.52600664 2.4193175 3.1244562
0.57447755 2.4251599 3.1429045
0.61740381 2.4163275 3.1244252
0.67696112 2.4301574 3.1184776
0.72850019 2.4261243 3.117831
0.7810095 2.4331915 3.1289709
0.82353979 2.430393 3.1221802
0.87663662 2.438221 3.1171658
0.91966587 2.4349728 3.1245289
0.97700274 2.4364212 3.1213584
1.0194024 2.4409461 3.1351411
1.0689558 2.4382439 3.1174757
1.1269529 2.4495926 3.1258998
1.171218 2.4417548 3.1242433
1.2359558 2.4448764 3.123301
1.2762122 2.4411557 3.1239376
1.3246011 2.4468243 3.1218231
1.3779073 2.4464538 3.1149919
1.4359479 2.4464393 3.1335728
1.4739239 2.4465435 3.118576
1.5171508 2.4475391 3.1302807
1.5710344 2.4460371 3.1190736
1.6200675 2.443253 3.1361516
1.7160352 2.4484684 3.1295035
1.7710429 2.4467337 3.1148193
1.8113432 2.4424181 3.1328831
1.8943467 2.4418097 3.1352494
1.9151272 2.4432316 3.1266015
1.9821137 2.4454565 3.1414151
2.033972 2.4481497 3.1169133
2.2302964 2.4493432 3.1005266
1.2198898 2.4500666 3.1361403
1.3352144 2.4559343 3.1045215
1.3610997 2.450047 3.1266239
1.4390748 2.4545686 3.1033523
1.5251429 2.4527373 3.1067967
1.6384017 2.4515204 3.1193027
1.6688858 2.4554899 3.1187871
1.7211521 2.4503665 3.1004996
1.7749978 2.4522009 3.121706
1.8305063 2.451632 3.1156116
1.8788377 2.4541216 3.1175628
1.9244356 2.4523311 3.1135964
1.9719765 2.4527593 3.1118004
2.0176713 2.4524927 3.1337769
2.0769548 2.4756958 3.1403785
2.1198876 2.468807 3.127672
2.1764998 2.4658699 3.1132421
2.2101305 2.4606359 3.133882
2.2647007 2.464797 3.1071427
2.3220026 2.4830143 3.1213939
2.3671541 2.4668102 3.1231399
2.4314449 2.4695446 3.1303051
2.4739828 2.4601634 3.1194272
2.5232258 2.4673018 3.1271665
2.5746222 2.476048 3.1363914
2.6185043 2.4663823 3.1427791
2.6634808 2.4580598 3.1220865
2.7268987 2.4664261 3.1217241
2.7719769 2.4660387 3.1470313
2.800571 2.4722412 3.1385915
0.84721893 -0.48395097 3.1762142
0.86770564 -0.47551388 3.1801734
2.0414841 -0.47264838 3.1764224
2.0632944 -0.45633122 3.1766751
0.39980388 -0.42631316 3.1572843
0.41601294 -0.4158552 3.1643398
2.0791249 -0.41993046 3.1789346
0.23099332 -0.37091568 3.1546619
0.29287463 -0.37260455 3.1657085
0.32678679 -0.37306666 3.1677992
0.37072375 -0.37435845 3.1757317
0.42437115 -0.37434429 3.1842515
0.82524264 -0.35629231 3.1656032
0.91592366 -0.39293104 3.1949713
2.0872242 -0.37782717 3.174108
0.18506752 -0.33219656 3.1510193
0.22328828 -0.32529643 3.156209
0.27714017 -0.32632804 3.1634908
0.32233113 -0.32295674 3.1727519
0.37104797 -0.32119089 3.1822827
0.42186642 -0.32415074 3.192363
0.46190286 -0.31723735 3.1865575
0.81316549 -0.31111744 3.184906
0.97993255 -0.34614795 3.1896513
1.2930239 -0.33811802 3.1952465
2.0902224 -0.32927194 3.1769488
0.13954869 -0.27137595 3.1514783
0.17195824 -0.26720935 3.152338
0.22328259 -0.27233639 3.1594608
0.27668512 -0.27087742 3.1619635
0.32347929 -0.2738668 3.1718457
0.37097058 -0.27523926 3.1844311
0.42187777 -0.27652532 3.1953559
0.47220501 -0.27634624 3.1884906
2.0926995 -0.2767309 3.1727552
0.13943426 -0.21088882 3.1518495
0.16785035 -0.2280588 3.1531415
0.22528332 -0.22824158 3.1606519
0.27458271 -0.23168218 3.1647346
0.32371509 -0.22838672 3.1765718
0.37059149 -0.22912867 3.1835909
0.42593145 -0.23012261 3.1930265
0.48239681 -0.22517876 3.1973479
0.51955134 -0.21687174 3.1785243
0.58115834 -0.2117732 3.1793177
0.61315358 -0.20812747 3.1906333
0.69032341 -0.21584813 3.1799765
0.71861076 -0.21740836 3.1996136
1.0613049 -0.23654601 3.1873355
2.0927567 -0.22476387 3.1759489
0.094107568 -0.15794653 3.1506634
0.12573756 -0.17116332 3.1535988
0.17210491 -0.17517439 3.1560972
0.22481011 -0.17248155 3.1640613
0.27228999 -0.16633545 3.1599758
0.32356229 -0.17500798 3.1772919
0.37060377 -0.17565982 3.1857908
0.42544952 -0.17622408 3.1916738
0.480602 -0.17079177 3.1969814
0.51588517 -0.16930304 3.1978147
0.6346873 -0.17683664 3.1807423
1.0397775 -0.16459638 3.1762977
2.0909591 -0.16397676 3.1760526
2.1023781 -0.19017747 3.1746981
0.1242311 -0.12035431 3.1517155
0.16968916 -0.12056194 3.1560256
0.22314095 -0.12092814 3.1634285
0.27420279 -0.12094505 3.1614671
0.3235991 -0.1217486 3.1791761
0.37033951 -0.1220974 3.1851227
0.42529151 -0.12252229 3.1920576
0.48053753 -0.12293373 3.1979754
0.51209843 -0.1385266 3.1995897
0.63590068 -0.12321881 3.1884782
1.0631549 -0.11049858 3.1974721
2.0842071 -0.13754329 3.1666951
2.1482778 -0.12143732 3.1759524
2.3123345 -0.10584617 3.1668777
0.12615784 -0.075232729 3.1535687
0.16964348 -0.075322583 3.1560605
0.22332883 -0.075632535 3.1669693
0.27703521 -0.075828761 3.1727304
0.32357517 -0.076068327 3.1798825
0.370042 -0.076228529 3.1835296
0.42508745 -0.076518662 3.1914539
0.47828668 -0.076800689 3.1987209
0.63653666 -0.077059627 3.1925945
2.3298817 -0.070499375 3.1708217
0.094050169 -0.030030744 3.1511192
0.12428823 -0.030068202 3.1543899
0.1728836 -0.0286327 3.1605797
0.2254508 -0.031605039 3.1681471
0.27732033 -0.030329369 3.1764839
0.3233926 -0.030378094 3.1785367
0.37009826 -0.030461218 3.1844661
0.42508161 -0.030569822 3.1918421
0.47818261 -0.035067994 3.1985059
0.51171231 -0.02301291 3.1990049
0.63717318 -0.038531914 3.1962318
1.0491104 -0.031043904 3.1563518
2.3418119 -0.026060972 3.1736536
2.3519781 -0.017086513 3.1528709
0.094081908 0.02260462 3.1521764
0.12439871 0.022654304 3.1571896
0.16998525 0.022705914 3.1628971
0.22337849 0.022752762 3.168119
0.27746758 0.022848511 3.1780879
0.32367954 0.022896647 3.181406
0.37025532 0.022952063 3.1858416
0.42504892 0.023038063 3.1916423
0.46951318 0.028207118 3.1950839
0.52739906 6.8148525e-05 3.1992273
0.6331107 0.027836472 3.1917596
1.0975845 0.031861931 3.199512
1.1457756 0.047749482 3.1897838
1.1787636 0.031934459 3.1854575
2.3402884 0.018487588 3.1715667
0.049028844 0.090432234 3.1568184
0.083458774 0.077503733 3.1560478
0.12448926 0.075445294 3.1590869
0.16991848 0.075526513 3.1610887
0.22342451 0.075752564 3.1680958
0.27733544 0.076006964 3.1760166
0.32383451 0.076233923 3.1824119
0.37047312 0.076425679 3.187125
0.4253794 0.07668864 3.1935968
0.47502431 0.079445735 3.1966288
0.62959421 0.074034318 3.1895173
0.68268758 0.077201821 3.1855335
2.3397989 0.071942322 3.1702271
0.083389379 0.1183065 3.152828
0.12444321 0.12065252 3.1568842
0.17016244 0.12100013 3.1646607
0.22360398 0.12127808 3.1697876
0.27750799 0.12165982 3.177058
0.32408863 0.12203309 3.1839538
0.37062496 0.12230333 3.1874802
0.42556414 0.12271784 3.1940088
0.47620746 0.12527978 3.1986089
0.63129723 0.1071997 3.1656239
0.67685908 0.10715123 3.1577454
2.3309841 0.10724203 3.1574855
2.3576624 0.13805355 3.1810763
0.049018413 0.18079215 3.1535561
0.076979555 0.17646411 3.1529357
0.12459534 0.17361273 3.1589916
0.17022566 0.17397942 3.1641519
0.22380659 0.17448281 3.171046
0.27771625 0.17499982 3.1777992
0.32415408 0.1754355 3.1828804
0.37080753 0.17587788 3.1873577
0.42560014 0.17640516 3.192553
0.47182733 0.17360793 3.1976185
0.5122565 0.15411107 3.1999238
0.62226236 0.17785332 3.1977372
0.70154279 0.15511499 3.1970587
0.042996015 0.22296783 3.1518755
0.081079282 0.22423661 3.1532135
0.12477892 0.22678481 3.1615582
0.17029217 0.22700188 3.1631448
0.22388218 0.22764061 3.1698678
0.27764094 0.22819406 3.1748312
0.32448447 0.22906218 3.1838999
0.37113187 0.22958109 3.1879301
0.42595676 0.23026536 3.1929643
0.47306848 0.223105 3.196449
0.63121957 0.22330637 3.181066
0.67698264 0.23720554 3.1535378
0.049044576 0.27131099 3.1510105
0.079273403 0.27160522 3.1539247
0.12474869 0.27206907 3.1583576
0.17060475 0.27290881 3.1666529
0.22407949 0.27340367 3.1702149
0.27816141 0.27432895 3.1782389
0.32484186 0.27517185 3.1851072
0.37120399 0.27553985 3.1861131
0.42609331 0.27639708 3.1915905
0.47208494 0.27727801 3.1975777
0.51316082 0.29327226 3.1991117
0.6386677 0.27877277 3.1956441
0.6809988 0.2771295 3.1701362
-0.57676363 0.30568784 3.1590154
0.042646047 0.32774791 3.151907
0.079385169 0.3248696 3.1550999
0.12495052 0.32549748 3.160197
0.17073248 0.3262004 3.1656864
0.22270864 0.32187557 3.1730382
0.2785323 0.32046863 3.1796455
0.32547617 0.32164627 3.1884587
0.37163281 0.32183635 3.1869936
0.41896695 0.32289234 3.1936204
0.46638799 0.31994307 3.1986761
0.63972026 0.3334882 3.1974583
0.68465281 0.31726849 3.1847348
1.6534796 0.33845347 3.1623993
2.1547935 0.3327612 3.1734498
2.2192941 0.3359434 3.1798024
-0.5772084 0.39768204 3.1546352
0.044125412 0.38276353 3.1510937
0.081388339 0.38016278 3.155422
0.12513737 0.379042 3.1610072
0.17094675 0.37978926 3.1658926
0.22627559 0.37476099 3.1729822
0.27873418 0.3741537 3.1782122
0.32532197 0.37504458 3.1829426
0.37210682 0.37593749 3.187114
0.41940892 0.36939207 3.1936719
0.46231219 0.37030795 3.1977909
0.6862613 0.37227637 3.1882908
1.6514091 0.39569464 3.1535244
2.1459846 0.36921111 3.192493
2.1780283 0.36140737 3.1876822
3.2609737 0.38812891 3.1669054
-0.57718801 0.41296077 3.1532128
0.038420856 0.42139053 3.1516843
0.079625569 0.42432609 3.1567354
0.12538083 0.42535144 3.1633945
0.1712082 0.42602527 3.167006
0.22496092 0.42694971 3.1716912
0.27874795 0.42762846 3.1739635
0.32545266 0.42879522 3.1797156
0.37266761 0.43028679 3.1874514
0.41995874 0.4238123 3.1934173
0.46279436 0.41702744 3.1973157
0.68900287 0.42047527 3.1971424
3.253283 0.4075191 3.1571712
0.034147043 0.46703482 3.1517761
0.079736479 0.47045931 3.1570375
0.12550503 0.47138765 3.1622972
0.17146794 0.47234684 3.1673043
0.2252301 0.47329757 3.1714439
0.2788811 0.47366884 3.1710768
0.32612997 0.47573784 3.18207
0.37318337 0.47705114 3.1875267
0.41860753 0.47648498 3.1931643
0.46046922 0.47983563 3.198786
0.62616509 0.48751363 3.1964023
0.68698335 0.48911542 3.1810782
3.2542536 0.46857694 3.1506183
0.027890151 0.52483785 3.1518915
0.079845257 0.5242539 3.1555378
0.12574905 0.52565765 3.1629822
0.17172761 0.51887262 3.1675115
0.22562896 0.52000195 3.1722171
0.2800298 0.52164066 3.1793985
0.32691205 0.5230217 3.1849289
0.3739723 0.52431667 3.1893923
0.41720268 0.52605784 3.1965985
0.46134314 0.53114438 3.1995873
0.64234483 0.5450775 3.191247
0.036189996 0.57990301 3.1528363
0.080041058 0.57891893 3.1575165
0.12600204 0.58012176 3.1631215
0.17213334 0.57362396 3.1688499
0.22618534 0.57493907 3.1738443
0.2789863 0.57175285 3.1795716
0.32731822 0.56987971 3.1836374
0.37474275 0.57175022 3.1907175
0.42229187 0.57531798 3.19575
0.45397827 0.5742833 3.1981552
0.52492654 0.57939911 3.1974027
0.61867887 0.56036752 3.1909184
0.039412737 0.61940694 3.1522551
0.080175556 0.62566257 3.1569855
0.12624009 0.62708008 3.1631634
0.17244445 0.62828976 3.1678555
0.2221837 0.62875736 3.1761203
0.27769721 0.62821794 3.180969
0.32818016 0.62543255 3.1852715
0.37574229 0.61976469 3.1934638
0.41860071 0.61876005 3.1965389
0.47090754 0.63825971 3.1983478
0.5289709 0.62236309 3.1925824
-0.53595138 0.66338521 3.1580296
-0.011375821 0.67126912 3.1506796
0.026829384 0.67646855 3.1564121
0.080405347 0.67340827 3.1600173
0.12646018 0.6741693 3.1625531
0.17279726 0.67565829 3.1680751
0.21931747 0.67706162 3.1727417
0.2737999 0.6786539 3.1774485
0.32899353 0.68114829 3.185719
0.37642848 0.67522478 3.1919396
0.41217428 0.66492605 3.1972055
0.46938819 0.67196155 3.1968894
0.52775896 0.67046237 3.1932845
-0.01139112 0.70270836 3.150414
0.026865063 0.71968246 3.1554325
0.080543809 0.7205407 3.1585803
0.12680961 0.72209901 3.164418
0.17330378 0.72383463 3.1705627
0.21998297 0.72540355 3.1755006
0.27459374 0.72702479 3.1798213
0.32955688 0.7288599 3.1843657
0.37727794 0.73119122 3.1911523
0.42479289 0.72487718 3.1948454
0.46462169 0.71842307 3.1983774
0.52145338 0.71679944 3.1942732
-0.021658491 0.77536875 3.1518664
0.025367374 0.77305865 3.1525564
0.076590724 0.7743836 3.1598063
0.12715138 0.77032089 3.165906
0.17374317 0.77197319 3.1712744
0.2204176 0.7732687 3.1746471
0.27509752 0.77481794 3.1781657
0.33030924 0.77713114 3.1842031
0.37793627 0.77921808 3.1892836
0.42400831 0.781569 3.1951149
0.47402003 0.78613377 3.1980135
0.52604884 0.77838773 3.1885452
-0.011476441 0.84638524 3.1508858
0.021230601 0.83315277 3.1540928
0.073301025 0.82490581 3.1605027
0.12596205 0.82192945 3.1665702
0.17416818 0.82028675 3.1711743
0.22102284 0.82193959 3.1756287
0.27376127 0.82223105 3.1797502
0.3283295 0.82817203 3.1872773
0.3789531 0.82820779 3.1899681
0.4268688 0.83023286 3.1937706
0.47054639 0.83007008 3.1981432
0.5192219 0.81697798 3.1968715
0.577703 0.84893966 3.1866274
0.69927621 0.83763981 3.1902311
-0.011496474 0.87866759 3.1506202
0.019361444 0.87967408 3.1541398
0.074154802 0.87616533 3.1634307
0.12920682 0.87701344 3.1640649
0.17476872 0.86966306 3.1736031
0.22170404 0.8711586 3.1771121
0.26883987 0.8726486 3.1801214
0.32461891 0.875974 3.1888034
0.38007796 0.8776921 3.1909914
0.42828587 0.88014096 3.1958525
0.46444467 0.87775731 3.1988907
0.53963602 0.8508575 3.198508
0.56658691 0.87031507 3.1959555
-0.027014233 0.94018406 3.1517119
0.021371763 0.93178797 3.1579723
0.075589158 0.92892098 3.163208
0.12598374 0.92757761 3.1649423
0.17522299 0.91868961 3.1731787
0.22249497 0.9210667 3.1794252
0.26981217 0.92274368 3.1827278
0.32534054 0.92499357 3.1870403
0.38128078 0.92763585 3.1920512
0.42750484 0.92987871 3.1958585
0.48728877 0.92880678 3.1979852
0.54192376 0.92567873 3.1986246
0.56439555 0.92145574 3.198741
-0.022650644 0.9795813 3.1516721
0.01949241 0.97909027 3.1577158
0.073975034 0.98029357 3.1610584
0.13002561 0.97608972 3.1657374
0.17415535 0.9712702 3.1722028
0.22301 0.97014397 3.1773305
0.27055851 0.97233117 3.1820555
0.31847149 0.97501427 3.187829
0.3744615 0.97752422 3.1919663
0.43086559 0.98031342 3.1963556
0.49559593 0.98330373 3.1999195
0.55889255 0.95136607 3.1986024
-0.015489071 1.0229226 3.1518927
0.019547908 1.0285721 3.1564276
0.074208587 1.0301977 3.1608479
0.12927608 1.0259113 3.172303
0.17840561 1.0212132 3.1756122
0.22375686 1.0205206 3.1780419
0.27151972 1.0229923 3.1832478
0.3197749 1.0263722 3.1907804
0.37120724 1.0273409 3.195292
0.42020288 1.0287246 3.1968598
0.49607185 1.0001242 3.1996312
0.51213014 1.0004894 3.1990883
-0.089684695 1.0771167 3.1502638
-0.02533197 1.0803568 3.1542869
0.01961384 1.0790737 3.1567307
0.074498832 1.0810988 3.1620996
0.12960185 1.0678438 3.1717186
0.17684005 1.0686699 3.1726274
0.22459227 1.071568 3.179172
0.27256063 1.0743468 3.1848819
0.32091993 1.0775733 3.1914341
0.36933643 1.0801829 3.1956613
-0.065000013 1.132087 3.152597
-0.027392946 1.1297404 3.1559393
0.019705161 1.1313016 3.1603391
0.072135657 1.1270916 3.1639946
0.12998585 1.1182529 3.1699495
0.17755836 1.1203249 3.174222
0.22537841 1.1227736 3.1791272
0.273615 1.1260689 3.1859105
0.32223165 1.1297425 3.1932337
0.36540958 1.1347362 3.1960614
-0.106262 1.197302 3.1515574
-0.074657403 1.1799817 3.1520171
-0.027481917 1.180604 3.1542237
0.017802835 1.180544 3.1598973
0.077203006 1.1697245 3.1666048
0.13049428 1.1700654 3.1706023
0.17831929 1.1726753 3.1760836
0.22641015 1.1755781 3.1818404
0.27481902 1.1788439 3.1880834
0.3210077 1.1767951 3.1931252
0.36789194 1.1716659 3.1978402
0.41184351 1.1515808 3.1989365
-0.10651916 1.2317955 3.1507244
-0.074937135 1.2297856 3.1517844
-0.029840261 1.2275709 3.1538353
0.022111831 1.2231791 3.1618598
0.075366057 1.2207421 3.1678627
0.13110928 1.2233239 3.1733451
0.17913884 1.2258606 3.1782889
0.22744162 1.2287905 3.1838071
0.27364582 1.2270491 3.1898682
0.32667512 1.2204913 3.1964726
0.37322691 1.2146525 3.1988904
-0.10678893 1.2665615 3.1500013
-0.075215265 1.272581 3.1530216
-0.025719468 1.2717043 3.1584051
0.019921748 1.2711546 3.162549
0.075693391 1.2738115 3.1685708
0.13170001 1.2767158 3.1745377
0.18003675 1.2800332 3.1811762
0.22824496 1.2731868 3.1841621
0.27913499 1.271094 3.1928797
0.3258858 1.2713436 3.1960554
0.3589384 1.282517 3.1992831
-0.17122436 1.3386296 3.1503234
-0.12327375 1.3238457 3.1521552
-0.073560387 1.323437 3.1540616
-0.027832938 1.3232303 3.159399
0.020020805 1.3251241 3.1639812
0.071268067 1.3266727 3.1714172
0.1242432 1.3262376 3.1757133
0.1806282 1.3244101 3.1802738
0.2293182 1.3194468 3.1878169
0.27849486 1.3237894 3.1955791
0.32529265 1.3254147 3.1964483
0.36022979 1.3276097 3.199261
-0.12191734 1.3779966 3.1542063
-0.075911969 1.3758101 3.1553969
-0.027972182 1.3783548 3.1617749
0.017815087 1.3750973 3.1663187
0.066067301 1.3777205 3.1719232
0.12712818 1.3711932 3.1817613
0.18152855 1.3713111 3.1840234
0.22866271 1.3738972 3.1932509
0.27443394 1.3761783 3.1978359
0.32002783 1.3611357 3.1953945
-0.25359347 1.4497031 3.1502373
-0.23702089 1.4307702 3.1501391
-0.16190793 1.4298601 3.1514263
-0.12645821 1.4280534 3.1536679
-0.076298378 1.4264234 3.1577606
-0.028116532 1.4251496 3.1642621
0.022214711 1.4203854 3.1690319
0.070651092 1.4220419 3.1722131
0.1254956 1.4245499 3.1817577
0.18261939 1.4282343 3.1880517
0.23173831 1.4228004 3.1944609
-0.25454104 1.487457 3.151268
-0.23015584 1.4865494 3.1506686
-0.17345314 1.4799255 3.1523879
-0.12278422 1.4744443 3.157537
-0.076687656 1.4725732 3.1609702
-0.028270185 1.4736708 3.1689248
0.020324102 1.4754465 3.172766
0.06907323 1.4778733 3.1775081
0.11787605 1.4709444 3.1817915
0.16705048 1.4744978 3.1879308
0.24277541 1.4713032 3.1979063
0.27144715 1.4786062 3.1985919
-0.26728871 1.526703 3.153712
-0.22317213 1.5263891 3.1554914
-0.17450124 1.5266252 3.1582007
-0.12579912 1.5268615 3.160321
-0.077030845 1.5178405 3.162431
-0.028418591 1.5225883 3.1728926
0.020442666 1.5250384 3.1780422
0.069477364 1.5272833 3.1822445
0.11865389 1.521564 3.1890817
0.16607212 1.523069 3.1957643
0.23365588 1.5084659 3.1971247
-0.35537073 1.5854425 3.1502359
-0.32224849 1.572333 3.1522362
-0.264974 1.5741998 3.153404
-0.22444469 1.5759525 3.1591918
-0.17555638 1.5767998 3.16311
-0.12660304 1.5775973 3.1664045
-0.077648319 1.5709013 3.1734188
-0.028586103 1.5717059 3.1756074
0.020571595 1.5753425 3.1830072
0.069790997 1.575415 3.182647
0.11694501 1.5744861 3.1909807
0.15794343 1.5709394 3.1975467
0.2355119 1.5865469 3.19959
-0.40668008 1.6272829 3.1515374
-0.32689127 1.6255903 3.1548798
-0.27000657 1.6265335 3.155165
-0.22542657 1.6238115 3.1578412
-0.17645374 1.6259569 3.1643007
-0.12736112 1.6281928 3.1703439
-0.07812997 1.6216402 3.1778996
-0.03111597 1.6258804 3.1785426
0.020677708 1.624195 3.1835415
0.070311539 1.6284448 3.1913693
0.12241268 1.6247902 3.1967862
0.16325721 1.6305363 3.1968212
-0.37592769 1.6860927 3.1533048
-0.32572305 1.67463 3.1545265
-0.27611211 1.6738113 3.1564457
-0.22712815 1.6774393 3.1661556
-0.17737748 1.6756259 3.1650336
-0.12814468 1.6794362 3.1739848
-0.078520782 1.6713697 3.1786726
-0.026878309 1.6757188 3.1828368
0.020798249 1.6758184 3.1877811
0.062392935 1.6709569 3.1972046
0.11205722 1.6596923 3.1937199
0.17049751 1.6632 3.1986141
-0.37539846 1.7262477 3.1531782
-0.32748723 1.7251533 3.1551201
-0.28003737 1.7244658 3.1618669
-0.23008582 1.7232729 3.1626148
-0.17863165 1.7207447 3.1744325
-0.12873282 1.7203046 3.1753747
-0.078968801 1.7223334 3.1803315
-0.029130759 1.7269214 3.1894341
0.020947635 1.7293357 3.1939175
0.068214826 1.713992 3.1962645
0.10458125 1.7229784 3.1997995
-0.41358525 1.7803097 3.1551871
-0.37660217 1.7809 3.1559558
-0.32967639 1.7784376 3.1591465
-0.2771627 1.774536 3.1637723
-0.22737245 1.776826 3.1707909
-0.17964213 1.7723937 3.1756144
-0.12959281 1.7736114 3.1795979
-0.079453193 1.7749361 3.1831999
-0.029266782 1.7767715 3.1871312
0.0042551751 1.7822989 3.197252
0.054738499 1.7839907 3.1999469
-0.42088985 1.8240366 3.1521623
-0.38136092 1.8194393 3.153964
-0.32873377 1.8234555 3.1575398
-0.28337771 1.8291088 3.1648183
-0.23123337 1.8255841 3.1755464
-0.18104945 1.8282269 3.1825771
-0.13043161 1.8274001 3.1829729
-0.080088429 1.8307065 3.1899588
-0.029463647 1.8307403 3.1906776
0.021169318 1.8233286 3.1960542
-0.40605024 1.8722477 3.1517522
-0.3706097 1.8732908 3.1604075
-0.32303399 1.885383 3.1692188
-0.27469835 1.8801707 3.1697938
-0.2323004 1.8713509 3.1737542
-0.17935899 1.8732259 3.1795156
-0.13109505 1.8703078 3.1840992
-0.080421202 1.8726445 3.1893442
-0.033023652 1.877277 3.194216
0.015611507 1.8798681 3.1963317
-0.40282822 1.9258132 3.1517968
-0.36951044 1.9289974 3.1601331
-0.31856874 1.9291917 3.1646643
-0.26758972 1.9255302 3.1698494
-0.21705331 1.9295832 3.1794517
-0.18007933 1.9238654 3.1819718
-0.13194591 1.9250518 3.1857138
-0.078416899 1.9204997 3.1897986
-0.029783575 1.91877 3.1953042
0.0043135262 1.9104971 3.1997256
-0.41067985 1.9674889 3.1535709
-0.37162837 1.9742198 3.1621783
-0.32029381 1.9738178 3.1657953
-0.26942334 1.9767271 3.174103
-0.21829593 1.9784364 3.1798458
-0.17048755 1.9819542 3.1841426
-0.12937339 1.9789371 3.1879086
-0.087098576 1.9689755 3.1931326
-0.035707079 1.9742489 3.1964378
-0.40761217 2.025979 3.1521907
-0.37547281 2.0196152 3.1554115
-0.32183412 2.0176945 3.1645644
-0.27077493 2.0210035 3.1734486
-0.21951653 2.0239737 3.1811574
-0.16788439 2.0243785 3.1841938
-0.12485742 2.0248487 3.1864581
-0.081981868 2.029433 3.1947362
-0.035927415 2.0263958 3.1965208
-0.37341377 2.0750809 3.1565974
-0.32620209 2.0725846 3.1656227
-0.27202848 2.0648413 3.1709273
-0.22013974 2.0642769 3.1731737
-0.16863143 2.0680683 3.1814291
-0.12568955 2.0730438 3.1906497
-0.082281418 2.0715249 3.1893826
-0.030286916 2.0635478 3.1954801
-0.37466201 2.1323125 3.1560509
-0.32355013 2.1272664 3.1639285
-0.27402464 2.1235707 3.1720476
-0.22195084 2.124779 3.1770127
-0.16983277 2.1263103 3.1817942
-0.11981323 2.1253881 3.1865876
-0.074119575 2.1208985 3.1941526
-0.034852989 2.116251 3.1964827
0.013145842 2.1231256 3.1981683
-0.4145861 2.1653996 3.1521034
-0.37668127 2.175328 3.1563146
-0.327777 2.1772983 3.1599636
-0.2753548 2.1775239 3.1642253
-0.22307508 2.1793921 3.1701796
-0.17101265 2.1849291 3.180788
-0.11387159 2.1693349 3.1862373
-0.074593127 2.1695755 3.1962655
-0.035099477 2.1760693 3.1975605
-0.40941861 2.2372599 3.1515493
-0.37329343 2.2230728 3.1522794
-0.32943228 2.2234898 3.1567211
-0.27685466 2.2247126 3.1624451
-0.22406594 2.224076 3.1648273
-0.17165501 2.2286961 3.1740272
-0.12120613 2.2205179 3.1859076
-0.07502804 2.2264156 3.1911175
-0.042625111 2.2132685 3.1960983
0.013293394 2.2173264 3.1963112
-0.37275493 2.275707 3.1511343
-0.33162683 2.2735941 3.157644
-0.27827263 2.2714384 3.1587057
-0.22865689 2.2679188 3.1604307
-0.16756377 2.2639265 3.1630898
-0.11724824 2.2781403 3.1835082
-0.072563045 2.2822068 3.1886284
-0.034621358 2.2693489 3.1967247
0.0044866838 2.2678668 3.1983104
0.075732917 2.2803133 3.1976385
-0.36870608 2.3108408 3.15378
-0.32109526 2.3152239 3.1523359
-0.27633739 2.3183713 3.1577086
-0.2347143 2.3038049 3.15435
-0.15497801 2.3126407 3.1530478
-0.12029937 2.3274081 3.1744034
-0.077581748 2.3240604 3.181303
-0.033451904 2.3210895 3.1891541
0.01646555 2.3318796 3.1938913
-0.11588945 2.3595562 3.1573112
-0.075924009 2.3689837 3.1622665
-0.028756618 2.3720047 3.1743376
0.025033753 2.373915 3.1769147
0.074606769 2.3759339 3.1819572
0.13047466 2.3755884 3.187047
0.17285569 2.3869963 3.1891367
0.2175357 2.3904572 3.1892266
0.27893689 2.3908515 3.1859202
0.3301681 2.397186 3.1869645
0.076152898 2.4006658 3.1523597
0.13888925 2.4015629 3.1518044
0.17844999 2.4052637 3.1666601
0.23840782 2.4024203 3.1655493
0.26568753 2.4053411 3.1676526
0.33396417 2.4102802 3.168961
0.37800705 2.4101238 3.1706192
0.41691512 2.4134693 3.1687443
0.47622487 2.4132483 3.1758163
0.52959853 2.4087822 3.1629446
0.57441872 2.4134705 3.1748304
0.62498897 2.4184949 3.1798503
0.67463773 2.4151773 3.1634183
0.72187907 2.4234302 3.1734159
0.77152783 2.4298899 3.1726518
0.8321532 2.423614 3.175354
0.87972057 2.4234343 3.1738393
0.92506903 2.433115 3.1729043
0.96693361 2.4297426 3.17103
1.0284171 2.4393227 3.1779699
1.0794919 2.4362795 3.1723659
1.1242437 2.4359109 3.1652396
1.1809369 2.4346762 3.178854
1.2266155 2.4352901 3.1717606
1.2751945 2.4290097 3.1662998
1.3250721 2.4335425 3.1719069
1.3775806 2.4423721 3.174371
1.426604 2.4438844 3.174787
1.4746472 2.4431438 3.1716614
1.5218168 2.4398079 3.1727905
1.5702538 2.4409628 3.1866279
1.6182166 2.4469376 3.1718283
1.6740955 2.4446769 3.1754012
1.7129941 2.4413171 3.1787634
1.7833391 2.4465094 3.1688206
1.8272955 2.4442153 3.1737809
1.8841507 2.4471688 3.1965861
1.9408455 2.4435258 3.1605785
1.9667972 2.4435439 3.1946106
2.0191822 2.4464421 3.170948
2.1020525 2.4412181 3.1637492
2.4954758 2.4497228 3.1957443
1.4099845 2.4506917 3.150054
1.5871401 2.451767 3.1640143
1.74856 2.4501538 3.1764398
1.8742561 2.4541264 3.166532
1.9234385 2.4593 3.1969013
2.0700946 2.4593186 3.1648245
2.1301472 2.4503651 3.1637194
2.1794481 2.4612086 3.1708405
2.2360895 2.4582639 3.1824043
2.2778337 2.4665015 3.1716175
2.3276379 2.4692223 3.1803627
2.3661013 2.466538 3.1771903
2.4261312 2.4643862 3.1787956
2.4739587 2.4599357 3.1745915
2.5255632 2.458663 3.1740456
2.5731075 2.4635315 3.169461
2.6121414 2.45908 3.1904986
2.67506 2.4571218 3.170414
2.7771983 2.4693789 3.180613
2.8224621 2.4601893 3.1571624
0.87020081 -0.45657873 3.2035191
0.87319303 -0.42653191 3.2173977
0.90459841 -0.41065201 3.21228
2.0459027 -0.43568408 3.2114613
2.064338 -0.4163391 3.2208657
0.8736968 -0.37935278 3.2232008
0.92094344 -0.37567654 3.2224116
0.95835763 -0.3689355 3.2090664
2.0680897 -0.37010819 3.2268994
0.83806247 -0.3303459 3.2170093
0.87489337 -0.32608512 3.2259521
0.92342979 -0.32481715 3.2263937
0.97120035 -0.3231751 3.2229095
1.0055099 -0.31773737 3.2200222
1.266098 -0.31527859 3.2193122
1.335353 -0.34277686 3.2323594
2.0855827 -0.32436553 3.2296934
0.45040962 -0.26167032 3.2000418
0.73582333 -0.26461509 3.2022717
0.77579147 -0.26323512 3.2117245
0.82302243 -0.27289179 3.2200429
0.87115812 -0.27154264 3.2271533
0.92446762 -0.26964462 3.2334061
0.97547925 -0.27057451 3.2352939
1.0191362 -0.26477584 3.2341793
1.2186422 -0.2588999 3.2385383
1.2992836 -0.29118919 3.2139947
2.0778115 -0.2799221 3.2284086
0.53693509 -0.20076454 3.2052932
0.56871176 -0.2010754 3.2068076
0.62306154 -0.20113254 3.2011983
0.68941957 -0.20242967 3.2135599
0.72962761 -0.21837379 3.2126873
0.76958531 -0.22220346 3.2171683
0.82142973 -0.21996494 3.2223625
0.87282819 -0.22103208 3.229763
0.92390484 -0.22190681 3.2338276
0.97550899 -0.22281297 3.2378037
1.0268927 -0.22358963 3.2392581
1.0612725 -0.22325091 3.2266645
1.1941234 -0.20886926 3.2226095
1.2239759 -0.22600216 3.2307422
1.2671769 -0.22315741 3.2388544
1.3119347 -0.24498548 3.2480807
2.0749693 -0.22453271 3.2271829
0.46552855 -0.18458062 3.2001572
0.53808564 -0.16975527 3.2039552
0.57627207 -0.17007801 3.2060437
0.61575025 -0.17029333 3.2055619
0.68865484 -0.17108704 3.2111547
0.72146678 -0.17147629 3.2140598
0.77136391 -0.17215887 3.2198336
0.82163739 -0.17284153 3.22507
0.87172544 -0.17342052 3.2275567
0.92333657 -0.17421171 3.2337596
0.97549754 -0.17503203 3.2397013
1.0275837 -0.17576157 3.2433972
1.1814851 -0.17722805 3.2373953
1.2022781 -0.16172321 3.2464919
2.081207 -0.17691018 3.2237628
0.53031856 -0.12140271 3.2035286
0.57599598 -0.12360793 3.2058363
0.61558849 -0.12380362 3.2060871
0.68890303 -0.1244405 3.213701
0.72144985 -0.12468476 3.2153864
0.77161968 -0.12522952 3.2223158
0.82115346 -0.12560485 3.224561
0.87227982 -0.12617242 3.231046
0.92364383 -0.12671739 3.2363009
0.97534412 -0.12724711 3.240669
1.0255489 -0.12578578 3.2452281
1.0592315 -0.12723814 3.2239265
1.2446822 -0.1448013 3.2184114
1.2624688 -0.12078072 3.219018
2.0754042 -0.13929027 3.2238145
2.1466994 -0.12337255 3.2442222
2.162493 -0.12325232 3.2323034
2.3110287 -0.10704 3.2173924
0.48869467 -0.076883778 3.2012401
0.52837223 -0.077056289 3.2044814
0.57638854 -0.077286869 3.2089462
0.61558533 -0.077346347 3.2070129
0.68889326 -0.077747561 3.2145948
0.72167611 -0.077916078 3.2173634
0.77067226 -0.078130998 3.2193124
0.82128489 -0.078473285 3.226048
0.87208652 -0.078797042 3.2313032
0.92339081 -0.079128526 3.2363958
0.97497219 -0.079446487 3.2404342
1.0302825 -0.078143708 3.2350252
1.0540574 -0.095301226 3.2218499
1.1883808 -0.064264424 3.2349415
1.2245892 -0.080100566 3.2137256
1.2637197 -0.089187711 3.2458057
2.3335853 -0.075162314 3.2317626
0.4886376 -0.015323809 3.2014294
0.53277481 -0.032982882 3.2044666
0.57585907 -0.030842066 3.2064657
0.61896122 -0.028680112 3.2073855
0.68776077 -0.030995719 3.2098007
0.72191876 -0.031125542 3.218946
0.77115989 -0.031211568 3.2218542
0.82141 -0.031333499 3.2270312
0.87218702 -0.031449478 3.2322185
0.92299354 -0.031561621 3.2355261
0.9747684 -0.031692136 3.2402666
1.0268712 -0.031814739 3.2441339
1.0570114 -0.027666057 3.2187138
1.1716399 -0.047800489 3.2133763
2.3360181 -0.026333867 3.2180896
0.49134657 0.018021254 3.2020524
0.5279206 0.025286593 3.2021978
0.57619119 0.023272745 3.2083366
0.61432165 0.019974232 3.2068207
0.68687069 0.023375031 3.2056391
0.72176236 0.023498692 3.21823
0.77134067 0.023595022 3.2225873
0.82122332 0.023683989 3.2262919
0.8718937 0.02378398 3.2311146
0.92344362 0.023896335 3.2370789
0.97517926 0.024014356 3.2416143
1.0256003 0.021956196 3.2450333
1.0731492 0.025051134 3.234401
1.1209383 0.048378643 3.242131
1.1850121 0.048714675 3.2499781
1.5110207 0.049956091 3.2406359
2.3337722 0.018634858 3.2149603
0.49162504 0.071935803 3.2033615
0.52830809 0.077183813 3.2040071
0.57585162 0.077361234 3.2058618
0.61116099 0.081296757 3.2044239
0.72120732 0.07805711 3.2151628
0.77153862 0.078423887 3.2228174
0.82133609 0.078696825 3.2261362
0.87186778 0.079016834 3.2303948
0.92252183 0.079313092 3.2332466
0.97569424 0.079770774 3.2426772
1.0259298 0.082138225 3.247221
1.0792825 0.080392808 3.2464023
1.1310709 0.064569719 3.2459955
1.1668756 0.064778671 3.2483211
2.3370607 0.072722234 3.2188368
0.49722147 0.11567958 3.2049737
0.52834427 0.12345783 3.2032425
0.57625258 0.12381651 3.2071071
0.61519057 0.12387803 3.2038593
0.72126013 0.12482876 3.2143688
0.77152777 0.12540914 3.2217495
0.82193917 0.12595038 3.2274897
0.87247509 0.12644011 3.2316096
0.92457378 0.12710258 3.239382
0.97553092 0.12754586 3.241102
1.0278211 0.12812372 3.2453973
1.0683359 0.11781705 3.2473042
2.3361137 0.11771443 3.2164607
2.3511071 0.14508662 3.2185483
0.49686751 0.16952257 3.2010758
0.53102612 0.17190845 3.2061203
0.5766356 0.17034084 3.2078185
0.61143208 0.16646506 3.2036257
0.72391677 0.17373686 3.215687
0.77278191 0.17268975 3.2255042
0.82276434 0.17331153 3.2292163
0.87271345 0.17386034 3.2310305
0.92403275 0.17461041 3.2359209
0.97679818 0.17555057 3.2437823
1.0233277 0.1784161 3.245002
0.49437174 0.22833729 3.2027256
0.52936679 0.22415757 3.2058055
0.57690829 0.22461517 3.2070932
0.61505872 0.22814986 3.2052271
0.72184443 0.21858448 3.2135789
0.77271408 0.21973765 3.2232916
0.82323807 0.22067171 3.2291133
0.87349278 0.22144577 3.2319205
0.92469531 0.22236054 3.2362888
0.97711265 0.22346824 3.2427855
1.0275154 0.22246622 3.2477174
0.49391609 0.27785805 3.2022762
0.53164434 0.27649817 3.204999
0.5771516 0.27894393 3.2055843
0.62057734 0.27957919 3.2076375
0.72385627 0.27396089 3.2197349
0.7736342 0.27499068 3.224282
0.82226962 0.27129644 3.2291698
0.87436974 0.26914951 3.2327201
0.92607945 0.27039069 3.2386577
0.978266 0.27165106 3.2441673
1.0284083 0.27478451 3.2477984
1.0654401 0.28962538 3.2485914
0.49053642 0.33220422 3.2023656
0.53022033 0.32513845 3.2052364
0.57825381 0.32603848 3.2087798
0.62151498 0.32443231 3.2097015
0.68847847 0.34236199 3.2009232
0.72475773 0.3291496 3.2203209
0.77484202 0.33047476 3.2258341
0.82661003 0.32599977 3.2304785
0.87599182 0.3251316 3.2352345
0.92785877 0.31868923 3.2419324
0.97895938 0.31977808 3.2434535
1.0245378 0.31463701 3.2479851
1.7118335 0.31315187 3.2377391
2.1590757 0.33613792 3.2150156
2.3036644 0.34194618 3.2112999
0.49230385 0.37099546 3.2008355
0.53082275 0.37199867 3.2055311
0.57908672 0.3731412 3.2100282
0.62648606 0.37362567 3.208272
0.68943149 0.37401527 3.2029915
0.72595173 0.37678412 3.2221797
0.77591729 0.37819412 3.2268615
0.825845 0.37942454 3.2294524
0.87666827 0.38091552 3.2335994
0.92867559 0.37477705 3.2407253
0.97776777 0.37109104 3.2413826
1.0224345 0.37281033 3.2480266
2.1649973 0.37736794 3.2083371
2.2808976 0.36055553 3.2308216
0.48549542 0.43176895 3.2014914
0.53161389 0.4191075 3.2064312
0.5798533 0.42033935 3.2104847
0.62693202 0.42060554 3.2066855
0.68994951 0.42106032 3.201508
0.72702599 0.4244948 3.2229848
0.77703738 0.42607868 3.2275529
0.8270514 0.42747808 3.2301745
0.87758875 0.42896897 3.2329645
0.93024719 0.43130782 3.2414916
0.98187733 0.42494196 3.2449603
1.0247803 0.4180865 3.2462721
1.0514728 0.4191235 3.2490504
2.1817603 0.41829672 3.2235451
0.4373447 0.49540883 3.2000654
0.48461106 0.480764 3.2026875
0.52629894 0.4758018 3.2073479
0.5807001 0.47552338 3.210063
0.62520939 0.46325186 3.2056236
0.69136173 0.45316282 3.2052283
0.72712916 0.47171533 3.2189989
0.77786702 0.47390938 3.2265196
0.82879943 0.47596353 3.2324877
0.87957734 0.47770819 3.2357688
0.93150246 0.47985601 3.2412536
0.97520953 0.48171833 3.2457714
1.0098773 0.47222689 3.2484062
0.43786269 0.52700257 3.2005405
0.47597748 0.52490073 3.2034764
0.52326149 0.52787137 3.206286
0.57861227 0.5325886 3.2103062
0.61754829 0.5355286 3.2088575
0.69439286 0.53361493 3.2111614
0.72859436 0.51992941 3.2206202
0.77931565 0.52226526 3.2275927
0.83018243 0.52441859 3.2328699
0.88116956 0.52641267 3.2365744
0.92765599 0.52824879 3.2396188
0.9701544 0.53040409 3.2450507
1.019828 0.52416068 3.2473834
0.42272946 0.55847126 3.2012074
0.47825226 0.57548046 3.2025623
0.51130116 0.57281435 3.2020526
0.57442713 0.56275898 3.2103641
0.73425961 0.55668187 3.2235706
0.7809571 0.57094568 3.2289429
0.83183533 0.57322335 3.2338157
0.88122141 0.57359457 3.2392116
0.92253071 0.57963306 3.2411668
0.96938407 0.57934511 3.2439303
0.43955135 0.63016224 3.2007377
0.47105157 0.61509472 3.2023523
0.50914931 0.62380463 3.2022197
0.7829473 0.62008411 3.2312405
0.82823771 0.6194331 3.2326539
0.86990666 0.62604272 3.2373414
0.91951346 0.62652266 3.2417219
0.96675235 0.62659132 3.2456317
1.0069836 0.63102698 3.2486703
0.43421847 0.6735611 3.2021668
0.48753616 0.65526921 3.2017529
0.5076791 0.6717267 3.201601
0.773862 0.67232352 3.2256374
0.81841218 0.6707952 3.2339015
0.86984849 0.67354548 3.2386236
0.92202163 0.67654514 3.2438982
0.96530646 0.67868918 3.2461271
0.48893055 0.71973532 3.2018878
0.50535935 0.73652029 3.2028708
0.76878607 0.7277047 3.2260263
0.8202703 0.72033817 3.2342372
0.87166047 0.72315693 3.2382746
0.92357838 0.72608197 3.2421944
0.9741165 0.73123217 3.2464485
1.0199361 0.73158312 3.2483573
0.4425045 0.78320253 3.2002571
0.47396317 0.76515597 3.201124
0.51098603 0.75801343 3.2015488
0.77612299 0.76955825 3.2273204
0.82253957 0.77048677 3.2355919
0.87434584 0.77373874 3.2405658
0.92394257 0.77447754 3.2436068
0.97819448 0.77540714 3.2460098
0.49153334 0.83366853 3.2009702
0.52362591 0.83468056 3.2014518
0.7288748 0.84445298 3.2125278
0.77191561 0.8209039 3.231678
0.82428986 0.82038587 3.2343955
0.87680876 0.82440281 3.2414582
0.93476897 0.82263541 3.2462971
0.97765338 0.82394868 3.2478175
0.48639137 0.8766607 3.2017791
0.52260482 0.86973429 3.2014322
0.59008169 0.88716513 3.2043459
0.61866331 0.8844201 3.205873
0.67821717 0.88135463 3.2122266
0.72339845 0.87935466 3.2189519
0.77497572 0.87278879 3.2284367
0.82699203 0.87148374 3.2362556
0.87719178 0.87325752 3.2423413
0.92091274 0.87359232 3.2491319
0.44611779 0.93173295 3.2006752
0.47182664 0.92947781 3.2018299
0.52127719 0.91497034 3.2009957
0.5867306 0.915842 3.2027864
0.62404907 0.92222393 3.2058127
0.67452645 0.92605716 3.2124791
0.7238071 0.92840749 3.2211034
0.78007251 0.92128503 3.2323632
0.82988763 0.92313576 3.2383089
0.87428993 0.92730474 3.2455711
0.47429207 0.97768956 3.2020848
0.52788186 0.96849179 3.203136
0.57962286 0.97407722 3.2087221
0.62634778 0.97351772 3.2079353
0.67781204 0.9787001 3.218327
0.73133409 0.97136551 3.2268727
0.78134471 0.97173214 3.2369087
0.82551581 0.97611731 3.2445576
0.87354732 0.98390907 3.2478929
0.44913924 1.0414007 3.2006321
0.48125032 1.0227659 3.2037952
0.53249699 1.0231643 3.2082376
0.58027816 1.0245544 3.213809
0.62997824 1.027316 3.2162349
0.6790992 1.0276675 3.2263408
0.72751296 1.0171348 3.232893
0.76979971 1.025857 3.2395442
0.81718791 1.0251721 3.2435703
0.85498011 1.0310533 3.248981
0.42066354 1.072455 3.2048585
0.47488475 1.0695246 3.2056279
0.52766144 1.0740734 3.2138133
0.57717067 1.0767412 3.2160783
0.62528503 1.0812318 3.2236192
0.67301989 1.0736973 3.2294569
0.71869797 1.0720782 3.2356007
0.77087224 1.0769031 3.2423594
0.82031763 1.0806369 3.2456272
0.37887079 1.1166637 3.2010825
0.41964272 1.1190554 3.2044537
0.46821514 1.1205387 3.2041144
0.51831013 1.1250597 3.2119136
0.56857729 1.1291698 3.2179618
0.61629534 1.127551 3.2217975
0.66980225 1.1204963 3.230489
0.72209156 1.1260878 3.239275
0.76902157 1.1276591 3.2439857
0.82495975 1.121984 3.2452252
0.38311675 1.1747483 3.2010279
0.42367214 1.1764514 3.2045076
0.47060987 1.174552 3.2085459
0.52080971 1.1789615 3.2154248
0.56831789 1.1771975 3.2189851
0.62393713 1.1727781 3.2287085
0.67294627 1.1746993 3.2335298
0.72451013 1.1790016 3.2379658
0.77883178 1.171615 3.2445343
0.82861763 1.170962 3.2487628
0.37415016 1.2337734 3.2026355
0.42297724 1.2246464 3.2054458
0.47067186 1.2262342 3.2109461
0.52255535 1.2234186 3.2156887
0.57503372 1.2212827 3.221621
0.62424642 1.224126 3.2289495
0.67346865 1.2263037 3.2340136
0.72810036 1.2259802 3.2432926
0.78395921 1.217356 3.2476714
0.81934357 1.2119865 3.2476127
0.38030583 1.2742206 3.2056541
0.42533222 1.2800627 3.2100439
0.47739744 1.2715427 3.2160118
0.52521324 1.2703704 3.2209864
0.57610804 1.2748961 3.2265949
0.62532067 1.2774072 3.2325575
0.68175161 1.273031 3.2411139
0.73124373 1.2726188 3.2461107
0.77338624 1.2657083 3.245156
0.80182964 1.2964121 3.2487166
0.34407768 1.3277442 3.2008336
0.38021961 1.3198045 3.2050853
0.42708495 1.3260101 3.211725
0.47768354 1.3228799 3.2213945
0.52776039 1.3256559 3.2227609
0.57664049 1.3278283 3.2279651
0.63197821 1.3217022 3.2323883
0.6771217 1.3201476 3.2418637
0.71789443 1.3314044 3.2481003
0.75079924 1.3109652 3.2473166
0.24806274 1.3988338 3.2022159
0.28831154 1.3806956 3.2003517
0.33395398 1.3806038 3.2078304
0.37908578 1.3696213 3.2108657
0.42915553 1.3733485 3.2152445
0.47739756 1.3749015 3.2196355
0.53132564 1.375752 3.2322733
0.58232385 1.3740772 3.2368801
0.62784743 1.374563 3.2394624
0.67125303 1.3741889 3.241513
0.7155835 1.368921 3.2469769
0.28374982 1.4239682 3.2030952
0.33104986 1.4222523 3.2080314
0.38148224 1.4275362 3.2160444
0.4287712 1.4259205 3.2135024
0.48444012 1.4222373 3.224745
0.52784759 1.4202852 3.2277839
0.56765378 1.4231166 3.2357433
0.62014931 1.4235846 3.245682
0.68134803 1.4381236 3.2488036
0.70689964 1.4390925 3.2471561
0.21407586 1.4752545 3.2011814
0.28572625 1.4670454 3.2025497
0.3232986 1.4763823 3.2098298
0.370033 1.4768562 3.2180207
0.41731152 1.4792541 3.2233684
0.46785206 1.4740338 3.227828
0.51678097 1.4739369 3.2344306
0.57347709 1.4722637 3.2421739
0.62054533 1.468999 3.2463036
0.66930926 1.4601183 3.2463846
0.1851922 1.5472108 3.2005548
0.21255852 1.533011 3.2029724
0.27131432 1.5272872 3.2106297
0.32050562 1.5251625 3.2156284
0.36871356 1.5246269 3.2224007
0.41679472 1.5225564 3.2255576
0.47028336 1.5233005 3.2307959
0.52401739 1.5220649 3.2377973
0.57212877 1.5279143 3.2446048
0.61307287 1.5244977 3.2476454
0.1803505 1.5802904 3.2025764
0.21920437 1.5743753 3.2085249
0.26902601 1.5727174 3.2089865
0.31664518 1.5696421 3.2109489
0.37069836 1.574474 3.2254171
0.42383388 1.5722471 3.2312386
0.47311369 1.5743949 3.2358205
0.52232713 1.5737561 3.2407629
0.57682788 1.5731479 3.2458301
0.61196649 1.5786602 3.2486868
0.12019342 1.6242598 3.2014418
0.17822288 1.6162088 3.2029536
0.22036307 1.6249063 3.2099397
0.27053747 1.6231529 3.212065
0.32357302 1.6220648 3.2210927
0.37279102 1.6252893 3.2286162
0.42144701 1.6250885 3.228883
0.47592077 1.6258191 3.239953
0.53024751 1.6216555 3.2455544
0.56937867 1.6212031 3.2479699
0.66611516 1.6124872 3.2495408
0.087429836 1.6729643 3.2006311
0.12506767 1.6797068 3.2030635
0.1712025 1.6800703 3.2079196
0.22167198 1.6750011 3.2141657
0.27234069 1.675971 3.2180243
0.32093379 1.6749164 3.2238638
0.37478587 1.6760737 3.2302911
0.42914894 1.6780865 3.2376726
0.47608373 1.6738747 3.2408643
0.5266695 1.6692291 3.2449608
0.076825745 1.737003 3.2011988
0.12359347 1.7256683 3.2041955
0.16998434 1.7269601 3.2098067
0.22279011 1.7233849 3.2150142
0.27411807 1.7289896 3.2226362
0.32753503 1.7265805 3.228781
0.37367326 1.7193671 3.2273548
0.42871094 1.7233553 3.2382634
0.48154518 1.7303365 3.246146
0.51459569 1.7013448 3.2457552
0.58600622 1.7283198 3.2493987
0.024449896 1.7734751 3.2035522
0.074973628 1.7746239 3.2050385
0.12228414 1.7790037 3.2081404
0.17576647 1.7804163 3.2168865
0.22421676 1.7768271 3.2188673
0.27302963 1.7749488 3.2234941
0.32745838 1.7776049 3.2327797
