ply
format ascii 1.0
comment PCL generated
element vertex 1529
property float x
property float y
property float z
element camera 0
property float view_px
property float view_py
property float view_pz
property float x_axisx
property float x_axisy
property float x_axisz
property float y_axisx
property float y_axisy
property float y_axisz
property float z_axisx
property float z_axisy
property float z_axisz
property float focal
property float scalex
property float scaley
property float centerx
property float centery
property int viewportx
property int viewporty
property float k1
property float k2
end_header
2.0685458 -0.4172059 3.2274337
0.87413502 -0.37955081 3.2248163
0.92189616 -0.37605903 3.2257161
0.96300417 -0.37070403 3.2245896
2.0732269 -0.37265101 3.224458
0.83720821 -0.32998887 3.2137311
0.87479246 -0.32604635 3.2255707
0.92349881 -0.32483229 3.2266295
0.97134322 -0.32065278 3.2240703
1.0043691 -0.31737718 3.2163689
1.2944317 -0.33248368 3.2216678
1.3305593 -0.34153211 3.2206054
2.0792234 -0.32672203 3.2255743
0.481967 -0.26208341 3.2021861
0.77534199 -0.2630733 3.2098076
0.82325721 -0.27295482 3.2209623
0.87101758 -0.27149776 3.2266212
0.92476928 -0.26973531 3.2344615
0.9765712 -0.27088231 3.2389133
1.0175519 -0.26439101 3.2292473
2.0485642 -0.29649463 3.2276242
2.076472 -0.27573025 3.2248425
2.1003242 -0.28763887 3.201371
0.4814049 -0.21556611 3.2006235
0.52046418 -0.20037778 3.2007637
0.57591075 -0.20088537 3.2028723
0.61589968 -0.2013227 3.2051907
0.68852675 -0.20216753 3.2093983
0.72970527 -0.21838945 3.2130508
0.76995981 -0.22231169 3.2187626
0.82144803 -0.21997939 3.2224057
0.87265658 -0.22098215 3.2291272
0.92376381 -0.22187082 3.2333369
0.97591931 -0.22290795 3.2391605
1.0260769 -0.22340481 3.2366927
1.061125 -0.2258738 3.2182934
1.219527 -0.21046717 3.2431316
1.2688743 -0.22680177 3.2315857
1.3123854 -0.24506962 3.2491963
2.0729156 -0.22737527 3.2341146
0.47851962 -0.17251971 3.2039933
0.52303922 -0.17468433 3.2014334
0.57595563 -0.16998383 3.2042429
0.61404192 -0.17025477 3.2049251
0.68965578 -0.17132695 3.2158225
0.72176445 -0.17156047 3.2154253
0.7716465 -0.17222974 3.2210264
0.82096821 -0.17270541 3.2224035
0.87285161 -0.17365235 3.2317235
0.92461181 -0.17445366 3.238241
0.97576648 -0.17508687 3.2405865
1.0267245 -0.17562278 3.2407219
1.0503726 -0.15838124 3.2089348
2.0724053 -0.17674595 3.2311752
0.49196303 -0.11295382 3.2049246
0.52818018 -0.11813865 3.2025502
0.57617629 -0.12365076 3.2068322
0.6197896 -0.12397692 3.210274
0.68875337 -0.1244219 3.2130024
0.72146553 -0.12468091 3.2154715
0.77086461 -0.12510332 3.2191827
0.82130909 -0.12563007 3.2251825
0.87225008 -0.12616712 3.2309465
0.9242413 -0.12680155 3.2383733
0.97555804 -0.12726682 3.2413847
1.0252489 -0.12974462 3.2441771
1.0625972 -0.12417904 3.2264633
2.0835919 -0.13983876 3.2365015
2.3177986 -0.10735317 3.2268009
0.44961497 -0.092153646 3.200398
0.49645999 -0.09228643 3.2006991
0.53604966 -0.077055015 3.2034683
0.57608008 -0.077247821 3.2072597
0.61397105 -0.080444351 3.2067916
0.68879694 -0.077741779 3.2141449
0.7215628 -0.077906109 3.2168531
0.77114481 -0.078174889 3.2213221
0.82059473 -0.07840506 3.2233419
0.87159371 -0.078750156 3.2294867
0.92331052 -0.079120949 3.2361042
0.97583908 -0.079521686 3.2433033
1.0275724 -0.077818759 3.2458692
1.0555551 -0.079495989 3.2266827
1.1859112 -0.064130262 3.2281852
1.2259564 -0.080189995 3.2173135
1.2728553 -0.097386099 3.2460582
2.3321843 -0.066855267 3.2211411
0.49632904 -0.023016319 3.2006204
0.53014147 -0.028839128 3.2038217
0.5755958 -0.030820046 3.2050314
0.61337686 -0.02776609 3.2042537
0.68786949 -0.031007407 3.2103081
0.72121936 -0.031088494 3.2158113
0.77192116 -0.031244133 3.2250452
0.82178634 -0.031349909 3.2285175
0.87218595 -0.031452522 3.2322018
0.9237476 -0.031584021 3.2381334
0.97511125 -0.031699788 3.2414076
1.0264736 -0.03180939 3.2429392
1.0573272 -0.02768773 3.2196503
1.1735859 -0.047879878 3.2187135
1.5098231 -0.03281052 3.238286
2.3387289 -0.029398626 3.2276766
0.44968259 0.015432009 3.2016528
0.4859561 0.015443299 3.2008293
0.52815783 0.02319788 3.2036486
0.576029 0.023261337 3.2074411
0.61725825 0.01942648 3.2058799
0.68615794 0.023344945 3.2023125
0.72170287 0.023492062 3.2179306
0.77143925 0.023590401 3.2229989
0.82131821 0.023689002 3.2266567
0.87206692 0.023795642 3.2317533
0.92342895 0.023906067 3.2370288
0.97497076 0.024012862 3.240916
1.0267147 0.024124412 3.2436411
1.0702621 0.025028061 3.2314615
1.1139927 0.042894807 3.2303741
1.1931117 0.016255077 3.2243259
2.3359129 0.018671246 3.2179325
0.49273372 0.077043995 3.2019944
0.52838111 0.077190116 3.204459
0.57620424 0.077407621 3.2078311
0.61373854 0.074368581 3.2055984
0.72161233 0.078094333 3.2169487
0.77134365 0.078402564 3.2220089
0.82109785 0.078674026 3.2252138
0.87190342 0.07901758 3.2305064
0.92382145 0.079422861 3.2377999
0.97536224 0.079755105 3.2416134
1.02773 0.080123812 3.2461843
1.0630442 0.072358847 3.2496116
1.140361 0.072704993 3.2475269
1.1655445 0.064704776 3.2446156
2.3418868 0.072875671 3.225497
0.44472301 0.13332961 3.2014182
0.49701366 0.12334386 3.2034309
0.52842563 0.12348256 3.2037289
0.57647133 0.12193309 3.2083538
0.61557388 0.12395508 3.2058547
0.72070539 0.1247408 3.2119262
0.77185088 0.12546879 3.2230935
0.82205695 0.12596555 3.2279425
0.87224591 0.12640485 3.2307591
0.92430413 0.12705699 3.2384214
0.97659707 0.12769081 3.2446427
1.0279896 0.12813827 3.245935
2.3374276 0.12062726 3.2123253
0.53083009 0.16798045 3.2049897
0.57664883 0.17033999 3.2078898
0.61539495 0.17036055 3.2034819
0.72172201 0.17173271 3.2149484
0.77264881 0.17265576 3.2249596
0.82223898 0.17319755 3.2271659
0.87375343 0.1740718 3.2348185
0.92472732 0.17474708 3.2384043
0.9770692 0.1755987 3.244693
1.0264652 0.17622356 3.246321
1.0717056 0.16873789 3.2472451
0.48797876 0.23439613 3.2015908
0.53226888 0.22716649 3.2041843
0.57696927 0.22464724 3.2074535
0.61347908 0.22736458 3.2048943
0.72113341 0.22446698 3.2167051
0.77309966 0.21985494 3.2249222
0.8233735 0.22071201 3.2296209
0.87508649 0.2218485 3.2378039
0.92545754 0.22254401 3.2389934
0.97700286 0.22343802 3.2424331
1.0271764 0.22238946 3.2466369
1.6984545 0.21842273 3.2180378
0.49417928 0.28187802 3.2037745
0.52951539 0.27832761 3.2038794
0.57769847 0.27920419 3.2086289
0.62039757 0.28171277 3.2065549
0.72514659 0.27856106 3.2180295
0.77337074 0.2748895 3.2231991
0.82236934 0.27385208 3.2288473
0.87425166 0.26909953 3.2322505
0.92604119 0.27037597 3.2385242
0.97804248 0.27158353 3.2433763
1.0252964 0.27492979 3.2466474
0.49337181 0.31434673 3.2050369
0.53059202 0.32536566 3.2074664
0.5782994 0.32607049 3.2090738
0.62534958 0.32633087 3.2058306
0.72483993 0.32919553 3.2207091
0.77489632 0.33049604 3.2260895
0.82686126 0.32863 3.2306969
0.87571353 0.32503068 3.2341955
0.9259367 0.3217622 3.2408516
0.97927707 0.31989095 3.2445045
1.0289402 0.32105467 3.2465656
1.6952202 0.30172437 3.2069142
1.7156383 0.32230389 3.2443335
2.1498051 0.33469465 3.2012112
0.48312497 0.38033977 3.2016354
0.53102845 0.37213558 3.2067499
0.5788452 0.37298509 3.2087157
0.62673569 0.37376311 3.2095153
0.72550827 0.37655079 3.2202005
0.77527541 0.3778809 3.2241721
0.82650143 0.37972927 3.2320063
0.87733316 0.38121179 3.2360973
0.9297691 0.37680998 3.2390356
0.97812843 0.37121397 3.2425981
1.0295291 0.36491987 3.2462564
2.1607506 0.37174001 3.2144349
2.2013183 0.37265909 3.203366
2.3041117 0.36279535 3.2457855
0.48881206 0.41274276 3.2019818
0.52726656 0.42466116 3.2057021
0.57975495 0.42027408 3.2099276
0.62757319 0.42104417 3.2099237
0.72632414 0.42407683 3.219846
0.7775597 0.42635381 3.2296762
0.82721829 0.42755586 3.2308159
0.87854981 0.42944112 3.2365172
0.93038666 0.43136787 3.2419758
0.98015428 0.42408258 3.2456212
1.0162206 0.40180501 3.2477529
2.1770205 0.41738126 3.2165112
0.47821784 0.48366189 3.2016926
0.52664536 0.47728041 3.2051356
0.58052403 0.47537276 3.2090864
0.62456214 0.46987405 3.2082019
0.72746342 0.47193643 3.2204902
0.77783161 0.47388655 3.2263727
0.82871944 0.4759104 3.2321596
0.87975758 0.47779745 3.2364347
0.92935157 0.47978047 3.2411301
0.97413474 0.47876549 3.2481601
1.0120013 0.47674903 3.2492993
0.47309652 0.51576567 3.2009504
0.52749324 0.52785987 3.2056887
0.58135533 0.53067863 3.2079883
0.61711752 0.53515285 3.2065978
0.69601458 0.51914209 3.2203901
0.7296747 0.52070826 3.2254272
0.77924615 0.52221984 3.227319
0.82985955 0.52421522 3.2316055
0.88128018 0.52648538 3.2370028
0.92397624 0.52811098 3.2394173
0.96896172 0.53084207 3.2481897
1.0160079 0.53234094 3.2480025
0.47832447 0.58333933 3.2021127
0.51805997 0.57650614 3.2042277
0.57165915 0.56260484 3.2097881
0.61257905 0.56190681 3.2006979
0.69571006 0.5503481 3.2154875
0.73464644 0.55697769 3.2252793
0.78089005 0.57089061 3.2286611
0.83164394 0.57309794 3.2330809
0.87766832 0.57267028 3.2360737
0.91968936 0.57918572 3.2407708
0.967228 0.57724237 3.2441146
1.0053689 0.58963811 3.2486713
0.43181604 0.63800073 3.2007253
0.48062816 0.62008381 3.2024453
0.5144462 0.62650865 3.2038343
0.78091514 0.62005192 3.2313871
0.82761902 0.62003541 3.233253
0.8725372 0.62637007 3.2370548
0.91985387 0.62675381 3.2429423
0.96642762 0.62868327 3.2442288
1.0424438 0.64914864 3.2491651
0.47191253 0.67083073 3.2009068
0.51004684 0.66862899 3.2019343
0.77568096 0.66837621 3.2289543
0.81841296 0.67079049 3.2339125
0.87021881 0.67383367 3.2400048
0.92233062 0.67677122 3.2449863
0.971973 0.68392563 3.2472229
1.0429246 0.66568196 3.2483938
0.44165042 0.7347886 3.2015464
0.48481417 0.71942592 3.2009192
0.50461066 0.71978164 3.200516
0.77088749 0.72626168 3.2274559
0.82021374 0.7202825 3.2339928
0.87255758 0.72389323 3.2415903
0.92474717 0.7270087 3.2463286
0.96790093 0.72911358 3.2475879
1.0281227 0.71537435 3.2493119
0.50667185 0.78556776 3.2036526
0.77352536 0.77193123 3.2294388
0.82237381 0.77032793 3.2349548
0.87477279 0.77411473 3.2421455
0.92704177 0.7773937 3.2466059
0.96153617 0.77912521 3.2473452
0.43593913 0.84046555 3.2008696
0.50686187 0.80158001 3.2022281
0.72071475 0.84421301 3.2128296
0.7717039 0.8206706 3.2307808
0.82489258 0.82098508 3.2367072
0.8779037 0.8254301 3.2455125
0.92909551 0.81156826 3.2483542
0.96317059 0.81295383 3.2473748
0.46097702 0.89045817 3.2003181
0.52444923 0.86754644 3.2007902
0.57324654 0.88560534 3.2006373
0.61853445 0.88424689 3.2052648
0.67946231 0.8826912 3.212791
0.72287691 0.87873256 3.2166259
0.77796614 0.87052161 3.2327826
0.8279264 0.87247366 3.2399309
0.87682962 0.87058419 3.242619
0.9144578 0.86176682 3.2485723
0.95105737 0.89815325 3.2499866
0.58200002 0.90274811 3.2013893
0.62575167 0.92140228 3.202605
0.67498803 0.9266789 3.2146397
0.72494459 0.9298656 3.2261879
0.77861935 0.91993892 3.2354007
0.83058429 0.9238987 3.241046
0.87754488 0.9247303 3.2445204
0.91708636 0.92130512 3.2470012
0.44784766 0.9987641 3.2000706
0.48517537 0.97302914 3.2041676
0.52832824 0.96930474 3.2058361
0.57690644 0.97284895 3.2049382
0.62656921 0.97385681 3.2090468
0.67784703 0.97875714 3.218509
0.7289319 0.97467768 3.2260542
0.78092837 0.97122502 3.2352068
0.82389474 0.97420305 3.2382002
0.85166627 0.97814351 3.2469251
0.90468901 0.99900347 3.2491467
0.4489328 1.0250287 3.2026694
0.48319361 1.020113 3.203831
0.53040481 1.0209891 3.208293
0.58012503 1.0242953 3.2129543
0.62972534 1.0269027 3.2149322
0.67853367 1.0268136 3.2236602
0.73266524 1.0201699 3.2339911
0.77259052 1.0263752 3.2397816
0.81966472 1.0277928 3.2445364
0.86912334 1.0311779 3.2468014
0.94141316 1.0361434 3.2492106
0.41804817 1.0776299 3.2010238
0.47486216 1.0694523 3.2054191
0.52728426 1.0733356 3.2116013
0.57793045 1.0781626 3.220341
0.62511265 1.0809377 3.222728
0.67684919 1.070598 3.2295189
0.72103047 1.0745757 3.2362552
0.77069569 1.0766574 3.2416105
0.82270902 1.0807297 3.2454748
0.8565166 1.0656819 3.2474682
0.38736486 1.1341499 3.2008977
0.42272705 1.1251968 3.2018852
0.46840185 1.1209897 3.2054129
0.5178802 1.1241231 3.2092264
0.56856519 1.1291504 3.2179277
0.61885148 1.124529 3.2236185
0.67006505 1.1209242 3.2317498
0.72192246 1.1258451 3.238575
0.77103686 1.1270479 3.240855
0.82168663 1.1231025 3.2456279
0.86475468 1.1074861 3.24788
0.38773522 1.1512257 3.2000248
0.42108378 1.1710336 3.2035847
0.47071281 1.1748136 3.209265
0.518673 1.1766688 3.2154064
0.57094067 1.1743506 3.2213199
0.62109637 1.1692206 3.2252612
0.67268538 1.174252 3.2322686
0.7248503 1.1795545 3.2394896
0.77319467 1.170203 3.2458396
0.81028903 1.1518413 3.2484908
0.37612557 1.2219598 3.2024028
0.42344433 1.2260189 3.2090287
0.4728328 1.2285897 3.2110612
0.52583516 1.2221947 3.2222652
0.57316452 1.2196078 3.223356
0.62428814 1.2241966 3.22914
0.67647719 1.2300762 3.2377198
0.72496283 1.2278795 3.2440629
0.77153045 1.2296625 3.2463608
0.33538914 1.2930121 3.2048831
0.38027683 1.2787753 3.2042105
0.42521116 1.2797164 3.2091687
0.47513786 1.2751912 3.2157183
0.52535117 1.2706981 3.2218294
0.57602239 1.274693 3.2260909
0.62542439 1.2776384 3.2331362
0.67951679 1.2767867 3.2410681
0.73114574 1.2724364 3.2456384
0.77026492 1.2623671 3.2448881
0.83066845 1.2748353 3.2447896
0.8511076 1.2623278 3.2468469
0.28747687 1.3442147 3.2006633
0.3333801 1.3281964 3.2026417
0.37549561 1.3294773 3.2080328
0.42720878 1.3264021 3.2126763
0.47780663 1.3232237 3.2222135
0.52791286 1.3260074 3.2236354
0.57630217 1.3250924 3.2285373
0.6336624 1.3252391 3.2410052
0.67778051 1.3214493 3.2450311
0.71460533 1.3271054 3.2471066
0.75057918 1.3105811 3.2463651
0.2844708 1.385813 3.2018361
0.32971108 1.3757582 3.2075474
0.3817203 1.3754269 3.2119353
0.42956591 1.3746513 3.2182829
0.47787562 1.3762963 3.2228961
0.53053927 1.3737403 3.2275326
0.58199751 1.3705037 3.2357831
0.62175769 1.3773603 3.2406785
0.6683712 1.3784221 3.2430909
0.71703714 1.3759438 3.2478995
0.2482945 1.4164258 3.2001641
0.28707567 1.4230518 3.2058342
0.33099133 1.4220483 3.2075412
0.38147038 1.4274633 3.2158797
0.43178353 1.4228783 3.2223215
0.48437041 1.4220093 3.2242393
0.52838904 1.4194108 3.2318518
0.57040906 1.4292837 3.2379742
0.61380321 1.4245129 3.2413704
0.66591549 1.4237552 3.2470138
0.71669215 1.4085265 3.2479575
0.27727139 1.4778236 3.2033122
0.32463598 1.4738761 3.2121611
0.37505504 1.4755312 3.2188654
0.42506829 1.4692556 3.2214582
0.47003344 1.476456 3.2277169
0.5171482 1.4768229 3.233983
0.57085377 1.4752024 3.2399292
0.61930484 1.4711105 3.2458768
0.6630947 1.4743689 3.2470505
0.15220469 1.530021 3.2058091
0.21258424 1.5332114 3.2033942
0.27638865 1.526275 3.2122364
0.3202084 1.5225441 3.2166166
0.36823264 1.5226343 3.2182181
0.42121792 1.5251787 3.2241187
0.46974573 1.5216175 3.2271986
0.52433819 1.5248288 3.2370133
0.57374024 1.5245588 3.2423711
0.60917211 1.5294425 3.2483449
0.17587447 1.572001 3.204268
0.22146964 1.5755452 3.2060695
0.26949885 1.5754895 3.2146349
0.31700763 1.5714191 3.214592
0.37035647 1.5729398 3.2222636
0.41956624 1.5757109 3.2323143
0.47299564 1.5739625 3.2349558
0.52469009 1.5700088 3.2414992
0.57588512 1.5638574 3.2429333
0.6340763 1.563603 3.24843
0.66300082 1.5711519 3.2464015
0.13133858 1.6311432 3.2016528
0.17011902 1.6239861 3.2046943
0.22052833 1.6260951 3.2122819
0.27092743 1.6255946 3.2169256
0.32360777 1.6222813 3.2215316
0.37279662 1.6252799 3.2286251
0.42194214 1.6270167 3.2327335
0.47613856 1.6266128 3.2415202
0.51880288 1.611419 3.246316
0.07927376 1.6848657 3.2044454
0.12419307 1.6766163 3.2029061
0.17361714 1.6750728 3.2103059
0.22165819 1.6748631 3.213903
0.27023605 1.6728987 3.2233253
0.3234888 1.6721069 3.226609
0.37467954 1.6756207 3.2294066
0.42893177 1.6772463 3.2360327
0.47674054 1.6761938 3.2453656
0.52263165 1.6827992 3.2482934
0.083766162 1.7247806 3.2035193
0.1214603 1.7250468 3.2030988
0.17181301 1.7178291 3.2069283
0.22295366 1.7245513 3.2171876
0.27622932 1.7227564 3.2251203
0.32297194 1.720543 3.2273908
0.37689063 1.7193456 3.2353756
0.42955974 1.7268571 3.2448626
0.48145685 1.7249424 3.2475574
0.52904958 1.7108877 3.246675
0.55928791 1.7165396 3.2499361
0.07504268 1.7797648 3.2068868
0.12572786 1.7817404 3.2092571
0.17324029 1.7744725 3.2168961
0.2221088 1.7746919 3.2198064
0.27576545 1.7734218 3.2286651
0.33002621 1.7747803 3.2355595
0.37909147 1.7720871 3.2375102
0.43367147 1.7754076 3.2434196
0.4750348 1.7719508 3.2472908
0.51078749 1.7858323 3.2496943
0.038077116 1.8256226 3.2000697
0.071889505 1.8191292 3.2028518
0.12290391 1.8218328 3.2102327
0.17430584 1.8277678 3.2189188
0.22805461 1.8268235 3.2227328
0.27699557 1.8152825 3.2288046
0.32916808 1.8211566 3.2357118
0.38145426 1.8259624 3.2400777
0.42327857 1.823815 3.2437367
0.45147914 1.8233292 3.2477572
0.51165688 1.806077 3.2481751
-0.02122535 1.8899249 3.2012918
0.02470414 1.8817155 3.2018428
0.074598849 1.876637 3.2099066
0.12384391 1.8786931 3.2168834
0.17270777 1.8746089 3.2187173
0.22712301 1.8769339 3.2281516
0.2788597 1.8705889 3.232662
0.32880211 1.8719311 3.2361538
0.37453076 1.8685679 3.2406886
0.41854465 1.8728485 3.2441533
0.45458767 1.8878629 3.2479923
-0.012748207 1.9116509 3.2016397
0.027159937 1.9218727 3.2064838
0.072961159 1.9308972 3.2149811
0.12468094 1.9341222 3.2191665
0.176144 1.9217792 3.2210207
0.22798206 1.9221079 3.2234933
0.28028822 1.9233118 3.2303245
0.32470471 1.9310524 3.2403278
0.36831576 1.9240818 3.2435029
0.41773295 1.9197787 3.2440939
0.46170354 1.9165579 3.2466743
-0.026563725 1.9647503 3.2026539
0.025002722 1.9718349 3.2070186
0.07331612 1.9745325 3.2144339
0.12527168 1.9778658 3.2186728
0.17957768 1.9752909 3.2260685
0.22980244 1.9793675 3.2303393
0.2762824 1.9731789 3.2341783
0.3212077 1.9779758 3.241441
0.36693421 1.9876972 3.2482989
0.42052117 1.9734401 3.2474687
-0.064897962 2.0441117 3.2003572
-0.030211037 2.0230536 3.2032013
0.02746284 2.0186055 3.2079823
0.073716976 2.0197687 3.2153113
0.12581784 2.0213263 3.2165794
0.17837805 2.0271952 3.2240458
0.2312554 2.0334148 3.2313941
0.27511203 2.026392 3.2357063
0.31940207 2.0215909 3.2431173
0.36895257 2.0228884 3.2449107
0.40914923 2.0416307 3.2495043
-0.10019386 2.0924959 3.203557
-0.013015697 2.0903947 3.2015271
0.024742186 2.0763135 3.2092941
0.074150957 2.0729764 3.2139122
0.12401931 2.0712321 3.2157819
0.17935832 2.0733669 3.2248182
0.22888494 2.0767486 3.231318
0.27359781 2.0777895 3.2326555
0.32120517 2.0719392 3.2425613
0.36898673 2.0758622 3.2466056
0.41645178 2.0722959 3.2487967
-0.021816656 2.1255159 3.2017326
0.021982821 2.1305554 3.2093127
0.074704014 2.1311827 3.2172337
0.12736779 2.1227729 3.2193041
0.18001394 2.1161306 3.219182
0.22513767 2.1278543 3.2348857
0.27001092 2.1337526 3.2412472
0.32065773 2.1253381 3.2427871
0.3594906 2.1306076 3.2478745
-0.066202439 2.191124 3.2105253
-0.03080903 2.1861007 3.2035573
0.022064729 2.175591 3.2057493
0.075101189 2.1809442 3.2130063
0.1282168 2.1749661 3.2205696
0.18169482 2.1714709 3.2311964
0.22625858 2.1739788 3.2327631
0.27106136 2.17747 3.2353067
0.32549384 2.1762843 3.2476113
0.3683154 2.1727681 3.2459919
-0.030937558 2.2227666 3.2040339
0.022231683 2.2277946 3.2113571
0.075576216 2.2306957 3.2149003
0.13150613 2.228483 3.2178366
0.1720556 2.2251801 3.2287986
0.21858841 2.2216945 3.2322083
0.27281371 2.2273593 3.2372749
0.32708046 2.2227623 3.2445071
0.39008498 2.2152534 3.2460561
0.41842166 2.2319796 3.2499859
-0.031063557 2.2580893 3.2019045
0.02232494 2.2728908 3.2053032
0.075987689 2.2788775 3.21311
0.12980443 2.2825801 3.216975
0.1745494 2.2738197 3.2205682
0.21747135 2.2757819 3.225713
0.2744914 2.2769904 3.2374079
0.32937738 2.2804298 3.2442291
-0.013373384 2.3077807 3.2016013
0.02691504 2.3149076 3.2025871
0.076296292 2.3241761 3.2060077
0.13046399 2.3301494 3.2128565
0.17754354 2.3289354 3.2199738
0.22354229 2.3323605 3.2193985
0.2756187 2.32271 3.2306757
0.33062515 2.3282206 3.2343085
0.37677419 2.3246303 3.2431519
0.41949877 2.3372283 3.2423737
0.094529785 2.3584735 3.2000067
0.13979541 2.3630219 3.204854
0.18475781 2.3615019 3.200983
0.22141564 2.3679276 3.2078354
0.2762413 2.3732657 3.2116368
0.32625604 2.3769383 3.2179699
0.37454453 2.3812084 3.2204564
0.4263508 2.3750007 3.2263801
0.47462842 2.3795102 3.232321
0.51873159 2.3875959 3.2433026
0.57898742 2.3947303 3.2358913
0.62198603 2.3963928 3.2409086
0.35963351 2.4040964 3.2114007
0.42321074 2.4032447 3.2039807
0.47879863 2.4082053 3.2043755
0.52597046 2.4062941 3.2138104
0.56515259 2.4082437 3.2292032
0.62905508 2.4065456 3.2172616
0.67265826 2.4070878 3.2328649
0.72447461 2.4093692 3.2232647
0.77710861 2.4152963 3.2215514
0.82307744 2.4188125 3.2358348
0.87927055 2.4152365 3.228116
0.92206824 2.4135962 3.2292838
0.97678071 2.4216406 3.2237005
1.029139 2.4255905 3.2352672
1.0815609 2.4218276 3.231257
1.1260384 2.4225218 3.2235892
1.1770262 2.4305007 3.2200954
1.2307711 2.4243727 3.2343564
1.2702295 2.4271472 3.2257404
1.3188033 2.4341443 3.2239597
1.375371 2.4258049 3.2285507
1.4219193 2.4316518 3.2204633
1.4783417 2.4297414 3.2340915
1.5274462 2.4332411 3.2173748
1.5738082 2.434597 3.2183936
1.6316303 2.4346807 3.2195084
1.6724895 2.4338133 3.2297077
1.7284651 2.4436245 3.2204175
1.7744328 2.4440725 3.230088
1.8235528 2.4458528 3.2247591
1.8748238 2.4410143 3.2380579
1.9086086 2.4458768 3.2292545
1.9870058 2.4484024 3.2408457
2.0054626 2.4462669 3.2271411
2.0607562 2.4437244 3.2417617
2.1011689 2.4434266 3.2184281
2.4695089 2.4446816 3.2315569
2.7592406 2.4497385 3.2436385
1.8571403 2.4508669 3.216589
1.9182618 2.4553862 3.2167826
1.9651115 2.4539368 3.2135644
2.0398531 2.4512069 3.2169828
2.0930791 2.4578016 3.2489834
2.1341155 2.457957 3.2257764
2.1727583 2.456677 3.226428
2.2160177 2.4595101 3.2143567
2.2736909 2.4668446 3.2100391
2.3203008 2.4626641 3.2261763
2.3737757 2.4592021 3.2260103
2.4345829 2.459044 3.2180235
2.4757533 2.4510596 3.2118504
2.5322258 2.4539864 3.236083
2.5828056 2.4615955 3.2164221
2.6414554 2.4650366 3.2407272
2.7939751 2.4611206 3.2424281
2.8299098 2.4638114 3.2212505
1.6452869 -0.46117163 3.2936025
1.8873789 -0.48772511 3.2751396
1.9635376 -0.49369571 3.292187
2.0741439 -0.44169813 3.2557914
2.0660062 -0.35187453 3.2511294
1.3320889 -0.32143593 3.2707703
1.3593895 -0.32202548 3.2698576
1.4257008 -0.30910847 3.2948635
1.4792552 -0.30980402 3.2868023
2.0664697 -0.3343311 3.253258
1.2484561 -0.27812919 3.2690446
1.2767154 -0.27891162 3.271965
1.3226194 -0.27786234 3.2727773
1.3746489 -0.28580827 3.2909973
1.4811387 -0.27943251 3.2929232
1.5007632 -0.26876065 3.294456
1.2339482 -0.23193656 3.2568808
1.2785554 -0.23241858 3.2651577
1.3335023 -0.22591586 3.2872267
1.3727676 -0.22853774 3.2963133
1.4447176 -0.23423418 3.2993417
1.4812224 -0.2227091 3.2960954
1.5007517 -0.20149633 3.2977986
1.2265176 -0.17909572 3.263041
1.2779305 -0.18057577 3.2797763
1.3278984 -0.18177813 3.290415
1.3724597 -0.18691781 3.2973642
1.4243516 -0.16682056 3.2988715
1.4858414 -0.15628119 3.2948596
1.5005695 -0.17625594 3.2983902
1.0464029 -0.11209809 3.2506533
1.2855415 -0.14763893 3.2771709
1.3294677 -0.1343725 3.295887
1.3710665 -0.12854573 3.2959104
1.4054791 -0.1332074 3.2998319
1.4820303 -0.11501554 3.2963674
2.2999232 -0.10866685 3.2906296
2.3115425 -0.10834471 3.271276
1.0296028 -0.095994875 3.2520354
1.2370669 -0.065121591 3.2701728
1.2753329 -0.073581018 3.2758245
1.3250161 -0.077740788 3.2925684
1.374871 -0.086977594 3.2947929
1.4990767 -0.066908881 3.2978497
1.516042 -0.074479185 3.2511635
2.324908 -0.072118588 3.2730112
1.2282745 -0.032380924 3.2649567
1.2790867 -0.032677565 3.2859497
1.3271148 -0.032850336 3.2917657
1.3711748 -0.037163887 3.2977016
1.4041821 -0.049755562 3.298336
1.4980148 -0.024904154 3.2959056
1.5226214 -0.03310534 3.2657058
2.3276832 -0.029682191 3.2714517
1.080583 0.048360944 3.2508464
1.1884218 0.048854843 3.2593293
1.2247051 0.021156577 3.2682631
1.2719165 0.027097488 3.2865458
1.3278463 0.025046272 3.2935569
1.3662629 0.016843488 3.2971771
1.4867039 0.0058691646 3.2991474
1.5188745 0.016968668 3.2680888
2.3283522 0.02250788 3.2747459
1.0859357 0.08284688 3.2515378
1.119771 0.08475671 3.2507873
1.1767777 0.086628757 3.2590363
1.2189111 0.081725888 3.2691548
1.2698121 0.082385242 3.2846897
1.3270127 0.082884274 3.2908223
1.3669184 0.058398414 3.2984109
1.5131965 0.063569307 3.2616134
2.3396037 0.073661588 3.2755499
1.081561 0.12881584 3.2521534
1.1273087 0.12947886 3.2589569
1.1729666 0.13006473 3.2637889
1.2244874 0.12852752 3.2727406
1.2720299 0.13376907 3.2833686
1.3265793 0.13059591 3.2943361
1.3676877 0.12494257 3.2989326
1.489748 0.13380232 3.2757432
1.5040742 0.1173484 3.2796366
2.3480635 0.11633929 3.2744815
2.350446 0.14615415 3.2529931
1.0469522 0.17664181 3.2502205
1.0737658 0.18112178 3.2530293
1.1198387 0.17804147 3.2609873
1.175656 0.17917053 3.2696571
1.2222513 0.18005641 3.2753694
1.272266 0.18137017 3.2882411
1.3296596 0.18248451 3.2945211
1.3809856 0.17232068 3.2994337
1.5003632 0.1599725 3.2982631
1.0481061 0.24108718 3.2509613
1.0747043 0.22555964 3.253948
1.121015 0.22678669 3.2623031
1.1768918 0.22822343 3.2709813
1.2242543 0.22947866 3.2785854
1.2739449 0.23108196 3.2904131
1.3211178 0.23213406 3.2940457
1.3500082 0.21622303 3.297776
1.5011444 0.2105135 3.2979407
1.0482914 0.26522917 3.2502403
1.0750328 0.27393761 3.2523966
1.1214175 0.27544701 3.260896
1.177629 0.27726212 3.2704136
1.2249084 0.27875745 3.2776597
1.2734466 0.28042927 3.2864094
1.3255907 0.27964863 3.2927241
1.3659208 0.27655354 3.2970531
1.5395437 0.27023134 3.2940674
1.5795964 0.27132556 3.295809
1.616148 0.27179086 3.2895663
1.049655 0.32187685 3.2509844
1.0770283 0.32286862 3.2553871
1.1212151 0.32397237 3.2572205
1.1782888 0.32633954 3.2690933
1.225835 0.32817733 3.2769988
1.2726085 0.32968548 3.2810576
1.3226546 0.33191171 3.2918873
1.3529114 0.33324853 3.2980232
1.7221971 0.31817389 3.2963932
1.033891 0.38634118 3.2506905
1.0751677 0.37410903 3.2572131
1.1243465 0.37359256 3.2627385
1.179372 0.37561172 3.2684705
1.2267795 0.37766051 3.2757931
1.2757043 0.38002169 3.2852614
1.324427 0.38218141 3.292495
1.3602591 0.36702672 3.2982585
1.7046791 0.39538962 3.2960892
2.1777143 0.37776062 3.2756786
2.2374182 0.39677966 3.2542062
2.2782478 0.3629815 3.2626476
1.0241641 0.42429379 3.2529004
1.0708063 0.42039177 3.2551355
1.124866 0.4225001 3.2601504
1.1801381 0.42486104 3.2664297
1.2284087 0.42747286 3.2759485
1.2779943 0.43033683 3.2869005
1.3262483 0.43259653 3.2926855
1.375477 0.43503019 3.2991183
1.4497515 0.40366679 3.2988853
1.7204367 0.43195778 3.2754765
1.7634455 0.41429064 3.2882636
2.1917193 0.42719445 3.2800806
2.2449789 0.41619065 3.2634237
2.2849607 0.40198854 3.2869549
0.96832508 0.4903197 3.2504516
1.0224683 0.46424812 3.2510543
1.0734248 0.47001213 3.258503
1.1279311 0.47251627 3.26439
1.1743685 0.47484401 3.2705052
1.2215762 0.47729915 3.276978
1.2798845 0.48067823 3.2869444
1.3257319 0.48230585 3.2865331
1.356654 0.4677735 3.2956805
1.7141154 0.48764914 3.2654901
1.0269305 0.52428019 3.2544267
1.0745288 0.51917064 3.2568161
1.1300997 0.52237344 3.2654862
1.1763577 0.52483523 3.2708361
1.2232423 0.52738452 3.2761974
1.2752421 0.5280503 3.2833824
1.3164426 0.52978456 3.2905936
1.3599378 0.51910967 3.2983644
0.98899955 0.59757513 3.2503269
1.0282346 0.58044755 3.2520831
1.0767885 0.56902188 3.2580252
1.1268027 0.56970394 3.2651865
1.1719975 0.57694149 3.271302
1.2265142 0.57835031 3.2790892
1.275095 0.58170056 3.2869759
1.3178381 0.56677228 3.2882223
1.3628911 0.5873332 3.2975888
0.99029219 0.63070554 3.2503476
1.0235571 0.63049477 3.2535293
1.0791821 0.61916924 3.2591021
1.124607 0.62178248 3.2633278
1.1721083 0.62531388 3.2717643
1.2299304 0.6296767 3.2818425
1.2765383 0.63225067 3.2842138
1.3235105 0.61703253 3.2943265
1.3645718 0.62166619 3.2972577
0.98303646 0.66358709 3.25034
1.0222846 0.68206376 3.2512918
1.0815355 0.6694901 3.2595174
1.1280252 0.67290169 3.2664537
1.175406 0.67656136 3.2741251
1.2240254 0.68068606 3.2834442
1.2714436 0.67554522 3.2889433
1.3265417 0.67099571 3.2954605
1.361941 0.67912942 3.2982333
0.99502891 0.73120522 3.2518356
1.0309217 0.72055012 3.2575142
1.0722523 0.72240454 3.2618463
1.1221147 0.72360045 3.2677147
1.1780385 0.72768921 3.2740097
1.2252389 0.73120141 3.279155
1.2738184 0.71857345 3.2888288
1.3209589 0.7190761 3.2958667
1.3508911 0.70725834 3.2977629
0.98781508 0.77868843 3.2549138
1.0248303 0.76776457 3.2586977
1.07042 0.77119839 3.2640581
1.1257024 0.77539188 3.2702494
1.1758274 0.77395803 3.2775524
1.2237307 0.77659804 3.2827935
1.2771069 0.77069068 3.2892587
1.3210834 0.77439255 3.2945385
0.9312076 0.83781987 3.2514515
0.97503555 0.83241487 3.2553105
1.0188204 0.81849468 3.2590568
1.072543 0.82205504 3.2621539
1.1265694 0.82496077 3.2711344
1.1729058 0.82686347 3.2799313
1.2240089 0.81903118 3.2865069
1.2725531 0.82341498 3.292876
1.3191398 0.8326357 3.2984297
1.3599147 0.84757036 3.2969935
0.88236386 0.89470214 3.2502258
0.92253733 0.88600892 3.2528276
0.97076571 0.87486762 3.2552986
1.0208385 0.86931711 3.2566066
1.075664 0.87390924 3.2626841
1.1235948 0.87917119 3.2725725
1.170357 0.87484169 3.2788029
1.2267623 0.87109464 3.2847106
1.2763867 0.87645292 3.2935092
1.3139538 0.88018644 3.298532
0.92393649 0.94453067 3.2518947
0.97370034 0.9229275 3.2552829
1.0251405 0.9223941 3.2608254
1.0750449 0.9245562 3.2671349
1.1180232 0.93120623 3.2728884
1.1779511 0.92292839 3.2851861
1.2253494 0.9215222 3.2858138
1.2731645 0.93137449 3.2929201
1.3094891 0.92411828 3.2980192
0.87862521 0.98094624 3.2516804
0.92194963 0.9753685 3.2542019
0.97611415 0.97216576 3.2626131
1.0301758 0.9765802 3.2667313
1.0745801 0.97754318 3.2728055
1.1245019 0.97276646 3.2764421
1.1771109 0.97171092 3.2861826
1.2235023 0.98097432 3.2907157
1.2605582 0.97739381 3.2935019
1.3121449 0.95147115 3.2995262
0.8717519 1.0151521 3.2511172
0.92416537 1.0187978 3.253242
0.97859448 1.0241933 3.2602899
1.0279986 1.0264186 3.2657044
1.0762702 1.0223116 3.2724469
1.1260394 1.0216038 3.2786133
1.1736355 1.0266465 3.2843513
1.2138897 1.0242524 3.2864621
0.88178629 1.0753142 3.2546651
0.92929691 1.0740256 3.2601044
0.97766364 1.075583 3.2632713
1.0206701 1.0805801 3.2715628
1.0749806 1.0710166 3.2766447
1.1285022 1.0741158 3.2814815
1.1747572 1.0794282 3.2921264
1.2263921 1.0668141 3.2951136
1.2643143 1.0559995 3.2996454
0.84497631 1.1377951 3.2535677
0.88654453 1.1307591 3.2604454
0.92722672 1.1244547 3.259171
0.96977848 1.129532 3.267333
1.0268068 1.1231952 3.274868
1.0775093 1.1239547 3.2797916
1.1197728 1.1298634 3.2811329
1.1766351 1.1217413 3.2917764
1.2178357 1.1286939 3.295887
1.2527196 1.1461234 3.2981126
0.79541916 1.178874 3.251574
0.83181709 1.1746215 3.2522895
0.87476426 1.1776007 3.25951
0.91745371 1.1774698 3.2659304
0.97597647 1.1726422 3.2711396
1.0292851 1.1765397 3.277874
1.0742446 1.1782869 3.2837925
1.1243179 1.173547 3.2859378
1.1769485 1.172959 3.2939553
1.2168717 1.1744684 3.2952337
1.2543235 1.1647189 3.2979901
0.74669737 1.2212743 3.2522914
0.78747171 1.2164809 3.2521794
0.82521337 1.2276423 3.2564619
0.86721593 1.2292428 3.2595377
0.92535341 1.2221755 3.266752
0.97805774 1.2259324 3.2729502
1.0298555 1.2280612 3.2742276
1.0805063 1.2220714 3.2811203
1.1260607 1.2240404 3.2865882
1.1748267 1.2306458 3.2935593
1.2211426 1.2199928 3.295846
1.3085361 1.235456 3.2987566
0.78003806 1.2914643 3.255583
0.80708623 1.2815418 3.2570813
0.88416606 1.2750194 3.2648232
0.92737812 1.2758937 3.2685511
0.97605425 1.275426 3.2740395
1.023011 1.2796406 3.2786751
1.0755792 1.2756461 3.2864244
1.1198481 1.2762005 3.2878025
1.1696093 1.277011 3.2933178
1.2164459 1.2683415 3.2964842
0.73629057 1.3396516 3.2519801
0.77375996 1.3261553 3.2539248
0.82572651 1.3256589 3.2584889
0.87519711 1.3245611 3.2661893
0.92283165 1.3233705 3.2720089
0.97133952 1.3251936 3.2772086
1.0241263 1.3260843 3.2821648
1.0742012 1.3262995 3.2879927
1.1271772 1.3292115 3.2964802
1.1714119 1.3221729 3.2932436
1.2099819 1.3093371 3.2936254
0.73884523 1.3693469 3.2558503
0.77410275 1.3726602 3.2580788
0.82461357 1.3745528 3.2597504
0.87369567 1.3761816 3.2723053
0.91894501 1.3723025 3.2773798
0.9710902 1.3750772 3.2795641
1.0249643 1.3725849 3.2844524
1.0741394 1.3790903 3.2930136
1.122552 1.3766181 3.2913582
1.1687908 1.3718185 3.2922125
0.63912165 1.4371507 3.2526846
0.68036938 1.436296 3.2594633
0.72805768 1.4311738 3.25488
0.77517122 1.4244467 3.2590427
0.83126086 1.4208049 3.2654054
0.87409174 1.4274206 3.2742829
0.92067391 1.4269871 3.2765069
0.98024851 1.4227182 3.2812884
1.0258613 1.4253497 3.291189
1.0714132 1.4288499 3.289248
1.11544 1.4223288 3.2946689
1.1800814 1.4367123 3.2978857
1.2171427 1.4278374 3.2985115
0.63588542 1.4816145 3.2528231
0.68224508 1.4795462 3.2559187
0.72799641 1.4730204 3.2558682
0.78147471 1.4702746 3.2627378
0.82450974 1.4806055 3.2725832
0.87054217 1.479535 3.2735426
0.92889756 1.4738214 3.2753117
0.97580904 1.4710703 3.2785404
1.0245419 1.4754798 3.2902451
1.0741861 1.4821787 3.2946033
1.1262445 1.496199 3.2964897
1.1618178 1.4711256 3.2985301
1.2105049 1.4861881 3.2981675
0.63094783 1.5265749 3.2561443
0.67958921 1.5282043 3.2568996
0.72431517 1.5251142 3.2645826
0.76541096 1.5225775 3.2646267
0.82286054 1.5265592 3.2727737
0.88064438 1.5302267 3.2795289
0.92184079 1.5261099 3.2836738
0.96953773 1.5256981 3.286227
1.0252017 1.5229713 3.2903588
1.0758051 1.5177511 3.2971885
1.1186138 1.5208359 3.2939186
1.1557827 1.5094211 3.2967319
0.5793913 1.5902824 3.2566969
0.63019526 1.5803788 3.25388
0.67310899 1.5708116 3.2546017
0.71895093 1.5742278 3.2653992
0.77572995 1.5752169 3.2740791
0.82746482 1.5780106 3.2762785
0.87884295 1.5737863 3.2834466
0.92508459 1.5771433 3.2843933
0.97201329 1.5741456 3.2881355
1.0295547 1.572896 3.2892563
1.0797268 1.5750079 3.2956939
1.1250104 1.5674846 3.2995446
0.53663558 1.6346788 3.2550673
0.57881796 1.6264195 3.2543526
0.62514627 1.6247532 3.2601457
0.67132187 1.6240644 3.2608702
0.72314221 1.6262369 3.26915
0.7769804 1.6229033 3.2742319
0.82771051 1.6264012 3.2767243
0.87399787 1.6284739 3.2832336
0.92344314 1.6217541 3.2867563
0.98012811 1.6237038 3.2934048
1.0201045 1.6244026 3.2932246
1.0530192 1.6082867 3.2949798
0.53562307 1.6707863 3.2529807
0.58029121 1.6737883 3.2553349
0.61848539 1.6723119 3.2553089
0.66924351 1.6724579 3.2598617
0.72626311 1.6762205 3.2672975
0.7786175 1.671859 3.275444
0.82039213 1.6786036 3.2764719
0.8720066 1.6749066 3.2801149
0.92785197 1.6730685 3.2862091
0.97359353 1.6763642 3.2918983
0.49111223 1.7340684 3.2522166
0.52727205 1.749212 3.2572303
0.58113748 1.7251035 3.2570372
0.62570769 1.7244626 3.2649324
0.67881286 1.7264026 3.2673166
0.7301724 1.7198633 3.2717171
0.77613348 1.7260145 3.2760494
0.82550526 1.7297398 3.283263
0.87508613 1.7243124 3.2867007
0.92390877 1.7255731 3.2882938
0.97068763 1.7250547 3.291276
1.0090981 1.7189459 3.2987461
0.52395207 1.7738842 3.2550595
0.57258922 1.7717943 3.259737
0.626616 1.7720472 3.2677181
0.67668641 1.7747885 3.2695
0.72605914 1.7742094 3.2765002
0.77240747 1.7778893 3.2824821
0.82642883 1.7756094 3.281848
0.87908095 1.7731586 3.2874165
0.92315513 1.7710135 3.2907817
0.97680408 1.7753872 3.2961478
0.47253942 1.8272399 3.2525017
0.52709186 1.8277619 3.2569005
0.57630938 1.825138 3.2639
0.62756014 1.8221706 3.2674301
0.67516053 1.8210616 3.2731242
0.72029001 1.8250307 3.2732913
0.77841616 1.8268816 3.2817106
0.825001 1.8232881 3.284935
0.87373561 1.83087 3.2925344
0.92170227 1.8172987 3.2931495
0.97121322 1.8186359 3.2938991
1.0078846 1.8291574 3.2988834
0.47773218 1.8736476 3.2520714
0.52308255 1.8733709 3.2574828
0.57926619 1.8730334 3.2642059
0.62487346 1.8793106 3.2691226
0.66717511 1.8706101 3.2715011
0.72453421 1.8709334 3.2776995
0.77605826 1.8748834 3.2799423
0.82441473 1.8822485 3.2871037
0.87336683 1.8712369 3.2908566
0.91883659 1.8826061 3.2957621
0.42184883 1.9311767 3.250802
0.48703611 1.9309603 3.2560794
0.53109211 1.9274747 3.2592475
0.57319754 1.9255518 3.2614062
0.61939001 1.924373 3.2721965
0.67670774 1.9265757 3.2757277
0.72814178 1.9155983 3.2786388
0.77572989 1.9241798 3.2856445
0.82287955 1.9307985 3.2887008
0.87235993 1.9205141 3.2937813
0.92439353 1.9117465 3.2939997
1.0311545 1.9277037 3.2989471
0.37995034 1.9741968 3.2526116
0.44252405 1.9806784 3.2574413
0.47738597 1.9711009 3.2563057
0.52820086 1.9760027 3.2623801
0.57226437 1.9860903 3.2661769
0.62230724 1.9687699 3.2716873
0.67786592 1.9763012 3.2761633
0.72830439 1.97136 3.2842565
0.77159888 1.9776902 3.2886331
0.8156755 1.9807032 3.2922459
0.87965328 1.9751869 3.296402
0.90426368 1.9799422 3.299737
0.39173001 2.0425487 3.252619
0.43253347 2.0265663 3.2534773
0.47683167 2.0169227 3.2614987
0.52091563 2.0274053 3.2660942
0.57213563 2.031642 3.2702768
0.6236698 2.0223522 3.2712703
0.67267382 2.02284 3.2790082
0.71979505 2.030148 3.2835524
0.77638829 2.0289054 3.2909131
0.82314146 2.0245762 3.2943485
0.87527591 2.0346446 3.2972286
0.3811259 2.072232 3.2520106
0.44224417 2.0888479 3.2601433
0.47480333 2.0770562 3.2624836
0.51962596 2.0699384 3.26443
0.57597542 2.0809858 3.274951
0.63030016 2.0776064 3.2743027
0.67743731 2.0731041 3.2850485
0.72436231 2.0790393 3.2870209
0.76301348 2.0863476 3.2922907
0.81726444 2.0594339 3.2957804
0.88364959 2.0668893 3.2949953
0.38116187 2.1219151 3.2543254
0.42301348 2.1287658 3.257309
0.46880946 2.1345537 3.2614372
0.52265912 2.1177561 3.2657881
0.57849312 2.1260023 3.2714989
0.62261987 2.1308358 3.279109
0.67147201 2.1223185 3.2813993
0.72939301 2.1297212 3.2918339
0.77615738 2.1247315 3.2946367
0.80359203 2.10708 3.2995191
0.39772615 2.172205 3.2533937
0.42559105 2.177588 3.2587953
0.47114065 2.1810532 3.2591612
0.52620292 2.1719553 3.2675977
0.5777868 2.17097 3.2709765
0.62500948 2.1812353 3.2875381
0.67678523 2.1733594 3.2898788
0.72450137 2.1785679 3.2939074
0.76877475 2.1834202 3.297502
0.80999863 2.1788323 3.2979219
0.38210845 2.2242112 3.2540226
0.43067428 2.2212493 3.2569854
0.46985069 2.2261052 3.2575512
0.52906311 2.2179494 3.2675788
0.57651007 2.2247634 3.2752719
0.62453502 2.2281427 3.2858493
0.67657387 2.2173681 3.2901387
0.72229791 2.2269263 3.2895732
0.77532977 2.221014 3.2937598
0.34808886 2.2787704 3.2524092
0.37529668 2.2702534 3.2557325
0.42146388 2.2753012 3.2585886
0.47994757 2.2787361 3.2649932
0.52609235 2.2686579 3.2672813
0.5744366 2.2763066 3.2746315
0.62737596 2.2749593 3.2810185
0.67459142 2.2675352 3.2874782
0.72293139 2.2752235 3.2908623
0.77323234 2.2971249 3.2957354
0.42287445 2.3102331 3.2543728
0.47942272 2.3290679 3.2568109
0.52593321 2.3238027 3.2618194
0.57307911 2.3203185 3.2688735
0.63040519 2.3227272 3.2762868
0.67427349 2.3285687 3.2786796
0.72647351 2.3234227 3.2864122
0.7751134 2.3305702 3.2880416
0.81737685 2.3087261 3.2950323
0.87270218 2.3247058 3.2979546
0.90431947 2.3434634 3.2999046
0.49937597 2.3645501 3.2500036
0.5311237 2.3638003 3.2570522
0.57472491 2.3637965 3.25718
0.62207401 2.3690572 3.2576694
0.67038012 2.3769701 3.2611639
0.72783339 2.3741455 3.2658122
0.77659035 2.3722615 3.2728987
0.82670659 2.3732991 3.2834196
0.87548882 2.3790135 3.281518
0.92245913 2.3809133 3.2848723
0.97629166 2.387202 3.2898207
1.0276693 2.3875191 3.2971706
1.0887229 2.3969166 3.2951999
1.1087574 2.3991277 3.2930269
0.77771264 2.4036622 3.2611332
0.82531911 2.4066842 3.2558887
0.86465186 2.4123933 3.2557373
0.93389243 2.4035063 3.2656133
0.97530615 2.4130969 3.2696338
1.025582 2.4111049 3.2735932
1.0713664 2.4117196 3.2690296
1.1283103 2.4145081 3.2805343
1.1724073 2.4124115 3.278686
1.2166344 2.4180946 3.2766473
1.2757905 2.4122601 3.2790115
1.3283919 2.4171939 3.2691219
1.3765613 2.4159248 3.2755365
1.4264141 2.4167781 3.28443
1.470224 2.4193907 3.2751522
1.5295293 2.4297035 3.2721431
1.5788916 2.4240468 3.2687228
1.6217771 2.431222 3.2809949
1.6813096 2.4297683 3.2792814
1.7221303 2.4328942 3.2738743
1.7627767 2.4354939 3.2672884
1.8244309 2.4404411 3.2618778
1.8714838 2.442693 3.290154
1.9278543 2.4452024 3.2782879
1.9768496 2.4405584 3.2813511
2.0296392 2.4429669 3.257494
2.0566022 2.4425652 3.292134
2.1335304 2.4396811 3.2950985
2.1704183 2.4463615 3.2863355
2.2125602 2.4471679 3.2631071
2.3449836 2.4466345 3.2884471
2.3682659 2.4489403 3.2782407
2.4013715 2.4400418 3.2950897
2.4741764 2.4492264 3.2657938
2.5247569 2.4460225 3.2826355
2.6132121 2.447248 3.2829413
2.7660203 2.4434757 3.2869134
1.9683213 2.4502988 3.2540913
2.0880625 2.4554574 3.2982051
2.1260242 2.4517028 3.2700202
2.2737882 2.4581933 3.2734995
2.324533 2.4572501 3.2672181
2.3930962 2.4527926 3.2698939
2.4251924 2.4532952 3.2780452
2.4542875 2.4505894 3.2816978
2.5764434 2.454464 3.2645388
2.6212509 2.4663229 3.2577155
2.6755719 2.4549096 3.2548373
2.735872 2.4581518 3.2788651
2.8371654 2.4575608 3.2648356
2.8694429 2.4663289 3.2597396
1.6800901 -0.4511261 3.3444421
1.7097329 -0.45206714 3.3419375
1.7760028 -0.45340079 3.3287282
1.8325013 -0.47417161 3.3331172
1.8748989 -0.48478717 3.3306065
1.9278069 -0.4847827 3.3336632
1.9723933 -0.48370028 3.3178892
1.5824269 -0.42850789 3.3323941
1.6284785 -0.43318367 3.339216
1.6778717 -0.42815268 3.3489945
1.7116997 -0.43516773 3.3474412
1.5883366 -0.37709403 3.3352253
1.6271843 -0.37680715 3.3413897
1.5844355 -0.34318548 3.3436387
1.6145644 -0.32688761 3.3450575
1.3904476 -0.25861949 3.303587
1.4281957 -0.26778114 3.3031342
1.4749336 -0.2602486 3.3015852
1.5854918 -0.29185927 3.3493097
1.6085597 -0.2749449 3.3462884
2.0322087 -0.28661379 3.3497896
1.3904574 -0.23357645 3.3049006
1.4247274 -0.21522298 3.30323
1.4646391 -0.20116663 3.3028367
1.6129793 -0.21473116 3.3481512
1.3875062 -0.17475244 3.3003497
1.4283916 -0.16940032 3.3017876
1.4690409 -0.17182446 3.3030877
1.6179861 -0.16827196 3.3478794
1.3324193 -0.11599538 3.3037875
1.3875874 -0.14142707 3.301631
1.4274533 -0.12095163 3.3018622
1.4634931 -0.13392034 3.3025928
1.5928621 -0.11398023 3.3443625
1.6217198 -0.12013058 3.3487861
2.2915442 -0.10914809 3.314734
1.3401814 -0.099350378 3.3004718
1.3771725 -0.074658617 3.3005166
1.4269347 -0.072264269 3.307102
1.4731908 -0.066881523 3.3042438
1.5767063 -0.06806799 3.3390567
1.605888 -0.072689779 3.3480291
2.3207166 -0.072864786 3.3211067
1.3878348 -0.024767227 3.3041778
1.4272636 -0.024864785 3.3083248
1.4728494 -0.024912165 3.3038871
1.5861988 -0.028258875 3.345495
1.6282154 -0.022635678 3.3497703
2.3328996 -0.023948127 3.3269575
1.3874773 0.016902048 3.3033178
1.4259477 0.016980277 3.3052745
1.474704 0.020407522 3.3037255
1.500019 0.033885241 3.3002217
1.5887811 0.020828184 3.3397484
1.6254456 0.013199321 3.3475058
2.322984 0.015357962 3.3248889
1.3826712 0.07103236 3.3024523
1.4261203 0.067155398 3.3051579
1.4755269 0.06752263 3.3093815
1.5009428 0.06754557 3.3018444
1.5876864 0.068767428 3.3411427
1.6204224 0.060483538 3.3471322
2.3258767 0.076581672 3.3237586
1.3771091 0.12018983 3.3036919
1.4273235 0.1174393 3.306922
1.4742416 0.11786756 3.3054819
1.5023488 0.1012684 3.3043246
1.5767398 0.11989387 3.337925
1.6007408 0.12046423 3.3465984
2.3356137 0.12042829 3.3229525
2.3555813 0.14817387 3.3140097
1.3747551 0.17104192 3.3032146
1.4287697 0.16784599 3.3087339
1.4759722 0.16847686 3.3077774
1.502295 0.18542644 3.3015652
1.5863107 0.17132248 3.3355138
1.6255481 0.17232722 3.3444481
1.6667721 0.1773608 3.3458815
1.7029827 0.19100283 3.3462179
2.5225036 0.1711355 3.3410623
1.3732588 0.22641267 3.3020308
1.4268296 0.2181423 3.3076444
1.4738541 0.21913521 3.3101132
1.8813231 0.21189544 3.3430827
1.9185517 0.21213283 3.3317246
1.9532225 0.21304107 3.3343356
1.3849925 0.26750931 3.3045437
1.4243265 0.26606742 3.3064225
1.4718331 0.27190357 3.3096931
1.5215486 0.2766799 3.3108177
1.5776598 0.28945923 3.3113673
1.6205975 0.29107478 3.3179121
1.6759578 0.29329851 3.3277042
1.708759 0.29303002 3.3118625
1.378624 0.31759396 3.303236
1.4215499 0.31893423 3.3061259
1.4719939 0.32080996 3.3123493
1.5211543 0.32231078 3.3141518
1.5750755 0.3247059 3.3244278
1.6240104 0.32597053 3.3225973
1.6754507 0.32766926 3.3243179
1.7106419 0.32782438 3.3131237
1.7848618 0.32331091 3.3360865
1.818637 0.32468125 3.3396502
1.8616581 0.32610187 3.3397889
1.9862559 0.33969003 3.3445787
1.3809921 0.36813214 3.3030841
1.4234266 0.36975646 3.306752
1.4751673 0.37223113 3.315701
1.524263 0.37392023 3.3170807
1.5728254 0.3741028 3.3279672
1.6247976 0.3812319 3.3354974
1.6745485 0.37781328 3.3303173
1.703721 0.37994558 3.3156552
1.8179898 0.36836886 3.3350925
1.8697788 0.36524478 3.3448775
1.9560567 0.3552933 3.330034
2.3111551 0.38814259 3.3263822
1.3757087 0.41001436 3.301939
1.4245371 0.42047858 3.3050745
1.4802225 0.42590562 3.3170984
1.5289068 0.42617634 3.3227651
1.5698142 0.42804885 3.3259447
1.6239917 0.43107519 3.3346264
1.6761695 0.42479247 3.3383017
1.7121187 0.42874464 3.3345215
1.7932787 0.43883905 3.3422267
1.8247288 0.42251363 3.3428028
2.2857721 0.44215187 3.3208301
2.3138671 0.42554998 3.3267062
1.3841814 0.4698163 3.3038387
1.4285612 0.47222623 3.309561
1.4763763 0.47261274 3.3147969
1.5281724 0.4806065 3.3250277
1.573944 0.48063374 3.3296311
1.6234628 0.47841072 3.3348365
1.6794509 0.46903637 3.3405912
1.7231445 0.47048402 3.3365512
1.7862381 0.47741833 3.3409653
1.8272697 0.48259065 3.3481276
1.8841137 0.46147844 3.3488553
1.343766 0.53606308 3.3026927
1.3885924 0.51771939 3.3042977
1.4260615 0.52560544 3.3075225
1.4708694 0.52589315 3.3130617
1.5239911 0.52962661 3.3228064
1.572127 0.52861702 3.324733
1.6316615 0.52115256 3.3360319
1.6806995 0.52149457 3.3374178
1.7274572 0.52403158 3.3392024
1.7673804 0.53168362 3.3365345
1.8218991 0.51211447 3.3481674
1.8647918 0.53195494 3.3454995
1.3461125 0.57893729 3.3034546
1.37647 0.56867462 3.3055305
1.424373 0.57507932 3.3105521
1.4750915 0.57842577 3.3164895
1.5236462 0.57940364 3.3215339
1.5791696 0.5711152 3.3262811
1.623595 0.56806487 3.330955
1.6785394 0.57726902 3.3419008
1.7308838 0.5744133 3.3486788
1.7757902 0.57523227 3.347358
1.3485987 0.63883042 3.3018937
1.3826208 0.62410301 3.3065906
1.4264841 0.626737 3.3088815
1.4789958 0.63109344 3.3185966
1.5288224 0.6198017 3.3223507
1.5774914 0.62318867 3.3293691
1.6227603 0.62348062 3.3311036
1.6699696 0.62131798 3.3378198
1.7230247 0.61999702 3.3477695
1.7648396 0.62534529 3.3468497
1.330888 0.65518558 3.3021131
1.3846564 0.6756919 3.3043818
1.420189 0.67857295 3.3094327
1.4689082 0.67776918 3.3174508
1.5211672 0.66877192 3.3204076
1.575718 0.6737746 3.330719
1.6287526 0.67790192 3.3360064
1.6694008 0.68209952 3.345633
1.7269661 0.66830599 3.3488121
1.3357399 0.74185812 3.3015106
1.3734589 0.72713429 3.3039804
1.4189836 0.73176455 3.3138244
1.4758475 0.72004479 3.3150873
1.5273851 0.72311991 3.3261573
1.5680476 0.7260353 3.3278787
1.6197376 0.72867483 3.3359103
1.6765686 0.72101146 3.3395646
1.7165684 0.71760315 3.3455997
1.3392577 0.77761972 3.304642
1.371019 0.77920818 3.3028977
1.4251422 0.77039361 3.3146517
1.4742122 0.76842338 3.3147843
1.5261095 0.77844459 3.3237703
1.572669 0.77757823 3.3339989
1.6223023 0.77095741 3.3377099
1.6777338 0.7697683 3.345309
1.7193838 0.77631402 3.3479259
1.3308129 0.81141388 3.3012872
1.3762711 0.81871176 3.3051407
1.4255464 0.82311261 3.3161836
1.4737731 0.82528162 3.3210583
1.5237443 0.82810605 3.3281121
1.5816394 0.82205838 3.3371346
1.626029 0.81883001 3.3340595
1.6836095 0.83409733 3.3461478
1.7274444 0.82830513 3.3486581
1.3400685 0.87760854 3.3050315
1.3770893 0.87236655 3.3069758
1.4260881 0.87393343 3.3140073
1.4779917 0.87935895 3.3209801
1.5283841 0.87490374 3.3243382
1.5819854 0.87196404 3.3330634
1.625784 0.87680548 3.3391645
1.6713854 0.87496138 3.3417633
1.7221239 0.87252104 3.3465652
1.3369521 0.91898894 3.3052442
1.372401 0.92445761 3.3077934
1.4201533 0.92705506 3.3127558
1.4726084 0.92447728 3.3225212
1.5248492 0.92375404 3.3248863
1.5740018 0.92599142 3.3325875
1.625425 0.92959261 3.3426094
1.6768332 0.92323035 3.3465519
1.7154889 0.91356242 3.3463697
1.2903341 0.98041278 3.3020709
1.3265958 0.97500134 3.3029072
1.3744317 0.97653461 3.3082666
1.4253169 0.97349089 3.3158703
1.4741428 0.96792459 3.3230181
1.5241988 0.97792703 3.3264842
1.570806 0.980483 3.3310015
1.6244416 0.97178906 3.3390033
1.6717887 0.97425741 3.3441916
1.2458659 1.0377786 3.3043861
1.2785033 1.0219406 3.303381
1.3239239 1.0290509 3.3078327
1.3695545 1.0221039 3.3104508
1.4231498 1.0217855 3.3179612
1.4720974 1.025179 3.3233528
1.5210855 1.025625 3.3285637
1.5775466 1.0286534 3.335535
1.6193256 1.0240792 3.338763
1.6610243 1.0255821 3.3438363
1.2397966 1.0909474 3.301311
1.2786584 1.0799376 3.3026733
1.323622 1.0768321 3.3096452
1.3751539 1.0693976 3.3140948
1.4265636 1.0756674 3.3201075
