ply
format ascii 1.0
comment PCL generated
element vertex 1556
property float x
property float y
property float z
element camera 0
property float view_px
property float view_py
property float view_pz
property float x_axisx
property float x_axisy
property float x_axisz
property float y_axisx
property float y_axisy
property float y_axisz
property float z_axisx
property float z_axisy
property float z_axisz
property float focal
property float scalex
property float scaley
property float centerx
property float centery
property int viewportx
property int viewporty
property float k1
property float k2
end_header
1.44412 0.52367276 3.7106993
1.4699523 0.51982081 3.703053
1.5372381 0.54558146 3.7068892
1.5810539 0.5320186 3.7068939
1.6188269 0.52952743 3.7057381
1.6622705 0.52125061 3.7026398
1.7161374 0.51373827 3.7023106
1.778636 0.52357733 3.7091138
1.8233993 0.52325785 3.7122772
1.8674259 0.52152616 3.7144737
1.9226582 0.52410644 3.715627
1.9788505 0.52663475 3.7154677
2.028357 0.52490431 3.7148082
2.0776758 0.52111447 3.7133536
2.1260517 0.52336973 3.7127213
2.172195 0.52500862 3.7070937
1.4464465 0.58069062 3.71082
1.462813 0.56106591 3.7017817
1.5273334 0.5735901 3.7053082
1.5805306 0.57587206 3.7060652
1.6262757 0.57872725 3.7128067
1.6750439 0.56816918 3.7081642
1.7242602 0.5787949 3.705127
1.7852141 0.58952469 3.715868
1.83053 0.57993728 3.7255743
1.8742698 0.57187176 3.7229326
1.9160509 0.57279176 3.714489
1.9706566 0.57377452 3.7164454
2.0337212 0.57636303 3.7220509
2.0825908 0.57159543 3.7167377
2.1309149 0.57401323 3.7157221
2.177994 0.57603586 3.7114098
2.2117774 0.57710057 3.7049329
1.4397627 0.62132096 3.7294874
1.4734008 0.6313163 3.7103698
1.5236959 0.61861908 3.7060697
1.5762647 0.62654179 3.7090726
1.6294565 0.62738812 3.7145698
1.6722507 0.62919348 3.7132113
1.7202928 0.61929846 3.7094102
1.7774315 0.62711722 3.7170596
1.8275864 0.62725562 3.7139163
1.874674 0.62043953 3.7180274
1.9222831 0.62335289 3.7207947
1.9655448 0.62472862 3.7140903
2.0179925 0.6213637 3.7169666
2.0672033 0.62440562 3.7190762
2.1202185 0.62239659 3.7214081
2.1766973 0.6289655 3.7156448
2.2156138 0.62788826 3.7052302
1.44034 0.6708374 3.7387114
1.4753159 0.67901224 3.7200868
1.5200709 0.67502975 3.7065711
1.5719249 0.67031634 3.709868
1.6279123 0.67852008 3.7196305
1.6766051 0.67861855 3.716888
1.7182555 0.67040962 3.7130363
1.770933 0.67158133 3.7207119
1.8246279 0.6794759 3.7186575
1.8818955 0.67146099 3.726181
1.9305341 0.67488402 3.7305279
1.977133 0.67747545 3.7296629
2.0276036 0.6746853 3.7312019
2.0695457 0.67223406 3.72456
2.1182842 0.67519873 3.7242279
2.1758826 0.67770028 3.7164192
2.2188787 0.66870737 3.7053843
1.4452513 0.72052097 3.7452555
1.4779106 0.7274242 3.7203848
1.5294375 0.72290689 3.7130036
1.5712614 0.72185391 3.7168629
1.6246686 0.72317207 3.7224324
1.676296 0.73075336 3.7197006
1.7208687 0.72591937 3.7161908
1.7764585 0.72215086 3.7216659
1.820726 0.73061496 3.7252209
1.8774508 0.72362781 3.7275143
1.9314862 0.72412366 3.7255752
1.9816459 0.72819871 3.7313087
2.0282803 0.72096801 3.7305434
2.0776038 0.72442693 3.732121
2.1249151 0.72705758 3.7289009
2.1697149 0.72875273 3.7202244
2.2001662 0.72894645 3.7078643
1.4478834 0.76929498 3.7454479
1.4770687 0.77307355 3.7184317
1.5282396 0.78099591 3.7182393
1.5773232 0.77227855 3.7244034
1.6191437 0.77406031 3.7212467
1.6742955 0.7775178 3.7225983
1.7284691 0.77369714 3.716301
1.7737818 0.77367431 3.7228405
1.8209155 0.77424538 3.731926
1.8705473 0.77206808 3.7357349
1.9216211 0.77259743 3.7312331
1.9772453 0.77993429 3.7287643
2.0346861 0.77277225 3.7349436
2.0838122 0.77634841 3.73577
2.1283095 0.77808863 3.7272444
2.1728108 0.7697705 3.7194231
2.2150486 0.77509046 3.7119713
1.4499401 0.81792992 3.7436726
1.469861 0.82774657 3.7283225
1.5260214 0.82747144 3.7207651
1.5826693 0.82273537 3.7296946
1.6248164 0.82472259 3.7269027
1.6748168 0.8257283 3.7307312
1.726512 0.82259214 3.724046
1.7774299 0.82371014 3.7229671
1.8308973 0.82366323 3.7356904
1.8734313 0.82218188 3.7338121
1.9221529 0.82633168 3.7378826
1.9676762 0.82894534 3.7345822
2.0224454 0.82093686 3.7359345
2.0777135 0.82799494 3.7296689
2.1363003 0.83103919 3.7330961
2.1806796 0.82269478 3.7247391
2.2195988 0.81909943 3.7162907
1.4752994 0.87736684 3.7386217
1.5207494 0.8774851 3.7262032
1.570899 0.8749159 3.7261372
1.6308764 0.87588656 3.7329156
1.6737723 0.87823969 3.7305913
1.724526 0.86867046 3.7282038
1.7766775 0.87493014 3.7290735
1.8260368 0.87579429 3.736011
1.879643 0.8739934 3.738018
1.9238513 0.87625909 3.732935
1.97024 0.87941605 3.7310581
2.0220053 0.87486911 3.739769
2.0717056 0.87911242 3.7415428
2.1178243 0.87168324 3.7374988
2.1714389 0.87314278 3.7218411
2.2172685 0.87542307 3.7134752
1.4754323 0.92660564 3.7375135
1.5293517 0.93037987 3.7389765
1.5759717 0.92190975 3.7318752
1.6271461 0.92840278 3.7343407
1.6783264 0.91932428 3.733974
1.7221866 0.92210472 3.732435
1.7684394 0.92601508 3.7349916
1.8198118 0.92550027 3.7432513
1.8743712 0.92531723 3.7419374
1.935607 0.91637039 3.7416298
1.9763567 0.92178404 3.7355347
2.027492 0.92706102 3.7409704
2.0738399 0.92999279 3.7363484
2.1237237 0.92436123 3.7387116
2.1726296 0.92810565 3.7363441
2.216033 0.91931039 3.725431
1.47646 0.97715729 3.7404251
1.5222613 0.97991687 3.739114
1.5755013 0.97357076 3.7391417
1.619097 0.97663224 3.738986
1.6777682 0.9739998 3.7418821
1.7313753 0.9758215 3.7433116
1.7740072 0.97498333 3.7432053
1.8181993 0.96924716 3.7448099
1.874179 0.97454977 3.7485344
1.9258519 0.97079891 3.7434208
1.9785141 0.97133112 3.7445569
2.0251198 0.9746418 3.741317
2.078495 0.97215962 3.737015
2.1324692 0.97855169 3.7444329
2.1785746 0.98119056 3.7367377
2.2231498 0.96812546 3.7188315
1.4771795 1.0309616 3.7414558
1.5325922 1.0241899 3.7388334
1.5780737 1.0208133 3.7418618
1.628177 1.015735 3.7446468
1.6743311 1.0199372 3.7418106
1.735445 1.0171984 3.744524
1.7837461 1.0253104 3.7448781
1.8246574 1.0284611 3.7438054
1.8791453 1.0299298 3.7480259
1.9175311 1.0196103 3.7488937
2.0177555 1.0248889 3.7450967
2.0645094 1.0252444 3.7462063
2.1166608 1.0227284 3.7445099
2.1777742 1.0261394 3.7397408
2.2214847 1.0228102 3.7143116
1.4753033 1.0671396 3.7386322
1.5200986 1.07162 3.7432489
1.5596112 1.0712576 3.7434022
1.6411341 1.0717416 3.7469838
1.6710504 1.07429 3.7474525
1.7197092 1.0880719 3.7453599
1.7975191 1.0641553 3.7472613
1.880179 1.0748471 3.744117
1.9196243 1.0696899 3.7468538
1.9611925 1.0584304 3.7495794
2.0814154 1.0689678 3.7459321
2.1152709 1.0606949 3.7416327
2.1724234 1.0707169 3.7449696
2.2221253 1.0748683 3.7210732
1.480921 1.1001461 3.7468805
1.536334 1.1247535 3.7462904
1.6233989 1.1216192 3.7467136
1.6682878 1.125625 3.7475991
1.7355913 1.1214097 3.7488749
1.80032 1.1052814 3.7446678
1.8962017 1.1152953 3.7494297
1.9307646 1.1180238 3.7471581
2.1879168 1.1226349 3.7462094
2.2229767 1.1270384 3.7229054
1.5854139 1.180886 3.7482326
1.6223732 1.160733 3.7463772
2.1917887 1.1757261 3.7407632
2.2289131 1.1739006 3.7250473
1.4797051 1.2132118 3.7473769
2.2405012 1.22119 3.7403126
2.2540963 1.217175 3.7038493
2.2368097 1.2759134 3.7271712
2.2323196 1.3287437 3.7281671
2.2361794 1.3821567 3.7360029
2.2375305 1.4219322 3.7428524
2.2518563 1.4360882 3.732893
2.2375546 1.471571 3.744
2.2574501 1.4779757 3.7181451
2.2411828 1.5157731 3.7368519
2.2539892 1.5311925 3.706737
2.2484636 1.5521472 3.7387533
2.2549706 1.5798074 3.7252696
2.2374907 1.6328429 3.7405114
2.2526774 1.6285948 3.7207053
2.2431326 1.6792083 3.7349524
2.2514277 1.6592034 3.7074597
2.2367933 1.7246962 3.7316089
2.1419771 1.7989961 3.7488556
2.1725845 1.7868662 3.7453744
2.2254255 1.7727236 3.7256224
2.1461508 1.8237091 3.747942
2.1837471 1.8185558 3.7381599
2.2200305 1.8295075 3.7153001
2.0777221 1.8829061 3.7426646
2.1127598 1.88196 3.7449207
2.1841359 1.8784215 3.7354143
2.2161341 1.8822074 3.707279
1.842097 1.9419519 3.7469659
1.8664963 1.9456391 3.7458959
1.9254572 1.9314384 3.7465167
1.9760007 1.9294161 3.7401326
2.0246811 1.9355984 3.7438083
2.0707908 1.9180123 3.7409558
2.1213527 1.9254683 3.736238
2.1691155 1.9301585 3.7254806
2.200634 1.9297829 3.7094519
1.8425988 1.9633715 3.7393746
1.8817897 1.9611518 3.747051
1.9298149 1.9673991 3.741895
1.9784414 1.9739475 3.7367239
2.0305283 1.9836321 3.7367759
2.0741844 1.9636203 3.7292886
2.1236069 1.9701264 3.722208
2.169312 1.973001 3.7075453
1.9494592 2.0083611 3.7417097
1.9753382 2.0238171 3.7371776
2.0261304 2.0322871 3.734432
2.084554 2.0161169 3.7294805
2.1298487 2.018472 3.7239439
2.1794353 2.0332222 3.7189999
1.8898901 2.0759625 3.7475665
1.9239222 2.0678244 3.7436845
1.968815 2.0706501 3.7404613
2.0222149 2.0710816 3.7373219
2.0660799 2.0616179 3.7349308
2.1191914 2.0717559 3.7335985
2.1749516 2.0733533 3.7307177
2.2017069 2.0680926 3.7055972
2.1605234 2.1019073 3.7434802
2.2260156 2.1236267 3.7312093
2.2420876 2.1721523 3.7231903
2.2514167 2.1816058 3.7000563
2.2474093 2.2209995 3.7298017
2.2509634 2.2465432 3.7246382
-2.6183043 2.2831264 3.7256682
-2.3742042 2.2804227 3.7336187
-2.2890799 2.2737179 3.7043879
-2.2271919 2.2780716 3.7453473
-2.1767998 2.271029 3.7264354
-2.1107335 2.2699871 3.7273962
-2.0693114 2.2716405 3.7314279
-2.0282178 2.2734919 3.7353642
-1.9713691 2.2694471 3.7339194
-1.9397991 2.2793527 3.7133179
-1.7176777 2.2746594 3.7234743
-1.6746237 2.283051 3.7213745
-1.6251262 2.2847984 3.7256606
-1.5668296 2.2856271 3.7141171
-1.5020217 2.2826796 3.7300196
-1.4636801 2.28427 3.7288399
-1.4203508 2.2900772 3.7206306
-1.3941534 2.2983217 3.7434003
-1.3189538 2.2973597 3.7158825
-1.2712083 2.2859011 3.7086694
-1.233061 2.2863967 3.7312293
-1.1824304 2.2935593 3.7297575
-1.1445616 2.2796443 3.7298393
-1.0767133 2.2868443 3.7126265
-0.86585599 2.2894659 3.715364
-0.64133364 2.2833264 3.7398024
2.2411695 2.2809942 3.7449408
-1.5568739 2.3018916 3.7476239
-1.3004284 2.3011839 3.7278214
-1.2072569 2.3023047 3.7081249
-0.85062099 2.3030543 3.7410257
-0.83911502 2.3199239 3.7274327
-0.62061518 2.3016152 3.7298355
-0.58009177 2.3160939 3.7265656
-0.50007516 2.3042128 3.7478881
-0.49597621 2.3053758 3.7077346
-0.42560607 2.3042171 3.7124932
-0.37645423 2.3099072 3.7257602
-0.31641725 2.3113265 3.7323296
-0.27607852 2.3101027 3.7327449
-0.21628678 2.3149338 3.743593
-0.17543431 2.3167367 3.7271924
-0.12164549 2.314738 3.718653
-0.074945077 2.3206232 3.7151301
-0.028377682 2.3164697 3.7367814
0.020058457 2.3171442 3.7205029
0.078447975 2.3152997 3.7204695
0.10503818 2.3201795 3.7139056
0.2451257 2.3212392 3.7105978
0.27985096 2.3259165 3.730202
0.3225114 2.3230586 3.7257626
0.38041362 2.3261564 3.7238367
0.42754105 2.3289967 3.7209938
0.4816592 2.3296127 3.7204983
0.52516949 2.3308489 3.7208042
0.57136053 2.3331306 3.7306392
0.62660623 2.3379509 3.7317073
0.67379493 2.3390365 3.7242889
0.71901041 2.3461616 3.746722
0.77807742 2.3397985 3.7271545
0.80063176 2.3462908 3.7341688
0.85892993 2.3384314 3.7111564
0.94516098 2.3404198 3.7202048
0.97761196 2.334516 3.7258601
1.1879231 2.3386667 3.7150886
1.4619963 2.3483257 3.7167263
1.791667 2.3467298 3.74705
1.8350207 2.3471544 3.7306397
1.8690734 2.3377187 3.7160919
2.0306695 2.3311048 3.7223754
2.233248 2.3247254 3.724719
0.828502 2.3549726 3.7292614
0.92825949 2.3698802 3.7283392
1.0333296 2.3551025 3.7265191
1.0700133 2.3577108 3.7452235
1.3020838 2.3643064 3.744657
1.4289086 2.3560574 3.7169025
1.5226253 2.3611286 3.7199991
1.586681 2.3658044 3.7231324
1.6231788 2.3604887 3.7171872
1.6811156 2.3582814 3.725518
1.7300653 2.3575959 3.7397103
1.7680471 2.3511605 3.7131345
1.8162457 2.3507006 3.7449028
2.0818126 2.3629663 3.7347672
2.1187418 2.3674333 3.7263083
2.1877723 2.3716798 3.7293997
0.53171736 0.32727584 3.7762692
0.56986558 0.31463268 3.7856505
0.62504083 0.31027821 3.7828286
0.75780714 0.34912172 3.7907019
0.8322053 0.32196295 3.7863131
0.86591864 0.32402763 3.7840161
1.0830152 0.3348009 3.7865164
0.77408332 0.36650363 3.7768691
0.89265394 0.35160741 3.7988172
0.94562417 0.35067961 3.7797494
0.98608875 0.35195857 3.7871501
1.0458902 0.35340551 3.7925932
1.4515129 0.59036005 3.777801
1.4548334 0.80160809 3.7592132
1.4559838 0.87863135 3.7501073
1.4492795 0.94398856 3.7777748
1.4544291 0.90868109 3.7978938
1.9257489 0.93114251 3.7507615
1.4456655 0.98006421 3.7613685
1.46173 0.95879138 3.7515824
1.8391744 0.98657221 3.7537324
1.86309 0.98880625 3.755043
1.9796826 0.99780196 3.751265
1.4492875 1.021045 3.7635312
1.4591576 1.0308669 3.7596459
1.5104563 1.0426687 3.7519863
1.6173871 1.0300317 3.7511427
1.7201967 1.0393518 3.7565703
1.7525359 1.0411171 3.7530053
1.8396758 1.0065736 3.7508934
1.8646221 1.0193036 3.7522516
1.936271 1.0358016 3.7518489
1.9716309 1.0287268 3.7527449
1.448591 1.0590619 3.7541256
1.4518783 1.0807632 3.758719
1.5887938 1.0692427 3.7534878
1.61358 1.0754242 3.7540584
1.6801051 1.0759062 3.7510831
1.7217095 1.0598996 3.7559056
1.766592 1.0731561 3.7525108
1.8297859 1.0810767 3.7539833
1.9410248 1.088259 3.750493
1.9824129 1.0760463 3.7564719
2.0269115 1.0768521 3.7568772
2.0717838 1.0844114 3.7554836
2.1309016 1.0905519 3.7566602
2.1597741 1.0779541 3.7509773
1.4747953 1.1297711 3.7610283
1.5222578 1.1250546 3.7516925
1.570394 1.1185836 3.7516181
1.69399 1.1297257 3.7548046
1.7243029 1.1357231 3.7543108
1.7735527 1.1241071 3.7623839
1.8223162 1.1239018 3.7552893
1.866218 1.1251727 3.7580163
1.9157856 1.1409488 3.7600923
1.9777837 1.1258729 3.7603493
2.0274162 1.1229441 3.7717624
2.071311 1.1248308 3.76139
2.130264 1.1292603 3.75455
2.1699505 1.1340935 3.7571568
1.4490329 1.1907629 3.7861805
1.4709105 1.1750947 3.7613335
1.5232757 1.1780792 3.7568054
1.5697536 1.1654794 3.7535331
1.6217799 1.1958799 3.7532873
1.6751775 1.1695536 3.7542055
1.7297398 1.1792724 3.7640862
1.7806721 1.173665 3.756968
1.8248845 1.1739515 3.758029
1.871199 1.175326 3.7623158
1.9220197 1.1747763 3.7653589
1.9656944 1.1769121 3.756556
2.0175498 1.1736494 3.7645957
2.0636728 1.1739919 3.7638347
2.1183183 1.1745968 3.7687094
2.162019 1.1761748 3.7559538
1.4463195 1.2275085 3.7700891
1.4683104 1.2304305 3.7560911
1.5202304 1.2230203 3.7574358
1.5764662 1.2270513 3.7592616
1.6304171 1.2318232 3.7662833
1.6731797 1.2244511 3.7635412
1.7159431 1.2242479 3.763649
1.7748405 1.2234339 3.763154
1.8303099 1.2262312 3.7662294
1.8786706 1.23176 3.7683871
1.9273765 1.2183295 3.766233
1.9763293 1.2237389 3.7671258
2.0284235 1.2308259 3.7725892
2.0779319 1.2287531 3.7688091
2.1257243 1.2196898 3.7719288
2.1673579 1.2200736 3.7551279
2.2146823 1.2289288 3.7538996
1.4491352 1.2689329 3.7681298
1.4743937 1.2822529 3.7633293
1.5263927 1.278742 3.7643247
1.5741682 1.2749393 3.7600708
1.633451 1.2735901 3.7636552
1.6765785 1.2763977 3.7591302
1.7245948 1.2752615 3.7608662
1.7706798 1.2747799 3.772656
1.8188 1.2731225 3.7721672
1.872456 1.2762858 3.7710419
1.9292759 1.2756336 3.7667134
1.9830815 1.2672755 3.7785234
2.0250802 1.2757907 3.7792044
2.0747974 1.2808588 3.7689312
2.1244569 1.2672737 3.7622001
2.1767256 1.2665381 3.7608809
2.2113693 1.2687201 3.7533343
1.4437103 1.3307297 3.7984428
1.4746341 1.3231043 3.7656853
1.5300596 1.3287146 3.7673876
1.5734468 1.3321555 3.765192
1.6259073 1.3149669 3.7621586
1.6844065 1.3221211 3.7665391
1.7298455 1.3264933 3.7655628
1.7803421 1.3269594 3.7709434
1.823121 1.3163468 3.7708116
1.8718926 1.3224337 3.7733989
1.9183749 1.3266968 3.7702036
1.9777597 1.3319973 3.7875602
2.0184731 1.3189615 3.7794189
2.0681086 1.3186154 3.7653193
2.1220396 1.3339738 3.7755241
2.1765018 1.3241304 3.7691078
2.2166991 1.3027791 3.7541289
1.447701 1.3838207 3.7961361
1.4735883 1.3735887 3.7668989
1.5224433 1.370074 3.7654548
1.5733818 1.3787366 3.7700989
1.6251949 1.3721486 3.7736151
1.6691028 1.3755908 3.770179
1.725238 1.3706303 3.7700148
1.7842119 1.3775942 3.7717021
1.8345004 1.3751373 3.7807982
1.880916 1.3752222 3.7878282
1.9201944 1.3706589 3.7880869
1.9720967 1.3827825 3.7822442
2.0241516 1.3712337 3.7818439
2.0756092 1.3706158 3.7809982
2.1225271 1.3743446 3.7735074
2.1772149 1.382859 3.7785425
2.2222807 1.3714384 3.7573676
1.4480196 1.403899 3.7916839
1.4689609 1.43475 3.7810876
1.5205697 1.4268423 3.7747145
1.5765249 1.422769 3.7780132
1.6326052 1.4283421 3.7771361
1.6782862 1.4332728 3.777076
1.721948 1.4161822 3.7771378
1.7704326 1.4229037 3.7811191
1.8192067 1.4295136 3.7842495
1.8672371 1.4302492 3.7860489
1.9128441 1.4177247 3.7937868
1.9721966 1.4255804 3.7909503
2.0337162 1.4309139 3.7880251
2.0830398 1.4244868 3.7855694
2.1352785 1.4241694 3.7842441
2.1804929 1.4265841 3.7721505
2.2115662 1.4265103 3.7577
1.4367703 1.4918327 3.7976279
1.4710698 1.4764066 3.7752161
1.5269359 1.482587 3.7764497
1.5712701 1.4669427 3.781131
1.6205 1.4679645 3.775116
1.6666096 1.4811651 3.7815151
1.725459 1.4783516 3.7888296
1.7808741 1.4718817 3.7917593
1.8278652 1.4770796 3.7904761
1.8768647 1.4836297 3.7921472
1.9154184 1.4794881 3.7992175
1.9885995 1.4881706 3.7971308
2.0222664 1.4798161 3.7926354
2.0699596 1.4843782 3.7869952
2.1235847 1.4656297 3.7839286
2.1784127 1.4731294 3.768991
2.2181287 1.4725124 3.75618
1.4379692 1.5328952 3.7891467
1.4769207 1.522071 3.7785718
1.5352206 1.5306429 3.7851408
1.5784361 1.5216814 3.7902915
1.623289 1.5182323 3.7852268
1.6697638 1.523939 3.7863955
1.712813 1.5260092 3.788492
1.7795744 1.5156733 3.7894447
1.8475841 1.5154572 3.7972758
1.8783184 1.5327853 3.7967556
1.932621 1.5260689 3.7964058
1.9842467 1.5245641 3.7941926
2.0349808 1.5316343 3.7947769
2.080569 1.5337018 3.7935104
2.1226821 1.5209086 3.7854581
2.1707044 1.5175736 3.7752371
2.2160325 1.519996 3.7620721
1.4415784 1.5766544 3.786556
1.4716713 1.5749568 3.7853494
1.5246748 1.5722252 3.786361
1.5786936 1.5740577 3.7870669
1.6265121 1.5780983 3.7951424
1.6792991 1.5732535 3.7955792
1.7249762 1.5779231 3.7930486
1.8186364 1.5681615 3.7963414
1.9763062 1.5774878 3.795661
2.0361984 1.5629358 3.796185
2.0726492 1.5773473 3.7892189
2.1318264 1.5816568 3.7877979
2.1778512 1.5645852 3.7741914
2.2238028 1.567402 3.7615681
1.4490166 1.6349592 3.7903781
1.4775704 1.6269397 3.7905738
1.523349 1.6193224 3.7866406
1.5693027 1.6252675 3.7882004
1.6222681 1.62579 3.7908268
1.6741438 1.6220446 3.7962685
1.7310557 1.624343 3.7934153
1.7748469 1.6267715 3.7949848
1.8134481 1.6136593 3.7975948
1.8854752 1.6122811 3.7989616
1.9818771 1.6235906 3.7928858
2.0183382 1.6173968 3.7933965
2.0698113 1.6250924 3.7937908
2.1202402 1.6316614 3.7909005
2.1783378 1.6252631 3.7804906
2.2197738 1.624748 3.7597375
1.4797688 1.6796771 3.7921689
1.5305603 1.6674094 3.7914557
1.5773134 1.6639967 3.7976751
1.6191176 1.67557 3.7945204
1.6734015 1.660651 3.7936676
1.7323084 1.6663004 3.7924635
1.9456961 1.6907367 3.7990003
1.9835197 1.6963251 3.7988954
2.0281732 1.667236 3.7977493
2.0779858 1.6736093 3.7944379
2.1254086 1.6778497 3.7856197
2.1707571 1.680321 3.7721457
2.2150021 1.6818707 3.7559867
1.4410936 1.7398772 3.7981396
1.4699854 1.7280737 3.7891629
1.5249678 1.7230312 3.788717
1.5982851 1.7366662 3.7997427
1.6299162 1.7275085 3.795692
1.6713028 1.7281631 3.7934389
1.7329348 1.7283551 3.7925236
1.7713592 1.7357746 3.7978187
1.8118769 1.7314419 3.7920549
1.8742088 1.7346534 3.7870712
1.9349208 1.7217292 3.791477
1.9826686 1.7269961 3.7861814
2.0321312 1.7230181 3.7867396
2.0772705 1.7231777 3.7807789
2.1268027 1.7211792 3.7730277
2.176991 1.7275363 3.7677391
2.2119799 1.7300779 3.7584314
1.8768855 1.778739 3.7774699
1.9298859 1.7733841 3.7732775
1.9862018 1.7720234 3.7777209
2.0309908 1.774103 3.7747831
2.0809898 1.7809244 3.7710388
2.127094 1.7717746 3.760345
2.1771102 1.7594225 3.7561626
1.8784702 1.8219097 3.7651875
1.9262284 1.8277428 3.760658
1.9762404 1.8196855 3.7653227
2.0296016 1.8230575 3.7605405
2.077549 1.8298668 3.7632515
2.1141009 1.8340719 3.7577302
1.8728683 1.8683372 3.7628937
1.9238384 1.8773704 3.7643805
1.9855999 1.8757454 3.7647669
2.021244 1.868964 3.7631283
2.0620565 1.8673719 3.7516448
2.1306696 1.8711301 3.7508996
2.1557283 1.8638122 3.7520094
1.8793123 1.9166603 3.759218
1.9273311 1.9122992 3.7586977
1.964361 1.9177138 3.7563651
2.024127 1.9033382 3.755816
1.8765104 1.9876099 3.7527761
1.8678284 2.0249727 3.7556791
1.92067 2.0219858 3.7558794
1.8793566 2.0654411 3.7566013
1.8442856 2.1284139 3.7953629
1.8926485 2.123997 3.7945888
1.91831 2.1286876 3.7942944
2.0221238 2.1328552 3.7782829
2.061085 2.1214809 3.7746146
2.1123338 2.1078122 3.7793057
1.8889176 2.1641948 3.798305
1.918465 2.1728151 3.7952797
1.9514183 2.1630831 3.798286
2.2343156 2.1746411 3.7825193
1.8815769 2.2004979 3.7945626
1.9028068 2.2001238 3.7852137
2.2427988 2.2272525 3.7754107
-2.3868825 2.2808828 3.7890501
-2.2594373 2.2661343 3.7623992
-2.2478874 2.2769125 3.7914481
-2.1914086 2.2868381 3.781563
-2.1300833 2.2687652 3.7726431
-2.0085297 2.2777228 3.7897167
-1.9636194 2.2637982 3.78058
-1.7356112 2.2792447 3.7945466
-1.6761417 2.2783167 3.7626305
-1.6162218 2.2808862 3.7716572
-1.5717765 2.2871251 3.7648721
-1.5267391 2.2953794 3.7784374
-1.4760166 2.2862909 3.7940245
-1.4263983 2.2819996 3.7643766
-1.3729079 2.2942581 3.7903278
-1.3247238 2.2915885 3.7670491
-1.2812343 2.2885256 3.7733324
-1.2003466 2.2871664 3.7759092
-1.1719329 2.2925763 3.7924528
-0.44204435 2.2974608 3.7851784
2.2404153 2.2580822 3.7549095
-1.3640318 2.3003521 3.7558088
-1.1137995 2.3009121 3.7743404
-1.088658 2.3131158 3.7859879
-0.85848898 2.3037837 3.7852979
-0.82429308 2.3177316 3.7851021
-0.61343437 2.3117917 3.7764614
-0.56256616 2.3118997 3.7538364
-0.52585447 2.3084331 3.7953148
-0.47082287 2.309432 3.7593522
-0.42077863 2.3076839 3.7717078
-0.36909431 2.3064308 3.7630286
-0.32525489 2.3237543 3.7838635
-0.27867591 2.3115127 3.7772617
-0.23135607 2.3180873 3.7762928
-0.15610303 2.3177719 3.7504587
-0.12961678 2.3114748 3.769151
-0.07989876 2.3198869 3.7725978
-0.015179192 2.3166306 3.7933819
0.032069933 2.3201144 3.7707279
0.0655903 2.3194306 3.7551806
0.24842125 2.3219559 3.7747712
0.2792142 2.3249631 3.7779853
0.32990801 2.3253841 3.7755971
0.38089192 2.3259597 3.772912
0.41883108 2.3264935 3.7778819
0.4691872 2.3288856 3.7744308
0.52479529 2.3237913 3.7776651
0.57660675 2.3340347 3.7744052
0.62043315 2.3385839 3.7910683
0.67353714 2.3449745 3.7947536
0.72491664 2.3447473 3.7871082
0.76698405 2.3477442 3.7857659
0.83845627 2.346148 3.7714207
0.93557066 2.3368657 3.7828045
0.96661782 2.336947 3.7768931
1.0436372 2.3474553 3.7788978
1.4415388 2.3452036 3.7656407
1.4778103 2.3439176 3.7846539
1.5210776 2.3490787 3.7967348
1.5849501 2.3488557 3.7753499
1.6244004 2.3441484 3.7530942
1.7165557 2.3469639 3.7759719
1.7701505 2.339406 3.7933769
1.8274742 2.3435163 3.7790482
1.8737397 2.3362632 3.7730756
2.041749 2.3219106 3.7540011
2.237664 2.3224554 3.7759883
0.74414521 2.361203 3.7676694
0.77846658 2.3615446 3.7848673
0.87115675 2.3510864 3.773967
0.92671919 2.3614054 3.7810044
1.0781868 2.3548875 3.7840295
1.1825411 2.3867335 3.7910936
1.2010229 2.3502243 3.7933595
1.2753096 2.3518353 3.7770753
1.3104277 2.3583918 3.7791009
1.4222867 2.3694439 3.766443
1.4890006 2.3534737 3.7657692
1.5314633 2.357322 3.7755001
1.5688418 2.3602619 3.768491
1.6320616 2.3552568 3.7709563
1.6732714 2.3530333 3.752213
1.7635558 2.3522789 3.7683713
2.1712132 2.3669624 3.7659438
2.216609 2.3572712 3.7717857
0.57391697 0.33673933 3.8111889
0.63461816 0.33575553 3.811301
0.6731894 0.32515934 3.8089988
0.74104959 0.34988019 3.8013642
0.5309298 0.37861136 3.8342214
0.57770127 0.37208694 3.8342769
0.62425202 0.36998785 3.8318865
0.67217028 0.3719655 3.8227358
0.72379255 0.37238252 3.8207631
0.76942807 0.38248166 3.8151801
0.82728982 0.37739804 3.8187256
0.87542039 0.37397361 3.8162198
0.92528671 0.37209484 3.8132889
0.97646469 0.3792243 3.8235574
1.0233928 0.37399507 3.8165047
1.0645835 0.37843412 3.8160686
0.53578609 0.41383395 3.8444474
0.5798766 0.42682785 3.8450406
0.62512273 0.42734146 3.844975
0.67935723 0.430399 3.8423975
0.72981495 0.42772436 3.836319
0.77892667 0.42918348 3.8433247
0.82661134 0.42975405 3.8416786
0.87306094 0.42963707 3.8337867
0.9178043 0.42748675 3.8286614
0.97910589 0.42174175 3.8309767
1.0273306 0.42232174 3.8279054
1.0695783 0.4241966 3.8379781
0.58404231 0.47172278 3.8443122
0.62747777 0.47413048 3.844182
0.67500347 0.47488177 3.8449974
0.72152191 0.47487193 3.8392375
0.76664352 0.47816771 3.8450592
0.82835501 0.47743866 3.846139
0.87397748 0.476809 3.8341203
0.92727774 0.47233173 3.8409946
0.97246104 0.46990576 3.839674
1.0219343 0.47106054 3.8408597
1.0673187 0.46738347 3.8335731
0.59979707 0.50218898 3.8461032
0.6277445 0.50222534 3.8434134
0.6758216 0.50341123 3.8472195
0.72333175 0.50406075 3.8465412
0.78051186 0.50483656 3.8451352
0.82766342 0.50506139 3.8402636
0.87668276 0.50640869 3.8435612
0.92475599 0.50706941 3.8411579
0.9853009 0.50926363 3.8483226
1.4625441 0.8359974 3.8316393
1.45868 0.88223302 3.8138251
1.4526471 1.1741647 3.8000031
1.456646 1.2929156 3.8448293
1.4485561 1.3648571 3.8035772
1.8859563 1.43161 3.8009789
1.9348788 1.4376004 3.8012083
1.9311543 1.4673523 3.8019507
1.9718828 1.4721853 3.8010273
1.7836769 1.5337639 3.8078849
1.8279017 1.5263503 3.8032846
1.9194912 1.5032257 3.8011298
1.9695133 1.5100352 3.8021469
2.0208452 1.5175502 3.8042824
1.7337364 1.5726004 3.8069084
1.7772568 1.5677975 3.8101606
1.8711308 1.5778842 3.8045821
1.9207124 1.5848023 3.8054657
1.967026 1.5679907 3.8052721
2.0187843 1.5864408 3.8045008
1.4963056 1.6327702 3.8003025
1.6879907 1.6221931 3.8023162
1.7798686 1.6008794 3.8060651
1.8410075 1.6198491 3.8045554
1.8767713 1.630452 3.8098934
1.9270465 1.6315851 3.8044636
1.970297 1.6254946 3.8028538
1.5825052 1.6898421 3.8034401
1.64175 1.698522 3.8066387
1.66229 1.6986151 3.8001149
1.7074548 1.6823515 3.8027561
1.779735 1.6823034 3.8077776
1.8155893 1.6746023 3.8052387
1.8664519 1.6746736 3.8179436
1.9189713 1.6767279 3.8097198
1.9844575 1.6662712 3.8022175
1.4408724 1.7193793 3.8044322
1.5820738 1.7202169 3.8024485
1.6863389 1.7022485 3.8013868
1.7203244 1.7157358 3.8044386
1.7709143 1.7146846 3.8040714
1.8300819 1.7218102 3.8010354
1.8663304 1.7057676 3.8070629
1.902755 1.7105002 3.8056726
1.703437 1.7609459 3.8256044
1.8751541 2.1499755 3.8014309
1.966192 2.1457548 3.8113093
2.1163919 2.14464 3.8010178
1.8571527 2.1755567 3.8072171
1.9736385 2.1865134 3.8107483
2.0077908 2.1664796 3.8099656
2.0879238 2.1710415 3.8136473
2.1307993 2.1812587 3.8166034
2.1655533 2.1609952 3.8147919
2.2129307 2.1751006 3.8239732
1.8607374 2.2013438 3.804589
1.9369023 2.2144675 3.8009892
1.9800459 2.215436 3.8128791
2.0287297 2.2220607 3.834321
2.1235535 2.2072413 3.8181059
2.1698067 2.2095845 3.8312783
2.2357185 2.2311723 3.8373737
-2.4336171 2.2809603 3.8264236
-2.2783813 2.2739143 3.829591
-2.1620927 2.2804959 3.8404064
-2.1178312 2.2689824 3.8363657
-2.09076 2.2738605 3.8014803
-2.044158 2.2710912 3.8165581
-1.9765862 2.269387 3.842083
-1.9435565 2.2785099 3.8189657
-1.7209247 2.2774515 3.8226542
-1.6756181 2.2853472 3.8278799
-1.6200024 2.282855 3.8421679
-1.5756426 2.2868786 3.8134334
-1.5321337 2.2963533 3.8202417
-1.4205537 2.2821507 3.8030298
-1.3774604 2.2795341 3.8269713
-1.3251863 2.2868493 3.8264225
-1.2710303 2.2896967 3.8338609
-1.238728 2.2990313 3.8349576
-1.1849375 2.296905 3.8443017
-0.86240637 2.2936282 3.8121438
-0.80163062 2.2970498 3.8281503
-0.50732797 2.2966154 3.8211327
-0.28194857 2.2976286 3.8403316
2.237443 2.2777905 3.8284857
-2.4550314 2.3024948 3.8002996
-1.2258842 2.3052816 3.8255816
-1.1039256 2.3028045 3.826349
-0.84109688 2.3125007 3.8031652
-0.61168259 2.3036017 3.8213654
-0.57931089 2.3180025 3.8054218
-0.4770242 2.3090074 3.8230305
-0.4117938 2.3041084 3.8278401
-0.37309742 2.3111501 3.8135266
-0.3176344 2.3116047 3.8289144
-0.26737633 2.3171072 3.8157005
-0.23065077 2.3179069 3.8332253
-0.17874019 2.3200095 3.81721
-0.12821126 2.3194661 3.8394189
-0.076781414 2.3217738 3.8298881
-0.035762817 2.3237996 3.8265622
0.032383468 2.321126 3.8149302
0.076661609 2.3191562 3.8184056
0.27190202 2.3240666 3.8306267
0.3342756 2.3349214 3.8340039
0.36436871 2.3300824 3.8239539
0.42802274 2.3311794 3.8425403
0.5300591 2.3263874 3.8249168
0.58238471 2.3298984 3.8250198
0.62608278 2.3389966 3.8349638
0.67673123 2.3354366 3.8224654
0.72469705 2.3350368 3.8261909
0.78195357 2.3411274 3.81668
0.8266952 2.340198 3.8303087
0.85729134 2.3489501 3.8174701
0.94657075 2.3434103 3.8371849
0.97612441 2.339025 3.823935
1.1877931 2.3445172 3.8335698
1.2062557 2.3393805 3.8200309
1.2945185 2.346638 3.8101881
1.316102 2.3474474 3.8058045
1.4590021 2.3414888 3.8269715
1.5184271 2.3400607 3.8307648
1.5849786 2.3432865 3.8151846
1.6314057 2.3462639 3.8219948
1.674175 2.3413932 3.8321691
1.7276243 2.3423305 3.8277833
1.7784605 2.3286147 3.8219802
1.8293533 2.3380587 3.8207591
1.8705348 2.3376551 3.830615
2.0616055 2.3223667 3.8017626
2.2213678 2.329293 3.8277683
0.81442988 2.3555605 3.8134382
0.92388636 2.359823 3.823905
1.0344788 2.3530743 3.8362744
1.076221 2.3524866 3.8263195
1.1191068 2.3543918 3.8200791
1.1827911 2.3556852 3.8073325
1.4310646 2.3674409 3.8248823
1.5618827 2.3570888 3.8483074
1.6786544 2.3541689 3.8032012
2.0976014 2.3601334 3.8056817
2.1245761 2.3654044 3.8038788
2.1657896 2.3630536 3.8178465
2.2024696 2.3548691 3.8026762
0.53090245 0.43960702 3.852545
0.63740993 0.42808604 3.8506815
0.65682113 0.4192912 3.8540077
0.5352661 0.47479069 3.858798
0.56274611 0.48370865 3.8523452
0.79090673 0.46806511 3.8521147
0.92661947 0.4892801 3.8505909
1.0892791 0.49482945 3.8673809
0.57988262 0.51916969 3.8693242
0.6264295 0.53698611 3.8915215
0.67121232 0.53517509 3.8730361
0.7209478 0.53724468 3.8825731
0.77452862 0.53304845 3.8745835
0.82496512 0.52809322 3.8714757
0.8704111 0.53691053 3.8736889
0.92436695 0.53101283 3.8787246
0.97042131 0.52557307 3.866029
1.007076 0.51074755 3.8562293
0.5895645 0.57544386 3.8972487
0.61499459 0.57254821 3.8967102
0.67841047 0.57300925 3.8927929
0.72370934 0.57713628 3.8937685
0.77164692 0.56814981 3.8919585
0.82878798 0.56969136 3.8948789
0.88149315 0.57554013 3.8895497
0.92636442 0.57017434 3.8834879
0.97264445 0.56560844 3.8825481
0.61737859 0.62403882 3.8985608
0.8785333 0.60792798 3.8854582
2.2119241 2.2297401 3.8556428
-2.4688864 2.2908726 3.89345
-2.4185584 2.2882648 3.8508883
-2.3383529 2.2769263 3.8671594
-2.1735911 2.2701516 3.8717275
-2.067579 2.274806 3.8711011
-2.0414305 2.2705047 3.8734405
-1.9571531 2.2723832 3.8563318
-1.708058 2.2783077 3.8551433
-1.6804194 2.2849362 3.8777452
-1.6221766 2.2795336 3.8868892
-1.5791426 2.2860684 3.8617978
-1.5372952 2.2879205 3.8786535
-1.3615614 2.286093 3.8764114
-1.3434455 2.2916181 3.8915904
-1.2252496 2.2868536 3.8764102
-1.1857055 2.2977512 3.8936391
-0.45045304 2.299722 3.8759296
2.0228343 2.2620528 3.8640358
2.0771351 2.2506962 3.8740482
2.2254243 2.2887399 3.8878834
-1.0934508 2.3144341 3.8728161
-0.85283214 2.3238256 3.8659067
-0.61079037 2.3187418 3.8918567
-0.57613295 2.3260081 3.8633652
-0.47266436 2.3170395 3.881104
-0.42059672 2.3064675 3.8899159
-0.37628591 2.3101366 3.8552587
-0.33535439 2.3121748 3.8615236
-0.26411143 2.3211153 3.8806884
-0.22198133 2.3137743 3.870333
-0.17091051 2.3215187 3.8852758
-0.12933105 2.3194237 3.8829722
-0.072443709 2.3259718 3.8840604
-0.022306234 2.3182895 3.8680575
0.01556713 2.3267207 3.8748894
0.087752208 2.3114746 3.8705494
0.27430487 2.3186927 3.8761241
0.31690085 2.3378835 3.8838096
0.37852082 2.3338442 3.872859
0.43037194 2.3231475 3.8729367
0.47243166 2.3364563 3.8695025
0.50431085 2.3398631 3.8721704
0.63039321 2.3343918 3.8712263
0.67083502 2.3301029 3.858773
0.73632175 2.3399448 3.8664281
0.77483273 2.3407159 3.8733068
0.96664941 2.3457851 3.8835278
1.0230321 2.3328252 3.8965933
1.0609833 2.3442166 3.8617952
1.1969367 2.3412735 3.8731461
1.2181393 2.341136 3.8677583
1.4356302 2.3450384 3.8650622
1.4542068 2.336067 3.8930545
1.534369 2.332056 3.8865921
1.5767053 2.3395379 3.8786488
1.6238061 2.3375196 3.8765514
1.6806239 2.3437915 3.8864057
1.7304205 2.3396895 3.8785925
1.7590778 2.3243315 3.8738387
1.8311706 2.3213975 3.8680029
1.8594096 2.3292375 3.872541
2.1144552 2.3466215 3.8846498
2.2186894 2.3162022 3.890168
0.84459698 2.3506572 3.8677669
0.93461072 2.366082 3.8782687
1.1715959 2.3543937 3.8547854
1.3537275 2.3549755 3.8571968
1.425458 2.3674989 3.8593886
1.6599642 2.3519528 3.8570256
2.1313331 2.3629203 3.8528149
2.1695971 2.3575325 3.8820126
2.2090254 2.363415 3.875747
0.53604996 0.5123477 3.931262
0.55480695 0.51215065 3.9280057
0.64175969 0.5802961 3.9031632
0.66787267 0.58739328 3.904974
0.77464926 0.58936328 3.9051661
0.81449157 0.59070086 3.9088392
0.98134911 0.59370857 3.903568
1.0023258 0.59479791 3.9074349
0.59236711 0.60661024 3.9129233
0.64417791 0.62526846 3.9035504
0.67683262 0.62277448 3.9085243
0.72737598 0.62760985 3.9085546
0.77628446 0.60966092 3.9114785
0.82515222 0.61059231 3.9108944
0.87908709 0.63417935 3.9298432
0.9294883 0.62555671 3.9165606
0.97652858 0.6254971 3.9212079
1.0058169 0.61612028 3.9190285
-2.4542685 2.2988265 3.9192905
-2.4165907 2.2851272 3.9079978
-2.3864269 2.2783384 3.9082327
-2.1059992 2.2698956 3.9018764
-1.6720958 2.2815166 3.9268622
-1.5630276 2.288204 3.9227576
-1.5385203 2.2841547 3.9225767
-1.3822327 2.2812014 3.911478
-1.3254647 2.2903562 3.9105501
-1.2676857 2.2900987 3.9084563
-1.214792 2.2912207 3.92349
-1.1835368 2.2928534 3.9338238
2.136328 2.2902899 3.9321854
2.188329 2.2973218 3.9236872
2.2074947 2.2936287 3.906867
-1.166853 2.3025143 3.9066696
-1.107272 2.3115995 3.9364014
-1.0858817 2.3222938 3.9361534
-0.61466473 2.3124161 3.9259229
-0.57196319 2.3306692 3.916676
-0.47628403 2.3090038 3.923162
-0.42527694 2.3110237 3.9423256
-0.37619144 2.3147178 3.9343231
-0.3295511 2.3236656 3.9256916
-0.2768212 2.3199725 3.922493
-0.22974516 2.3143435 3.926405
-0.17271295 2.325357 3.9360862
-0.12071557 2.3320744 3.9489293
-0.078357756 2.3225639 3.9335887
0.033120081 2.3286278 3.9295003
0.074834682 2.3235283 3.9204566
0.28182039 2.3226311 3.9155841
0.33316827 2.3306093 3.9223814
0.37624419 2.338176 3.9322722
0.41072345 2.3351614 3.9245813
0.4789418 2.3371201 3.9371104
0.51045668 2.3368134 3.9336212
0.63759667 2.3399773 3.9250236
0.6698873 2.3422899 3.9249053
0.7283144 2.3344133 3.9310558
0.78541088 2.3408558 3.9061735
0.80874038 2.3473799 3.9137816
0.94432259 2.3479617 3.9382939
0.96170431 2.3383443 3.9182215
1.0463517 2.3375628 3.9001739
1.0784942 2.3399553 3.945363
1.1005309 2.341186 3.9428799
1.1895919 2.3474691 3.9341595
1.2164435 2.3369975 3.9089575
1.4371952 2.3435776 3.9118884
1.5032927 2.3234732 3.9055159
1.5943229 2.3347106 3.9240839
1.6297417 2.32741 3.9246235
1.6771299 2.3322542 3.9180853
1.723259 2.3377388 3.9304628
1.7554123 2.3265786 3.9330945
2.0798059 2.3231266 3.9092176
2.1343472 2.3345163 3.9380007
2.171443 2.3263249 3.9336281
2.2087324 2.3410363 3.9177785
0.61974406 2.3522058 3.9480901
0.70418769 2.3512216 3.9356823
0.83144349 2.3518004 3.917774
0.85366058 2.3546612 3.9190626
0.92968363 2.3592744 3.9137912
1.1770875 2.35479 3.9259677
1.4219277 2.3650823 3.9307268
2.1893029 2.3561125 3.9288085
1.0354429 0.54457939 3.9630749
1.0545099 0.52495027 3.9599915
1.122822 0.52968019 3.9847331
1.0399189 0.57623565 3.9773979
0.86308938 0.64374447 3.9934528
-1.7012492 2.2839835 3.9756866
-1.626169 2.2940326 3.966619
-1.5546644 2.2861362 3.9737146
-1.5088123 2.2832422 3.9818988
-1.4607215 2.2985821 3.9733784
-1.4078634 2.283823 3.9601016
-1.3766111 2.2860792 3.9728892
-1.3384885 2.2984438 3.9556155
-1.2824428 2.2951484 3.9637871
-1.2164207 2.2930613 3.9759007
-1.1645627 2.2973895 3.9958208
-1.4836692 2.3002381 3.9699056
-1.3208498 2.3054855 3.973382
-0.85055166 2.3116913 3.9849081
-0.84823722 2.3267508 3.9646344
-0.61142772 2.3189056 3.9836805
-0.57905763 2.3276372 3.9793739
-0.46254301 2.3188925 3.9986656
-0.39737552 2.3109806 3.9901354
-0.32148337 2.3198996 3.9649196
-0.27909547 2.3177743 3.9636695
-0.21594483 2.3187666 3.9683156
-0.17475826 2.3315687 3.9917784
-0.12664519 2.3290341 3.977442
-0.068483412 2.3210154 3.9761124
-0.02627972 2.3287816 3.9671593
0.019414902 2.3297999 3.9764941
0.068991877 2.3334887 3.9974971
0.26933348 2.3235545 3.9741244
0.34291518 2.3213902 3.966187
0.37573248 2.3284292 3.9760561
0.42836967 2.3342524 3.9668477
0.47236514 2.3355718 3.9806232
0.52485186 2.3328576 3.97103
0.56933331 2.3416171 3.9815502
0.622756 2.337007 3.9791288
0.68071455 2.3392782 3.9798234
0.76477838 2.3429136 3.9824154
0.82333726 2.3430703 3.978569
0.85854775 2.3467982 3.9512033
0.94665676 2.3323588 3.9577012
0.96824312 2.3328326 3.9545584
1.1859818 2.3400707 3.9705019
1.2174985 2.3381782 3.959712
1.4323813 2.3495483 3.9750144
1.4508544 2.3439376 3.9592953
1.5399777 2.328088 3.9718478
1.569919 2.3252735 3.965971
1.6216906 2.3253613 3.9760492
1.6822579 2.3325691 3.9701209
1.7221484 2.3248551 3.9818733
0.79589027 2.3507099 3.9679558
0.92934817 2.3533597 3.9741945
1.1585246 0.39792126 4.0479932
1.1560307 0.42685074 4.0372043
1.4806435 0.44492272 4.044045
1.1575598 0.4671424 4.0395546
0.5914079 0.54744416 4.0451698
1.0493029 0.61098605 4.0103235
1.4806944 0.64709055 4.0251565
1.4908237 0.8957715 4.0199318
1.4763535 0.91978472 4.0380359
1.4966513 1.2432055 4.0346193
-1.6778018 2.2861676 4.0151248
-1.6184566 2.2922697 4.0192108
-1.5209256 2.279438 4.0236917
-1.4930185 2.2926834 4.0048213
-1.4215671 2.2841084 4.0084157
-1.3676758 2.2857485 4.0260525
-1.2616849 2.2947452 4.0185599
-1.2344875 2.2848394 4.0064039
-1.1945239 2.2916288 4.0284042
-1.3327155 2.3042476 4.0188527
-1.1891156 2.302983 4.0006533
-0.85855436 2.3118315 4.0318089
-0.83783227 2.314254 4.0394583
-0.61575568 2.3138919 4.0211749
-0.5863632 2.3247509 4.0436358
-0.47600818 2.3114791 4.0310621
-0.41465887 2.3144238 4.0257735
-0.37165678 2.3197649 4.0227294
-0.32417428 2.3179567 4.0071774
-0.27195966 2.3260605 4.0241199
-0.21906406 2.3308158 4.03479
-0.17271169 2.323292 4.0388284
-0.12253895 2.3251312 4.0279584
-0.08006189 2.3295391 4.0364218
-0.026420059 2.3106403 4.0041885
0.032069005 2.3309917 4.0279145
0.080041185 2.3261924 4.0306196
0.27259392 2.3303928 4.0316577
0.31513819 2.3394279 4.021934
0.37921911 2.3289635 4.0227537
0.42255783 2.3323898 4.0254955
0.47642708 2.3341401 4.024035
0.53061116 2.3371248 4.024189
0.57792896 2.3334525 4.0285368
0.62002271 2.3303597 4.0184216
0.68331999 2.335263 4.0272732
0.726282 2.3352332 4.0215125
0.77472168 2.3371661 4.0260348
0.82641268 2.3338587 4.0282931
0.96048903 2.3447206 4.0252028
1.1899523 2.3475602 4.0328417
1.2074847 2.3390419 4.0132055
1.4394416 2.3390553 4.0047226
1.465764 2.3458869 4.0101633
1.532663 2.328371 4.0271468
1.5917838 2.3129559 4.0415173
1.6182629 2.311976 4.0223489
1.6734557 2.3178132 4.0250969
1.7117463 2.3130028 4.0301738
0.94271708 2.3545375 4.0459566
1.4264641 2.3651567 4.0314503
1.1630239 0.49929789 4.0562
1.1672012 0.52112937 4.069057
1.4649003 0.52923977 4.0700951
1.4566475 0.55221194 4.0916438
1.4719782 0.61142951 4.0663915
0.76634538 0.69224167 4.0592966
1.033262 0.66900301 4.0633125
1.4683346 0.66039234 4.0716968
1.4809244 0.71763891 4.0794706
1.473686 0.81154984 4.0783129
1.4711396 0.86744356 4.0950084
1.4984765 0.97505343 4.0917478
1.4890858 1.0513959 4.0516338
1.4965289 1.118801 4.0601144
1.4885271 1.1702212 4.092164
-2.6128075 2.2836952 4.0653973
-1.4774203 2.2977929 4.0721102
-1.2524378 2.2959816 4.0742359
-1.2315474 2.298178 4.0832705
-1.5130104 2.301039 4.0683308
-1.343864 2.3013899 4.0621834
-0.56534272 2.3270526 4.0817056
-0.46934676 2.309823 4.0759296
-0.44740102 2.3186986 4.0698633
-0.36875796 2.3177221 4.0818534
-0.32836884 2.3266375 4.0686502
-0.28435904 2.3187685 4.057292
-0.22089973 2.3287196 4.0776887
-0.18767522 2.3177764 4.0597363
-0.13450892 2.3255858 4.0749869
-0.069894709 2.3254814 4.0760078
-0.026886061 2.3305507 4.0852737
0.02707254 2.3347425 4.092607
0.091567017 2.3257227 4.0761328
0.27418509 2.3225038 4.0644026
0.32854652 2.3340273 4.0659747
0.37179282 2.3280067 4.0683017
0.42709064 2.335695 4.077816
0.47085762 2.3383093 4.0788355
0.52258927 2.327635 4.0552936
0.56617922 2.3297129 4.0546236
0.63146329 2.3318841 4.0512509
0.66555512 2.3378992 4.0578022
0.72415012 2.3306694 4.0854468
0.78973591 2.3314753 4.0778055
0.82458156 2.3376884 4.0837951
0.85442305 2.3296757 4.064743
0.94890326 2.3480361 4.0821209
0.96795046 2.3410487 4.0660777
1.4368268 2.3487601 4.0759239
1.4534483 2.3395278 4.0537548
1.5234641 2.3221333 4.0531702
1.1970366 0.38401127 4.1093616
1.2313728 0.37515509 4.117363
1.2758939 0.3763361 4.1219711
1.3236179 0.37460363 4.1151609
1.3686775 0.38977376 4.1382918
1.1995808 0.40507349 4.1167736
1.2253939 0.42725748 4.1300173
1.2740651 0.42884144 4.1360459
1.3260506 0.42001528 4.1402302
1.3671604 0.41768649 4.1429691
1.2179167 0.47916877 4.1374359
1.2731278 0.47055641 4.1417069
1.326154 0.46788359 4.1439419
1.3598748 0.45177007 4.140748
1.1818695 0.54796857 4.118391
1.2210969 0.5212993 4.1449275
1.253016 0.51159918 4.143815
0.53547865 0.57052499 4.147213
0.57926619 0.57035631 4.1272082
0.60188383 0.59693366 4.113121
1.098212 0.57707882 4.1212926
1.1327472 0.5792141 4.1309299
1.1781716 0.58158714 4.1400728
1.223232 0.57339716 4.1475234
1.2561361 0.57440633 4.1486058
1.4680068 0.58745718 4.1205654
0.57406926 0.61717325 4.1435781
0.60036653 0.61527491 4.1008067
1.1253446 0.62135124 4.1388292
1.1810312 0.62390077 4.1461205
1.4668131 0.6281051 4.1130028
0.60587054 0.68100011 4.1321154
0.83420116 0.66878623 4.1140375
0.86265087 0.67683506 4.1177964
1.0771633 0.68544024 4.1380353
1.1158956 0.67274171 4.1381021
1.1502442 0.65450525 4.1483693
0.62762856 0.7029705 4.1393332
0.66887659 0.72423381 4.1395755
0.79275167 0.72717559 4.1420913
0.8264516 0.71374422 4.1393056
0.8761043 0.71582061 4.144876
0.92448032 0.72756779 4.1259832
0.96978641 0.73125327 4.1406012
1.0232353 0.72297722 4.1443386
1.4609226 0.71985281 4.1242418
0.96141624 0.75295979 4.1474414
1.4648498 0.77506667 4.1329756
1.4754603 0.82854366 4.1129808
1.4768051 0.89151359 4.1076684
1.4710383 0.93590987 4.1167331
1.4718791 0.96646017 4.1251154
1.4819438 1.0266376 4.1331148
1.4751415 1.0606732 4.1405334
1.4834507 1.1115824 4.1221786
1.49789 1.1986089 4.1135926
1.4847436 1.2472727 4.1320276
1.4773104 1.2817359 4.1366234
1.500129 1.2635761 4.1062651
1.4751559 1.3218055 4.1326537
-2.6097934 2.2900672 4.1169868
-2.5807679 2.2979171 4.1164246
-1.2754543 2.2954428 4.1197252
-1.239471 2.2907202 4.1190214
-0.47171751 2.2997918 4.1055899
-1.4054219 2.3076987 4.1109996
-1.200376 2.3010087 4.1475391
-1.1702603 2.3079991 4.1155677
-1.1019725 2.32653 4.1135535
-1.0846113 2.3368464 4.1362662
-0.60601455 2.3375087 4.1119761
-0.43250826 2.3221955 4.1491404
-0.34246412 2.327558 4.1168284
-0.27724379 2.3279479 4.1211281
-0.23375177 2.3278298 4.1229439
-0.16939943 2.3402548 4.1473184
-0.11389345 2.3232813 4.1186047
-0.059536584 2.3196347 4.1129956
-0.03811603 2.335166 4.140727
0.04892347 2.3238986 4.1206665
0.081573077 2.3257172 4.1235008
0.27704477 2.3250475 4.116035
0.33160686 2.3267405 4.1160712
0.36453712 2.3286891 4.117465
0.43082312 2.3234463 4.1274104
0.47382277 2.3311043 4.1135116
0.51857066 2.3366325 4.1193614
0.57432729 2.3412507 4.1220851
0.62921894 2.342124 4.1176896
0.66316307 2.3350635 4.1254244
0.73005974 2.3277626 4.128201
0.77579767 2.3388159 4.1297193
0.82986164 2.3305964 4.1192179
0.95799243 2.3372655 4.1355104
1.4251584 2.3439634 4.1227899
1.4530997 2.3413963 4.1370702
1.5284352 2.324337 4.1096702
1.4218968 2.3610928 4.1034141
1.4740685 2.3501151 4.1213217
1.2872533 0.49250561 4.150569
1.3434124 0.4943139 4.1546483
1.3651192 0.48442534 4.1543102
0.52560139 0.54062629 4.151731
1.2774096 0.52343845 4.1514511
1.3270385 0.52729076 4.155683
1.3709686 0.52789247 4.1686506
1.2245573 0.5740062 4.1520362
1.2800226 0.57592028 4.1553273
1.3265949 0.57831985 4.1635876
1.3725635 0.56993854 4.1697483
0.53711659 0.6208415 4.1713796
0.5506193 0.64660585 4.1785126
1.2270236 0.62650424 4.1553183
1.2726791 0.62878954 4.1619716
1.3176115 0.63057208 4.1649837
1.3627923 0.62199247 4.1687307
0.56683189 0.67902565 4.1742125
1.1841357 0.65629625 4.1538239
1.232546 0.66529506 4.1577373
1.2743556 0.67088497 4.1630292
1.319711 0.67298216 4.1671743
1.3690449 0.67690533 4.1822505
0.57443655 0.72631294 4.1759467
0.61646521 0.72767723 4.1648164
0.67226142 0.74004298 4.1591311
0.72294319 0.73815894 4.1544638
0.77485555 0.73947108 4.1557703
0.81579173 0.72972304 4.1539669
0.86733758 0.7304709 4.1513128
1.037299 0.73593247 4.1570635
1.0792489 0.72645837 4.1554022
1.1123916 0.72807002 4.1591606
1.1709201 0.74293399 4.1743126
1.2339972 0.73251712 4.1750798
1.2791278 0.72519296 4.1726451
1.3237517 0.72696811 4.1739173
1.3706155 0.71937758 4.1822281
0.57047552 0.77709544 4.1812453
0.62591994 0.77507126 4.1746697
0.67473596 0.78132731 4.1696925
0.7260946 0.78201079 4.1676207
0.77023894 0.77540296 4.1639867
0.82507974 0.77648103 4.1655545
0.87132591 0.77462083 4.165421
0.92304653 0.77527833 4.1615248
0.97586882 0.77674276 4.16155
1.0256618 0.77150363 4.1632204
1.0761731 0.77161789 4.1630893
1.1265109 0.77173144 4.166575
1.1703329 0.77348781 4.1683559
1.2270857 0.7768085 4.1760001
1.2804781 0.77780998 4.1706676
1.3286669 0.7817629 4.1829429
1.3624725 0.77280021 4.1852303
0.57532054 0.8248443 4.1895213
0.62524992 0.82352293 4.1779294
0.67785591 0.82569045 4.1836329
0.72969109 0.82670623 4.1830459
0.77066827 0.82686847 4.1789789
0.82230812 0.82749462 4.1755834
0.87492186 0.82895613 4.1759672
0.92773944 0.83046645 4.1760607
0.98195922 0.8250801 4.1725407
1.0216354 0.82732141 4.1777525
1.0742246 0.82190239 4.1764598
1.1265314 0.82939202 4.1766582
1.1723315 0.82379186 4.1770096
1.2192222 0.81990188 4.1812038
1.2742869 0.82196045 4.1809955
1.3312558 0.82505625 4.1855803
1.3637133 0.82575107 4.1821604
1.466059 0.81413281 4.1530252
0.57611626 0.87692928 4.1882205
0.62783599 0.87799543 4.1883373
0.67893332 0.86784416 4.1847777
0.72506219 0.87543851 4.1859078
0.77161157 0.86877131 4.1785603
0.82336479 0.86946338 4.1752915
0.8766014 0.8715654 4.1783648
0.92671329 0.87232637 4.1852064
0.97669303 0.8769722 4.1795774
1.027694 0.87806022 4.187212
1.070365 0.87918276 4.1854801
1.1234525 0.88027233 4.1814389
1.1797829 0.87591493 4.1810513
1.2236365 0.87497503 4.189075
1.2670038 0.87614852 4.1862593
1.3198627 0.87263525 4.1884289
1.3658533 0.86892051 4.1828523
1.4716187 0.85912108 4.1628976
0.58182269 0.92847919 4.1925573
0.62955344 0.93154925 4.192338
0.6710391 0.92208594 4.1930556
0.72531718 0.92529458 4.1895566
0.77513093 0.92408293 4.1901917
0.82434922 0.9191407 4.1889992
0.87518483 0.92895859 4.1853728
0.9231447 0.91809189 4.1916409
0.97654301 0.91981125 4.1915097
1.0295599 0.92105609 4.1887689
1.0732257 0.92301303 4.1906223
1.1244406 0.92251474 4.1790118
1.180516 0.92586255 4.1843414
1.2252824 0.92826664 4.1870112
1.2708251 0.93108565 4.1910915
1.3285954 0.92526287 4.1896501
1.3687276 0.9232021 4.1838479
1.4724776 0.92251116 4.1559186
0.57854456 0.97280103 4.1923532
0.63020772 0.97351176 4.1904597
0.67239773 0.9752816 4.1937442
0.72416359 0.97586805 4.1905065
0.77569252 0.97610992 4.1853786
0.82439983 0.97579032 4.1870394
0.87540531 0.98169535 4.1872005
0.92519361 0.97183198 4.1930594
0.97428882 0.96923941 4.1858797
1.0235308 0.98052073 4.1843667
1.0746707 0.97618294 4.1881833
1.1257896 0.97516447 4.1865034
1.1749785 0.97901684 4.1824818
1.2297238 0.9735024 4.1956615
1.2722713 0.9740265 4.1893301
1.3243191 0.97480118 4.1916447
0.62543285 1.014675 4.1940184
0.67768627 1.0225817 4.1978493
0.71298301 1.0247644 4.1911073
0.77879202 1.0109501 4.1971445
0.81047904 1.0222173 4.1953764
0.87208569 1.0115095 4.1870866
0.9821403 1.0394285 4.1975007
1.0226749 1.0280026 4.1882119
1.0772845 1.0306036 4.1898284
1.1334746 1.0344095 4.1958675
1.1722795 1.0333608 4.1933508
1.221006 1.0063356 4.1986842
1.2759 1.0083101 4.1961136
1.3076923 1.0085498 4.1903963
1.4790729 1.0319291 4.1571794
0.58154947 1.0704762 4.1989303
0.64375484 1.0506418 4.1993685
0.67467332 1.0506774 4.196228
0.73492736 1.0740728 4.1968822
0.79080141 1.0958322 4.1908064
0.82555968 1.0755267 4.1914077
0.87604094 1.0679229 4.1972318
0.92977244 1.0701319 4.1983228
0.97166085 1.0705132 4.1933908
1.0248502 1.0717993 4.1898999
1.0793148 1.0742513 4.1905651
1.1141484 1.0777001 4.1983695
1.2244254 1.0722221 4.1996555
1.2911011 1.096333 4.1945877
1.3138584 1.0871861 4.1973162
1.4635851 1.0781193 4.1707082
0.79330939 1.130424 4.1984758
0.8139205 1.1302614 4.1951294
0.88329315 1.1172338 4.198143
