ply
format ascii 1.0
comment PCL generated
element vertex 1551
property float x
property float y
property float z
element camera 0
property float view_px
property float view_py
property float view_pz
property float x_axisx
property float x_axisy
property float x_axisz
property float y_axisx
property float y_axisy
property float y_axisz
property float z_axisx
property float z_axisy
property float z_axisz
property float focal
property float scalex
property float scaley
property float centerx
property float centery
property int viewportx
property int viewporty
property float k1
property float k2
end_header
-1.980955 2.3069782 2.9222844
-1.9335369 2.3047285 2.9230785
-1.8595672 2.3014212 2.9142447
-1.8226918 2.3117468 2.9374313
-1.7719532 2.3125722 2.9221065
-1.7245824 2.30828 2.9217143
-1.6688839 2.3135664 2.9195793
-1.6256456 2.3144169 2.9281597
-1.5763958 2.3108716 2.929296
-1.5375152 2.3096611 2.9208179
-1.4768384 2.3173621 2.9195886
-1.4258189 2.3163388 2.9200954
-1.3771019 2.3095732 2.9299748
-1.332047 2.3132589 2.9211407
-1.2721506 2.3076549 2.9103398
-1.2267227 2.3136976 2.9170053
-1.1838504 2.3130169 2.9249458
-1.126821 2.3113446 2.9201534
-1.0792135 2.3109388 2.9220676
-1.0223994 2.3197815 2.9282885
-0.98315364 2.3180356 2.9193714
-0.93401283 2.3143239 2.9277887
-0.87600797 2.3224671 2.9276505
-0.82410544 2.3143759 2.9206774
-0.76822698 2.3227234 2.9273837
-0.73105681 2.3222733 2.9177029
-0.67906708 2.3200042 2.9251206
-0.62308717 2.3267009 2.9274187
-0.57073718 2.3308108 2.9248819
-0.52315444 2.3231061 2.9305847
-0.46692699 2.3313127 2.9241805
-0.41489959 2.3229065 2.9150279
-0.36895803 2.3334534 2.9302568
-0.32602093 2.329706 2.9297376
-0.28257799 2.3290224 2.9162903
-0.23275086 2.3377795 2.9309349
-0.18133684 2.3288329 2.9226706
-0.13060051 2.3225126 2.9250126
-0.079931296 2.3246448 2.9211285
-0.02950269 2.3288834 2.9272346
0.021114362 2.3308685 2.9297926
0.071874015 2.3331435 2.9319961
0.12206331 2.3232386 2.9181795
0.16764261 2.3276627 2.9327023
0.22734746 2.3263047 2.9298251
0.27881634 2.327733 2.9231434
0.32316408 2.3346534 2.933017
0.38166693 2.3365276 2.9361832
0.42865357 2.3349004 2.9254878
0.47630343 2.3337007 2.9211493
0.52114195 2.3406982 2.9260275
0.56890291 2.3447368 2.9349051
0.62208164 2.3320184 2.9228878
0.66861874 2.3360481 2.9263306
0.72701907 2.3409746 2.9347723
0.7800684 2.3452587 2.9290454
0.83019501 2.3364613 2.9144673
0.87059814 2.3440187 2.9320662
0.91711545 2.34794 2.9341793
0.96666169 2.341713 2.9122744
1.0229589 2.3464622 2.9263661
1.0905821 2.3485079 2.9204545
1.11637 2.3474867 2.9107094
1.1687499 2.3472502 2.929673
1.2661629 2.3467152 2.9318721
2.2321877 2.3308644 2.9287431
0.36178759 2.350086 2.9357924
0.94644278 2.3560503 2.9373338
1.0681057 2.3569264 2.9391661
1.1443537 2.351033 2.9064009
1.1729851 2.3557181 2.9031887
1.2244933 2.3527167 2.917944
1.2667276 2.3536599 2.9290535
1.3238131 2.3544447 2.9211569
1.3770825 2.3582582 2.9185097
1.4237978 2.366478 2.927619
1.477839 2.3692036 2.9183512
1.5204306 2.3701925 2.9210329
1.5743346 2.3740668 2.9223928
1.6452591 2.379236 2.938066
1.6686159 2.3836279 2.9193783
1.7167869 2.3797522 2.924243
1.7698765 2.37971 2.9178679
1.8268785 2.3851113 2.9252253
1.8856931 2.3927205 2.9423845
1.9253554 2.3950071 2.9236257
1.9967564 2.3937831 2.9254384
2.0350802 2.3957224 2.9290047
2.0658722 2.388526 2.921145
2.1595612 2.3892508 2.9355328
2.2219517 2.374774 2.9342239
1.8942904 2.4011581 2.9289997
1.9762632 2.4015572 2.927742
2.1246409 2.4020977 2.9322047
2.1748493 2.4051065 2.9297891
2.2209897 -0.21491122 2.98438
2.2289605 -0.1712487 2.9842243
2.2293446 -0.13418999 2.9862347
2.0841916 0.099623814 2.9817419
2.1695578 0.083911493 2.9715207
2.2244253 0.068023227 2.9893107
2.1569493 0.13310514 2.9527557
2.2235019 0.11791319 2.9623287
2.1876333 0.15955542 2.977474
2.2356384 0.16585168 2.9799743
2.2605069 0.18729112 2.9924607
2.2388599 0.2207457 2.9944954
2.2668815 0.20483251 2.9999881
2.2327604 0.2539131 2.9841814
2.2443945 0.32311106 2.9943826
2.2273195 1.3791227 2.9722815
2.2275298 1.4310923 2.9615877
2.2312789 1.4825178 2.9761832
2.2329452 1.5316789 2.9677544
2.2317095 1.5763658 2.976608
2.2357664 1.6246102 2.9609995
2.2401581 1.670228 2.9748421
2.2411175 1.7279028 2.9730299
2.2519009 1.7805443 2.9683316
2.2465103 1.8169317 2.9693089
2.252017 1.821398 2.9765062
2.2458618 1.8688797 2.9852271
2.25559 1.8791226 2.9666004
2.2484531 1.9433262 2.9945798
2.2508464 1.9198738 2.9657962
2.2398713 1.9641237 2.9669595
2.2483983 2.0083437 2.980485
2.2526538 2.0396814 2.9936602
2.2468641 2.0717747 2.9876719
2.2531185 2.0877919 2.9652903
2.2413492 2.1232698 2.9697425
2.2427468 2.18172 2.9685402
2.2385275 2.2159538 2.9547486
-2.8755503 2.2858 2.9720497
-2.8148 2.2998476 2.9912367
-2.7449238 2.2971776 2.9798355
-2.4884098 2.2940779 2.9937191
-2.441071 2.2980065 2.9808955
-2.3323095 2.2995634 2.9536078
-2.2190297 2.2934012 2.9664133
-2.1716037 2.2939126 2.9731598
-2.1239829 2.2939901 2.9786391
-2.0860782 2.2936642 2.9772177
-2.0051494 2.295681 2.9579561
-1.9203343 2.2943487 2.9815133
-1.8757925 2.2954872 2.9852998
-1.8167462 2.2990322 2.9783199
-1.1247472 2.2945497 2.979609
2.2386088 2.2741373 2.9674876
2.2502952 2.2664566 2.9960377
-2.7694507 2.3004122 2.9678664
-2.7105708 2.3062131 2.9673212
-2.6795607 2.3060296 2.9907858
-2.6169424 2.3076196 2.983815
-2.5732782 2.3162613 2.9779782
-2.5215616 2.3065612 2.977186
-2.4761579 2.3028193 2.9655669
-2.4200525 2.3074591 2.9610145
-2.3909054 2.3080707 2.9828401
-2.3147936 2.3016498 2.9697905
-2.2853794 2.301692 2.9897959
-2.0641868 2.3002665 2.9785266
-2.0386243 2.3025575 2.974262
-1.9715787 2.305449 2.9835062
-1.9379259 2.3023231 2.9624243
-1.8645973 2.3004909 2.9548457
-1.7835643 2.3063545 2.9750142
-1.7292792 2.3099928 2.9762337
-1.6759155 2.3141842 2.9773767
-1.6252738 2.3085661 2.9608135
-1.5709587 2.3095028 2.9876163
-1.5210664 2.320502 2.969692
-1.4711933 2.3096547 2.9704113
-1.4270917 2.3059955 2.9631739
-1.3725895 2.3020792 2.9693506
-1.3208971 2.3160012 2.9713867
-1.2748749 2.3101764 2.9663558
-1.2287979 2.3115869 2.9792244
-1.1749583 2.3153853 2.9749141
-1.1297388 2.3088977 2.9709682
-1.0699615 2.3125441 2.9764142
-1.0279039 2.3112903 2.9742863
-0.97576648 2.3156512 2.9716876
-0.92194289 2.3166919 2.9785359
-0.87505597 2.316951 2.9729762
-0.82586116 2.3177898 2.9718146
-0.7722882 2.3168933 2.9755845
-0.72235781 2.3220909 2.9734004
-0.6688236 2.3180087 2.9753923
-0.62509012 2.3202813 2.9777155
-0.58350462 2.3263216 2.9700849
-0.52873993 2.3221073 2.9785659
-0.47548881 2.3225882 2.9698553
-0.4189195 2.3222191 2.9680302
-0.3764362 2.326328 2.9829931
-0.31630999 2.330503 2.9725823
-0.26881793 2.3306761 2.9684019
-0.2176813 2.3315849 2.9730015
-0.17065212 2.3308399 2.9745977
-0.12611483 2.3255613 2.9641895
-0.081121139 2.3330934 2.9805317
-0.029785585 2.3289819 2.9728189
0.024793917 2.3316491 2.9762788
0.072573654 2.3298681 2.9766064
0.12356446 2.3271091 2.9717057
0.17479467 2.3266311 2.9722762
0.22159162 2.3223987 2.9692144
0.27449971 2.3330894 2.9744306
0.33371353 2.332407 2.9735346
0.38163182 2.3332767 2.9782116
0.42434177 2.3323283 2.9722626
0.46763015 2.3345234 2.9697599
0.52468586 2.335777 2.9719541
0.57276005 2.3347595 2.9717233
0.62114 2.3342481 2.971499
0.68001109 2.3395619 2.9764068
0.7300548 2.3334258 2.9583924
0.77957022 2.3437963 2.9791522
0.81894714 2.3400679 2.9687886
0.87649733 2.3380506 2.9663441
0.92140132 2.3414235 2.9595606
0.96619511 2.3465395 2.978462
1.0366509 2.3476574 2.9721274
1.081098 2.3484282 2.9597635
1.1784122 2.3488555 2.9660034
2.2395146 2.3243928 2.9876237
0.97803068 2.3527987 2.9718914
1.0103354 2.3568091 2.9743662
1.0822906 2.3510029 2.9630606
1.1294849 2.3578022 2.9799111
1.1824583 2.3569524 2.9761767
1.23359 2.3577106 2.9722774
1.2795329 2.3535318 2.9750404
1.3334613 2.3696165 2.9784169
1.3708708 2.3717923 2.9670055
1.4208322 2.3767052 2.9938316
1.4727075 2.3734975 2.983413
1.5239482 2.3755441 2.9723697
1.5792691 2.3769736 2.9659443
1.6244113 2.3799188 2.9702759
1.6783355 2.3815644 2.9678402
1.7178224 2.3790288 2.9871585
1.7695857 2.3857889 2.9716041
1.8219481 2.3844309 2.9711893
1.8689756 2.3860683 2.9631348
1.9296935 2.3955426 2.9907663
1.9663587 2.3935969 2.9663444
2.0222416 2.3953309 2.9833589
2.1394033 2.3992558 2.9664769
2.1722853 2.394531 2.9863262
2.2132251 2.3767619 2.9771247
1.9304755 2.403785 2.9582863
2.0284925 2.4106314 2.9589183
2.0663657 2.4130745 2.9879203
2.1191342 2.40942 2.9974744
2.2134922 -0.22028966 3.0265946
2.2121899 -0.16527602 3.0143061
2.2236004 -0.12663488 3.0197372
2.1921906 0.11085511 3.0348053
2.225563 0.17936194 3.0282793
2.2303514 0.22153412 3.015934
2.2346768 0.27734056 3.0314031
2.2307389 0.32168001 3.0291717
2.2325249 0.37320632 3.0268598
-2.961633 1.0943704 3.028405
-2.9654016 1.1318427 3.0303268
-2.9959495 1.1587116 3.0071542
-2.987716 1.2407724 3.0352032
-2.9703052 1.2822704 3.0130024
-2.9712813 1.3067462 3.0251133
-2.9798174 1.3746159 3.0291524
2.2297983 1.3805031 3.0284855
2.2391357 1.4256138 3.0284352
-2.9889481 1.458702 3.0056453
2.2379298 1.4626436 3.035871
2.2509899 1.4985996 3.0422621
2.233649 1.5214211 3.0179951
2.2350304 1.573318 3.0252664
2.244359 1.6258131 3.0170949
2.2449322 1.6690278 3.026417
2.2386839 1.7089527 3.0108953
2.2480745 1.7698398 3.0188589
2.2505112 1.7978171 3.0310924
2.249475 1.8497983 3.0475438
2.2534761 1.8283148 3.0204506
2.2478771 1.8595929 3.0166929
2.2617364 1.89785 3.043864
2.2460217 1.9304905 3.020798
2.2526248 1.9091126 3.0212672
2.2477899 1.9781927 3.0204842
2.2505941 1.9806557 3.024334
2.2399352 2.0263286 3.0258524
2.2494333 2.073319 3.0159299
2.2475686 2.118432 3.0342765
2.249007 2.1870003 3.0448902
2.2580416 2.1671729 3.0243032
2.2369242 2.2141185 3.0037115
2.250155 2.207665 3.0340436
-2.8239298 2.2948256 3.0338922
-2.7816358 2.2982774 3.013763
-2.7227533 2.2936237 3.0290403
-2.6670241 2.2923045 3.0290136
-2.5220838 2.2954478 3.0281239
-2.4709742 2.2960017 3.0288455
-2.4129093 2.2996643 3.0042849
-2.3929319 2.2996421 3.018214
-2.328017 2.2948604 3.0174971
-2.2834024 2.289865 3.0199344
-2.2030807 2.2875936 3.0164206
-2.1808686 2.2945061 3.0186558
-2.1352999 2.286819 3.0075397
-2.0743024 2.292886 3.0235794
-2.0291815 2.2956088 3.0392041
-1.9758434 2.2976928 3.0260558
-1.9269388 2.2945366 3.0245528
-1.8698986 2.2924643 3.0290051
-1.8290676 2.2953103 3.0283875
-1.751664 2.2993765 3.0127461
-1.5012084 2.2964861 3.0388546
-1.4832313 2.2970736 3.0473297
2.2414629 2.2772872 3.0231793
2.2558379 2.2524388 3.016345
-2.6245224 2.3027799 3.0254192
-2.5755248 2.3070178 3.0134926
-2.3701525 2.3068733 3.0217445
-2.2716951 2.3078451 3.0370779
-2.2352397 2.3006048 3.0208712
-2.0195572 2.3039262 3.0119801
-1.7784822 2.3005211 3.023284
-1.7221856 2.3077793 3.0270321
-1.6856726 2.3066823 3.0284994
-1.6275469 2.3102977 3.0261002
-1.5734676 2.3082237 3.0262592
-1.5282346 2.3048854 3.0200393
-1.4722522 2.309984 3.0211403
-1.4237123 2.3133101 3.0320077
-1.3635544 2.3133748 3.0263882
-1.3281488 2.3127992 3.0322366
-1.2783123 2.3136938 3.0321407
-1.2267909 2.3107357 3.0264354
-1.1774071 2.3109848 3.024189
-1.123499 2.3042984 3.0190916
-1.0791484 2.3101842 3.0163138
-1.0213045 2.3143494 3.0298777
-0.97508323 2.318948 3.0308273
-0.92445886 2.3186717 3.0345182
-0.87557822 2.315155 3.0236752
-0.82570648 2.3154418 3.0267282
-0.77543229 2.3185253 3.0242529
-0.71801209 2.3195114 3.0227613
-0.67972738 2.3148324 3.0259585
-0.62172621 2.3139744 3.0211656
-0.57013607 2.3205414 3.0297635
-0.52544075 2.3198605 3.0268955
-0.48181978 2.3232646 3.0288496
-0.43164665 2.3261185 3.0168171
-0.37246364 2.3265038 3.028789
-0.32452321 2.3288023 3.0279064
-0.27229276 2.3263745 3.0289204
-0.21685436 2.3269467 3.0299356
-0.16804525 2.3229218 3.0233743
-0.12476049 2.3246789 3.0179
-0.08195845 2.3238137 3.0312457
-0.030133992 2.333014 3.0224104
0.015879594 2.3294237 3.0316703
0.073328838 2.3296881 3.0257738
0.12049033 2.3193083 3.0193424
0.17679179 2.3202784 3.0267022
0.22876962 2.3223121 3.0265284
0.28522986 2.3293815 3.0235591
0.32940134 2.3280368 3.0232024
0.37119931 2.3263602 3.0237308
0.41973236 2.328469 3.0179698
0.4731321 2.3358579 3.0212765
0.52259123 2.3377905 3.0205798
0.58087164 2.3372822 3.033426
0.62363076 2.3339825 3.0220168
0.67806864 2.3367074 3.0247638
0.72107935 2.343873 3.0297389
0.78369731 2.3384998 3.0324292
0.82364988 2.335115 3.027921
0.87097847 2.3421867 3.0302496
0.92619246 2.3464453 3.0249252
0.96370673 2.345675 3.0261564
1.0258451 2.3468711 3.0290699
1.057977 2.348891 3.0227232
2.2285109 2.3432171 3.0053353
2.2515917 2.3475761 3.0499902
0.74150944 2.3524978 3.0162876
0.75903869 2.3524401 3.012599
0.87074417 2.3522248 3.0226622
0.92566615 2.3512175 3.0196359
0.98629326 2.3572094 3.0362439
1.0015424 2.35111 3.0235043
1.0869279 2.3535931 3.020751
1.126891 2.3534229 3.0268419
1.166908 2.3617201 3.0259864
1.217774 2.358851 3.0200851
1.2733133 2.3572206 3.0213406
1.3213519 2.3621559 3.0110593
1.3804117 2.3720965 3.0190654
1.4285185 2.3711805 3.0225132
1.4760116 2.3672516 3.0273547
1.5331892 2.3617039 3.0182314
1.5801172 2.3766441 3.0207469
1.618884 2.3818645 3.0252931
1.6748606 2.3844287 3.0170085
1.7292147 2.3759344 3.0199838
1.7834359 2.3875549 3.0263529
1.8243726 2.3934085 3.0296812
1.8623533 2.3828268 3.0065966
1.9185772 2.3967087 3.0299094
1.97166 2.392458 3.0079873
2.0317466 2.3986006 3.0311844
2.1994088 2.3937361 3.0175629
2.2161462 2.3711507 3.0322208
2.0168552 2.4040582 3.0495074
2.0772347 2.406193 3.0173826
2.1229696 2.4052157 3.0366609
2.1703992 2.4042292 3.0302653
2.2156692 -0.23259261 3.0961084
2.217747 -0.17089455 3.0683231
2.2275286 -0.11996581 3.0837338
2.2521393 -0.10309076 3.0844369
2.2343113 -0.072678946 3.0858266
2.234061 -0.025288992 3.09446
2.1472406 0.00059061626 3.0733836
2.240416 0.021376476 3.0897031
2.1669073 0.068986982 3.083879
2.2255709 0.069396846 3.0764277
2.2069151 0.12513453 3.0799131
2.2181509 0.17248164 3.0740414
2.2356994 0.22465707 3.0731947
2.2316399 0.27205783 3.0729399
2.2367885 0.32948259 3.0840375
2.2422733 0.38231513 3.0867798
2.2214763 0.425026 3.0874104
2.233156 0.4658528 3.0853674
2.220268 0.52004594 3.0739987
-3.7767084 0.87684441 3.0596392
-3.7592018 0.9325487 3.0717125
-2.9507687 1.0975584 3.0539727
-2.9504085 1.104723 3.0905499
-2.9704328 1.1876557 3.0669014
-3.7762089 1.2148477 3.0905952
-2.9887893 1.2189459 3.0978026
-3.7842975 1.2509109 3.0866213
-2.9769099 1.2766231 3.0767066
-2.9880111 1.3473955 3.090838
2.2368927 1.3711801 3.0700123
-3.0005996 1.4338214 3.0718474
2.2336674 1.4352492 3.0807514
-3.0063465 1.4770428 3.0608385
2.2444925 1.4789197 3.0810356
-2.9965019 1.5125597 3.075834
2.2462819 1.5168735 3.0683188
-3.0182502 1.5542079 3.0848019
-2.9894137 1.5701816 3.0843675
2.2465212 1.575894 3.0855968
2.240483 1.6254636 3.0677767
2.2440536 1.672493 3.0702238
2.2391896 1.7142245 3.0529811
2.2600586 1.7490112 3.0722818
2.2469447 1.7722765 3.0825889
2.2528887 1.7622133 3.053267
2.2463562 1.809525 3.0628691
2.2523685 1.8332727 3.0613408
2.2410102 1.8773696 3.0637703
2.2543912 1.8694972 3.0921249
2.249711 1.9391217 3.0933607
2.2545838 1.9173617 3.0669312
2.2434514 1.9911858 3.0527761
2.2547204 1.9723117 3.0843391
2.2546153 2.0376999 3.0956173
2.2546113 2.0765305 3.0729396
2.252599 2.1317871 3.0859952
2.2614069 2.1695716 3.0800483
2.2445092 2.241046 3.0530164
2.2615542 2.2283404 3.0951393
-2.9096146 2.2787023 3.0536394
-2.8769026 2.2780218 3.0781574
-2.8166552 2.2934649 3.0986371
-2.7652159 2.2896519 3.0680046
-2.7258725 2.2934046 3.0764384
-2.6664422 2.2888079 3.0810549
-2.6333814 2.2988958 3.068831
-2.4721551 2.2961423 3.0654192
-2.4084163 2.294385 3.0510931
-2.3325346 2.2991221 3.0584481
-2.2686224 2.2950296 3.0923655
-2.2164397 2.2919478 3.0675964
-2.1681092 2.2924094 3.0733056
-2.1088698 2.2912774 3.0820947
-2.0775442 2.2978511 3.0636098
-2.0297523 2.2878175 3.0729723
-1.9777354 2.2917988 3.0618126
-1.9212403 2.2914042 3.0688877
-1.8740726 2.2901392 3.0687294
-1.8347714 2.2887135 3.0868001
-1.7785982 2.2967579 3.0838566
-1.7086359 2.2981513 3.0759661
-1.6789844 2.2962165 3.0867324
-1.6386944 2.2980862 3.0651283
-1.3424437 2.2945223 3.0582314
-1.1539047 2.2996857 3.0912607
2.2411003 2.2771714 3.0751257
-2.6050797 2.3012698 3.0949938
-2.5900953 2.3086567 3.0637653
-2.5477879 2.3075888 3.0923164
-2.4655364 2.3089321 3.096838
-2.4415054 2.3066728 3.053349
-2.3872728 2.3030529 3.0833879
-2.319804 2.306304 3.0813537
-2.2787135 2.305058 3.0794549
-2.133182 2.3061752 3.0706825
-2.0670435 2.307837 3.0884748
-1.7618923 2.3062944 3.063756
-1.7348268 2.3079603 3.0799589
-1.6707402 2.3036673 3.0594816
-1.6162039 2.3059621 3.0883956
-1.5776434 2.3093519 3.068393
-1.5305486 2.3085132 3.0874181
-1.4643595 2.3107538 3.0768356
-1.4187626 2.3077848 3.0767262
-1.3893553 2.3160877 3.0875142
-1.3154367 2.306371 3.0731924
-1.2814935 2.3061173 3.0717256
-1.2245302 2.3094089 3.073442
-1.176481 2.3122361 3.0798597
-1.1187075 2.3133891 3.0716267
-1.0747422 2.3122532 3.0766823
-1.0240171 2.3138893 3.0840459
-0.97404522 2.3218081 3.0749702
-0.92024803 2.3126228 3.0632792
-0.8798191 2.3094292 3.0806646
-0.82685393 2.3171058 3.0770721
-0.77588087 2.3151534 3.081619
-0.72501409 2.321898 3.0744491
-0.67125064 2.3157532 3.0730286
-0.62600183 2.3182132 3.0748336
-0.57939363 2.3148551 3.0776763
-0.52224267 2.3092725 3.0817821
-0.46898839 2.3195155 3.0767417
-0.42858601 2.3157837 3.0644965
-0.37973654 2.3143213 3.0711687
-0.32808742 2.3194396 3.0828276
-0.2797789 2.3222573 3.081919
-0.22697762 2.3277483 3.0757837
-0.17075105 2.3303082 3.0905654
-0.12218277 2.3269989 3.0795624
-0.076857962 2.3221331 3.0715287
-0.030397989 2.3217032 3.066005
0.02618015 2.3217731 3.0745335
0.074062116 2.3281345 3.0705657
0.12956519 2.3201566 3.0652363
0.17861442 2.3110173 3.0781097
0.23133238 2.3223307 3.0767994
0.27492166 2.3306155 3.0680192
0.31898308 2.3252888 3.0744183
0.37299147 2.3349373 3.082392
0.42957407 2.3279219 3.0756276
0.48349348 2.3343806 3.0778177
0.5276472 2.3289807 3.0698066
0.56757134 2.3280907 3.0749424
0.62581718 2.338043 3.0740533
0.67122543 2.3365858 3.0694695
0.73167473 2.3375721 3.0771868
0.76997769 2.3418293 3.0843155
0.8264721 2.3416946 3.0900757
0.86085367 2.3379753 3.0771594
0.92821634 2.3423915 3.0744319
0.97609186 2.345726 3.0841005
1.0264713 2.3496008 3.051239
1.0695568 2.347533 3.0732639
1.1305815 2.3437474 3.0873759
2.2505338 2.3265727 3.0619118
0.88426965 2.3528156 3.0925028
0.99388659 2.3573489 3.0712001
1.0370827 2.355757 3.0943441
1.0722507 2.3534489 3.080956
1.1266704 2.3537562 3.0651226
1.1779009 2.3566439 3.0723002
1.224009 2.3620799 3.0747662
1.2816404 2.3620548 3.0842688
1.3252853 2.3663626 3.0710948
1.3825967 2.3684266 3.0768056
1.4250213 2.3682666 3.0802908
1.4650527 2.3748839 3.0813284
1.5218092 2.3797963 3.0791178
1.5804265 2.3740592 3.06569
1.6275845 2.3787735 3.0731843
1.6781852 2.3836713 3.0574651
1.7190678 2.38691 3.075902
1.7796021 2.388881 3.0751705
1.8213718 2.3848782 3.0771804
1.8790408 2.3923473 3.0709553
1.9267918 2.3891685 3.0744207
1.9731616 2.3983908 3.0646458
2.0155704 2.3945718 3.0815177
2.0675123 2.3979855 3.0572431
2.1998248 2.3958969 3.0719275
2.2292204 2.3655927 3.0816078
1.9994348 2.4065797 3.0639875
2.0710847 2.4021242 3.0624375
2.121577 2.4062212 3.0888782
2.1726236 2.4084985 3.0784931
2.2142198 -0.22083092 3.1203234
2.2129927 -0.17260213 3.1123695
2.2168534 -0.12083197 3.1196728
2.2188871 -0.068856172 3.1237409
2.2216206 -0.025459656 3.1280546
2.1710882 0.034990214 3.1073289
2.2194538 0.017984105 3.1249924
2.2135313 0.05829693 3.1105726
2.222446 0.19124849 3.107414
2.2167263 0.23010898 3.105752
2.1868007 0.27781007 3.1200407
2.2222221 0.27898994 3.1188447
2.2330108 0.32899338 3.1267872
2.2336247 0.37159336 3.1307831
2.2332072 0.41666275 3.1308756
2.2381022 0.45794362 3.1419582
-3.7689676 0.83858919 3.1228728
-3.772444 0.86389488 3.1408358
-3.7359717 1.0367062 3.1062086
-3.7573416 1.1267483 3.142087
-2.9451144 1.1299349 3.1159246
-3.7734795 1.1754699 3.1142719
-2.9562733 1.1740116 3.1147654
-2.9457607 1.1777009 3.1411946
-2.9917626 1.2283304 3.1386216
-3.7635024 1.2587538 3.14957
-2.9616957 1.2743227 3.1271658
-2.9990065 1.332178 3.1098771
2.2374322 1.3735429 3.1103275
-2.983881 1.4451993 3.1307194
2.2411458 1.4212275 3.1292164
-2.9845185 1.4862144 3.1145973
2.2465637 1.4831901 3.1243055
-2.9830317 1.5161164 3.1428659
2.2388263 1.5262991 3.1191735
-2.9895549 1.5707803 3.1275191
2.2467461 1.579769 3.127073
-3.0047772 1.6097013 3.1296732
-2.9999182 1.6276991 3.1152527
2.2402434 1.6192302 3.1205025
-3.0060992 1.6516961 3.1121538
2.2484987 1.6885934 3.1253276
2.2465007 1.7313571 3.1316502
2.2519996 1.7384686 3.10799
2.2526498 1.7822564 3.13309
2.2472835 1.8180113 3.1211302
2.2513616 1.8444504 3.1459942
2.2478492 1.8991381 3.111376
2.2568929 1.8694038 3.127779
2.2480378 1.9184881 3.1014264
2.2482593 1.9738772 3.1195045
2.2562714 1.9614841 3.1412122
2.2463007 2.0477788 3.1232321
2.2608068 2.023154 3.1319504
2.2556224 2.0856712 3.1192081
2.2578821 2.1264172 3.1248016
2.2522378 2.1599367 3.1190217
2.2472365 2.2436881 3.1090727
2.2608681 2.2176051 3.1266308
-2.8400729 2.2825499 3.1178684
-2.7754276 2.2943907 3.1326468
-2.7042441 2.2912395 3.118243
-2.6524534 2.2827566 3.1379156
-2.6281419 2.2916093 3.1157842
-2.5780044 2.2943826 3.1290548
-2.5378001 2.2965388 3.1334293
-2.4197311 2.2938986 3.1251607
-2.3740177 2.2894893 3.119205
-2.3382547 2.2942705 3.125622
-2.2345445 2.29072 3.1056087
-2.1775048 2.2896287 3.121742
-2.1188087 2.2930102 3.129679
-2.0752399 2.2924109 3.1166
-1.982716 2.290879 3.1294663
-1.92483 2.2887409 3.1211495
-1.8877021 2.2895885 3.1306086
-1.8067973 2.2894671 3.1024132
-1.772325 2.2942307 3.1277988
-1.5568907 2.2964015 3.1413307
-1.5366145 2.2942085 3.1461794
-1.4104511 2.2947116 3.1136358
-1.3296092 2.2988219 3.1498799
-1.17792 2.2930918 3.1123881
-1.1263843 2.2992783 3.1375177
2.2435517 2.2899556 3.1250732
-2.9664133 2.3014622 3.1267982
-2.517041 2.3076572 3.11444
-2.4739733 2.3058486 3.14082
-2.4371774 2.3014071 3.100877
-2.3568485 2.3028767 3.1035848
-2.3141501 2.3005185 3.1270027
-2.2978699 2.3043931 3.1453323
-2.0329909 2.303679 3.125113
-1.7276338 2.3046837 3.1223657
-1.6714621 2.3034618 3.1318176
-1.6277428 2.3035181 3.122417
-1.5848527 2.3054128 3.1228647
-1.5245833 2.3065743 3.1183846
-1.479546 2.3066683 3.1264391
-1.4430151 2.3024149 3.1133235
-1.3732343 2.3035541 3.1212816
-1.324931 2.3092358 3.1274331
-1.2744342 2.310533 3.1270783
-1.2370168 2.3067598 3.1272404
-1.1713908 2.3161454 3.1494052
-1.1278349 2.3065348 3.1191084
-1.0659384 2.3051946 3.1255074
-1.016711 2.3144832 3.114994
-0.9699586 2.3152192 3.1189885
-0.92793703 2.3157806 3.1173246
-0.87394893 2.3121097 3.1322098
-0.82049894 2.3143594 3.1252234
-0.7751112 2.3127549 3.1323912
-0.72833532 2.3154469 3.1273062
-0.66774386 2.3200271 3.1178675
-0.62510508 2.311286 3.1335738
-0.57928228 2.3225455 3.1356311
-0.53002101 2.3168623 3.1436231
-0.47878957 2.31955 3.1276441
-0.41972563 2.315798 3.1205997
-0.37586313 2.3180759 3.1282213
-0.33061239 2.3107166 3.1222725
-0.27390665 2.3154569 3.1193748
-0.22456662 2.3171618 3.1214044
-0.17171533 2.3173275 3.1243126
-0.11544482 2.3210874 3.1280599
-0.077571593 2.3136351 3.1167028
-0.026322119 2.3185346 3.1210783
0.02646927 2.3226759 3.1266358
0.074889354 2.3224919 3.1229334
0.12777452 2.3172653 3.1259537
0.18062353 2.3131618 3.1268837
0.2245453 2.3161452 3.1201055
0.26568797 2.3236022 3.1241488
0.32139799 2.3250654 3.1081021
0.3759518 2.3268471 3.122885
0.42561442 2.3258133 3.1198194
0.47407344 2.3310473 3.1178446
0.52070421 2.3325357 3.1313477
0.58029109 2.335077 3.1352115
0.62911856 2.3296342 3.1289444
0.68167114 2.3352396 3.1099262
0.72212178 2.3374243 3.132463
0.78125817 2.3399682 3.1243916
0.82321173 2.339931 3.1246152
0.8696394 2.3437841 3.1197205
0.92174745 2.3411674 3.1221805
0.97320938 2.3455515 3.1155372
1.0349314 2.3441529 3.1347041
1.076871 2.3453786 3.105727
2.2387533 2.3221521 3.1302795
2.2500641 2.3467839 3.1013761
0.98884988 2.3521345 3.1396885
1.0234455 2.3539333 3.1205332
1.2355652 2.3702278 3.1319075
1.2747642 2.3648844 3.1305661
1.3274497 2.3670766 3.1353681
1.3726963 2.3763161 3.1195252
1.4363983 2.3745658 3.1472816
1.4737864 2.3741221 3.1318066
1.5256438 2.3721371 3.1285205
1.5695845 2.3814611 3.1247861
1.6238886 2.3821709 3.1234655
1.6837769 2.388694 3.121341
1.7277999 2.3882792 3.1293747
1.7714468 2.3845098 3.1168749
1.8076003 2.3854887 3.130785
1.8563746 2.3984525 3.1279559
1.916374 2.3930974 3.1339014
2.0236254 2.3960617 3.1279838
2.0878518 2.3932028 3.1349711
2.1435177 2.3997986 3.1139302
2.1959953 2.3934636 3.120821
2.2301629 2.3812053 3.1279705
1.881719 2.4059575 3.1275601
1.9736266 2.4031699 3.1203005
2.0499048 2.4036915 3.1266115
2.0810602 2.4053254 3.1114063
2.1315534 2.4088399 3.1377127
2.1691585 2.406095 3.1098993
2.1976039 0.33397764 3.166038
2.213182 0.32494104 3.1543546
2.1993089 0.36057761 3.1661968
2.2142487 0.37406874 3.1602814
2.2227516 0.41602731 3.1772485
-3.5766642 0.72479302 3.1987052
-3.7138672 0.77237862 3.1913416
-3.6262608 0.76310766 3.1959841
-3.5790598 0.77927577 3.1898165
-3.7622683 0.84441078 3.177736
-3.7237902 0.8243627 3.1753464
-3.5819538 0.82476062 3.1962626
-3.7766216 0.89215267 3.1796565
-3.737833 0.86347914 3.1723301
-3.7554557 0.91844815 3.1683013
-3.740381 0.93313044 3.1789334
-3.7559073 1.0929047 3.1505904
-3.7255104 1.090468 3.1653738
-3.68543 1.0741168 3.1747293
-3.7228253 1.1289147 3.165736
-3.6933956 1.1096634 3.1720047
-3.5289581 1.1295205 3.1755898
-2.9532681 1.1345654 3.1841455
-2.9404697 1.1195837 3.173388
-3.7504311 1.1872569 3.1598918
-3.7339358 1.1743864 3.1696472
-3.4749479 1.1692454 3.1932166
-2.9555984 1.1695058 3.1960819
-3.7609632 1.2304277 3.1705828
-3.7221007 1.2112341 3.1897426
-2.9677544 1.2160312 3.1683455
-3.7645867 1.2791406 3.1726258
-2.9619935 1.2528189 3.1760728
-2.9852579 1.32376 3.1792538
2.2343597 1.346082 3.1559682
-2.9661479 1.3751552 3.1782742
2.238884 1.3972646 3.1861477
2.2527604 1.3850486 3.1719403
-2.9621091 1.4241279 3.1542087
2.2425809 1.4275876 3.1810529
-2.9748304 1.4761517 3.1705632
2.2424939 1.4928135 3.1557882
2.2505279 1.4700712 3.1780882
2.2446859 1.5256203 3.188982
-2.992873 1.5729914 3.1742952
2.2572646 1.5815244 3.1874447
-2.998282 1.6380161 3.1523926
2.248378 1.6035959 3.1629333
2.2507122 1.6378636 3.1961393
-3.0023031 1.6724936 3.1863012
2.2489078 1.6555818 3.1852722
2.2535613 1.6797394 3.1678219
2.2541244 1.7335576 3.1816709
2.2435858 1.7902005 3.1587906
2.2531676 1.7690004 3.1861258
2.2502792 1.8400288 3.1929684
2.2495213 1.8587755 3.1822619
2.258301 1.8854733 3.1848626
2.2616634 1.9272186 3.169425
2.2499449 1.9533943 3.1820512
2.2616844 1.9930162 3.1828661
2.2478466 2.0474069 3.1760437
2.2566333 2.0179977 3.1596484
2.2488 2.0679786 3.1662896
2.2562423 2.0945911 3.1654654
2.2440169 2.1412854 3.1652389
2.2542143 2.1217611 3.171195
2.2616279 2.178082 3.1782045
2.2619457 2.218257 3.1719646
-2.987684 2.2742095 3.1761582
-2.9303546 2.285377 3.1826453
-2.8751755 2.2783084 3.176543
-2.8454463 2.2912064 3.1978965
-2.712769 2.2862301 3.1615906
-2.686712 2.2910171 3.1918366
-2.636837 2.2873325 3.1596069
-2.5947654 2.2871566 3.1896586
-2.5314872 2.2894673 3.1612713
-2.4756553 2.2963455 3.1764538
-2.3687148 2.2836266 3.1655922
-2.3129525 2.2991621 3.1789892
-2.2744985 2.2911134 3.1870708
-2.2272642 2.2940528 3.1691554
-2.1744554 2.2907538 3.16887
-2.1052384 2.2906957 3.1838593
-2.0686998 2.2928231 3.1752958
-2.0192988 2.2920909 3.184911
-1.9538516 2.2929621 3.1732097
-1.9164556 2.2950618 3.1967404
-1.8741918 2.2883866 3.1746826
-1.823105 2.2933426 3.1701469
-1.7809139 2.2887254 3.1826248
-1.7375239 2.2943318 3.1749403
-1.6880796 2.2965162 3.1715126
-1.6235592 2.2958488 3.1770039
-1.5851526 2.2940333 3.1830413
-1.5106167 2.2975278 3.1622591
-1.4197383 2.2968893 3.1756606
-1.1607704 2.2946908 3.1984046
-1.1379956 2.2952924 3.1864247
-0.78787094 2.2879186 3.167104
2.2534423 2.2598441 3.16434
-2.5015712 2.3011947 3.1688745
-2.4199641 2.3033392 3.1724463
-2.3341341 2.3000205 3.1670821
-2.2752285 2.3019021 3.1548083
-2.1540263 2.3003151 3.1738145
-2.1367888 2.3032641 3.1896899
-2.0192976 2.3006268 3.1516075
-1.9406003 2.3004577 3.1939981
-1.7216426 2.3030319 3.1672812
-1.6595485 2.3062615 3.1787648
-1.632566 2.304754 3.1660683
-1.5555167 2.303386 3.1965568
-1.4690241 2.3024871 3.1728122
-1.4289559 2.3047965 3.1779358
-1.3685547 2.3104208 3.1816511
-1.3259465 2.3014815 3.1825111
-1.2781888 2.3063447 3.1793234
-1.2229757 2.3171506 3.1741765
-1.1774859 2.3096502 3.1768525
-1.1103224 2.304235 3.1755822
-1.0756388 2.3083081 3.1811683
-1.0235823 2.3133018 3.1720259
-0.97780496 2.3125596 3.1751399
-0.92742205 2.3052645 3.1767411
-0.8680405 2.3096123 3.1817367
-0.8241142 2.3094597 3.1688023
-0.77058953 2.3080673 3.1629918
-0.72324777 2.3107789 3.1850376
-0.6760456 2.3161044 3.1701176
-0.62621748 2.3147051 3.1836302
-0.56501579 2.310317 3.1740317
-0.52779287 2.3093262 3.1807919
-0.47501826 2.3160331 3.1707625
-0.42487606 2.3175159 3.1749794
-0.37012443 2.3127377 3.170332
-0.32280532 2.3156033 3.1760638
-0.28098109 2.3201125 3.1737597
-0.22767597 2.3224661 3.1804049
-0.17456035 2.3285499 3.1914413
-0.12448168 2.3174231 3.1693382
-0.072758831 2.3240545 3.1768568
-0.040043183 2.3253601 3.173311
0.018803079 2.3277087 3.1801364
0.075755507 2.3217657 3.1765301
0.12888606 2.3110912 3.1692164
0.17760818 2.3050926 3.1678276
0.21864597 2.3145878 3.1817491
0.27669874 2.3257287 3.1730857
0.3259314 2.3310165 3.1678717
0.37662184 2.3274183 3.1847634
0.4257696 2.3219852 3.1811914
0.47070429 2.3226988 3.1770928
0.52539504 2.3265569 3.1755896
0.5709765 2.329401 3.1732473
0.60060567 2.3307512 3.188684
0.67631179 2.337466 3.1714311
0.72790724 2.3335536 3.1711423
0.77386904 2.3388996 3.1821604
0.82307196 2.3380024 3.1769969
0.88129807 2.3477602 3.1783082
0.91977406 2.3435962 3.1820412
0.97359401 2.341018 3.1651344
1.0218505 2.3376963 3.1667843
1.0772967 2.3495727 3.1883912
2.2220376 2.3393631 3.1568053
2.2592726 2.316541 3.1944406
0.86190611 2.3538475 3.1727226
0.91777647 2.3569314 3.1642389
1.0793214 2.3528652 3.1670206
1.1231077 2.3579199 3.1683176
1.2695973 2.3590505 3.1673131
1.3289024 2.3675466 3.1760955
1.3783183 2.3718274 3.1649094
1.4239551 2.3710756 3.1777105
1.4760468 2.3740406 3.1727257
1.5188627 2.3738637 3.1836243
1.5763502 2.3775539 3.1799858
1.637355 2.38557 3.181258
1.6767831 2.3881845 3.1752915
1.7269257 2.3810732 3.162545
1.7827696 2.3824749 3.1684234
1.8225163 2.3856058 3.1694565
1.8735847 2.3960547 3.1731772
1.9222728 2.3929789 3.1779172
1.9761021 2.398375 3.1585464
2.0429912 2.3989854 3.1712341
2.0574021 2.3925307 3.1513891
2.1860657 2.3954778 3.1820502
2.2233293 2.3820322 3.1684358
1.8440261 2.407758 3.1501272
2.0188115 2.403935 3.1691875
2.1323712 2.4123504 3.194216
2.169692 2.4088755 3.1655617
-3.694768 0.79497319 3.2108529
-3.6463451 0.78921127 3.209106
-3.7026989 0.84084666 3.2081077
-3.6744647 0.81734365 3.229109
-3.5166996 0.82868582 3.2019043
-3.7520304 0.88298923 3.2226558
-3.7231317 0.88141185 3.2386298
-3.6132972 0.85216039 3.2058804
-3.7557518 0.94249851 3.2329619
-3.7414672 0.91659731 3.2261176
2.2394557 0.91663361 3.2483134
-3.458977 1.1277809 3.23209
-2.937865 1.1208283 3.2167683
-3.4698842 1.1856931 3.2253187
-2.9515011 1.1556083 3.2361543
-3.7408144 1.2435656 3.219193
-2.9528184 1.2169359 3.2180507
-3.7464082 1.2680459 3.2166646
-2.9613743 1.2611222 3.2136533
-2.9756088 1.333045 3.22679
2.2322912 1.3188566 3.2028971
-2.9725769 1.3875923 3.2238545
2.247525 1.3839566 3.2051966
2.256336 1.3612084 3.2277005
-2.9659915 1.4457741 3.2358141
2.2530718 1.4367973 3.2372389
-2.9696641 1.4889108 3.2233217
2.2482207 1.4525671 3.2232623
2.255641 1.4857316 3.2231178
2.2467811 1.5209296 3.2375617
2.2521892 1.5277376 3.2224941
-2.9792225 1.5613575 3.2274761
2.2577229 1.5685334 3.222729
2.2466583 1.6323566 3.2136977
2.2564716 1.6202955 3.2358599
2.2487814 1.6695899 3.2236066
2.2520881 1.6912658 3.2198777
2.2487278 1.7322887 3.2410693
2.2512848 1.7194881 3.2057495
2.245609 1.7975452 3.2051237
2.2528701 1.7839627 3.2246873
2.2657392 1.8331641 3.2244542
2.2598004 1.873631 3.2411747
2.2641418 1.9264015 3.2225902
2.2598372 1.9692582 3.2411337
2.2682626 2.0262375 3.2267454
2.2585983 2.0753546 3.231488
2.2630966 2.119483 3.2154059
2.2612891 2.1769671 3.2303584
2.2670748 2.2228384 3.2323723
-2.929564 2.2798746 3.2362025
-2.8664408 2.2863274 3.2349331
-2.7225904 2.2821317 3.206749
-2.6832585 2.2864451 3.2147341
-2.6262717 2.2936807 3.2416661
-2.5933964 2.2939467 3.2355065
-2.5217881 2.2988834 3.2077301
-2.4675691 2.2969527 3.2405171
-2.3788545 2.2926233 3.2331524
-2.2922723 2.2988079 3.2455876
-2.2354116 2.2925522 3.2141266
-2.1634851 2.2903166 3.2004001
-2.1258628 2.2930164 3.2275326
-2.0774274 2.2939141 3.2312922
-2.0394845 2.2950606 3.2291815
-1.9744173 2.2972629 3.2188308
-1.9303083 2.2918854 3.2320075
-1.7667389 2.2857537 3.2070541
-1.7265462 2.2944829 3.2258141
-1.6776085 2.2908945 3.2225947
-1.6235756 2.2961643 3.2290382
-1.5721848 2.2947795 3.2187772
-1.5451864 2.2972624 3.2339585
-1.4737738 2.2945518 3.2144048
-1.4138135 2.2942753 3.2258985
-1.374876 2.287678 3.2396083
-1.3241479 2.2970116 3.2203722
-1.2823581 2.2951844 3.2008784
-1.1360235 2.2914658 3.2204423
-1.0500004 2.2951403 3.2302895
-1.0250459 2.2991793 3.2042062
-0.53824317 2.2985637 3.2240434
2.2497294 2.266263 3.2063172
2.2584574 2.2953801 3.2061117
-2.5676734 2.3004 3.2378981
-2.5058596 2.3034124 3.2284262
-2.4667852 2.3073609 3.2058392
-2.435514 2.3072038 3.2264748
-2.3564701 2.3014719 3.2104135
-2.3291602 2.3048892 3.2348511
-2.2149282 2.3028462 3.2469914
-1.5280923 2.303478 3.2222812
-1.3815494 2.3019786 3.2186213
-1.2634883 2.3118706 3.2333717
-1.2235024 2.3077791 3.2194533
-1.1845044 2.3045323 3.2331216
-1.1124274 2.3095222 3.2352767
-1.0849707 2.3105054 3.2443864
-1.0282885 2.3065329 3.2144136
-0.97394919 2.3087714 3.2315512
-0.92239904 2.3090994 3.2316189
-0.87228036 2.3100824 3.2284479
-0.82030439 2.3105423 3.2307041
-0.7730968 2.3155568 3.2287636
-0.72182757 2.3077216 3.2306104
-0.66980267 2.3109701 3.2313557
-0.62299502 2.3109584 3.22966
-0.58031291 2.3148332 3.2270305
-0.50982571 2.3109045 3.2092156
-0.47930637 2.3172276 3.2339563
-0.42892992 2.312607 3.2210255
-0.37494636 2.31829 3.2254751
-0.32037166 2.3142869 3.2274885
-0.27511331 2.3191178 3.2257524
-0.23010607 2.3218751 3.2287934
-0.17561191 2.3202548 3.2239628
-0.12145162 2.3227112 3.2204888
-0.076322377 2.3185015 3.2157652
-0.026945841 2.3260534 3.2180388
0.022551078 2.3186216 3.2254171
0.081166998 2.3215547 3.2287331
0.13042991 2.3113713 3.2221172
0.17843293 2.309458 3.223551
0.22427289 2.3132598 3.2242241
0.27611884 2.3269255 3.2365818
0.33342862 2.3242786 3.2250874
0.37933421 2.3278317 3.2355449
0.42049488 2.3214219 3.2224519
0.47654259 2.3237858 3.2315538
0.53045815 2.3219635 3.2222774
0.57710987 2.3180366 3.2284722
0.62817174 2.3418107 3.2218213
0.68020248 2.3379393 3.2224553
0.71769655 2.3320663 3.2259753
0.77534485 2.3385406 3.2282677
0.82235587 2.3345284 3.2279758
0.87082899 2.3459606 3.2249122
0.9442265 2.3405538 3.2096231
0.96233594 2.3397975 3.2041166
1.0108274 2.3402913 3.2182178
1.0926093 2.344116 3.2149251
1.1285138 2.3417983 3.2248337
1.2395011 2.3450444 3.2254145
1.2705138 2.343493 3.240092
2.2431197 2.321188 3.24015
2.2505047 2.3284569 3.2234473
0.92104751 2.3519397 3.2317803
0.98739898 2.3556602 3.2212374
1.0604161 2.355161 3.2403018
1.1753777 2.354605 3.2332065
1.2115756 2.3579712 3.2406261
1.2805465 2.3513341 3.2218618
1.3189642 2.3646002 3.2158289
1.3734601 2.3723662 3.2191508
1.4206835 2.3735764 3.2352207
1.4812282 2.3737979 3.2232931
1.5276744 2.3720064 3.2343118
1.5714949 2.3800383 3.2295125
1.6202986 2.3807135 3.210047
1.6903689 2.3920901 3.24277
1.7100405 2.3922076 3.2341239
1.7670128 2.389787 3.2035944
1.8814199 2.3938286 3.2243757
1.9171429 2.3914232 3.2256861
2.0562756 2.3944502 3.2050717
2.2285938 2.378551 3.2284918
2.252198 2.350662 3.2128525
1.7369231 2.402297 3.2387769
1.7567108 2.4024577 3.2298605
1.8532547 2.4059443 3.2357771
1.9446943 2.4008656 3.2280393
1.9814334 2.4091201 3.2232008
2.0280325 2.4073114 3.2275705
2.0956678 2.416707 3.2234046
2.1297209 2.4110806 3.2273548
2.1632848 2.4039264 3.2115064
2.2289841 -0.30683491 3.2862322
2.2396693 -0.27088493 3.2862725
2.246645 -0.22539401 3.2810774
2.2481241 -0.18937424 3.2849765
2.2575583 -0.16291223 3.2998762
2.2411344 -0.10761838 3.2775424
2.2560556 -0.090178385 3.2997694
2.2218132 0.090723023 3.285341
2.2044673 0.10790105 3.2592547
-3.7121265 0.89519936 3.2676351
-3.6750195 0.8942486 3.2967288
-3.7287054 0.92163819 3.2768803
2.2570381 0.94229829 3.2695909
2.2542551 0.97679096 3.2961402
2.2631493 1.027312 3.2977645
-2.9654331 1.1690573 3.2900326
-2.9379334 1.166247 3.2980773
-3.729888 1.2474071 3.2510333
-3.4659321 1.2026649 3.2586799
2.238168 1.220717 3.2848771
-3.740756 1.273765 3.2531116
-2.960125 1.2780728 3.2896807
-2.9456971 1.2513399 3.2805378
2.2401619 1.2782273 3.2702806
2.239485 1.3341864 3.2508388
2.2531719 1.3707051 3.2609992
-2.9510286 1.4071553 3.2743676
2.2570004 1.4237731 3.2741265
-2.9938543 1.4801975 3.2579658
2.2588501 1.4813379 3.2732553
-2.9703503 1.5258169 3.2746162
2.2548244 1.5222492 3.2798913
-2.9686973 1.551284 3.2840073
2.2567985 1.5696228 3.2793498
2.2637076 1.6130517 3.2737126
2.2632093 1.6752591 3.2918911
2.2592635 1.7186226 3.2890835
2.2668695 1.7733877 3.2781839
2.2613752 1.825827 3.2672033
2.2557762 1.8866308 3.2753854
2.2651134 1.9341408 3.2691371
2.2584338 1.9654186 3.2898636
2.2622905 2.0282133 3.2769489
2.2455089 2.0616529 3.2644253
2.2594514 2.0946014 3.2736394
2.2596846 2.1345654 3.2777042
2.2632122 2.1683037 3.2655029
2.2620533 2.2174819 3.2786999
-2.9119244 2.2831824 3.2580092
-2.7110171 2.2869275 3.2887454
-2.6657338 2.2881184 3.2619908
-2.6273804 2.2826004 3.2768521
-2.580842 2.2909763 3.2676611
-2.5241876 2.2885823 3.2716784
-2.4828568 2.2901366 3.2735357
-2.4279013 2.2883623 3.2772121
-2.374105 2.2975311 3.2745481
-2.3161492 2.2917595 3.2711163
-2.2867255 2.2932625 3.2922876
-2.2139425 2.2919641 3.2791166
-2.167047 2.2855945 3.2936616
-2.1204908 2.2887838 3.2740099
-2.0679913 2.2855492 3.2713256
-2.0215793 2.2936802 3.2739055
-1.9627665 2.2869449 3.2549067
-1.9322454 2.2860947 3.2689896
-1.8013769 2.2785871 3.2711515
-1.7741445 2.2902982 3.2735615
-1.7298343 2.2944236 3.2854576
-1.681986 2.2924209 3.2800469
-1.625905 2.2918351 3.2801368
-1.5762091 2.293314 3.276305
-1.5297763 2.2980709 3.285131
-1.463972 2.2952855 3.2837257
-1.4099013 2.2950232 3.2814758
-1.3600466 2.2945352 3.2559357
-1.3239923 2.2977426 3.2733307
-1.2201028 2.299778 3.2686272
-1.1250802 2.2980936 3.2937071
-1.0605675 2.2995369 3.2735367
-1.0419669 2.2997265 3.278671
-0.93853623 2.2940152 3.2562928
-0.82931906 2.2988315 3.2872865
-0.71108931 2.2946651 3.265471
2.2662678 2.2693341 3.2743771
-2.2572575 2.3049042 3.2792964
-2.183867 2.302269 3.2641654
-2.0018442 2.3091094 3.2759442
-1.5069172 2.3023005 3.2792487
-1.490839 2.3019571 3.2630999
-1.4330736 2.301544 3.2839117
-1.3946165 2.3013394 3.2972732
-1.3158371 2.3095131 3.2742724
-1.2762591 2.3041193 3.2716529
-1.1750469 2.3037908 3.2884612
-1.1189578 2.3043497 3.2651131
-1.0810235 2.3033078 3.2739298
-1.0185795 2.3087816 3.2749214
-0.97709101 2.3060348 3.278373
-0.91193128 2.3108542 3.2749574
-0.88138443 2.3119419 3.283325
-0.82436711 2.3035581 3.2572615
-0.77020049 2.306874 3.2727954
-0.73595017 2.315145 3.2913527
-0.68109947 2.3087168 3.266366
-0.62905109 2.3151145 3.2715955
-0.58253974 2.312803 3.2750728
-0.52241701 2.3136215 3.2696335
-0.46767473 2.320734 3.2827733
-0.42482671 2.3214707 3.2701745
-0.38331705 2.3141301 3.2728646
-0.32295781 2.3122306 3.266201
-0.26915058 2.3183451 3.27876
-0.23259288 2.3269744 3.2752266
-0.17735597 2.3187029 3.2698319
-0.12283046 2.3215063 3.2721903
-0.072902478 2.3259885 3.2796726
-0.028163403 2.3244534 3.2744784
0.022797089 2.3204041 3.2759888
0.077403352 2.3206422 3.272085
0.12322634 2.3184037 3.2857594
0.1683439 2.3115141 3.2743895
0.22332202 2.3148148 3.2764904
0.27945033 2.3275998 3.2912772
0.32131776 2.3272479 3.2757285
0.37010011 2.3213129 3.2752478
0.42122078 2.3307512 3.2747378
0.48052007 2.3299127 3.267045
0.52565742 2.322495 3.2600474
0.55611229 2.3260705 3.2795677
0.62362939 2.329494 3.2686825
0.66817951 2.3416135 3.2666996
0.72764319 2.3458667 3.2813926
0.7775647 2.3317473 3.2830546
0.82625288 2.3353889 3.2756929
0.86981571 2.3449464 3.2711229
0.93135071 2.3407049 3.2896872
0.96608734 2.3479443 3.2795022
1.0181042 2.346633 3.2776759
1.0768734 2.3425703 3.2759686
1.1259098 2.3374071 3.274477
1.1681449 2.3465002 3.27635
1.2334371 2.3438706 3.293319
2.2482591 2.3267982 3.275043
2.2593946 2.3070879 3.2828245
0.89976209 2.350318 3.2725129
0.9298712 2.3557379 3.2736964
0.98612422 2.3562002 3.2609701
1.2194842 2.3543832 3.2731106
1.2890201 2.3584428 3.2986922
1.3317508 2.3676841 3.2714107
1.3713753 2.3730783 3.2837381
1.4225606 2.3734629 3.2767136
1.4648384 2.369781 3.2766261
1.5177213 2.3838408 3.286375
1.5773757 2.3841648 3.277792
1.6159607 2.3817329 3.272644
1.6738193 2.3902314 3.274044
1.7474717 2.3970633 3.2709599
1.788902 2.3995473 3.2559268
1.8211926 2.396126 3.2815049
1.8819445 2.3990524 3.2729256
1.9130763 2.3912785 3.2756343
2.1369882 2.3996933 3.2703602
2.1664581 2.3890855 3.2853196
2.2273154 2.3785758 3.2821953
1.7305502 2.4010434 3.2853878
1.7707815 2.4018385 3.2683287
1.8327087 2.4070628 3.2634964
1.9414181 2.4015107 3.2794003
1.973752 2.4040608 3.2671695
2.0220401 2.4039714 3.2744122
2.0743275 2.4069157 3.2679248
2.1135063 2.4065125 3.2707591
2.1751604 2.4079256 3.2637506
2.2063184 2.4092364 3.2741232
2.2349436 -0.31018388 3.3315201
2.2377956 -0.2664375 3.3142223
2.2411869 -0.2276227 3.3275588
2.2448926 -0.19063298 3.316478
2.2523589 -0.16386794 3.3286221
2.2492051 -0.13626599 3.3248806
2.2598941 -0.12701325 3.3166111
2.2566252 -0.072486348 3.328196
2.2586608 -0.026886012 3.3408344
2.2467773 0.018824935 3.3232639
2.2576804 0.018901141 3.3393526
2.2347338 0.073118821 3.3048131
2.2520545 0.055413309 3.3307197
2.2345843 0.14681609 3.3391781
2.2255049 0.17352457 3.3245616
2.2343709 0.21081194 3.3361421
2.2410541 0.26640016 3.3430355
2.2474668 0.38667086 3.3434637
2.2484577 0.40523541 3.3432302
2.254029 0.42467931 3.3497219
-3.7191224 0.92756587 3.3309102
-3.6882765 0.92544395 3.3449988
2.2572656 0.93084955 3.3271713
2.2464473 0.97214514 3.3243377
2.2452197 1.022529 3.3302422
2.2574482 1.0102639 3.3128271
2.2518568 1.0959707 3.342339
-2.9330094 1.1218528 3.3326824
2.2564716 1.1125063 3.3251343
-3.4695206 1.1894923 3.3099141
-2.9567273 1.1531286 3.325438
2.2454693 1.1920506 3.3258989
-2.9267108 1.2109307 3.3114188
-2.9475727 1.2608815 3.3216281
2.2586825 1.2709881 3.3447752
-2.9551041 1.3262374 3.3089104
2.258126 1.3184227 3.3288505
2.2499197 1.3517224 3.3042591
2.2580414 1.385272 3.3064384
-2.9466372 1.4149458 3.3088036
2.2533438 1.4230065 3.3283508
2.2575846 1.47382 3.3173685
2.256778 1.5172752 3.3292294
-2.9706881 1.5633241 3.3261478
2.2589533 1.5749136 3.3255641
2.2707779 1.6320186 3.3233747
2.263382 1.6702573 3.3401833
2.2596989 1.7067734 3.3181584
2.2694125 1.7760324 3.3286035
2.2630768 1.8233579 3.319109
2.2627072 1.8609381 3.3249345
2.2689664 1.9344652 3.3254104
2.2592952 1.9836417 3.3321671
2.2650623 2.0291185 3.319809
2.2540028 2.0880318 3.3181343
2.25035 2.1048954 3.3017128
2.2624428 2.1867115 3.3329079
2.2470686 2.2432032 3.3229516
2.2587411 2.2139165 3.3098178
-2.9231184 2.287118 3.3258255
-2.8554938 2.2906017 3.3191111
-2.8132319 2.2830458 3.3327203
-2.6565566 2.2771471 3.3054008
-2.6237264 2.2872159 3.3205187
-2.5762444 2.2844491 3.3165531
-2.514555 2.2884481 3.3073454
-2.4782147 2.2841823 3.3221235
-2.4310832 2.2900791 3.3363247
-2.3957338 2.2971163 3.3448558
-2.324187 2.2891855 3.3161914
-2.2746091 2.2914908 3.3233819
-2.2336485 2.2917261 3.3208199
-2.1804988 2.2792702 3.3264494
-2.1311615 2.2908711 3.3243141
-2.0804493 2.2905254 3.3340585
-2.0410469 2.2904229 3.3206244
-1.9825286 2.2913857 3.3276491
-1.9129097 2.2786472 3.3138065
-1.7668364 2.2874775 3.3266749
-1.7252706 2.2948222 3.3346708
-1.6742166 2.2900889 3.3327911
-1.6252718 2.2871227 3.3287807
-1.5667148 2.2948468 3.3318009
-1.5177693 2.2897472 3.3196669
-1.4723734 2.2945449 3.3446703
-1.4303483 2.2933576 3.3143053
-1.3732673 2.2945104 3.3360658
-1.3312825 2.2958362 3.323926
-1.2771305 2.2968895 3.3289104
-1.2236588 2.2957993 3.3228564
-1.1619897 2.2963831 3.3212011
-1.12375 2.2957931 3.3309209
-1.0770376 2.2967544 3.328759
-1.0122032 2.2983091 3.3235819
-0.98369139 2.297688 3.3294866
-0.89906985 2.297925 3.3489733
-0.77971059 2.2979589 3.3339314
-0.72399819 2.2989304 3.345403
-0.53154761 2.2934301 3.3278885
2.2569587 2.284097 3.319195
-2.3795738 2.3025625 3.3096309
-1.9521269 2.3013418 3.3367877
-1.406967 2.3023658 3.3375547
-1.3669169 2.303091 3.3096986
-1.2678572 2.3043239 3.316082
-1.1931276 2.3015726 3.3204954
-1.0534148 2.3060849 3.3253582
-1.0323886 2.3013306 3.3232768
-0.96009231 2.3063211 3.3220308
-0.92303216 2.3060341 3.3169274
-0.8698861 2.3064115 3.3192792
-0.82437134 2.3071384 3.3264749
-0.77590936 2.305294 3.3073452
-0.72623599 2.3051555 3.3256729
-0.67361319 2.3143334 3.3196685
-0.62668836 2.3125811 3.3243477
-0.57513714 2.3125329 3.3353927
-0.52593207 2.3029866 3.3146896
-0.47571671 2.3147421 3.319272
-0.42374969 2.3163676 3.32165
-0.37032723 2.3182526 3.3196023
-0.3274391 2.3161175 3.3261688
-0.27559873 2.3162186 3.3263378
-0.22228913 2.3250761 3.315356
-0.17942023 2.3198516 3.3220513
-0.1241844 2.3195634 3.323621
-0.072627112 2.318893 3.3238838
-0.023013258 2.3220668 3.3289895
0.023082742 2.3207281 3.3270562
0.078221418 2.3179295 3.3223996
0.1210681 2.3110435 3.3236952
0.17478526 2.3132997 3.3220241
0.22523339 2.3166826 3.3153343
0.26908258 2.3190732 3.3284709
0.31766835 2.3209317 3.3154986
0.37834483 2.3239627 3.3296337
0.43029889 2.3277626 3.3246095
0.47661391 2.3233466 3.3224931
0.52451736 2.3324738 3.3263497
0.58459532 2.3314984 3.3244281
0.62580591 2.3359697 3.327585
0.67532748 2.3385341 3.3173096
0.72627425 2.3433919 3.3348851
0.75910354 2.3448763 3.3185265
0.86777443 2.3459866 3.3115618
0.92232561 2.3466783 3.3397532
0.96994001 2.3474913 3.3300591
1.0260073 2.3458862 3.3140061
1.0724189 2.3457398 3.3419373
1.1270523 2.3404627 3.3190746
1.177215 2.3456354 3.3129084
1.205451 2.344981 3.3035693
2.2440348 2.3230679 3.3240786
0.73219395 2.3510861 3.3071065
0.82389718 2.3546143 3.3333549
0.89045489 2.3563626 3.3221867
0.90742034 2.3514988 3.3112197
0.97402406 2.3573489 3.34409
1.0954368 2.3542435 3.3490238
1.2693547 2.3565454 3.3297396
1.3219143 2.368592 3.3355033
1.382486 2.3680925 3.3248701
1.4360507 2.3765187 3.3195591
1.4830992 2.3699312 3.3350368
1.5312152 2.3839164 3.3398499
1.5763164 2.3836231 3.3217239
1.644884 2.3917811 3.3071399
1.6850371 2.3869753 3.327466
1.7373471 2.3905406 3.3106315
1.7692274 2.3911021 3.3127244
1.8389616 2.3993301 3.326067
2.0927742 2.3989184 3.3450632
2.1125374 2.3979099 3.3323619
2.1787028 2.3932173 3.338654
2.2214689 2.3736818 3.3294959
1.7270455 2.4039028 3.3380153
1.8155414 2.4050276 3.3233171
1.8802841 2.4135709 3.3312066
1.9214706 2.4068265 3.3477817
1.969172 2.4028921 3.3166933
2.0193892 2.4046624 3.3271046
2.069674 2.4047687 3.3172388
2.1208885 2.4059291 3.3169827
2.1584637 2.40308 3.3163967
-0.11822962 -0.60373449 3.3849196
-0.093981616 -0.62148005 3.3912933
-0.020387184 -0.62919712 3.3884792
0.012340868 -0.61176658 3.3847823
2.2342782 -0.31396288 3.3861449
2.2453361 -0.27199739 3.3775783
2.2508271 -0.2939786 3.3564644
2.2563231 -0.20242172 3.3698297
2.2449496 -0.18303914 3.3536367
2.2529273 -0.17522673 3.3845305
2.2461572 -0.13835961 3.3942471
2.2542322 -0.12846127 3.3694012
2.2540069 -0.073157348 3.3702857
2.2440214 -0.036123101 3.3558052
2.2504289 -0.017818347 3.3654828
2.2443514 0.023602247 3.3655686
2.2482767 0.055760827 3.3618729
2.2554984 0.083615825 3.3721943
2.2484004 0.13039066 3.397609
2.2520099 0.12032562 3.3660831
2.245688 0.23939714 3.3515928
2.257273 0.29602855 3.3654182
2.2570767 0.3237114 3.3631144
2.2566185 0.36203599 3.378154
2.2394729 0.4254044 3.3651142
2.2629063 0.44852084 3.3984416
2.2550588 0.47485363 3.3836789
2.2576678 0.5219844 3.3822072
2.2724154 0.62847388 3.390595
2.2547784 0.6569016 3.3978326
-3.6548729 0.92265218 3.3563733
2.2562878 0.92527986 3.3770273
2.2637949 0.97835737 3.3904369
2.2606754 1.0244678 3.3745341
