ply
format ascii 1.0
comment PCL generated
element vertex 1499
property float x
property float y
property float z
element camera 0
property float view_px
property float view_py
property float view_pz
property float x_axisx
property float x_axisy
property float x_axisz
property float y_axisx
property float y_axisy
property float y_axisz
property float z_axisx
property float z_axisy
property float z_axisz
property float focal
property float scalex
property float scaley
property float centerx
property float centery
property int viewportx
property int viewporty
property float k1
property float k2
end_header
0.6735878 -0.49471673 2.2021103
1.9320745 -0.48424932 2.2339711
1.9766717 -0.46986625 2.2206197
-2.4137681 -0.42494205 2.2135696
-2.3837667 -0.42489776 2.2405422
-1.9112362 -0.42773962 2.2497163
1.9417502 -0.43002179 2.2475255
1.9762969 -0.42344189 2.2244928
2.010509 -0.40331721 2.2025299
-2.4163544 -0.37031749 2.2160566
-2.3900995 -0.37332362 2.240659
-1.7849566 -0.3853249 2.2011666
1.9766208 -0.37638187 2.2320185
2.0095291 -0.37620318 2.2054737
-2.4175608 -0.32162207 2.2181845
-2.3891919 -0.32180843 2.2466881
1.9746422 -0.3300485 2.233319
2.0106416 -0.32479396 2.2084889
-2.4183667 -0.27770153 2.2240126
-2.3883841 -0.2923601 2.2494054
1.9778489 -0.27461311 2.2331204
2.0125158 -0.27472475 2.2086723
-2.4211397 -0.2246926 2.2274401
1.9455591 -0.24039619 2.2499959
1.9797328 -0.21915753 2.2302201
2.0109432 -0.22438295 2.2041345
-2.4235387 -0.17480741 2.2239542
1.97627 -0.17484789 2.2346265
2.0080636 -0.17075548 2.2100391
-2.4274812 -0.12560196 2.2245028
1.9777514 -0.12357569 2.2315445
2.0093057 -0.130473 2.2086434
-2.4337118 -0.07221961 2.2243941
1.9755658 -0.072817571 2.2308586
2.010298 -0.072821185 2.2069073
-2.4347248 -0.028185653 2.2261095
1.9733814 -0.025988841 2.2292407
2.0077295 -0.025966896 2.2049367
-2.4547703 0.034306183 2.2098618
-2.4308443 0.020782515 2.2316713
1.9733043 0.020763742 2.2291093
2.0075855 0.020805433 2.2047412
-2.4507937 0.074712701 2.2122104
-2.4301901 0.074717917 2.2345936
1.9755679 0.074266396 2.2306287
2.0109212 0.074382395 2.2073469
-2.4571862 0.13076612 2.2100804
-2.4335084 0.12636146 2.2355092
1.9142541 0.13337474 2.2455156
1.9741263 0.11987161 2.2307301
2.0076184 0.12457185 2.208009
-2.4613497 0.17442095 2.2097945
-2.4351394 0.17803763 2.233875
-2.4573019 0.22228996 2.2092268
-2.4387894 0.22258179 2.2336905
-2.4604712 0.27423334 2.2069209
-2.4406948 0.27445996 2.2303085
-2.4598162 0.32954276 2.2107873
-2.4378395 0.32676366 2.235352
-2.46365 0.37175611 2.2112064
-2.434546 0.37177721 2.2400348
-2.4633648 0.4234331 2.2127805
-2.4393837 0.42152017 2.2388387
-2.4602392 0.47769594 2.2183506
-2.4397404 0.47801229 2.2413414
-2.4632359 0.52303338 2.2122378
-2.4353993 0.52010143 2.2402902
-2.4715939 0.56969255 2.2101073
-2.4438267 0.5727731 2.2371848
-2.4660161 0.62128443 2.2165911
-2.4436996 0.62443817 2.2422404
-2.4682524 0.68063718 2.2146764
-2.4414587 0.67844206 2.2408707
-2.4704564 0.72421438 2.2168424
-2.4427581 0.72623301 2.2437437
-2.4691353 0.77594441 2.2177656
-2.4450147 0.77385145 2.2420008
-2.4703538 0.81979424 2.2175589
-2.4409325 0.82132703 2.2430019
-2.4670458 0.87205958 2.2195246
-2.4467561 0.85374373 2.2385478
-2.4719601 0.91785103 2.2211554
-2.4452989 0.91982943 2.2446263
-2.4705768 0.96973634 2.222652
-2.4750352 1.0208731 2.223299
-2.4783621 1.0720204 2.2220519
-2.4467044 1.0794237 2.2470927
-2.5002279 1.1059045 2.2005684
-2.4753432 1.1242481 2.228471
-2.5043106 1.1852317 2.2024221
-2.4792216 1.174643 2.2268984
-2.5054586 1.2485026 2.2070842
-2.4817922 1.2277775 2.2260122
-2.4499738 1.2285144 2.2499137
-2.5122743 1.2756708 2.2021613
-2.4861448 1.2784009 2.2293751
-2.5068684 1.3207511 2.2070329
-2.4802551 1.3210193 2.2321174
-2.5114992 1.3782701 2.2115672
-2.4852448 1.3761184 2.2401924
-2.51197 1.4246138 2.2109616
-2.4800515 1.424661 2.2395883
-2.5110755 1.4760338 2.2135117
-2.490839 1.4696352 2.2378047
-2.5186565 1.5236818 2.217808
-2.4874003 1.5325397 2.2428436
-2.5155547 1.5726336 2.2217996
-2.4883835 1.5726351 2.2452638
-2.5175369 1.6273756 2.2172773
-2.4887667 1.6091462 2.2372572
-2.5242386 1.6786687 2.2259035
-2.4987113 1.6760565 2.2473247
-2.5512004 1.7391335 2.2084961
-2.5269384 1.7261719 2.2269645
-2.4977241 1.736662 2.2467613
-2.5529461 1.757067 2.2005873
-2.5289745 1.7768288 2.2243328
-2.5295484 1.8301138 2.22809
-2.526474 1.8748119 2.2322853
-2.5253451 1.9179368 2.2363784
-2.5105085 1.9524915 2.2440782
-0.26153532 -0.55061448 2.2555294
-1.9576951 -0.50314963 2.2667758
-1.7075516 -0.53081816 2.2521315
-1.6747382 -0.54156905 2.2561586
-1.3063691 -0.53562671 2.2654157
-1.2866101 -0.53500825 2.2706144
-0.40870962 -0.52270991 2.2688949
-0.39119408 -0.52906913 2.2991407
-0.32570884 -0.53736663 2.2789059
-0.27331263 -0.54801142 2.2737677
-0.22430843 -0.54287004 2.2737088
-0.17946278 -0.54133576 2.2698874
-0.12182965 -0.53893381 2.2623117
-0.062893488 -0.5253064 2.2543421
-0.026529422 -0.51279998 2.2661788
0.23339637 -0.50310695 2.2799582
0.28086689 -0.50323331 2.2848053
0.31497216 -0.5015884 2.2873547
0.36514109 -0.50156915 2.2823186
0.41107765 -0.50318187 2.284595
0.46387962 -0.50588 2.2903709
0.52782822 -0.50252485 2.265399
1.5806525 -0.54874188 2.2744219
1.6177553 -0.5419324 2.2758451
1.6713066 -0.53597385 2.2785051
1.7237259 -0.52429068 2.2738793
1.7798114 -0.51446187 2.2752998
1.8186828 -0.50618619 2.2628
1.8519953 -0.50471765 2.2538495
-2.3618703 -0.45433977 2.2560563
-2.3302011 -0.45394838 2.2803295
-1.9663876 -0.46113363 2.2584319
-1.9352994 -0.47212133 2.2583985
-1.710897 -0.46399662 2.2944713
-1.6952335 -0.45676035 2.2998505
0.17909209 -0.49581048 2.2704632
0.20141281 -0.49645042 2.272187
0.26902321 -0.49905795 2.2795813
0.34050459 -0.49816388 2.2691045
0.3838723 -0.49695799 2.2589135
1.8420101 -0.49024376 2.2871625
1.8805273 -0.47966522 2.2812643
1.918612 -0.47133848 2.2646055
-2.3623793 -0.42505035 2.2614591
-2.3417361 -0.42534375 2.2827356
-1.9701511 -0.42633626 2.2797651
-1.9280685 -0.43500125 2.260205
-1.7030644 -0.43581641 2.2880661
-1.6919361 -0.41549438 2.2911096
1.8873388 -0.42872962 2.2938373
1.9191716 -0.42227003 2.2693248
-2.3677545 -0.3733139 2.2606621
-2.3445499 -0.37886134 2.2879627
-1.9771802 -0.39676118 2.2945185
-1.712189 -0.37125501 2.2968001
-1.6994894 -0.38941643 2.2898197
1.8918252 -0.37702847 2.2982538
1.923112 -0.37651977 2.2718256
-2.3678157 -0.32193506 2.267549
-2.3467748 -0.32210842 2.2884414
1.9212413 -0.32905817 2.2756534
1.9525659 -0.30846497 2.2512887
-2.3730741 -0.27602592 2.2674682
-2.3470085 -0.27808502 2.2936375
1.8983938 -0.26142913 2.2937517
1.9238262 -0.27534634 2.2752492
1.9529873 -0.28164783 2.2546828
-2.3757088 -0.22654919 2.2712343
-2.3464923 -0.24130164 2.2967205
1.8963513 -0.22087681 2.2947099
1.9284166 -0.21947913 2.2721212
-2.3742778 -0.17505008 2.2737825
1.8955011 -0.17381261 2.2969844
1.9291573 -0.17379005 2.2737012
-2.4051783 -0.10901883 2.2517023
-2.3753431 -0.12372803 2.2776325
1.8945557 -0.12455843 2.2983899
1.9258066 -0.12535398 2.2748659
1.9567673 -0.1469771 2.256973
-2.4029057 -0.072230846 2.2507839
-2.3759863 -0.072357088 2.2801244
1.8899825 -0.072960928 2.2946115
1.9221041 -0.072880492 2.2697952
-2.4050512 -0.028236063 2.253577
-2.3761733 -0.028294941 2.2810769
1.8910537 -0.022760736 2.2903938
1.9219819 -0.027265789 2.2670233
-2.405714 0.023181222 2.2541361
-2.3784673 0.023145618 2.283227
1.8916018 0.017804269 2.2865138
1.9238421 0.022240687 2.2639012
-2.4089437 0.074705996 2.2561228
-2.379987 0.074668929 2.2836518
1.8880309 0.074149795 2.2920327
1.9209636 0.074166588 2.2682271
-2.412149 0.12635836 2.2570052
-2.3808143 0.12621322 2.2823536
1.8913449 0.12115296 2.2943704
1.9218558 0.1198118 2.2687626
-2.411411 0.17787091 2.2532129
-2.3842859 0.17799734 2.28263
-2.4103949 0.22263299 2.2625201
-2.383688 0.22270875 2.289655
-2.4139669 0.27472755 2.2607896
-2.3861642 0.27792713 2.2874629
-2.4156079 0.32394594 2.2593918
-2.3896117 0.32714522 2.2870479
-2.4089963 0.37508988 2.2684712
-2.3877492 0.36819616 2.2867169
-2.4123814 0.42494002 2.266758
-2.3910758 0.42507255 2.2882936
-2.4173539 0.47796854 2.2622874
-2.3889744 0.47820604 2.2911432
-2.4134896 0.52897102 2.2675021
-2.38871 0.51995695 2.2899823
-2.4167669 0.56786096 2.2658679
-2.3913057 0.57000893 2.2892754
-2.418576 0.62686235 2.264976
-2.3896053 0.62391454 2.2895961
-2.4157331 0.67656004 2.2676122
-2.3906815 0.6788854 2.2915409
-2.4183896 0.72880238 2.268729
-2.3967419 0.7183646 2.2872477
-2.4206555 0.7727927 2.2704918
-2.3943715 0.77533752 2.2980964
-2.4157028 0.82428861 2.2719092
-2.3980353 0.80693275 2.2924569
-2.4242921 0.87179685 2.2692473
-2.3955655 0.88003552 2.296459
-2.4192545 0.92269939 2.2730067
-2.3983068 0.90400594 2.2912989
-2.4246933 0.9697414 2.2656963
-2.3955824 0.97033566 2.2953732
-2.4543164 1.0063573 2.2531056
-2.4220343 1.0212017 2.2742851
-2.4194651 1.0703733 2.2770486
-2.4300795 1.1248511 2.2727938
-2.4593239 1.1783055 2.2508402
-2.4271708 1.1778374 2.2786598
-2.4508889 1.2132204 2.2578979
-2.4321651 1.2235121 2.2802401
-2.4603529 1.2694155 2.2592137
-2.4319866 1.2670602 2.2856419
-2.4594243 1.3289371 2.2571495
-2.4367788 1.3190403 2.2770143
-2.4592412 1.3817381 2.2697651
-2.4349797 1.381575 2.2908797
-2.4592631 1.4225299 2.2659845
-2.4404604 1.4296346 2.2902105
-2.4663298 1.4803044 2.2689641
-2.4402797 1.4666519 2.2878304
-2.4682856 1.5229785 2.2653973
-2.4431272 1.5271504 2.2938006
-2.4620845 1.5714573 2.2647233
-2.4429042 1.5748568 2.2907674
-2.4729846 1.628006 2.2694573
-2.4498756 1.6158317 2.2887626
-2.4741023 1.6780771 2.2732673
-2.4481435 1.6587688 2.2978244
-2.4752047 1.7300278 2.2746339
-2.478189 1.7715398 2.272341
-2.5102081 1.8230953 2.2605143
-2.4848127 1.8286715 2.2777028
-2.5116658 1.8955185 2.2618189
-2.4764998 1.8761224 2.2868741
-2.5080211 1.924873 2.2574615
-2.4863455 1.9278877 2.281343
-2.507374 1.980626 2.2595139
-2.4876437 1.9709934 2.2828593
-2.5102508 2.0151246 2.2671573
-2.4930532 2.0227003 2.2885368
-2.5015206 2.0557163 2.2798829
-2.4908104 2.069967 2.2938123
-2.2193763 2.3836312 2.2943234
-2.1812167 2.3880858 2.2866802
-2.1385865 2.3783674 2.2801392
-2.0984709 2.3807025 2.2905126
-2.1677268 2.4002421 2.2746716
1.4272964 -0.55906826 2.3361619
1.5291334 -0.55092591 2.3141356
-1.7137457 -0.54097843 2.3112283
-1.3724526 -0.51935673 2.3417683
-1.3340719 -0.52799308 2.3361928
-1.2948362 -0.53634334 2.3418088
-0.37270761 -0.5348801 2.3268833
-0.32337832 -0.53903896 2.324183
-0.27709693 -0.54386735 2.3338978
-0.22062553 -0.54088217 2.3293259
-0.17202888 -0.54150945 2.3202505
-0.12350824 -0.5393135 2.32973
-0.075982831 -0.53158659 2.3185329
-0.031235637 -0.52322453 2.3469279
0.24178232 -0.50046051 2.3420608
0.27568826 -0.50005686 2.3376832
0.37533495 -0.50155044 2.3355212
0.48122987 -0.50101 2.3199887
0.50954747 -0.50085342 2.3151979
1.537509 -0.54333138 2.3422918
1.5793318 -0.54000431 2.3271706
1.6257787 -0.53087753 2.3276036
1.679082 -0.52394736 2.3314824
1.7241578 -0.51383126 2.3275793
1.7711872 -0.50641 2.3177011
-2.3015945 -0.45414308 2.3069887
-2.2765093 -0.4535678 2.3228221
-1.701327 -0.47151184 2.3060062
-1.3662596 -0.47195256 2.3445134
0.20635854 -0.49733755 2.3295898
0.28248394 -0.49863824 2.3304236
0.3298929 -0.49609971 2.3143272
0.38258857 -0.49867344 2.3210938
0.41768026 -0.49993458 2.323092
1.7842201 -0.49363321 2.3349402
1.8256954 -0.47636405 2.3272488
1.8628329 -0.46590307 2.313714
-2.3161013 -0.4260883 2.3125331
-2.287436 -0.42894059 2.3355227
-2.0375059 -0.43955174 2.3194675
-1.7295871 -0.40641931 2.302973
-1.6931882 -0.43011525 2.3010893
-1.3655061 -0.40147883 2.3499823
1.8326969 -0.42593095 2.3379817
1.8634573 -0.42184624 2.3134987
-2.3170621 -0.37443674 2.3243933
-2.2973034 -0.35300827 2.3456147
-2.0020056 -0.37269354 2.3141627
-1.9899237 -0.38552648 2.3112655
-1.7082146 -0.36529055 2.3049932
-1.6954353 -0.39149225 2.3096995
-1.3540804 -0.38566974 2.3318748
-1.3260287 -0.35992837 2.3399131
1.8395923 -0.37529832 2.3417428
1.8649025 -0.37464395 2.3193634
-2.3202305 -0.32255676 2.3172081
-2.2930272 -0.32291624 2.3448639
1.8394527 -0.32341012 2.3426125
1.8722117 -0.32836917 2.316093
-2.319247 -0.27832693 2.3211267
-2.2820609 -0.27422434 2.3456693
-2.2180455 -0.25876388 2.3279965
-1.8776057 -0.28927359 2.316607
-1.8366067 -0.28816837 2.3295026
1.8405739 -0.27189133 2.3440998
1.8702337 -0.27685413 2.3191009
-2.3233049 -0.22474432 2.322247
-2.2856104 -0.24850734 2.34496
-2.2289145 -0.22140749 2.3427188
1.8410594 -0.22154306 2.3412044
1.8726298 -0.22127043 2.3166509
-2.3256981 -0.17534329 2.3223805
1.8399734 -0.17432921 2.3430231
1.8708121 -0.1740405 2.317657
-2.3279455 -0.12403083 2.3274136
1.8363121 -0.126992 2.3407445
1.8701875 -0.12735613 2.3153424
-2.3505797 -0.057816267 2.3108659
-2.3261406 -0.073890902 2.3311663
1.8327898 -0.073150449 2.3380573
1.8645016 -0.073041327 2.3140914
-2.3508992 -0.043108493 2.3114369
-2.3341863 -0.026577566 2.3260016
1.8308083 -0.024960106 2.3327756
1.8684019 -0.026132347 2.3070166
-2.3519127 0.030480735 2.3124645
-2.3317463 0.020644648 2.3292625
1.8284616 0.020630423 2.3332314
1.8669007 0.020650454 2.3051336
-2.3520396 0.074656881 2.3116424
-2.3324025 0.07470499 2.3334994
1.8304089 0.075485453 2.3321905
1.8677136 0.07412146 2.3051736
-2.3535099 0.12628171 2.3110232
-2.3337438 0.12636074 2.332809
1.829828 0.12310518 2.3378317
1.8651137 0.12116595 2.3129838
-2.3569014 0.17810488 2.3113253
-2.3360586 0.17816739 2.3321238
-2.3667378 0.22295493 2.3105986
-2.3359253 0.22485296 2.3343122
-2.3659725 0.27028668 2.3067009
-2.3358912 0.27758595 2.3316171
-2.3601587 0.32712963 2.3139961
-2.3307626 0.32711744 2.3403342
-2.3626258 0.37198678 2.3104546
-2.3351786 0.37229028 2.3388925
-2.3684788 0.42498466 2.3082078
-2.3386281 0.42491484 2.3344829
-2.362525 0.4815208 2.317992
-2.339931 0.47428203 2.3345716
-2.3636987 0.52389592 2.3139255
-2.3442585 0.52452439 2.336741
-2.3661945 0.57255006 2.3170907
-2.3388486 0.56706035 2.3439178
-2.3637083 0.62179524 2.3165751
-2.340703 0.62479413 2.3401661
-2.3664069 0.68187004 2.3203826
-2.3424335 0.68010718 2.3430986
-2.3706312 0.72712332 2.3164182
-2.341042 0.72727561 2.3438916
-2.3698685 0.77472693 2.3169169
-2.3415318 0.77787131 2.3420243
-2.3714688 0.82343769 2.318857
-2.3407636 0.82329589 2.3455703
-2.3723154 0.87224275 2.319277
-2.3482149 0.8641119 2.3409603
-2.3733504 0.92146522 2.3190157
-2.3445539 0.92215759 2.3480313
-2.3693192 0.97212535 2.3273466
-2.3757622 1.0240351 2.3214161
-2.3467715 1.0141914 2.3484647
-2.3739023 1.0736672 2.3250499
-2.4029677 1.1266965 2.3049448
-2.3713634 1.1264863 2.332381
-2.4038873 1.1896077 2.3111744
-2.3808367 1.1780674 2.3307974
-2.4111695 1.2248087 2.3039904
-2.3799744 1.2283344 2.3307691
-2.4076033 1.2786722 2.3077674
-2.3815815 1.2681081 2.3253844
-2.4132884 1.3258644 2.3087325
-2.3810112 1.3255982 2.3363907
-2.4118254 1.3751601 2.3107584
-2.3802342 1.3698673 2.3374009
-2.4159389 1.4245524 2.3135674
-2.3870254 1.4162019 2.3363166
-2.4202292 1.4817495 2.3137848
-2.3972921 1.4699725 2.3354244
-2.4179211 1.5313635 2.3222382
-2.3957105 1.5116673 2.3463006
-2.4199841 1.5747967 2.3182187
-2.3931298 1.577927 2.3421061
-2.4226904 1.6278906 2.3175337
-2.391747 1.6292243 2.3474376
-2.4240048 1.6732143 2.3295357
-2.4323931 1.7247454 2.3230951
-2.3995812 1.7211142 2.3414536
-2.4548771 1.7872962 2.3044972
-2.4341779 1.7768017 2.3267026
-2.4561949 1.8190804 2.3119593
-2.4273288 1.8234478 2.3375831
-2.4554238 1.8744843 2.3082993
-2.4282234 1.8726147 2.3323083
-2.4631813 1.9297987 2.3039942
-2.4353776 1.9280742 2.3223498
-2.4589336 1.981935 2.3161979
-2.4348664 1.9752612 2.3368824
-2.4650438 2.0270178 2.3145781
-2.4277976 2.018271 2.3379815
-2.4700069 2.0744066 2.3188376
-2.4404097 2.0714951 2.3356493
-2.5002468 2.1365955 2.3038759
-2.4690449 2.1173427 2.3172231
-2.4418306 2.1228657 2.3441725
-2.4687016 2.1676469 2.3236837
-2.4613619 2.2186217 2.3379588
-2.4431119 2.2534044 2.3407447
-2.3141582 2.3564794 2.3372476
-2.2771256 2.3724868 2.3332369
-2.2240417 2.3743162 2.3241479
-2.1791821 2.3783848 2.3268793
-2.1328769 2.3836122 2.3324137
-2.0744381 2.3817191 2.3240812
-2.03438 2.3862605 2.3415291
1.9992965 2.3754399 2.3485069
2.0372789 2.3796933 2.3300719
2.0872903 2.3877208 2.3094177
2.1090887 2.385299 2.3313172
2.1555014 2.3983111 2.3206739
-2.1394367 2.4074407 2.3046722
2.1332448 2.401638 2.320611
2.1505578 2.410306 2.3023708
2.2250342 2.4184165 2.3466151
2.2741563 2.4330451 2.3366396
-2.2160034 -0.56504649 2.3819497
-2.1819441 -0.56379849 2.3814719
1.3826635 -0.55140245 2.385983
1.4485128 -0.55447745 2.37321
1.4710637 -0.55566919 2.3691931
-2.253963 -0.50073493 2.3607218
-2.234983 -0.52449906 2.3850007
-1.3568602 -0.51837587 2.3594313
-1.3409388 -0.53224379 2.3708501
-1.28146 -0.53489566 2.3744774
-0.37450543 -0.53417873 2.3767178
-0.33062321 -0.53961933 2.3733037
-0.26648727 -0.53883857 2.3716652
-0.22560662 -0.53804713 2.3798509
-0.17282769 -0.54115158 2.3805156
-0.12853985 -0.53502339 2.37641
-0.094782904 -0.53464699 2.3706164
-0.031552069 -0.52352035 2.3749838
0.23121633 -0.50222009 2.351054
0.3234129 -0.50356942 2.3502357
0.45823947 -0.50187474 2.3843901
0.50397676 -0.50091714 2.3735478
1.3289628 -0.54780507 2.3893487
1.4457742 -0.54541832 2.3983009
1.4756162 -0.54235482 2.386133
1.5241177 -0.54136026 2.3818717
1.5754031 -0.52729595 2.3756201
1.6285658 -0.51911694 2.3789196
1.6723906 -0.5118615 2.3776097
1.7120105 -0.50671482 2.3550744
-2.2635407 -0.46729511 2.3769426
-2.247211 -0.48033261 2.3852601
-1.3736537 -0.47338003 2.3541636
-1.3414147 -0.47140217 2.3642628
0.2854279 -0.4956964 2.3723404
0.31579056 -0.49811199 2.3814733
0.36187959 -0.49778628 2.3755453
0.41760254 -0.49521911 2.3570175
0.47807872 -0.49823278 2.3640206
0.54680175 -0.49747038 2.3503158
1.6975811 -0.49698088 2.3899033
1.7303838 -0.49672866 2.3694272
1.7730116 -0.47403815 2.378974
1.8030933 -0.46623909 2.3543715
-2.2707365 -0.42603064 2.3712227
-2.2462599 -0.42835286 2.3926687
-1.3757193 -0.44025889 2.3697562
1.7752602 -0.42836595 2.3832097
1.8094809 -0.42484206 2.3578181
-2.2736807 -0.37614396 2.3735089
-2.242851 -0.38335466 2.3954611
-1.3693485 -0.38097173 2.3870344
-1.3230953 -0.38165423 2.3785753
1.7783307 -0.37362596 2.3847303
1.8148193 -0.36957213 2.3596892
-2.2692146 -0.32376817 2.3754044
1.7787387 -0.32271054 2.3902924
1.8150355 -0.323901 2.3629863
-2.2593708 -0.28274593 2.3734062
-1.9077652 -0.27636665 2.3952303
-1.8717442 -0.28683764 2.3747897
1.7787974 -0.27883673 2.3892286
1.8131685 -0.27629998 2.3653409
-2.2690675 -0.22754103 2.367059
-2.2486799 -0.20519839 2.392535
1.7852131 -0.22219406 2.3850443
1.8160595 -0.22180939 2.3606849
-2.271055 -0.17424345 2.3729823
-2.2487555 -0.19048515 2.3936419
1.7821304 -0.17464815 2.3840284
1.8140529 -0.17445077 2.3612375
-2.2799351 -0.12430657 2.3749042
1.781652 -0.1274471 2.3857071
1.8112774 -0.12714313 2.3599823
-2.2813532 -0.072773181 2.3781815
1.7799083 -0.073499322 2.385129
1.8092518 -0.073304631 2.359122
-2.3095086 -0.028490456 2.3528197
-2.2817469 -0.028554251 2.3793483
1.7825786 -0.026324891 2.3764412
1.8118969 -0.039630409 2.3503442
-2.309207 0.023077479 2.3524628
-2.2815368 0.023044089 2.37907
1.7783818 0.020665869 2.3772953
1.8001748 0.04077499 2.360709
-2.3103945 0.074673347 2.3526866
-2.2818089 0.074658908 2.378382
1.7775065 0.07446482 2.3817258
1.803104 0.070293352 2.3587475
-2.3129797 0.12640931 2.3532994
-2.2838452 0.12638526 2.3785107
1.7499043 0.13485737 2.3944225
1.7779868 0.12152329 2.3807902
1.8073037 0.11867487 2.3574843
-2.3100686 0.18123269 2.3582125
-2.281055 0.17604555 2.3807435
-2.3086324 0.21979205 2.3593869
-2.2835314 0.22300883 2.3858519
-2.3116095 0.27004343 2.3596842
-2.281302 0.27804771 2.3867259
-2.3092158 0.32717952 2.3601844
-2.2839494 0.32504287 2.381942
-2.3123074 0.37215838 2.3575287
-2.2903988 0.37482667 2.3823936
-2.3129065 0.42862111 2.3618054
-2.2839522 0.42280266 2.3859439
-2.3167298 0.47855854 2.3594325
-2.2894025 0.47904101 2.3872776
-1.8720548 0.4540472 2.3660913
-1.8264413 0.451242 2.3735025
-2.3171372 0.5251134 2.365447
-2.2872055 0.52506346 2.3907752
-2.3139153 0.57108885 2.3670802
-2.2889819 0.57514179 2.3898306
-2.3170688 0.62869143 2.3663414
-2.2894337 0.62074047 2.3924296
-2.3186777 0.67839181 2.3655605
-2.2901015 0.68015242 2.3888023
-2.3188145 0.72738004 2.3640096
-2.2924879 0.73114032 2.3901083
-2.31282 0.77259338 2.3681581
-2.289587 0.77566576 2.3924456
-2.3171551 0.82632369 2.3700109
-2.2949455 0.82497734 2.394166
-2.3189778 0.87220502 2.3662684
-2.2920847 0.88119948 2.3936205
-2.3180652 0.9249447 2.3745666
-2.2972741 0.90621835 2.3914914
-2.3228016 0.97475302 2.3726635
-2.2945359 0.96523023 2.3990765
-2.3196774 1.0235792 2.3761191
-2.3257949 1.0769255 2.3743131
-2.2973006 1.0584774 2.3995473
-2.3273273 1.1277832 2.3760383
-2.3559144 1.1812721 2.355464
-2.3271151 1.1812434 2.3803566
-2.351258 1.2342793 2.3591757
-2.3289702 1.2219247 2.3796642
-2.3608561 1.2711091 2.3540897
-2.3294671 1.2712532 2.3816867
-2.3559074 1.3248897 2.3559887
-2.3367074 1.3275274 2.3812888
-2.3523097 1.3719361 2.362432
-2.3391628 1.3840103 2.3824906
-2.3638914 1.426144 2.3638239
-2.3373661 1.4289474 2.3922083
-2.3697021 1.4729362 2.3680856
-2.3413517 1.4755031 2.3998923
-2.3706243 1.5240053 2.3672993
-2.3486114 1.5127794 2.3897862
-2.3654356 1.5792376 2.3761604
-2.3353479 1.5996248 2.3960776
-2.3691158 1.6245756 2.3701754
-2.3394918 1.6189886 2.3908784
-2.3746631 1.6735101 2.3717878
-2.3860812 1.7198483 2.3667929
-2.4101057 1.7830279 2.3566628
-2.3792241 1.7754983 2.3820705
-2.4017298 1.8232539 2.3580818
-2.3775599 1.8241677 2.37993
-2.4049478 1.8899791 2.3597574
-2.3848557 1.8705006 2.3812613
-2.4110162 1.935351 2.3660743
-2.3851981 1.9272686 2.3850541
-2.4158313 1.9770463 2.3597221
-2.3884027 1.979565 2.3827934
-2.4087861 2.0323336 2.3662949
-2.3891139 2.0294662 2.3916056
-2.4196041 2.0760698 2.3609462
-2.3942099 2.0847323 2.3902369
-2.4186575 2.1256373 2.3672795
-2.3938849 2.1270485 2.3888965
-2.4505589 2.1904249 2.3535085
-2.424485 2.1754587 2.3719096
-2.3968296 2.1899741 2.3928015
-2.423526 2.2249355 2.37023
-2.3921077 2.2378035 2.394654
-2.4221706 2.2677891 2.3598647
-2.3898728 2.2800341 2.383153
-2.4091632 2.3081925 2.3601549
-2.374512 2.3303273 2.3797657
-2.3581038 2.3559589 2.3628035
-2.3341494 2.3589051 2.3847499
-2.2774291 2.359879 2.372201
-2.2216711 2.3609841 2.3701668
-2.1818817 2.3738828 2.3766136
-2.1271176 2.3794632 2.3776872
-2.0767231 2.3847556 2.3821244
-2.0254092 2.3896849 2.3769734
-1.9826249 2.3966756 2.3915198
-1.9229305 2.3764555 2.3992212
1.9334811 2.3684444 2.3806601
1.9791856 2.3822083 2.3720837
2.01754 2.3797138 2.3834181
2.07179 2.3898747 2.3770225
2.1017289 2.3978994 2.3765478
2.1305795 2.4018807 2.3840475
2.1769817 2.405025 2.3716872
2.2396393 2.4167793 2.3899014
2.275775 2.4265728 2.3776186
2.3381572 2.4266214 2.3666382
2.3662913 2.4280937 2.3926082
1.3577236 -0.55433685 2.4124675
-2.2097218 -0.52176821 2.4090111
-2.1856594 -0.51687449 2.4231339
-1.3635893 -0.52308321 2.4334438
-1.3148487 -0.53714561 2.4085293
-1.2662743 -0.53557217 2.4190493
-1.2296915 -0.53111058 2.4324751
-1.1643699 -0.52991188 2.4256568
-1.108005 -0.53010482 2.445596
-1.0853009 -0.53143263 2.4261661
-0.41243005 -0.54592168 2.425751
-0.36417034 -0.5329091 2.4273348
-0.31874043 -0.53553885 2.4197562
-0.27883291 -0.53602165 2.4305346
-0.23256004 -0.53574681 2.4232843
-0.1803315 -0.54104519 2.4362905
-0.13288638 -0.54341137 2.4352221
-0.079086654 -0.53922832 2.4180009
-0.03776684 -0.52348304 2.4018936
0.38957781 -0.50366706 2.4011869
0.52933365 -0.50227022 2.4365792
1.3208804 -0.53840351 2.4495797
1.3758363 -0.54293829 2.4301155
1.4230198 -0.54063404 2.4247634
1.4765879 -0.53230882 2.4248354
1.5309762 -0.52391636 2.424031
1.5815103 -0.51488543 2.4252362
1.6162922 -0.50817037 2.4169044
-2.2194612 -0.47337499 2.4122488
-2.1736789 -0.46825275 2.4290123
-2.1448324 -0.48147869 2.4104137
0.32235715 -0.49669036 2.4328485
0.35729694 -0.49593288 2.4258628
0.41678509 -0.49644986 2.4221382
0.47791725 -0.49855083 2.4251029
1.6334395 -0.4979732 2.4311128
1.683799 -0.48730168 2.4258752
1.7239022 -0.47373649 2.41434
-2.2179537 -0.4286364 2.4176862
-2.1829007 -0.43203408 2.4410739
-2.1244402 -0.41460121 2.4250579
-1.2628133 -0.44730672 2.4402852
1.6933713 -0.44243044 2.4468138
1.7243999 -0.42803049 2.4255073
1.7544136 -0.41345832 2.4024739
-2.2208691 -0.37520364 2.4241107
-2.1895642 -0.38446388 2.4483645
-2.1101408 -0.36367404 2.4429307
-2.0848587 -0.37371716 2.4118352
-1.3627983 -0.39543846 2.4017968
-1.330205 -0.37457287 2.4210556
1.7271674 -0.37553266 2.4304922
1.7563384 -0.36850095 2.4055352
-2.2238486 -0.32475504 2.4238911
1.7265251 -0.32700309 2.4327502
1.7563976 -0.32837519 2.4088781
-2.2197647 -0.2741133 2.4274299
-1.866132 -0.28223205 2.4076538
1.7270944 -0.27789891 2.429328
1.7574623 -0.27287391 2.4064651
-2.2251387 -0.22335888 2.4235809
-2.1999712 -0.23580386 2.4479489
1.7301999 -0.22298287 2.4282992
1.7609991 -0.22256546 2.4048116
-2.2275002 -0.17645325 2.426923
1.7285303 -0.17540498 2.4289849
1.7579163 -0.17494248 2.403671
-2.2538869 -0.12453496 2.4027145
-2.2280998 -0.12477253 2.4302237
1.7263479 -0.12789316 2.428175
1.7560527 -0.12756318 2.4034116
-2.2556279 -0.072942831 2.4063461
-2.2260954 -0.072980881 2.4297647
1.7262766 -0.073834978 2.4297905
1.7552018 -0.073611684 2.4039783
-2.2583065 -0.028665282 2.4099457
-2.2281728 -0.02869614 2.4327612
1.7258459 -0.026536508 2.4299133
1.7551824 -0.026439801 2.4046972
-2.2563701 0.023043923 2.4078352
-2.2271552 0.023018321 2.4316075
1.7239352 0.02072534 2.4272087
1.7531174 0.013961741 2.4019086
-2.2558324 0.074738324 2.4063079
-2.2303038 0.074833959 2.4341195
1.7252984 0.074769095 2.4282472
1.7537466 0.074570715 2.4018044
-2.2600677 0.12666783 2.4088655
-2.2324603 0.12673451 2.4345412
1.6937008 0.10864103 2.4489193
1.7289375 0.11939968 2.4266021
1.7553461 0.11506161 2.4027181
-2.2614613 0.17884713 2.4144051
-2.2324114 0.17871742 2.4351265
-2.260227 0.22693299 2.4095292
-2.2344029 0.2215344 2.4342492
-2.2589056 0.27113807 2.4138751
-2.2346447 0.27490702 2.4356041
-2.2628062 0.33108529 2.4115815
-2.238672 0.32866803 2.4389801
-2.265434 0.37018976 2.4094415
-2.2381039 0.37329769 2.4327691
-2.2589142 0.43022138 2.4106305
-2.2369664 0.42385027 2.4353201
-2.2610462 0.47932336 2.4134681
-2.2326343 0.47959903 2.4389827
-2.2659853 0.52532572 2.4105723
-2.2395408 0.52611899 2.4384706
-2.2670655 0.57181835 2.4121726
-2.2415051 0.56901735 2.4352317
-2.2631297 0.62607449 2.4153883
-2.2344151 0.61847752 2.439944
-2.2663112 0.68290091 2.4118505
-2.2394941 0.67027873 2.4389522
-2.2650816 0.72627741 2.416317
-2.2343967 0.73187631 2.4422331
-2.2688427 0.77633756 2.4134538
-2.240519 0.77699822 2.4403014
-2.2675071 0.82300085 2.4172361
-2.2390983 0.8249464 2.4400434
-2.2713754 0.87438715 2.4174483
-2.2413974 0.8745997 2.4430313
-2.2703621 0.92587215 2.4210858
-2.2421811 0.91637349 2.4461021
-2.270524 0.97696048 2.4248271
-2.2495148 0.95797187 2.4411507
-2.2734191 1.0265479 2.4206414
-2.2461457 1.0174732 2.4475322
-2.2724919 1.0769919 2.4259295
-2.3033013 1.1469855 2.4036896
-2.2732222 1.1276507 2.4272943
-2.311645 1.1747918 2.4023499
-2.2783792 1.1783694 2.429436
-2.3017559 1.2093755 2.4079876
-2.2744839 1.2215399 2.4343157
-2.3072658 1.2844431 2.4148092
-2.2827775 1.2719454 2.4322255
-2.3100848 1.3305433 2.4138227
-2.287626 1.3176345 2.4304199
-2.3190732 1.3739879 2.4149346
-2.2865956 1.3653938 2.4384067
-2.3162563 1.4292896 2.4255283
-2.2819054 1.4214854 2.4445715
-2.3169389 1.4754598 2.4202843
-2.2952666 1.4772019 2.443352
-2.3235092 1.5266006 2.4154878
-2.2942591 1.5245785 2.4408739
-2.3224375 1.5766935 2.4202585
-2.2943301 1.5749459 2.4440303
-2.3588612 1.6490551 2.4010513
-2.3227594 1.6294649 2.4248621
-2.3261583 1.6790282 2.422497
-2.363996 1.7232287 2.4024863
-2.3285372 1.7217827 2.4279201
-2.3562417 1.7636075 2.4050946
-2.3297317 1.7780204 2.4295263
-2.3584986 1.8290517 2.4069557
-2.3374765 1.8325139 2.4320662
-2.3598206 1.8702728 2.4093072
-2.3271997 1.8720173 2.4310777
-2.3620794 1.9212904 2.4067271
-2.3413341 1.9173084 2.4308035
-2.3588505 1.973511 2.4189911
-2.335602 1.9690804 2.4424248
-2.365721 2.0299749 2.4172258
-2.3356752 2.0109169 2.4424753
-2.3664954 2.0787005 2.4190838
-2.3455257 2.0536716 2.4437857
-2.3691776 2.1309106 2.4231265
-2.3413661 2.1353087 2.4450622
-2.374949 2.1787667 2.4154413
-2.3467157 2.1750507 2.4481788
-2.3677952 2.2224028 2.4220276
-2.3429265 2.2330027 2.44491
-2.3678572 2.2756877 2.4138563
-2.3376291 2.2723565 2.4374163
-2.3536417 2.3153615 2.4054008
-2.3269832 2.3285251 2.4254155
-2.3131287 2.361973 2.4194787
-2.281184 2.3599865 2.4386199
-2.2343047 2.3662789 2.4237943
-2.1767168 2.3790543 2.420419
-2.1208153 2.3795848 2.4275656
-2.0759354 2.3820207 2.4301734
-2.0269907 2.3834813 2.4235237
-1.9765737 2.3865829 2.4205451
-1.9301974 2.3881233 2.4393818
-1.8941822 2.3835313 2.4284775
1.840301 2.3697307 2.4420569
1.8753376 2.3707287 2.4214432
1.9158603 2.3698096 2.4142084
1.9741702 2.3805091 2.4233665
2.0233953 2.3793554 2.4199684
2.0761509 2.391547 2.4320204
2.1285753 2.4118471 2.443275
2.1743283 2.4091649 2.4292166
2.2199905 2.4061379 2.4143653
2.2578149 2.4094424 2.4368443
2.3251009 2.4232264 2.4240353
2.3853498 2.4292111 2.424942
2.4212868 2.4238169 2.4238307
2.4858167 2.4277961 2.4411089
-0.4618963 -0.55056566 2.4982238
-1.3100567 -0.53282404 2.4598939
-1.2372563 -0.53230333 2.4843464
-1.1610637 -0.52722669 2.4830389
-0.40411925 -0.5388003 2.4504216
-0.37697992 -0.5302335 2.4796245
-0.32778144 -0.52324194 2.4720998
-0.27789438 -0.52412313 2.4676955
-0.22435699 -0.53238559 2.464648
-0.17710359 -0.53651017 2.4767265
-0.13491607 -0.53982073 2.4746339
-0.069268651 -0.54272032 2.4897192
0.31270203 -0.50016648 2.4508979
0.43867204 -0.50200665 2.4784267
1.3266894 -0.53099608 2.4618051
1.3779322 -0.535209 2.4767356
1.4274739 -0.52509928 2.470645
1.4760928 -0.5193488 2.4691916
1.5162668 -0.51167953 2.4666381
1.5621527 -0.50655627 2.4689445
-1.2646625 -0.45255023 2.4737196
0.41489244 -0.49651334 2.4845226
0.52201092 -0.49470803 2.4618042
1.5822265 -0.49512476 2.4746666
1.6262919 -0.47554636 2.4774711
1.6661873 -0.46786341 2.4609537
-2.1722136 -0.42103231 2.4516201
1.64018 -0.42651638 2.4910777
1.6748439 -0.42391467 2.4655056
-2.1680467 -0.37429547 2.4624901
-2.1192374 -0.35060373 2.4552417
1.6459558 -0.37596869 2.4949865
1.6755205 -0.3749128 2.4703348
1.707422 -0.36075628 2.450439
-2.1750422 -0.3252618 2.4670136
-2.1254601 -0.31914544 2.4730504
1.6431277 -0.32066774 2.4965339
1.6736656 -0.32676825 2.4728441
1.704941 -0.3194015 2.4512825
-2.1748955 -0.27337539 2.4721005
-2.1420655 -0.27780801 2.4953284
-2.0968127 -0.29304051 2.4906347
1.6725053 -0.27886635 2.475596
1.7022339 -0.27587149 2.4513981
-2.2016273 -0.20638302 2.4520242
-2.1736479 -0.22138621 2.4750259
1.6754507 -0.22296737 2.4734983
1.7011667 -0.24400017 2.4525034
-2.2022195 -0.17682558 2.4545858
-2.1739552 -0.17697462 2.4783299
-2.1438787 -0.17697221 2.499495
1.6758682 -0.17631735 2.4741211
-2.2029417 -0.12506317 2.4580054
-2.1735446 -0.12510468 2.4804332
1.6746393 -0.12863825 2.4745297
-2.2024434 -0.073219635 2.4591768
-2.1750007 -0.073321983 2.483799
1.649647 -0.081201956 2.493402
1.6749264 -0.073870786 2.4737546
-2.1788912 -0.028799221 2.4749887
1.6485846 -0.026765626 2.4926486
1.675243 -0.026704999 2.4739149
-2.2009387 0.037811991 2.4580429
-2.1778204 0.020897601 2.4797401
1.6729177 0.02080751 2.4743578
-2.2029502 0.07487151 2.4595034
-2.1763039 0.074940369 2.4850664
-2.0110416 0.087003022 2.4817123
-1.9760711 0.086092912 2.4655473
1.6499444 0.095681459 2.4932878
1.6750969 0.074057072 2.4738622
-2.2049472 0.12682931 2.4598348
-2.1776941 0.12693183 2.4847825
-2.0178885 0.12341465 2.4888549
-1.9854696 0.11140087 2.4695959
1.6727766 0.11677408 2.478044
1.7464291 0.13773173 2.4693611
-2.207365 0.17890565 2.4597406
-2.181031 0.17914571 2.4858363
-2.2101755 0.2237159 2.4597082
-2.1823761 0.2238778 2.4842486
-2.2122259 0.27598101 2.4573896
-2.184963 0.27626139 2.4826667
-2.2129004 0.32814106 2.4526241
-2.1858959 0.32852373 2.4783053
-2.2106311 0.37365356 2.4585679
-2.1838489 0.37413844 2.4846058
-2.2125616 0.42669702 2.4580395
-2.1890583 0.42401251 2.4817264
-2.2088203 0.4835639 2.4657211
-2.1802702 0.47230449 2.4899397
-2.2117591 0.52661055 2.4643795
-2.1838276 0.52708119 2.4895608
-2.216116 0.57279414 2.4605253
-2.1833093 0.57289559 2.4864736
-2.215517 0.62510103 2.4575629
-2.186398 0.62686354 2.4814534
-2.2100952 0.68096018 2.4589732
-2.1803627 0.67709035 2.4856486
-2.2146893 0.72526824 2.4609189
-2.1828299 0.73104215 2.4845295
-2.2129767 0.7804957 2.4637477
-2.1822767 0.77453649 2.4848711
-2.2167907 0.82853067 2.4642906
-2.1879859 0.82326013 2.4879889
-2.2151124 0.87280846 2.4664826
-2.1920919 0.87626714 2.4897726
-2.2158434 0.9258889 2.4727263
-2.1901815 0.9434827 2.4973438
-2.2255197 0.97639996 2.4678981
-2.1959352 0.97697639 2.4934938
-2.2210782 1.0279754 2.475872
-2.226774 1.0816058 2.4749529
-2.226758 1.1265333 2.4735427
-2.2509997 1.1838164 2.4534442
-2.2279344 1.1703 2.4786265
-2.2306414 1.2214828 2.4773471
-2.2580945 1.275637 2.4562261
-2.2342105 1.2798383 2.4807613
-2.2661729 1.3248523 2.4615827
-2.2348382 1.3252497 2.487967
-2.2614176 1.3718244 2.4674819
-2.2356474 1.3773267 2.4906883
-2.2603207 1.4271798 2.4650879
-2.2351589 1.4078206 2.4839411
-2.2681551 1.4762634 2.4719954
-2.2403538 1.4703736 2.495791
-2.2723861 1.5300119 2.4739852
-2.2435737 1.5189078 2.493412
-2.2689853 1.5750991 2.4703968
-2.2421417 1.5786992 2.4961815
-2.3089569 1.6323159 2.4516389
-2.2762764 1.6198142 2.4754536
-2.2771668 1.6728098 2.4763377
-2.3037422 1.736728 2.4593134
-2.2826228 1.7259277 2.4805241
-2.3081775 1.7569727 2.4537859
-2.2846096 1.772369 2.4791059
-2.309248 1.8294697 2.4601302
-2.2870872 1.822418 2.484014
-2.3116148 1.887678 2.4707854
-2.2857602 1.8794886 2.4892111
-2.3165975 1.9318058 2.4693885
-2.291995 1.9181296 2.4881446
-2.3138425 1.9726524 2.4671636
-2.292794 1.9769111 2.4926975
-2.310395 2.0195727 2.4722514
-2.2883835 2.0232296 2.4968624
-2.320436 2.0699372 2.4676411
-2.2903094 2.0679262 2.491313
-2.3230724 2.1104066 2.4615495
-2.2956686 2.1161685 2.4890299
-2.3172135 2.173852 2.4772534
-2.2994246 2.1807737 2.4945824
-2.3246763 2.2201052 2.4665565
-2.2835286 2.2005236 2.4972734
-2.3128412 2.2742996 2.4743106
-2.2911527 2.2886391 2.4932108
-2.3057725 2.3123732 2.4569974
-2.2814312 2.3314862 2.4811661
-2.2644691 2.361594 2.4679239
-2.2201746 2.3617551 2.4698405
-2.1697538 2.36759 2.4781725
-2.1289539 2.3763905 2.4701562
-2.0791507 2.377043 2.4792924
-2.0257168 2.38062 2.4720581
-1.9716944 2.3818562 2.4782176
-1.9285413 2.3901145 2.4846036
-1.8741639 2.3871541 2.4709871
-1.835016 2.3963518 2.4851365
-1.7844403 2.3751462 2.4842999
1.7986957 2.3827243 2.4874642
1.8297719 2.3800061 2.4775631
1.8802729 2.3814504 2.4750702
1.9188128 2.3817875 2.4783938
1.9705968 2.3850365 2.4740772
2.0460863 2.3987038 2.4774745
2.1486235 2.398443 2.493753
2.1847999 2.3986719 2.4693475
-1.8391342 2.4016964 2.4907072
2.0348072 2.406327 2.4971414
2.064954 2.400033 2.4670298
2.1183858 2.4026215 2.4779005
2.1664648 2.4072826 2.4744856
2.2170355 2.4043694 2.456594
2.2855649 2.4206915 2.4802895
2.3341217 2.423924 2.4741607
2.3775434 2.4215136 2.4618511
2.4126048 2.4196882 2.4790854
2.4756336 2.4266593 2.4692173
2.5205405 2.418021 2.4756784
2.5653117 2.4118187 2.4789331
-1.7463624 -0.59701425 2.5437255
-0.438757 -0.55224884 2.5088065
-1.1547217 -0.53321648 2.5177236
-1.1364526 -0.53382087 2.526906
-0.46089834 -0.54443622 2.5291142
-0.41728386 -0.53982943 2.5324037
-0.36598909 -0.51675588 2.5284739
-0.32176766 -0.50867653 2.5234771
-0.27681041 -0.51876599 2.5251296
-0.22221172 -0.52721959 2.5202801
-0.18049242 -0.53455186 2.5258138
-0.12103555 -0.54123569 2.5202465
-0.080324128 -0.54251271 2.5351062
0.39738411 -0.50505149 2.5298901
0.41054738 -0.50608927 2.5337851
0.48271304 -0.50413722 2.5153313
1.3438969 -0.51320636 2.5285435
1.3742115 -0.52503693 2.5137792
1.4268758 -0.51390362 2.5289245
1.4782635 -0.50735581 2.5275309
1.5242676 -0.50201625 2.5106616
-0.36191574 -0.46710718 2.5248008
-0.32181603 -0.4720729 2.5144291
-0.27350855 -0.47001001 2.5283384
0.33559579 -0.49246442 2.5359974
1.5373842 -0.48921609 2.5348687
1.5755806 -0.47030646 2.527998
1.61164 -0.45643184 2.5065727
-0.36357152 -0.42158532 2.5222709
-0.31816962 -0.42328644 2.5158818
-0.27337179 -0.42325985 2.532392
1.5852735 -0.42598706 2.5353343
1.6175436 -0.42267132 2.5095708
-0.35868236 -0.38625556 2.5355229
-0.32139048 -0.38566357 2.5348191
-0.28492177 -0.39216992 2.5395541
1.5877476 -0.38054058 2.5390103
1.6218113 -0.376735 2.5137341
1.5920923 -0.32281902 2.5434265
1.6194743 -0.32141647 2.5159061
-2.1182759 -0.26635763 2.5187895
-2.0877824 -0.27047598 2.5450482
1.5891447 -0.27418515 2.5429752
1.6243237 -0.27314702 2.5137076
-2.1278145 -0.22206603 2.5195861
-2.0912313 -0.22216827 2.5460281
-2.0241883 -0.22956927 2.5466266
1.589044 -0.23036326 2.5412848
1.6232553 -0.22513194 2.5156252
-2.1234539 -0.17732514 2.5211539
-2.0904803 -0.18495308 2.5475366
-2.0154932 -0.17492028 2.5391424
1.5906303 -0.17505154 2.5433111
1.6213493 -0.17515008 2.5188863
-2.1267698 -0.12545809 2.5237627
-2.0882947 -0.12541762 2.547786
-2.0130522 -0.14549366 2.5375617
-1.9987017 -0.11543874 2.5206363
1.5872484 -0.11933348 2.5417123
1.6212766 -0.12781616 2.5148623
-2.1266134 -0.073500149 2.5252292
-1.9951513 -0.079035886 2.517271
1.584151 -0.074882403 2.5450611
1.6214651 -0.074690513 2.5195427
-2.1262803 -0.028951021 2.5255327
-2.0868492 -0.02154512 2.5483665
1.5906521 -0.026978843 2.5419981
1.6210756 -0.026895605 2.51963
-2.1500995 0.00075469352 2.5117795
-2.1260664 0.02449159 2.5280471
-2.0678875 0.022790173 2.5436776
-2.0311985 0.037235953 2.5354209
1.5913535 0.020923262 2.543102
1.6216086 0.020892607 2.5204475
-2.1279461 0.075007163 2.5265954
-2.0754485 0.07087516 2.5405157
-2.0153744 0.068269245 2.505863
-1.9561737 0.058249224 2.5231121
1.5882709 0.074295282 2.5430405
1.6214302 0.075506657 2.5193272
-2.1509559 0.13450006 2.5095718
-2.1256018 0.12545671 2.5318162
-2.0808322 0.11899159 2.5386131
-2.0195634 0.14569378 2.50365
1.5940522 0.11008692 2.545634
1.6234492 0.11661895 2.5212948
-2.153352 0.17928398 2.5099728
-2.1241341 0.17929409 2.5316556
-2.0749967 0.18135223 2.5451624
-2.0343378 0.16928864 2.5347853
-1.9924157 0.18145195 2.5091834
-2.154563 0.22404516 2.508316
-2.1266098 0.22420986 2.5315895
-2.0227742 0.21358328 2.545507
-2.1570878 0.27648026 2.506793
-2.1302073 0.27682534 2.5314801
-2.1613653 0.32928994 2.5064051
-2.1327438 0.32945675 2.5292156
-2.1608636 0.37839502 2.5070226
-2.1360283 0.37331486 2.5316176
-2.1620421 0.42047596 2.5098615
-2.130527 0.42291364 2.5352871
-2.1567199 0.47341901 2.509871
-2.1311307 0.47069559 2.5313303
-2.1613023 0.52705997 2.506278
-2.1344426 0.52596694 2.5174651
-2.1645269 0.57303977 2.5015223
-2.139241 0.5722841 2.5147636
-2.1563268 0.61531264 2.5049932
-2.1331525 0.63075399 2.5159094
-2.1590891 0.67393535 2.5028529
-2.1327066 0.68030256 2.5132382
-2.158175 0.7291224 2.5034156
-2.1411037 0.72594422 2.5159149
-2.1579015 0.77728271 2.5057437
-2.1249104 0.77895784 2.5301554
-2.0960603 0.77685344 2.548203
-2.1621318 0.82986766 2.504195
-2.1346748 0.82456124 2.5281379
-2.1675799 0.87917393 2.5109537
-2.1323571 0.87249887 2.53844
-2.1694641 0.92797703 2.5175955
-2.145926 0.92114568 2.5415845
-2.1707904 0.97957367 2.5235822
-2.1466262 0.99827385 2.549381
-2.1752627 1.032414 2.5228879
-2.1467195 1.0139097 2.5441766
-2.2018428 1.0647947 2.5020916
-2.1769814 1.0757695 2.5302565
-2.1766648 1.119226 2.525352
-2.2050488 1.1608003 2.5020044
-2.1797833 1.1720468 2.5300095
-2.2055686 1.2251084 2.5096071
-2.1850555 1.2269555 2.5315788
-2.2100282 1.280015 2.5089414
-2.1886909 1.2735209 2.5338428
-2.2079737 1.3294305 2.5125697
-2.1905999 1.3172629 2.5379212
-2.2145467 1.3704654 2.5119677
-2.187711 1.3760687 2.5382922
-2.2184479 1.4318095 2.5120919
-2.1894836 1.422923 2.5362759
-2.2114413 1.4771758 2.5268524
-2.1963024 1.4955233 2.546622
-2.2147841 1.5216376 2.5235159
-2.2220876 1.5737869 2.525332
-2.2533035 1.640149 2.5168321
-2.2247882 1.6239288 2.5284374
-2.1984243 1.6365664 2.5499091
-2.2554536 1.658471 2.5096321
-2.2353704 1.6789774 2.5250733
-2.2605984 1.7423428 2.5074677
-2.2300045 1.7220091 2.5242023
-2.2586689 1.7728481 2.5058622
-2.2330089 1.7736189 2.5327239
-2.2609985 1.822877 2.5123529
-2.2337837 1.8209965 2.537425
-2.2632113 1.8740368 2.5109861
-2.2366281 1.8712845 2.5352616
-2.2726421 1.9323123 2.5096924
-2.2332897 1.9281622 2.5307465
-2.2704306 1.9801331 2.5168202
-2.2466154 1.9821397 2.5392699
-2.2663798 2.0269887 2.5215039
-2.2439988 2.0304923 2.5457168
-2.2693632 2.0743105 2.5250299
-2.2779963 2.124393 2.518672
-2.243922 2.1258736 2.5390701
-2.2724602 2.1716526 2.5204918
-2.2426195 2.1596797 2.5430439
-2.3038929 2.238214 2.5067093
-2.2711556 2.2235808 2.5265775
-2.2461016 2.2344458 2.5419133
-2.269259 2.2684858 2.5229969
-2.2405658 2.2831931 2.542866
-2.2655618 2.3082917 2.5089014
-2.2275634 2.3246827 2.5290427
-2.2130702 2.3553476 2.5082211
-2.1665711 2.3629541 2.5313749
-2.1209788 2.3694739 2.5075436
-2.073174 2.3705266 2.5308781
-2.0254271 2.3744001 2.5259879
-1.973034 2.3773155 2.5225666
-1.9155357 2.383986 2.528264
-1.8775805 2.3937123 2.5362537
-1.825025 2.388572 2.5199878
-1.7719421 2.3843925 2.5257897
-1.7234247 2.3857994 2.5366669
1.7728368 2.3943973 2.5206177
1.8233029 2.3863482 2.5181477
1.874753 2.3791006 2.5158384
1.9255042 2.3811529 2.5283306
1.9661907 2.3830779 2.5333116
2.1260262 2.3932524 2.5005867
2.6706853 2.3980694 2.5367274
1.7774378 2.4005659 2.5271411
1.8083245 2.4011025 2.5497632
2.0213196 2.402468 2.5212259
2.077112 2.4055946 2.5278268
2.1199417 2.4067209 2.5269098
2.1838355 2.4193945 2.5485375
2.2184925 2.4173553 2.5212348
2.2761917 2.4261231 2.5296099
2.3213868 2.4209156 2.523068
2.3749807 2.4239521 2.5246859
2.4255712 2.4232671 2.5220449
2.47858 2.4243855 2.5210149
2.5279284 2.411876 2.5218608
2.5810952 2.4071438 2.5222492
2.6228685 2.4193344 2.5140252
2.6697669 2.4253263 2.5392318
-1.7399328 -0.60468912 2.5917523
-1.8005568 -0.59122121 2.5673826
-1.7966952 -0.59473151 2.5906148
-0.44994634 -0.55374712 2.5746114
-1.1619891 -0.51382935 2.5667059
-1.1463233 -0.52834004 2.5675709
-0.47130519 -0.54408652 2.5880218
-0.42628568 -0.53676754 2.5892899
-0.38607329 -0.51725662 2.5800021
-0.26749918 -0.5142228 2.5769053
-0.22189194 -0.52202708 2.5812767
-0.17765772 -0.53292054 2.5740824
-0.13456813 -0.53843462 2.5868056
-0.097355373 -0.54039162 2.597331
0.49331203 -0.50259042 2.5719774
0.52065587 -0.50472927 2.5796189
1.3819617 -0.51109654 2.5631015
1.4166049 -0.50485665 2.5749378
-1.1678203 -0.46917391 2.5602579
-1.1437247 -0.47910199 2.5771141
-0.3755877 -0.49044839 2.5548587
-0.23747344 -0.46674716 2.5752378
0.45096514 -0.4974702 2.5503402
1.4173214 -0.49382219 2.5934138
1.4802319 -0.49418101 2.569592
1.5285854 -0.4715701 2.5682795
-1.1704369 -0.44123012 2.5722437
-1.1450719 -0.44857427 2.5754256
-0.25547633 -0.40632254 2.5523429
-0.23861602 -0.42548805 2.5770707
1.5365374 -0.42162117 2.5780525
1.5573866 -0.42464519 2.559571
-0.36059228 -0.36779502 2.565968
-0.32867202 -0.36491656 2.578265
-0.27498767 -0.37616587 2.5685709
-0.24310592 -0.38649702 2.5880818
1.5399182 -0.37466207 2.5795841
1.5653216 -0.37399182 2.5571873
-0.35917079 -0.34978938 2.5878215
1.5398195 -0.32488102 2.5881019
1.5621276 -0.32376036 2.5667522
-2.0644937 -0.26339185 2.5550802
-2.0240777 -0.26912111 2.5774417
1.5436033 -0.27588195 2.5839531
1.5664949 -0.27503738 2.5636618
-2.0663855 -0.22191004 2.5577996
-2.0269439 -0.22006582 2.5508444
1.5417966 -0.22447494 2.5866759
1.5671009 -0.22605814 2.5642562
-2.0701392 -0.17531766 2.5592923
1.5427722 -0.17220214 2.58917
1.5679063 -0.1694255 2.5609231
-2.0713103 -0.12548371 2.560637
1.5406766 -0.12372223 2.587678
1.5671636 -0.12492374 2.5625863
-2.073957 -0.073516093 2.559881
1.5414532 -0.074477598 2.5882351
1.5608742 -0.075104684 2.5644803
-2.0657783 -0.031078402 2.5584867
1.5419102 -0.029967334 2.5888174
1.5679395 -0.02706976 2.5623627
-2.0905178 0.022974469 2.5527833
-2.0279696 0.0080153309 2.5735903
-1.9938444 0.037324797 2.5720513
1.5429813 0.018729834 2.5886834
1.568087 0.020959416 2.5625741
-1.9746952 0.081151679 2.5745149
1.5414468 0.075193696 2.5880775
1.5671617 0.076500446 2.5628324
-2.0933967 0.1494334 2.5526371
-1.9763296 0.12538214 2.5751345
1.5416169 0.11762003 2.5892632
1.5719612 0.12547338 2.5665762
1.617709 0.13955283 2.5823634
-2.0934083 0.16430874 2.5518789
-2.0482769 0.19258319 2.5508456
-1.9934511 0.16334943 2.5957847
1.5697784 0.15813254 2.5847909
1.6010569 0.15319914 2.5838883
-2.0764155 0.2235744 2.5553739
-2.042145 0.23786679 2.5682621
-2.1013188 0.29184479 2.5519805
-2.0750074 0.27637872 2.5635278
-2.0476553 0.26081663 2.5733864
-2.1039484 0.32959232 2.5513372
-2.0745773 0.32965815 2.5721002
-2.1124408 0.37595239 2.5564139
-2.082871 0.37600315 2.5772486
-2.0383766 0.37334919 2.578727
-0.41085699 0.36392963 2.5920784
-2.1124754 0.41348535 2.5515983
-2.0844471 0.4213689 2.5734034
-2.0060978 0.44729051 2.5849028
-2.0791137 0.45940566 2.5757375
-0.20883372 0.46769646 2.5808182
-0.19302207 0.48434934 2.5910175
-2.0813086 0.78167981 2.5712082
-2.1094759 0.82780796 2.5521872
-2.0824378 0.82919961 2.5777502
-2.1095662 0.88636076 2.5667596
-2.0848916 0.87707233 2.5864904
-2.1196978 0.93092728 2.5668836
-2.0937848 0.93315333 2.5947273
-2.1222274 0.97908604 2.5709703
-2.1191905 1.0211662 2.5735955
-2.0931983 1.0181296 2.5990925
-2.124886 1.0692903 2.5763588
-2.1509142 1.1019911 2.5509646
-2.1294904 1.1230079 2.5797746
-2.1547477 1.1835468 2.5581479
-2.1312139 1.1737652 2.5795677
-2.1640882 1.2285835 2.5528152
-2.1326292 1.2279419 2.5811729
-2.1640296 1.2674168 2.5621266
-2.134243 1.2788508 2.585546
-2.1626074 1.322026 2.5622668
-2.1331441 1.3236974 2.5890045
-2.1610227 1.3818595 2.5644903
-2.1402538 1.3676172 2.5857401
-2.1672671 1.4296795 2.5727258
-2.1466141 1.4023004 2.5912158
-2.1761212 1.4752195 2.572809
-2.173383 1.5223763 2.5772617
-2.2072749 1.5808673 2.5559442
-2.1772287 1.5724404 2.5758982
-2.1745689 1.6228313 2.5781169
-2.2091663 1.6767956 2.5571258
-2.1774397 1.6720024 2.5827241
-2.2096586 1.7251821 2.5561972
-2.1857793 1.7263017 2.5769136
-2.2068 1.7787622 2.5599189
-2.1813674 1.7750708 2.5853562
-2.2111778 1.8234499 2.560338
-2.1894114 1.826673 2.5840714
-2.2108486 1.8723162 2.5638688
-2.1902392 1.8685483 2.5873339
-2.2158852 1.9188256 2.5602698
-2.1914825 1.919943 2.5851223
-2.2158275 1.9774227 2.5669215
-2.1920562 1.9626083 2.5871835
-2.2199793 2.0237839 2.5739455
-2.1932299 2.0234041 2.5928404
-2.2293246 2.0785978 2.5691521
-2.1989717 2.0984211 2.5971491
-2.218864 2.1288505 2.5760524
-2.2302403 2.1826601 2.5727925
-2.2264175 2.2237294 2.5750358
-2.1998804 2.2422974 2.5898411
-2.2203498 2.2738316 2.5680401
-2.1882792 2.2761593 2.5904603
-2.208823 2.3245535 2.5706766
-2.1795948 2.3376667 2.576226
-2.1545782 2.3605628 2.5579414
-2.1278999 2.3626635 2.5710235
-2.0807807 2.3675084 2.586632
-2.0222754 2.369256 2.5736406
-1.9768189 2.3756888 2.5707362
-1.9299498 2.3797448 2.5648324
-1.8808446 2.3825293 2.5792642
-1.8366148 2.3887358 2.5746911
-1.7775798 2.3876581 2.5779335
-1.7339152 2.3889112 2.575228
-1.673406 2.3883698 2.5693209
-1.6387788 2.3882706 2.5886035
1.7041553 2.3951964 2.5622785
1.7694641 2.3958626 2.5651636
1.8342347 2.3945408 2.5649071
1.8690506 2.3973305 2.5754595
1.9155847 2.3935931 2.582422
2.0722749 2.3961039 2.5853751
2.5725994 2.3978355 2.5597293
1.6857214 2.4059668 2.5886903
1.7369398 2.4027798 2.5678685
1.7744129 2.4025426 2.5722523
1.8151803 2.4042339 2.5913715
1.957576 2.4028316 2.5845554
2.0182366 2.4062746 2.57955
2.0558338 2.4056551 2.5681682
2.1193025 2.4084237 2.5741932
2.171309 2.4119697 2.5782986
2.2292862 2.4206321 2.5642068
2.2731631 2.4194036 2.5771334
2.3218279 2.4174149 2.574101
2.3736434 2.4181459 2.5736084
2.4268355 2.4196682 2.5734634
2.4754858 2.4161029 2.5675642
2.5300999 2.4130056 2.5702848
2.5623837 2.4061904 2.5827756
2.6281681 2.4131556 2.5636909
2.6678238 2.4129024 2.5667887
2.732173 2.4152367 2.5903037
-1.8578387 -0.57222408 2.6355789
-1.8208394 -0.58563817 2.6133523
-1.7651753 -0.59231538 2.6230245
-1.7412621 -0.58838242 2.6268673
-1.134444 -0.52506554 2.6290455
-1.0906674 -0.54006928 2.6491306
-0.5010882 -0.54307204 2.6441345
