ply
format ascii 1.0
comment PCL generated
element vertex 1506
property float x
property float y
property float z
element camera 0
property float view_px
property float view_py
property float view_pz
property float x_axisx
property float x_axisy
property float x_axisz
property float y_axisx
property float y_axisy
property float y_axisz
property float z_axisx
property float z_axisy
property float z_axisz
property float focal
property float scalex
property float scaley
property float centerx
property float centery
property int viewportx
property int viewporty
property float k1
property float k2
end_header
-0.9808169 -0.37268969 3.6228139
-0.94772601 -0.36134353 3.6036818
0.18214948 -0.38011065 3.6065986
0.22181676 -0.38250694 3.6280558
-1.0696806 -0.31943998 3.6096859
-1.0299392 -0.32089677 3.6347439
-0.97948951 -0.31898117 3.6212242
-0.94626921 -0.31677908 3.6008925
0.18760946 -0.32830983 3.6102154
0.22176963 -0.33028361 3.6306508
-1.0691097 -0.27490568 3.6101966
-1.0290614 -0.27607307 3.6340742
-0.97918499 -0.27457884 3.6225033
-0.9423821 -0.28612235 3.6052885
0.1857949 -0.27635458 3.6113415
0.22203326 -0.27844784 3.6376541
-1.0699376 -0.23071551 3.6150525
-1.029511 -0.23160948 3.6376674
-0.97854334 -0.23078693 3.6337507
-0.94568729 -0.24620588 3.6023078
-0.7543329 -0.2116634 3.6445587
0.18563031 -0.22432238 3.6103954
0.22010884 -0.22607701 3.6372223
-1.0782443 -0.17734556 3.6133604
-1.0488216 -0.17838772 3.6414061
0.18189959 -0.17004742 3.6116092
0.22832595 -0.17165409 3.6379199
-1.1132631 -0.13290046 3.605751
-1.0766785 -0.12432873 3.6222847
-1.0495042 -0.14277481 3.644829
0.18565814 -0.12079221 3.6141808
0.23040459 -0.1216195 3.6373358
-1.077014 -0.072794206 3.6243305
0.18365243 -0.062007785 3.609488
0.22959253 -0.067077041 3.626055
-1.0800958 -0.026516758 3.6223984
-1.0497351 -0.035593562 3.6473172
0.17723836 -0.025881564 3.6194546
0.22614039 -0.030377598 3.6405668
-1.1116241 0.017876692 3.6019461
-1.0805736 0.017937291 3.623965
0.17700602 0.017301826 3.6145656
0.2249357 0.014561127 3.6443799
-1.0805001 0.071300611 3.6232677
0.13642307 0.080433168 3.6079209
0.17955545 0.071415186 3.6223037
0.21324939 0.069645531 3.643223
-1.0755478 0.1138384 3.6184711
-1.0475659 0.12497068 3.6383483
-1.0574567 0.28334177 3.6016095
-1.025809 0.2755219 3.6223686
-0.77494323 0.27398947 3.6187453
-1.0582438 0.31899258 3.6022396
-1.0335687 0.31820363 3.6283832
-0.83806342 0.33361799 3.6057866
-1.0599952 0.36385578 3.6053607
-1.0296892 0.37463164 3.6299748
-0.82672352 0.35382953 3.6346626
-1.0611556 0.43531057 3.6039391
-1.0315901 0.42891753 3.6326807
-1.0644182 0.48121628 3.6111462
-1.0333304 0.47437987 3.6350129
4.05966 0.46328831 3.6184671
-1.0583116 0.52713549 3.618305
-1.032292 0.51711643 3.6385024
-1.0644827 0.57562411 3.6206212
-1.0389208 0.57591599 3.6448488
-1.0618953 0.62752753 3.6198235
-1.0411669 0.63122964 3.6466215
-1.0714335 0.67654783 3.6139998
-1.0410399 0.67623186 3.6406622
-1.0693005 0.72611523 3.6219256
-1.042622 0.72241098 3.6402435
-1.077703 0.77587128 3.6219876
-1.0471034 0.78897822 3.646873
4.0419941 0.77260274 3.6479735
4.060884 0.78381258 3.6172104
-1.0820471 0.82618374 3.619899
-1.0474682 0.81647003 3.6440308
4.0420485 0.80931705 3.6410902
4.066349 0.82157469 3.614985
-1.0806255 0.87250429 3.6252997
4.0635395 0.87251568 3.6252615
-1.0790755 0.92322528 3.6219823
4.061491 0.91792732 3.6213789
-1.1024958 0.98032099 3.606849
-1.0722989 0.97070795 3.6380007
4.0636253 0.97357666 3.6264405
-1.1123832 1.0322815 3.6085827
-1.0828823 1.0238197 3.6311071
4.0741978 1.025427 3.6241331
-1.1141288 1.0779414 3.610796
-1.0861559 1.0727487 3.6328621
4.0703783 1.0769963 3.6312406
-1.1135114 1.1276071 3.6148
-1.0860487 1.1225656 3.6367691
4.0787048 1.1287372 3.6257129
-1.1089503 1.1800847 3.6143124
-1.089517 1.1682634 3.6357365
4.0283747 1.1866953 3.6322989
4.0803928 1.1787814 3.6136405
-1.1111645 1.2268363 3.6179712
-1.0891623 1.2239375 3.644968
4.0692186 1.2324055 3.6353762
-1.1182927 1.2792199 3.6153343
-1.0911955 1.2726786 3.6405196
4.0685287 1.2790575 3.6289177
4.1258416 1.2757638 3.6055825
-1.1236967 1.3255121 3.6166282
-1.0949322 1.3236632 3.6411555
4.0355029 1.3205142 3.6478393
4.081419 1.3233833 3.6199651
-1.1208903 1.3778845 3.6254282
-1.0992382 1.3662761 3.6456525
4.0786781 1.3765284 3.6247284
-1.1522453 1.4372554 3.6025631
-1.1171364 1.4267559 3.6309659
-1.0850037 1.428316 3.6493142
4.0794482 1.4213648 3.6270611
-1.1563858 1.470541 3.6072888
-1.1252837 1.4789057 3.6364105
4.0824089 1.4671825 3.6309593
4.1019697 1.4849797 3.6118052
-1.1592129 1.5022848 3.6076994
-1.1338993 1.5228564 3.6302631
4.0675673 1.5264863 3.6279867
4.1033483 1.5106363 3.604255
-1.1348417 1.5757316 3.62939
4.081533 1.5737807 3.6252868
-1.1523752 1.6223822 3.6168971
-1.1307105 1.6244341 3.6354787
4.0781503 1.6262273 3.6189547
-1.1669769 1.6772057 3.6145868
-1.1419526 1.6728427 3.6358409
4.0708728 1.6806388 3.6239259
-1.1726156 1.7331804 3.6153102
-1.1482224 1.7204815 3.6425745
4.0647802 1.7146883 3.6377444
-1.165851 1.775853 3.6232209
4.0636716 1.7729129 3.6301315
-1.163711 1.8258655 3.6237392
-1.1407084 1.8451456 3.6460075
4.0692391 1.8239208 3.623564
-1.1758779 1.8766464 3.6264622
4.0774312 1.8763944 3.6188221
-1.1831763 1.9232721 3.619664
4.085865 1.9269843 3.6233513
-1.1757187 1.9705259 3.6243219
4.0791292 1.9684266 3.6235766
-1.2155761 2.0479872 3.6098437
-1.1837324 2.0266995 3.6310747
4.0732989 2.0318987 3.6319678
4.1034598 2.0126786 3.6047063
-1.2129647 2.0876453 3.6087914
-1.1776812 2.0693672 3.6324463
4.0824699 2.0796082 3.6203129
-1.2149866 2.1331954 3.608994
-1.18141 2.1150236 3.6374042
4.0756555 2.1151767 3.6310992
4.101666 2.1282568 3.601701
-1.2092617 2.1804225 3.6055837
-1.1876382 2.1728635 3.6353152
4.0745363 2.1733601 3.6286273
-1.1876256 2.2257311 3.624161
4.0400434 2.2147691 3.6486597
4.0775447 2.2250867 3.6159079
4.1042862 2.2476397 3.6001809
-1.2005745 2.2914577 3.6007521
-1.1799786 2.2781932 3.6279023
4.0709066 2.276907 3.627229
-1.1721965 2.3149755 3.6184893
-1.1416955 2.3348794 3.6360645
-1.0767378 2.3463688 3.6356459
-1.0260553 2.3460872 3.6467135
4.0809608 2.3219075 3.6164627
-1.1099148 2.352433 3.63784
-1.0612569 2.3547096 3.6094296
-1.0228659 2.358968 3.6250916
-0.98126525 2.3709638 3.6213386
-0.9261086 2.363667 3.6103597
-0.87893677 2.3713543 3.6318991
-0.82577741 2.3730292 3.6232889
-0.77530825 2.3736863 3.628793
-0.72161639 2.3697515 3.6145504
-0.66829765 2.3797088 3.6277964
-0.6228736 2.3926976 3.6233363
-0.55980998 2.3795383 3.6383502
-0.52440113 2.3763494 3.6238158
-0.46645409 2.3778429 3.6288152
-0.42014521 2.3733146 3.6160662
-0.37026596 2.3705153 3.6159537
-0.32256103 2.3830533 3.6387579
-0.2718499 2.3783031 3.6245961
-0.2188731 2.3774221 3.6226728
-0.17352541 2.3812439 3.6437867
-0.12306783 2.3649795 3.6204648
-0.074195072 2.3818402 3.6372488
-0.024736198 2.3795371 3.6443086
0.024786865 2.3801401 3.635215
0.064379953 2.3757868 3.6382077
0.12844437 2.3765712 3.6280601
0.18356667 2.3813429 3.6436107
0.22208561 2.3690403 3.6230667
0.27194762 2.3734922 3.6273036
0.32141292 2.3736403 3.6243982
0.37081659 2.3735406 3.620626
0.4208276 2.3668246 3.6263258
0.46727586 2.364702 3.6254559
0.5218038 2.3758075 3.6301212
0.57244456 2.3697753 3.6353517
0.63244641 2.3709488 3.6294787
0.68134546 2.3678644 3.6177375
0.72717726 2.3625953 3.6274753
0.77485979 2.3601103 3.6325674
0.83217585 2.3525491 3.6105824
0.87534541 2.3615079 3.61694
0.92774624 2.3675807 3.6164172
0.98051208 2.3686159 3.6357381
1.0233502 2.3699026 3.6213939
1.0778929 2.3689852 3.6290188
1.1324257 2.3633747 3.6212738
1.1735623 2.3680782 3.6260395
1.2213124 2.3719733 3.627373
1.2719635 2.3709106 3.6265743
1.3322386 2.3744094 3.6303093
1.3769608 2.3747396 3.6204472
1.4281558 2.3724771 3.6282234
1.4785761 2.3706324 3.6086669
1.5252779 2.3764453 3.631253
1.5776926 2.3752046 3.629859
1.6190478 2.3643284 3.619729
1.8449619 2.3692923 3.6137476
1.8855987 2.3699455 3.6230555
1.9669087 2.367728 3.6085885
2.0235369 2.3842387 3.6137938
2.0707555 2.3800223 3.6367226
2.1202064 2.3761201 3.6322486
2.1987526 2.3682327 3.6042755
2.2819791 2.3766828 3.6338577
4.0661082 2.3809578 3.6228914
2.724335 2.4003694 3.6020677
4.0253658 2.4195247 3.6356182
0.27743846 -0.51942396 3.6609998
0.23271693 -0.42131981 3.6601899
0.2507588 -0.42214355 3.6664951
0.24987406 -0.36805901 3.6572409
0.2503503 -0.36873671 3.6641855
0.25107133 -0.32578975 3.6774426
0.25195318 -0.28271782 3.6926847
-0.97811943 -0.21426322 3.6561174
-0.92448211 -0.21426827 3.6653235
-0.88184732 -0.21476558 3.6810417
-0.81646836 -0.21406649 3.6784694
0.23151043 -0.22701164 3.6521683
-1.0187271 -0.17937848 3.6684935
-0.98783827 -0.18029995 3.6936977
0.25149623 -0.19402221 3.6896598
-1.0509038 -0.10718811 3.6504881
-1.0192966 -0.12559742 3.672025
-0.98868537 -0.14434202 3.6979206
-1.0519297 -0.062534109 3.6547117
-1.0204567 -0.071792014 3.677094
0.23168927 -0.087349348 3.6588054
-1.0519269 -0.017761584 3.6550086
-1.0202417 -0.026832165 3.6767328
0.23996934 -0.017395962 3.6520994
-1.0512439 0.018031232 3.6525908
-1.021049 0.018129028 3.6796656
0.24326698 0.023369359 3.6575396
-1.0523621 0.071798094 3.6559966
-1.021118 0.07211066 3.6793909
0.23293312 0.07035584 3.6785729
-1.0519888 0.10759049 3.6541057
-1.0194545 0.11691114 3.6725914
-0.98708272 0.11731312 3.6923769
-1.0001464 0.26925901 3.6654265
-0.97628385 0.27910343 3.6814432
-0.87328804 0.2778075 3.681
-1.0085362 0.33187151 3.6581919
-0.98015314 0.32155091 3.6784196
-0.87581033 0.32355097 3.6891496
-0.8015756 0.32256368 3.6891358
-0.7988714 0.33933008 3.6756139
-1.0015922 0.38644099 3.6636286
-0.97297126 0.37712654 3.6844287
-1.0009149 0.43106928 3.6577394
-0.97777271 0.42373359 3.6776538
-1.0028437 0.47687486 3.6610141
-0.98047727 0.47010574 3.6840954
4.0453801 0.46438536 3.6509135
-1.0089768 0.52272701 3.6619725
-0.98291856 0.52565444 3.6882803
-1.0155231 0.57795137 3.6629679
-0.98851883 0.57609171 3.6863937
-1.0172936 0.62416339 3.6643059
-0.98450309 0.62201554 3.691381
-1.0189542 0.67049056 3.6648543
-0.99788338 0.67460364 3.6924279
-1.0155858 0.72504359 3.6718576
-0.9987396 0.74815416 3.6860178
-1.0240839 0.7740441 3.6698916
-0.99966651 0.76711112 3.6868737
-1.0501761 0.83676988 3.650615
-1.018543 0.82244247 3.6776776
4.0575967 0.83699501 3.6502635
-1.0521069 0.87476701 3.6514122
-1.0224901 0.87639254 3.6748564
-1.0551467 0.92296773 3.654213
-1.0214181 0.92398345 3.6821923
4.040432 0.91230893 3.6650906
-1.0576997 0.98932034 3.6514328
-1.0273675 0.97253793 3.6764321
4.0407128 0.96159869 3.6543736
4.0568676 0.99015522 3.6632562
-1.0604302 1.0286239 3.6537778
-1.0338067 1.02645 3.675276
4.0593033 1.0278356 3.6565661
-1.0623968 1.0765235 3.6513295
-1.0388588 1.0771277 3.6792393
4.0447717 1.0675681 3.6801777
4.0571418 1.0956994 3.6850903
-1.0614285 1.1342322 3.6593611
-1.0424734 1.121611 3.676296
4.0527267 1.1317694 3.671279
-1.062246 1.1785772 3.6645765
-1.0377904 1.1731133 3.6841717
4.0458713 1.1670504 3.6549919
-1.0672948 1.2249448 3.6652889
-1.0421873 1.2248269 3.6891279
-1.0682344 1.2751729 3.6713402
-1.0468136 1.2772352 3.6942747
4.0399075 1.2970383 3.6595001
4.0596972 1.2658457 3.6887007
-1.0692068 1.3259414 3.6771679
4.0491123 1.3499417 3.652297
-1.0714636 1.3733572 3.6788507
4.0595012 1.3784443 3.6536562
-1.0694902 1.4188907 3.6835568
4.0657582 1.4056469 3.6511159
-1.0861728 1.4739622 3.6706719
4.0551586 1.4735372 3.6667342
-1.1080167 1.541254 3.6648717
-1.0801368 1.5231651 3.678983
4.0527449 1.5103962 3.6514485
-1.1104416 1.573235 3.6640415
-1.0781645 1.5707874 3.682745
4.0383892 1.5648264 3.666784
4.0573654 1.5975205 3.6747212
-1.1139023 1.6212018 3.6617613
-1.0805944 1.6238256 3.6885133
4.0564079 1.6351454 3.6596308
-1.1182704 1.6774721 3.6673336
-1.0946703 1.6690514 3.6889563
4.0409112 1.6517719 3.6873677
-1.1198342 1.7320629 3.6702588
-1.0911661 1.7154676 3.6861763
4.0531082 1.7204391 3.6737447
-1.1209368 1.7766758 3.6744678
4.0524845 1.7583908 3.6579242
-1.125358 1.8226782 3.6747935
-1.1288712 1.8772126 3.667757
4.0543132 1.8984759 3.6527579
-1.1512935 1.9308908 3.6531472
-1.1224151 1.921039 3.6796525
4.0644722 1.9289463 3.6507442
-1.1575547 1.9808352 3.6570382
-1.1284164 1.974174 3.6822281
4.0441108 1.9829222 3.6562705
-1.1601756 2.0149341 3.6530235
-1.130698 2.0258431 3.6812584
4.0556936 2.0144236 3.6550944
-1.1501168 2.0719001 3.6718743
-1.1285522 2.0749962 3.6828108
4.0393777 2.0708661 3.6633596
-1.1601424 2.1312726 3.6575069
-1.129234 2.128686 3.6908264
4.0485439 2.1015084 3.6595418
4.0558171 2.1312742 3.6538377
-1.1660355 2.1755857 3.6608803
-1.1435521 2.1871071 3.6796203
4.0405512 2.1759462 3.6681566
-1.162937 2.2259738 3.6534367
-1.1384506 2.2270808 3.6840813
-1.1346453 2.2768977 3.6743615
4.0423708 2.2697253 3.6782341
4.0574999 2.25051 3.651525
-1.1192842 2.3207912 3.6711431
-1.0911624 2.3258944 3.6864798
-0.99481457 2.3475502 3.6997354
-0.9260928 2.3489339 3.6722796
3.9985926 2.3402479 3.6992118
4.0272741 2.3285575 3.6850562
4.0513802 2.3273749 3.6599245
-1.0780371 2.351043 3.687274
-1.0294712 2.3539045 3.6588156
-0.9709484 2.3646591 3.678169
-0.92531186 2.3671267 3.6588767
-0.87365681 2.3642249 3.6641142
-0.82264 2.3628738 3.6711073
-0.773597 2.3772886 3.6813006
-0.73037308 2.378269 3.6685121
-0.68015146 2.3788996 3.6769817
-0.62663066 2.3870883 3.6554632
-0.58227938 2.3751469 3.6735907
-0.52409214 2.3785465 3.6822569
-0.48609662 2.3761375 3.6755908
-0.42450052 2.3781676 3.6639829
-0.38081384 2.380877 3.6821811
-0.32514709 2.382133 3.6779575
-0.27422181 2.373955 3.6684361
-0.22405413 2.3711028 3.6666455
-0.17451097 2.3751509 3.6749694
-0.12476695 2.3771176 3.6795878
-0.074731432 2.3736179 3.6751907
-0.02490939 2.3802419 3.6859868
0.025116744 2.3832786 3.6906738
0.078117296 2.3794701 3.6706727
0.12457943 2.3716307 3.6710894
0.17150964 2.3841372 3.6754472
0.22453459 2.3751419 3.6728971
0.27410835 2.3724563 3.6661685
0.32868466 2.3697934 3.6750214
0.37095413 2.3691809 3.668258
0.43644351 2.3680639 3.6884434
0.47523406 2.3616385 3.6746356
0.52730829 2.3705292 3.683182
0.57784873 2.3720512 3.6797595
0.62150693 2.3712049 3.6624637
0.67068064 2.3705029 3.6861386
0.77397394 2.3679094 3.6875317
0.82219154 2.3776197 3.6808262
0.87134594 2.3663502 3.6787989
0.92188704 2.3615959 3.6766217
0.9684999 2.3635433 3.666079
1.0243199 2.3651145 3.6786001
1.0814267 2.3780718 3.6724501
1.1175973 2.3689153 3.6783235
1.1803855 2.3717363 3.6975031
1.2205921 2.3698344 3.6838846
1.2724875 2.3705058 3.6710806
1.3200612 2.3688707 3.6701956
1.372201 2.3619401 3.6737545
1.4262598 2.3657737 3.6638782
1.4775419 2.3689218 3.6688011
1.5227292 2.3660073 3.6804562
1.5767902 2.368655 3.6666489
1.6266394 2.3802741 3.6697054
1.6680299 2.373157 3.6909518
1.9418035 2.3677418 3.6724432
1.9615844 2.365665 3.6596799
2.0102262 2.3723629 3.6504378
2.0736868 2.3741133 3.6781271
2.1202531 2.38978 3.6865978
2.1743937 2.3791907 3.6946464
3.9903181 2.3843539 3.6845338
4.0266771 2.3808441 3.6573985
3.9857945 2.4272892 3.6933565
4.0116367 2.4270446 3.6699629
0.25251487 -0.28337899 3.7009435
-0.93456078 -0.20048022 3.7435939
-0.86213005 -0.21656443 3.7160511
-0.8401323 -0.21555606 3.701437
0.25265658 -0.23036398 3.7053654
-0.96536517 -0.18118222 3.7162001
-0.94394469 -0.17316483 3.743984
-0.76278824 -0.19850644 3.7307334
-0.7302556 -0.18660598 3.7386167
-0.97293371 -0.12460801 3.7194955
-0.94417381 -0.12759359 3.7460697
-0.71847075 -0.12643225 3.7430992
-0.97519779 -0.072456241 3.7200444
-0.94448763 -0.091137119 3.7480199
-0.71954864 -0.072323151 3.7496476
-0.97478741 -0.027074479 3.7188072
-0.94399434 -0.018118596 3.7467215
-0.71881413 -0.027038755 3.7461777
-0.9747979 0.018262578 3.7188492
-0.94333375 0.036584601 3.743973
-0.71944278 9.1590635e-05 3.7495077
-0.97562516 0.072745621 3.7215784
-0.94418603 0.063992687 3.7470856
-0.71955329 0.054403622 3.7497888
0.25255188 0.070908152 3.707845
-0.96586895 0.11802523 3.7196434
-0.93583298 0.12146001 3.7379844
0.14777938 0.14327516 3.7490716
0.17456283 0.14321341 3.746681
0.094087407 0.17911379 3.7498558
0.13830096 0.16949318 3.7344785
0.17400363 0.16952081 3.734056
0.20039938 0.16030911 3.7267141
-0.95495409 0.28981102 3.7075672
-0.92251301 0.28191742 3.7294521
-0.95441931 0.32583001 3.7034378
-0.9234758 0.32770282 3.7308149
-0.79523814 0.34550589 3.7451279
-0.15549423 0.32899493 3.715189
-0.13787366 0.32051226 3.7204392
-0.92616844 0.37712887 3.727669
-0.88547969 0.36343142 3.7276359
-0.81121916 0.36270553 3.7312737
-0.15618248 0.37509593 3.7288399
-0.9562127 0.42617118 3.7035661
-0.92475688 0.41928104 3.7298265
-0.95755154 0.47215891 3.7050169
-0.92646492 0.4748472 3.7323511
-0.95915228 0.52751559 3.7062309
-0.9382593 0.52643222 3.7291412
-0.96739131 0.57729739 3.7086699
-0.93683207 0.57163954 3.7342849
-0.96364087 0.62134135 3.7139904
-0.94000578 0.62384725 3.7337263
-0.96697479 0.67850316 3.7204165
-0.93397975 0.6811493 3.7413437
-0.96967816 0.72637862 3.7249897
-0.9706285 0.77309012 3.7222769
-0.97592956 0.82531071 3.7246754
-0.97599995 0.87254757 3.7284915
-0.9777922 0.92714238 3.7265832
-0.98374319 0.9738431 3.7265613
-1.0075951 1.0265098 3.7111158
-0.98991209 1.0229696 3.7381463
-1.0096365 1.079764 3.7085421
-0.98592687 1.075007 3.7314994
-1.0127296 1.1297593 3.7102535
-0.98990965 1.126295 3.7369545
-1.0175723 1.1761417 3.7114017
-0.99116689 1.1747106 3.731636
-1.0167226 1.2245847 3.7125371
-0.99656147 1.2283746 3.7413089
-1.0218801 1.2718616 3.7139018
-0.98948312 1.2786669 3.7409682
-1.051351 1.3204739 3.7009518
-1.0221953 1.3191726 3.7270954
-0.99924213 1.3074471 3.7333527
-1.0265058 1.3709215 3.7241952
-1.0604217 1.4460304 3.7025299
-1.0288898 1.419376 3.7276649
-1.0632246 1.478476 3.7042093
-1.0349106 1.4752152 3.7293739
-1.06496 1.5095463 3.7019622
-1.0329542 1.525118 3.730294
-1.0523801 1.5670339 3.7146182
-1.0358956 1.5712049 3.7283492
-1.0592507 1.6256787 3.7238128
-1.0351638 1.6154171 3.73932
-1.0717521 1.678502 3.7160742
-1.0467169 1.6752721 3.7396851
-1.066467 1.7245045 3.7205811
-1.0401256 1.7194355 3.74015
-1.0735193 1.7746732 3.7198055
-1.0360998 1.7682972 3.749563
-1.075671 1.8277866 3.7215598
-1.079628 1.8772707 3.7194376
-1.102021 1.927932 3.7064168
-1.075935 1.9244207 3.7291017
-1.1041601 1.9613856 3.7019112
-1.0740951 1.9762063 3.730279
-1.1093982 2.0105083 3.7033606
-1.0783446 2.0234606 3.7261548
-1.1000204 2.0902267 3.7183716
-1.0859846 2.0756471 3.7248967
-1.102922 2.1259942 3.715066
-1.0763042 2.1331346 3.7343376
-1.117414 2.1749153 3.7095342
-1.0888784 2.1683526 3.7271554
-1.111027 2.2228103 3.7057607
-1.0883434 2.2284713 3.7347188
-1.1148623 2.261045 3.7042265
-1.080179 2.2772045 3.7328026
-1.0680132 2.3217013 3.7294145
-1.0456631 2.3393769 3.741951
3.9471266 2.3407547 3.7462158
3.9729528 2.3273971 3.7296054
-1.0604819 2.3574457 3.7019715
-1.0234231 2.3562574 3.730401
-0.96686649 2.354058 3.7163177
-0.92398471 2.3645115 3.7274959
-0.87545389 2.3763134 3.7267084
-0.8238709 2.3752446 3.7341061
-0.77679092 2.3771887 3.7342567
-0.72870618 2.3857269 3.7232144
-0.67633539 2.3807654 3.7229106
-0.62912703 2.3872395 3.722625
-0.54462123 2.3829408 3.7429969
-0.45960215 2.3847678 3.7125497
-0.43305722 2.3800442 3.7215478
-0.37288526 2.3832901 3.7316167
-0.32884759 2.3890224 3.7298636
-0.27782127 2.3848152 3.7264206
-0.22643861 2.3763216 3.7157793
-0.17699639 2.3873794 3.7351456
-0.12563044 2.3738751 3.7155995
-0.075693652 2.3832114 3.7312391
-0.02528896 2.3922768 3.7459755
0.025315402 2.3839018 3.7328463
0.076022431 2.3908036 3.7431507
0.12660392 2.3903615 3.741399
0.17641641 2.3790908 3.7222152
0.22594585 2.3698866 3.7057219
0.28127977 2.3783617 3.7300308
0.31485799 2.3708153 3.72999
0.38254008 2.3730619 3.7287436
0.40924194 2.3748674 3.7224805
0.46172488 2.374872 3.7387323
0.52285433 2.3761873 3.7346597
0.57309496 2.3738253 3.7252033
0.62321448 2.3717246 3.7156641
0.69695634 2.3711059 3.725955
0.72910446 2.3763731 3.729717
0.76901126 2.3635936 3.7242885
0.82314038 2.3728688 3.7304375
0.88155872 2.3649511 3.7071402
0.90768737 2.3594995 3.7370517
0.98795974 2.3757839 3.7039819
1.0258565 2.3719563 3.7339206
1.0736165 2.3635283 3.7092783
1.144963 2.3734212 3.7317896
1.1785359 2.3783796 3.7319424
1.2300981 2.3778121 3.7177582
1.2756131 2.3750029 3.7237909
1.3221325 2.3696868 3.7328308
1.3779366 2.3688416 3.7309282
1.4206859 2.3702521 3.720572
1.4690629 2.3807788 3.7240036
1.51072 2.3589854 3.7200994
1.5702214 2.3693738 3.718812
1.6257511 2.3697939 3.7298725
1.6824102 2.372237 3.7338943
1.7163322 2.3748643 3.7261441
1.9659679 2.3754053 3.7297509
2.0243349 2.3709693 3.749383
2.0715921 2.3748641 3.7354784
2.1170013 2.3765249 3.7173679
3.9596615 2.3781435 3.7238102
0.27837554 -0.51089394 3.7967396
0.33098638 -0.52574611 3.7679152
-0.90963447 -0.20101997 3.7580824
-0.8774066 -0.20203336 3.7826893
-0.83183384 -0.20212322 3.7911282
-0.79593241 -0.20003439 3.7557778
-0.91876519 -0.17358716 3.7574656
-0.88111031 -0.17630973 3.7830215
-0.77066761 -0.17318587 3.7702596
-0.73044723 -0.16325 3.7561285
-0.92046636 -0.12811379 3.7656078
-0.88763505 -0.12866782 3.7876904
-0.7672646 -0.12320848 3.7778168
-0.73958325 -0.12696403 3.756201
-0.92779821 -0.070909619 3.7673833
-0.88848305 -0.073543184 3.792244
-0.8035928 -0.091744736 3.7946725
-0.772995 -0.073086955 3.7836714
-0.73278916 -0.072569266 3.7603416
-0.92691296 -0.029214438 3.7699509
-0.89741534 -0.027498273 3.7899909
-0.77348745 -0.027357852 3.7864597
-0.73961616 -0.027129285 3.7576649
-0.92801124 0.016169135 3.7686357
-0.8902874 0.014846663 3.7921708
-0.77255648 0.014758614 3.7911766
-0.73421133 0.021942331 3.7680345
-0.92430389 0.076005079 3.7654705
-0.89771342 0.07379058 3.7907603
-0.76662785 0.055190556 3.7989402
-0.91688496 0.11607324 3.764014
-0.8833217 0.12434036 3.7895689
-0.067431681 0.14407411 3.7715158
-0.049696915 0.14485599 3.7921712
0.028737171 0.12070078 3.7914493
0.077168345 0.14515683 3.7997472
0.12179653 0.14435324 3.7779193
-0.076241523 0.16171575 3.7624893
-0.037500516 0.16834255 3.7777207
0.04085651 0.16315494 3.7963567
0.07317818 0.16972537 3.7808979
0.1120429 0.16127804 3.7517221
-0.78090882 0.29241735 3.7694681
-0.79786384 0.31928223 3.7591114
-0.87506294 0.38501298 3.7626438
-0.13915806 0.35938117 3.7529659
-0.9110769 0.43968692 3.7500589
-0.88168383 0.42375916 3.778265
-0.88813925 0.47877693 3.77073
-0.9142648 0.52394474 3.7560139
-0.88031393 0.52323282 3.7861202
-0.91062915 0.57595474 3.7677722
-0.88865197 0.56951869 3.7850642
-0.91372192 0.62603211 3.7753441
-0.88676202 0.61304104 3.793087
-0.91575599 0.67045146 3.7734277
-0.88886678 0.6796627 3.7945852
-0.92241222 0.72335333 3.7677851
-0.8904894 0.72753578 3.7956498
-0.92623681 0.77792323 3.7662442
-0.88110363 0.7647922 3.7919321
-0.92417204 0.82531255 3.7724862
-0.89280152 0.81358033 3.7939301
-0.96221435 0.87415749 3.7504818
-0.93080044 0.87511247 3.7709184
-0.92870945 0.92299843 3.7762871
-0.95929831 0.98932451 3.7720172
-0.93486989 0.97374392 3.7818336
-0.96385264 1.025286 3.7707314
-0.93244195 1.0192274 3.7908561
-0.96584702 1.0745473 3.7694597
-0.93359011 1.0748478 3.7908154
-0.96612698 1.1219794 3.7610347
-0.93381512 1.1190104 3.7914047
-0.96879154 1.1723698 3.7613924
-0.94440174 1.1677862 3.7842889
-0.97277784 1.2246515 3.7663419
-0.94352305 1.215497 3.7912965
-0.96892786 1.2685521 3.7607641
-0.94908059 1.2689831 3.7816334
-0.96796513 1.3256692 3.7759454
-1.0075006 1.3660268 3.7521582
-0.97544903 1.3749726 3.771008
-1.0121223 1.43946 3.7515731
-0.97556007 1.428874 3.7801127
-1.0138218 1.4611032 3.7525818
-0.98448485 1.4767164 3.7772033
-1.0071722 1.5216962 3.7635772
-0.98541808 1.5246931 3.7848005
-1.0117488 1.5758188 3.7610154
-0.9855693 1.5637867 3.7740228
-1.0153941 1.6316295 3.7649114
-0.98815197 1.6295091 3.7872577
-1.0209622 1.6712039 3.7614942
-0.9898839 1.6759659 3.7875938
-1.0195583 1.723744 3.7643917
-0.99918079 1.7133995 3.7861319
-1.018442 1.7774957 3.7736065
-0.98715276 1.7863482 3.7995174
-1.0245849 1.825395 3.7684858
-1.0298548 1.8746014 3.7734749
-1.0514143 1.9240601 3.7578897
-1.0233406 1.9252617 3.780787
-0.99800861 1.9264073 3.7980392
-1.0529307 1.9567783 3.7517822
-1.0210658 1.9757284 3.7885263
-1.0597281 2.0297079 3.7519705
-1.0287278 2.0278311 3.7833469
-1.0629458 2.0661206 3.7508845
-1.0386492 2.0780144 3.7788732
-1.0571591 2.1184504 3.7654667
-1.0274155 2.1268647 3.7875614
-1.0637655 2.1793203 3.7682021
-1.0379508 2.1788838 3.780658
-1.0643778 2.2146628 3.7551355
-1.0347246 2.2310107 3.775465
-1.0315671 2.2807753 3.7846596
-1.0213031 2.3190196 3.7726452
-0.9840613 2.3390114 3.7918603
-0.94990379 2.3470035 3.7971232
3.8958831 2.3414192 3.7931328
3.9230075 2.3288181 3.777977
-0.97868621 2.3620913 3.7718692
-0.9196403 2.3619251 3.771914
-0.87663132 2.370558 3.7757444
-0.82066661 2.3750989 3.7781856
-0.7689417 2.3746972 3.7859292
-0.72528934 2.3772924 3.7749798
-0.67310208 2.3849897 3.7731564
-0.62464178 2.396163 3.7976549
-0.57846195 2.3862805 3.765816
-0.52731395 2.383317 3.7739289
-0.4755604 2.3939099 3.7676773
-0.42069101 2.383635 3.781858
-0.37007818 2.3816192 3.7855194
-0.32234141 2.3955095 3.7825928
-0.26997542 2.3848727 3.7688637
-0.22925293 2.385994 3.7726986
-0.17865589 2.3849568 3.7836897
-0.12759577 2.3905854 3.783637
-0.0560751 2.3887205 3.7820177
-0.025433376 2.3864346 3.7786412
0.025533717 2.3772707 3.7746463
0.076342493 2.3806899 3.7690282
0.12761168 2.3889008 3.7809656
0.17755644 2.3741002 3.7559958
0.21862172 2.3794394 3.7628145
0.25968462 2.3833952 3.7671032
0.3213945 2.3671155 3.7798257
0.37214008 2.3723783 3.7705524
0.42808041 2.3811798 3.7802031
0.48249269 2.3802969 3.7737324
0.53665465 2.3718739 3.7688415
0.57694548 2.3694351 3.7603133
0.62849236 2.371347 3.7570858
0.66994476 2.3733273 3.7547894
0.72553986 2.3674443 3.7806778
0.76996207 2.3775427 3.7905581
0.82295537 2.3814311 3.7883625
0.86687946 2.3690128 3.7713144
0.94029689 2.3902581 3.7818046
0.9755519 2.3848028 3.7807415
1.0086572 2.3743334 3.7714202
1.0681297 2.376586 3.7775052
1.1187776 2.3738713 3.776706
1.1691313 2.3702915 3.7739704
1.2235812 2.3794897 3.7800245
1.2780416 2.3779664 3.7748473
1.3284374 2.3740318 3.7542214
1.3770946 2.3645031 3.7710247
1.4251289 2.3741786 3.7739694
1.4736645 2.3702872 3.7642045
1.5302143 2.3679938 3.7787309
1.5754011 2.371944 3.7709489
1.6145409 2.3609238 3.787452
1.6624409 2.3680532 3.78387
1.7166293 2.3685999 3.7652054
2.0230203 2.3711667 3.7779131
2.1265411 2.3774426 3.7706442
2.1997736 2.3743944 3.786319
2.2189229 2.37095 3.7698326
3.886524 2.3848941 3.7770321
3.9222822 2.3678632 3.7567093
-0.50776976 2.4012473 3.7761626
3.9358566 2.4024653 3.7557704
0.29913816 -0.51522255 3.8280039
0.32597703 -0.51403165 3.8176861
0.35518876 -0.51644093 3.8339865
0.28540671 -0.48312545 3.832231
0.32492945 -0.48333988 3.844347
0.28162089 -0.43377957 3.8476493
0.32766086 -0.41978818 3.8449278
0.28136623 -0.3872765 3.8473551
0.3184993 -0.38757077 3.8484216
0.32396355 -0.2639643 3.8466561
0.32673314 -0.23918347 3.8440511
-0.86321628 -0.16608211 3.8049738
-0.82746434 -0.17556345 3.8154976
-0.86349517 -0.12919816 3.8071082
-0.82729101 -0.12932186 3.815846
-0.78628457 -0.13785654 3.8014498
-0.86397213 -0.073808193 3.810154
-0.82843304 -0.071422502 3.8111246
-0.87277901 -0.02759761 3.8072934
-0.82693285 -0.027613824 3.8155148
-0.86877215 0.023220053 3.810626
-0.82687098 0.018583098 3.8151834
-0.78648263 0.036898565 3.8038325
-0.87328649 0.074044935 3.809005
-0.82962841 0.074292801 3.8275883
-0.77721047 0.069524378 3.8276339
-0.74112362 0.064577259 3.8130736
-0.8732518 0.11101414 3.8082676
-0.82988471 0.12064249 3.8280966
-0.77660531 0.13032253 3.8471134
-0.022624906 0.14535373 3.8053679
0.028806807 0.13915364 3.8015118
0.077281475 0.12492327 3.8053234
0.12029121 0.12178006 3.8246155
0.15119366 0.10995123 3.8365061
-0.01352437 0.16330738 3.8000319
0.022771023 0.16943894 3.8016388
-0.79702705 0.31708795 3.8461385
-0.82693964 0.38576514 3.824899
-0.79815376 0.35488254 3.8493917
-0.72092205 0.35362563 3.8455784
-0.86600763 0.42622256 3.8034682
-0.8329435 0.42830211 3.8274155
-0.72119296 0.40960243 3.8433244
-0.85826057 0.47338229 3.8079596
-0.8288846 0.47292975 3.8347247
-0.85036588 0.52062786 3.8114102
-0.83281702 0.52636933 3.833524
-0.86095124 0.57728529 3.8104
-0.83730251 0.58021897 3.8340666
-0.86940622 0.62775457 3.8170094
-0.83324975 0.63179898 3.8398125
4.1262937 0.63201749 3.821188
-0.86841404 0.67040557 3.8151321
-0.84129685 0.67702055 3.8419945
4.1201067 0.67083669 3.8332851
-0.86979562 0.72836006 3.8241458
-0.84307736 0.71612698 3.8455446
-0.87168562 0.77884257 3.8259683
-0.84558439 0.78440845 3.8482571
-0.87681562 0.82845432 3.8214588
-0.87813658 0.8723523 3.8187065
-0.8491323 0.89208376 3.8490021
-0.90032184 0.9430185 3.8065977
-0.87746119 0.92453986 3.8242083
-0.84926468 0.91120535 3.8465788
-0.90777284 0.96942347 3.80616
-0.87215436 0.96724159 3.8298788
-0.91210097 1.0270132 3.8090096
-0.87998253 1.0277537 3.8324177
-0.90602028 1.0723525 3.8082929
-0.88423604 1.0734748 3.8282852
-0.91405129 1.1286166 3.8108163
-0.8895148 1.1241809 3.8347769
-0.92049783 1.1736274 3.8080821
-0.89054775 1.1770825 3.8361683
-0.91872454 1.2266533 3.8151259
-0.88972771 1.2219908 3.8379903
-0.91588604 1.2720668 3.8209834
-0.88379514 1.256022 3.8490145
-0.92383146 1.3258892 3.8198483
-0.88712585 1.3189452 3.8499737
-0.92552269 1.3766088 3.8277218
-0.92830163 1.4229008 3.8285038
-0.96756083 1.4979695 3.802774
-0.931988 1.4741095 3.8314981
-0.96044987 1.5285887 3.8163688
-0.9294917 1.5229613 3.8373623
-0.96473372 1.577378 3.8122201
-0.93171108 1.5707209 3.8400741
-0.96784389 1.6217804 3.8126984
-0.94269168 1.6292169 3.835506
-0.96940595 1.6792816 3.8169105
-0.93736541 1.676868 3.8436778
-0.97176188 1.7276976 3.824388
-0.94909585 1.7098776 3.8397908
-0.96829152 1.7710727 3.8287191
-0.97357494 1.8290333 3.830832
-0.97725755 1.874989 3.8177645
-0.97875726 1.9239584 3.8261547
-0.97796065 1.976853 3.8317776
-1.0060588 2.0026405 3.8053608
-0.98190022 2.0255535 3.8314047
-1.0132496 2.067884 3.8121705
-0.9861123 2.0750999 3.8314488
-1.0141867 2.1004016 3.8031025
-0.98888016 2.1219609 3.8253238
-1.0117893 2.1681323 3.8129249
-0.98489428 2.1767688 3.8342519
-1.0177385 2.2222254 3.8172276
-0.990816 2.2313709 3.8391876
-1.008545 2.255753 3.8096926
-0.98197895 2.2765219 3.8286972
-0.96878755 2.319257 3.8186042
-0.93588549 2.3431141 3.8385787
3.8495755 2.3451178 3.8445463
3.874794 2.3313246 3.8277421
3.9016178 2.3185143 3.8123744
-0.9228034 2.3573527 3.8197975
-0.87121129 2.3639979 3.8290701
-0.82282555 2.3641949 3.821914
-0.77752453 2.3803635 3.8382764
-0.72335798 2.373884 3.8356187
-0.67779207 2.3808134 3.8093007
-0.62800407 2.3882856 3.8280783
-0.57544655 2.3856051 3.8299952
-0.52655858 2.3902795 3.8284905
-0.48086333 2.3896296 3.8248241
-0.41984999 2.3853078 3.8449094
-0.3873359 2.3766022 3.8333631
-0.31930456 2.3856587 3.8204105
-0.27306598 2.3917897 3.8222635
-0.22189197 2.3955767 3.8308642
-0.15979844 2.3932669 3.8295145
-0.12899786 2.3958201 3.834476
-0.077439286 2.3977509 3.8386056
-0.025729414 2.3915012 3.8291466
0.02569156 2.3835993 3.8164654
0.0771074 2.3836336 3.81603
0.12863179 2.386946 3.8202684
0.18376081 2.3834078 3.8271978
0.21783634 2.3809545 3.8219135
0.27307388 2.3903847 3.8200238
0.31605828 2.3835402 3.8496258
0.37643972 2.3822932 3.8218431
0.42769191 2.3705888 3.8203578
0.47003758 2.3868217 3.8213387
0.52255285 2.385447 3.8247175
0.57441914 2.3807027 3.8221943
0.62744492 2.3857894 3.8241217
0.67636681 2.3806622 3.8240368
0.73543918 2.3788929 3.8422942
0.78022635 2.3774652 3.8219857
0.82964909 2.3798368 3.8290977
0.88134032 2.3785698 3.8180835
0.92101747 2.3763223 3.8296573
0.96900654 2.3750687 3.8259437
1.0234509 2.3728428 3.826396
1.0764914 2.3741462 3.8172748
1.1366059 2.3686807 3.8252633
1.1819931 2.3751891 3.8414004
1.2286978 2.3696222 3.8359663
1.2637454 2.3690555 3.8260574
1.3226541 2.3750772 3.8169756
1.3693234 2.366421 3.8247099
1.428102 2.3755345 3.8239679
1.4719081 2.3664656 3.8190286
1.5206338 2.3649583 3.8258004
1.5762554 2.3678534 3.8130343
1.6194491 2.3622494 3.8388031
1.6614468 2.3603826 3.8208795
1.7038759 2.3742802 3.8318167
2.0799615 2.3653665 3.8242595
2.1591854 2.367733 3.8209891
2.2107563 2.3637292 3.8169835
3.8256607 2.3992844 3.8415635
3.8604681 2.3815882 3.8206558
-0.22244447 2.4014387 3.8401957
-0.087221965 2.4033046 3.8046551
0.38183266 -0.50729918 3.8694987
0.30983424 -0.46224421 3.8506441
0.36729708 -0.47399831 3.8673544
0.28169593 -0.40619579 3.8506351
0.31164736 -0.42890698 3.8525672
0.36713591 -0.4273684 3.8692214
0.28165561 -0.35997668 3.8530383
0.31875589 -0.36709908 3.8527358
0.36179021 -0.37555179 3.8654709
0.28152382 -0.32290715 3.8533406
0.31872213 -0.32318774 3.854902
0.36419532 -0.32216924 3.8775985
0.28868622 -0.28024411 3.8521576
0.32353199 -0.28179726 3.8590441
0.36613226 -0.28306738 3.8870888
0.28118968 -0.23035958 3.8530116
0.31516835 -0.22168164 3.8614037
0.3582646 -0.23252629 3.8852921
-0.78152436 0.093712062 3.8725092
-0.72447586 0.09358415 3.8747153
-0.78149587 0.11243046 3.872021
-0.738276 0.12494715 3.8795912
-0.06915608 0.11073316 3.8653581
-0.74048215 0.2981894 3.8513627
-0.77953547 0.33034649 3.8728859
-0.7298941 0.31824115 3.8700314
-0.80216455 0.39420003 3.8662961
-0.77761507 0.37523249 3.8687532
-0.73570716 0.37778327 3.8616803
-0.80137038 0.42193675 3.8604722
-0.77480024 0.422775 3.872005
-0.73776203 0.42441192 3.8626051
-0.80627495 0.47361982 3.8568578
-0.77660304 0.47086862 3.8774574
-0.73958349 0.47122428 3.8856351
-0.80803424 0.52166706 3.8612385
-0.7818526 0.52582389 3.8894353
-0.8134616 0.57385689 3.8591611
-0.78109634 0.57773489 3.890501
-0.81306535 0.61825448 3.8619857
-0.78373611 0.62187701 3.8894317
4.0794735 0.63441283 3.8950961
4.1040578 0.63434839 3.8711352
-0.81814021 0.67587745 3.8612199
-0.79190552 0.67356855 3.8855071
4.0794845 0.67236578 3.8894579
4.1032066 0.67215508 3.864656
-0.82191968 0.72592258 3.8670855
-0.79428989 0.72317624 3.8914473
-0.82640535 0.77136469 3.8671305
-0.79630822 0.7631557 3.8964565
-0.82957917 0.82375246 3.8729644
-0.79791844 0.81248891 3.8978114
-0.83086944 0.87402976 3.8700254
-0.81782484 0.92813653 3.8816872
-0.8621704 0.98835272 3.8634593
-0.8300547 0.97907692 3.8846538
-0.85589516 1.0235436 3.8585868
-0.82554495 1.0305862 3.882637
-0.86393672 1.0802505 3.862596
-0.83292693 1.0691826 3.8825378
-0.86824208 1.1301705 3.8653202
-0.84060973 1.1163077 3.8866682
-0.87104732 1.1771901 3.8626003
-0.84758943 1.1724267 3.8850131
-0.86662066 1.2301488 3.868222
-0.83827811 1.2204044 3.8880646
-0.86566305 1.2750896 3.8727169
-0.83418018 1.288222 3.8924441
-0.86896443 1.3245835 3.8697977
-0.87555575 1.3798442 3.8760312
-0.9146412 1.448192 3.8516874
-0.87821919 1.4233193 3.8779037
-0.8868413 1.4692545 3.8746841
-0.90704709 1.5226125 3.859328
-0.88107681 1.5299962 3.8877733
-0.90681076 1.57623 3.8752582
-0.88945913 1.580623 3.8893137
-0.91864854 1.6217792 3.8596294
-0.89236939 1.6256886 3.8903351
-0.91197014 1.674965 3.8703711
-0.89437979 1.6693425 3.886992
-0.92467046 1.7299351 3.864388
-0.89827466 1.7268233 3.888155
-0.9206484 1.7815446 3.8782518
-0.93222052 1.8247466 3.8691258
-0.92692113 1.8748089 3.87695
-0.93675488 1.9284226 3.8714247
-0.95207423 1.976043 3.8595686
-0.93488848 1.9725746 3.8802543
-0.95576543 2.0143909 3.862766
-0.93277448 2.027138 3.8842278
-0.95939398 2.0630994 3.8612959
-0.93281341 2.0724702 3.8844569
-0.96331239 2.1127632 3.8603773
-0.94088125 2.12766 3.8849409
-0.96746874 2.1632831 3.8597794
-0.94232148 2.172415 3.8735683
-0.96427649 2.222652 3.861239
-0.92913824 2.2320919 3.8912315
-0.95492721 2.2758896 3.8559072
-0.92728758 2.2744918 3.8818588
-0.91873491 2.325808 3.8708851
-0.87032914 2.3427653 3.8956146
3.8183835 2.3386576 3.8828735
3.857007 2.3232393 3.8656614
-0.87861395 2.3578427 3.8740938
-0.82809871 2.3637853 3.8927531
-0.77771348 2.3706541 3.8782303
-0.72059524 2.3782845 3.8881655
-0.675861 2.3793716 3.8737268
-0.62223703 2.3852844 3.8680093
-0.57086325 2.378511 3.8850954
-0.52752709 2.382596 3.8743005
-0.47482324 2.3869638 3.8719566
-0.41152459 2.3763051 3.8746233
-0.37044668 2.3871467 3.8809397
-0.33741727 2.3888898 3.856889
-0.27235338 2.3881683 3.8741863
-0.22879103 2.3879104 3.8722014
-0.17189047 2.3974242 3.8789973
-0.077944614 2.392453 3.8732212
-0.0259826 2.3963752 3.8801203
0.088181607 2.3850815 3.8611548
0.11961968 2.3911438 3.8703268
0.17166211 2.3819387 3.8756709
0.23459323 2.3980501 3.8775599
0.27615544 2.3895612 3.8762417
0.33897898 2.3991089 3.8734305
0.37356982 2.390949 3.8723621
0.42215768 2.3768556 3.8746824
0.47790924 2.384613 3.8678749
0.52595615 2.375118 3.8621757
0.5836603 2.3766623 3.8732693
0.61859059 2.377198 3.8700047
0.67587429 2.3790228 3.8731742
0.72722691 2.3834956 3.8810825
0.77421808 2.3810778 3.8850689
0.82430559 2.3736517 3.8646405
0.88029146 2.3725114 3.8761032
0.92506349 2.3687031 3.8845015
0.97699976 2.3665326 3.8709602
1.0321753 2.371891 3.869133
1.0823932 2.3743038 3.8783066
1.1182557 2.3681953 3.8754883
1.1676469 2.3678091 3.8792367
1.2164241 2.3657634 3.8799047
1.2925196 2.3711207 3.8782549
1.3202643 2.3660192 3.869868
1.371393 2.366981 3.8738618
1.4277354 2.3712714 3.8654983
1.5281193 2.3717735 3.8860488
1.5854316 2.3634634 3.8694165
1.6466801 2.3641243 3.8844676
1.7439252 2.3774152 3.8754201
1.7883629 2.3780084 3.8601363
1.8329105 2.3709071 3.8829863
2.1440215 2.3645267 3.8502707
3.7938178 2.3957558 3.8582261
3.8126254 2.3729744 3.8668249
-0.13062443 2.4049716 3.8924422
0.026154429 2.402 3.8892117
0.067889452 2.4007342 3.8868117
0.29772115 2.4027798 3.8819559
3.7460661 2.4251263 3.8931198
3.775146 2.4005554 3.8881435
0.42944258 -0.50947714 3.9196596
0.46075997 -0.51283157 3.9433756
0.39936578 -0.47905391 3.906723
0.41596305 -0.46776941 3.930326
0.41142276 -0.42543125 3.9355373
0.38954651 -0.36591733 3.9108009
0.42018208 -0.37276682 3.9317284
0.37891665 -0.33667201 3.9003983
0.40600169 -0.31616575 3.9359052
0.39222512 -0.26864588 3.9112065
0.42027485 -0.26432106 3.938554
0.37992761 -0.23439287 3.9156449
0.40759954 -0.23908047 3.9395063
-0.74915206 0.094339229 3.9035316
-0.71805745 0.11951115 3.9086084
-0.69279641 0.12263909 3.9109292
-0.7328012 0.28379631 3.9130993
-0.71956837 0.30511665 3.9456041
-0.7201044 0.4388963 3.9401414
-0.72092766 0.47761452 3.9416616
-0.75610077 0.52327579 3.9171793
-0.73045725 0.52534914 3.9363966
-0.76096612 0.56615752 3.9131613
-0.73343474 0.5701077 3.9378402
-0.66458708 0.55479801 3.9473708
-0.76288623 0.62826806 3.9083488
-0.73618132 0.62620825 3.9399593
-0.63061786 0.6165067 3.9314187
-0.56810868 0.64947021 3.9416919
4.0646205 0.63600272 3.9282069
-0.76724476 0.6728617 3.9193203
-0.74231625 0.67068774 3.9328215
-0.6265536 0.65066808 3.9431686
-0.57782269 0.668782 3.9398768
4.037024 0.67646128 3.9267781
4.0541024 0.65966266 3.914346
-0.76973081 0.72694826 3.915611
-0.74406195 0.72028369 3.9363933
-0.58926797 0.73800755 3.9435334
-0.54966277 0.74585867 3.9368947
-0.77779186 0.77900088 3.9201691
-0.74648786 0.77078563 3.943095
-0.61009091 0.76884836 3.9486613
-0.58869761 0.76601613 3.9360621
-0.77712375 0.82884586 3.918586
-0.74134183 0.81717187 3.9446328
-0.80038238 0.8725282 3.9014482
-0.77686042 0.87847459 3.9319477
-0.80131394 0.90233654 3.9015627
-0.77438867 0.92595768 3.9338665
-0.80514121 0.97414923 3.9091825
-0.77493763 0.97405565 3.9378533
-0.80608666 1.0139468 3.9070821
-0.78393167 1.0261148 3.9343123
-0.80891728 1.0756383 3.9101985
-0.78215897 1.0756757 3.9370015
-0.81892288 1.1310961 3.9097729
-0.78623039 1.1235385 3.9388506
-0.82332557 1.1793318 3.912174
-0.78985441 1.1709409 3.9378693
-0.81078643 1.2271806 3.9234955
-0.799411 1.2166252 3.9362938
-0.81586862 1.2724465 3.9224775
-0.82159847 1.3287873 3.9217861
-0.82412094 1.3723825 3.9244163
-0.82945722 1.4203826 3.9249694
-0.86621332 1.4853649 3.9022155
-0.83779508 1.4752872 3.9266243
-0.85955119 1.5208297 3.9104724
-0.83392346 1.5284698 3.9346948
-0.86361128 1.577945 3.9149523
-0.83891857 1.5778286 3.9470806
-0.8668797 1.6240211 3.9181256
-0.84001756 1.6100848 3.9436278
-0.86839306 1.6749197 3.9210849
-0.82911533 1.6789354 3.938673
-0.87355006 1.7274889 3.9205942
-0.84639812 1.7338679 3.9398453
-0.87571299 1.772269 3.9172528
-0.84735084 1.7662648 3.9345787
-0.90909874 1.8390671 3.9047749
-0.87473983 1.8213867 3.9284408
-0.88352847 1.8698021 3.924669
-0.91387039 1.9202279 3.9001541
-0.8807348 1.9200695 3.9255695
-0.91294914 1.9875764 3.906522
-0.89105731 1.9682162 3.9287417
-0.90909189 2.0285122 3.9075377
-0.87567675 2.0214591 3.9402137
-0.90802014 2.0865188 3.9162669
-0.88357228 2.0768232 3.9421902
-0.91726613 2.1300404 3.9097528
-0.88533759 2.1157758 3.9363177
-0.92071342 2.1798172 3.9071503
-0.8889761 2.1734412 3.9326324
-0.91590953 2.2198379 3.9027805
-0.88804072 2.2182579 3.9283929
-0.90071207 2.2762351 3.9131105
-0.8764202 2.2791338 3.9381869
-0.87270147 2.3174152 3.9206884
-0.83717507 2.3300011 3.9408262
3.785717 2.3313258 3.9195335
-0.82110196 2.352885 3.9211733
-0.7685293 2.3646696 3.9265361
-0.72936374 2.3671789 3.928838
-0.67358142 2.3769588 3.9376953
-0.62376386 2.3777351 3.9180539
-0.52108812 2.3800755 3.9152882
-0.46954495 2.3854146 3.9291782
-0.4386 2.3894303 3.9385264
-0.36710444 2.3899183 3.9300108
-0.32426098 2.3915548 3.9207256
-0.28823471 2.3907993 3.9068246
-0.21445337 2.3864226 3.9032245
-0.17340814 2.387069 3.9279494
-0.13137516 2.3979566 3.9248986
-0.057795946 2.3989725 3.9279134
-0.026131859 2.3885109 3.9110293
0.026303766 2.3942988 3.9204915
0.07853286 2.3862326 3.9067757
0.12058885 2.3899851 3.9121161
0.15241876 2.385735 3.9264214
0.22905953 2.3847761 3.9146602
0.25813034 2.3916399 3.9320083
0.33149758 2.3890657 3.9236078
0.36978269 2.383637 3.9194336
0.4257209 2.3757584 3.9168739
0.48005408 2.3847613 3.9271374
0.52157801 2.3817277 3.9180729
0.57637066 2.3798587 3.9316516
0.63235557 2.3747561 3.9241345
0.67674446 2.3822849 3.9312541
0.72636682 2.3757646 3.9286149
0.77957559 2.376327 3.9218178
0.82227147 2.377105 3.9164834
0.86533546 2.3743522 3.9355533
0.92280275 2.3688076 3.9315088
0.9776594 2.3724494 3.9276667
1.0216916 2.375617 3.9245467
1.0738049 2.3725457 3.9084637
1.1236017 2.3660481 3.9339015
1.1790817 2.3695228 3.9275012
1.2210356 2.3598955 3.9328034
1.265747 2.370055 3.9236965
1.3218417 2.3723316 3.9461985
1.3720936 2.3652141 3.9198141
1.4309125 2.3728435 3.9172013
1.4845341 2.3758695 3.9238844
1.5279839 2.3666258 3.9274931
1.5603949 2.3659682 3.9161773
1.6900901 2.3724573 3.9377744
1.736481 2.3752999 3.9270113
1.7866714 2.3607919 3.9346051
1.8781618 2.3657715 3.9281368
3.7619741 2.3681097 3.9259164
-0.43687841 2.4011166 3.9133408
-0.10027927 2.4087272 3.9432437
0.27918491 2.4021106 3.9259119
3.7380946 2.4020786 3.9235501
0.48086768 -0.51401752 3.9510159
0.50624627 -0.52053243 3.9995341
0.44382176 -0.47703359 3.9662712
0.47277012 -0.48311511 3.982614
0.44314107 -0.41915253 3.9643774
0.46460402 -0.421361 3.983588
0.43192846 -0.38905272 3.9515204
0.46486038 -0.37364733 3.9888952
0.43624288 -0.32820764 3.9768836
0.46562266 -0.31668183 3.998651
0.43657327 -0.27925178 3.9706089
0.46535584 -0.28772295 3.9977691
0.43673417 -0.23493177 3.9739044
0.46481621 -0.24906242 3.9947879
0.2913278 0.11464573 3.9952774
0.27214989 0.19098239 3.9930317
-0.70149475 0.28645426 3.9543974
-0.70380545 0.32572919 3.9654262
-0.71400911 0.37392089 3.9649425
-0.71092415 0.41732955 3.9557335
-0.68810546 0.44285429 3.9802351
-0.70512915 0.47984514 3.9624932
-0.6879636 0.47162902 3.9771981
-0.70586026 0.52836144 3.9625425
-0.67781717 0.51933485 3.9712029
-0.71149677 0.58189589 3.9616897
-0.67961133 0.58078963 3.9645181
-0.71392775 0.62269145 3.9620769
-0.6797384 0.62690371 3.9722109
-0.64866376 0.63444531 3.9613726
4.0299139 0.63646716 3.9655671
-0.71827501 0.67511708 3.9623477
-0.68227321 0.67764378 3.981761
-0.63770372 0.68117905 3.9609573
3.9850743 0.67334688 3.9867711
4.0087581 0.67310774 3.9628859
-0.71859425 0.72365028 3.958395
-0.67371798 0.72724247 3.9837368
-0.63164169 0.71382588 3.9685309
-0.72024912 0.77366132 3.9613597
-0.67545742 0.77775288 3.9879091
-0.62679565 0.78654361 3.9701722
-0.71838146 0.82678843 3.9622221
-0.69476354 0.8261857 3.9784021
-0.59638357 0.81481618 3.982271
-0.75092214 0.87229371 3.9529369
-0.72396231 0.87487441 3.9682071
-0.69873565 0.87978172 3.9941239
-0.75285226 0.93283159 3.9541295
-0.72785485 0.92844653 3.9821496
-0.75418437 0.98316252 3.9531279
-0.73022264 0.97393358 3.9768665
-0.75734389 1.0263743 3.9629521
-0.7299664 1.0260003 3.9892864
-0.7578457 1.0759653 3.956728
-0.73492521 1.0675201 3.9796848
-0.762784 1.1321987 3.9731741
-0.74043596 1.1208563 3.9913721
-0.76931286 1.1813822 3.9623439
-0.74048632 1.1811992 3.989445
-0.77350271 1.229282 3.9679236
-0.7484808 1.219734 3.988482
-0.77619773 1.2759385 3.9614758
-0.74230039 1.2763089 3.987432
-0.80763537 1.308443 3.9592879
-0.7816869 1.32739 3.9686866
-0.77993643 1.3790046 3.9692605
-0.77939063 1.4332415 3.9757354
-0.81375408 1.4681768 3.9526761
-0.78165138 1.4734743 3.977941
-0.81299233 1.5260947 3.960793
-0.78740674 1.5182505 3.982929
-0.81013888 1.578392 3.9700546
-0.78448343 1.5694275 3.9911537
-0.82043761 1.6312962 3.965873
-0.78685427 1.6148098 3.9917865
-0.8152771 1.6614785 3.962853
-0.82060552 1.7334889 3.9700541
-0.85278624 1.7980288 3.9531727
-0.82052255 1.7746602 3.9758303
-0.79585022 1.7770764 3.9939952
-0.85575986 1.8453096 3.9533122
-0.82809961 1.823036 3.9709587
-0.79738438 1.81138 3.991756
-0.85777068 1.8804899 3.9520516
-0.82642937 1.8699536 3.977206
-0.86001939 1.9163178 3.9516306
-0.8331396 1.9152944 3.9793029
-0.8645339 1.9781778 3.9537153
-0.83427364 1.9709774 3.9857171
-0.8520813 2.0498178 3.976223
-0.83647758 2.0179722 3.9810574
-0.85865259 2.0767736 3.9625959
-0.82751936 2.072113 3.9912951
-0.86638165 2.1325164 3.9636221
-0.83869171 2.1211524 3.9950953
-0.86442816 2.1723435 3.9668422
-0.83515668 2.178448 3.9830844
-0.86108929 2.2300582 3.954601
-0.83339071 2.2302008 3.983299
-0.86317307 2.2672305 3.9505768
-0.82518142 2.2758472 3.9801099
-0.81420839 2.3228147 3.9724994
-0.78589106 2.3423934 3.9783225
3.6953564 2.3208025 3.993623
3.7291894 2.3255153 3.9802113
3.7585983 2.3274245 3.9617171
-0.76511097 2.3549733 3.979857
-0.71447569 2.3597858 3.9798005
-0.67340875 2.3615501 3.9758506
-0.62476408 2.3717418 3.9808116
-0.5752275 2.3786564 3.979836
-0.52729845 2.3816934 3.9739599
-0.46156406 2.3776796 3.9619977
-0.42726788 2.3907468 3.9717467
-0.37798765 2.385957 3.9825447
-0.32051912 2.3880424 3.974797
-0.27525949 2.390429 3.9783268
-0.22395782 2.3915238 3.9735713
-0.1218674 2.3970106 3.9680176
-0.065406971 2.3930414 3.9774106
-0.026468828 2.3878515 3.976645
0.030858228 2.3905818 3.9766669
0.090231732 2.3980343 3.9703889
0.13317128 2.3858697 3.9942324
0.18559337 2.3964431 3.9652562
0.22503459 2.3883445 3.9802673
0.28145438 2.3897157 3.9723725
0.31872359 2.3851647 3.9738517
0.37756997 2.3826003 3.976995
0.41968727 2.3803065 3.9699621
0.47440624 2.3881483 3.9785061
0.53028029 2.3766894 3.9691143
0.57592052 2.3734257 3.9778199
0.63706148 2.3773251 3.9889617
0.67997843 2.3775516 3.9839914
0.72314918 2.378788 3.9803519
0.77199793 2.3689108 3.9750435
0.82933784 2.3760982 3.9599564
0.87501943 2.3625045 3.9758511
0.91906095 2.3652704 3.9731092
0.97296423 2.3656819 3.9639931
1.0313407 2.3655694 3.976475
1.0709347 2.3619328 3.9700201
1.1249533 2.3700023 3.9890509
1.1787652 2.3690085 3.9752533
1.2839937 2.3609505 3.9849524
1.3313626 2.3675027 3.9848475
1.3799555 2.35694 3.9525585
1.4181302 2.3660221 3.9586825
1.4752957 2.3670473 3.9782808
1.5163699 2.3607373 3.9714684
1.5728039 2.3626943 3.9578168
1.6087449 2.3609674 3.9956594
1.6828761 2.3713329 3.9912953
1.7037864 2.3693233 3.9803596
1.7652311 2.376853 3.9734674
1.8240883 2.3805804 3.9593246
1.8635368 2.3654733 3.9698679
3.6686742 2.3996718 3.9735041
3.7214079 2.3685904 3.9762993
-0.39828998 2.4013083 3.9615068
-0.079299517 2.4131212 3.9508014
0.069154546 2.4028754 3.9787233
0.12232362 2.4033585 3.9785538
3.7063208 2.4070568 3.9642792
0.51970905 -0.50492936 4.0296769
0.48787689 -0.4635585 4.0132356
0.51786548 -0.48035112 4.0430808
0.48735896 -0.4245038 4.0117249
0.51026225 -0.43720341 4.0380354
0.48668084 -0.37569758 4.0092716
0.48212004 -0.33248359 4.0141025
0.50967723 -0.32994199 4.0399799
0.48177031 -0.2696721 4.0142212
0.508784 -0.27126089 4.0356684
0.47670063 -0.22136602 4.0142384
0.29288936 0.13446093 4.016293
0.31995293 0.12220279 4.0334229
0.38149875 0.13525517 4.0351434
0.40916142 0.13482009 4.0202723
0.2947461 0.17398186 4.0407481
