ply
format ascii 1.0
comment PCL generated
element vertex 1546
property float x
property float y
property float z
element camera 0
property float view_px
property float view_py
property float view_pz
property float x_axisx
property float x_axisy
property float x_axisz
property float y_axisx
property float y_axisy
property float y_axisz
property float z_axisx
property float z_axisy
property float z_axisz
property float focal
property float scalex
property float scaley
property float centerx
property float centery
property int viewportx
property int viewporty
property float k1
property float k2
end_header
2.8380735 2.5323093 2.8262079
3.073596 2.5132635 2.8340437
3.1239281 2.5171537 2.8323951
-0.66894364 -0.50426137 2.8572938
-0.63926804 -0.5029642 2.854213
-0.5978362 -0.50338417 2.862638
-0.82172561 -0.45865393 2.8743608
-0.7761972 -0.47234893 2.8860202
-0.73550302 -0.48472837 2.8727951
-0.68053526 -0.49358895 2.8772407
-0.63195902 -0.49422321 2.8884506
-0.57385325 -0.49282959 2.8881264
-0.85792166 -0.42354611 2.8563697
-0.83729851 -0.4283303 2.8817563
-0.85729849 -0.37384793 2.8589189
-0.84337896 -0.37360772 2.8846133
-0.86243314 -0.3214581 2.860394
-0.84315777 -0.32949525 2.8859935
-0.86361235 -0.27484778 2.8625724
-0.84379238 -0.27445158 2.888546
-0.8628816 -0.22529741 2.8630228
-0.84766215 -0.22687848 2.8873751
-0.86178201 -0.17575584 2.8616679
-0.84616196 -0.17690615 2.884551
-1.0035908 0.19167027 2.8543048
-0.98067588 0.18426687 2.8548698
-1.0135165 0.22778559 2.8587685
-0.97515404 0.2271084 2.8589087
-0.94417787 0.22649132 2.8576107
-1.2100849 0.29269755 2.8902078
-1.1644803 0.2922495 2.8984482
-1.147945 0.29175398 2.8976181
-1.0250715 0.27647471 2.8625658
-0.97636294 0.27552357 2.8636405
-0.94688118 0.27677393 2.8627729
-1.1233364 0.31798688 2.8735173
-1.0238167 0.3259944 2.8637841
-0.97516084 0.32640305 2.8636248
-0.94409657 0.31133157 2.8518798
1.6928031 0.33818731 2.8792686
-1.150169 0.35074803 2.8986883
-1.1462978 0.37865973 2.8863394
-1.0260848 0.37305623 2.8706071
-0.97072595 0.3772648 2.8673522
-1.1464033 0.42242074 2.8823404
-1.0290909 0.42332497 2.8654482
-0.97766966 0.42701945 2.8681543
-1.1514186 0.46081144 2.8910298
-1.1469429 0.48814857 2.8764176
-1.0268734 0.4749099 2.8696649
-0.9715088 0.47201666 2.8640258
-1.1531279 0.52007669 2.8883176
-1.1497872 0.54046792 2.8771136
-1.0280583 0.5252049 2.8715363
-0.9694044 0.5224843 2.860925
-1.1505878 0.58468455 2.873054
-1.1379644 0.56739879 2.8637359
-1.0280571 0.5754711 2.8680232
-0.96877903 0.56930977 2.8595128
-1.1530422 0.61521602 2.8748245
-1.1494236 0.62789649 2.8635578
-1.0514106 0.62169522 2.8588736
-1.0286301 0.62221974 2.867274
-0.97216779 0.62965256 2.8589449
-1.1574159 0.68368733 2.8751383
-1.1316211 0.67706597 2.851335
-1.0546106 0.67435896 2.8594484
-1.0259091 0.67452496 2.8675787
-0.97721875 0.67878687 2.8549435
-1.1610461 0.72273189 2.8777134
-1.135222 0.74321944 2.8632157
-1.0567937 0.7265889 2.8565931
-1.0289508 0.72742766 2.8673582
-0.97869086 0.72253764 2.8587396
3.1483712 0.71088618 2.8558991
3.1800807 0.73519737 2.8624072
-1.1641141 0.75420004 2.8799195
-1.1289494 0.77245533 2.8696437
-1.0867972 0.77605069 2.864387
-1.0435793 0.75659287 2.8586371
-0.9909609 0.76202458 2.8731062
3.1756024 0.77506399 2.8674257
3.1357136 0.82302147 2.8913016
3.1699731 0.82445705 2.8686213
3.1255686 0.87121993 2.8875008
3.1744204 0.87412572 2.8601561
3.1349573 0.9200356 2.8900182
3.165267 0.92785263 2.8678415
3.1272509 0.97776937 2.8877509
3.1626337 0.97400349 2.861999
3.1292188 1.023712 2.8854351
3.1644607 1.0257363 2.8634777
-1.7692666 1.080709 2.8908331
3.1240706 1.0805317 2.8908844
3.1631336 1.0773785 2.8648674
3.1276083 1.1275123 2.8886843
3.1689358 1.1262513 2.8611081
-1.8090248 1.1877413 2.873322
-1.7881685 1.1756574 2.8832912
3.1358624 1.1697814 2.8828526
3.1681647 1.1709093 2.8578858
-1.8149577 1.2289933 2.8781598
3.1275411 1.2264431 2.888926
3.1681945 1.220657 2.863508
-1.8182577 1.2749898 2.8734529
3.1355317 1.2712004 2.8782499
3.1711078 1.2782979 2.8609195
-1.8207141 1.3217005 2.877367
3.1254005 1.3212796 2.8876469
3.1743181 1.3233385 2.8667517
-1.8300563 1.3782109 2.8730476
3.1327174 1.3802384 2.8854854
3.1619592 1.3754523 2.8686175
-1.8316879 1.4268597 2.8771815
3.1272418 1.4301957 2.8856189
3.173346 1.431272 2.8620524
-1.8644701 1.4924157 2.8587823
-1.8396158 1.4708672 2.8752158
3.1372991 1.4877859 2.8994856
3.1720243 1.475148 2.8702977
-1.8601913 1.5209143 2.8585534
-1.8415082 1.5226376 2.887995
3.1340997 1.529673 2.8910828
3.1763043 1.5222847 2.8667951
-1.8618476 1.5694888 2.8646159
-1.8471555 1.5805122 2.8898094
3.1722558 1.5755986 2.8706284
-1.8606944 1.6274285 2.8732336
-1.8423774 1.6338046 2.8983445
3.1386707 1.6270936 2.8898845
3.1778255 1.6341555 2.8588753
-1.8637651 1.6750765 2.8705294
-1.8483044 1.6648009 2.8953791
3.1399086 1.6744828 2.8863761
3.1792355 1.6878181 2.869854
3.2140095 1.6782261 2.8586297
-1.8650153 1.7288986 2.8795376
3.1475196 1.7161884 2.8892424
3.1762328 1.7309861 2.8735108
3.2113318 1.723197 2.8549089
-1.871933 1.7801937 2.8759484
3.1423411 1.7860928 2.8909645
3.1791413 1.7792923 2.8742838
3.214957 1.7821481 2.851351
-1.877417 1.8218552 2.8738959
3.147172 1.8094031 2.8849936
3.1800308 1.8268292 2.8727641
3.2024853 1.8382456 2.8509963
-1.8814819 1.8728964 2.8724761
3.1776466 1.8784761 2.8777547
-1.8784069 1.9191717 2.8756342
3.1411843 1.9337336 2.899631
3.1692276 1.9215443 2.8752935
-1.9081403 1.9668236 2.8551998
-1.8853639 1.9761951 2.8777533
3.134768 1.9674037 2.8954396
3.1768055 1.9737349 2.8698866
-1.9032667 2.0247841 2.8577785
-1.8785168 2.0234764 2.8831472
3.1420569 2.0204175 2.8979053
3.1776106 2.0231547 2.8748651
3.2059608 2.0108192 2.8509626
-1.9042722 2.0900514 2.8685372
-1.8947005 2.0804877 2.8786027
3.1466296 2.0548065 2.8847117
3.1760416 2.0708754 2.8687396
3.2112503 2.0906951 2.8578203
-1.9097703 2.1232114 2.8593545
-1.8905807 2.1321182 2.8870714
3.145519 2.1205764 2.8911419
3.1795394 2.122267 2.8667412
-1.9069991 2.1768098 2.8691072
-1.8940284 2.1828179 2.8876102
3.1343803 2.1696305 2.8937578
3.1732795 2.1746345 2.8738327
3.2152846 2.1816549 2.8565252
-1.9130726 2.2304699 2.8642237
-1.8934985 2.230058 2.8899682
3.1319647 2.2177339 2.88539
3.1809676 2.2213833 2.8645346
-1.9119582 2.277276 2.8647599
-1.8940835 2.2884371 2.8871059
3.1449914 2.2665849 2.8971431
3.1725383 2.280885 2.8703849
-1.9018248 2.3242991 2.8619637
-1.8875954 2.329556 2.8792205
3.1363616 2.3294854 2.8943539
3.1710944 2.331461 2.8707216
3.2472861 2.337065 2.8536119
-1.8688972 2.3719049 2.8750834
-1.8452146 2.3931527 2.8983064
3.129082 2.3741829 2.8885059
3.1704154 2.3820148 2.8627045
-1.8262832 2.417804 2.878443
-1.7759547 2.4264991 2.870065
-1.7260144 2.4353404 2.8785534
-1.6754812 2.4383688 2.8882406
-1.624701 2.43611 2.8686965
-1.5626715 2.4432349 2.8686929
-1.522065 2.4425681 2.8733623
-1.4601208 2.4422901 2.8745494
-1.4220966 2.4435515 2.8831825
-1.3717371 2.4478092 2.8812742
-1.3296126 2.4453979 2.8759499
-1.2787583 2.4428153 2.8733919
-1.2114346 2.4417543 2.8784959
-1.1719031 2.4421651 2.8747225
-1.1256506 2.4378395 2.8848271
1.0886209 2.433845 2.8919663
1.1149362 2.433603 2.8830082
1.1789666 2.4384875 2.8674803
1.2172664 2.4385159 2.8784077
1.2509089 2.4405816 2.8811929
1.3224573 2.4450171 2.8689232
1.3532524 2.4468858 2.8878651
3.1262596 2.4325316 2.8881197
3.1712108 2.4231541 2.8622005
-1.5861138 2.4513152 2.8693697
-1.4832323 2.4506128 2.8762145
-1.4004991 2.4509492 2.8736229
-1.3186562 2.450731 2.8685527
-1.2653604 2.4513772 2.8903251
-1.2252191 2.4514203 2.8866072
1.1580698 2.4502964 2.8907247
1.2834162 2.4519536 2.8718145
1.3369905 2.4500258 2.8988566
1.3854566 2.4561579 2.8875976
1.4097042 2.4602809 2.8636751
1.4737664 2.4924037 2.8810363
1.5165255 2.473762 2.8787284
1.5910778 2.4732287 2.8998075
1.6356456 2.4709148 2.8744636
1.6832558 2.4760597 2.8719871
1.7197516 2.4674606 2.8679845
1.7559062 2.4606032 2.8809049
1.8164619 2.4926116 2.8978717
1.8842943 2.4950569 2.8634136
1.9288923 2.4849677 2.865957
1.970026 2.4867325 2.8783643
2.0213819 2.4865603 2.8582678
2.0523086 2.4933922 2.8969996
3.0978615 2.489759 2.8836503
3.1267138 2.4847271 2.8802066
3.1687317 2.4719586 2.8617616
1.4824983 2.5009968 2.8693147
1.5018851 2.5029147 2.8631725
2.0988665 2.5028989 2.8837869
2.2363055 2.5294242 2.8879712
2.2848873 2.5296261 2.8804512
2.3214397 2.5373905 2.8774624
2.418756 2.5364695 2.8756714
2.4661934 2.5238869 2.8879669
2.5317764 2.5288389 2.8849425
2.5664732 2.5329592 2.8674176
2.6281478 2.5428543 2.8764334
2.6952786 2.5269215 2.8682723
2.7425587 2.5307646 2.8953097
2.7693675 2.5368135 2.8685417
2.8279142 2.5302486 2.8856173
2.875174 2.5334716 2.8844182
2.9856749 2.5327656 2.8841224
3.0702543 2.5078158 2.8643172
3.1242585 2.5153313 2.8576925
-0.77342534 -0.46037337 2.9267597
-0.72085446 -0.47810653 2.9245069
-0.6763711 -0.482694 2.9176781
-0.62470424 -0.49242938 2.922821
-0.59493601 -0.49869442 2.9205949
-0.81708086 -0.42008302 2.9247198
-0.79314369 -0.4489896 2.9454112
-0.81946063 -0.37633279 2.9304852
-0.82205564 -0.32010308 2.9238129
-0.82627332 -0.27591124 2.9216847
-0.82632881 -0.22399639 2.9230142
-0.8285473 -0.17463483 2.9228911
-0.95107967 0.23160005 2.9255207
-0.94792962 0.20919746 2.9169478
-1.1911318 0.29342496 2.9038138
-1.260151 0.334811 2.9270563
-1.2234242 0.32630488 2.9277811
-1.1722438 0.32082108 2.9258089
-1.273446 0.37369952 2.9350431
-1.2231549 0.37203458 2.9353821
1.6942266 0.36036104 2.9470768
-1.2769444 0.42430487 2.9411399
-1.2261575 0.42514005 2.937536
-1.2646706 0.47101378 2.9401848
-1.2297314 0.47871211 2.940428
-1.2573169 0.52574921 2.94034
-1.233205 0.52504081 2.9432926
-1.6813401 0.59894735 2.9469755
-1.2642918 0.57600707 2.9401329
-1.2410138 0.57565963 2.9453311
-1.670922 0.61089206 2.9262829
-1.2636472 0.62647188 2.9414186
-1.2338222 0.62813008 2.9427991
-1.1991194 0.63930619 2.9467971
-0.96507269 0.60201305 2.9326832
-1.2719557 0.67746258 2.9368529
-1.228264 0.67917699 2.9431698
-1.1672814 0.66729593 2.9033482
-0.9408114 0.66432887 2.9464436
-1.2681042 0.73106831 2.9416387
-1.2230201 0.72399932 2.9421623
-1.251545 0.75653893 2.9313912
-1.2318852 0.75839615 2.9454916
-0.98216683 0.76539159 2.9100902
3.1447616 0.78660572 2.9090481
3.0393555 0.82736975 2.9417031
3.0745132 0.82914114 2.9214742
3.1092401 0.82109988 2.9027095
3.0477867 0.86819339 2.9401374
3.0759442 0.88125879 2.9207776
3.0381951 0.94825536 2.9460063
3.072902 0.92329341 2.9262896
3.1030812 0.93111122 2.9049389
3.0433242 0.97891241 2.942616
3.0773489 0.97412252 2.918999
3.1076279 0.96158904 2.9008982
3.0365498 1.018593 2.9425876
3.0819795 1.0208838 2.913662
-1.7627779 1.0785573 2.9168401
-1.749161 1.0801245 2.9288297
3.0397236 1.0715882 2.948705
3.0742695 1.0692827 2.9204497
3.1051586 1.0741264 2.9021177
3.0487809 1.1235738 2.941597
3.0811472 1.1247681 2.917912
-1.7725888 1.1832777 2.9154034
3.031842 1.1733841 2.9449451
3.0681429 1.1729356 2.9301858
3.1088409 1.1706443 2.9123936
-1.8017621 1.2319493 2.902118
-1.78554 1.2221559 2.926821
3.043113 1.2267506 2.9384604
3.082238 1.2240126 2.9195073
3.113055 1.2017426 2.9059429
-1.8000394 1.2917579 2.9168866
-1.7875544 1.2761723 2.9316759
3.0343089 1.2999992 2.9408102
3.0787106 1.2722934 2.9294055
3.1238554 1.2889781 2.9050312
-1.805366 1.3371117 2.9103527
-1.7898111 1.3261137 2.9313328
3.0726359 1.3292193 2.9276361
3.1085477 1.3065181 2.90154
-1.8099808 1.3808542 2.9158564
-1.7900181 1.3725213 2.9379194
3.0729678 1.3772504 2.9219012
3.1157351 1.3733592 2.9029174
-1.8107163 1.420561 2.9124653
-1.7953365 1.4218907 2.939405
3.0700359 1.4248881 2.9313507
3.1072178 1.4283339 2.9112718
-1.8174167 1.4766831 2.9190011
-1.79448 1.4701698 2.9391
3.0788989 1.473713 2.9413345
3.1204462 1.4727259 2.9141738
-1.816219 1.524927 2.9170132
3.0860436 1.5156001 2.9382877
3.114769 1.5233043 2.9130218
-1.8174771 1.5741642 2.9251418
3.081893 1.5786572 2.9355781
3.1142912 1.5666732 2.9067466
-1.825345 1.622152 2.9201555
3.0739317 1.6341769 2.9395244
3.1165347 1.6236281 2.9179661
-1.82768 1.6776022 2.9279335
3.0794189 1.6761336 2.9331989
3.1151032 1.6790278 2.9110756
-1.8343513 1.7254992 2.9321103
3.0755997 1.7274747 2.9390957
3.1190317 1.7275261 2.9134259
-1.8544343 1.764192 2.9024491
-1.8354076 1.7796074 2.930795
3.0832436 1.7712128 2.9338498
3.1236172 1.7695068 2.9052048
-1.8582931 1.8461123 2.9130301
-1.8323278 1.8201717 2.9262335
3.0409386 1.8481383 2.9499793
3.0818775 1.8173823 2.9302945
3.1275749 1.8276153 2.909296
-1.8587403 1.8818197 2.9100397
-1.8412608 1.8820883 2.9355953
3.0818102 1.8632454 2.935529
3.1259599 1.872611 2.9129329
-1.8563241 1.9329656 2.9238443
-1.8433086 1.9198427 2.9350812
3.0825393 1.920343 2.935545
3.1225445 1.9168917 2.9145439
-1.8612697 1.9739678 2.9191062
3.0786023 1.9646151 2.9361477
3.1133485 1.9669642 2.9127693
-1.8589225 2.0265765 2.9322557
3.0807521 2.0131686 2.9421721
3.1112015 2.0219119 2.9170163
-1.8724591 2.0734391 2.918921
-1.8447878 2.0770884 2.9457293
3.0773127 2.0689616 2.9364846
3.1213191 2.069279 2.9111762
-1.8725294 2.1243677 2.92836
3.0794301 2.1176679 2.9327407
3.1211672 2.1183045 2.9058073
-1.8735387 2.175894 2.9183578
3.0753713 2.1651728 2.9318964
3.1095686 2.1670246 2.9079356
-1.8647265 2.2205083 2.9269321
3.0746379 2.2154064 2.9337754
3.1033707 2.2305691 2.9083552
-1.8659014 2.2700446 2.9235818
3.0710979 2.2698874 2.9337513
3.1153471 2.2799499 2.9108217
-1.865621 2.3182521 2.917249
-1.8427494 2.3245771 2.9407749
3.0778728 2.325665 2.9330425
3.1124618 2.3275967 2.9093888
-1.8631241 2.3547721 2.9134789
-1.8329635 2.3756254 2.9278748
3.0302036 2.3539653 2.9429357
3.0771327 2.3762658 2.9247189
3.1042259 2.3913758 2.9061763
-1.8084635 2.4084756 2.9288921
-1.7741274 2.421438 2.9280925
-1.7238045 2.4286261 2.9226379
-1.6769722 2.435452 2.9252405
-1.6220713 2.4320452 2.9261258
-1.5751719 2.4426944 2.9191747
-1.5192965 2.4431231 2.929306
-1.4653664 2.4408834 2.9365864
-1.4243689 2.4403343 2.9268072
-1.3768872 2.4423614 2.9200511
-1.3278166 2.4483094 2.9384406
-1.2791562 2.4467525 2.9261808
-1.216267 2.4426339 2.934103
-1.1909052 2.4453542 2.9094107
-1.1301372 2.4489553 2.935092
-1.0792409 2.4407859 2.9283369
-1.0334518 2.4404469 2.9359732
-0.97586155 2.4384887 2.9321938
-0.93867457 2.4336493 2.9361787
0.93900907 2.4343989 2.9372432
0.95815468 2.4382555 2.9370408
1.0298368 2.4408073 2.9195869
1.0696167 2.4375601 2.9302454
1.1197653 2.4457521 2.9343829
1.1799108 2.4409845 2.9075091
1.2267011 2.4454954 2.9345238
1.2793082 2.4429867 2.9115412
1.3456757 2.447793 2.9309156
1.3647408 2.4494972 2.9256682
3.0455711 2.4174645 2.9498277
3.0727429 2.4315288 2.9223924
-1.5132947 2.4517713 2.9043427
-1.4857334 2.4515443 2.9164217
-1.3194737 2.4509633 2.9068742
-1.2309353 2.4540396 2.9068415
-1.1685381 2.4545996 2.9297705
-1.133673 2.455158 2.9053698
-1.0788831 2.4518588 2.9188452
-1.0427797 2.4504745 2.9283118
0.99912071 2.4521232 2.9436626
1.1464834 2.4545693 2.9189324
1.3203799 2.4512827 2.9457855
1.3872681 2.4572892 2.9275382
1.4191407 2.4561059 2.9322753
1.4768655 2.4696629 2.9148445
1.5318508 2.4669204 2.9183762
1.5677886 2.4690437 2.9184558
1.6212269 2.4726341 2.9257381
1.6779411 2.4784596 2.9276133
1.7214979 2.4780471 2.9259937
1.7794112 2.4872229 2.9241459
1.8063852 2.4857924 2.9366021
1.8619502 2.4967749 2.9233546
1.9243813 2.4905062 2.9379137
1.9900438 2.4879169 2.9257693
2.0272257 2.4876616 2.9184787
2.1278176 2.4963303 2.92591
3.0240872 2.4809659 2.9428356
3.0667832 2.4799416 2.9170744
3.103883 2.4728847 2.9028521
1.8977391 2.5063448 2.9183629
2.2338831 2.5292258 2.9385424
2.2790055 2.5251923 2.92643
2.4272108 2.5356402 2.9197562
2.4671869 2.535593 2.9437726
2.5177624 2.5249534 2.9143143
2.573796 2.5297348 2.9093175
2.6222489 2.5363898 2.92255
2.6610289 2.5336289 2.9067192
2.717819 2.5266144 2.9243298
2.7692666 2.5246544 2.9189973
2.8143394 2.5291355 2.931565
2.873256 2.5296643 2.9258173
2.9285598 2.5188465 2.928797
2.9910393 2.5140281 2.9291506
3.0077271 2.5081825 2.933542
3.0519221 2.509109 2.9009869
2.3653634 2.5547023 2.9455357
-0.76246226 -0.45228776 2.9734559
-0.73410165 -0.46358499 2.9745293
-0.66714478 -0.48117888 2.9837422
-0.61955684 -0.49270535 2.9700186
-0.57693899 -0.49345779 2.9803572
-0.78408676 -0.42585507 2.9712784
-0.80745465 -0.36198974 2.9501078
-0.78763956 -0.38187224 2.9815688
-0.80883855 -0.33360389 2.9574249
-0.79404825 -0.32823616 2.9786484
-0.80560106 -0.27935964 2.9633565
-0.79028875 -0.27431241 2.9834228
-0.80787355 -0.22452031 2.9606862
-0.79194242 -0.22900784 2.982286
-0.80619526 -0.17343636 2.9567947
-0.79368532 -0.17099878 2.9811423
-0.78319067 -0.14561446 2.9855671
-1.291692 0.33920079 2.9607332
-1.2034268 0.34300286 2.9506748
-1.1894722 0.33581531 2.9578385
-1.6829367 0.39453286 2.9755874
-1.322749 0.35096443 2.9916248
-1.1890464 0.37296841 2.9536269
-1.682343 0.42592219 2.9712627
-1.3218017 0.41166908 2.983937
-1.1909783 0.42587078 2.9534345
-1.6936507 0.47639808 2.9858322
-1.3059424 0.48762819 2.9790785
-1.2855035 0.48372975 2.9584894
-1.2096874 0.47964135 2.9527607
-1.1949242 0.47973132 2.9575748
-1.6945311 0.52427465 2.9813921
-1.3043882 0.52506596 2.9708762
-1.2831204 0.53018194 2.9606621
-1.212092 0.52563566 2.9532099
-1.1967562 0.52548826 2.9567089
-1.7022617 0.566517 2.9895353
-1.6915541 0.58673686 2.9672725
-1.3061161 0.57912898 2.9677303
-1.2869568 0.56974041 2.9644942
-1.2178825 0.57221466 2.9545174
-1.1988865 0.564004 2.9570889
-0.97790694 0.59514308 2.973774
-1.3148843 0.62901205 2.9809551
-1.2896444 0.6241861 2.9629972
-1.2084748 0.61015838 2.953629
-0.95801967 0.62649578 2.9821453
-1.3204163 0.6778307 2.9862258
-1.2876117 0.65360671 2.9536369
-1.2207021 0.68056709 2.9522533
-1.3263475 0.72731352 2.9917681
-1.2936246 0.71011955 2.9585557
-1.3009579 0.75250524 2.9685071
-1.279191 0.76402223 2.955653
-1.2090541 0.75833344 2.9520066
2.9890561 0.84584481 2.9774153
3.029218 0.84908313 2.9630678
2.9711504 0.87499475 2.9881456
3.0242341 0.87933296 2.9687448
2.9786513 0.92536849 2.9828844
3.0248501 0.92450029 2.9610858
2.9784331 0.97656572 2.9872971
3.0119636 0.97809684 2.9662743
-1.7095866 1.0450747 2.9783356
2.977936 1.0280262 2.9906147
3.0062883 1.0278281 2.9644191
-1.7242473 1.0930108 2.9544141
2.983912 1.0786202 2.9815869
3.018183 1.0805242 2.9609809
-1.7379696 1.120295 2.9802716
2.9791121 1.1144258 2.9839721
3.0171711 1.1246926 2.9583168
-1.7589357 1.192562 2.970731
-1.7402279 1.1745443 2.9799156
2.9432404 1.1885154 2.9961076
2.9809265 1.1724483 2.9860084
3.0111086 1.1728696 2.9611769
-1.7636337 1.2289709 2.9679279
-1.7448465 1.2249408 2.9927042
2.9460766 1.2091526 2.9921391
2.9679985 1.2258649 2.9852066
3.0132527 1.2265141 2.9642255
-1.7604252 1.2723216 2.972894
2.9778094 1.2739985 2.9894753
3.0266485 1.271364 2.9628866
-1.7596043 1.3214447 2.96855
-1.739035 1.3080732 2.9939225
2.9901979 1.3233117 2.9878724
3.0163379 1.3278078 2.9654961
-1.7647479 1.3755144 2.9736202
2.9876013 1.3807787 2.9890501
3.029495 1.3801119 2.9639778
-1.7743454 1.4284581 2.9784658
2.9874666 1.4168831 2.987766
3.025013 1.4223301 2.9617186
-1.7771199 1.4694029 2.976341
2.9961348 1.457375 2.9949412
3.0192513 1.468945 2.9763155
3.0528255 1.4855921 2.9676867
-1.8024739 1.5262892 2.9526298
-1.7839918 1.5238181 2.9806767
2.9962268 1.5475247 2.9974215
3.0191314 1.5238814 2.9729671
3.0534339 1.5160055 2.9550838
-1.7844766 1.5698522 2.9751325
2.9991329 1.5691408 2.9912314
3.028245 1.5838732 2.9695036
3.0750825 1.557078 2.9625034
-1.8058224 1.6213355 2.9609282
-1.7891868 1.6316299 2.983933
2.9906139 1.6256971 2.996917
3.0236619 1.6272506 2.9733739
3.0529962 1.6166945 2.9506538
-1.8076406 1.6741536 2.9625325
-1.7919546 1.6754824 2.9815884
3.0213025 1.6721375 2.9789543
3.0536427 1.6887977 2.9596436
-1.8050971 1.7231096 2.9715252
-1.7854012 1.7207141 2.991956
2.9833405 1.7414287 2.9889905
3.0296257 1.7229345 2.9775887
3.0576129 1.711368 2.9535208
-1.8082358 1.7679714 2.9683013
-1.7889614 1.7590753 2.9964626
2.9851673 1.7716279 2.9834216
3.029376 1.7621465 2.964896
3.0579288 1.7845105 2.9606955
-1.8060346 1.8290956 2.9746664
-1.7988342 1.8041661 2.9954062
3.0195155 1.8163513 2.9741981
3.0585918 1.8054167 2.9508271
-1.8206465 1.8722566 2.9694309
3.0189528 1.8637806 2.9796658
3.0553951 1.8775619 2.9530849
-1.8172764 1.9210249 2.9743321
3.024183 1.9216846 2.9779129
3.0579247 1.9269325 2.9521115
-1.8300803 1.9716418 2.9674339
2.9894509 1.9811957 2.9891739
3.026361 1.9774898 2.968272
-1.8316119 2.0215561 2.9692492
2.9822211 2.0318599 2.9966664
3.0176394 2.0347414 2.9745998
3.054693 2.0282092 2.9597456
-1.8230157 2.065078 2.9800732
2.9842286 2.0821946 2.9937832
3.0266135 2.0890861 2.9696186
3.0585654 2.0517256 2.9516411
-1.8588178 2.1203001 2.9512441
-1.8298719 2.1208477 2.9807658
2.9843035 2.1315651 2.9884424
3.0201638 2.1347389 2.9666464
-1.8561373 2.1935666 2.9511487
-1.8344684 2.1718626 2.9762182
2.9904263 2.1857271 2.9886208
3.0295215 2.1730022 2.9571157
-1.8361021 2.2271409 2.9679573
2.9931831 2.2272773 2.9913869
3.0242796 2.2162426 2.9710824
-1.8281885 2.2774153 2.9706147
2.9842505 2.2790451 2.9948475
3.0192425 2.2638738 2.9683385
-1.8188658 2.3315728 2.9804747
2.9868994 2.3221424 2.9881792
3.0292492 2.3211148 2.961978
-1.8077313 2.3656147 2.9768145
-1.7919422 2.388479 2.978651
-0.51696593 2.3989744 2.9786808
2.9857483 2.371707 2.9879398
3.0138655 2.374974 2.9623861
-1.7733675 2.4076843 2.9756413
-1.729352 2.4199152 2.9772491
-1.6813161 2.4319022 2.9707711
-1.6222219 2.4182916 2.9677517
-1.5723871 2.4317036 2.9699516
-1.5305612 2.4380236 2.9676805
-1.4727341 2.4388173 2.9840257
-1.4225624 2.4378619 2.9736285
-1.3710892 2.4414759 2.9741006
-1.3196526 2.4486341 2.9809213
-1.2684495 2.4424822 2.9817257
-1.2261572 2.444392 2.9708862
-1.1730072 2.4463992 2.9769893
-1.1276373 2.4450123 2.9676416
-1.0835969 2.4469874 2.9843483
-1.0316089 2.4423409 2.9693108
-0.97406322 2.4383848 2.9684865
-0.92653602 2.4440362 2.9769423
-0.87238467 2.4366 2.9750452
-0.82569313 2.4382792 2.9708149
-0.76399976 2.4386351 2.9851754
-0.72643369 2.4313064 2.983603
-0.63551831 2.4204123 2.9869709
0.63237405 2.4081359 2.9719179
0.67186755 2.424907 2.9861717
0.73311377 2.4238949 2.972796
0.78115791 2.4371073 2.9795666
0.82664269 2.4322021 2.980478
0.87332433 2.4390476 2.9781761
0.92483395 2.4422386 2.9727473
0.97478521 2.4401612 2.9708319
1.033784 2.4403508 2.966222
1.0902605 2.4417119 2.9752982
1.1311814 2.440115 2.9724398
1.1544099 2.4445748 2.9584401
1.2378381 2.4495039 2.974107
1.2757663 2.4465907 2.9689891
1.3184782 2.4464025 2.9784076
1.3548632 2.446234 2.9640548
2.9817839 2.419441 2.9844835
3.0175836 2.4324293 2.9641914
-1.3501954 2.4543734 2.9772859
-1.2854137 2.453851 2.9625206
-1.0863311 2.4508882 2.9518747
-1.0111699 2.4599226 2.9502654
0.82154649 2.4521701 2.9899731
0.99027181 2.4743848 2.975528
1.00713 2.4538534 2.979903
1.1889043 2.4602132 2.968142
1.2115624 2.4513707 2.9859762
1.2763551 2.4538414 2.9661219
1.3873417 2.4552963 2.9640102
1.4371338 2.4594979 2.9894462
1.4905777 2.4715419 2.9843254
1.5236877 2.4688246 2.9793708
1.5757082 2.4792998 2.9782016
1.6137831 2.4710469 2.9688177
1.6716317 2.4795353 2.9820826
1.7284007 2.4826641 2.9726524
1.7683253 2.4817498 2.9797866
1.8250914 2.492358 2.9811544
1.8998396 2.4959004 2.9909959
1.9635134 2.4837663 2.9808614
2.0219712 2.4863603 2.9742072
2.0641813 2.4805799 2.9625442
2.1369917 2.4890394 2.9801669
2.1782539 2.4920483 2.9755833
2.9317575 2.4877195 2.9795623
2.9670336 2.4769838 2.9711456
3.0074928 2.4647036 2.9612777
1.8893529 2.5013831 2.9602911
1.9960232 2.5002205 2.9892321
2.2651341 2.5331607 2.9747729
2.3487074 2.5492756 2.9986427
2.3673885 2.5474813 2.9827132
2.435473 2.5451205 2.9836507
2.472239 2.530762 2.9842615
2.5378947 2.5347455 2.9988914
2.5771182 2.5325651 2.966356
2.6232371 2.5263019 2.9754949
2.6730731 2.5233386 2.9699821
2.7237411 2.5310876 2.966085
2.7795873 2.5321188 2.9829717
2.8310504 2.5188489 2.9746757
2.8750627 2.513402 2.9735136
2.9132943 2.5010829 2.9922252
2.3908827 2.5508537 2.9726989
2.4120593 2.5517192 2.9596217
2.5257676 2.553761 2.9893012
-0.71648949 -0.46158358 3.0190773
-0.67983949 -0.4733468 3.0282264
-0.63214844 -0.48792171 3.0319197
-0.59869879 -0.48478368 3.0163953
-0.75739831 -0.42483306 3.0215642
-0.73976666 -0.43111897 3.0390275
-0.76702327 -0.36977836 3.0235724
-0.76955348 -0.32501629 3.0227587
-0.76812828 -0.27359119 3.0203891
-0.76987487 -0.21910685 3.0202055
-0.77254897 -0.18007153 3.0223627
-0.76328677 -0.14741451 3.0274227
-0.85924596 0.34236515 3.0268693
-0.84226549 0.34151053 3.0221508
-1.6696955 0.39356947 3.0222805
-1.6482431 0.36577272 3.02106
-1.3328782 0.38440403 3.0118306
-0.87097436 0.36504552 3.0480154
-0.8477329 0.35866767 3.0405967
-1.6833318 0.43225265 3.0253937
-0.85091865 0.44249213 3.0446382
-0.83349258 0.43375275 3.0392983
-1.6823416 0.48093417 3.0258045
-1.3390359 0.4633503 3.0180254
-0.85976374 0.46571594 3.0456634
-1.6842315 0.53103089 3.0333283
-0.87010342 0.51245236 3.0492544
-1.7006944 0.59547788 3.0183353
-1.6923583 0.57664293 3.0275407
-0.98414195 0.58509916 3.0352283
-1.7032515 0.62858385 3.0179405
-1.6932186 0.63085073 3.0355816
-0.96287203 0.60816431 3.0262551
-0.94930589 0.62048066 3.032728
-1.6887954 0.67438489 3.0326693
-1.6845442 0.72299105 3.0409503
-1.6883171 0.77342081 3.0387073
-1.3282604 0.77158642 3.0091109
-1.7002294 0.83625734 3.0486798
-1.6950188 0.82279807 3.0415287
-1.7015144 0.87790775 3.042208
-1.7055459 0.90464675 3.0439265
-1.6951014 0.92386883 3.0323613
2.8821535 0.93165743 3.0434754
2.9302993 0.93552268 3.0136704
-1.7069186 0.97120553 3.0308068
2.8913229 0.97311819 3.0426016
2.9223831 0.97389853 3.0206752
2.9566066 0.97570366 3.0014782
-1.7080849 1.0212775 3.0203717
2.8867459 1.0230224 3.0420089
2.9274731 1.0280507 3.0188005
-1.7258008 1.0809468 3.0228324
2.8827038 1.0733163 3.0413532
2.9189065 1.0760229 3.0245993
2.9525509 1.0777462 3.0045815
-1.7209432 1.12688 3.0274465
2.8935637 1.1161618 3.0405536
2.9236343 1.1287793 3.0260894
2.9654629 1.1311849 3.0019872
-1.7264323 1.1719916 3.0268066
2.8823323 1.1776593 3.0460012
2.924885 1.1726966 3.0193613
-1.7289662 1.2250583 3.0287948
2.896657 1.2226102 3.0476179
2.9263158 1.2228105 3.0233715
-1.7307733 1.277185 3.02391
2.9220121 1.2765121 3.0300193
2.951571 1.2784139 3.0130267
-1.7503747 1.3334814 3.0075357
-1.7332222 1.3313062 3.0363388
2.8952413 1.3286629 3.046994
2.9296227 1.3309329 3.0272601
2.9641492 1.3332355 3.0071182
-1.7519829 1.3516014 3.0042844
-1.7386371 1.3780184 3.0307071
2.9249065 1.3727404 3.0254011
2.9706018 1.365802 3.0019999
-1.7611439 1.4096181 3.001236
-1.7429464 1.4277565 3.0167868
2.8931258 1.4258429 3.0466299
2.9215779 1.4222999 3.0258403
2.965416 1.4222631 3.0137389
-1.7546101 1.4855547 3.0154219
-1.7443334 1.4741634 3.0420473
2.9261394 1.4780953 3.0329089
2.9653919 1.476855 3.0113657
-1.7605715 1.5282552 3.0132675
-1.7385 1.5192275 3.0412426
2.8935018 1.5255227 3.0464442
2.9295583 1.5287939 3.0277634
2.9807105 1.5246297 3.0094726
-1.7649879 1.5797768 3.0162513
-1.7482532 1.571156 3.0404916
2.9225049 1.5756803 3.0400863
2.9701865 1.5797818 3.013797
-1.7626575 1.6200838 3.0200291
-1.7453341 1.6455148 3.0476768
2.9298093 1.6183558 3.0370452
2.9656107 1.6300517 3.0203297
-1.768357 1.6723692 3.0117316
-1.7470729 1.6646791 3.0429282
2.9377069 1.6702923 3.0371633
2.972234 1.672704 3.0156822
-1.7652749 1.7265238 3.0308135
2.8961117 1.7201489 3.0451219
2.9353607 1.720216 3.0271616
2.9728601 1.7121533 3.0044811
-1.7734016 1.7787303 3.0235376
2.929827 1.7749754 3.0409172
2.9642611 1.7773205 3.0191839
-1.7819164 1.8301103 3.0312164
2.9268367 1.8381234 3.0415618
2.9720099 1.8236084 3.0183022
-1.8006302 1.8954221 3.0000191
-1.7863442 1.8704407 3.0204322
2.9388628 1.885644 3.0405097
2.9706392 1.8828092 3.0173485
-1.7847446 1.9195601 3.020334
2.9282329 1.9345473 3.0372937
2.971849 1.9274151 3.0130384
3.0025117 1.9037402 3.0038958
-1.8044648 1.9818733 3.0110481
-1.789959 1.9767709 3.0312474
2.9340096 1.9786537 3.0286524
2.9717517 1.983191 3.0096116
-1.808349 2.0326145 3.0166984
-1.7855785 2.0195041 3.0486126
2.9353378 2.0364058 3.0367196
2.9613485 2.0317764 3.0139518
-1.8033965 2.0738363 3.007
-1.7880368 2.0733671 3.0366273
2.927356 2.0788147 3.0321264
2.9621174 2.0813193 3.0098996
-1.8083488 2.1378341 3.0334101
2.925498 2.12587 3.0334642
2.9570308 2.1345577 3.0186553
-1.8121331 2.1794202 3.0169249
-1.7917111 2.1734622 3.0391974
2.9225914 2.1821814 3.0354986
2.968308 2.1743584 3.0112057
-1.8122106 2.2280383 3.0138257
-1.7912018 2.236659 3.0399876
2.8961666 2.2177165 3.0471246
2.9223394 2.2322025 3.0288799
2.9731236 2.2280788 3.0098069
-1.8110893 2.2756062 3.0080488
-1.7922773 2.2802911 3.0334294
2.884141 2.2670772 3.0473344
2.9241705 2.273572 3.0305433
2.9653206 2.2612038 3.0102813
-1.8000208 2.313529 3.0119855
-1.7808908 2.3266993 3.0352509
2.9285614 2.3173423 3.0345342
2.9622731 2.3187537 3.0106983
-1.7711729 2.3754611 3.0240448
-1.7425942 2.3943434 3.0430741
2.8952816 2.3783875 3.044066
2.9300456 2.369885 3.0283499
2.9663229 2.3732677 3.0070643
-1.754135 2.4031627 3.00757
-1.7205305 2.4137685 3.0306563
-1.6704499 2.4234166 3.0206535
-1.6238128 2.429831 3.027235
-1.5772167 2.4322829 3.0354705
-1.5222143 2.4351983 3.0227053
-1.4798781 2.4473839 3.0345216
-1.4303961 2.4393239 3.0328622
-1.3912879 2.4416885 3.0219216
-1.3350846 2.4494352 3.0351648
-1.276473 2.435132 3.0166316
-1.2367921 2.4472792 3.0094662
-1.1794161 2.4418724 3.0215206
-1.1237466 2.4389918 3.0204961
-1.0808504 2.4431398 3.0170612
-1.0146587 2.4451823 3.0208831
-0.97910702 2.4463782 3.0324454
-0.92697763 2.4371243 3.0156052
-0.85380858 2.4327595 3.0279739
-0.83085167 2.439116 3.02033
-0.77825141 2.4380376 3.0164442
-0.71876168 2.4367328 3.0183146
-0.66991007 2.4366336 3.0275903
-0.62220424 2.4364603 3.0329552
-0.57710242 2.4238183 3.0183372
-0.52376407 2.4199038 3.0248256
-0.48313165 2.4210417 3.0341501
-0.37361187 2.4272757 3.0321584
-0.33747834 2.4204936 3.0270829
-0.27727464 2.4305115 3.0447619
-0.22360711 2.4213319 3.036828
-0.17035222 2.4129744 3.0291066
-0.12658159 2.4111457 3.0286002
-0.074475341 2.4206805 3.0420098
0.056952424 2.417753 3.0386598
0.12727478 2.4228039 3.0432701
0.17097339 2.4201405 3.0381539
0.22391078 2.4237742 3.0399096
0.26799351 2.4256401 3.0393434
0.32209373 2.435981 3.0480385
0.37219754 2.4178498 3.0204039
0.42560491 2.4228661 3.0209506
0.47940204 2.4285939 3.0215566
0.53360683 2.4306014 3.025156
0.57713002 2.4325728 3.0124459
0.62039351 2.432653 3.0261395
0.68090028 2.439626 3.0382345
0.72147101 2.4421804 3.022073
0.7743991 2.4352918 3.0279732
0.82747555 2.4411781 3.0310733
0.87621927 2.4452541 3.0393367
0.91958547 2.4412234 3.0231373
0.97644269 2.4441907 3.0211973
1.0197384 2.4468517 3.0255299
1.0921044 2.4479802 3.0204699
1.2165754 2.4432797 3.0111032
1.2739422 2.4477193 3.0358088
2.8848326 2.430464 3.0444243
2.9180899 2.4206285 3.0273123
2.9532404 2.4230843 3.0049496
-1.3697339 2.4527068 3.0464928
-1.340483 2.4517577 3.0166597
-1.284915 2.4511757 3.036556
-1.2352811 2.453187 3.0376453
-1.0448213 2.4524727 3.022074
-0.98720396 2.4532421 3.0210798
-0.90860885 2.4537947 3.0064187
-0.88736832 2.4513788 3.0446243
-0.79617882 2.4562402 3.0008881
1.0692285 2.456995 3.0272915
1.1224489 2.4549184 3.0205116
1.1769611 2.4553437 3.0261309
1.247651 2.450619 3.0105433
1.282511 2.4556375 3.0245318
1.3352454 2.4590173 3.0293431
1.3819358 2.4598913 3.0124745
1.4192194 2.462606 3.0315897
1.4674935 2.4609299 3.0192897
1.5226451 2.4748898 3.0162811
1.5705055 2.4772134 3.0296485
1.6158606 2.4682732 3.0198593
1.6588457 2.4823525 3.0282955
1.7219819 2.4817567 3.0179813
1.77794 2.4875507 3.0428762
1.8224686 2.4957972 3.0328197
1.8797886 2.4949303 3.0005515
1.9234228 2.4945879 3.0215459
2.1181238 2.4922962 3.0301409
2.1580827 2.4936366 3.0240748
2.8442385 2.4970498 3.0372043
2.8776264 2.4765394 3.0279715
2.9221935 2.4665852 3.0121896
1.8682386 2.5053413 3.0236847
1.9934772 2.5019507 3.0406799
2.0144866 2.5036156 3.0312717
2.0917234 2.5056784 3.0368381
2.2483537 2.527972 3.0270958
2.3752356 2.5463901 3.0274453
2.4181983 2.5386755 3.0366733
2.5155687 2.543592 3.0315959
2.5808678 2.5288219 3.029773
2.6286561 2.5153003 3.0196638
2.6814516 2.5196295 3.0316374
2.7306566 2.5222445 3.0192814
2.775532 2.5160086 3.0306728
2.8183584 2.5154235 3.0163352
2.409533 2.5501647 3.0109048
-0.70515269 -0.45243162 3.0884514
-0.6700297 -0.46403185 3.0685983
-0.62786931 -0.47288555 3.072618
-0.58005315 -0.48641875 3.077884
-0.52601492 -0.49245739 3.0741093
-0.72282845 -0.42606571 3.0754638
-0.73116183 -0.37490502 3.0731382
-0.75596702 -0.31272972 3.0516031
-0.73296827 -0.32799304 3.0761018
-0.75566417 -0.27290094 3.0528581
-0.73400265 -0.27733994 3.0787804
-0.75601459 -0.22338656 3.056942
-0.73713201 -0.22443813 3.0751021
-0.75629228 -0.17127702 3.0602908
-0.73074806 -0.17529805 3.0830843
-0.74498349 -0.14965849 3.0783381
-1.6282265 0.3364104 3.0584002
-0.8843717 0.34638104 3.0594392
-1.6589432 0.37979573 3.0759535
-1.6464354 0.37254629 3.0898297
-0.86433983 0.38346431 3.0556145
-1.6640221 0.41942808 3.0633519
-1.6439766 0.42556193 3.0893855
-0.86776644 0.42272305 3.0644224
-1.6611581 0.47104093 3.0708036
-1.6358544 0.4631325 3.0978646
-0.90928781 0.48716748 3.0772958
-0.88212836 0.48696461 3.060817
-0.83817655 0.48127925 3.0517914
-1.6566057 0.51885611 3.0749636
-0.96224606 0.53691328 3.0860636
-0.9237873 0.52653754 3.0781198
-0.88898015 0.52223802 3.0585322
-1.6650912 0.57033479 3.0703504
-1.0019698 0.56406146 3.0530365
-0.96626884 0.56814462 3.0621119
-0.94038671 0.5743947 3.0810025
-1.6719388 0.6187821 3.0716603
-1.669584 0.66787761 3.0782766
-1.6695701 0.72361255 3.0830765
-1.6740996 0.77062309 3.0803905
2.7747471 0.77373213 3.0694115
-1.6746614 0.82341903 3.0788748
2.7955575 0.81751937 3.0839221
2.8008065 0.83808255 3.085284
-1.6790538 0.87509489 3.0766277
2.7926185 0.89862865 3.0982349
2.8058929 0.87775999 3.0816319
-1.6814178 0.92705327 3.0745966
2.7979441 0.91948181 3.0992737
2.8268785 0.9270311 3.0811989
2.8585842 0.920605 3.0570199
-1.7018 0.99427491 3.054141
-1.6858736 0.97722352 3.071528
2.8271301 0.97081256 3.0823488
2.8684683 0.97187018 3.0545945
-1.7062565 1.0301148 3.0536606
-1.6862922 1.0248176 3.0753956
2.8260565 1.0219158 3.0857918
2.8596249 1.0170947 3.059958
-1.7079722 1.0789946 3.0572851
-1.6879593 1.0710613 3.0800292
2.7980344 1.0607249 3.098299
2.8352404 1.0735545 3.0815177
2.8607354 1.0722934 3.0543976
-1.7017728 1.1211489 3.0600517
-1.684741 1.1265352 3.0854597
2.8271577 1.1219237 3.0871804
2.8653836 1.1292984 3.0574093
-1.7094936 1.1766629 3.0592592
-1.6924137 1.1777622 3.0820744
2.796144 1.1740106 3.0993176
2.8321948 1.1769483 3.0838535
2.8622413 1.1773531 3.0612876
-1.7054974 1.2210398 3.0651519
-1.6844553 1.2195005 3.0886657
2.8296375 1.2189143 3.0862446
2.8626642 1.2205737 3.0666976
-1.7085897 1.2725295 3.0689108
-1.6974798 1.2769177 3.0868654
2.8296826 1.2720293 3.0874288
2.8758049 1.2752126 3.0632305
-1.7129437 1.3233361 3.0680187
-1.6909163 1.3276737 3.0993111
2.8316569 1.3264111 3.0901141
2.8633809 1.3275188 3.0687258
-1.7125473 1.3720763 3.0688081
-1.696825 1.3753031 3.095402
2.8278294 1.3754392 3.0908344
2.8715336 1.3707361 3.0622287
-1.7175189 1.428022 3.0708654
-1.6979667 1.4278164 3.07903
2.8380396 1.424593 3.087239
2.8666909 1.430388 3.0691814
-1.7166628 1.4733796 3.0662904
-1.6947882 1.4917535 3.0927165
2.8380229 1.4841779 3.0903671
2.8757546 1.4816092 3.0635808
-1.7167337 1.52619 3.0686729
-1.6957241 1.5099336 3.0877097
2.8362551 1.5267813 3.0979671
2.8653188 1.5263801 3.072859
-1.7218262 1.5773143 3.0783174
2.8346207 1.5727834 3.0897334
2.8748436 1.571479 3.0653114
-1.7319876 1.6231704 3.0745523
2.8319261 1.615472 3.095448
2.8748794 1.6173843 3.0744388
2.9060643 1.6334635 3.0564699
-1.7566335 1.6914098 3.0516281
-1.7330034 1.6712627 3.0743611
2.8383074 1.6854061 3.0931807
2.8731587 1.676092 3.0720456
2.9156735 1.6692338 3.0521932
-1.7330147 1.7256458 3.0782921
2.8408232 1.7334485 3.0954351
2.876471 1.7269404 3.0679476
-1.7508537 1.7561299 3.0560358
-1.7358493 1.776883 3.0848551
2.8462703 1.7672334 3.0862665
2.8768797 1.7838454 3.0756776
2.9076974 1.7738897 3.0560055
-1.7635655 1.8135667 3.0566068
-1.7437555 1.8208442 3.081634
2.8496208 1.8434435 3.0971344
2.8796771 1.8328506 3.0769043
2.9150581 1.8255976 3.0620186
-1.7623712 1.871194 3.0618045
-1.7439137 1.8664765 3.0841522
2.873807 1.8772726 3.077131
2.9170132 1.8847702 3.0562353
-1.7613077 1.9263569 3.0734656
-1.7427695 1.930252 3.0995941
2.8468819 1.927124 3.0946405
2.8829932 1.9306756 3.0752704
2.9164033 1.92202 3.0582206
-1.7655848 1.9810333 3.0748138
2.8295124 1.9602358 3.0976868
2.873419 1.979562 3.0810416
2.9078097 1.9818996 3.0593259
-1.764456 2.0267067 3.0730228
2.8472562 2.0244577 3.087985
2.8810451 2.0253468 3.0742443
2.9105535 2.0325413 3.0581136
-1.7636169 2.0757182 3.0805259
2.8366437 2.0733778 3.0916467
2.8727312 2.0769503 3.071866
2.9021292 2.0652153 3.0507104
-1.7765489 2.1255462 3.07212
2.8499234 2.1144931 3.0877299
2.8755636 2.1285176 3.0698299
2.9023952 2.1433749 3.0529356
-1.768851 2.1760676 3.0779591
2.8441067 2.1783819 3.0893488
2.8776722 2.1799946 3.0664213
-1.7737232 2.2223141 3.0728707
-1.7494582 2.2457051 3.0992498
2.8347113 2.2296238 3.0928061
2.8650618 2.2286565 3.0663962
-1.7657793 2.2738023 3.0773778
2.8439622 2.2793417 3.0764189
2.8634291 2.2780037 3.0579214
-1.7651569 2.3210447 3.0723619
-1.7458076 2.3321028 3.0932374
2.8284101 2.3351107 3.0919776
2.8718257 2.3251491 3.0663731
2.9034698 2.3036151 3.0543432
-1.7589269 2.3527737 3.0547335
-1.732006 2.3793647 3.0752211
2.8274491 2.3752615 3.0901077
2.8710449 2.3653145 3.0647252
-1.7107066 2.40288 3.0726736
-1.6789708 2.4195042 3.0818133
-1.6242508 2.4288166 3.0824497
-1.5793436 2.4294796 3.0893955
-1.52354 2.4350536 3.0800827
-1.4767061 2.4388664 3.0641243
-1.4279071 2.435565 3.079067
-1.3737873 2.4413521 3.0683308
-1.327338 2.4415097 3.086056
-1.2804332 2.4459124 3.0796714
-1.2279283 2.4476621 3.0775955
-1.1679434 2.4426599 3.0741987
-1.1293041 2.4333642 3.0638494
-1.0081348 2.4460859 3.0794735
-0.96726549 2.4440782 3.0692716
-0.92546046 2.441597 3.0766854
-0.87708306 2.4378378 3.0743241
-0.82162559 2.4432559 3.0762892
-0.77408421 2.4412236 3.0784914
-0.72701579 2.4320691 3.0687935
-0.67310369 2.4375105 3.0807917
-0.62065274 2.4299257 3.0711958
-0.57722044 2.4351392 3.0850046
-0.52908188 2.4193845 3.0716064
-0.48594689 2.4261432 3.0862598
-0.35915828 2.4220886 3.0780718
-0.33211881 2.4233332 3.0736115
-0.27906549 2.4354796 3.0712514
-0.22584939 2.4346585 3.0738032
-0.17271449 2.4324775 3.0789828
-0.11524688 2.4344702 3.0836861
-0.075384825 2.4316902 3.089653
-0.030945288 2.43472 3.0771949
0.022152692 2.4330957 3.0751736
0.079472646 2.4281261 3.0681081
0.12822711 2.4300413 3.0725651
0.18601358 2.4322345 3.0780454
0.22628284 2.4317813 3.0837636
0.26998618 2.4331112 3.0689387
0.32452917 2.4366987 3.0828335
0.37694907 2.4352758 3.067565
0.43171218 2.4395154 3.0756292
0.47842288 2.4296396 3.068826
0.51772296 2.4373722 3.0792952
0.57699066 2.4427717 3.0775683
0.62247324 2.4369931 3.0802402
0.66716558 2.4366596 3.0720291
0.72214836 2.4318116 3.0730674
0.77418065 2.4357109 3.076643
0.8264817 2.4395971 3.0794744
0.87258977 2.4422617 3.0723903
0.92509377 2.4399655 3.0710561
0.97038853 2.4472935 3.0822163
1.0267968 2.4469621 3.0756226
1.1264957 2.447037 3.0840595
2.8353331 2.4237411 3.0886285
2.8679383 2.4139366 3.0622232
-1.323084 2.4522815 3.0635276
-1.2109849 2.4506505 3.0616934
-1.1113044 2.4541652 3.0985372
-1.0744272 2.4516232 3.0681145
-1.0386573 2.4535158 3.0811489
0.32704124 2.4735529 3.0950963
1.0761732 2.4555144 3.0731735
1.1224004 2.4564698 3.0604312
1.1744564 2.4511979 3.0747414
1.2251296 2.4605045 3.0710325
1.2754064 2.4589081 3.0709491
1.3299968 2.4696956 3.0764477
1.3843306 2.4669158 3.0752544
1.4151809 2.4647067 3.0869734
1.4769772 2.4737532 3.0753548
1.5451607 2.4924438 3.0743599
1.5794629 2.4825354 3.086478
1.6243234 2.4758623 3.0773206
1.6725783 2.4837556 3.0668876
1.7292778 2.4868207 3.0661731
1.754689 2.4859009 3.0742588
1.8267138 2.4954267 3.0751824
2.0138202 2.4952469 3.0651288
2.0814364 2.4972513 3.0771887
2.1203265 2.4977369 3.079293
2.150496 2.4879308 3.0683436
2.7709484 2.4882829 3.0946691
2.8222837 2.4747176 3.0743501
1.8817502 2.5038815 3.059695
1.9214236 2.5085554 3.0766418
1.9758104 2.5044906 3.0550478
2.2245204 2.5048277 3.0772748
2.2678671 2.5192394 3.0754805
2.3349624 2.547158 3.0559096
2.3801777 2.5420704 3.0687969
2.4360065 2.5365593 3.0739515
2.4803076 2.5396478 3.0761878
2.5265234 2.5302048 3.071378
2.5606585 2.5258296 3.0755739
2.6197557 2.521214 3.0801349
2.6791055 2.5160575 3.0835578
2.7188816 2.5126419 3.0761991
2.7628274 2.5128548 3.0727987
-0.66704845 -0.45737246 3.1288605
-0.61992484 -0.46641684 3.1267216
-0.57229108 -0.47498605 3.1209381
-0.52842116 -0.48655313 3.1346273
-0.49574783 -0.48436844 3.1238382
-0.70785421 -0.4087415 3.1044705
-0.68420744 -0.42877501 3.1290312
-0.70801848 -0.37854359 3.107713
-0.69240004 -0.38469711 3.1360123
-0.71269304 -0.32537481 3.1093121
-0.6909734 -0.32444915 3.1360352
-0.71160448 -0.26867062 3.1138215
-0.69697469 -0.27417573 3.1357386
-0.71452475 -0.22675823 3.1117113
-0.69260156 -0.22443309 3.1363821
-0.7101627 -0.17236142 3.1153891
-0.69523728 -0.17471904 3.1325316
-1.6202372 0.34146562 3.1169147
-1.6231829 0.37463629 3.1197994
-1.6193321 0.42133373 3.1269102
-1.6263101 0.47689077 3.1264997
-1.6321087 0.5239864 3.1214075
-0.96017098 0.5169208 3.1084356
-1.6361326 0.57449406 3.1227129
-1.6513934 0.63146961 3.1059189
-1.6253526 0.62447381 3.1243792
-1.5910392 0.61706746 3.1436014
2.7274776 0.64390135 3.1487026
-1.6551319 0.67399895 3.1065087
-1.6286114 0.67660999 3.1314626
2.7371192 0.69123423 3.1333218
2.7517831 0.68309015 3.1340053
-1.6554401 0.70696849 3.1016827
-1.6248813 0.72402442 3.1336277
2.7343273 0.7213921 3.1425011
-1.632635 0.78294533 3.1299198
2.7309947 0.78324854 3.1405463
-1.6515646 0.82002866 3.112236
-1.6292305 0.82957035 3.1251075
2.7208009 0.8272869 3.1407895
-1.6552156 0.87993717 3.1071866
-1.6298398 0.8781234 3.130795
2.7316201 0.87826347 3.1421511
2.76983 0.8792001 3.1185787
-1.655557 0.92750674 3.1107941
-1.6288155 0.91962963 3.1371257
2.7389297 0.92843938 3.1387546
2.7691219 0.92898029 3.1187625
-1.6580127 0.96941614 3.1127408
-1.6377211 0.96384335 3.1337624
2.7425175 0.98620349 3.1406448
2.7721784 0.97695237 3.1224444
-1.6643267 1.0234352 3.1123765
-1.6308407 1.0287395 3.1453075
2.7368615 1.0248736 3.1357162
2.7791603 1.0263571 3.1108158
-1.6673731 1.0734444 3.1098232
-1.6344233 1.0816728 3.1393411
2.7434795 1.0715582 3.1434407
2.7715058 1.0712512 3.1204433
2.8053381 1.0828178 3.1005671
-1.6631991 1.1318651 3.1123304
-1.6359265 1.1232703 3.1313701
2.7408712 1.1257464 3.139297
2.7787848 1.1224083 3.1138198
-1.662297 1.1725585 3.1135807
-1.6381475 1.1834425 3.1405301
2.7389104 1.1743188 3.1450164
2.7653327 1.173233 3.1198905
-1.6673409 1.223712 3.1088948
-1.6346028 1.2211754 3.1434531
2.7394531 1.203657 3.136101
2.7720623 1.2303165 3.1241446
2.8097191 1.2186869 3.1012325
-1.6795734 1.2780004 3.1090045
-1.64033 1.2597212 3.1440787
2.736577 1.2792846 3.1463897
2.7719922 1.2775084 3.1205788
2.8014965 1.2920603 3.1049376
-1.6688836 1.3249346 3.1282229
2.7449243 1.3125515 3.1454847
2.7729061 1.3264965 3.1282535
2.8092151 1.3250623 3.1026149
-1.6805958 1.378261 3.1213818
2.7405622 1.3986259 3.1483724
2.7745552 1.3665042 3.1235173
2.8002083 1.3990104 3.1034513
-1.6838156 1.4253647 3.1205838
-1.6478806 1.426764 3.149982
2.7450106 1.4206226 3.1457767
2.7761655 1.4264859 3.1316981
2.8134501 1.4353328 3.106226
-1.6826595 1.4787244 3.1230385
2.7359574 1.4855651 3.1491296
2.7663648 1.4760878 3.1312907
2.8086796 1.47601 3.1110609
-1.680743 1.5250137 3.1220438
2.7380955 1.506546 3.1433537
2.768877 1.5223539 3.1279957
2.8103077 1.5234997 3.1071987
-1.700109 1.5998014 3.1071351
-1.6886203 1.57094 3.1167445
2.7813833 1.564395 3.1354432
2.8108892 1.5691895 3.109344
-1.7077084 1.6334535 3.1099164
-1.6925861 1.6270733 3.1259975
2.7864079 1.630964 3.1299181
2.8124707 1.6258222 3.1074419
-1.7110573 1.6808151 3.1128881
-1.6896626 1.6726589 3.1359749
2.7790599 1.6804043 3.1317165
2.8272097 1.6746656 3.1048586
-1.7120028 1.7172712 3.1148784
-1.6961715 1.7282925 3.1386909
2.7873919 1.7303495 3.1404192
2.8115339 1.7353898 3.1127679
-1.7120476 1.7712282 3.1230228
-1.6945728 1.771844 3.1400623
2.7926102 1.7819123 3.1375418
2.8248119 1.7830213 3.1153746
-1.7195621 1.8242341 3.1236007
-1.6977181 1.8298405 3.1454363
2.7788129 1.8262815 3.1313603
2.8303797 1.8261451 3.108916
-1.7176012 1.8710731 3.1214657
2.7796357 1.875165 3.1393914
2.8233156 1.8770601 3.1102834
-1.7216644 1.9186195 3.1243508
2.7768514 1.9213014 3.13397
2.8169467 1.9288077 3.1118677
-1.7301817 1.9744216 3.1245947
2.7810144 1.9726424 3.1358421
2.8225183 1.9787135 3.1083138
-1.7391504 2.024941 3.1137371
2.7884402 2.0268464 3.1408021
2.817369 2.0252995 3.1139946
-1.7320815 2.0720904 3.1298237
2.7856452 2.0740693 3.1336155
2.8168402 2.0740857 3.1092126
-1.7365124 2.1233754 3.1283486
2.7789698 2.1265831 3.1413312
2.823034 2.1283119 3.1112137
-1.7549874 2.1632197 3.1066895
-1.7335494 2.1715341 3.1320586
2.7823839 2.1793504 3.1400597
2.8154428 2.1805692 3.1172683
-1.7353518 2.2205865 3.1245208
2.7811832 2.2289357 3.1329141
2.813638 2.2296181 3.1093466
-1.7339087 2.2750707 3.1220074
2.7711644 2.2803051 3.1352842
2.815218 2.2810547 3.1134307
-1.7199236 2.3273027 3.1272793
2.780678 2.3382213 3.1296997
2.8282876 2.313664 3.1054654
-1.7082359 2.3649616 3.1219134
-1.6887728 2.3913505 3.1229954
2.7450697 2.3992248 3.1448665
2.7720346 2.3734477 3.1288586
2.8031933 2.37275 3.1034379
-1.6704059 2.4116871 3.1206553
-1.6192007 2.4217715 3.1281924
-1.5615911 2.423559 3.116287
-1.5301148 2.4302468 3.1260006
-1.4784367 2.4363947 3.1260171
-1.4262075 2.4426467 3.1211011
-1.3790113 2.4390178 3.1235995
-1.3294818 2.4439569 3.1289139
-1.2767309 2.4394023 3.1143873
-1.2289191 2.4495277 3.1321132
-1.1697745 2.4430895 3.1420054
-1.1268978 2.4449058 3.1287303
-1.0621688 2.4472048 3.1033609
-1.0280838 2.4444573 3.1280615
-0.97094113 2.4490216 3.1308143
-0.92351979 2.4433439 3.1226063
-0.86753517 2.4402266 3.1317034
-0.83029008 2.4445579 3.1337166
-0.77735156 2.4374473 3.1231995
-0.71431988 2.4354742 3.1209881
-0.67914367 2.4391973 3.1324606
-0.624506 2.4337521 3.125047
-0.56877649 2.4275174 3.1255527
-0.52569258 2.4272363 3.1172676
-0.48263875 2.4368074 3.1355073
-0.42287248 2.4345908 3.1309502
-0.37524137 2.4260101 3.1194978
-0.31742868 2.4215581 3.1212533
-0.28184736 2.4304156 3.1211319
-0.22849059 2.4383271 3.1262472
-0.17443001 2.4297345 3.1266451
-0.12069403 2.4329464 3.1242371
-0.075910375 2.4303417 3.1220567
-0.026790401 2.4298587 3.1306715
0.022385158 2.4298239 3.1220658
0.076080941 2.4389443 3.1245341
0.13421093 2.4290113 3.1273448
0.17751832 2.4288304 3.128252
0.21477258 2.4302607 3.1253128
0.27710465 2.4270387 3.1171839
0.3277221 2.4336579 3.1303871
0.37740877 2.4318957 3.1200552
0.42296815 2.439362 3.1284649
0.46862784 2.4364069 3.1227851
0.52766478 2.4405537 3.1257536
0.57561344 2.4292679 3.1245887
0.61819279 2.437391 3.1167603
0.67848659 2.438782 3.1171796
0.72914869 2.4283175 3.120652
0.77683485 2.4357476 3.1211557
0.83342725 2.4418621 3.1172955
0.87790668 2.441766 3.121696
0.92254835 2.4425232 3.1342099
0.95920187 2.4424357 3.1249352
1.0302685 2.445179 3.1223705
1.0654401 2.4493139 3.1309068
1.1318789 2.4402204 3.1111336
2.7391973 2.4356647 3.1371403
2.7761869 2.4260967 3.1187637
-1.335446 2.4548919 3.1429691
-1.2162697 2.4521332 3.1204906
-1.1876178 2.4507432 3.1278505
-1.083306 2.4550469 3.1336319
-1.0084007 2.4506133 3.1231244
-0.8950085 2.4610946 3.1290491
-0.44578329 2.4505303 3.122849
0.98256165 2.4549427 3.1361568
1.0040786 2.4624691 3.1408715
1.0828581 2.4522929 3.1045947
1.1097407 2.4525466 3.1352553
1.1768441 2.4522834 3.1239007
1.2267382 2.4637375 3.1338363
1.2775391 2.4678073 3.1264441
1.329131 2.4619842 3.1155832
1.3766723 2.4680252 3.1202981
1.4301014 2.4779749 3.1280506
1.4783833 2.4761691 3.1303248
1.5195788 2.4769909 3.1180353
1.6036301 2.4860711 3.123944
1.6740843 2.4856186 3.1346674
1.7328105 2.4905567 3.1369762
1.8184983 2.4913363 3.118259
1.8789986 2.4869401 3.1257064
1.9002036 2.4888959 3.1176982
1.9623913 2.4980683 3.1465902
2.1573915 2.4990387 3.133863
2.4607537 2.499265 3.149497
2.6908102 2.4940903 3.1468105
2.7215908 2.4820743 3.1286836
2.7536757 2.4712644 3.1118283
