ply
format ascii 1.0
comment PCL generated
element vertex 1494
property float x
property float y
property float z
element camera 0
property float view_px
property float view_py
property float view_pz
property float x_axisx
property float x_axisy
property float x_axisz
property float y_axisx
property float y_axisy
property float y_axisz
property float z_axisx
property float z_axisy
property float z_axisz
property float focal
property float scalex
property float scaley
property float centerx
property float centery
property int viewportx
property int viewporty
property float k1
property float k2
end_header
1.2192855 2.3604538 4.1520424
-1.0108683 2.4178376 4.1973047
-0.97337306 2.4314957 4.1780982
-0.92449307 2.443676 4.1582861
-0.87941599 2.4430494 4.1645956
1.1327703 2.424675 4.18612
1.1702251 2.4314666 4.1649475
1.2021972 2.4162476 4.1558967
-0.83902508 2.459918 4.1676412
-0.77810359 2.4639518 4.167212
-0.72263753 2.4656034 4.177639
-0.67608881 2.4705062 4.1676979
-0.63126361 2.4699087 4.1719904
-0.57343513 2.4727221 4.1589508
-0.51788282 2.4732189 4.1653023
-0.4631075 2.4782856 4.1787834
-0.39463088 2.468823 4.1679754
0.36250833 2.4986701 4.1730328
0.40862557 2.4855316 4.1954141
0.49733573 2.4813657 4.1811275
0.54124391 2.4777539 4.1708703
0.67745209 2.4862466 4.170372
0.74731004 2.4952035 4.176692
0.77926028 2.4895523 4.1625528
0.88489431 2.4804318 4.1798706
0.92153865 2.4881191 4.1872482
0.96446329 2.4821849 4.1695032
1.0264434 2.4957778 4.1819911
1.0827338 2.4720964 4.1797371
1.1233201 2.4624255 4.1711721
-0.92045426 -0.027104877 4.2148361
-0.50356293 0.11198667 4.2452316
-0.47178328 0.11167458 4.2361584
-0.42911232 0.11113373 4.218492
-0.39750034 0.10072114 4.2068195
-0.91819096 0.27718365 4.2305722
-0.89860296 0.26715958 4.2383366
-0.9115079 0.33303502 4.2214661
-0.89974833 0.31892374 4.2413454
-0.9142707 0.38189584 4.2267699
-0.92889804 0.42102462 4.2232723
1.0787269 0.42337394 4.2238927
-0.91921109 0.4726606 4.223845
1.0759399 0.47343454 4.2336154
1.1004771 0.48578471 4.2199202
-0.91926974 0.52405596 4.2201037
1.083184 0.52876019 4.2334471
-0.92108762 0.57653177 4.2238474
1.0831249 0.57022411 4.2296824
-0.93204534 0.61816728 4.221519
1.0696099 0.6083411 4.2294335
1.0472442 0.68786085 4.2476344
1.0734495 0.67992479 4.2375007
-0.90111947 0.70051819 4.2170157
1.0782052 0.71894127 4.2376995
1.1162047 0.72698051 4.215312
-0.91388202 0.7747066 4.2185707
1.0826471 0.76853186 4.2408743
1.1220847 0.77710676 4.2179632
-0.90288466 0.82575488 4.2101402
-0.88836467 0.8210628 4.2436833
1.0940304 0.82720292 4.2439733
1.1263036 0.82119071 4.2173586
-0.90778625 0.87173146 4.2273827
-0.88981134 0.85363811 4.2464466
1.0862008 0.86491209 4.2367115
1.1183807 0.87152958 4.213522
-0.91199571 0.93832499 4.2379346
1.0960846 0.92316264 4.2386537
1.123624 0.93042707 4.2168078
1.1526291 0.9389534 4.2008319
-0.91717386 0.97445214 4.2059073
-0.89265865 0.98168451 4.2417068
1.0859065 0.9758997 4.2337179
1.1245673 0.97304595 4.2138405
1.1534387 0.96049154 4.2005448
1.0874127 1.0192816 4.2328
1.1284223 1.022773 4.2122297
1.0862809 1.0706451 4.2418175
1.1204547 1.0793097 4.2229304
1.0831625 1.1308762 4.2408085
1.1221815 1.1276455 4.2210803
1.0848839 1.1750293 4.2396131
1.1248341 1.172569 4.2231312
1.0900611 1.2338046 4.2494354
1.1288637 1.2242433 4.2179351
1.0900981 1.2657547 4.2430658
1.1253964 1.2777431 4.216763
1.0935199 1.3124161 4.2473898
1.1225215 1.3302178 4.2256784
1.1595968 1.3315424 4.2104936
1.0958434 1.3793604 4.24225
1.1239176 1.3745036 4.2214327
1.1533682 1.3715012 4.2062178
1.0979863 1.4249157 4.2406454
1.1272206 1.4212886 4.2239199
1.1566484 1.4180558 4.2082624
1.1218513 1.4716157 4.2225966
-0.96609914 1.5376959 4.2197156
-0.93674672 1.5420586 4.2367635
1.1222718 1.5252631 4.2239065
1.1627945 1.522067 4.2068477
-0.96504134 1.570269 4.2238407
1.0867593 1.5790083 4.249754
1.1263353 1.5774971 4.2270389
1.1667819 1.5810663 4.2072339
-0.96897423 1.6065385 4.2154303
1.0868201 1.6007305 4.2442684
1.126303 1.6276141 4.2268405
1.091084 1.6504476 4.2491364
1.1209493 1.6790056 4.223814
1.1623478 1.6762483 4.2085114
1.0956352 1.7445707 4.2420101
1.1250199 1.7285926 4.2266264
1.1620134 1.7207505 4.2096219
1.0978932 1.780961 4.2409792
1.127563 1.7760885 4.2232103
1.157726 1.7722353 4.2076898
1.1206536 1.82622 4.2270532
1.1599104 1.8082533 4.2056155
-0.99845868 1.8992764 4.2166557
1.0837386 1.8817315 4.2480211
1.1233732 1.8744968 4.2234054
-0.99060023 1.9270937 4.2245245
1.1273233 1.9251188 4.2239308
1.167763 1.9192262 4.202322
-1.0040143 1.9757073 4.2182021
-0.98552561 1.9716721 4.240519
1.0899327 1.9810307 4.2430892
1.1263405 1.9728798 4.2234893
1.1503563 1.9818422 4.2046857
-1.0054539 2.0225129 4.2090163
-0.99070936 2.0263243 4.2476673
1.0858496 2.0352075 4.2407908
1.1226299 2.024456 4.2196174
-1.0143929 2.0848577 4.2306771
1.0860066 2.083307 4.242044
1.1262131 2.0753071 4.2172198
1.1569037 2.0706589 4.2011299
-1.0131552 2.1155577 4.2133512
-0.9969762 2.1171386 4.2467279
1.0994362 2.1211321 4.2365503
1.1235625 2.1295815 4.2164931
-1.0020604 2.195142 4.2432251
1.0826857 2.1769962 4.2459087
1.1234318 2.1803102 4.2175679
-1.0105966 2.2348802 4.231957
1.0861583 2.2177749 4.2465363
1.1283162 2.229068 4.2205582
1.1513824 2.247062 4.2115169
-1.0035911 2.2770195 4.2188506
-0.98466831 2.2738967 4.2423902
1.0884049 2.267483 4.2375441
1.119478 2.2731724 4.2159686
1.1523608 2.2714672 4.206038
-1.0133362 2.3331177 4.2459874
1.0864062 2.3282568 4.2407289
1.1204294 2.3204603 4.2191381
-1.0111948 2.3733947 4.2180743
-0.99355817 2.3853099 4.2433343
1.0862374 2.3777342 4.2381291
1.1274241 2.3686926 4.2130594
-0.97741729 2.4273138 4.2331858
-0.94634891 2.4488425 4.2138143
-0.85466331 2.4459341 4.2234282
1.0808392 2.4287868 4.2245669
1.1174995 2.405695 4.2059946
-0.91581357 2.4581776 4.2355633
-0.82471365 2.4616737 4.2224917
-0.76048815 2.4569166 4.2066035
-0.74341774 2.475107 4.2407947
-0.62479532 2.4775279 4.2101302
-0.56997192 2.4837637 4.2267199
-0.490803 2.4831464 4.2331185
0.78741682 2.4929199 4.2162943
0.8330403 2.4939606 4.2114611
0.88306457 2.4956872 4.2317729
0.91860199 2.4881182 4.2378178
0.98818934 2.4795465 4.2360315
1.0259311 2.4825037 4.2260532
1.0615968 2.4693549 4.2128153
0.36663389 2.5045314 4.2305932
0.73291492 2.5002697 4.2364583
-0.9013927 -0.030780278 4.2571888
-0.87905449 -0.034431394 4.2860618
-0.53694195 0.034387406 4.2940316
-0.56487197 0.068768173 4.2949262
-0.52781546 0.076945134 4.2755642
-0.47596619 0.081974275 4.274334
-0.57132095 0.10303605 4.2907829
-0.53702247 0.1126028 4.2659044
-0.90195096 0.28877383 4.253222
-0.87481415 0.27968815 4.276545
-0.88600063 0.32139751 4.277123
-0.87744027 0.37399089 4.2845931
-0.90386307 0.42368513 4.2546911
-0.88156772 0.42277002 4.2843127
1.0283459 0.42849994 4.2639098
-0.90356272 0.45453793 4.251142
-0.88261545 0.47782838 4.2769136
1.0257365 0.46874082 4.268364
-0.88939244 0.53069627 4.2796297
1.0273143 0.52159631 4.2708235
1.0663834 0.54111427 4.2516279
-0.90674198 0.58051211 4.255959
-0.88554621 0.57084578 4.2922854
1.0269889 0.57355809 4.2648697
-0.909899 0.61371642 4.267838
-0.89226675 0.61590588 4.2859716
1.0279713 0.62629074 4.2640643
-0.88089722 0.68827456 4.2755475
1.0286012 0.67367816 4.2618976
-0.91041064 0.74936837 4.2557039
-0.88029772 0.71907192 4.2691283
1.0294275 0.72213542 4.2785463
1.0518517 0.73275369 4.2615962
-0.88530493 0.77555615 4.2872424
1.0246116 0.77777308 4.2790594
1.0590646 0.78133166 4.2630081
-0.87517059 0.82828772 4.2837024
1.0263147 0.83170474 4.2794962
1.0655677 0.82948786 4.2611456
-0.88192302 0.87345433 4.2755609
1.0255569 0.87315381 4.2706327
1.0626951 0.87550324 4.2580519
-0.89014804 0.91660166 4.2657309
1.0289755 0.92274541 4.268805
1.0677691 0.92590374 4.2566676
0.99917519 0.96228462 4.2855988
1.023455 0.97955626 4.2773499
1.0590975 0.98019969 4.2578416
-0.87456435 1.0171967 4.2806807
1.0345318 1.029381 4.2855601
1.0611591 1.0243511 4.2593374
1.0289218 1.074749 4.2823257
1.0629154 1.068351 4.259274
1.0273259 1.1250885 4.2857203
1.0650785 1.1235433 4.2585649
1.0309918 1.1750298 4.280458
1.0674412 1.1791282 4.2581539
1.0270188 1.2270586 4.2845864
1.0703323 1.2249759 4.2614746
1.023546 1.2755908 4.2888737
1.0621977 1.2705501 4.2647371
0.99213701 1.3194363 4.2882762
1.0234394 1.318318 4.2794137
1.0709498 1.3225853 4.2626276
0.99428064 1.3652864 4.2882261
1.0265597 1.3761085 4.2807288
1.0681399 1.3743057 4.2677622
0.99752188 1.4236851 4.2900119
1.0303276 1.4351208 4.284153
1.0692178 1.4294238 4.2598057
1.0357578 1.4772936 4.2817855
1.0710337 1.4749068 4.2567272
1.0358422 1.5295858 4.2860913
1.075336 1.5240974 4.2631545
1.0326794 1.5802753 4.2894869
1.0748239 1.5682133 4.2659512
0.98720479 1.6146406 4.2998381
1.0289416 1.6226217 4.2819328
1.0756825 1.6200944 4.2559519
1.0267788 1.6708093 4.2935352
1.0678428 1.6678865 4.2614336
1.0375034 1.7239267 4.2932024
1.0756377 1.714775 4.2626729
1.0322236 1.7677048 4.2912807
1.0681617 1.7641324 4.2656436
1.0310311 1.8197454 4.2879648
1.0752505 1.8228416 4.2695093
-0.9740805 1.8937448 4.2658935
1.0275331 1.8673465 4.289197
1.0642421 1.8751353 4.2655444
-0.96648145 1.9335334 4.2719688
1.0360355 1.917238 4.2809753
1.0826794 1.9332961 4.2609925
-0.96836394 1.9815996 4.2656074
-0.94959521 1.966419 4.2917957
1.028863 1.9635415 4.2865477
1.0653952 1.9757762 4.2644691
-0.95813292 2.0169828 4.2795177
1.0258883 2.0185874 4.2907329
1.0591863 2.0185611 4.2657757
-0.97685552 2.0735071 4.2774754
1.0355277 2.0714252 4.2816448
1.0541219 2.0639849 4.2623143
-0.9695617 2.1192009 4.2830911
1.0411762 2.1277432 4.2888441
1.0664148 2.1220229 4.2629876
-1.0030308 2.1636362 4.2600489
-0.97719401 2.1764326 4.281558
1.0366075 2.182765 4.2842984
1.0695778 2.1658227 4.2617612
-0.97597855 2.2235336 4.2777109
0.97950703 2.219837 4.2968731
1.0240459 2.2295685 4.2815838
1.0666909 2.2241063 4.2629189
-0.97520858 2.271929 4.2753735
1.0384116 2.2815728 4.2744193
1.0684116 2.2729387 4.2520103
-0.98335338 2.3313081 4.2740135
1.0213155 2.3283722 4.2883167
1.0602827 2.3296993 4.2660522
-0.97405976 2.3705494 4.2711349
0.99231791 2.3865972 4.2981877
1.0247105 2.3704801 4.2884526
1.0543547 2.3713427 4.2584233
-0.96523958 2.4110222 4.2698355
-0.92703617 2.4327888 4.2773294
0.98717839 2.4310544 4.2943091
1.0260313 2.4194243 4.2747016
1.0572367 2.4121346 4.2555132
-0.88756746 2.4516323 4.2792478
-0.81364465 2.4588163 4.2524271
-0.75109667 2.4777269 4.29461
-0.72435731 2.4647834 4.275125
-0.66802132 2.490099 4.276432
-0.57517213 2.4836397 4.2752748
-0.53891218 2.4742167 4.2623959
0.36917967 2.4991899 4.2699642
0.62090164 2.4839382 4.2710819
0.72719634 2.4968925 4.2811527
0.77149546 2.4921417 4.2669773
0.81763399 2.4933114 4.2625499
0.87210208 2.4921756 4.2862105
0.92890805 2.4929421 4.2955618
0.97393769 2.4785597 4.2879395
1.0234154 2.4643533 4.2621999
0.46293354 2.51493 4.2902184
0.52904886 2.5033114 4.264472
0.85432464 2.5003517 4.2695084
0.94691586 2.5026417 4.2587314
0.96940476 2.5014467 4.2527747
-0.85391665 -0.06276264 4.3381801
-0.82543129 -0.076670758 4.3386807
-0.55597419 -0.06228479 4.3340483
-0.85619545 -0.027689412 4.3138461
-0.83274311 -0.041797396 4.3398881
-0.56795442 -0.020766925 4.3454685
-0.53346264 -0.04136546 4.3219376
-0.83117336 0.041932035 4.331789
-0.56555688 0.016590253 4.3110361
-0.52112508 0.010391795 4.3064661
-0.86121178 0.073194832 4.3207455
-0.8335517 0.063022755 4.3438654
-0.51052827 0.061966982 4.3046784
-0.85629874 0.10518818 4.3496337
-0.76462555 0.10414151 4.3170114
-0.85731852 0.2667397 4.322886
-0.8342936 0.27299723 4.3422232
-0.86192745 0.32403189 4.316556
-0.85084319 0.3759743 4.3117394
-0.83745515 0.37702903 4.3256507
-0.86009651 0.43284765 4.3189745
-0.86148709 0.46849632 4.3235183
-0.83780706 0.48494479 4.3482556
-0.86561042 0.52484512 4.3219485
-0.86504912 0.58275723 4.3322978
-0.86801153 0.62096906 4.3254614
-0.8611244 0.67227668 4.3126955
1.0172369 0.69583714 4.3037629
-0.8555969 0.72460914 4.3062687
-0.85702795 0.77840257 4.3072963
-0.86051542 0.8343578 4.318203
-0.840792 0.84632909 4.3267941
-0.85923523 0.87530637 4.3061457
-0.84093666 0.87823516 4.3232689
-0.86053926 0.91889298 4.3067436
-0.83602196 0.9264645 4.3288879
-0.86283392 0.97427768 4.3103542
-0.8288663 0.97068006 4.3384676
-0.84525597 1.0209779 4.3249907
1.0063647 1.033126 4.3063321
1.0070609 1.0658027 4.3040071
1.0095991 1.1112278 4.3074713
0.99422753 1.2899609 4.3040857
1.011385 1.4910288 4.3036323
1.00618 1.5339489 4.3037577
1.0076765 1.5689099 4.3019085
0.99365675 1.6801343 4.3131118
1.0146595 1.6895018 4.3024364
0.99903548 1.7333667 4.3241138
1.0182314 1.7284799 4.3082757
0.99890232 1.7773015 4.3107815
1.0206306 1.7877389 4.3024063
1.0013318 1.825887 4.3080711
1.0035237 1.8853488 4.3003883
-0.95143479 1.9256866 4.3146229
-0.93402433 1.9357342 4.3406234
0.9865433 1.9287653 4.3161936
1.0061219 1.9236003 4.3008814
-0.93262017 1.9775428 4.3195553
0.98954666 1.9794049 4.3147182
1.0102382 1.9872959 4.300159
-0.93764597 2.0330944 4.3277826
0.99387097 2.0329962 4.3184476
1.0148828 2.0413058 4.3046837
-0.94055986 2.0845225 4.3256474
0.98934126 2.0879211 4.3157125
1.018225 2.0818124 4.3070583
-0.94561321 2.141016 4.3327656
0.98781204 2.1227431 4.315382
1.0146891 2.138937 4.3077106
-0.9647876 2.1672113 4.3011804
-0.935498 2.166472 4.3318357
0.98056614 2.1655436 4.3227229
1.0095254 2.18172 4.3052359
-0.95414984 2.2289562 4.3465338
0.97640276 2.2273483 4.3396878
-0.95427382 2.2749972 4.3295636
0.98036528 2.282213 4.3396268
1.0099453 2.2827702 4.3087001
-0.95795673 2.3296378 4.3281732
0.98077017 2.3290536 4.3232679
1.010494 2.3068571 4.3019876
-0.95819664 2.3646901 4.3153181
0.97177732 2.3753395 4.3200169
-0.92689484 2.4288225 4.3349771
0.92368221 2.4224648 4.3413339
0.95701778 2.4218409 4.3172617
-0.88053054 2.4593308 4.3286304
-0.84533751 2.4620626 4.3044429
-0.77175707 2.4796543 4.3292899
-0.70533419 2.4781086 4.301106
-0.67724377 2.4795618 4.3239665
-0.64043641 2.4933698 4.3356776
0.39550763 2.499295 4.3177657
0.62858391 2.4915922 4.3339052
0.67517638 2.4932828 4.331605
0.73073661 2.4860611 4.3120861
0.78473836 2.4914551 4.3315983
0.82680941 2.4866235 4.3256302
0.8738417 2.465713 4.3326426
0.91698092 2.4703794 4.3188186
0.95329577 2.4732573 4.3077435
-0.33972353 2.511586 4.3426104
-0.29390094 2.5137322 4.3488259
0.35121989 2.510442 4.3399811
0.46694127 2.5136309 4.3373971
0.53394121 2.5034826 4.3139353
-0.81530434 -0.063023157 4.3611398
-0.8218779 -0.027940402 4.3581867
-0.82318836 0.077335 4.3646865
-0.83640569 0.10532691 4.3581753
-0.81391025 0.28028941 4.3768935
-0.81931067 0.32789272 4.3747497
-0.81283456 0.36688605 4.3765998
-0.83023012 0.42853823 4.3809094
-0.82720041 0.47288951 4.3693681
-0.83309919 0.52022398 4.3778982
-0.83342791 0.5735333 4.3751831
-0.83359891 0.62673175 4.3712039
-0.69966733 0.81207168 4.3933244
-0.80565387 0.93931168 4.3592582
-0.81234777 0.99016505 4.3890777
-0.78927124 0.96673346 4.3863096
-0.92199153 1.9156551 4.3648858
-0.89663875 1.9292088 4.3904781
-0.91449523 1.9766732 4.3886333
-0.9217639 2.025105 4.3700085
-0.9165867 2.0719883 4.3684974
-0.92327529 2.1327803 4.3843589
-0.9290393 2.1893353 4.3524156
-0.92550969 2.2196364 4.3873334
-0.931382 2.2745218 4.3775921
-0.92985773 2.3226011 4.3727312
-0.93392682 2.3791614 4.3732643
0.84406978 2.3986952 4.3971977
0.87689698 2.3813887 4.3863864
0.9168939 2.3785505 4.366024
0.95526803 2.3625257 4.3650417
-0.91322911 2.4205894 4.3746271
-0.88973939 2.4432817 4.367486
0.88082504 2.4241531 4.36866
0.90835059 2.4072511 4.3506131
-0.85743856 2.4622612 4.3809438
-0.81148648 2.4761391 4.3865333
-0.78753483 2.4742584 4.3863821
-0.72503448 2.4833078 4.3589258
-0.66734707 2.4845393 4.368022
-0.40983209 2.494622 4.3586683
-0.38702321 2.496454 4.3634396
0.6347239 2.492625 4.3861709
0.66792154 2.4862084 4.371006
0.71569383 2.490757 4.3735042
0.77542847 2.4878905 4.3779993
0.83367425 2.4605973 4.3813939
0.86946136 2.4512374 4.385304
-0.50557858 2.511389 4.380712
-0.48279428 2.5138025 4.3868775
-0.43450731 2.5037401 4.372932
-0.36476731 2.5023127 4.3751616
0.49323756 2.5070355 4.3741498
-0.8032434 0.26610386 4.4078369
-0.77968895 0.27786335 4.4278975
-0.80681646 0.38486454 4.4216666
-0.80555511 0.42696664 4.4121137
-0.78759205 0.41805831 4.4343681
-0.80854017 0.48208219 4.4248071
-0.78915155 0.45111188 4.4410548
-0.80695647 0.52389395 4.4128942
-0.78889477 0.52609867 4.4340901
-0.80750751 0.56706494 4.4123783
-0.78272766 0.56618744 4.4372911
-0.81109214 0.62331885 4.4271212
-0.79194474 0.61437237 4.4438477
-0.78848654 0.79408807 4.4050436
-0.75299019 0.84533328 4.448534
-0.76439232 0.87800354 4.4246612
-0.773058 0.93010712 4.4253087
-0.90287554 1.9994199 4.4028354
-0.88157243 1.9684546 4.4242053
-0.90385795 2.024343 4.4001422
-0.88419151 2.0200009 4.422565
-0.90926027 2.0593262 4.418797
-0.88824499 2.0751572 4.4275346
-0.90980506 2.1063554 4.4057994
-0.8901726 2.1256149 4.4213505
-0.91586006 2.1780012 4.4147434
-0.89814258 2.1793919 4.4486952
-0.91062152 2.2395928 4.4303541
-0.89867747 2.2038918 4.4430084
-0.90797615 2.269738 4.4267921
-0.8812145 2.2883751 4.4495983
-0.90070462 2.3135126 4.4138484
-0.88094646 2.3110259 4.439362
-0.90652269 2.3752735 4.423985
-0.88674366 2.3967359 4.4409542
0.82458884 2.3865163 4.4304256
-0.90620565 2.4095256 4.4083304
-0.87832856 2.4265089 4.4266276
0.78223521 2.4352865 4.4475274
0.82048148 2.4256217 4.4189777
-0.86640006 2.4526467 4.4414563
-0.82991934 2.4729705 4.4308796
-0.71854329 2.4777598 4.4015603
-0.65194362 2.4911606 4.4335122
-0.61723453 2.4933724 4.4411893
-0.48748875 2.4912364 4.4493113
0.58429092 2.4937661 4.4279447
0.63016766 2.4973798 4.4471521
0.67412841 2.4858088 4.421422
0.72249705 2.4791207 4.4298635
0.76875079 2.4768059 4.4198265
0.80167514 2.4580672 4.4074807
-0.61426902 2.5047474 4.4099116
-0.52052414 2.5041108 4.4177465
-0.41726103 2.5163231 4.4476166
-0.36824217 2.5027587 4.4267116
-0.20510527 2.5095851 4.4466448
-0.11124504 2.5315564 4.4366674
0.53314382 2.5079403 4.4235144
0.56663167 2.5004604 4.4070864
0.61557591 2.5095077 4.4183588
0.8961007 -0.36914015 4.4855051
0.89634085 -0.33664995 4.488369
0.89579242 -0.26044834 4.4889174
0.89340639 -0.22727618 4.4780946
-0.75045389 -0.075495884 4.48632
-0.73055845 -0.086500607 4.4990306
-0.75041759 -0.032304574 4.4864149
-0.75091487 0.021728538 4.4893813
-0.7298246 9.4569099e-05 4.4949999
-0.75045037 0.075685501 4.4861984
-0.75034106 0.10807373 4.4850974
-0.77247101 0.3299506 4.4573383
-0.74657291 0.31167257 4.4561319
-0.77148741 0.37783554 4.4705448
-0.7622391 0.42183644 4.4781141
-0.77349395 0.48237643 4.4755416
-0.76396573 0.53118652 4.4805369
-0.77204388 0.58327532 4.4587998
-0.77449918 0.6176284 4.4700584
-0.73256439 0.81422532 4.4625664
-0.7542944 0.86850893 4.4534392
-0.73489636 0.87122458 4.4698882
-0.75984812 0.94051814 4.4773145
-0.75636601 0.95797944 4.4536862
-0.8655389 1.9494784 4.4728603
-0.86607796 1.973644 4.4684567
-0.86926329 2.0384912 4.4663467
-0.87741017 2.0924754 4.4966526
-0.87477154 2.1209443 4.471324
-0.87173229 2.1751935 4.4817967
-0.88310808 2.2230809 4.4851007
-0.87780744 2.2685869 4.4847856
-0.86571777 2.3211322 4.4891911
-0.87854475 2.3710988 4.4747591
0.73843575 2.3869269 4.4966311
0.77623969 2.3900108 4.479692
0.80585802 2.3767331 4.4684749
-0.86726516 2.4078751 4.4650431
-0.8488034 2.434413 4.4908342
0.73217064 2.4317327 4.4919562
0.75971913 2.4149556 4.4659262
-0.8242991 2.4679449 4.4758353
-0.7873953 2.4873974 4.4631534
-0.71687388 2.4891639 4.4752269
-0.67072427 2.4937308 4.4888954
-0.61069608 2.4910843 4.4904213
-0.58328927 2.4990106 4.4547877
-0.53619266 2.4992106 4.459537
-0.46454391 2.4941993 4.4564648
0.41940388 2.4811168 4.488502
0.5363251 2.4991581 4.4594793
0.58609915 2.48685 4.4851689
0.63343751 2.4867539 4.480227
0.6838997 2.4757297 4.4722104
0.72774172 2.4617047 4.4767857
0.76057649 2.453058 4.4567022
-0.56114215 2.5053625 4.4683595
-0.41997528 2.5090194 4.4864097
-0.39445996 2.5208631 4.4572349
-0.34831557 2.5042305 4.4823351
-0.15873949 2.5180233 4.4630189
-0.088403642 2.5250897 4.4769931
0.50191218 2.503864 4.4709373
0.89876467 -0.30488271 4.5020323
0.89867967 -0.28307083 4.5025315
-0.72052002 -0.072522372 4.5284843
-0.62349141 -0.075828344 4.5183225
-0.72411406 -0.032585505 4.5280981
-0.62254685 -0.021572776 4.5118322
-0.71996403 0.026154842 4.5158896
-0.72351301 0.076268211 4.5241084
-0.72444052 0.10905269 4.5293694
-0.73327535 0.34777483 4.5072312
-0.72479105 0.38164109 4.5215011
-0.72878575 0.42907453 4.5205359
-0.75534868 0.45663825 4.5004611
-0.73470485 0.45731783 4.5095539
-0.73377281 0.500229 4.5007606
-0.84981525 1.9430162 4.5213828
-0.85037184 1.9905851 4.509974
-0.83114916 1.965145 4.5452528
-0.85199869 2.0291846 4.5074959
-0.8265847 2.0263498 4.5346966
-0.85519266 2.0833583 4.5091476
-0.8218711 2.0640631 4.5302458
-0.85641468 2.1212959 4.5038543
-0.83666646 2.118644 4.5301924
-0.83683807 2.1542063 4.5191693
-0.86186707 2.216923 4.5038557
-0.84414673 2.2320893 4.5378904
-0.8653295 2.2611594 4.5091715
-0.84617138 2.2848048 4.5315876
-0.8475005 2.3357992 4.5209904
-0.83533764 2.3739145 4.5325136
0.64793313 2.37798 4.5444727
0.68793583 2.3872261 4.5396791
0.72633773 2.3831003 4.5273366
0.76799572 2.3816881 4.5379605
-0.82881367 2.421782 4.5242906
0.63730377 2.4184895 4.5409212
0.68296325 2.4233403 4.5179844
0.71667439 2.416857 4.501874
-0.81702751 2.4579227 4.5122929
-0.78365964 2.4773755 4.5259809
-0.73227119 2.477448 4.505362
-0.66482633 2.4924488 4.5408683
-0.63977849 2.4882176 4.5357018
0.52931285 2.4980986 4.5109153
0.5630703 2.4911969 4.53089
0.62599409 2.4744895 4.5252314
0.66435999 2.4594657 4.5157361
-0.57778442 2.5026069 4.5146732
-0.53088921 2.5063062 4.5256796
-0.39743015 2.5161061 4.500679
-0.20802735 2.5215526 4.5198598
-0.1852216 2.5349276 4.5445995
-0.06517116 2.5154576 4.5121126
0.14817241 2.5122986 4.5050087
0.3869864 2.5005994 4.5261121
0.47081661 2.5032034 4.5249891
0.89047176 -0.35381669 4.5720882
0.89440751 -0.32204798 4.5938864
-0.68629473 -0.076780096 4.5705299
-0.67959094 -0.035044629 4.5704975
-0.68294954 0.018946562 4.5804825
-0.68142933 0.074967407 4.5826845
-0.63065529 0.087842569 4.5700107
-0.67609137 0.11004701 4.5764179
-0.63116151 0.10987014 4.5733538
-0.81542575 1.9834275 4.5906143
-0.81137437 2.008616 4.5569348
-0.79409051 2.0358419 4.5912371
-0.81468749 2.087178 4.5529218
-0.79353362 2.0697012 4.5767469
-0.81936717 2.1345289 4.5672979
-0.82609856 2.1877596 4.5926943
-0.82519442 2.2151678 4.5775366
-0.8200345 2.280237 4.5734086
-0.818129 2.3297946 4.5693731
-0.8100788 2.3769917 4.5793262
-0.78744912 2.3570921 4.5994835
0.58103889 2.3962371 4.586432
0.61159855 2.3829012 4.5761571
-0.81161332 2.4175401 4.5741076
0.5741542 2.4329128 4.5837545
0.60428417 2.4293392 4.5649109
-0.77341294 2.4676826 4.5729957
-0.72943133 2.4725165 4.5782647
-0.62823343 2.4896457 4.5757661
-0.58205962 2.4971609 4.5579519
-0.52241677 2.4989083 4.5665154
0.48594296 2.4958744 4.5639424
0.52491629 2.4793935 4.5735693
0.56614149 2.4648659 4.5718026
0.60419506 2.4648845 4.5501032
-0.69174451 2.5031548 4.5577159
-0.5472309 2.5025294 4.5710559
-0.4762052 2.5086639 4.5881906
-0.42684513 2.5141625 4.5749617
-0.36579907 2.5198169 4.5623169
-0.31869966 2.5148337 4.5826488
-0.28109947 2.5131717 4.5546741
-0.23378576 2.5190518 4.5673251
-0.18646877 2.527925 4.5850401
-0.13817407 2.5251079 4.5811849
-0.089791588 2.5168235 4.5670342
-0.042090293 2.5305247 4.5924096
0.0060894191 2.5262108 4.584722
0.39121598 2.5038443 4.5853
0.4399052 2.5069773 4.5878305
0.82142031 -0.40216869 4.6264052
0.85251689 -0.40101963 4.6092501
0.83472216 -0.36959231 4.6386876
0.85264897 -0.36765349 4.6117692
0.86365557 -0.32302862 4.6119347
0.83536112 -0.28018707 4.6463089
0.87494594 -0.27849558 4.6131873
0.83455098 -0.24630532 4.6430426
0.87919325 -0.22595181 4.6224499
0.88130683 -0.16516915 4.6262555
0.88888454 -0.12286356 4.6306849
-0.65773362 -0.077304624 4.6041975
-0.65737391 0.033242479 4.6019545
-0.65729034 0.088476621 4.6008649
0.90336287 0.089881197 4.6465545
0.90254891 0.11222173 4.6420317
-0.77331859 1.9368355 4.6429791
-0.74978358 1.937041 4.6462059
-0.79596233 1.9698688 4.62393
-0.74886256 1.9582567 4.6335039
-0.79579931 2.0048454 4.6121893
-0.77570879 2.0612969 4.621048
-0.80423468 2.1333711 4.6267524
-0.77381581 2.1092446 4.6478391
-0.80534041 2.1840386 4.6170816
-0.78383106 2.1547103 4.6460552
-0.80695641 2.2482288 4.6055884
-0.77054119 2.2182868 4.6451616
-0.80778033 2.2744687 4.6017561
-0.77485222 2.2712727 4.6283569
-0.77685541 2.3254063 4.6230354
-0.77644533 2.388622 4.6254249
-0.74632829 2.3793149 4.6487327
0.52564031 2.3927765 4.6404877
0.57054412 2.3785222 4.6087027
-0.78577393 2.4328814 4.6163888
-0.74715787 2.4184284 4.6401067
0.49032691 2.4336247 4.6383362
0.52473891 2.4248462 4.618741
0.55929434 2.4057515 4.6068196
-0.77118689 2.454025 4.621489
-0.73488033 2.4666839 4.6220937
-0.68730325 2.4825006 4.6295919
-0.57429963 2.4915154 4.6026187
0.29730725 2.4996903 4.6371121
0.34459555 2.4907389 4.6180544
0.43453586 2.4900365 4.6294599
0.47818634 2.4819181 4.6202559
0.51329207 2.4639699 4.6112161
-0.51744187 2.5088828 4.6400108
-0.45660955 2.509279 4.6454501
-0.35646349 2.5144539 4.6068654
-0.33231816 2.5146565 4.6085644
-0.28362215 2.5115762 4.6052909
-0.23629183 2.5218084 4.6260586
-0.18805665 2.5251746 4.6338673
-0.018025728 2.5107656 4.610188
0.030311115 2.5160091 4.619771
0.77051449 -0.40478021 4.6627235
0.78548878 -0.37281305 4.6856356
0.8160516 -0.37128413 4.6626472
0.78926373 -0.33138838 4.6872687
0.82716209 -0.32621089 4.6627913
0.79731417 -0.28259277 4.6914692
0.81782484 -0.28185409 4.6768689
0.79772806 -0.22617638 4.6958652
0.8236618 -0.22011492 4.6599364
0.85940063 -0.20207681 4.6550126
0.79364729 -0.16875261 4.673377
0.82644784 -0.16853422 4.6640625
0.85928416 -0.17958762 4.6549726
0.78637725 -0.11998997 4.676579
0.82772648 -0.12375185 4.672194
0.85933 -0.12343599 4.6563768
0.83916354 -0.089993335 4.6723466
0.90622652 0.045140587 4.6617432
0.88105148 0.089891635 4.650074
0.90439641 0.067516692 4.6521354
0.88186282 0.11244013 4.6540198
-0.63693523 1.1479797 4.6917987
-0.63902724 1.2208549 4.6954598
-0.66534466 1.3426639 4.6952138
-0.71766347 1.9342027 4.6753707
-0.76580024 1.9834509 4.6600032
-0.71953475 1.9749432 4.6769552
-0.75599933 2.0364735 4.6595049
-0.72291493 2.0200362 4.6880169
-0.75669217 2.0740993 4.6525569
-0.72462362 2.0727937 4.6843295
-0.76078284 2.1332543 4.6622448
-0.72655827 2.1263905 4.6814423
-0.76171052 2.1718636 4.6559896
-0.73185807 2.1823046 4.6721063
-0.74206537 2.2450113 4.6656671
-0.7352708 2.2730567 4.6661677
-0.73095459 2.3252904 4.6766882
-0.7319684 2.369108 4.668345
0.4321765 2.3862071 4.6912785
0.48365709 2.388047 4.6723003
0.52723205 2.3758421 4.6636992
-0.71445841 2.4312828 4.6689796
0.39668012 2.4289293 4.6919556
0.43196899 2.421598 4.6754532
0.46700633 2.4139814 4.6582098
-0.70263928 2.4692259 4.6586838
-0.67262274 2.4705639 4.6833434
-0.63202363 2.4921074 4.6816764
-0.58039498 2.4935253 4.6611981
-0.40982592 2.4966683 4.6803846
0.25089353 2.4964356 4.6881676
0.3359262 2.49191 4.6757507
0.38483578 2.4801097 4.6785541
0.42814359 2.4675043 4.6611423
0.46768579 2.4539461 4.6511321
-0.60651726 2.5004585 4.6718688
-0.55750418 2.5004759 4.6763835
-0.52223611 2.5075896 4.692791
-0.43338743 2.5158634 4.6593552
-0.3730244 2.5206203 4.6720324
-0.32403898 2.5200126 4.6735792
-0.17753923 2.5238883 4.6865377
-0.11628958 2.5238864 4.687953
-0.067264192 2.5228291 4.6866918
-0.030516259 2.5231941 4.6876402
0.67776906 -0.40993184 4.7323141
0.7100389 -0.40882099 4.7162538
0.69109523 -0.37679875 4.7462034
0.72394335 -0.37607026 4.7336693
0.7544347 -0.3742196 4.7069578
0.72455966 -0.33075741 4.7399087
0.76229268 -0.32520732 4.7104287
0.72484142 -0.27382055 4.7440476
0.76454896 -0.27704233 4.7168889
0.7353009 -0.21647733 4.7386127
0.76875556 -0.22243409 4.7161403
0.73472923 -0.18213557 4.735857
0.76722091 -0.17036365 4.722333
0.76752019 -0.13633482 4.7249641
-0.63973409 1.1299641 4.7161703
-0.63960403 1.1989012 4.703702
-0.64027935 1.246327 4.7005696
-0.66867125 1.3028463 4.7275481
-0.64898598 1.368567 4.7447443
-0.67184252 1.44928 4.7222047
-0.64931422 1.4043503 4.7401834
-0.67325741 1.5226079 4.7170238
-0.67642164 1.623907 4.7176275
-0.6682564 1.6682523 4.7359037
-0.68429512 1.7380484 4.7491708
-0.68423784 1.8212638 4.7269921
-0.68809628 1.8793852 4.7405844
-0.67327642 1.9266052 4.7379861
-0.68733883 1.9610256 4.7115059
-0.71442437 2.0418525 4.7083836
-0.69359845 2.0030191 4.7472849
-0.69378227 2.051832 4.7339468
-0.71789736 2.1242003 4.7084961
-0.69646347 2.1203327 4.733273
-0.71983552 2.1783471 4.7053962
-0.69794858 2.1734529 4.7276306
-0.70846206 2.2337627 4.7255173
-0.70987695 2.2870469 4.7180529
-0.70361042 2.3379626 4.7154875
-0.70551968 2.3811448 4.7149186
-0.68521214 2.3959513 4.7468758
0.38575545 2.3880847 4.726655
-0.70488459 2.4035301 4.7016006
-0.67428309 2.4274595 4.7136617
0.35856834 2.4259584 4.7358556
-0.65835154 2.4619613 4.7061825
-0.6186052 2.4752645 4.7168293
-0.57377255 2.4933381 4.7177224
0.22848777 2.4944787 4.7413187
0.26535487 2.4928579 4.736825
0.33412507 2.4762359 4.7207785
0.36251932 2.4578199 4.7215734
-0.52673203 2.5044322 4.7429352
-0.47460023 2.5156932 4.7117882
-0.36424226 2.519913 4.7269335
-0.32719153 2.5199573 4.7289867
-0.27752411 2.5173037 4.7263117
-0.21552353 2.5138447 4.722178
-0.14138523 2.509989 4.7169743
-0.092461035 2.5176408 4.7322464
0.0062215785 2.5312755 4.7027378
0.080326132 2.5190172 4.7350059
0.62544298 -0.41297314 4.7725239
0.63107502 -0.38148409 4.7818289
0.6694597 -0.37748694 4.7569218
0.63870895 -0.33359712 4.789094
0.6817233 -0.33211946 4.7638936
0.67171007 -0.27544713 4.7778001
0.68368471 -0.21819282 4.7818594
0.7144345 -0.2170686 4.7537365
0.68423051 -0.17237706 4.7868767
0.72313547 -0.16779803 4.7614741
0.69441265 -0.1261504 4.7775583
0.7264725 -0.12573257 4.7587433
0.76000732 -0.11417229 4.7504816
-0.60197192 1.1458578 4.786613
-0.62411118 1.2252868 4.7614369
-0.58141124 1.2454371 4.7961192
-0.65029901 1.3127139 4.7655597
-0.62803757 1.3269279 4.7744122
-0.61777604 1.3655112 4.7805128
-0.63197601 1.4297875 4.7858562
-0.656335 1.4786916 4.779222
-0.6251545 1.4756247 4.7857404
-0.65782166 1.5294564 4.7798538
-0.65879446 1.5910918 4.7736425
-0.63712347 1.5843773 4.7941303
-0.65951794 1.6166135 4.7733979
-0.63762534 1.6452297 4.7841144
-0.63863528 1.6836727 4.7830901
-0.66179383 1.7295883 4.763865
-0.64103562 1.7259461 4.7922425
-0.66458327 1.844647 4.7558451
-0.64406985 1.8063742 4.7964811
-0.66563416 1.8715597 4.7568226
-0.66745436 1.9007387 4.7631626
-0.64763892 1.9132633 4.7968802
-0.67362005 1.9911489 4.7863293
-0.68081087 2.0289834 4.7673326
-0.67372459 2.0643215 4.7652383
-0.67753452 2.1126225 4.7808104
-0.67712891 2.1846132 4.7544355
-0.66955781 2.224443 4.7808018
-0.67083091 2.2779992 4.7733345
-0.67686981 2.329777 4.7707896
-0.67078894 2.3702981 4.7752032
0.31060436 2.3860023 4.7748055
0.35108367 2.3897524 4.7608643
-0.66451752 2.422904 4.7735891
0.27880633 2.4160938 4.7876596
0.31491193 2.4328439 4.7611666
-0.6304546 2.4728069 4.7878551
-0.59283435 2.4845197 4.7851634
-0.51805025 2.4975493 4.787786
0.15472488 2.4995646 4.7531624
0.23019584 2.4882307 4.7862015
0.27076963 2.471771 4.7719569
0.30290702 2.4725599 4.7530522
-0.56896496 2.5018373 4.7918639
-0.47810549 2.5094821 4.7563415
-0.42981437 2.517622 4.7752366
-0.37984854 2.5168173 4.7767935
-0.33087051 2.5233469 4.791893
-0.14337175 2.5203085 4.7928786
-0.093210146 2.5131686 4.7801976
0.03124631 2.5186303 4.7911801
0.10582498 2.513485 4.7806182
0.18017332 2.5093904 4.7712131
0.30474597 2.5124581 4.7724552
0.54104805 -0.39544025 4.8473291
0.57406414 -0.38254148 4.8296413
0.60548484 -0.36890236 4.8005834
0.57727814 -0.32972854 4.8393688
0.6131041 -0.31797343 4.8170958
0.58727992 -0.26734376 4.8469296
0.61925471 -0.26609582 4.8216062
0.58644986 -0.22053523 4.8415742
0.61836302 -0.2194877 4.8160996
0.65151477 -0.21896523 4.8018341
0.57472217 -0.17404115 4.8427854
0.61880469 -0.17337799 4.8207016
0.65181333 -0.17292643 4.8052344
0.58702338 -0.13938153 4.8482375
0.62001026 -0.12736851 4.8310652
0.66395235 -0.12690006 4.8095632
0.063215055 0.034503262 4.8112555
-0.56156969 1.1589813 4.8452687
-0.58454812 1.2049053 4.83009
-0.61025423 1.3038625 4.8280754
-0.6107403 1.3523523 4.8230896
-0.58900148 1.3807247 4.8368168
-0.61209941 1.4385788 4.8174686
-0.590608 1.420306 4.8429723
-0.59127802 1.4697132 4.8387718
-0.61653733 1.5328466 4.8348255
-0.6151334 1.5652015 4.8159375
-0.6182518 1.6211417 4.8294849
-0.61700308 1.6538527 4.8113456
-0.62039846 1.7111573 4.8262305
-0.63712102 1.7773687 4.8138785
-0.6243369 1.8190401 4.8323317
-0.64062405 1.8760659 4.8169055
-0.63834518 1.9339405 4.8159938
-0.65054506 1.9705061 4.8046141
-0.62832397 1.9771177 4.82301
-0.65258032 2.0254807 4.8053713
-0.63208199 2.0380557 4.8375092
-0.65492964 2.0695286 4.8116131
-0.63344842 2.067071 4.8406086
-0.65716517 2.1134415 4.816721
-0.63506806 2.121702 4.8378878
-0.65701473 2.1620998 4.8001013
-0.63594824 2.1864014 4.8250227
-0.66059875 2.2480109 4.8019824
-0.63827592 2.2316091 4.8305583
-0.63985485 2.2744172 4.8300495
-0.64181477 2.3312645 4.8277597
-0.64273429 2.3845477 4.8170571
0.26776081 2.3911023 4.8261685
-0.63336372 2.4340515 4.8286257
0.23107789 2.4227769 4.8321214
0.25523841 2.427577 4.8114119
-0.63180685 2.4530616 4.8074522
-0.58451843 2.4770217 4.8297729
-0.53601551 2.498085 4.8457022
0.13111687 2.4964075 4.8046546
0.21464211 2.4670599 4.8226199
0.25541553 2.466646 4.8010378
-0.48261994 2.508106 4.8108711
-0.43191665 2.504787 4.807972
-0.38372144 2.5171041 4.8347139
-0.32147366 2.5225332 4.848495
-0.28271967 2.5268483 4.8296041
-0.21955362 2.5231647 4.8249559
-0.19457152 2.524703 4.8286996
-0.081611991 2.5145111 4.8402815
-0.043878797 2.5126073 4.8369851
0.018914627 2.5126863 4.837245
0.10646735 2.5036833 4.8191042
0.16902553 2.503433 4.8173165
0.20640008 2.5013349 4.812233
0.42735967 -0.35108864 4.8874083
0.48581907 -0.37444878 4.8820405
0.52667767 -0.38076031 4.8598261
0.48542225 -0.3156653 4.8807802
0.53071475 -0.32644761 4.8634448
0.56487721 -0.30267808 4.8547459
0.48584157 -0.26912433 4.8866405
0.53155994 -0.26857078 4.8735991
0.56493258 -0.26777023 4.8565292
0.4976905 -0.22237238 4.8888607
0.53228831 -0.22214942 4.8817143
0.56573534 -0.22149172 4.8649316
0.49739501 -0.17543966 4.8871679
0.53167635 -0.17516974 4.8773584
0.48152304 -0.12467466 4.8864141
0.53194785 -0.12849732 4.8807359
0.57310408 -0.12422846 4.8630719
0.12219526 0.046573758 4.8736601
0.09917783 0.06999734 4.8855405
-0.56222171 1.136647 4.8546524
-0.54163015 1.1312487 4.8861094
-0.5667153 1.1934701 4.8857942
-0.53074455 1.1692487 4.8908772
-0.56674421 1.2174014 4.8820858
-0.54333943 1.2423272 4.8840175
-0.56724358 1.2901492 4.8739891
-0.54570067 1.2837241 4.8989778
-0.57912487 1.3258622 4.8661222
-0.57655865 1.3730673 4.8702416
-0.5686202 1.4369795 4.8585849
-0.57082856 1.4786654 4.8700924
-0.58134222 1.529377 4.8814454
-0.58587694 1.5830426 4.8738613
-0.57628065 1.6262488 4.8876414
-0.60087717 1.6878529 4.8741455
-0.6004101 1.722945 4.8615856
-0.59974396 1.7452743 4.8502192
-0.60161054 1.7750226 4.8592219
-0.5811007 1.7622324 4.899394
-0.6049307 1.8581705 4.867043
-0.60698634 1.9626213 4.856689
-0.61038959 2.0106187 4.8733187
-0.61134839 2.0632064 4.866436
-0.61276603 2.1175396 4.8626909
-0.59067237 2.1395805 4.8830981
-0.61680633 2.1813822 4.8791542
-0.61607385 2.2161217 4.8613887
-0.61939007 2.2781003 4.871016
-0.62022942 2.331351 4.8606229
-0.59858721 2.3321571 4.8951259
-0.62222093 2.3765621 4.8630657
-0.59985346 2.3749776 4.8924026
0.1324427 2.3954833 4.8989305
0.1702013 2.3946939 4.8964691
0.21997344 2.3879161 4.881175
-0.60844976 2.4179037 4.8784103
0.17001718 2.4300563 4.8781195
0.20700306 2.4207847 4.8585024
-0.60098857 2.4554195 4.8745289
-0.56851566 2.4778488 4.8821931
-0.51464391 2.4915354 4.8937731
0.13258636 2.4864619 4.87257
0.17003289 2.4807837 4.8605146
-0.48785716 2.5100374 4.8727741
-0.42399094 2.5072479 4.8716445
-0.33578205 2.5228906 4.8777528
-0.29812285 2.5130649 4.8897905
-0.24591079 2.5235319 4.8536329
-0.13276941 2.5178967 4.8751373
-0.031525001 2.5143414 4.8694973
0.019036995 2.5027151 4.8761759
0.069772847 2.5092731 4.8886232
0.10748591 2.5023377 4.8746281
0.37258422 -0.4019534 4.9378395
0.40693176 -0.40084919 4.9224858
0.37688741 -0.37079588 4.9441447
0.40719754 -0.36572516 4.9274626
0.41815138 -0.31788591 4.9193115
0.42276323 -0.26727828 4.9289055
0.4230738 -0.2281398 4.9337916
0.43143892 -0.17718628 4.940145
0.43197829 -0.13007849 4.947247
-0.52079803 1.1497344 4.9141059
-0.54598081 1.2243599 4.9118233
-0.52566046 1.2692685 4.9420643
-0.54748219 1.3240188 4.9085116
-0.54876149 1.3633101 4.9132853
-0.5293017 1.4241242 4.9494715
-0.55066532 1.4769973 4.9090009
-0.55306828 1.5199343 4.9228487
-0.55465186 1.5608566 4.9291649
-0.55420798 1.6205482 4.9117522
-0.56529278 1.6822079 4.9250016
-0.5699113 1.7287565 4.9185343
-0.53534937 1.7235513 4.9446259
-0.56025809 1.798355 4.9271407
-0.53712624 1.7786815 4.9489961
-0.57239687 1.8225461 4.9186869
-0.56284249 1.8685355 4.9339247
-0.57279652 1.9279293 4.9337153
-0.56737691 1.9958506 4.9431024
-0.58234757 2.0317614 4.9160171
-0.58067691 2.0862012 4.9239111
-0.57240492 2.1393912 4.9499578
-0.57928282 2.1757634 4.9236507
-0.5892415 2.2236602 4.9230847
-0.60120517 2.2790308 4.9377975
-0.59904915 2.2960918 4.9117184
-0.57704544 2.3216648 4.9372034
-0.57738221 2.361115 4.9271407
0.13295935 2.3794978 4.9268212
-0.57942218 2.4331131 4.9222279
0.082887068 2.4462736 4.9424858
0.11630538 2.4267457 4.9226232
-0.55563438 2.4660816 4.9301386
-0.53091294 2.4827681 4.9352427
-0.47779909 2.4982536 4.9097886
0.03197442 2.4750142 4.9402828
0.070082389 2.482213 4.9243441
0.11632171 2.46928 4.9079604
-0.45568335 2.5168734 4.9481444
-0.36480719 2.5226598 4.9350114
-0.23599052 2.5269895 4.9193916
-0.18422782 2.5173743 4.9022503
-0.12129871 2.5175967 4.9338069
-0.082791641 2.5256596 4.9203992
0.019251345 2.503634 4.9371634
0.29298893 -0.35855645 4.9980841
0.33900633 -0.35666052 4.9697237
0.36291549 -0.35678396 4.970366
0.2928561 -0.33449677 4.9968796
0.3160972 -0.3099547 4.986558
0.37469164 -0.3210023 4.9698334
0.31601423 -0.27410054 4.9865775
0.3739965 -0.27293122 4.9623318
0.40909791 -0.28443897 4.9539685
0.33943808 -0.22613554 4.9809446
0.38617867 -0.22562113 4.9673057
0.40872946 -0.21311972 4.9517827
0.34040135 -0.16709083 4.9965792
0.3854335 -0.17777878 4.9589424
0.4086298 -0.17754704 4.9514537
0.34043956 -0.13128269 4.9978018
0.36225358 -0.13055615 4.9683318
0.40903628 -0.13029908 4.9573069
0.12487545 0.095127173 4.9800873
0.029696576 0.13027115 4.9611015
0.029643606 0.17729762 4.951282
-0.029636711 0.22607538 4.9833217
0.01793386 0.22583434 4.9781036
-0.025725506 0.27815408 4.9910531
0.017924286 0.27340311 4.9771042
-0.029673263 0.32153079 4.9845328
0.017946048 0.32099956 4.976347
-0.025702199 0.37304798 4.9808502
0.017940359 0.36867717 4.9757853
-0.025735885 0.41341862 4.9873123
0.014009099 0.41312012 4.983696
-0.017826721 0.46631297 4.9974208
0.018003751 0.46538466 4.9875169
0.053711999 0.47658536 4.9789805
-0.44890884 0.50298685 4.9899468
-0.017801585 0.52533102 4.9863949
0.018012227 0.5251537 4.9847207
-0.01783631 0.58614802 4.991684
0.018026914 0.58519608 4.9833455
-0.017856743 0.6347332 4.9934826
0.018062817 0.63433915 4.990406
-0.017884113 0.68366742 4.9969001
0.014085825 0.67862159 4.989634
-0.017888304 0.71980488 4.9946966
0.01806422 0.73039818 4.9839444
-0.017903144 0.79241973 4.9915304
0.0060931202 0.77870607 4.9818239
-0.47414875 0.8285495 4.9734926
-0.017928183 0.82959235 4.9945698
0.0061022723 0.82791775 4.9844666
-0.017959761 0.86716598 4.999259
0.0061184661 0.87827241 4.9925442
-0.49909282 0.92634636 4.9699678
0.0061238967 0.92726278 4.9915185
-0.50005865 0.96430457 4.9750257
-0.48887378 0.99023479 4.9818392
0.0061324593 0.97686827 4.9927235
-0.51179022 1.0240204 4.9633441
-0.48584756 1.0245656 4.9880238
-0.018022917 1.0151861 4.9984665
0.0061421543 1.0146992 4.996088
-0.50251424 1.0780582 4.9845552
-0.47957602 1.0930924 4.997776
-0.51388246 1.1248903 4.9694433
-0.50313187 1.1764238 4.9760017
-0.51563609 1.2258682 4.9711914
-0.48165387 1.2442037 4.9965301
-0.50495565 1.2658666 4.9800372
-0.51418543 1.3337616 4.9792476
-0.51841342 1.3789734 4.9723949
-0.50931561 1.436403 4.9938793
-0.53240955 1.4814384 4.9688148
-0.51864547 1.5257477 4.9872556
-0.52293998 1.5755816 4.9784417
-0.52004641 1.620396 4.9813685
-0.53659928 1.6658792 4.9706287
-0.53754675 1.7059017 4.9707956
-0.53761441 1.7555707 4.9595709
-0.52884519 1.8299575 4.9791899
-0.54001653 1.8751979 4.953433
-0.54271841 1.9344987 4.9648991
-0.56779307 1.9723465 4.953721
-0.533553 1.9717293 4.9901075
-0.56904703 2.0267482 4.950532
-0.54786837 2.0284367 4.991025
-0.54888076 2.0953104 4.9819632
-0.57187325 2.1122565 4.9529734
-0.54993498 2.1246297 4.9839973
-0.55147135 2.1559305 4.9902487
-0.55133802 2.2188222 4.9693279
-0.5712499 2.277384 4.9794602
-0.55630189 2.3027542 4.9934511
-0.55716401 2.3832059 4.975347
0.019280044 2.3672519 4.9952984
0.10862239 2.3881655 4.9761219
0.17200053 2.3686359 4.9649549
-0.56575543 2.4177043 4.9634099
-0.5345341 2.4352641 4.9919262
0.019314321 2.4243724 4.9899507
0.070272632 2.4126163 4.9654617
-0.51723385 2.4819577 4.9753242
-0.48258018 2.4975035 4.9683461
-0.032104723 2.4850099 4.9905434
0.015015681 2.4712079 4.9729605
0.057557061 2.4525371 4.9553995
-0.45839733 2.506027 4.9870691
-0.41835219 2.5239882 4.9645872
-0.3148635 2.5198507 4.9619455
-0.26372728 2.5227349 4.9697952
-0.22557944 2.5279632 4.9814835
-0.18198854 2.5113165 4.9700408
-0.14748009 2.5155416 4.959095
-0.079230763 2.5139887 4.9772573
-0.031946547 2.5125365 4.95467
0.24631777 -0.40827405 5.0207796
0.23935752 -0.37790439 5.0447168
0.27902874 -0.37717894 5.0338864
0.24725381 -0.32544166 5.0437918
0.2778607 -0.31966171 5.0153217
0.24720611 -0.26510823 5.0450783
0.2822507 -0.27608031 5.0238147
0.28285974 -0.22854544 5.0362277
0.31721282 -0.22729167 5.007019
0.294379 -0.18009143 5.0279617
0.32506183 -0.18333505 5.0059643
0.28685167 -0.1363001 5.037775
0.31742924 -0.13163823 5.0126028
0.053835317 0.11946268 5.0044565
0.065894917 0.16747841 5.0110779
0.10225499 0.16831031 5.0355783
-0.11405475 0.24040721 5.0332537
-0.077811919 0.22780891 5.0210776
0.066202179 0.22828802 5.0324779
-0.41564399 0.28931147 5.0356531
-0.11430617 0.27707168 5.0431094
-0.07786525 0.27586579 5.0217314
-0.041759163 0.26321968 5.0099354
0.06632217 0.27694443 5.0415454
-0.41954947 0.32941055 5.032505
-0.11424157 0.32505822 5.0383568
-0.077867903 0.3239148 5.0211196
0.054003209 0.32345599 5.0141239
0.10241797 0.31302318 5.0390506
-0.41989231 0.36984661 5.0346527
-0.11439112 0.37368733 5.0427456
-0.077771038 0.37144876 5.0128956
-0.041758813 0.35890996 5.0059452
0.054096408 0.38400498 5.0200181
-0.45186201 0.43397698 5.0272398
-0.42856598 0.42272457 5.038795
-0.11449012 0.42228103 5.0445971
-0.077963054 0.42030573 5.0213947
-0.041799225 0.43109572 5.0070338
0.030006448 0.43064907 5.0019035
0.062214475 0.41660962 5.0257745
-0.45136344 0.46959805 5.0195398
-0.42910254 0.47160703 5.0422726
-0.078211576 0.46991169 5.0355244
-0.041825168 0.46729553 5.0079966
0.054077722 0.45584065 5.0143456
-0.45231158 0.53092992 5.0261278
-0.42929494 0.5202167 5.0413923
-0.066108927 0.51774347 5.0293236
-0.041837301 0.51537627 5.0063343
0.054178108 0.51677322 5.0198383
-0.078264058 0.56662923 5.0320425
-0.041882031 0.56391656 5.0082626
0.054404791 0.56721401 5.0374417
-0.11478192 0.61685199 5.0443192
-0.078292795 0.61509192 5.0303764
-0.041911487 0.62433231 5.0070524
0.066478692 0.61536556 5.0327163
-0.075903393 0.67069155 5.0267334
-0.042001251 0.68582386 5.0125799
0.030126646 0.69660383 5.0025806
0.060448602 0.67564338 5.0272756
-0.45449314 0.71535325 5.035491
-0.078441478 0.72494704 5.0301108
-0.033984739 0.73798448 5.0078816
0.078858949 0.7028175 5.0468602
-0.46205583 0.77509117 5.0236297
-0.078572199 0.77466381 5.0342512
-0.034061089 0.77974319 5.0145335
-0.45498827 0.8132205 5.0312266
-0.11535113 0.82653141 5.0498428
-0.078749046 0.82486367 5.040185
-0.042136483 0.83284891 5.0141625
-0.46449846 0.87841177 5.0214276
-0.0747822 0.87447959 5.0409961
-0.034126874 0.88593006 5.0125585
-0.46730262 0.93501902 5.0187678
-0.066821933 0.93708849 5.0440712
-0.030172702 0.93215764 5.017735
-0.4634138 0.97984862 5.0149274
-0.43374091 0.97781491 5.0492702
-0.066860117 0.97415161 5.0423636
-0.030202305 0.98164928 5.017107
-0.45581684 1.0214039 5.0153499
-0.066997528 1.0371546 5.044621
-0.034323078 1.0364157 5.0209908
0.0061524888 1.0406421 5.0013666
-0.46491084 1.0642308 5.0201383
-0.067048423 1.074572 5.0433521
-0.030328093 1.0829871 5.0241828
0.0061637666 1.078984 5.0056753
-0.47067708 1.1252215 5.0299902
-0.0671333 1.1126103 5.0444183
-0.030345354 1.1324502 5.0206118
0.0061783325 1.1302147 5.0107508
-0.47385997 1.171011 5.0307498
-0.030352328 1.1811574 5.0130382
0.0061747264 1.178236 5.0007544
-0.46788302 1.2182584 5.0301528
-0.067415759 1.2277718 5.0485129
-0.030438142 1.2330331 5.0181623
0.0061872303 1.2294084 5.0034733
-0.47212884 1.2758789 5.0218334
-0.026420571 1.2806787 5.0219631
0.0062015858 1.2811725 5.007329
-0.48497099 1.326465 5.0182328
-0.067584403 1.3169923 5.046546
-0.034691896 1.3178979 5.0338626
0.0062155556 1.3331115 5.0105038
-0.47877899 1.3732277 5.0326061
-0.06762775 1.3547736 5.0432086
-0.02819415 1.3721006 5.0311418
0.0062286379 1.3973423 5.0104423
-0.47576344 1.4217122 5.0359778
-0.034817476 1.4208406 5.032598
-0.51109743 1.4783822 5.0040655
-0.48813385 1.4711049 5.0253849
-0.030746082 1.46772 5.0297174
0.0062517272 1.4642341 5.017807
-0.48892188 1.5230117 5.0234928
-0.030845584 1.5212469 5.0336933
0.0062587238 1.5276506 5.011683
-0.48942125 1.5741413 5.0182304
-0.068186477 1.5770253 5.0433235
-0.030871585 1.5727198 5.0298071
0.00626342 1.5535395 5.0105829
-0.49031472 1.6142678 5.0193434
-0.068354815 1.6182499 5.0477319
-0.030941524 1.6258622 5.0302553
-0.51738495 1.6961166 5.0225945
-0.49431145 1.677502 5.049078
-0.031015929 1.6789038 5.0293274
0.0062974775 1.6615431 5.0173821
-0.51633763 1.7300251 5.0036631
-0.49470723 1.7164396 5.0444546
-0.031000931 1.7283015 5.0168247
-0.51816714 1.7861145 5.0093288
-0.49501812 1.7676725 5.0357275
-0.068713345 1.7518346 5.0456152
-0.031078827 1.7700381 5.0205126
-0.49636698 1.822762 5.0371132
-0.031223722 1.8161981 5.0356216
0.0063470439 1.8001578 5.0290122
-0.5195868 1.8786848 5.0008998
-0.49719447 1.8761585 5.0327368
-0.031314828 1.8721695 5.0388055
-0.52164412 1.9364221 5.0074015
-0.49775219 1.9160914 5.0285215
-0.031378698 1.9256419 5.0341554
-0.50819153 1.9744788 5.0347214
-0.031343326 1.97386 5.0152235
-0.52580339 2.0279124 5.0263958
-0.031440571 2.0306611 5.0173178
-0.51475102 2.0725832 5.0325789
-0.031616792 2.079237 5.0325794
-0.51970279 2.1220357 5.0254169
-0.031671058 2.1200409 5.0280042
0.03194603 2.1408439 5.0434027
-0.55608982 2.1995645 5.0241861
-0.52885485 2.1671681 5.0182018
-0.031773068 2.179328 5.0324626
0.0064784167 2.1970077 5.0399842
-0.53214598 2.2191734 5.03755
-0.027565112 2.2291291 5.0249753
0.0064705461 2.2328997 5.0226307
-0.53255659 2.272202 5.0252047
-0.036240492 2.2725322 5.0349746
0.015016007 2.2836206 5.0163836
-0.55950403 2.3417444 5.0136719
-0.53512156 2.3347595 5.0325832
-0.03201472 2.3237123 5.0288434
0.023604013 2.324507 5.0199752
0.057954516 2.3407054 5.0334105
-0.55926222 2.3664563 5.0028591
-0.53636628 2.3789682 5.0313311
-0.027799278 2.3844221 5.0209765
0.019307628 2.3713768 5.0039892
0.070726953 2.363456 5.0184088
0.10940397 2.3667691 5.0249658
-0.52095276 2.4221051 5.0387745
-0.079589672 2.4119387 5.0364394
-0.032094125 2.4327002 5.0070562
-0.51114124 2.4595704 5.0125995
-0.47807774 2.4844141 5.024271
-0.43588662 2.4992208 5.0363965
-0.13637698 2.4954848 5.0410738
-0.083982557 2.46999 5.0210872
-0.4177146 2.5117311 5.0215659
-0.37011135 2.5205269 5.0213532
-0.3188464 2.5259213 5.0346746
-0.26634404 2.5220251 5.0290909
-0.21387056 2.5157993 5.0184631
-0.13590853 2.5131903 5.015213
-0.09675432 2.5054626 5.0004544
0.1838963 -0.37963304 5.0694656
0.21189547 -0.36302203 5.0630493
0.17629904 -0.32800254 5.0855894
0.21222204 -0.32721072 5.0723729
0.17607108 -0.27904785 5.0808611
0.21940283 -0.28104404 5.0721316
0.17624182 -0.23072396 5.0873375
0.22425915 -0.23017992 5.0740123
0.17634079 -0.18224037 5.0914402
0.22410519 -0.18157591 5.0714836
