ply
format ascii 1.0
comment PCL generated
element vertex 1533
property float x
property float y
property float z
element camera 0
property float view_px
property float view_py
property float view_pz
property float x_axisx
property float x_axisy
property float x_axisz
property float y_axisx
property float y_axisy
property float y_axisz
property float z_axisx
property float z_axisy
property float z_axisz
property float focal
property float scalex
property float scaley
property float centerx
property float centery
property int viewportx
property int viewporty
property float k1
property float k2
end_header
2.6843174 2.316364 3.2512655
-1.6145645 2.3755522 3.2745233
2.5355954 2.3931072 3.2822063
2.5841496 2.3947515 3.2719231
2.6175945 2.388195 3.2742553
2.6701665 2.3644295 3.2761488
-1.5818467 2.4105926 3.274796
-1.5116799 2.4119732 3.2614684
-1.475415 2.4210858 3.2792015
-1.4326726 2.4293036 3.275975
-1.3813548 2.4340446 3.2808089
-1.3299747 2.4385102 3.2844379
-1.2639161 2.4326706 3.2767925
-1.222664 2.4366906 3.2753818
-1.1747078 2.4362526 3.2651196
-1.1253428 2.4375634 3.2754645
-1.0647813 2.4374435 3.2689345
-1.0305117 2.4418366 3.2778578
-0.97102302 2.4307783 3.2703362
-0.93137121 2.4404445 3.2807117
-0.87598592 2.4357176 3.2768664
-0.82641 2.4377785 3.2769501
-0.77347994 2.4385633 3.2734342
-0.7201966 2.4373236 3.2722139
-0.68014973 2.4412746 3.2691479
-0.62808657 2.4388037 3.2617757
-0.57149881 2.4354389 3.2655737
-0.52823883 2.4298084 3.2760065
-0.47843978 2.4350243 3.2770684
-0.42199972 2.4305575 3.2772038
-0.38584125 2.436892 3.2894597
-0.32558209 2.4385204 3.282393
-0.27175757 2.432914 3.2570791
-0.2270228 2.4289486 3.290493
-0.17594627 2.422178 3.269434
-0.12463537 2.4206445 3.2835748
-0.013770233 2.4310668 3.263705
0.02315335 2.4298656 3.2799594
0.073645987 2.4256601 3.2647219
0.12470762 2.429677 3.2779093
0.1710539 2.4318085 3.2790906
0.22603871 2.436254 3.2644112
0.27017236 2.4396274 3.278312
0.32806706 2.4404078 3.263068
0.47271621 2.4337447 3.2669203
0.52617902 2.4466982 3.2750175
0.57198858 2.4375069 3.2684467
0.62007546 2.4435689 3.2696698
0.67725384 2.4481196 3.266767
0.71732968 2.4481192 3.2785208
0.77559566 2.4449959 3.2821796
0.907812 2.4466746 3.2567089
1.0099281 2.4473763 3.271697
1.1675429 2.4407799 3.2581089
2.5243618 2.4266109 3.2778072
2.5643506 2.4322455 3.2562814
-0.88139975 2.45188 3.2698822
-0.063272305 2.4583597 3.2759011
0.30190346 2.4528182 3.281826
0.53567326 2.4508581 3.2733657
0.67831129 2.4519434 3.2718225
0.74025375 2.4524748 3.2992842
0.76535356 2.4517837 3.2747912
0.83245212 2.4557343 3.2669239
0.87288052 2.4542429 3.2752225
0.985147 2.4565296 3.2910686
1.0322597 2.4553916 3.2775187
1.0694422 2.4534409 3.2647855
1.1257768 2.4727683 3.2771893
1.1762016 2.4588962 3.2822371
1.2251213 2.4607301 3.2700515
1.2795362 2.468204 3.2739985
1.3106612 2.4675157 3.2729712
1.3738922 2.4793739 3.2760556
1.4255364 2.4895606 3.2869892
1.4621944 2.4852769 3.2667263
1.549034 2.4953451 3.2917638
1.7241644 2.4999528 3.2689304
2.2299798 2.4990551 3.296654
2.2584424 2.4957714 3.273453
2.3289192 2.4942162 3.2807827
2.3704839 2.4867909 3.2768619
2.4223497 2.493186 3.2742529
2.4727664 2.4797328 3.2709067
2.5182316 2.471741 3.2623684
1.5961138 2.5071356 3.2911003
1.6252073 2.5060155 3.2770915
1.6732786 2.5036173 3.2524207
1.7095234 2.5077839 3.2882133
1.774413 2.5145187 3.2693412
1.824508 2.5080709 3.2814612
1.8896673 2.5140817 3.259423
1.914445 2.5130248 3.2930079
1.9552857 2.5131068 3.2721815
2.0259707 2.5248599 3.2546751
2.0768192 2.523746 3.2745728
2.1358767 2.5166583 3.2794771
2.181402 2.5113494 3.2780092
2.294193 2.5004916 3.2603741
-0.47978359 -0.45972192 3.3096018
-0.4375512 -0.46564674 3.3268371
-0.39461103 -0.47832036 3.3052547
-0.56312442 -0.41330141 3.3110836
-0.53340691 -0.43399018 3.3244398
-0.56518549 -0.36874756 3.3171275
-0.54569924 -0.36376387 3.3482389
-0.56575221 -0.3209708 3.3237782
-0.57118338 -0.27054605 3.3226178
-0.56836838 -0.22660552 3.323576
-0.57229954 -0.1760568 3.3214159
-0.56564927 -0.1443707 3.3311448
-1.4775203 0.88744372 3.3092957
-1.4474108 0.89906842 3.3377435
-1.4725256 0.92745972 3.3186822
-1.4492885 0.91754419 3.3386643
-1.5029511 0.987948 3.3113291
-1.485721 0.97994316 3.3284779
-1.5129579 1.02124 3.3087902
-1.4899421 1.0179485 3.3364217
-1.5110575 1.0758218 3.3259861
-1.4825783 1.0675368 3.3391507
-1.5176467 1.123926 3.319988
-1.491783 1.1181879 3.3492966
-1.5225953 1.1728669 3.321223
-1.4967494 1.1749083 3.3470464
-1.5160029 1.2229258 3.3322332
-1.5248145 1.269984 3.3240969
-1.5262678 1.3227524 3.3285878
-1.5376444 1.374174 3.3264234
-1.5510963 1.430977 3.3053105
-1.5349671 1.4192113 3.319891
-1.5568563 1.4722415 3.3054798
-1.5397998 1.4728694 3.3266385
-1.5646766 1.5156827 3.3096123
-1.5414221 1.5284821 3.324358
-1.5596279 1.5829259 3.3070278
-1.5418071 1.5650983 3.3208783
-1.5588766 1.6310333 3.321944
-1.5414995 1.6012437 3.3242681
-1.5621402 1.6738142 3.3278174
-1.5697219 1.7223524 3.3224716
-1.5496521 1.7399997 3.345119
-1.573747 1.7733341 3.3207169
-1.5495216 1.7583643 3.3372366
-1.5934328 1.8325179 3.3372078
-1.601346 1.8682261 3.3140004
-1.5805937 1.8708795 3.337028
-1.6095284 1.9341207 3.3049726
-1.5844836 1.9251703 3.3340638
-1.6005089 1.9837608 3.3145442
-1.5914658 1.9756169 3.3329506
-1.6121883 2.0220282 3.3075926
-1.5933982 2.0270882 3.3326302
-1.6101471 2.0527406 3.3062272
-1.5909429 2.0743825 3.3320732
-1.6044004 2.1177649 3.3166285
-1.5911586 2.1256514 3.3365746
-1.6118882 2.1661649 3.3116021
-1.5963463 2.1711981 3.3269887
-1.6118743 2.2179244 3.314151
-1.5911009 2.2294807 3.3430657
-1.6060948 2.2621439 3.3042252
-1.5893673 2.2785113 3.3319604
-1.5856389 2.3241928 3.3250847
-1.6039808 2.3555136 3.3080111
-1.5716902 2.3758559 3.3326175
2.4802771 2.3908873 3.3338878
2.516942 2.3847282 3.3162153
2.5717561 2.3846679 3.3283319
2.6285241 2.386332 3.3228276
2.6617503 2.3653197 3.3146598
-1.5620221 2.4056964 3.319036
-1.5292422 2.4186721 3.326503
-1.4833857 2.4137533 3.3330936
-1.4288435 2.4231884 3.3212385
-1.3717723 2.4321079 3.3233984
-1.3328363 2.4295995 3.3256428
-1.2818494 2.4383934 3.3210042
-1.2257404 2.4427385 3.3245003
-1.1743582 2.4366531 3.3306208
-1.1217638 2.4369891 3.3258765
-1.0801479 2.4396837 3.3210545
-1.0238258 2.4360704 3.3204219
-0.97074962 2.4364727 3.3307831
-0.93835557 2.4397469 3.3169503
-0.88210434 2.4421992 3.333055
-0.82385617 2.4360793 3.3235118
-0.77652484 2.4345853 3.3242424
-0.72831076 2.4305182 3.3234706
-0.67465121 2.4383945 3.3222637
-0.63060135 2.4477549 3.3235788
-0.57477951 2.4393063 3.3224239
-0.53088272 2.4342742 3.325048
-0.47138742 2.4377654 3.3308132
-0.42645597 2.4377334 3.3232758
-0.36941803 2.4372745 3.3189287
-0.32249445 2.4313993 3.3239324
-0.27599499 2.4429028 3.3247645
-0.22874039 2.4284554 3.326087
-0.1814142 2.4202611 3.3171387
-0.12559059 2.4201338 3.3190234
-0.08240331 2.4275322 3.3302372
0.042028796 2.4266663 3.3297045
0.083940864 2.434597 3.3217602
0.12640168 2.4342737 3.3384471
0.17344026 2.437499 3.341182
0.22876155 2.4372864 3.3199692
0.27929208 2.4407127 3.3277092
0.3229124 2.4432912 3.321945
0.36135304 2.4407625 3.333704
0.47295573 2.4358263 3.3156509
0.53115833 2.4448428 3.3210983
0.57286465 2.4387631 3.3219764
0.62259424 2.4437029 3.3254333
0.66351801 2.4476593 3.3057745
0.78041172 2.441241 3.3139489
1.0266201 2.4455667 3.3040843
1.0564411 2.4482977 3.3003449
2.4396946 2.4359014 3.3373585
2.4780476 2.431495 3.3129921
-0.91451526 2.4523935 3.3406792
-0.50507629 2.4555147 3.3390744
-0.051462255 2.463419 3.325036
-0.032698307 2.4607093 3.3215754
0.43835449 2.4515324 3.3411899
0.51388216 2.4521136 3.3333538
0.64713955 2.4569316 3.3213181
0.68394917 2.4534361 3.3104668
0.74691159 2.4554849 3.3403621
0.76479536 2.4518204 3.3318908
0.9676671 2.4557354 3.3203189
1.0012213 2.4535229 3.322068
1.0741835 2.4574761 3.3290353
1.1238306 2.460655 3.3201935
1.1773992 2.4622445 3.3274822
1.2268561 2.4643171 3.3157003
1.2740546 2.465976 3.3345213
1.3235953 2.4722905 3.3174672
1.3698492 2.4878831 3.3326867
1.4264084 2.4886577 3.3280201
1.4781415 2.49259 3.3150358
1.5834544 2.4986181 3.3272521
2.1404531 2.4924717 3.3362775
2.1779668 2.4995208 3.3278499
2.2214735 2.4911442 3.3222935
2.2736535 2.4882166 3.3213966
2.3345919 2.4903774 3.3244922
2.3773961 2.4751027 3.3373275
2.4258914 2.4756775 3.3216436
2.4599614 2.4669485 3.3106081
1.5245316 2.5038633 3.3147779
1.5711956 2.5050123 3.3201165
1.6163986 2.5032501 3.3210912
1.6964682 2.5181556 3.3107469
1.7297031 2.5170736 3.3402448
1.7687105 2.5148895 3.3189914
1.8116522 2.5119901 3.3412571
1.8802862 2.5105035 3.3218212
1.9260097 2.5076318 3.326417
1.9711709 2.5128279 3.312304
2.0277269 2.5217144 3.322829
2.069952 2.5095406 3.3205707
2.1198492 2.5014553 3.3125172
-0.46606818 -0.4539105 3.3581173
-0.42627287 -0.45472941 3.3677082
-0.33655009 -0.47038269 3.3686419
-0.51497269 -0.4213104 3.3716164
-0.47768533 -0.440907 3.3834164
-0.52540588 -0.37879455 3.3756847
-0.53439206 -0.32508388 3.3706663
-0.53254348 -0.27643257 3.3749142
-0.53420877 -0.22745712 3.374692
-0.53417313 -0.17871512 3.3763187
-0.53919721 -0.1459012 3.3698888
2.7237487 0.45404112 3.393945
2.7555366 0.53522748 3.3860826
2.7263114 0.5728063 3.3821878
2.7563725 0.58487225 3.3802519
2.7365217 0.62446535 3.3875773
2.7511344 0.62329865 3.3679051
2.743854 0.66961145 3.3800733
2.737484 0.72369272 3.3722711
2.748347 0.75639677 3.3801901
2.7601414 0.77961302 3.390898
2.7474053 0.81577259 3.3673711
-1.3777604 0.8987084 3.3574202
-1.4257075 0.92114311 3.3700695
-1.3784595 0.92221773 3.3794138
-1.4656774 0.97318053 3.3551326
-1.4442877 0.98759669 3.3762615
-1.4656341 1.0283908 3.3648009
-1.442459 1.0326211 3.394794
-1.4739217 1.0756291 3.3707225
-1.4741956 1.1308274 3.3766308
-1.471136 1.1738579 3.383158
-1.5044259 1.2253238 3.352427
-1.4769957 1.2248431 3.3772469
-1.5128176 1.2857283 3.3561814
-1.4829997 1.2703751 3.3786261
-1.5049142 1.3190144 3.360445
-1.4858268 1.3247615 3.3788416
-1.5115848 1.3787955 3.3590658
-1.4821639 1.3790919 3.379071
-1.5171146 1.424641 3.3654323
-1.4983382 1.4128687 3.3838773
-1.5160624 1.4744817 3.371757
-1.4905602 1.4865707 3.3929157
-1.5210952 1.5232244 3.3618233
-1.4963905 1.5290141 3.3938427
-1.5189023 1.5753913 3.3715897
-1.4957973 1.5558529 3.3829973
-1.5266528 1.6270552 3.3746841
-1.5294381 1.6744291 3.3653064
-1.4962835 1.6775928 3.394958
-1.5306016 1.7212666 3.3671103
-1.5302212 1.77403 3.3690453
-1.5675043 1.8360475 3.3706048
-1.5583107 1.8744903 3.3673353
-1.5408323 1.8771718 3.3912768
-1.5604297 1.9257063 3.3694832
-1.5425028 1.9277744 3.3881574
-1.5658768 1.9745651 3.3655992
-1.5410908 1.9760654 3.3918853
-1.5703717 2.0246649 3.359956
-1.5483714 2.0237627 3.3897882
-1.5628985 2.0719333 3.3704457
-1.5667977 2.1285851 3.3651376
-1.5450809 2.122324 3.3938651
-1.5716298 2.1831658 3.3629403
-1.5399925 2.1676285 3.3876617
-1.5660717 2.2256484 3.3686395
-1.5407302 2.2215343 3.393661
-1.5650907 2.2726159 3.372576
-1.5436534 2.2551641 3.3841584
-1.5603192 2.3232388 3.3694031
-1.5379721 2.3351414 3.3892374
-1.531356 2.3728089 3.3744328
2.3813739 2.3774912 3.3787394
2.4302626 2.3793454 3.3690784
2.4762535 2.3756814 3.3726778
2.5437555 2.3880401 3.3840125
2.5648417 2.387502 3.3688338
-1.5129988 2.4019837 3.3762331
-1.4646313 2.4075537 3.3591175
-1.4297909 2.4228354 3.3672426
-1.3768619 2.4290648 3.3809423
-1.3244327 2.4303834 3.3719959
-1.2694898 2.4369991 3.3750529
-1.2248831 2.4360416 3.3663123
-1.1721675 2.4328456 3.3665218
-1.1264676 2.4391782 3.3888752
-1.0792947 2.435353 3.3651896
-1.0110973 2.4391866 3.378068
-0.97421068 2.4420719 3.3778284
-0.92259836 2.432981 3.3735645
-0.87954354 2.442446 3.3730485
-0.82614559 2.4360349 3.3844297
-0.77293974 2.4360673 3.3719342
-0.72274882 2.4324548 3.3885314
-0.67055261 2.4358923 3.3636866
-0.61960185 2.4449849 3.3692112
-0.52818966 2.4420607 3.3832054
-0.46110925 2.4347906 3.3902025
-0.42725167 2.4376552 3.3752346
-0.37363467 2.4317529 3.3757489
-0.32800832 2.4241035 3.362627
-0.29755652 2.4381785 3.3721051
-0.23109771 2.434907 3.3716879
-0.17399956 2.4275584 3.3642073
-0.12669237 2.4233263 3.3599942
-0.070696071 2.4195228 3.3837442
-0.032897737 2.4476066 3.3585172
0.086519063 2.4407783 3.3729515
0.12731679 2.4329047 3.3733056
0.17473896 2.4368165 3.3770399
0.22171822 2.4342051 3.371243
0.25984553 2.4382544 3.3747129
0.32681024 2.4442647 3.3784387
0.37482375 2.4486547 3.3806086
0.42155537 2.4445803 3.3705149
0.48885161 2.4495459 3.3702173
0.52298874 2.4443834 3.3777475
0.57163656 2.4441395 3.3805838
0.61221284 2.4304523 3.3649681
0.68411916 2.4403858 3.387219
0.76761681 2.4417765 3.3554695
2.3390081 2.4421523 3.3938484
2.374342 2.4260774 3.3739047
2.4117813 2.4293389 3.3514462
-1.0460652 2.4530976 3.390106
-0.83728093 2.4505522 3.3544633
-0.58860207 2.4510276 3.3974645
-0.50835365 2.4524324 3.3718922
-0.48902884 2.4508295 3.3719358
-0.014244262 2.4864149 3.393239
0.0047945315 2.4721744 3.3923571
0.28961441 2.4502108 3.3894353
0.46171284 2.4566393 3.383198
0.63213581 2.4531095 3.3560812
0.67783517 2.4542449 3.369596
0.72177517 2.4575419 3.3669119
0.77170992 2.4547691 3.3732741
0.85030842 2.4795833 3.3545456
0.93576461 2.4831853 3.3805671
0.99335128 2.4623246 3.3766086
1.0202966 2.4571838 3.3624625
1.0815684 2.4654419 3.3724468
1.1178223 2.4609811 3.3832736
1.180003 2.4685984 3.3772907
1.2353437 2.4814029 3.3802934
1.2790929 2.4701817 3.3917599
1.3301983 2.4832902 3.3742266
1.3774624 2.4873097 3.3860817
1.4230269 2.4974885 3.3861661
1.5039393 2.4992394 3.359364
2.0390611 2.4963768 3.3981259
2.0775373 2.4922705 3.3703766
2.1228952 2.4906001 3.3771966
2.174881 2.4990573 3.3812346
2.2215796 2.4938009 3.3803577
2.2702127 2.4792712 3.378515
2.3253219 2.4797902 3.3757541
2.3583884 2.4614949 3.3643374
1.4469789 2.5043888 3.3884068
1.4780514 2.5061336 3.3798237
1.527997 2.5059307 3.3607171
1.5712662 2.5169811 3.3837166
1.6249393 2.5118372 3.3764203
1.6854082 2.5266454 3.375088
1.7443424 2.5178928 3.3816481
1.779817 2.5143962 3.3835604
1.8287368 2.5150547 3.3860207
1.8709164 2.5149658 3.3756585
1.9326134 2.5090239 3.3743773
1.9766742 2.5123258 3.3579829
2.0163476 2.512547 3.36288
-0.36651027 -0.46127123 3.4211776
-0.47433868 -0.42620698 3.4207385
-0.43078849 -0.44319957 3.4378936
-0.50457478 -0.36917311 3.403038
-0.48526126 -0.38360193 3.4304974
-0.50894386 -0.32832426 3.4071786
-0.49084166 -0.32993576 3.4260261
-0.50577539 -0.27958247 3.4167192
-0.48733267 -0.28081596 3.4337022
-0.5085085 -0.2296145 3.409502
-0.49144864 -0.23123102 3.4355147
-0.5081445 -0.18027893 3.4089756
-0.49081308 -0.18969092 3.4327116
-0.51314974 -0.14774206 3.4156694
-0.49295077 -0.14908172 3.4489782
2.7459071 0.47759983 3.4192982
2.7724731 0.49320611 3.4253705
2.747273 0.52753425 3.4149091
2.7649095 0.51718867 3.400172
2.7729149 0.55851984 3.4047582
2.6997888 0.69955593 3.4442933
2.7229195 0.69783628 3.4162173
2.6864753 0.72859097 3.4412627
2.7242281 0.72806835 3.4126859
2.7327781 0.7603296 3.4179401
-1.418561 0.94901192 3.4019194
-1.3627611 0.94684476 3.409585
-1.4148954 0.97484523 3.4173508
-1.3797024 0.97429776 3.4400604
-1.3336396 0.95106667 3.4347138
-1.4264758 1.0169438 3.4179764
-1.3985209 1.0126474 3.438535
-1.4521693 1.0751033 3.4096394
-1.4289647 1.0691226 3.4389384
-1.4530706 1.1113387 3.4034266
-1.434752 1.1267861 3.4294596
-1.4280407 1.1763012 3.4258337
-1.4363371 1.2329185 3.4224758
-1.4621879 1.2782221 3.4091945
-1.4273663 1.2699429 3.4347293
-1.465508 1.3138795 3.4164608
-1.4586105 1.3819189 3.422843
-1.4721086 1.4270278 3.4242756
-1.4776218 1.4754835 3.4275138
-1.4730754 1.5242524 3.424777
-1.4789186 1.5735906 3.4327724
-1.511652 1.6186073 3.402287
-1.4886422 1.6237574 3.422503
-1.4821154 1.6663215 3.4288483
-1.5099114 1.7302668 3.4114065
-1.485889 1.7256322 3.4338162
-1.5098301 1.7781024 3.4112864
-1.4825789 1.775089 3.4343979
-1.5285989 1.8369507 3.4189665
-1.4985011 1.8464741 3.449851
-1.5240959 1.8714579 3.4213324
-1.5197467 1.9263176 3.4250782
-1.5176671 1.9796164 3.4214616
-1.4974326 1.9845034 3.4478135
-1.523061 2.0341702 3.4239056
-1.5235069 2.0708911 3.4200401
-1.5232725 2.116128 3.4224973
-1.4973855 2.1176705 3.4484129
-1.5175438 2.1688344 3.4285908
-1.5160367 2.2253695 3.4231861
-1.5257244 2.2821491 3.4153457
-1.4984126 2.2559462 3.4474235
-1.5164524 2.3261147 3.419287
-1.4892765 2.3319917 3.4467182
-1.5105461 2.3839688 3.4142528
-1.4824265 2.3768711 3.4349263
2.2908206 2.3829408 3.4439194
2.3254123 2.3855953 3.4289818
2.3670371 2.3772876 3.4155407
-1.4685218 2.4135907 3.4225755
-1.4210161 2.4241567 3.4233396
-1.3745244 2.4225609 3.4146364
-1.3300356 2.4236584 3.4093947
-1.2821621 2.4366117 3.4234352
-1.2264374 2.4372818 3.4271801
-1.1810235 2.436728 3.4218338
-1.1260207 2.4398541 3.4313402
-1.0809215 2.440717 3.4307125
-1.0209873 2.4434662 3.4224858
-0.9762826 2.4294205 3.4120145
-0.92936319 2.4338834 3.429229
-0.88304406 2.4442041 3.4277713
-0.8212685 2.4339833 3.4250638
-0.77776158 2.435482 3.422236
-0.72779089 2.4300823 3.42313
-0.67442441 2.440042 3.4307904
-0.62352616 2.4326715 3.4142435
-0.57740414 2.4403286 3.4317141
-0.52288926 2.437871 3.4255316
-0.4793081 2.4406972 3.4250646
-0.42488587 2.4261212 3.4195156
-0.35631204 2.4144034 3.4090354
-0.3283782 2.4186611 3.4173026
-0.27276561 2.4415083 3.4346735
-0.22383878 2.4395788 3.4159203
-0.18571559 2.4298015 3.4228096
-0.12841044 2.4284446 3.419148
-0.033114132 2.4259195 3.4024379
0.11931348 2.4437895 3.4259713
0.1803463 2.4349556 3.4265239
0.22443059 2.4354236 3.4288976
0.27206686 2.4439232 3.4192631
0.32912752 2.4427269 3.4136059
0.37641275 2.43994 3.4058213
0.42415562 2.4404845 3.4021151
0.47466469 2.4457114 3.4232755
0.52359676 2.4455833 3.4269786
0.67791802 2.4430313 3.4113145
2.2797179 2.434211 3.4354141
2.3259981 2.4291656 3.4131305
-1.0551281 2.4547064 3.4309916
-0.57048297 2.4554312 3.4061823
-0.27615583 2.465636 3.4242754
-0.014226685 2.4550307 3.4058824
0.014298933 2.4553971 3.4063816
0.57595968 2.4592571 3.449492
0.6274873 2.4574857 3.4300816
0.66357541 2.4611554 3.4396558
0.729918 2.456224 3.4217453
0.78018659 2.4624159 3.4217675
0.81765252 2.4584656 3.4090154
1.0337678 2.469986 3.4184442
1.0715463 2.4685497 3.4313996
1.1299683 2.4745929 3.4278834
1.1727971 2.4750569 3.430671
1.2296509 2.4766357 3.4307892
1.2644125 2.4732697 3.4293404
1.3289983 2.4839649 3.4292111
1.3798149 2.4895692 3.4321136
1.4128555 2.4947906 3.4291101
1.4756881 2.4990618 3.4136124
1.5079925 2.4990525 3.4464078
1.6427574 2.4984334 3.43905
1.6619897 2.4965875 3.4281867
1.8655123 2.4954305 3.4321675
1.9733721 2.4927857 3.4250982
2.030802 2.4893668 3.42379
2.08214 2.4787302 3.4206579
2.1291242 2.4861717 3.435282
2.1797061 2.4901335 3.4281979
2.2258937 2.4789307 3.439455
2.2697248 2.4691796 3.4183974
1.4379668 2.5035067 3.4340971
1.5348518 2.5134611 3.414531
1.5750552 2.5139351 3.4337392
1.6330314 2.5040112 3.4061086
1.678357 2.51425 3.4195797
1.7193557 2.5175056 3.4231393
1.7562721 2.5144889 3.417804
1.8359749 2.5042896 3.4125099
1.9241196 2.5041101 3.4193118
-0.34632939 -0.45066589 3.469456
-0.46256012 -0.41670594 3.4585252
-0.43683815 -0.42423004 3.4882429
-0.36209685 -0.44951442 3.4594831
-0.46639448 -0.37263298 3.4726331
-0.44909307 -0.36093611 3.4891009
-0.46994466 -0.3205196 3.4700115
-0.44895431 -0.31887624 3.4906623
-0.46868414 -0.27300283 3.4633098
-0.44863677 -0.26833534 3.4909317
-0.47060987 -0.22485082 3.4672699
-0.44892961 -0.22653407 3.4951396
-0.47356272 -0.17345795 3.4643924
-0.44789696 -0.18414655 3.4886897
-1.3764802 -0.12214766 3.4855249
-0.47870305 -0.14981069 3.4673381
-1.3850461 -0.069675505 3.4836502
-1.3861084 -0.034754526 3.486675
2.6284792 0.6991111 3.4861948
2.6671495 0.69882047 3.4598215
2.5855522 0.73053557 3.4941323
2.6225069 0.72737676 3.4732523
2.6536026 0.72775126 3.4563727
2.6075227 0.75578231 3.467463
-1.3824569 0.97831452 3.455287
-1.3499755 0.98054236 3.4732256
-1.4065343 1.0363153 3.4544079
-1.3796762 1.0228158 3.4825242
-1.4097446 1.0834579 3.4523463
-1.3884298 1.0788091 3.4760821
-1.4092026 1.1265978 3.4584558
-1.3823483 1.1200329 3.4878929
-1.4032741 1.1735841 3.4667614
-1.3919636 1.1792926 3.488909
-1.4145848 1.2207043 3.458303
-1.3959374 1.2281494 3.4874597
-1.4116743 1.2755282 3.4766574
-1.4180037 1.3133039 3.4835861
-1.4279546 1.3817585 3.4660258
-1.3900579 1.3767799 3.4862845
-1.4310087 1.4256248 3.4803329
-1.4534352 1.4862818 3.4583802
-1.4278668 1.4625864 3.4747772
-1.455179 1.5157877 3.4534914
-1.4381026 1.5288395 3.4816651
-1.4592569 1.5857394 3.4693794
-1.4405094 1.576605 3.4877672
-1.4639962 1.6225113 3.463768
-1.4431781 1.6271127 3.4971724
-1.4584827 1.6701418 3.4659557
-1.4456767 1.6770555 3.4862702
-1.4592352 1.729073 3.4755707
-1.4375483 1.746567 3.4971309
-1.4558545 1.7634369 3.4626262
-1.4392163 1.7676018 3.4938629
-1.4818894 1.8304887 3.469887
-1.5050468 1.8832324 3.4527774
-1.4796365 1.8682334 3.4781916
-1.4858464 1.924183 3.4722335
-1.4775006 1.9761814 3.4773405
-1.5041288 2.0127347 3.454339
-1.4818629 2.0316923 3.4756074
-1.4828213 2.0781677 3.4761682
-1.4749992 2.1245379 3.4828675
-1.4853883 2.1739738 3.4723556
-1.4842937 2.2308578 3.4716136
-1.5050234 2.2857811 3.4519415
-1.4815788 2.2772207 3.4755173
-1.4807398 2.3221128 3.4779935
-1.4623014 2.3728068 3.4801025
-1.4457251 2.3987541 3.4842222
2.2230597 2.3901246 3.4872515
2.26566 2.3756869 3.4715519
-1.4199131 2.4160988 3.4768646
-1.3761362 2.4280097 3.4812241
-1.3224326 2.4352784 3.4778504
-1.2818649 2.4350476 3.4639559
-1.2288677 2.4287944 3.4697545
-1.1772494 2.4349043 3.472693
-1.1260496 2.4414299 3.4754832
-1.0713134 2.4396524 3.466002
-1.0206693 2.4400189 3.4719574
-0.98155659 2.4425011 3.4813902
-0.92836523 2.4372382 3.4749608
-0.87381423 2.4408174 3.4754932
-0.82677364 2.437006 3.4750352
-0.78174531 2.4388785 3.4760642
-0.72691876 2.4401546 3.4774792
-0.67804843 2.4400015 3.4850824
-0.57644343 2.4324689 3.4689982
-0.53074598 2.4335797 3.4699142
-0.48836762 2.4379063 3.4681287
-0.30245009 2.4206383 3.4599991
-0.26419786 2.4413252 3.4539194
-0.1890166 2.4439454 3.4997833
-0.13016362 2.4359233 3.4808278
-0.072012402 2.4215102 3.4709997
-0.033775181 2.4357972 3.4919844
0.13904873 2.4356489 3.4516425
0.16547093 2.4352837 3.4755888
0.27512336 2.4444356 3.4730034
0.32390505 2.4464889 3.4764757
0.37580365 2.4463284 3.4682777
0.41142806 2.4496088 3.4736614
0.45115322 2.4454205 3.4830284
0.53854394 2.4458027 3.4737415
0.56844568 2.4492223 3.4749303
0.66978794 2.4450519 3.4939001
2.1839416 2.4370053 3.4908245
2.2232909 2.4335494 3.4716125
2.2521889 2.4193575 3.4552157
-0.63780499 2.4547429 3.4732924
-0.24011658 2.4635999 3.4742105
0.03707419 2.4651551 3.4701211
0.062820278 2.4634058 3.4736919
0.43736258 2.4536226 3.4704583
0.4820902 2.4547632 3.4932387
0.51055896 2.4511838 3.4848752
0.58949614 2.4559679 3.4819283
0.62856299 2.4563379 3.4770038
0.68100899 2.4514742 3.4752522
0.71974385 2.4682469 3.4802744
0.77458841 2.4665713 3.4783621
0.82577437 2.4633036 3.4540961
0.86579275 2.4659858 3.4501801
1.088264 2.465497 3.4804912
1.1327575 2.4757786 3.4846482
1.1701183 2.4705033 3.466476
1.2135181 2.4777377 3.4653797
1.2732948 2.4770031 3.4895091
1.3280325 2.4852235 3.4856446
1.3753821 2.497879 3.4904094
1.4349 2.4955223 3.4667382
1.4513025 2.4859476 3.4903789
1.9318656 2.4857473 3.4830055
1.9784873 2.4914551 3.4706616
2.0286782 2.4914534 3.479893
2.07008 2.4917333 3.4765303
2.1270332 2.4756691 3.4828224
2.1738701 2.4694071 3.4682167
2.214206 2.4675231 3.460418
1.4070308 2.5000334 3.4833689
1.4824144 2.5073223 3.468852
1.5277315 2.5046268 3.4706557
1.5795288 2.511735 3.4855471
1.6240587 2.5170374 3.47697
1.7288827 2.5139692 3.4760568
1.7948732 2.5191448 3.4562771
1.8236759 2.5145912 3.4719582
1.8678663 2.5056329 3.4978304
-0.28478938 -0.4591116 3.5384622
-0.41681868 -0.41863152 3.5196445
-0.37412244 -0.43789566 3.5352364
-0.33526951 -0.44139203 3.5312474
-0.42173016 -0.37303075 3.5259142
-0.42798302 -0.32204744 3.527581
-0.42732009 -0.27076384 3.5248861
-0.43030137 -0.21727681 3.5218353
-0.45022935 -0.15143901 3.5078902
-0.43042865 -0.16900539 3.5245216
-0.45048666 -0.13468264 3.5103333
-0.42717439 -0.13530874 3.5286603
-1.3593216 -0.066546932 3.5120301
-1.3650352 -0.034893852 3.5070558
-1.3488476 -0.034934256 3.5153027
2.4928966 0.46474952 3.5438344
2.5147769 0.4750469 3.534755
2.4964528 0.53461313 3.5411365
2.5179529 0.51520455 3.5348265
2.4982085 0.55477983 3.541204
2.5035729 0.58572841 3.5449808
2.5069745 0.62624097 3.5443826
2.5278602 0.69243944 3.5347073
2.570013 0.696738 3.5044158
2.5301003 0.72936374 3.5420294
2.5633976 0.72513407 3.5169563
2.6033568 0.70037538 3.5107667
2.4939215 0.78723943 3.5398412
2.5584869 0.75886583 3.5175731
-1.3257319 0.98006207 3.5148401
-1.3568226 1.0331224 3.5135143
-1.33623 1.0240595 3.5354195
-1.3621659 1.0774579 3.513206
-1.3435779 1.0843668 3.5432148
-1.3615222 1.1304868 3.5131741
-1.3438638 1.1301692 3.5337162
-1.3717968 1.1762595 3.5169637
-1.3484634 1.1797502 3.5350657
-1.3804348 1.2242632 3.5234723
-1.4067307 1.2651347 3.5072796
-1.3837552 1.274657 3.5309739
-1.390259 1.321471 3.5309558
-1.3805441 1.3782567 3.5394473
-1.4056021 1.4293059 3.5142391
-1.3832312 1.4256585 3.539156
-1.421634 1.4920835 3.5109701
-1.3856192 1.4654669 3.5339918
-1.411935 1.5201464 3.5232975
-1.4159458 1.5753165 3.5204883
-1.3943969 1.5887485 3.5498431
-1.4188746 1.6221665 3.518815
-1.3960406 1.6190393 3.5443811
-1.4177293 1.6696513 3.5290408
-1.4214454 1.7216333 3.5209858
-1.4239382 1.7731836 3.5210412
-1.3942161 1.763755 3.5491946
-1.4585871 1.8491868 3.5179181
-1.4418813 1.8331569 3.5380335
-1.4583582 1.8777912 3.505465
-1.4351181 1.8755332 3.5325108
-1.4593838 1.9294041 3.5078251
-1.4389566 1.9193327 3.5258372
-1.4542303 1.9753863 3.5152559
-1.4421587 1.9757739 3.543865
-1.4584823 2.0202293 3.5080659
-1.4470191 2.0315027 3.5340619
-1.4631361 2.0560217 3.505805
-1.4420884 2.0778141 3.5312066
-1.455539 2.1224411 3.518064
-1.4455221 2.1368117 3.5483518
-1.4581906 2.1658802 3.5051823
-1.4444773 2.1750021 3.5264935
-1.465513 2.2206199 3.5147491
-1.4398738 2.2484729 3.5456598
-1.4548349 2.2706425 3.5111206
-1.436294 2.2869313 3.5382452
-1.4645498 2.3260989 3.5131593
-1.4388075 2.333313 3.5342126
-1.4305792 2.3768294 3.5201864
-1.3949392 2.3951585 3.5399961
2.1353369 2.3773253 3.5452204
2.1827331 2.3757482 3.5281761
2.2149489 2.3716893 3.5194306
-1.4086603 2.404259 3.5057619
-1.3719134 2.4157443 3.5253839
-1.3293431 2.4220324 3.5267768
-1.2770582 2.4338813 3.5287056
-1.2253656 2.4415917 3.5340462
-1.171742 2.4448614 3.532474
-1.1312758 2.4405143 3.5291719
-1.0868561 2.4450727 3.5333333
-1.02716 2.4447482 3.5331967
-0.96622783 2.4387515 3.5100417
-0.91786039 2.441879 3.5251725
-0.86788511 2.4410157 3.5339172
-0.82508731 2.4415054 3.522532
-0.77751923 2.4402544 3.5224516
-0.72324413 2.4412391 3.519614
-0.6733489 2.4388332 3.5238934
-0.62740839 2.4438057 3.5220246
-0.57097769 2.4417918 3.529315
-0.54586315 2.4400735 3.5431056
-0.2689192 2.4262528 3.5476871
-0.21042703 2.4480443 3.5434942
-0.073132925 2.4205048 3.5466235
0.014674224 2.4363818 3.5314503
0.22981825 2.4452291 3.5384827
0.27883327 2.4462862 3.5372441
0.32751247 2.4443407 3.5311651
0.37717199 2.4495549 3.5348372
0.42396998 2.437037 3.5124569
0.52306068 2.4447589 3.5132177
2.1237822 2.4202104 3.5442245
2.1592174 2.4211113 3.5202928
-1.0642226 2.4590693 3.5183606
-0.95161581 2.4521689 3.533704
-0.21006323 2.4633605 3.5267138
0.073398277 2.4651761 3.5336304
0.1024203 2.4673913 3.5169425
0.21476825 2.4557331 3.5252478
0.27747121 2.4537108 3.5092146
0.36661768 2.454041 3.5227432
0.4756144 2.4520969 3.5292199
0.57488871 2.4572783 3.5251391
0.62376261 2.4562869 3.5171251
0.65767449 2.4730277 3.536839
0.72889644 2.4619334 3.522794
0.76210517 2.4630709 3.518863
0.82248652 2.4690654 3.527755
0.86670828 2.4769945 3.5066071
1.0948793 2.4831388 3.5479698
1.1273733 2.4659674 3.5131912
1.1824945 2.4977243 3.5476859
1.218438 2.4882991 3.5230815
1.271849 2.483748 3.5222788
1.3261012 2.4802639 3.5221932
1.3856208 2.4959917 3.5283871
1.431378 2.4916894 3.5213506
1.4782939 2.49388 3.5389853
1.7359295 2.4974127 3.5409212
1.7690635 2.4997931 3.5311618
1.832652 2.493906 3.542578
1.8760487 2.495471 3.5259976
1.9192268 2.4871035 3.5248871
1.9776939 2.484319 3.5262022
2.0209641 2.4868348 3.526933
2.0750861 2.46942 3.5271378
2.1202779 2.4596715 3.5228381
1.4843872 2.5074387 3.5134034
1.5050821 2.5077007 3.5064898
1.572607 2.5233114 3.5301139
1.6116288 2.5091388 3.5152926
1.6776621 2.5253241 3.527926
1.7194098 2.5096426 3.5203991
1.7822727 2.512665 3.5151689
1.8369012 2.5064497 3.5131912
-0.37052727 -0.41955918 3.5769589
-0.32393563 -0.44056994 3.5955143
-0.40528014 -0.37541378 3.5500159
-0.38273653 -0.37845859 3.5806019
-0.40532446 -0.32425049 3.5536549
-0.38256118 -0.32669702 3.5822961
-0.40600154 -0.27349105 3.562376
-0.38659561 -0.27921498 3.5820153
-0.40509427 -0.22171539 3.5567071
-0.38637114 -0.22754434 3.5823526
-0.40533796 -0.17064752 3.5606568
-0.38426283 -0.17190951 3.5889001
-0.40570411 -0.13662213 3.5648305
-0.38250768 -0.13750516 3.5896716
2.468219 0.47912759 3.5617852
2.5038552 0.49652803 3.5562224
2.4714665 0.5257026 3.5653424
2.5014992 0.51587725 3.550631
2.4772103 0.57659382 3.5675428
2.4796095 0.62682652 3.5643611
2.4818251 0.6783126 3.5687664
2.5151613 0.65817124 3.55165
2.4425116 0.72994733 3.5948606
2.4760985 0.72339517 3.5783441
2.5006964 0.7394737 3.5580523
2.4276941 0.77837223 3.5847273
2.4680786 0.77855539 3.5639019
2.5145559 0.76062024 3.5545261
2.4411371 0.82940817 3.5756392
2.478343 0.82742339 3.5637019
2.4754763 0.8609103 3.559907
-1.3071527 0.98412842 3.5736644
-1.2910708 0.97664845 3.5860205
-1.321463 1.0246606 3.5781329
-1.3293134 1.0748475 3.571064
-1.3257093 1.119668 3.5700219
-1.334599 1.1744972 3.5539827
-1.3587072 1.2255764 3.5528755
-1.3422769 1.2299484 3.5820973
-1.3591434 1.2752845 3.5646317
-1.3383561 1.2874962 3.5955219
-1.3604397 1.3246505 3.5669219
-1.3399773 1.3264252 3.5899837
-1.3627571 1.3679055 3.56567
-1.3452351 1.3785257 3.5912194
-1.3631945 1.4245901 3.5705044
-1.3497608 1.4207883 3.5925763
-1.3592055 1.4737118 3.5804951
-1.3759199 1.5275061 3.5688925
-1.3724543 1.576773 3.5709064
-1.3747432 1.6274505 3.5711393
-1.3769383 1.6770855 3.5795112
-1.4082826 1.7000868 3.5519011
-1.3801335 1.7263987 3.576263
-1.389071 1.7790233 3.5597634
-1.4188733 1.8408566 3.5618911
-1.3967443 1.830526 3.5960402
-1.4106385 1.8837274 3.573868
-1.393803 1.874299 3.591748
-1.4127235 1.926736 3.5736589
-1.4179765 1.9731498 3.5702949
-1.3969953 1.9950151 3.5968173
-1.4192076 2.0245748 3.5720723
-1.3967569 2.0144272 3.5876338
-1.4181272 2.0700583 3.5757899
-1.4194349 2.1225181 3.5766585
-1.4246356 2.170285 3.5707083
-1.4226041 2.2227941 3.5743554
-1.4223247 2.2786641 3.581882
-1.4088489 2.3281877 3.5731602
-1.3991432 2.3209169 3.5942504
-1.4210145 2.3641827 3.5700994
-1.3851436 2.3778365 3.5772903
2.0411308 2.3797367 3.5967708
2.0790141 2.3750861 3.5871856
2.1200466 2.3621001 3.5637789
-1.3710772 2.4066916 3.5667179
-1.3263822 2.412493 3.5750923
-1.2708572 2.4256513 3.5721583
-1.2211916 2.4331186 3.5652547
-1.1825744 2.4371252 3.5821514
-1.1128361 2.4380531 3.5584519
-1.0726002 2.4381995 3.5685925
-1.0129786 2.4400964 3.5854731
-0.95731181 2.446785 3.5659206
-0.92403281 2.4382432 3.5597634
-0.87438154 2.4391944 3.5711672
-0.77296621 2.4393978 3.5797093
-0.74959171 2.4432502 3.5587742
-0.67968702 2.4417095 3.5675235
-0.61225063 2.4498899 3.5893993
-0.57236105 2.4496055 3.594142
-0.43179598 2.442826 3.5993855
-0.17208919 2.4400928 3.5726845
-0.093446687 2.4413738 3.5768423
0.044343289 2.4417825 3.5781863
0.23196796 2.4482117 3.5819767
0.28067729 2.4427328 3.5711935
0.31969073 2.43979 3.5643375
0.36015102 2.4474039 3.572525
0.41947111 2.4481425 3.5685475
0.48795819 2.4452124 3.5573816
2.0404875 2.4232166 3.5914021
2.0784895 2.4180131 3.5717988
2.107528 2.4036455 3.5565639
-1.16956 2.4514174 3.5648978
-1.0620043 2.4570971 3.5580893
-1.0003135 2.4539163 3.5674906
-0.97945851 2.4520404 3.5692227
-0.87249672 2.453841 3.5525241
-0.81921899 2.4736173 3.5925179
-0.72284847 2.4536092 3.5787339
-0.65245736 2.4513323 3.5859854
-0.63390476 2.4566438 3.5965703
-0.59285378 2.4520185 3.5951462
-0.46168718 2.4632802 3.5867219
-0.18191226 2.459877 3.5618887
0.083567068 2.4571216 3.5607848
0.11354005 2.4668026 3.5741658
0.34166211 2.4563363 3.5870798
0.38088253 2.4538481 3.5803301
0.42109251 2.4572682 3.5818009
0.45995241 2.4535162 3.5725656
0.54005492 2.4579861 3.5703657
0.57124281 2.4642754 3.5758448
0.62708282 2.4639812 3.5781326
0.67483336 2.4610415 3.570308
0.71950758 2.4633865 3.5777359
0.78441185 2.4687197 3.5708771
0.82668066 2.4655831 3.5790834
0.87728798 2.4870603 3.5605366
0.91998744 2.4898307 3.583848
1.1322939 2.4785795 3.5742188
1.1778257 2.4889612 3.5785375
1.2291595 2.4896872 3.5656137
1.2949646 2.498621 3.5607147
1.3229071 2.4922488 3.5865526
1.38458 2.4920692 3.5671985
1.425182 2.4961815 3.5758026
1.4665545 2.4883609 3.5796654
1.7248538 2.4906993 3.5823436
1.7767125 2.4894903 3.5588827
1.8209319 2.4855959 3.5826821
1.8851756 2.483902 3.5682983
1.9187627 2.4810495 3.5818
1.9665592 2.4767132 3.5776358
2.027252 2.4639664 3.5773509
2.0700316 2.4529564 3.5623178
1.3689023 2.5010302 3.5865448
1.5250642 2.5097404 3.5714226
1.5673558 2.5184739 3.5783541
1.6261621 2.5136418 3.5759239
1.6701469 2.5053101 3.5647991
1.7077527 2.502214 3.5605884
-0.29143813 -0.45242783 3.6225111
-0.33032042 -0.42186704 3.6294067
-0.29249403 -0.43660158 3.6370239
-0.35962197 -0.38131118 3.6092265
-0.34474647 -0.37530476 3.6368732
-0.3597616 -0.32942367 3.6139424
-0.34348428 -0.33044401 3.6262791
-0.36665422 -0.2739253 3.6162548
-0.34460187 -0.2791633 3.6409118
-0.36682051 -0.22202201 3.6201978
-0.34496996 -0.22705121 3.6471424
-0.36352298 -0.17310056 3.6150753
-0.34424809 -0.17429601 3.6413529
-0.35907483 -0.13840921 3.6149762
2.3454747 0.74078405 3.6491477
2.375196 0.73070657 3.6352072
2.4165754 0.72111458 3.6182499
2.451086 0.70243865 3.6122108
2.3337712 0.7702232 3.6465836
2.3762443 0.77664691 3.6224375
2.4013612 0.77951145 3.6058359
2.3841739 0.80039495 3.6170063
-1.2744553 0.9941498 3.6217322
-1.3018466 1.0307935 3.6068671
-1.2843084 1.0234181 3.6276188
-1.3039579 1.0693401 3.6050622
-1.2927392 1.0753566 3.629997
-1.3097329 1.120364 3.6110353
-1.2879155 1.1162729 3.6370044
-1.3175353 1.1736451 3.6220441
-1.2863492 1.1791538 3.6486981
-1.3183159 1.2225598 3.6248765
-1.322418 1.2713659 3.6203055
-1.2910327 1.2679646 3.6416485
-1.3204329 1.3293486 3.6161225
-1.295772 1.3197647 3.6429617
-1.3265719 1.378971 3.6273017
-1.329747 1.4259717 3.6299286
-1.3372792 1.4758127 3.6319761
-1.3393699 1.5258054 3.6231391
-1.3505458 1.5849226 3.606663
-1.3399638 1.5747414 3.6201212
-1.3541276 1.617849 3.6067286
-1.3409704 1.6251159 3.6282067
-1.358196 1.6611209 3.6045229
-1.3380111 1.6752577 3.6281981
-1.3529718 1.7463669 3.62357
-1.3388499 1.7190046 3.6333497
-1.3634653 1.7765359 3.6122327
-1.3378739 1.7617229 3.6371222
-1.3754579 1.8411161 3.6254315
-1.3463546 1.8022823 3.6493528
-1.3782448 1.8743459 3.6213586
-1.3719488 1.9259987 3.6284461
-1.3798536 1.9691769 3.622221
-1.3838487 2.0267301 3.62798
-1.3861058 2.0824199 3.6286871
-1.3911834 2.1302667 3.6237023
-1.4038131 2.1744506 3.608429
-1.3876519 2.1705756 3.6296759
-1.4073489 2.2001159 3.6078258
-1.3815019 2.2173386 3.6237786
-1.3905867 2.2726984 3.6275659
-1.3808532 2.3190606 3.6242523
-1.3658121 2.3693099 3.6235282
-1.3413833 2.3958883 3.6256986
1.9858749 2.390559 3.6433849
2.021091 2.3735178 3.6262157
2.0737553 2.3602786 3.6238716
-1.3167609 2.4117966 3.6217811
-1.2665862 2.4213831 3.6219738
-1.221112 2.4329047 3.6266365
-1.1656228 2.4376023 3.6165526
-1.139835 2.4440851 3.6262729
-1.084568 2.4449787 3.6194167
-1.0242801 2.4469252 3.6364722
-0.97688961 2.4455948 3.6304767
-0.76365173 2.4485948 3.6471965
-0.61701739 2.4488864 3.6280367
-0.59660578 2.4474707 3.628567
-0.15358016 2.4389031 3.611156
-0.054627907 2.4462402 3.624248
-0.034731019 2.4452541 3.6229777
0.074543998 2.4339485 3.6256559
0.24328713 2.4429605 3.6133726
0.32290643 2.4441426 3.6102362
0.36325079 2.4485478 3.6138477
0.46679249 2.4498165 3.646991
1.9789391 2.4275789 3.6373415
2.012634 2.4169972 3.6105797
-1.118193 2.451725 3.6219616
-1.0549494 2.457293 3.6243343
-0.98709875 2.4509063 3.6081042
-0.92914206 2.4582226 3.6316607
-0.87614298 2.4520593 3.6325531
-0.82848787 2.4569936 3.6321881
-0.78481412 2.4515092 3.6481564
-0.72865772 2.4531817 3.618259
-0.67848951 2.4535294 3.6264346
-0.63858169 2.454644 3.6338406
-0.5682838 2.4550853 3.6436276
-0.463907 2.4551368 3.6146092
-0.15524691 2.4854088 3.6397448
-0.12811823 2.464287 3.6362038
0.12945382 2.4638009 3.6187811
0.16563448 2.4894655 3.6453576
0.27389857 2.4503741 3.6226697
0.32410225 2.4534957 3.6240985
0.38355336 2.4511137 3.6160326
0.4246318 2.4582927 3.6231172
0.48428071 2.45679 3.6150579
0.52594274 2.464781 3.622411
0.57489485 2.460001 3.6094446
0.62104684 2.4645224 3.6238911
0.66606009 2.4644635 3.6038213
0.78066415 2.4756975 3.6302757
0.8357867 2.4725096 3.6296093
0.88479489 2.4909391 3.6205528
0.92080784 2.4832871 3.6297777
1.1484689 2.4712174 3.6018207
1.2215441 2.4902742 3.6236
1.2798963 2.4950144 3.6186113
1.3269295 2.4985616 3.6404481
1.3758795 2.4930282 3.6165967
1.4292468 2.4876699 3.6214702
1.4931574 2.4947152 3.6273658
1.6142224 2.4990079 3.639106
1.6857536 2.4952617 3.6056576
1.727265 2.4882619 3.625931
1.7802478 2.4858954 3.616864
1.8258923 2.4855196 3.630378
1.8804384 2.4772475 3.6260483
1.9355431 2.4703598 3.6318884
1.9787998 2.4597902 3.6187401
1.183738 2.5026267 3.6422381
1.3839015 2.5075271 3.6376846
1.475839 2.5008683 3.6433523
1.528934 2.5018406 3.6269081
1.5829563 2.5082648 3.6342773
1.6242801 2.5068376 3.6167586
1.6631149 2.5089197 3.6376719
-0.31761596 -0.40987816 3.6592026
-0.27782968 -0.42629695 3.675966
-0.2434265 -0.44266555 3.6900597
-0.32069588 -0.3690528 3.6635783
-0.29582387 -0.37091193 3.6834614
-0.31949162 -0.32038921 3.6732666
-0.29670864 -0.31886664 3.6976776
-0.32251588 -0.27772754 3.6694686
-0.32105032 -0.22869843 3.6752484
-0.32080957 -0.17578639 3.674242
-0.29634571 -0.15921609 3.6997864
-0.32960126 -0.14062886 3.6750438
-1.263406 -0.060469776 3.6735795
-1.259321 -0.027093112 3.6714542
-1.2006177 0.43846726 3.683152
-1.198976 0.47434226 3.6749849
-1.2079134 0.51462775 3.6990101
-1.2094144 0.57047242 3.6980004
2.3269911 0.68412375 3.6910815
2.3778577 0.68723798 3.6879601
2.4209216 0.68802309 3.6716237
2.4513648 0.68807739 3.656127
2.2812419 0.72593081 3.6906228
2.3244939 0.722233 3.6723385
2.379781 0.70501882 3.667304
2.2788663 0.77190864 3.6837935
2.3150465 0.76839942 3.6658313
2.3508551 0.78259075 3.6510084
2.2794514 0.80216885 3.6797938
2.3241313 0.80378497 3.667748
-1.2565439 1.0265142 3.6766078
-1.2659913 1.0748605 3.6711662
-1.3044362 1.1411808 3.6507163
-1.2719375 1.12418 3.6790011
-1.2733941 1.1767309 3.6843903
-1.2825056 1.2228912 3.6802104
-1.2736057 1.2711796 3.6752441
-1.2482665 1.2913953 3.6934206
-1.3049393 1.3480892 3.663727
-1.2760973 1.3161204 3.6782303
-1.3071101 1.3788579 3.6621218
-1.2871588 1.3803208 3.6895893
-1.3114696 1.4216449 3.6637316
-1.2891712 1.4286289 3.6891689
-1.31315 1.476608 3.6692679
-1.2937294 1.4717144 3.6803324
-1.3124492 1.5293046 3.6675885
-1.2908679 1.5476112 3.6928694
-1.3169805 1.5766861 3.6605175
-1.2928839 1.5791007 3.6895862
-1.3194182 1.6307085 3.6640275
-1.2972617 1.6233267 3.6896508
-1.309218 1.6845703 3.6740289
-1.2979318 1.6533409 3.6819804
-1.3145167 1.730509 3.6753483
-1.3172399 1.7732763 3.6689692
-1.3414179 1.841982 3.6876788
-1.3576615 1.8668207 3.6612005
-1.3370653 1.8715504 3.6856143
-1.3609101 1.900984 3.6583347
-1.3378887 1.9204804 3.6810944
-1.3514291 1.9954273 3.6595583
-1.3358135 1.9640388 3.6782386
-1.3650732 2.0391569 3.6622686
-1.3401687 2.0185037 3.6848421
-1.3633192 2.0834606 3.6613684
-1.3470776 2.0692863 3.686564
-1.36303 2.1289332 3.6771808
-1.3664672 2.1749573 3.6677656
-1.3404952 2.1720717 3.6936638
-1.3641982 2.2182741 3.6776786
-1.3478966 2.2250896 3.6949275
-1.3629006 2.2757792 3.6646984
-1.341851 2.2733049 3.6898007
-1.3533193 2.326714 3.6643965
-1.3395934 2.328331 3.694509
-1.3232818 2.3783438 3.6775277
1.9230844 2.3819678 3.6813509
1.9758631 2.3681383 3.6686387
-1.3025771 2.4088418 3.68156
-1.2810833 2.4230652 3.6771448
-1.2258952 2.4216743 3.6785569
-1.1841224 2.4274521 3.6691463
-1.1273639 2.440841 3.6681266
-1.0836213 2.4454427 3.6639867
-1.0114882 2.4448633 3.6793866
-0.92934352 2.4448674 3.6964664
-0.85159731 2.4485626 3.6741261
-0.79000431 2.4473226 3.6829867
-0.71614575 2.4487724 3.6760361
-0.67192471 2.4460976 3.6574864
-0.64181274 2.4468369 3.6628599
-0.571316 2.4479396 3.6736348
-0.37884739 2.4458103 3.6896977
-0.11523961 2.4468114 3.6641576
-0.095195606 2.44698 3.6648569
0.26537594 2.4436443 3.6533864
1.8805085 2.4386473 3.6926346
1.9230341 2.428328 3.6690145
1.9510367 2.4439108 3.6542799
-1.0699147 2.4611645 3.6923556
-1.0482917 2.4589372 3.6937182
-0.95590478 2.4545264 3.6631932
-0.92522526 2.4545181 3.6693947
-0.88539106 2.4574506 3.6817393
-0.82250643 2.4530239 3.6862884
-0.73633754 2.4587278 3.6671877
-0.6133998 2.4544673 3.6783323
-0.52206296 2.4540844 3.6886995
-0.41716009 2.4536586 3.6573994
-0.38761538 2.4575787 3.6658139
-0.07574442 2.4665439 3.6945219
0.17652173 2.4711843 3.6784203
0.20648327 2.4576948 3.6774013
0.2863389 2.4516814 3.6642299
0.32689241 2.4546626 3.6660507
0.38760555 2.4568582 3.6647894
0.41853112 2.4609451 3.6682904
0.46964449 2.4652228 3.6698911
0.52931648 2.4604909 3.6564255
0.57680196 2.4617665 3.6775823
0.6243245 2.4670744 3.675519
0.67150688 2.4710517 3.6708119
0.71811837 2.4793031 3.6736946
0.76200336 2.4860072 3.684047
0.82360148 2.481591 3.6773846
0.87530893 2.4945648 3.6844282
0.92095399 2.4908051 3.6840534
0.96311963 2.4933939 3.6795211
1.1802332 2.4964142 3.6776083
1.2091449 2.4916911 3.6625125
1.2699981 2.4954953 3.667043
1.3221492 2.4883642 3.6706879
1.3850838 2.4942358 3.6768656
1.4113536 2.4982493 3.6598811
1.4724324 2.4918313 3.6762044
1.5271434 2.4897034 3.6661665
1.5695657 2.4923761 3.6758196
1.6223301 2.4902492 3.6693068
1.6844084 2.492784 3.6749899
1.7343236 2.4923897 3.6797056
1.7765865 2.4820759 3.6781282
1.8281455 2.4695878 3.6684303
1.8706627 2.4712136 3.670434
1.907409 2.4650106 3.6604469
0.98473412 2.506145 3.673274
1.4459982 2.5008774 3.6998191
-0.27159336 -0.40969479 3.7136631
-0.24043317 -0.4242107 3.7375405
-0.27193853 -0.37452102 3.7208309
-0.24662265 -0.39465627 3.7424378
-0.2778801 -0.32401338 3.7237689
-0.28087851 -0.27052072 3.7270472
-0.28523728 -0.23128335 3.7185447
-0.28302321 -0.18078279 3.7191489
-0.28820893 -0.14188126 3.7101364
-1.225823 -0.064090215 3.717864
-1.2285017 -0.027420143 3.7262764
-1.1559211 0.25808144 3.7393606
-1.1367811 0.37759209 3.7338462
-1.14133 0.40682986 3.7468095
-1.1404209 0.4896282 3.7370107
-1.2086985 0.53745317 3.73017
-1.1445844 0.52849042 3.7472043
-1.2108226 0.57112283 3.7023404
2.1947927 0.68357939 3.7488151
2.2292643 0.68492866 3.7426772
2.2762859 0.68396932 3.7142489
2.3901587 0.67049122 3.7099299
2.1969297 0.7244727 3.7467144
2.2258325 0.72406739 3.7311285
2.257318 0.71790004 3.709758
2.1979365 0.77510715 3.7408085
2.225245 0.77412552 3.7224541
2.2570972 0.77472878 3.7114878
2.254849 0.80409545 3.7028813
-1.2079993 0.93100786 3.7377791
-1.1980639 0.90237284 3.7429733
-1.2255702 0.97952408 3.7315876
-1.2531039 1.0328631 3.7021272
-1.224306 1.0250698 3.7297668
-1.2234082 1.0773648 3.7274263
-1.2309558 1.1299771 3.7277114
-1.2606313 1.152413 3.7007179
-1.2353941 1.1754118 3.7264092
-1.2427212 1.2288845 3.7237403
-1.2611995 1.2664104 3.719239
-1.2427222 1.2767129 3.7454829
-1.2602077 1.3420948 3.7189827
-1.2428361 1.3248572 3.7338703
-1.268088 1.3692893 3.7150958
-1.2380235 1.3781748 3.738209
-1.2618427 1.4255009 3.7288418
-1.2687944 1.4754254 3.7238927
-1.2748878 1.5218035 3.7264702
-1.275455 1.5668049 3.7277451
-1.2782528 1.6201122 3.7249267
-1.2754229 1.6705669 3.7295306
-1.2824912 1.7264019 3.7321877
-1.2874664 1.7743548 3.7226331
-1.3252341 1.8470163 3.7031689
-1.3183124 1.883234 3.720207
-1.2969438 1.8734362 3.7428885
-1.3088078 1.9262614 3.7263298
-1.3189311 1.9917176 3.7349267
-1.3171599 2.02439 3.7153189
-1.3249948 2.0821817 3.7180386
-1.2999629 2.0806551 3.7462378
-1.3241637 2.1251335 3.7193027
-1.3179408 2.1751871 3.7297153
-1.3243996 2.227721 3.7205708
-1.3185787 2.2761056 3.7249825
-1.3162861 2.3238349 3.7259324
2.0061266 2.3496432 3.7156584
-1.3062792 2.3636084 3.7187786
-1.2849965 2.3828166 3.7344706
1.8428142 2.3787565 3.7352417
1.8745391 2.3794901 3.7130439
1.903621 2.3521702 3.711848
1.9555833 2.3628581 3.7100499
-1.2625588 2.4110711 3.7270052
-1.2259517 2.4214652 3.7235658
-1.1709008 2.4259224 3.7223792
-1.1208844 2.4408171 3.7364922
-1.0753212 2.4424446 3.7274084
-1.009776 2.4450333 3.7238955
-0.81781453 2.4491532 3.7238791
-0.7560823 2.4491212 3.7340093
-0.57484353 2.4427118 3.7068372
-0.085794769 2.4445868 3.7020764
0.20752282 2.4498041 3.7062981
1.8329887 2.4245086 3.7293453
1.8660556 2.4241502 3.7065318
-1.118809 2.4570534 3.7186437
-1.0539156 2.4513488 3.7244253
-1.0331517 2.4513528 3.7290273
-0.97994953 2.4532268 3.7140665
-0.90620255 2.4657316 3.7340651
-0.87094212 2.4539261 3.7219644
-0.77588576 2.4602215 3.7196844
-0.70949978 2.4509342 3.7014048
-0.67176634 2.4622269 3.7243812
-0.62103009 2.4644847 3.7347481
-0.52669835 2.4555445 3.732173
-0.3600212 2.4552324 3.7054822
-0.055923995 2.463618 3.7313592
0.23000526 2.4739144 3.7418487
0.33101958 2.4548533 3.7277813
0.37137175 2.4623308 3.7154255
0.42403427 2.4730091 3.727334
0.47479096 2.4663262 3.7228341
0.53021306 2.4689162 3.724519
0.5700103 2.4653339 3.7424498
0.61350852 2.4681671 3.7274435
0.67467541 2.4725223 3.7400455
0.7300294 2.4799471 3.7264099
0.77690053 2.4805164 3.7155855
0.82974809 2.4744465 3.7185585
0.88807225 2.4934464 3.7377226
0.92926836 2.4925499 3.7284126
0.96950597 2.4891548 3.7149658
1.2177931 2.4885895 3.7000711
1.2730486 2.4940422 3.7395866
1.3314428 2.4907815 3.7332964
1.3678687 2.4936223 3.7118473
1.4218719 2.4930797 3.7413988
1.4764547 2.4953344 3.7279818
1.5318903 2.4903684 3.7333164
1.57709 2.4814577 3.7187414
1.6280257 2.4831851 3.7281933
1.6723207 2.4869049 3.7267914
1.7245481 2.4769073 3.7311361
1.7695251 2.468483 3.7239637
1.8154324 2.4612904 3.7180872
1.0196364 2.5104761 3.737941
1.0823545 2.5105267 3.7239711
1.2278755 2.5092893 3.7308035
1.2673098 2.5038304 3.7113979
1.4246184 2.5005276 3.7059777
-0.21699174 -0.41596755 3.7733951
-0.19543657 -0.418248 3.7944999
-0.23759571 -0.37591669 3.7722359
-0.26489303 -0.30533019 3.7516987
-0.2395014 -0.32543743 3.7766793
-0.26483062 -0.28729931 3.7517281
-0.23564093 -0.27381212 3.7799566
-0.26462439 -0.21529479 3.7518911
-0.23936155 -0.22585738 3.7793963
-0.26491421 -0.17960761 3.7571788
-0.23977679 -0.18097289 3.7872465
-0.26535821 -0.14391108 3.7644889
-0.2396175 -0.14467755 3.7856832
-1.1833636 -0.05552347 3.7702816
-1.2026665 -0.027681183 3.7687049
-1.1870992 -0.027750041 3.7822599
-1.1885077 0.23510838 3.7606905
-0.56086767 0.21898438 3.7927339
-0.53378963 0.21909896 3.7973404
-1.2013277 0.27849582 3.7573719
-1.1744028 0.2819615 3.759655
-1.2026768 0.32525742 3.7590432
-1.1741982 0.32508919 3.7630112
-1.2043447 0.37220588 3.7612846
-1.1785948 0.37287113 3.7741039
-1.1414334 0.35140508 3.7509806
1.4351404 0.39809388 3.7797422
-1.2044516 0.42805934 3.7575417
-1.1824831 0.43018949 3.7825222
-1.1480107 0.4278051 3.7673295
1.6832577 0.44402567 3.7819533
-1.211651 0.47740877 3.7761559
-1.1850176 0.47797781 3.7867947
-1.2134509 0.51559448 3.7783833
-1.1840684 0.52440274 3.7794783
-0.46872452 0.53290856 3.7913053
-1.2118108 0.58040309 3.7667224
-1.1799345 0.58048242 3.7742534
-0.50785881 0.56752205 3.7867665
-0.48762506 0.57440436 3.7725015
2.1429336 0.68624038 3.7896388
2.1652532 0.68375349 3.7629671
2.1272161 0.72901052 3.7872581
2.1692402 0.72528809 3.7641716
2.1245024 0.7776382 3.7879784
2.1725779 0.77681673 3.762378
-1.1716032 0.88488305 3.7578158
-1.1789438 0.92830235 3.774977
-1.2085087 0.9766078 3.7640216
-1.1831725 0.97917712 3.7801888
-1.2086351 1.0146329 3.7573972
-1.1844951 1.0278579 3.7755682
-1.1801 1.0747235 3.7721767
-1.2153064 1.1251118 3.7571824
-1.189773 1.1223949 3.767617
-1.206901 1.1801791 3.7624996
-1.1760129 1.1715947 3.7865429
-1.2158909 1.2249238 3.7641091
-1.1803993 1.2176164 3.7796395
-1.2159812 1.2751284 3.766304
-1.1939341 1.2765347 3.7888868
