ply
format ascii 1.0
comment PCL generated
element vertex 1551
property float x
property float y
property float z
element camera 0
property float view_px
property float view_py
property float view_pz
property float x_axisx
property float x_axisy
property float x_axisz
property float y_axisx
property float y_axisy
property float y_axisz
property float z_axisx
property float z_axisy
property float z_axisz
property float focal
property float scalex
property float scaley
property float centerx
property float centery
property int viewportx
property int viewporty
property float k1
property float k2
end_header
0.28246996 1.1717303 2.7502563
0.33927381 1.1752845 2.7540665
0.3535502 1.1902249 2.7508576
1.9441915 1.1680704 2.794802
1.9760967 1.1733459 2.7766662
2.0119698 1.1731005 2.7564573
0.2843585 1.2287338 2.7535191
0.34105977 1.2236732 2.7555885
0.35487011 1.2227987 2.7523816
1.9781151 1.2243706 2.7821784
2.020771 1.2255379 2.7602139
0.28680995 1.2747898 2.7658341
0.34000251 1.2787209 2.7612534
0.36053598 1.2761111 2.7537301
1.9761982 1.2779814 2.7863982
2.0201855 1.2766099 2.7579033
0.28509334 1.3292396 2.7682421
0.3389194 1.3272489 2.7684228
0.37170783 1.3251133 2.7565091
0.40296033 1.3409444 2.7561302
1.9792931 1.3231144 2.790627
2.0255332 1.3244061 2.7706056
2.0540576 1.3316927 2.7536278
0.28490344 1.3749807 2.7745209
0.34325084 1.3789172 2.777807
0.37610209 1.3756754 2.7612109
0.40352789 1.3571225 2.7549624
1.9878792 1.3808504 2.7891083
2.0290391 1.3784915 2.7679935
0.28353545 1.4257014 2.773917
0.33633566 1.4177901 2.7811711
0.37428099 1.425136 2.7694991
0.40629613 1.4240046 2.7527292
1.9879792 1.4262307 2.7930026
2.0222027 1.4268798 2.7738273
2.0553327 1.4267546 2.7526257
0.27850896 1.4737442 2.7643447
0.34001434 1.4772083 2.7949924
0.37200165 1.4683785 2.7720881
0.41921759 1.4837409 2.7549927
1.9974793 1.4581727 2.7953727
2.0251877 1.4768794 2.7759044
2.0651305 1.4983073 2.7555461
0.26839501 1.5158138 2.7672639
0.34210169 1.5230478 2.7977061
0.38029397 1.5214454 2.781076
0.42693511 1.5255409 2.7605846
1.9965608 1.5373976 2.7971437
2.0288689 1.5278949 2.7782276
2.0619934 1.5274657 2.7560711
0.38093531 1.5683082 2.7942066
0.42509738 1.5736488 2.7692246
0.4581461 1.5762656 2.7508171
1.9789877 1.553737 2.7984173
2.0216701 1.5691509 2.7859392
2.0642786 1.5693719 2.7594554
0.39087221 1.6232748 2.7927122
0.42708358 1.6264561 2.7735953
0.4667491 1.6308327 2.7539704
2.0288873 1.618788 2.7858531
2.0732996 1.6304096 2.7645125
0.42279625 1.6664652 2.7881558
0.45673224 1.6638731 2.7583449
0.51054853 1.6847438 2.7543795
2.0326753 1.6759468 2.7846944
2.0730555 1.6749877 2.7615154
2.1005089 1.6677746 2.751395
2.0312829 1.7241879 2.7903168
2.0792577 1.721591 2.7683945
2.0358808 1.7787367 2.7947941
2.0761006 1.7772821 2.7692084
2.1048965 1.7545292 2.7537308
2.0704341 1.8308884 2.7771504
2.1098194 1.8347309 2.7597928
-0.61999261 1.8953285 2.7540269
-0.5965547 1.8942558 2.7565203
2.0462162 1.875793 2.7941191
2.0746925 1.8776991 2.7798216
2.1129415 1.8804221 2.7604673
-0.61765671 1.9352944 2.7667129
-0.5526998 1.9177464 2.767385
2.0822315 1.9230554 2.7802992
2.1166747 1.9271905 2.7614062
-0.61763757 1.9777905 2.7762592
2.0851245 1.9748089 2.7860365
2.1231551 1.9770144 2.7653427
-0.61838168 2.0253367 2.7704787
-0.59842181 2.0298555 2.7963219
2.09254 2.0264006 2.7912016
2.1226816 2.0225005 2.7678823
2.152205 2.0408347 2.7564893
-0.61963278 2.0751932 2.7662375
-0.59999073 2.0669644 2.7848408
2.0870543 2.0658665 2.7865143
2.1254187 2.0752635 2.7669575
2.1603084 2.0666597 2.7550197
-0.61682403 2.1226482 2.7758708
-0.59229422 2.1443565 2.7969749
2.084902 2.1181204 2.7877917
2.1249096 2.1218369 2.7684512
2.1523426 2.1128805 2.7563226
-0.61412585 2.1708755 2.7711539
-0.59519172 2.1791701 2.795188
2.0840585 2.1663086 2.7943599
2.1283922 2.171114 2.7661698
-0.60847867 2.2091191 2.7525997
-0.57693982 2.217561 2.7730975
-0.53177226 2.2350836 2.780194
-0.48205996 2.2369151 2.7774308
-0.42495614 2.2349195 2.7825942
-0.36806345 2.2334754 2.787487
-0.32002628 2.236943 2.7967587
-0.28587115 2.2234893 2.7828496
-0.20598289 2.2304878 2.797472
-0.18125623 2.2243781 2.7911761
-0.076571256 2.2261355 2.7973673
0.54074323 2.2449663 2.7788243
0.56523478 2.245352 2.7752471
0.63249409 2.2449908 2.7786939
0.67505729 2.2467761 2.7806761
2.0479686 2.2473524 2.7968919
2.0790656 2.2261317 2.7843857
2.1210396 2.225354 2.7630014
0.52790004 2.2595961 2.7995403
0.59263992 2.256825 2.7851827
0.60798883 2.2531273 2.7776804
0.67621851 2.2630303 2.7771635
0.72684044 2.2592423 2.7777951
0.78019714 2.2710781 2.7810447
0.82594848 2.2720795 2.771183
0.87415737 2.2794497 2.7683156
0.92407811 2.2906573 2.7727189
0.97312886 2.2896459 2.770649
1.0226617 2.2902832 2.7907729
1.0691836 2.2998841 2.7888865
2.0375631 2.2932086 2.7934148
2.0705698 2.27966 2.7709007
2.1165533 2.2611074 2.7535825
1.0250791 2.3079257 2.765353
1.0733684 2.3080895 2.7753975
1.1258312 2.3118844 2.7720056
1.1748432 2.3148952 2.772882
1.2200174 2.3129973 2.7749844
1.2810403 2.3226318 2.7732303
1.3252406 2.3234591 2.7811069
1.3715776 2.3173125 2.7776861
1.4190134 2.3202055 2.7801988
1.4755533 2.319242 2.7754755
1.5266647 2.3218589 2.774776
1.5811697 2.3267255 2.7652636
1.62266 2.3199604 2.7841601
1.6750019 2.3249464 2.7646565
1.7246422 2.3186829 2.7756343
1.77543 2.320591 2.7758973
1.8207707 2.3133838 2.7702279
1.8769884 2.3129261 2.773452
1.9310133 2.311373 2.7780569
1.9739957 2.3097751 2.7713141
2.0241566 2.306293 2.767555
1.1020288 -0.66456604 2.8395381
1.0799409 -0.59139085 2.8128409
1.6814886 -0.50803477 2.8350279
1.7238503 -0.50186205 2.8160353
1.6915152 -0.47565705 2.8432508
1.727161 -0.47232315 2.82535
1.7656088 -0.47237623 2.8078873
1.0765239 -0.42333454 2.8040183
1.6975702 -0.42683911 2.8462269
1.7272758 -0.42661059 2.8310003
1.7634411 -0.42611721 2.8099735
1.6953216 -0.38054407 2.8472853
1.7231734 -0.37724149 2.8326337
1.7693094 -0.38234967 2.8122389
1.726392 -0.32497075 2.8366566
1.7610757 -0.33405718 2.8132222
1.7301475 -0.27605063 2.8404679
1.7545246 -0.27358773 2.8257172
1.7340398 -0.22823198 2.8431661
1.7744671 -0.22751838 2.8132877
1.7393568 -0.17953065 2.8448443
1.7787876 -0.17476302 2.8229697
1.8143146 -0.15167786 2.8015723
1.74287 -0.12162022 2.8464811
1.7741084 -0.12165303 2.8333738
1.8098401 -0.12146475 2.8112571
1.7435112 -0.075880498 2.8486793
1.7739778 -0.075865537 2.8343303
1.8171068 -0.075727254 2.8081179
1.7436097 -0.045366716 2.8493209
1.7736759 -0.030079408 2.8344529
1.8168449 -0.030013638 2.8083203
1.7776241 0.023383917 2.8407259
1.8191557 0.023349086 2.8118846
1.7772274 0.076873094 2.8393614
1.8193014 0.076743029 2.8113589
1.77899 0.12285984 2.8409152
1.8218596 0.12268504 2.8140278
1.7867284 0.17413862 2.840606
1.8243362 0.17640328 2.8156042
1.7833778 0.2283863 2.8389406
1.8256152 0.23010246 2.8145807
1.856678 0.22252066 2.8003681
1.7846175 0.27638656 2.8363295
1.8252388 0.27798361 2.8169539
1.7825953 0.32246208 2.8346627
1.8277035 0.32234654 2.8107736
1.782946 0.36674273 2.8439238
1.8255005 0.36984742 2.8229179
1.8611765 0.36965907 2.8028514
1.7869503 0.42805114 2.844734
1.8232528 0.42449918 2.8250167
1.8600978 0.42108172 2.8056338
1.7890763 0.47961414 2.8441823
1.8268759 0.47941887 2.8239501
1.8556546 0.47889248 2.8051424
1.7874241 0.54328555 2.8490562
1.823329 0.52697933 2.8278353
1.8615562 0.52686405 2.8075535
1.7899903 0.57514358 2.8484163
1.8232186 0.57331586 2.8304143
1.859998 0.57784909 2.8101077
1.7941011 0.6231733 2.8473577
1.8235478 0.62261498 2.8293824
1.8615842 0.6223557 2.8083494
1.7979938 0.67133546 2.8452799
1.8276849 0.67080265 2.8274565
1.864123 0.67359948 2.8062689
1.8233268 0.71834725 2.8323333
1.8692724 0.72213078 2.8086171
1.8243518 0.76951343 2.8356962
1.8693546 0.77146041 2.8119397
1.8277733 0.82111883 2.8367176
1.8707496 0.81977892 2.8158867
1.8234875 0.86769116 2.8391941
1.8699924 0.87141585 2.8149681
1.8346951 0.91934747 2.8421364
1.8761692 0.92085117 2.8167021
1.8368361 0.97281039 2.8416305
1.8750569 0.97200078 2.8183422
1.9145184 0.98518378 2.8039894
1.8449028 1.0171068 2.842947
1.8741201 1.0269806 2.8256085
1.9127636 1.0210776 2.8051786
1.8412898 1.0965323 2.8489718
1.8743827 1.077495 2.8321912
1.9100184 1.0823565 2.8083363
1.8470962 1.1323556 2.8477132
1.8757958 1.1221082 2.8277366
1.9184643 1.1235107 2.8091121
1.8721387 1.1710272 2.8371983
1.9171027 1.1672125 2.8147407
1.8864707 1.2276706 2.836561
1.9270663 1.2222453 2.8122509
1.9520817 1.2448541 2.8047731
0.33418241 1.2936683 2.8035328
1.8857975 1.2847433 2.8403676
1.9247118 1.2811761 2.8190143
1.9542596 1.2626399 2.8018119
1.8882489 1.324595 2.8398049
1.9250551 1.3281327 2.8204584
1.9533339 1.3388125 2.8081806
1.8935859 1.3681335 2.8450968
1.9260356 1.380011 2.8282213
1.9650595 1.373071 2.8048637
1.9231631 1.4275504 2.8345983
1.9636607 1.4267031 2.8088233
1.8975865 1.4753149 2.8472509
1.9252619 1.4773248 2.836792
1.9705651 1.480407 2.8121283
0.33128914 1.5486269 2.829361
1.9315083 1.5298784 2.8367877
1.9742215 1.5256364 2.8110318
0.33916664 1.5731442 2.8234594
0.36387649 1.5782064 2.8054528
1.9301387 1.5789534 2.8401511
1.9672318 1.5786024 2.8175111
0.34197092 1.6228285 2.8200357
0.3700155 1.6297983 2.8062067
1.9356438 1.6255689 2.8350527
1.9781278 1.6263803 2.8141716
2.0038912 1.6417078 2.8001854
0.38742572 1.6703771 2.8095129
1.936686 1.6760936 2.8401086
1.9729788 1.6712898 2.8203549
2.0057576 1.6760883 2.8069386
1.9334071 1.7315834 2.8447804
1.970625 1.7230778 2.8293614
2.0092163 1.7294258 2.8064911
1.948357 1.7714573 2.8418279
1.976326 1.7746309 2.8251631
2.0044456 1.7837863 2.811326
1.9487923 1.840363 2.8495579
1.9759028 1.8258203 2.8302522
2.023463 1.8344387 2.8102746
1.9775989 1.8723189 2.834187
2.0187006 1.8747261 2.8092377
1.9796534 1.9232357 2.8408113
2.0236595 1.9229889 2.8130333
2.0700536 1.9422017 2.8000817
-0.58111054 1.9775081 2.8193862
1.986503 1.9654442 2.8372161
2.0230744 1.9734936 2.8183763
2.0587757 1.9752074 2.80404
-0.57064313 2.0253766 2.8319676
1.9868855 2.0195274 2.8444157
2.030597 2.0202146 2.8233469
2.0699387 2.0307333 2.8068333
-0.58072573 2.0673826 2.8206353
2.0242777 2.0680413 2.8280859
2.0601594 2.0750809 2.8065155
-0.58036852 2.1204243 2.8250427
1.9881998 2.1305377 2.8497248
2.0228724 2.1196921 2.8307111
2.0571322 2.1175585 2.8047996
-0.57009822 2.1795666 2.8240147
0.72943318 2.1931026 2.836802
2.0219913 2.1725795 2.8335488
2.0638185 2.1767714 2.8117161
-0.55233908 2.2183912 2.8222313
-0.51987487 2.2256591 2.8247843
-0.46979967 2.231384 2.8195391
-0.42012396 2.2279611 2.8215826
-0.37121749 2.2281628 2.8274896
-0.32232097 2.2285979 2.8329246
-0.27280316 2.2319529 2.8258102
-0.22919498 2.2331808 2.8253224
-0.17092349 2.2349854 2.8283937
-0.12562846 2.2302356 2.8165338
-0.077125736 2.2324812 2.8239293
-0.028443888 2.2386398 2.8293514
0.020376336 2.2372446 2.8276727
0.069165647 2.2367303 2.826375
0.11806568 2.2390425 2.8279765
0.17517257 2.2410812 2.8281054
0.23220654 2.2410703 2.8247528
0.28105164 2.2406814 2.8206244
0.3304514 2.2442827 2.8207896
0.37000483 2.2418065 2.8230793
0.48154107 2.2395411 2.8445084
0.52919132 2.2404921 2.8227196
0.58002996 2.2384079 2.8278413
0.62713605 2.2341065 2.823118
0.68017453 2.234911 2.8209743
0.72635949 2.2334709 2.8211806
0.75797147 2.2399652 2.8387387
1.9783691 2.2324471 2.8411822
2.0259175 2.2196462 2.8199513
2.0619135 2.2057295 2.8046832
0.39830405 2.2590184 2.8323362
0.42924729 2.2646809 2.8389773
0.4842228 2.2598698 2.8255103
0.51276213 2.2650259 2.8087957
0.5869875 2.250119 2.8096328
0.77999282 2.256187 2.8221939
0.82322121 2.2655861 2.8300135
0.87523681 2.2789421 2.8178227
0.9272539 2.2848263 2.8253562
0.97714376 2.2935753 2.8263531
1.0219629 2.290776 2.8264701
1.8955531 2.2962379 2.8403373
1.9244994 2.2893066 2.8411472
1.9754062 2.2761402 2.8249638
2.0201249 2.2706625 2.8103521
1.0807633 2.307744 2.831176
1.1293725 2.3082192 2.827528
1.1696045 2.310909 2.8268418
1.2279565 2.306061 2.8223851
1.2721663 2.3114896 2.8261905
1.3257771 2.3134995 2.8226974
1.36762 2.3124483 2.8323579
1.4250041 2.316149 2.8227637
1.4709207 2.3172147 2.8272519
1.5255785 2.313839 2.822505
1.575008 2.3154986 2.8247001
1.6144395 2.3139253 2.809443
1.6753429 2.3234046 2.8240798
1.7177266 2.3140788 2.8286605
1.771307 2.3117077 2.8276424
1.8244466 2.3080523 2.8242381
1.8677164 2.3029306 2.8235772
1.9218866 2.3039565 2.815649
1.9680164 2.3059287 2.8135593
1.1214156 -0.67185569 2.8686101
1.2800908 -0.68979251 2.8707204
1.5854747 -0.50390935 2.8901694
1.6205536 -0.50291991 2.8688428
1.6514428 -0.50302213 2.8565371
1.5912303 -0.47774318 2.8954418
1.6232345 -0.47320181 2.8774152
1.6626731 -0.47042152 2.8564744
1.6235925 -0.42747658 2.883332
1.6685309 -0.42722169 2.8622081
1.6233453 -0.37393045 2.8883116
1.6698639 -0.3717809 2.8651431
1.6310748 -0.32048556 2.8900337
1.6745881 -0.32002071 2.8664796
1.6324799 -0.27768415 2.8924098
1.6748372 -0.2742888 2.8704064
1.7106431 -0.26627743 2.8502316
1.6405272 -0.22906275 2.8963976
1.6766171 -0.22875662 2.8764236
1.7119192 -0.2283408 2.8547871
1.6411165 -0.19855012 2.8990972
1.6778752 -0.17542209 2.8812828
1.7195822 -0.17181417 2.8566182
1.6767421 -0.1218381 2.8813648
1.7198538 -0.12162624 2.8566587
1.6769447 -0.07601548 2.8828304
1.7212342 -0.075920783 2.8600979
1.6785641 -0.031733237 2.8862026
1.7245599 -0.026742054 2.8608382
1.6732479 0.021254113 2.8905218
1.7240986 0.023343522 2.8653924
1.6816667 0.076999463 2.8908293
1.7255024 0.076926537 2.8670073
1.6828833 0.12305137 2.8917034
1.7263974 0.12289977 2.8672543
1.685483 0.17359845 2.8918321
1.72328 0.17495503 2.8711965
1.7603655 0.18451883 2.8561842
1.6860496 0.22658613 2.8947723
1.7242837 0.23082604 2.8749201
1.7572844 0.23447827 2.8563838
1.6890141 0.27740091 2.8941975
1.7260665 0.27719396 2.8747828
1.7620888 0.27400336 2.8567183
1.6905994 0.31617743 2.8939457
1.7249533 0.32524163 2.8756597
1.7570416 0.32338277 2.857439
1.6872569 0.37877041 2.8992276
1.7239989 0.37067488 2.8797519
1.7632545 0.37389037 2.8547969
1.6901228 0.4258396 2.8992684
1.7247951 0.42371354 2.8788493
1.7630972 0.424835 2.857219
1.693675 0.48099533 2.8989794
1.7222362 0.4803336 2.8810978
1.7588576 0.47978675 2.8599594
1.6971897 0.52860355 2.8988609
1.7257963 0.52787018 2.8808603
1.7694976 0.52568626 2.8590543
1.6995243 0.56044275 2.8984463
1.7252377 0.57753128 2.8849013
1.767439 0.57537597 2.8607264
1.7269408 0.62417156 2.8850543
1.7716299 0.62346548 2.8599737
1.7234994 0.67266452 2.8878829
1.7687531 0.67206734 2.8634362
1.7291174 0.72191596 2.8885827
1.7741443 0.72112209 2.8633356
1.728757 0.76939309 2.890111
1.776932 0.77227831 2.8645465
1.7355473 0.82206297 2.8933008
1.7740629 0.82089198 2.8698311
1.800225 0.80411977 2.8560667
1.7350868 0.87397999 2.8918407
1.775557 0.87051177 2.8679779
1.738362 0.92340827 2.8960369
1.773581 0.9207539 2.8747139
1.8129333 0.93421465 2.8580856
1.7457358 0.97527176 2.8960686
1.7745595 0.97357041 2.8757503
1.8120592 0.96997821 2.8565533
1.7705748 1.0249298 2.8835588
1.817559 1.0286149 2.85957
1.7757035 1.0797024 2.8843172
1.8206412 1.0769014 2.8597746
1.7820326 1.1239752 2.8823879
1.8275101 1.1257492 2.8594875
1.778797 1.1721766 2.8879516
1.821367 1.1689236 2.8642628
1.7866968 1.2253392 2.8893898
1.8241297 1.2249219 2.8691199
1.8592575 1.2265674 2.8559887
1.7838923 1.2672526 2.888916
1.8294212 1.2798415 2.8735976
1.8630944 1.2769721 2.8542035
1.7877493 1.3068298 2.8949549
1.8227514 1.3244655 2.8787937
1.8622642 1.331118 2.8548138
1.7956214 1.3774924 2.8965049
1.8279607 1.3748 2.8790298
1.8711153 1.3781685 2.8589296
1.8246678 1.4233019 2.8877771
1.8735867 1.4278754 2.8630517
1.83075 1.4750202 2.8889043
1.8747516 1.477138 2.8645134
1.828721 1.525135 2.891304
1.8772745 1.5279678 2.8674049
1.9095937 1.5183964 2.8504133
1.8380818 1.5799689 2.8935852
1.8725376 1.5718994 2.8800032
1.9044569 1.5702447 2.8582494
1.8416146 1.6334167 2.8900092
1.8793886 1.6200092 2.8760993
1.9114932 1.6265564 2.8553984
1.8420613 1.6754717 2.8996582
1.8760623 1.6751853 2.8804846
1.9148636 1.6712545 2.8576686
1.8498653 1.708449 2.8992426
1.8761829 1.7175335 2.8814728
1.9120977 1.7274877 2.859868
1.8767029 1.7715223 2.8896844
1.9185394 1.7846805 2.8646023
1.8867123 1.8308043 2.8883524
1.9243338 1.8265646 2.8624697
1.8787503 1.875369 2.8935411
1.9240984 1.8767375 2.8706062
1.9628898 1.8889993 2.8501673
1.8867165 1.9187549 2.8937242
1.9212339 1.9249939 2.8743992
1.9543673 1.9244673 2.8586164
-0.53819907 1.9940534 2.8505797
1.8951184 1.9720242 2.8966372
1.9303342 1.9715962 2.8754756
1.9649363 1.9705582 2.8529172
-0.53609097 2.0323625 2.8744602
1.9301198 2.0238068 2.8821592
1.9669977 2.0175602 2.8603942
2.0089741 2.0418181 2.8519444
-0.56182945 2.0783396 2.8553052
-0.54323441 2.0707943 2.8853943
1.8948343 2.0535016 2.8959515
1.9274161 2.0685427 2.883122
1.971207 2.0691602 2.8629768
2.0006158 2.0880809 2.85396
-0.55525553 2.123879 2.871614
-0.53923601 2.1412802 2.8983483
1.9301041 2.1175482 2.8829556
1.9734665 2.115592 2.8612025
-0.55331647 2.1731083 2.8584213
-0.53317344 2.1797276 2.8802249
0.65342295 2.1981313 2.8918788
1.9271396 2.1687458 2.8839669
1.9741348 2.1645443 2.8573449
-0.52351135 2.2104504 2.8645716
-0.47592929 2.227392 2.8776751
-0.42836922 2.2208066 2.8670642
-0.37545913 2.2222056 2.8797345
-0.32535121 2.2248266 2.8753233
-0.27140549 2.2253776 2.8726635
-0.22286236 2.2278161 2.8744674
-0.17684354 2.2302516 2.8770545
-0.12736787 2.2276924 2.8759022
-0.078138515 2.2310677 2.8816807
-0.028726298 2.2310672 2.874516
0.016462591 2.2328947 2.8769517
0.074147023 2.2364204 2.8807571
0.11937017 2.2312467 2.880779
0.16561362 2.2348678 2.8804336
0.2224381 2.2370141 2.8753228
0.27240142 2.2338898 2.8734698
0.32575068 2.2356074 2.8734417
0.37778479 2.2392755 2.8761971
0.42587498 2.2417319 2.8706906
0.47846371 2.2361438 2.8791847
0.52151304 2.2293217 2.8770688
0.5677287 2.230119 2.8676431
0.61922652 2.2198677 2.8779809
0.66825128 2.2170599 2.8651502
0.70839357 2.2187617 2.8650229
0.78112465 2.2420597 2.86989
1.8911662 2.237 2.8890278
1.927124 2.2202461 2.8747621
1.9631864 2.2170091 2.8561871
0.83031374 2.2598288 2.8712177
0.87285656 2.267863 2.8765278
0.92049658 2.2755075 2.8795123
0.9814471 2.2831039 2.8770447
1.03032 2.2880301 2.8640914
1.0641634 2.2928696 2.8870974
1.185922 2.2945769 2.8855081
1.2218966 2.2968874 2.8759575
1.4645289 2.2980156 2.8954916
1.7257144 2.2960954 2.8905966
1.7598815 2.2931938 2.8676579
1.829156 2.294606 2.8865938
1.8730904 2.2839963 2.8769062
1.9141123 2.2697647 2.861994
1.0834783 2.3026788 2.8708932
1.1183782 2.3067086 2.8711486
1.1748241 2.3072751 2.8707819
1.217532 2.3060453 2.8538096
1.2769617 2.306747 2.8822968
1.3218465 2.3109252 2.8772707
1.380221 2.3116839 2.8738678
1.4242604 2.3096049 2.87552
1.4771715 2.3077922 2.8652334
1.521436 2.3077683 2.8750129
1.5756434 2.3084862 2.8811049
1.6244364 2.31408 2.8661771
1.6713399 2.3111699 2.8796494
1.7280911 2.3053539 2.8618679
1.7949007 2.3031514 2.8652244
1.814387 2.3047185 2.8570492
1.225264 -0.70846814 2.9388068
1.1240827 -0.65906006 2.9284983
1.1765653 -0.69440585 2.9236937
1.226675 -0.69416827 2.9446118
1.2732882 -0.69487762 2.9339333
1.3361819 -0.6810115 2.9226217
1.4768759 -0.5136807 2.9451473
1.5276802 -0.50504231 2.920594
1.5644503 -0.50453001 2.9028783
1.5246193 -0.47585359 2.9360721
1.5646453 -0.47265455 2.9115057
1.5297174 -0.43216464 2.9406667
1.574472 -0.42868662 2.91313
1.5323626 -0.3790476 2.9408906
1.5731233 -0.37474436 2.9159975
1.5393845 -0.32212451 2.9441471
1.5730497 -0.32114771 2.920516
1.6101314 -0.32088786 2.9030497
1.5380416 -0.27582902 2.944932
1.5748819 -0.27553922 2.9272947
1.6146846 -0.27130109 2.9064832
1.5390763 -0.22995688 2.9497602
1.5758557 -0.22971058 2.9319556
1.6183844 -0.22919218 2.9073164
1.5377772 -0.19141708 2.9492149
1.5751891 -0.17595538 2.9333727
1.6253772 -0.17361924 2.9088111
1.5785308 -0.12379396 2.9367929
1.6270227 -0.12214443 2.9105983
1.5845861 -0.076397151 2.9366407
1.6279267 -0.076246828 2.9133277
1.5856093 -0.034764178 2.9390888
1.6259143 -0.028772995 2.9170437
1.6580608 -0.03026345 2.9003057
1.5832043 0.02030937 2.9415646
1.6251534 0.025556324 2.9185402
1.6587204 0.046337806 2.9012372
1.5837375 0.073370174 2.943644
1.6239057 0.077136435 2.9228494
1.6594585 0.077025115 2.9020007
1.5824627 0.12649672 2.9451118
1.6255389 0.12332668 2.9245856
1.6614051 0.12315106 2.9041932
1.5858228 0.165849 2.9447029
1.6267685 0.16957076 2.9250653
1.6625181 0.16931666 2.9043846
1.5935125 0.22412798 2.9474506
1.6218905 0.22379191 2.930584
1.6581621 0.22351019 2.9107025
1.5949916 0.27840281 2.9467905
1.623894 0.27808177 2.9307737
1.6596061 0.27761817 2.909771
1.5972865 0.31748319 2.9481497
1.6257733 0.32474691 2.9306262
1.6654965 0.32654312 2.9091184
1.6288354 0.37178835 2.9320364
1.668075 0.36898515 2.9098737
1.6256727 0.4213174 2.9345553
1.6689227 0.42633331 2.9127662
1.62562 0.47364086 2.9365873
1.6690575 0.48377037 2.9136066
1.6228642 0.52965969 2.9378765
1.6672711 0.52895278 2.9143248
1.6279079 0.57816297 2.9404175
1.671193 0.57695919 2.9144895
1.6326408 0.6268326 2.9417505
1.6764615 0.6256749 2.9163897
1.6339015 0.67542571 2.9420259
1.674065 0.67531848 2.9164085
1.6380171 0.72886491 2.9431474
1.6740524 0.72131324 2.9176581
1.7008929 0.7389378 2.9051213
1.6377482 0.77391165 2.9430294
1.6731542 0.77206564 2.9191201
1.7030221 0.77135086 2.9024596
1.6404291 0.82025087 2.9422736
1.6770188 0.82434338 2.9225094
1.7151185 0.82247108 2.9045792
1.6412553 0.87472272 2.9467134
1.6748276 0.87243593 2.9296155
1.7087042 0.87268382 2.9085646
1.6469443 0.91764128 2.9476986
1.6746845 0.92671412 2.9312868
1.7149235 0.92362398 2.907732
1.6747493 0.97558576 2.9354584
1.7189928 0.97790372 2.9092641
1.6766125 1.0297992 2.9384418
1.7215762 1.0278673 2.9111512
1.6815186 1.0731368 2.9358418
1.7268927 1.0829928 2.9129157
1.6815366 1.118855 2.9418581
1.7191058 1.1250499 2.9160564
1.7543296 1.126912 2.9056554
1.6883953 1.1701331 2.9435663
1.7258987 1.1739784 2.9214754
1.758406 1.1620252 2.9022582
1.692197 1.2297782 2.9477727
1.722554 1.2280722 2.9286253
1.7592148 1.222998 2.9068348
1.7309066 1.2751735 2.9289398
1.7673155 1.2764993 2.9063447
1.7247539 1.3241891 2.9395726
1.7665224 1.3242272 2.9120696
1.7301325 1.3707858 2.9413533
1.7742213 1.3801782 2.9146037
1.7339159 1.4212475 2.9420521
1.7715265 1.4245993 2.918155
1.7357531 1.471657 2.9467623
1.7754055 1.4747803 2.9203084
1.801948 1.4960632 2.9014854
1.7391158 1.5203315 2.944191
1.7755911 1.5259537 2.9261968
1.8133807 1.5393928 2.905302
1.7700258 1.571293 2.931946
1.8116407 1.5705978 2.9091651
1.7433541 1.6034333 2.9496431
1.7743922 1.6229625 2.9322197
1.8165239 1.6224862 2.9096057
0.9441545 1.6777366 2.9452665
1.7759881 1.6779007 2.9394848
1.8151863 1.6744244 2.9114356
0.93779802 1.7150449 2.9484649
0.95304936 1.7054669 2.9454932
1.7788318 1.7166641 2.9358642
1.8212116 1.7210639 2.9143727
0.88756269 1.7890444 2.9417858
0.92584765 1.7793334 2.9395778
1.7848306 1.7639961 2.9389083
1.8268563 1.7713137 2.9153996
1.8516238 1.7959176 2.9030316
0.88636589 1.8136928 2.9371448
0.93325382 1.8142126 2.9356821
0.96863508 1.8315077 2.9478586
1.7903267 1.8218807 2.9443617
1.8239139 1.8279876 2.9265001
1.8602078 1.8305404 2.9024863
0.9536832 1.850569 2.9483292
1.7861104 1.8884708 2.9473341
1.8195463 1.8777817 2.9307528
1.8538294 1.8768402 2.9104071
1.7925041 1.9218235 2.943254
1.8293446 1.9233809 2.9269078
1.8623049 1.9208426 2.9038846
1.8252608 1.973555 2.938096
1.8688933 1.9725631 2.9123716
1.8266711 2.0207193 2.9386582
1.870935 2.0200932 2.9132302
1.9091175 2.013551 2.9020081
-0.52759647 2.0784125 2.9094419
1.8274095 2.0631223 2.940212
1.8685805 2.0711343 2.9170353
1.9053175 2.0829859 2.9007246
-0.52751118 2.1240768 2.9219079
1.8323421 2.1199267 2.9425218
1.8746772 2.1164296 2.9126608
-0.52512419 2.1674719 2.9039171
0.56350136 2.1878004 2.9261603
1.8259344 2.1805732 2.9379289
1.8734539 2.1700008 2.9170728
1.9035228 2.1558084 2.9012923
-0.51203942 2.2071805 2.9107869
-0.48571116 2.2242272 2.929215
-0.43003696 2.2218993 2.9249847
-0.37912744 2.2214665 2.9219747
-0.33105952 2.2189739 2.9222374
-0.27830842 2.219111 2.9199536
-0.22496963 2.2192216 2.9206128
-0.17884083 2.2218297 2.9298413
-0.13225034 2.2236266 2.9309721
-0.075545982 2.2200496 2.9278915
-0.028980449 2.229455 2.9152694
0.024069563 2.2310638 2.9174478
0.067184389 2.2290735 2.9142838
0.12036613 2.2245986 2.9198258
0.17057198 2.2275362 2.9270442
0.21708772 2.2359929 2.9174447
0.27041805 2.2303636 2.9193008
0.32156605 2.2305648 2.9315805
0.37146473 2.22931 2.9251382
0.42110339 2.2269363 2.9164972
0.47056773 2.2236936 2.9264567
0.52530485 2.2140827 2.9253349
0.57267863 2.2160227 2.9136164
0.62316221 2.2089398 2.9120893
0.78019065 2.2274024 2.9064128
0.81318134 2.2400918 2.9337153
0.87814206 2.2453549 2.9429522
0.91341221 2.2478287 2.9375627
1.7779441 2.2431245 2.9472184
1.8240815 2.2342305 2.9291
1.8702608 2.2155859 2.9078372
0.82356381 2.2548225 2.9086976
0.87572485 2.2562559 2.9239471
0.93045336 2.2603712 2.9243946
0.97198802 2.269191 2.9284585
1.0251272 2.279659 2.9263668
1.0780191 2.2932231 2.9313984
1.1193764 2.2964036 2.938056
1.176396 2.2924776 2.9226589
1.2352962 2.2956545 2.9253638
1.281796 2.294857 2.9355059
1.315948 2.2960906 2.9340587
1.4409642 2.2993834 2.9474535
1.5182053 2.289633 2.9389653
1.5675139 2.2958946 2.9264207
1.6924682 2.2944818 2.9477441
1.717723 2.2914915 2.9299903
1.7722008 2.2836871 2.926415
1.8237622 2.2733517 2.9128952
1.1298807 2.3042765 2.9184122
1.1642878 2.3033264 2.9055395
1.2169975 2.3031175 2.9240303
1.2624052 2.3058302 2.9115148
1.3331925 2.3041763 2.9202032
1.3744091 2.3049996 2.9243815
1.4222088 2.3015275 2.9190056
1.4761786 2.3054714 2.9258099
1.523818 2.3025477 2.9161835
1.5523309 2.3048625 2.9067624
1.6293837 2.3071911 2.9317834
1.6753268 2.3019021 2.9258871
1.7050047 2.3050148 2.9160113
1.1899521 -0.68403465 2.9817591
1.2279941 -0.68829656 2.9915936
1.2783977 -0.68538147 2.9754219
1.3266894 -0.67834771 2.9711785
1.3815938 -0.64983135 2.9904611
1.4172833 -0.60540998 2.9970193
1.4276396 -0.57333189 2.9915478
1.438653 -0.53031069 2.9823854
1.4639642 -0.51206356 2.9653058
1.4350556 -0.47932389 2.9935799
1.4766749 -0.47775933 2.9676058
1.4364109 -0.42997113 2.9954195
1.4751221 -0.42532974 2.9738333
1.5112485 -0.42265707 2.9516506
1.4413762 -0.37067047 2.9988925
1.4774989 -0.37194681 2.9758348
1.5134057 -0.37167209 2.9535849
1.4399513 -0.33170187 2.9991422
1.475175 -0.32323125 2.9793997
1.5183301 -0.32255891 2.9566448
1.4756643 -0.27710655 2.9837177
1.5176958 -0.27631527 2.9587486
1.4743531 -0.22473581 2.9878087
1.5234431 -0.23021714 2.9593883
1.484604 -0.17227274 2.9853661
1.5230916 -0.17344022 2.9641099
1.4845598 -0.12309012 2.9906437
1.5264478 -0.12272317 2.965317
1.555184 -0.10719301 2.9503453
1.4920245 -0.076811127 2.9884765
1.5268468 -0.076604016 2.9671776
1.556022 -0.076510727 2.952584
1.4923549 -0.030554853 2.9896967
1.5285068 -0.030491058 2.9709516
1.5619264 -0.026606679 2.9556029
1.4893446 0.018833572 2.9946144
1.5236009 0.024973975 2.9756646
1.5577492 0.023399005 2.9564137
1.4876031 0.077566922 2.9977195
1.5232109 0.077432029 2.9777975
1.5652013 0.080393292 2.9557533
1.4883807 0.10853463 2.9985936
1.5252298 0.12387192 2.9805841
1.5636384 0.11971314 2.9570544
1.4898547 0.17829818 2.999114
1.526179 0.17031455 2.9807501
1.5671784 0.17300479 2.9565291
1.5232304 0.2229823 2.9848802
1.5661557 0.22652821 2.9627907
1.5240707 0.27953231 2.9886594
1.5667329 0.27886033 2.9638174
1.4951624 0.34204754 2.9995148
1.5254017 0.32635084 2.9878087
1.5724131 0.32737231 2.9638674
1.495922 0.35776433 2.9997194
1.5274285 0.37343577 2.9877985
1.571026 0.37272823 2.9643917
1.6013597 0.37257782 2.9509552
1.5330176 0.42302564 2.9894564
1.5733489 0.41990355 2.9641912
1.5342007 0.47402507 2.9874125
1.5776585 0.47560367 2.9662218
1.6072261 0.48291489 2.9500778
1.5288002 0.52800894 2.9945202
1.5737381 0.5314464 2.9697397
1.5323771 0.58036697 2.9919291
1.576066 0.57917291 2.9676418
1.5346292 0.62833017 2.9893215
1.573488 0.6281938 2.9735348
1.6023446 0.62721646 2.9564381
1.5401514 0.66998214 2.993778
1.5745263 0.67866403 2.9747245
1.6103888 0.67204201 2.9553535
1.5381244 0.72790432 2.9986427
1.5736556 0.72608471 2.9758198
1.6171881 0.72195089 2.954036
1.5421251 0.7773838 2.9975817
1.5756619 0.7740345 2.9758894
1.6117713 0.7786504 2.9567018
1.5450726 0.82653648 2.9938118
1.5764916 0.82637691 2.9807596
1.6127046 0.82460976 2.9583905
1.5495652 0.86080945 2.9958367
1.5762088 0.87854421 2.9828966
1.6182846 0.87518018 2.9582577
1.5751975 0.92684281 2.9867554
1.6204495 0.92956823 2.9640942
1.5802017 0.97827864 2.9874556
1.623719 0.97870183 2.9632425
1.5847704 1.0247098 2.9899898
1.6289058 1.029457 2.9646463
1.5842394 1.0657928 2.99385
1.6193314 1.069926 2.9741254
1.652637 1.0753155 2.9560142
1.5890597 1.11403 2.9944983
1.6254454 1.1231301 2.974381
1.6586696 1.1198232 2.9551134
1.625707 1.1758879 2.9832959
1.661813 1.1785762 2.9593973
1.6316577 1.2299155 2.9816704
1.6694024 1.2265991 2.9593189
1.6184256 1.2726049 2.9917278
1.6679701 1.273764 2.965102
1.7028368 1.2787472 2.952477
1.6293803 1.3235322 2.9870789
1.6771387 1.3257496 2.9658122
1.6403136 1.377937 2.996325
1.6725457 1.3719265 2.9694686
1.7032765 1.3832293 2.9569056
1.642777 1.4296749 2.9931543
1.6788207 1.4240845 2.9750648
1.7095727 1.4218105 2.9550743
1.6322173 1.4607874 2.9910614
1.6714276 1.4741997 2.9830153
1.7106322 1.4717296 2.9587829
1.6461508 1.5325396 2.9928782
1.6776769 1.5218129 2.9826424
1.715663 1.5260801 2.9613512
1.6733381 1.576105 2.9894307
1.7217922 1.5737141 2.9612522
1.6813166 1.6215341 2.9872119
1.7232662 1.6278216 2.962678
0.91888809 1.6820294 2.9694791
1.6817286 1.6747255 2.9917636
1.7248001 1.6782576 2.965452
0.92031538 1.7314589 2.9591463
0.95781386 1.7301679 2.9529462
1.68891 1.7199663 2.9899809
1.7263464 1.7228233 2.9707735
1.7547954 1.7339437 2.9582026
0.88161993 1.766349 2.9633675
0.90945464 1.7627646 2.9504244
0.96204048 1.7621888 2.9547939
1.6938574 1.7686741 2.9935603
1.7272912 1.7672677 2.9745777
1.7615044 1.7667062 2.9565983
0.86685264 1.815551 2.962882
0.97057688 1.8105676 2.9656234
1.6914511 1.8221804 2.9936161
1.7245214 1.8261888 2.9804659
1.7650849 1.8229138 2.9593465
0.95851219 1.8764062 2.9550741
1.6966178 1.869323 2.9978449
1.7297455 1.8779484 2.9813256
1.7667395 1.877813 2.9581435
0.9656902 1.9153728 2.9645734
1.7306082 1.9295464 2.9853683
1.7674773 1.9234641 2.9593804
1.7310898 1.9701736 2.9842701
1.7765541 1.9767284 2.9652729
1.7300597 2.0231278 2.992907
1.7746493 2.0227859 2.9698451
1.8028083 2.0331244 2.9526427
1.7302624 2.0700898 2.9922471
1.7769753 2.0719302 2.9720955
1.8177681 2.0862978 2.9553566
-0.51643711 2.1337166 2.9905488
0.98306161 2.1299198 2.9955914
1.0185906 2.1323998 2.989661
1.0529852 2.1324618 2.9800146
1.7384783 2.1169288 2.9932525
1.7737205 2.1233792 2.975296
1.8035874 2.1181612 2.9546568
-0.52038676 2.1923599 2.9888847
0.47684923 2.1949461 2.9816115
0.51110184 2.1970053 2.979929
0.98844558 2.1675248 2.9967968
1.0261737 2.1727936 2.9864659
1.0550511 2.1625161 2.9705014
1.7462404 2.1735749 2.9956996
1.7778546 2.1674478 2.9685361
1.8124142 2.1559381 2.9519734
-0.50814486 2.2079983 2.973161
-0.47449839 2.2170556 2.9734223
-0.41839144 2.2195725 2.9808531
-0.37494734 2.2171342 2.973938
-0.31868026 2.2108676 2.9740005
-0.28043604 2.2108338 2.9573662
-0.24702285 2.2283742 2.950707
-0.12554823 2.2154264 2.9639311
-0.086506829 2.2185142 2.9773679
-0.029373353 2.2279446 2.9745891
0.021004533 2.224097 2.9695137
0.071440913 2.2265658 2.9721844
0.1217216 2.2245872 2.9682286
0.17683887 2.2276969 2.9783163
0.22312354 2.2315004 2.972743
0.27327731 2.2287114 2.9656465
0.32389513 2.2213333 2.9679959
0.37562859 2.2204542 2.9784048
0.42835674 2.2150762 2.9724677
0.47622564 2.208935 2.9676447
0.51891708 2.2112117 2.9650035
0.8344698 2.2306814 2.9734461
0.87931031 2.2225852 2.9629307
0.92973882 2.2366364 2.9645264
0.9730562 2.2471154 2.9776225
1.0211674 2.2169213 2.9887958
1.0527512 2.2373238 2.991678
1.7328112 2.2257669 2.9841869
1.7708372 2.2190707 2.9618917
0.99209785 2.2535729 2.9601228
1.0236621 2.2571828 2.9744267
1.073264 2.273659 2.9758987
1.1241485 2.2843759 2.983717
1.1724956 2.2927473 2.980299
1.2294396 2.295542 2.9744611
1.2821625 2.2947989 2.9767933
1.328041 2.2903223 2.9786737
1.3741342 2.2908661 2.9852471
1.4216652 2.2948675 2.975045
1.4753011 2.2940755 2.9808688
1.5250926 2.2955019 2.9860582
1.5814136 2.2954633 2.9814157
1.6310835 2.2879546 2.9810772
1.674376 2.2836277 2.9743795
1.7184744 2.2709458 2.9742887
1.7529573 2.2648365 2.9536998
1.2076472 2.3011825 2.9620099
1.3415005 2.3006871 2.9503729
1.4069726 2.3024993 2.9663115
1.5117143 2.307215 2.9695661
1.563379 2.3073721 2.9672532
1.6115083 2.3019664 2.9570272
1.1741002 -0.66953433 3.0312421
1.2269553 -0.68092966 3.033776
1.2765225 -0.66958714 3.0295346
1.3215492 -0.65847111 3.021709
1.3609954 -0.65749693 3.0096042
1.1877286 -0.61473888 3.0306149
1.342653 -0.62528372 3.0431402
1.3764913 -0.62360227 3.0230143
1.4093624 -0.62259126 3.0065923
1.1848698 -0.59792417 3.0254612
1.3396077 -0.58017081 3.0423732
1.3733084 -0.57546872 3.022615
1.4048085 -0.57013583 3.0040598
1.3459197 -0.53027076 3.0470009
1.3737056 -0.52894855 3.0295298
1.4122944 -0.52534658 3.0080588
1.1838852 -0.47484589 3.0379992
1.3752942 -0.47599271 3.0331359
1.4079682 -0.47288927 3.0131867
1.37244 -0.41961357 3.0387466
1.4126569 -0.41993293 3.0138237
1.3801643 -0.37379506 3.0349631
1.4201161 -0.37117815 3.0108516
1.3851657 -0.32564715 3.0355909
1.42267 -0.32237464 3.0120912
1.3849276 -0.2790426 3.0383048
1.4270779 -0.27816764 3.0136766
1.3901677 -0.22733718 3.0397789
1.4263316 -0.22391237 3.0152464
1.391588 -0.17358629 3.042778
1.4250481 -0.16846612 3.0226588
1.4554917 -0.16958201 3.0035563
1.3897684 -0.12008807 3.0464168
1.4229035 -0.12502417 3.0258029
1.4559332 -0.12329235 3.0060418
1.3850957 -0.092859186 3.0465879
1.4218177 -0.077213004 3.0297749
1.4644285 -0.076991469 3.0060158
1.3998146 -0.015252769 3.0407546
1.4239453 -0.032138828 3.02964
1.4651203 -0.030643156 3.0079896
1.4232756 0.023541838 3.0334232
1.4666591 0.023506194 3.0111346
1.4245219 0.077896498 3.0354097
1.4666804 0.077679925 3.0105038
1.4307854 0.12306519 3.03615
1.4741081 0.12619479 3.0105906
1.435392 0.17142914 3.0366032
1.4725064 0.16863343 3.011764
1.4360031 0.22598381 3.0353086
1.4783168 0.22533874 3.0103023
1.4322323 0.28125644 3.0431793
1.4738889 0.2802971 3.0165622
1.4332657 0.32832006 3.04199
1.4735631 0.32594365 3.0177169
1.4354252 0.37576053 3.0426681
1.4739463 0.37483618 3.020555
1.5003328 0.38999712 3.0057409
1.4371935 0.42321563 3.0419743
1.4737219 0.42247596 3.023097
1.5058062 0.41772205 3.004787
1.440269 0.47122154 3.0434992
1.4755731 0.46998131 3.0218678
1.5035237 0.4689416 3.0039828
1.44081 0.51593745 3.0433426
1.4774779 0.52462268 3.0224965
1.5074677 0.5249995 3.0052261
1.4388453 0.56006074 3.0492287
1.4728917 0.57801098 3.0273449
1.5106131 0.58102781 3.0041192
1.4427376 0.62220758 3.0489242
1.4768771 0.62995797 3.0280054
1.5105592 0.63367832 3.0057051
1.4469442 0.6821599 3.0488081
1.475278 0.68061584 3.0307946
1.5161451 0.68196428 3.0107789
1.4457884 0.71330059 3.041105
1.4750838 0.73229748 3.0359361
1.5165361 0.7289266 3.011749
1.4828528 0.77859956 3.034667
1.5177867 0.7811051 3.0130124
1.4786779 0.83357608 3.0385513
1.5178751 0.82903588 3.0149021
1.4804249 0.87980705 3.0392203
1.5230743 0.87985754 3.0151145
1.4921832 0.92544705 3.0395274
1.5279543 0.93080616 3.0139818
1.4899205 0.96943402 3.0449231
1.5228571 0.97181439 3.0202615
1.5592725 0.99963975 3.0032473
1.4904011 1.021004 3.043792
1.5238724 1.0190352 3.0243299
1.5609032 1.0239778 3.0071507
1.4997181 1.0571097 3.04474
1.5273082 1.0722295 3.0261436
1.5650413 1.0748924 3.0056748
1.5230974 1.127465 3.0351954
1.5648936 1.127988 3.0124583
1.5290045 1.1763486 3.0341263
1.5788023 1.1779366 3.010473
1.5276574 1.2239161 3.0424953
1.569158 1.2218175 3.0187449
1.600292 1.2181982 3.0074706
1.5355574 1.275297 3.0396807
1.5747579 1.2735598 3.0191574
1.539868 1.3200064 3.0420668
1.5747911 1.3218671 3.0246716
1.606119 1.3419752 3.0070899
1.5424117 1.3715569 3.0449708
1.5736294 1.3696475 3.0273468
1.6164961 1.3789747 3.0092654
1.5487314 1.4107563 3.0455432
1.5739052 1.4254987 3.0300326
1.6165327 1.4281968 3.0130842
1.5718955 1.474191 3.0361154
1.6198292 1.4779315 3.0101535
1.5833933 1.5239731 3.0365922
1.6241193 1.5272657 3.0135939
1.5829412 1.5792978 3.0363176
1.6239742 1.5777384 3.0151994
1.5853714 1.6159867 3.0344372
1.6270084 1.6272378 3.0164199
1.6511675 1.6475732 3.0003657
0.93834633 1.6739894 3.0025432
0.96626145 1.6801578 3.0076962
1.5864555 1.6795557 3.0444582
1.6231432 1.6786705 3.0228424
1.6593623 1.6816367 3.0035601
0.99354345 1.7154291 3.0300908
1.5869111 1.7397727 3.0476849
1.6242195 1.7272998 3.0306952
1.6624416 1.7281967 3.0047741
1.5856372 1.7680143 3.0479066
1.6258732 1.7704744 3.0282195
1.6682165 1.7691742 3.0064712
1.590391 1.8145771 3.0457559
1.6227208 1.8195623 3.0323052
1.6677448 1.8249871 3.0104034
0.99390399 1.8960723 3.0165138
1.6350394 1.8763169 3.0337245
1.6730239 1.8813405 3.0106745
1.7038932 1.8950562 3.0014055
1.627985 1.9341205 3.0423217
1.6766535 1.9310337 3.0185368
1.7084808 1.9179239 3.0000224
1.6318277 1.9724613 3.0419853
1.6770974 1.9776653 3.0201786
1.7050326 1.9878827 3.0045168
1.6391374 2.0321724 3.045531
1.6792507 2.0268557 3.0243514
1.7087495 2.0101726 3.0009565
1.6333427 2.0731535 3.0437813
1.6729563 2.0774081 3.0333138
1.705363 2.0727625 3.009356
-0.50336343 2.14961 3.0151157
0.97384876 2.1233089 3.0120699
1.0149491 2.1438262 3.0450206
1.6371492 2.1251695 3.0419304
1.675545 2.1197639 3.0259848
1.7118325 2.1275337 3.0109196
-0.51104122 2.1810102 3.0135593
-0.48622906 2.1846285 3.0332768
-0.42147583 2.1975703 3.025389
0.38769147 2.1987755 3.0307631
0.4202745 2.1910138 3.0164442
0.96712321 2.1742401 3.0065377
1.627544 2.1730859 3.0444305
1.6728026 2.1733792 3.0311005
1.7199253 2.1750393 3.0113847
-0.46496218 2.2104917 3.0214829
-0.4209989 2.2078321 3.0145187
-0.36919513 2.2075484 3.0111811
-0.16584931 2.2464933 3.0122683
-0.11993822 2.2140253 3.0141456
-0.07737197 2.2187057 3.0304532
-0.029716924 2.2200584 3.0296552
0.021232132 2.2160754 3.021013
0.068853587 2.2205901 3.0265982
0.12743887 2.2212045 3.0209379
0.17790405 2.2233872 3.0268595
0.22548918 2.2210932 3.0245295
0.27732274 2.2274382 3.0297515
0.3277984 2.2226355 3.0191326
0.37482446 2.21122 3.0241344
0.41982025 2.2056277 3.0032763
0.97849762 2.2248774 3.0159211
1.002027 2.2410865 3.0115955
1.0728939 2.2253797 3.0048158
1.6268405 2.2332642 3.0356548
1.6780581 2.2269711 3.0185878
1.7153649 2.2085161 3.0067573
1.0883946 2.2568598 3.0099425
1.1381154 2.286005 3.0378647
1.18143 2.2834384 3.0201371
1.2274712 2.2854407 3.030704
1.2746879 2.2865191 3.0158646
1.3331656 2.2876287 3.0314512
1.3751221 2.2882483 3.0363555
1.4259646 2.2851851 3.0216255
1.4682889 2.2846591 3.0203826
1.5263132 2.283586 3.0283222
1.5739987 2.2760785 3.0244226
1.6211078 2.2729855 3.0147409
1.6644094 2.269485 3.0056343
1.1996435 -0.65195823 3.0565054
1.2247274 -0.66473269 3.0659738
1.2680324 -0.66110516 3.0638912
1.2292862 -0.62673998 3.0848014
1.2721739 -0.62915933 3.0768075
1.3149626 -0.62614286 3.0564487
1.2334949 -0.57927775 3.087261
1.2740377 -0.57989693 3.0794654
1.3128945 -0.57602584 3.0584743
1.2283418 -0.53566986 3.0906467
1.2741512 -0.52507704 3.0866098
1.3162454 -0.52578461 3.0646102
1.1992581 -0.46548986 3.0790975
1.2761387 -0.47216734 3.092066
1.3258514 -0.4727307 3.0627911
1.1665828 -0.4155485 3.0652764
1.2804841 -0.42265788 3.0915918
1.3229177 -0.42119753 3.0670843
1.2843963 -0.37958553 3.0943215
1.322714 -0.37431669 3.0708663
1.3579 -0.35768414 3.051532
1.2877871 -0.32855844 3.0959539
1.322317 -0.32740188 3.0736532
1.3573512 -0.32643232 3.052716
1.2874048 -0.27367708 3.0986943
1.323217 -0.28078774 3.0789521
1.3573304 -0.27975056 3.0558984
1.2869213 -0.23446192 3.0997715
1.3225919 -0.2260451 3.0806017
1.3637513 -0.22194456 3.0565434
1.3233272 -0.17152156 3.0847723
1.3652039 -0.17088009 3.0592403
1.325568 -0.12469184 3.0859129
1.3654927 -0.12424231 3.0614367
1.3236195 -0.077858061 3.0879967
1.3712412 -0.07560461 3.0604835
1.3281659 -0.032559071 3.086808
1.373522 -0.030876063 3.0611384
1.3325071 0.02368129 3.0886815
1.3751117 0.023621758 3.0646751
1.335447 0.076490767 3.0897565
1.375451 0.078174271 3.0647597
1.3418409 0.12541606 3.0880375
1.3766472 0.12504444 3.0662961
1.4058965 0.13267142 3.0518348
1.3423362 0.17242996 3.087558
1.3776822 0.17197271 3.0669634
1.4067421 0.17171638 3.0522544
1.3288206 0.21973896 3.0951483
1.3725882 0.21923225 3.073374
1.407496 0.22639976 3.0513117
1.3393505 0.27518317 3.0958631
1.3735096 0.27418259 3.072299
1.4100341 0.28148922 3.053565
1.3421006 0.33084011 3.0984108
1.3768764 0.32976392 3.0759952
1.4105681 0.32848197 3.0513611
1.343654 0.37851763 3.0981529
1.3720794 0.37767529 3.0814328
1.4072905 0.37659228 3.0599174
1.3447819 0.43404013 3.0956206
1.3736613 0.42534173 3.080601
1.4086298 0.42403629 3.0584018
1.3470083 0.47427532 3.096611
1.3756617 0.47327027 3.080148
1.4123365 0.47236681 3.0614815
0.95515245 0.50647765 3.0927768
1.3495866 0.51475406 3.098052
1.3756639 0.52336007 3.0825858
1.4141135 0.5202319 3.0598252
1.3788359 0.57208931 3.0836501
1.4208943 0.57112813 3.0596561
1.3750923 0.61791444 3.0880842
1.4202257 0.62447542 3.063333
1.3777149 0.6712361 3.0881367
1.4173973 0.67260581 3.0659056
1.3813636 0.71634108 3.0892792
1.4207903 0.72463167 3.0649121
1.3888792 0.76879168 3.0885754
1.4239453 0.77519554 3.068167
1.4561911 0.78228396 3.051513
1.3912569 0.81596649 3.089607
1.4284816 0.82393157 3.0680876
1.4602664 0.82448173 3.0523429
1.3916575 0.87161821 3.0966671
1.4230325 0.86913121 3.0760064
1.4511319 0.88468385 3.0609031
1.3960415 0.92292571 3.0961483
1.4241108 0.92016983 3.0760663
1.4620808 0.91869229 3.0571473
1.3991255 0.95741028 3.095794
1.4243051 0.97421491 3.0798521
1.4684577 0.97125983 3.0593741
1.4278995 1.022296 3.0826144
1.4678758 1.0258868 3.0588729
1.432485 1.082792 3.0874629
1.4714419 1.0764705 3.061075
1.5066165 1.0946457 3.0500693
1.4401933 1.1246462 3.0849583
1.4805977 1.1287903 3.0623779
1.4329221 1.1679503 3.0908074
1.4751745 1.1736295 3.0669386
1.4373235 1.2265056 3.0940154
1.4744017 1.2229342 3.0702543
1.5037651 1.2199534 3.0506134
1.4354951 1.2736506 3.098248
1.4762216 1.2777796 3.0738497
1.5114762 1.2759229 3.0507247
1.4409961 1.32033 3.0968344
1.4708852 1.3240938 3.0817654
1.5114759 1.3245935 3.0570917
1.4494797 1.378518 3.0983505
1.4775571 1.3782302 3.0822685
1.5195302 1.3735365 3.0591002
1.4769934 1.4250888 3.0886405
1.5234612 1.4254676 3.0636394
1.4787141 1.4750144 3.0882711
1.5271842 1.4727535 3.0642385
1.4869499 1.5215926 3.0910623
1.5258461 1.5221905 3.0656879
1.5509027 1.5302336 3.0513978
1.4891833 1.5814853 3.0926385
1.5286193 1.5763228 3.0747175
1.5643833 1.5692835 3.0557342
1.4857157 1.6284227 3.0946388
1.5187985 1.6269726 3.078624
1.5603433 1.6254543 3.0586131
1.4886953 1.6797262 3.0931768
1.5262725 1.678256 3.0752623
1.5615354 1.6700509 3.0544062
1.0014876 1.7125134 3.0614934
1.4857496 1.7135035 3.0922406
1.5225348 1.7347492 3.0812888
1.5644549 1.7275749 3.0580273
1.5289489 1.7793527 3.0874746
1.5649204 1.7766908 3.0598631
1.4966766 1.8089693 3.0947375
1.5209419 1.8233745 3.0879211
1.5649397 1.8178685 3.067632
1.5356259 1.8682698 3.0884891
1.5784713 1.8754942 3.0630233
1.6155808 1.8775091 3.051223
1.5391011 1.9279941 3.094636
1.5706178 1.9311334 3.0751302
1.603695 1.9199009 3.0517869
1.5385598 1.9834342 3.0919499
1.5777429 1.9790542 3.0716105
1.6099017 1.9919195 3.0559223
1.5377953 2.0211358 3.0977972
1.5747048 2.0312746 3.0794001
1.6142641 2.0250928 3.0580261
1.5714693 2.0840819 3.0864549
1.6109997 2.0793476 3.0650508
1.3433102 2.1072292 3.0750828
1.3609061 2.1298361 3.0865011
1.5764685 2.1303079 3.0850837
1.6153083 2.1222777 3.0610554
1.0406163 2.160953 3.0645375
1.0757277 2.1787004 3.082232
1.1093887 2.1927688 3.0944178
1.549891 2.1900892 3.0936797
1.5797672 2.1746368 3.0797942
1.6079624 2.1724291 3.0592771
-0.46001941 2.2020478 3.0612357
-0.070028119 2.2089787 3.0751483
-0.030089883 2.212234 3.0857847
0.018643726 2.2149286 3.0783808
0.077253811 2.2185781 3.0686836
0.12172917 2.2195356 3.0717039
0.17209336 2.2239685 3.0731113
0.22789456 2.2190125 3.0717661
0.28333148 2.215188 3.0763655
0.33128682 2.2118249 3.0712328
0.3664526 2.2077532 3.0793755
1.1115863 2.2239597 3.0847907
1.5365863 2.225085 3.095005
1.5705385 2.2209203 3.0734568
1.6141938 2.2084327 3.0542865
1.1259999 2.2706673 3.0755248
1.1776724 2.283942 3.0794542
1.2260749 2.2811241 3.0787416
1.2781937 2.2796299 3.0743537
1.3220463 2.2723742 3.0712357
1.3744234 2.2748208 3.0756695
1.4232217 2.279911 3.0649595
1.4774171 2.2745996 3.0757263
1.5220983 2.2605696 3.080157
1.5673612 2.2552323 3.0582137
1.2413929 -0.51437926 3.10432
1.2340358 -0.46889201 3.111192
1.2597549 -0.45498398 3.1020756
1.1919374 -0.41400367 3.1099782
1.2303776 -0.42429611 3.1189919
1.259004 -0.42334139 3.1032856
1.0808342 -0.38998738 3.1345177
1.1263759 -0.39225167 3.1433482
1.1756524 -0.38333645 3.1458447
1.2241131 -0.3776339 3.1293981
1.2655742 -0.37322918 3.1066926
1.1894708 -0.33063203 3.1445532
1.2248007 -0.33001545 3.1287446
1.2668004 -0.32921323 3.1088288
1.1855757 -0.29125857 3.1483471
1.222957 -0.27504918 3.1337287
1.2667153 -0.27428654 3.1122737
1.2229251 -0.21999048 3.1366279
1.2714312 -0.21723324 3.1108572
0.99319828 -0.16215657 3.1351829
1.2276351 -0.17438394 3.137296
1.2737722 -0.17222625 3.1131401
0.99644119 -0.12391263 3.1465757
1.2314765 -0.12569314 3.1397924
1.2737812 -0.12519497 3.1147008
1.3028322 -0.1249669 3.1001921
1.233261 -0.080438703 3.1397829
1.273759 -0.078168206 3.1156809
0.98354775 -0.030473044 3.1073394
1.0128984 -0.030898057 3.1476805
1.2314095 -0.031272337 3.1411722
1.2745748 -0.031154944 3.118217
1.3031425 -0.023253854 3.1025414
0.99563795 0.015628554 3.1455629
1.2373081 0.021192102 3.1414006
1.2753655 0.023759624 3.1201336
1.3039426 0.023719145 3.1043811
1.2414966 0.079028301 3.1440017
1.2773894 0.078823686 3.1244302
1.3092768 0.082542449 3.1058686
0.99701631 0.10876203 3.1486278
1.242033 0.12637083 3.1442535
1.2775092 0.12599789 3.1236191
1.3133693 0.1256808 3.1040869
1.2414265 0.15784055 3.141727
1.2735744 0.17485406 3.1279771
1.3140374 0.17281556 3.1040485
1.2364707 0.22142395 3.148617
1.2730211 0.22092129 3.1304438
1.3084669 0.22026271 3.1096513
0.98146617 0.27944127 3.1445808
1.2374859 0.26113918 3.1490984
1.2762418 0.27094463 3.1306055
1.3171971 0.2754637 3.1062658
1.2749194 0.32586613 3.1330323
1.319496 0.33108976 3.1078892
0.94510639 0.37045085 3.1268094
1.2769684 0.3805429 3.1366987
1.3163614 0.38113445 3.1122286
0.94887048 0.44938731 3.1323335
1.2735149 0.42869881 3.1383677
1.319721 0.42565495 3.1129799
1.2760499 0.4772526 3.1397748
1.3190783 0.47558388 3.1148515
0.98839861 0.50019675 3.1482441
1.0054289 0.50090015 3.1492679
1.2791857 0.52625388 3.1420951
1.3211701 0.52395666 3.114368
1.2828865 0.57484597 3.1397896
1.3240571 0.57281941 3.1152039
1.3535092 0.5638864 3.101145
1.281413 0.62196249 3.1409116
1.3242524 0.62373531 3.1173906
1.3564754 0.62081665 3.1003437
1.2794935 0.67408329 3.1453464
1.3240308 0.67228538 3.1227226
1.3590558 0.66186118 3.1003244
1.2861948 0.71972233 3.1437981
1.3251206 0.72062355 3.1236703
1.3597498 0.73153502 3.1050084
1.2895703 0.76996267 3.1438811
1.3239871 0.77293897 3.1280284
1.3606323 0.77091473 3.107425
1.2960258 0.81583977 3.1405945
1.325768 0.82596838 3.1316683
1.3644332 0.82137138 3.1071575
1.3249955 0.87553877 3.1336203
1.3689035 0.87253636 3.1077547
1.3221889 0.92787772 3.1385422
1.3664966 0.92483985 3.1130712
1.3277843 0.98083657 3.1409788
1.3717988 0.97729248 3.1142607
1.330735 1.0239642 3.1384614
1.3773856 1.0303247 3.1153498
1.4113319 1.0475999 3.1033137
1.3356977 1.0623256 3.1417689
1.3759185 1.0784843 3.1200211
1.4131696 1.0735512 3.1011238
1.338354 1.123904 3.1446776
1.3735089 1.1207939 3.1235027
1.4117651 1.128145 3.1058698
1.3480912 1.1783862 3.1430531
1.3782214 1.1758047 3.1254427
1.4079728 1.1730194 3.107054
1.3360741 1.2240598 3.1473351
1.3750939 1.2217836 3.1280785
1.4102291 1.2323034 3.1069822
1.3738093 1.2698249 3.134439
1.4126322 1.2755396 3.1114984
1.3811872 1.327067 3.1356261
1.4188942 1.323087 3.1120598
1.3732011 1.3761668 3.1383243
1.423883 1.3738745 3.1138091
1.3863057 1.4249429 3.1411564
1.4242132 1.4246953 3.121465
1.3892841 1.4706491 3.1413553
1.4272352 1.4744787 3.1176143
1.4504279 1.4977199 3.1064324
