ply
format ascii 1.0
comment PCL generated
element vertex 1545
property float x
property float y
property float z
element camera 0
property float view_px
property float view_py
property float view_pz
property float x_axisx
property float x_axisy
property float x_axisz
property float y_axisx
property float y_axisy
property float y_axisz
property float z_axisx
property float z_axisy
property float z_axisz
property float focal
property float scalex
property float scaley
property float centerx
property float centery
property int viewportx
property int viewporty
property float k1
property float k2
end_header
-0.60736525 1.3440902 2.566653
0.17187841 1.3231258 2.5826375
0.67486584 1.3294778 2.5902421
0.70247203 1.3298354 2.5855477
2.3246324 1.327556 2.5860317
2.3736625 1.3276668 2.5633745
0.16466078 1.3735203 2.572103
0.6812619 1.378345 2.5923452
0.70727909 1.373456 2.5898113
2.3266461 1.3793895 2.5835464
2.3690231 1.3717622 2.5619051
0.15925838 1.4294797 2.5756924
0.68639046 1.4263315 2.5938201
2.3315642 1.4206425 2.5841615
2.3714201 1.430099 2.5614994
0.1659974 1.4634346 2.5613773
0.70139307 1.4589403 2.5935049
2.332063 1.4722451 2.5904262
2.3768964 1.4838711 2.5657191
2.3368192 1.5196488 2.5920808
2.3733439 1.5263364 2.5765443
2.4038274 1.5160595 2.5568814
2.3399646 1.5698992 2.5894191
2.3736477 1.5704505 2.5722241
2.4027929 1.5862129 2.5562654
2.3378782 1.6229259 2.5965006
2.3755147 1.6252455 2.5727801
-0.78310877 1.6793679 2.5679252
-0.74057639 1.6749362 2.5707254
2.3494751 1.6568558 2.5951087
2.3768559 1.6719704 2.5800862
2.4018188 1.6573701 2.5543578
-0.80275309 1.7213395 2.5538583
-0.78747559 1.7219572 2.5802312
2.3764653 1.7272118 2.5842891
2.4149928 1.7160316 2.55985
-0.80915725 1.7793841 2.5667219
-0.7902106 1.7713699 2.5898647
2.3793392 1.7806146 2.5890644
2.4286344 1.7759494 2.5650127
-0.81028426 1.8255278 2.5695224
-0.794976 1.842073 2.5893216
2.3781824 1.8289542 2.5924652
2.4234173 1.8291903 2.5658724
-0.8106761 1.8783776 2.5685346
-0.79797524 1.8713089 2.5860918
2.4184446 1.8743771 2.5718412
-0.81566793 1.932695 2.5726318
2.3944671 1.9101393 2.5958176
2.4252779 1.922381 2.5734074
2.4656756 1.9420525 2.5606022
-0.81391448 1.9728581 2.5686665
-0.79752231 1.9738028 2.5958986
2.4231973 1.9709349 2.5815885
2.4670358 1.977313 2.5613611
-0.81051606 2.0236802 2.5715988
-0.7889232 2.0283725 2.5969987
2.4266968 2.0212283 2.576134
2.4548607 2.0273566 2.5526135
-0.81483847 2.0819602 2.5700512
-0.79463077 2.0738122 2.5953882
2.435384 2.0854747 2.5914948
2.4693649 2.0772984 2.5644562
-0.8129319 2.1238182 2.5717876
-0.79359215 2.1301284 2.5929308
2.4303503 2.1165171 2.5845926
2.4734914 2.1221819 2.5631011
2.4277258 2.1671557 2.5905256
2.4708152 2.1727188 2.5689397
2.3956349 2.24476 2.5958562
2.4278398 2.2216222 2.5815871
2.4714341 2.2232127 2.5579095
2.3920717 2.2780523 2.5893607
2.4270477 2.2831664 2.5682869
2.4698114 2.2627096 2.5505774
1.4748065 2.3338997 2.5966592
1.5378003 2.339879 2.5730314
1.5754937 2.3383472 2.5763769
1.6217952 2.3393829 2.5720289
1.6720684 2.3440704 2.5737643
1.7205641 2.3440065 2.5797248
1.7807584 2.3468702 2.5782592
1.8239532 2.3460438 2.578192
1.8716159 2.3444564 2.5879118
1.9205091 2.3415885 2.5736165
1.9738319 2.3453252 2.5881834
2.0306747 2.3410745 2.5762877
2.0811248 2.3391485 2.5722003
2.1200581 2.3388739 2.5786917
2.1684787 2.3340054 2.5819929
2.2221537 2.3291554 2.5777991
2.2738547 2.3263831 2.574702
2.3237779 2.3137884 2.576941
2.3698781 2.3116746 2.5727124
2.4162261 2.3113313 2.5619528
1.5193362 2.3505816 2.5980575
1.7704865 2.3592916 2.5696838
1.872473 2.3521338 2.5577879
1.9797496 2.3507576 2.5716703
2.016715 2.3524208 2.5500779
0.97712851 -0.65338516 2.6246653
1.8132433 -0.514377 2.6438642
1.7994449 -0.462906 2.6011055
1.8097041 -0.45098296 2.6179242
1.8175811 -0.42030168 2.6041813
1.8487111 -0.38018158 2.6249716
1.8549162 -0.36676759 2.6354103
2.1347694 -0.36457038 2.6010206
1.9835031 -0.31197664 2.6154995
2.0368085 -0.31873533 2.619803
2.0786693 -0.31735036 2.6229224
2.1241853 -0.3206628 2.6107335
1.9911177 -0.29823363 2.626924
2.0290933 -0.27416968 2.6354959
2.0767343 -0.2726683 2.6390989
2.1187794 -0.27317169 2.6193109
2.1516228 -0.27344841 2.6017497
2.0344059 -0.22498257 2.6316984
2.0747936 -0.226928 2.6400769
2.1239271 -0.2261014 2.6187594
2.151 -0.24291828 2.6034873
2.0206611 -0.17868762 2.6166525
2.0743608 -0.17378056 2.6427186
2.1259587 -0.17424226 2.6204858
2.0075259 -0.14780514 2.6011353
2.0721414 -0.1205683 2.6422646
2.1267326 -0.12104759 2.6238697
2.0709646 -0.075068362 2.6420712
2.121305 -0.076882705 2.6271598
2.1600261 -0.072361909 2.6053925
2.0660505 -0.029585347 2.6364698
2.1230516 -0.029755944 2.6300683
2.1605747 -0.029728632 2.6066823
1.9838328 0.015445947 2.6304224
2.0378914 0.015568628 2.6149011
2.0686004 0.015692903 2.6253834
2.1214211 0.023540944 2.6338084
2.1609151 0.02359437 2.609951
2.0535388 0.082948342 2.6051698
2.1238244 0.076956697 2.6359191
2.1624141 0.077010915 2.6108696
1.9724934 0.12645146 2.6128323
2.0339117 0.11259744 2.6077683
2.065053 0.12503171 2.625546
2.1244745 0.1227433 2.6352427
2.1689441 0.12514904 2.6109176
1.9806436 0.17897306 2.6211584
2.0189862 0.17982797 2.6140118
2.0774956 0.17204663 2.6443422
2.1270895 0.17637134 2.6359193
2.1663227 0.17648976 2.6114547
1.9788733 0.2085121 2.6170416
2.0405283 0.2118549 2.6400783
2.071743 0.24394399 2.6490438
2.1309938 0.23025577 2.6373353
2.1712122 0.23050572 2.6138375
2.1300161 0.27442303 2.6409724
2.1684277 0.27874756 2.6174157
2.2006919 0.29266322 2.6003392
2.1310749 0.3232547 2.6440189
2.1693182 0.32326731 2.6178501
2.2038977 0.32386824 2.601012
0.56199491 0.36836752 2.6054697
2.1324751 0.3695828 2.6407201
2.1736178 0.37008092 2.6178849
2.2086208 0.37082633 2.6013546
0.5363813 0.44438949 2.6000149
2.037446 0.41041556 2.6461806
2.1354477 0.42396811 2.63762
2.177213 0.42466065 2.6153114
2.21205 0.41001046 2.6005001
0.52488112 0.47723055 2.6038401
2.140677 0.47902179 2.6363857
2.1803651 0.47779658 2.6152201
2.2035093 0.49649355 2.6071482
0.48259521 0.53694141 2.614193
0.52280599 0.52548647 2.6113226
0.55186999 0.52960914 2.6009772
2.1394804 0.52230901 2.6309981
2.1745718 0.52908278 2.617347
2.2055271 0.52797037 2.6043413
0.43591937 0.58126336 2.6417923
0.47745416 0.57486564 2.6381438
0.52367729 0.57196432 2.6185682
0.55359763 0.576065 2.6026993
2.1405203 0.57362682 2.6354601
2.1742108 0.57438451 2.6174185
2.2108507 0.57588691 2.602236
-0.67423081 0.638592 2.6237376
0.4844276 0.62522089 2.6410346
0.52601302 0.62616593 2.6223032
0.55531472 0.62279987 2.6037421
2.1386817 0.62180734 2.6391327
2.1799958 0.62255216 2.6153805
2.214467 0.60796386 2.6004975
-0.62712371 0.68970555 2.6457856
-0.5032149 0.68846309 2.6320293
-0.47426972 0.69062018 2.6176972
0.41769296 0.66056323 2.6388807
0.48846975 0.67578596 2.6441875
0.52759057 0.67335701 2.6225388
0.56438696 0.67736 2.6063566
2.1371548 0.67034203 2.6425428
2.1688931 0.67055964 2.6218719
2.204869 0.6720652 2.6056669
-0.62002486 0.71535218 2.6397703
-0.57538086 0.70894963 2.6222758
-0.45535499 0.70424831 2.6205499
-0.43303266 0.71928227 2.6222332
-0.37088236 0.73715907 2.619487
-0.33876148 0.74226743 2.6225424
0.4869594 0.72235942 2.6461875
0.52673465 0.72390145 2.6282606
0.56979477 0.72772992 2.6094089
0.74897176 0.70657551 2.6092241
2.1368997 0.72219682 2.6430936
2.1739848 0.71767724 2.6216974
2.2116997 0.72634339 2.6095309
-0.31886002 0.76031208 2.6159198
0.48885977 0.77436709 2.6470125
0.5229224 0.77552837 2.631398
0.56881005 0.77463323 2.6093013
2.1365311 0.76385659 2.643692
2.1725457 0.77211601 2.6301041
2.2150669 0.77202266 2.610347
0.49080965 0.8213982 2.6484814
0.52060962 0.82562423 2.6348481
0.57171822 0.82468444 2.6103849
2.1488338 0.83669615 2.6494038
2.1777897 0.81876099 2.6328597
2.2244792 0.82625276 2.6148503
-0.63059396 0.88139641 2.6094518
0.22594178 0.8775062 2.6432526
0.4923217 0.85915238 2.6490011
0.52838266 0.87458408 2.6378222
0.57228053 0.87569386 2.6136703
2.1793444 0.8701278 2.6396461
2.2281044 0.87468541 2.6150513
-0.61514801 0.91254568 2.6273448
-0.59639615 0.90651345 2.6482112
-0.5277003 0.94282883 2.6380427
0.21516351 0.92238617 2.62026
0.53273833 0.92628384 2.6394563
0.57845807 0.92527908 2.6149142
0.60897702 0.94156975 2.6014771
2.1836138 0.91729116 2.6409535
2.2221808 0.92767692 2.6198843
2.2590373 0.92857432 2.6065953
0.21306098 0.97020215 2.6245677
0.53294194 0.97172815 2.6428809
0.57652915 0.975734 2.6215284
0.61101502 0.97776961 2.6016035
2.1899188 0.97199619 2.6408267
2.228436 0.97602594 2.6211271
2.2574129 0.97933173 2.6047039
0.19978145 1.0348544 2.6056869
0.2155519 1.008051 2.6484079
0.53934819 1.0252324 2.642112
0.56863612 1.0240196 2.6261771
0.60720581 1.0221232 2.6039479
2.19191 1.0305351 2.6493826
2.2232909 1.0291162 2.6298106
2.2664573 1.022056 2.6077545
0.20654774 1.0800312 2.6263797
0.53897011 1.0747066 2.6449921
0.57480091 1.0750202 2.6250837
0.61051267 1.0744202 2.6047683
0.72948372 1.0893755 2.6017604
2.2189381 1.0760828 2.6370323
2.2624295 1.0695072 2.6136987
0.18843676 1.1305456 2.6058776
0.206066 1.1233475 2.6229882
0.53822201 1.1239982 2.6454847
0.57668853 1.1240258 2.6255584
0.61364287 1.1268793 2.6039505
2.2255764 1.1198764 2.6302729
2.2647262 1.1171778 2.6078484
0.18932152 1.1690756 2.6077776
0.21043578 1.1804951 2.6390595
0.5478189 1.1706666 2.6455472
0.57778615 1.1738827 2.6304493
0.6152907 1.1777442 2.6102788
2.1984801 1.1550771 2.648144
2.2247446 1.1776345 2.6373146
2.2659557 1.1769402 2.6122403
0.19056757 1.2213749 2.6104319
0.21185049 1.2036459 2.6324151
0.57041413 1.2257223 2.6390049
0.61823189 1.2231393 2.6154485
2.2286847 1.2281017 2.6371651
2.2729306 1.2258019 2.6125424
0.18705447 1.2677919 2.6099799
0.57847655 1.2768743 2.6389496
0.62529951 1.2725149 2.6121166
2.2274935 1.2774477 2.6402643
2.2775273 1.2687247 2.6123581
0.19290607 1.3266299 2.6109374
0.5849399 1.3293451 2.6394155
0.62598974 1.3225409 2.6184099
0.6503036 1.3352581 2.6067934
0.7229262 1.3146698 2.6175766
2.2363923 1.3222518 2.6427579
2.277899 1.3241709 2.620039
0.1901703 1.3799282 2.6200864
0.20992242 1.362762 2.649159
0.58357841 1.3779746 2.6445899
0.62158751 1.3754722 2.6265247
0.6528616 1.3750976 2.6036501
2.2275772 1.3761964 2.6453207
2.2726486 1.3736931 2.6264827
2.3028646 1.3587675 2.6034925
0.18791845 1.4286925 2.6245627
0.59462458 1.4498777 2.6447573
0.62631434 1.4279346 2.6298106
0.66513312 1.4246404 2.6082025
0.71549875 1.41035 2.6115217
2.2327738 1.4117565 2.6427035
2.2747915 1.4255935 2.6237104
2.3055947 1.4375317 2.606894
0.18902312 1.4731712 2.6255243
0.62803108 1.4730145 2.6361775
0.6728518 1.4763339 2.6119874
2.2429328 1.4740357 2.6468019
2.2786369 1.4753982 2.6238198
2.3137825 1.4679343 2.6037829
0.19861569 1.5053188 2.6332211
0.63228291 1.5174073 2.6391215
0.67763615 1.526408 2.6219065
0.71214414 1.5096617 2.6209989
2.274071 1.5257936 2.6296222
2.314589 1.5232003 2.6053092
0.63558251 1.5607119 2.639951
0.67162395 1.5730593 2.6275034
0.722377 1.5601163 2.6458573
2.2485175 1.565429 2.647542
2.2730587 1.5785486 2.6316276
2.3157632 1.5793211 2.6064701
0.67856711 1.6185827 2.6391473
0.70074713 1.6415142 2.6485789
2.2751906 1.6155821 2.6307712
2.3142538 1.6252217 2.6119499
0.68180656 1.6581852 2.6363945
0.70391542 1.678133 2.6463332
2.2781541 1.6744176 2.6414897
2.3182886 1.6764954 2.6160557
-0.76740193 1.7330858 2.617569
-0.73947906 1.7370877 2.6408491
2.2862096 1.7279961 2.6374252
2.3289952 1.7249956 2.6129971
2.3523252 1.7233433 2.6015365
-0.76638389 1.7745854 2.6266198
-0.74841511 1.7555281 2.6370852
2.2936926 1.7752373 2.6424499
2.3246195 1.7731354 2.6187854
2.3520343 1.7885636 2.6034739
-0.77657002 1.8221005 2.6187611
2.2878473 1.8194621 2.6483285
2.3244622 1.8206774 2.623208
2.3609598 1.8129611 2.6028059
-0.77511728 1.873065 2.6252785
2.2988305 1.8546894 2.6450164
2.3248093 1.8692052 2.6277673
2.372875 1.8733337 2.6054845
-0.78050607 1.9238036 2.6212673
2.3293426 1.916754 2.6354008
2.3694549 1.9204448 2.6129484
-0.78081226 1.9745239 2.6228092
2.3337638 1.9636405 2.6346233
2.3742559 1.9675541 2.6122327
2.4005473 1.983458 2.6016161
-0.77519542 2.0212469 2.6267209
2.3384097 2.0107841 2.6411533
2.3776915 2.0204263 2.6184669
-0.77676278 2.0722418 2.628988
2.3321304 2.0747466 2.6475725
2.3739648 2.0691333 2.6242633
2.4200478 2.0705504 2.6055644
-0.77554291 2.125514 2.6293595
2.3363209 2.1232491 2.6449308
2.3735101 2.1146982 2.6243315
2.4046371 2.1179929 2.6074977
-0.77133071 2.1622396 2.6250472
2.338501 2.1883698 2.6424296
2.3719633 2.1668968 2.6239278
2.4018271 2.1778939 2.6070971
2.3282492 2.2330787 2.6394684
2.3735728 2.2259614 2.6164989
2.2885029 2.2796113 2.6439912
2.3203628 2.2806363 2.6227858
2.3693511 2.273885 2.6063614
1.383884 2.3372812 2.6451068
1.4284846 2.3411322 2.6295984
1.4792953 2.3386686 2.6263978
1.5241855 2.3366637 2.6231487
1.5699053 2.3359847 2.6273723
1.6137239 2.3337111 2.6201463
1.6754754 2.3396096 2.6307712
1.7329092 2.341131 2.6246786
1.7707464 2.3410304 2.629818
1.8169346 2.3376086 2.6210346
1.8725365 2.3400156 2.6330199
1.9167026 2.3414366 2.6255846
1.9735284 2.3376451 2.6190529
2.0308387 2.3407152 2.623394
2.0754838 2.3338299 2.6294675
2.1290634 2.3266094 2.6228483
2.1793621 2.3231912 2.6280594
2.2243457 2.3228767 2.6270714
2.269351 2.3127875 2.6119273
0.9927057 -0.65026629 2.6689327
1.0085731 -0.65175903 2.6715
0.9693175 -0.64146364 2.6669521
1.0016115 -0.64242911 2.6951773
1.8215183 -0.53585815 2.6833408
1.8256965 -0.48829001 2.6663821
1.8656248 -0.42257062 2.6840465
1.9899448 -0.3217929 2.6936984
2.0116346 -0.3188026 2.6818497
1.9975271 -0.27334443 2.6963837
2.0113928 -0.26929936 2.6740394
1.9958673 -0.22750242 2.6974735
2.0151412 -0.22708105 2.6791718
1.9953212 -0.19703686 2.6986322
2.0155666 -0.17399608 2.6828392
2.0125959 -0.12067958 2.6811798
2.0114565 -0.075162418 2.6809473
2.0104921 -0.029703019 2.6803474
1.996927 0.045890845 2.6765711
2.0056503 0.015746942 2.6885517
1.9960066 0.076066531 2.6747329
2.0083063 0.12208829 2.6898234
2.0138283 0.16812073 2.6952031
2.0739164 0.19853193 2.6549702
2.0350411 0.23650175 2.6750741
2.0816722 0.22927175 2.6530147
2.0215523 0.27576274 2.6983783
2.0730736 0.27293769 2.6567271
2.1025078 0.28408098 2.6558108
2.0242214 0.30673504 2.6992817
2.0792253 0.32232407 2.6665006
2.1045792 0.32270637 2.6547854
2.0836978 0.36907721 2.6673174
2.1089458 0.36947572 2.655319
2.0896783 0.40860632 2.670387
2.1114597 0.40837759 2.6538317
0.44449791 0.59701979 2.6518176
0.45771882 0.59734035 2.6517553
-0.67145771 0.64849567 2.6667345
0.43890098 0.62424606 2.6538515
0.45868 0.6246298 2.6532688
-0.61953372 0.67831343 2.6750784
-0.59755909 0.69456822 2.6975291
-0.53931546 0.69498968 2.6800413
-0.4446232 0.69842434 2.6780961
0.38893712 0.69286358 2.6623082
0.43299815 0.67848271 2.6636496
0.4656997 0.66947204 2.653801
-0.61124319 0.70763189 2.6736517
-0.58973461 0.71321201 2.6897199
-0.43061849 0.70695662 2.6727819
-0.37183881 0.73075747 2.6774623
-0.33496189 0.73919809 2.6735902
0.3446604 0.7221458 2.6734903
0.37852135 0.72568977 2.6900113
0.42344642 0.7260201 2.6802242
0.46249527 0.7282517 2.6584482
2.0810204 0.72423905 2.6644607
2.1070514 0.72518069 2.6526284
0.38937545 0.7765705 2.6985073
0.42102185 0.77584398 2.6844611
0.46332344 0.77513647 2.6625693
2.0682766 0.76795536 2.6810136
2.111264 0.77107298 2.6599619
0.25548342 0.84935409 2.6855509
0.39059758 0.82128346 2.6984992
0.42284477 0.82581353 2.6866226
0.47006664 0.82414269 2.6629555
2.0786633 0.81927717 2.6817498
2.1258285 0.81692117 2.6593883
0.23653738 0.88446307 2.6636622
0.25608981 0.87133682 2.687567
0.42599669 0.87485439 2.6881559
0.4720723 0.87516809 2.6673677
0.50786555 0.88967109 2.6534383
2.086412 0.87407547 2.6902432
2.1231546 0.87064099 2.6694136
2.1591921 0.88037312 2.6512885
-0.58713174 0.9306637 2.673207
0.23781264 0.92459393 2.6696498
0.42935959 0.92195988 2.6907659
0.47911528 0.92392576 2.6669927
0.50913942 0.92520434 2.6521719
2.0848691 0.91068244 2.6860189
2.1244667 0.92094547 2.6677811
2.1648071 0.93527478 2.6536784
-0.56946021 0.95653075 2.6856377
0.23710163 0.97501802 2.675885
0.25927293 0.9764533 2.698833
0.4366284 0.97460043 2.6900835
0.47876862 0.97515529 2.6701491
0.51136464 0.9760437 2.6521113
2.0957944 0.97486544 2.699136
2.1273034 0.97470069 2.677474
2.1687508 0.97934991 2.6541805
0.22926366 1.0241759 2.6772029
0.43426231 1.0213048 2.6945856
0.47161674 1.02882 2.6768
0.51582247 1.0250654 2.656775
2.125021 1.0260804 2.6846218
2.1707687 1.0343721 2.6657705
0.23074137 1.0730679 2.6789238
0.44043446 1.0789857 2.6973352
0.47229269 1.0738995 2.6805296
0.5144949 1.0778106 2.6581545
2.1270776 1.0785288 2.6865103
2.1666353 1.0795313 2.6648667
0.23172732 1.1323117 2.6785758
0.44253665 1.1253302 2.6983643
0.4763281 1.1225817 2.6817782
0.51358217 1.1293632 2.6619301
2.1333549 1.1262727 2.6862416
2.1772349 1.1209598 2.6608019
0.23180148 1.1724371 2.6825182
0.44428435 1.1710993 2.6965904
0.47738713 1.1747576 2.6828403
0.52290392 1.1758806 2.661274
2.1328526 1.1686354 2.6873074
2.1746666 1.1758512 2.6657178
0.22221106 1.2372855 2.6711776
0.47663546 1.2260213 2.6887507
0.52112788 1.2257104 2.6647234
2.1382041 1.2251198 2.6947472
2.1742857 1.2294139 2.6718421
2.2025814 1.2397163 2.6557133
0.21404472 1.2690529 2.6617405
0.47884735 1.2731043 2.6926119
0.52285677 1.2745137 2.6698277
0.55564296 1.277133 2.653471
2.1316125 1.2752737 2.6910279
2.1740978 1.2750541 2.67083
0.21566093 1.3200028 2.6674657
0.48558566 1.32643 2.6914506
0.52794576 1.3228323 2.6715236
0.55801249 1.3172599 2.6524251
2.1420441 1.3001829 2.6845088
2.1741099 1.3228567 2.6747055
2.2172065 1.3355505 2.6543252
0.21827182 1.3509574 2.6739502
0.49681422 1.3673025 2.6962945
0.52820575 1.3713729 2.6786468
0.5596168 1.3748207 2.6603596
2.1459813 1.3707912 2.696701
2.179713 1.3711652 2.6741645
2.2132969 1.3631157 2.6546209
0.19745064 1.4133124 2.6515374
0.21416561 1.418425 2.6920547
0.52975333 1.4230443 2.6875646
0.5717451 1.4234217 2.6600523
2.1749849 1.4204592 2.6816528
2.2163279 1.4271296 2.6573458
0.21522021 1.4606783 2.6915579
0.5308513 1.4681342 2.6892068
0.57430595 1.4769144 2.666431
0.60049409 1.4926296 2.65905
0.73052555 1.4542311 2.6605408
2.1493983 1.4591299 2.6992981
2.1718864 1.4770511 2.688036
2.2193646 1.4751158 2.6673036
0.20314844 1.5254093 2.6993144
0.54153365 1.5137177 2.6911035
0.57865757 1.5290768 2.6741023
0.60927057 1.5317091 2.6581435
2.1827357 1.5210532 2.6836209
2.227098 1.5274726 2.6614804
0.57502645 1.5771998 2.6873889
0.61940026 1.5812311 2.6631117
2.1865985 1.5713283 2.6904085
2.2177389 1.575483 2.6645052
0.57930219 1.6253721 2.6908977
0.62198824 1.6261314 2.666115
0.65565741 1.6304613 2.6544523
0.70977896 1.6479516 2.6897297
2.1827812 1.6244301 2.6895647
2.2273142 1.6252315 2.6661863
2.2540498 1.649979 2.6504297
0.57814282 1.6579413 2.6910582
0.62712872 1.6639801 2.6627641
0.65871358 1.667195 2.6528394
0.72305381 1.6667073 2.6708145
2.1897411 1.6790476 2.6917396
2.2275817 1.6816896 2.6709802
2.1857743 1.732571 2.696413
2.2222712 1.72541 2.6786091
2.2595477 1.7274718 2.6562464
-0.72864938 1.7779391 2.6644988
-0.68516576 1.7977897 2.6861219
2.1955822 1.7664692 2.6936107
2.2236595 1.7681007 2.6771753
2.2648816 1.7731625 2.6590655
-0.75946337 1.8264183 2.6516757
-0.7277199 1.8228406 2.6808176
-0.6733439 1.8213068 2.6937573
2.2271385 1.8264073 2.683728
2.270771 1.8198266 2.6620607
-0.75295168 1.8925362 2.65974
-0.73802501 1.8737123 2.6750758
2.2315321 1.8794467 2.6877141
2.2718282 1.8727318 2.6657057
-0.7557683 1.9224279 2.6564026
-0.73290467 1.9305402 2.6839545
2.2390215 1.9278355 2.6851969
2.282263 1.9259667 2.6660812
2.3046787 1.9273319 2.652463
-0.76228952 1.977363 2.6563146
-0.73828667 1.9777956 2.6813369
2.242877 1.9712976 2.6939528
2.2750771 1.9849991 2.6747768
2.3095188 1.9748578 2.6521652
-0.75355893 2.0257547 2.664227
-0.73215967 2.0225987 2.6898725
2.2402773 2.0299883 2.6963072
2.2727585 2.0263369 2.6773386
2.3131487 2.0390601 2.6534779
-0.75906706 2.0795124 2.6588414
-0.74063283 2.0780549 2.6831698
2.2798383 2.0795639 2.682219
2.3227262 2.0744319 2.654084
-0.75567842 2.1278327 2.6672466
-0.7383908 2.1252012 2.6940894
2.2480717 2.11747 2.698179
2.2768116 2.1349006 2.6828985
2.3084958 2.1319966 2.6586123
-0.75417173 2.1725864 2.6584311
-0.73816222 2.1757288 2.6820798
2.2715898 2.1840968 2.6863828
2.3082435 2.1768024 2.658253
-0.72301167 2.2058923 2.6932216
2.2394915 2.2366238 2.6944246
2.2788012 2.2297621 2.6772954
2.3139822 2.2188385 2.6549709
2.2297587 2.2713423 2.6897697
2.2705491 2.2677705 2.6668298
1.1843158 2.3110871 2.6929383
1.2303834 2.3190651 2.6857836
1.2781836 2.3189745 2.6781368
1.3197914 2.3278584 2.6751697
1.3676808 2.3301902 2.6794839
1.4235998 2.3353789 2.6799221
1.4737449 2.3311658 2.6752698
1.520815 2.3320196 2.6757188
1.5747236 2.3337424 2.6735895
1.6247871 2.3404884 2.673806
1.6704826 2.3382702 2.6858358
1.7248333 2.334029 2.6754906
1.7720093 2.3346493 2.6741674
1.8169787 2.3337739 2.677804
1.8711759 2.3326659 2.6752956
1.9302449 2.3367429 2.6778717
1.9749299 2.3381147 2.6737761
2.0217552 2.3323336 2.678236
2.0732102 2.3224747 2.6838162
2.1203301 2.3189521 2.6688757
2.1705797 2.3151994 2.6741908
2.2247245 2.3071523 2.6736832
2.2670131 2.3013568 2.6520827
0.99609268 -0.64082962 2.7221172
1.013445 -0.63618678 2.7292943
1.7793884 -0.61643153 2.7287765
1.806262 -0.6053412 2.7416534
0.98696274 -0.58848751 2.7471669
1.0021834 -0.58235556 2.7484615
1.8287692 -0.55751759 2.7218404
1.8429748 -0.5466519 2.7453661
1.8571743 -0.51594561 2.7404306
1.8688213 -0.46945849 2.733532
0.95459968 -0.42784014 2.7173202
1.885128 -0.42892873 2.7399085
0.95832437 -0.38859159 2.7321334
1.8924026 -0.38324255 2.7406013
1.9046379 -0.36851439 2.727103
1.9224671 -0.32701212 2.7320039
1.9630896 -0.3137078 2.7100899
1.9214058 -0.27339441 2.7397039
1.9666562 -0.27330589 2.7134786
1.9327475 -0.22560784 2.7329261
1.9689316 -0.22959784 2.7112925
1.9290274 -0.17359954 2.7376876
1.9741458 -0.17248124 2.7119231
1.9283348 -0.12117019 2.743
1.9731841 -0.12108517 2.7161808
1.9390869 -0.075644843 2.7445049
1.9747788 -0.075525366 2.7196503
1.9398664 -0.029950112 2.7462509
1.9771204 -0.029909452 2.7235329
1.9387634 0.023389939 2.7446656
1.9745122 0.023392476 2.7199223
1.9399214 0.076773524 2.745507
1.9752327 0.076689973 2.7201023
1.9421145 0.1226458 2.747261
1.9772158 0.12248095 2.7214663
1.9452376 0.17634624 2.749321
1.975289 0.17435932 2.7268283
2.0073957 0.18760213 2.7076809
1.9466438 0.23001711 2.7481632
1.9764121 0.22994696 2.7296948
2.0120971 0.22679691 2.7071555
1.9480218 0.27611288 2.7467325
1.9783247 0.27609015 2.7289128
2.0073004 0.2758961 2.7088864
1.9793333 0.321145 2.7323709
2.0194271 0.32581669 2.7088945
1.9708489 0.36939782 2.7398601
2.0151899 0.36771145 2.7193925
1.9730555 0.41595724 2.7376528
2.0144398 0.41350186 2.7144868
1.9399133 0.48458207 2.7426677
1.9464459 0.50934899 2.7485693
-0.62568277 0.66937244 2.7041345
-0.5802024 0.69446605 2.7136831
1.9396367 0.65101218 2.7459729
-0.56605613 0.71028811 2.7090726
0.34225982 0.74432552 2.7045131
0.37557891 0.74452227 2.702251
1.9812156 0.72798127 2.7278805
2.0000637 0.74922496 2.7187116
0.33825454 0.77699304 2.7212727
0.36667582 0.77615297 2.7108011
1.9837708 0.77538711 2.7369807
2.0217905 0.77239597 2.7126856
0.3393878 0.82664764 2.7209716
0.36737353 0.82606798 2.7110989
1.9874802 0.8176654 2.74054
2.0289063 0.82390577 2.7136312
0.26854348 0.87944514 2.7119122
0.34156799 0.87930918 2.7283678
0.37364087 0.87530512 2.7129138
1.9919249 0.86846906 2.7425365
2.0210218 0.87025231 2.7235432
2.0647833 0.86681139 2.7053943
-0.56121176 0.93223196 2.7089682
-0.5416373 0.94046885 2.7143905
0.26691842 0.92525542 2.7099571
0.33836198 0.92870343 2.73702
0.37652269 0.92483771 2.7133436
0.41299403 0.94082326 2.7023566
1.9995618 0.90346712 2.7446954
2.0203547 0.92269093 2.7330315
2.0648589 0.92454922 2.7119756
-0.55522037 0.96083587 2.7072659
-0.5426265 0.95584184 2.716033
0.27074027 0.97122753 2.7141702
0.33826059 0.9772383 2.7364373
0.3758283 0.97722119 2.718473
0.4099623 0.97584301 2.7047946
2.0267615 0.97232342 2.7324467
2.0680571 0.97304493 2.7095547
0.24773395 1.0384085 2.7068968
0.26815701 1.0257562 2.7200465
0.33967438 1.0293636 2.7356999
0.37910712 1.0247408 2.7196252
0.41498169 1.0273139 2.7028098
2.0326304 1.0231091 2.7354927
2.0742478 1.028929 2.7138608
0.2481631 1.067407 2.7042441
0.26311332 1.0729463 2.7173467
0.34091958 1.074455 2.7346573
0.3742801 1.0714269 2.7237961
0.41313735 1.0773419 2.7101672
2.0306089 1.0752095 2.7402055
2.0753956 1.0808444 2.7198482
2.1018059 1.0981458 2.701649
0.24914615 1.1126002 2.7034519
0.26535714 1.123456 2.7288642
0.33935946 1.1186091 2.7396591
0.3732084 1.1232666 2.7289753
0.41924691 1.1291609 2.7103648
2.0328145 1.1201179 2.7400849
2.0740492 1.124786 2.7200453
2.1107605 1.1271497 2.704653
0.25892574 1.1736486 2.7195871
0.33821926 1.1576566 2.7496943
0.37420142 1.1725384 2.7319605
0.41861302 1.1764305 2.711971
2.0409086 1.1709381 2.7464788
2.0747476 1.1702049 2.7223489
2.109973 1.1798687 2.7017145
0.23836729 1.222903 2.7079234
0.25666499 1.2172451 2.7206764
0.3787109 1.226981 2.7394092
0.42810765 1.2253703 2.7145393
2.044946 1.2253727 2.7446125
2.0772841 1.2252312 2.7233536
2.1125448 1.2267828 2.7053521
0.24075496 1.2770447 2.7213516
0.26324597 1.27756 2.7383258
0.38402781 1.273172 2.7420599
0.42914832 1.2746453 2.7201014
0.45778918 1.2861543 2.7035346
2.0332129 1.260865 2.7485812
2.0729842 1.27342 2.7338657
2.1111252 1.2706265 2.7097375
0.23782349 1.3149993 2.715976
0.25791779 1.3284954 2.7426546
0.38594303 1.3144574 2.7439392
0.4247373 1.3288467 2.7284207
0.46038118 1.321596 2.7090359
2.0769992 1.3176901 2.7327278
2.121727 1.3252532 2.7110209
0.23810986 1.379145 2.725389
0.25908434 1.369992 2.742527
0.38831514 1.3610125 2.7472997
0.42176801 1.3785707 2.733387
0.47282702 1.3781478 2.7137365
2.0753038 1.3755165 2.7367277
2.1211374 1.3791116 2.7100089
0.23812832 1.4285545 2.7262239
0.38985035 1.4021653 2.7451217
0.42911649 1.4241329 2.7360644
0.47472832 1.4280156 2.71895
0.50535375 1.4273211 2.7052276
2.0829818 1.4285896 2.7399414
2.1219611 1.4248025 2.7149296
0.23160692 1.4736496 2.7177253
0.43049935 1.4665086 2.746259
0.47318015 1.4761832 2.7232523
0.50826812 1.4785001 2.7037508
2.0860708 1.4784836 2.7413433
2.1234562 1.4776018 2.7207594
0.22850062 1.5169287 2.724699
0.44044444 1.5363116 2.7460177
0.47296256 1.5243107 2.7333066
0.52080548 1.5287199 2.7117908
0.55265319 1.5462571 2.7001154
2.0875859 1.5277088 2.7399807
2.124563 1.5224313 2.7188118
2.1521151 1.540143 2.7029307
0.22090642 1.5500038 2.7420013
0.48054025 1.566375 2.7325866
0.52205026 1.5734124 2.7137451
2.0916395 1.5708452 2.7454309
2.125891 1.5711204 2.723074
2.164042 1.5742201 2.7050598
0.47662234 1.6178532 2.7449024
0.52393454 1.6271825 2.7184536
0.55774522 1.6115799 2.7024255
2.1231005 1.6244286 2.7311029
2.1595473 1.6261915 2.7105906
0.48413149 1.6559708 2.7414064
0.52681065 1.6655694 2.7197978
0.57740885 1.6774045 2.7001295
2.0979247 1.6657228 2.7480102
2.1244998 1.680802 2.7363727
2.164782 1.6796706 2.7109802
2.1263835 1.718887 2.7354841
2.1677337 1.7233212 2.7125251
2.1219752 1.7688196 2.7395113
2.1686156 1.7657181 2.7109404
-0.70817792 1.8335834 2.7057631
-0.67183715 1.835857 2.706049
-0.64763504 1.8488785 2.7098308
2.1354687 1.8274215 2.7407699
2.175101 1.8215983 2.7162063
-0.7119959 1.8739821 2.7036448
-0.67450953 1.8749722 2.7093151
-0.6400395 1.878643 2.7408853
2.1387351 1.8798842 2.7417035
2.1762087 1.8818172 2.7199812
2.2203014 1.8982027 2.7002485
-0.70604169 1.9193428 2.7099528
-0.67260742 1.9301329 2.7170112
-0.64354891 1.9197923 2.7388918
2.142329 1.9263501 2.7421322
2.1742198 1.9296938 2.7222733
2.2194393 1.9373379 2.7036064
-0.71184701 1.9676868 2.7061412
-0.67482156 1.9771501 2.7154911
-0.64849633 1.9734002 2.7377613
2.1789658 1.9790825 2.7312622
2.2219024 1.9858394 2.7070286
-0.70917106 2.025563 2.7159498
-0.66990077 2.0300367 2.7237642
-0.64032483 2.0435181 2.7446518
2.1773677 2.0232553 2.7318633
2.2193391 2.0358031 2.7153709
-0.71304286 2.0731196 2.7141094
-0.6757713 2.0776789 2.72193
-0.64576769 2.0926054 2.748477
2.178653 2.075994 2.7367706
2.2228508 2.0819271 2.7128038
-0.71601719 2.1211753 2.7094781
-0.67418951 2.1211812 2.7183461
-0.64710683 2.1287239 2.7339916
2.1786995 2.1210809 2.7381554
2.2191787 2.1321797 2.7189317
-0.71713507 2.1682277 2.7086945
-0.68009514 2.1767743 2.7159967
-0.64335787 2.1747713 2.7327726
2.1825993 2.179616 2.7375581
2.2223382 2.1753614 2.7142701
-0.70372534 2.220638 2.7165949
-0.667633 2.2076366 2.7074547
-0.62728059 2.2166235 2.7349582
0.72085941 2.2488699 2.7494526
2.1401939 2.2384605 2.7429709
2.1705434 2.2227981 2.7324202
2.2180631 2.2243826 2.7103457
0.86924767 2.2748969 2.7470105
0.96982336 2.2985148 2.7494097
1.0356399 2.2968237 2.7264628
2.1328661 2.2850912 2.734659
2.1775441 2.2781253 2.7102017
2.203563 2.256099 2.7084699
1.0243192 2.3087957 2.7460895
1.0743195 2.3084478 2.7290761
1.1228276 2.3139284 2.7370839
1.1663808 2.3219306 2.735682
1.2261578 2.3260841 2.7329719
1.2703185 2.3207707 2.7261696
1.325503 2.3227975 2.7336078
1.3713319 2.3206689 2.723793
1.4296064 2.333483 2.7311487
1.4709812 2.3244171 2.7273157
1.5307462 2.3238752 2.7227912
1.5776157 2.3305449 2.7230847
1.6216701 2.3237207 2.7238364
1.6809671 2.3264513 2.7228031
1.7218357 2.3207567 2.7221763
1.7774329 2.3267324 2.7212615
1.8324722 2.3267322 2.7209668
1.8758706 2.322727 2.7206717
1.9235461 2.3233206 2.7253466
1.9782445 2.3208733 2.7202251
2.0263233 2.316071 2.7262185
2.0737319 2.30983 2.7300997
2.1287627 2.3105676 2.7178285
1.0532598 -0.65227222 2.7945998
1.0199573 -0.62090892 2.7929282
1.0557394 -0.64511579 2.760216
1.7883965 -0.60700232 2.7606611
0.98787045 -0.56130463 2.7537007
1.0259767 -0.56834739 2.7602985
1.0508138 -0.57229912 2.7580819
1.7824868 -0.57718521 2.7720106
1.8178819 -0.57286221 2.7599766
0.9898333 -0.52073467 2.7647848
1.0210863 -0.52249217 2.7671025
1.0613525 -0.5216096 2.779494
1.7732855 -0.5217244 2.7868943
1.8238608 -0.52384549 2.7694082
0.99230498 -0.47331664 2.7777119
1.0234525 -0.47482628 2.7795994
1.0599431 -0.48063311 2.7842972
1.7817063 -0.47539395 2.7935071
1.824632 -0.47183415 2.7746303
1.8626517 -0.47179553 2.7548809
0.99272025 -0.42474085 2.7842569
1.0235616 -0.42599952 2.7853587
1.0565839 -0.43504879 2.7908642
1.7881019 -0.42181846 2.7943799
1.8256893 -0.42727944 2.7775545
1.8676374 -0.42279014 2.7561429
0.98330307 -0.3788172 2.7761965
1.0200944 -0.38521409 2.7882972
1.7951853 -0.38365799 2.7939906
1.8306408 -0.38008821 2.7790995
1.8687717 -0.37594002 2.7621744
1.7342469 -0.3066726 2.7745147
1.7985557 -0.32653823 2.7969303
1.8302712 -0.3267504 2.7836792
1.8786011 -0.32486624 2.7614367
1.7552485 -0.26377621 2.7959814
1.8297276 -0.27339977 2.7872434
1.8762817 -0.27350554 2.7650592
1.7547333 -0.23351943 2.7971678
1.8314868 -0.22964379 2.7890649
1.8762038 -0.22782877 2.7681036
1.906689 -0.22781479 2.7519786
1.8353564 -0.17708735 2.7914028
1.8741612 -0.17437313 2.7680254
1.9054021 -0.1769716 2.7529478
1.8437519 -0.12522818 2.7934561
1.8752531 -0.12121529 2.7718039
1.905126 -0.12115973 2.7548752
1.8472093 -0.075690992 2.792326
1.8764144 -0.075622208 2.7747188
1.9155278 -0.075638719 2.7559927
1.8430277 -0.033793449 2.7942705
1.8767028 -0.029955395 2.7757709
1.9155632 -0.029939553 2.7566869
1.8489259 0.015730789 2.7955878
1.875801 0.025123198 2.7790949
1.9158689 0.023375878 2.7571027
1.8498212 0.092015997 2.7957611
1.8743005 0.075370073 2.782531
1.9179443 0.076787062 2.7593031
1.8478137 0.10715605 2.792295
1.876616 0.1240577 2.7845678
1.9187102 0.12258963 2.7590668
1.8751248 0.17479202 2.7874415
1.9189442 0.17881086 2.7619736
1.8710806 0.23007689 2.7905924
1.9167573 0.2300757 2.7659433
1.8726431 0.27623162 2.7896624
1.9196402 0.27641037 2.7667763
1.8761692 0.32279456 2.7910411
1.9231644 0.32298362 2.76789
1.9547263 0.33082503 2.7514684
1.8872747 0.36952245 2.7876282
1.9244576 0.36930692 2.7651987
1.8901892 0.42094135 2.7884939
1.92685 0.42591983 2.7669375
1.8820097 0.47933441 2.7947783
1.9202534 0.47734088 2.7707171
1.8844804 0.52679694 2.7949944
1.9213643 0.52632874 2.7715864
1.8886141 0.57449859 2.7939014
1.9264652 0.57425678 2.7715938
1.8920368 0.62217063 2.7910738
1.9297068 0.62181044 2.7682447
1.8848282 0.67426693 2.79459
1.9193194 0.67021686 2.7755823
1.8869116 0.71567589 2.7945335
1.9254392 0.71922308 2.7750449
1.9566451 0.72704643 2.7558737
1.924427 0.76882082 2.779103
1.9628243 0.76853174 2.7559702
1.9256471 0.81681252 2.7798638
1.9628471 0.82132322 2.7566783
1.9283842 0.87122327 2.7840772
1.9696869 0.86908597 2.7583854
0.33359864 0.90787458 2.7726924
1.9249231 0.92050159 2.7885375
1.9698868 0.92023212 2.7617402
1.9313016 0.97229546 2.7886331
1.9769568 0.9702763 2.7628059
2.0000041 0.99074042 2.7541027
1.9319845 1.0246855 2.7916868
1.9723096 1.0248923 2.769217
2.0055609 1.0255498 2.7520254
1.9378431 1.0736209 2.7895846
1.9763559 1.0780241 2.7704773
2.0115137 1.0850424 2.7537079
1.9422501 1.1232671 2.794847
1.9720365 1.1290729 2.774564
2.0158904 1.1280612 2.7577207
0.33110714 1.1770765 2.7653263
0.35364011 1.1905274 2.7515571
1.9466348 1.1500884 2.7930365
1.9791042 1.176608 2.7829583
2.0158699 1.1705323 2.760561
0.27062753 1.2371585 2.7554495
0.33443627 1.2251735 2.7595968
0.35450283 1.214499 2.7517531
1.9770277 1.2236955 2.7806559
2.0190055 1.2244613 2.7577934
0.27062425 1.2512059 2.7509136
0.33675739 1.276229 2.765033
0.3570343 1.2727 2.755496
1.9862884 1.2708644 2.7855535
2.019299 1.283258 2.7599742
0.27437204 1.3327012 2.767592
0.33855042 1.3257953 2.7653606
0.36474013 1.3254151 2.755218
1.9845179 1.3217959 2.7877402
2.0292916 1.3235055 2.7613263
2.0537672 1.3315074 2.7532372
0.2763609 1.3782921 2.7750158
0.34110543 1.3789009 2.7710705
0.37179884 1.3768669 2.759177
1.982857 1.3730466 2.7914507
2.0264404 1.3806529 2.7703388
0.24677353 1.4162902 2.7514644
0.2687383 1.4236381 2.7710304
0.32802936 1.422302 2.7840486
0.37237397 1.4272711 2.7664022
0.40691262 1.4405544 2.7514622
1.9914665 1.4287271 2.7979045
2.0216038 1.4264644 2.7730157
2.0553994 1.4268057 2.7527132
0.24817106 1.4674888 2.7505836
0.27415112 1.4719139 2.7835414
0.33327276 1.4732947 2.7880719
0.37147087 1.4715579 2.7745669
0.41484693 1.4902306 2.7566979
1.9878533 1.4656327 2.7949023
2.0306268 1.475697 2.7759588
2.0656044 1.483035 2.7537093
0.24985898 1.5209433 2.7519839
0.26582167 1.507478 2.7749541
0.33412629 1.5202534 2.7932122
0.37785399 1.5223736 2.7793996
0.42372313 1.5230628 2.7596543
1.9940922 1.5270734 2.797606
2.0303092 1.5253783 2.7819245
2.0610552 1.526777 2.7548141
0.3434864 1.558766 2.7970243
0.38012433 1.5650083 2.7883706
0.42045701 1.5739337 2.7643468
0.45931181 1.5876201 2.7546687
2.0290091 1.5739148 2.7884631
2.0657938 1.5705295 2.7614722
0.38417524 1.6171837 2.7892675
0.42762062 1.6273941 2.7663696
0.46245927 1.64292 2.7539489
2.0296543 1.619413 2.786901
2.0739377 1.6264985 2.7625642
0.3933455 1.6635156 2.7971921
0.43069831 1.6636947 2.771863
0.46305063 1.6598473 2.7507391
2.035459 1.6782287 2.7884989
2.0742617 1.675967 2.7631245
2.0397174 1.7296703 2.7879136
2.0743339 1.7232739 2.7647321
2.0331829 1.7780083 2.7923598
2.0778241 1.7812939 2.769321
2.0348539 1.8303386 2.7988641
2.073817 1.8338857 2.7816811
2.1061015 1.8314866 2.7549365
-0.62922442 1.8999321 2.7593355
2.0441928 1.8651252 2.7965252
2.0755029 1.8784417 2.7808998
2.1145594 1.8822041 2.7550256
-0.62021518 1.9258038 2.7679477
-0.59444165 1.9201913 2.7799211
2.0730875 1.9211715 2.7822356
2.1182683 1.9286568 2.7635055
-0.62310362 1.9758621 2.777735
-0.59179688 1.9603003 2.7923326
2.0798774 1.9696764 2.7868137
2.1234298 1.9772767 2.7656605
-0.62508452 2.0255075 2.7762835
2.087182 2.02122 2.7840691
2.1310449 2.0288243 2.7704957
2.1507359 2.0394418 2.7546079
-0.6240527 2.0731091 2.7784271
2.0864387 2.0742469 2.7957287
2.1221437 2.0738063 2.7710409
2.1587965 2.0652134 2.7530916
-0.62340724 2.1281846 2.7785058
2.0883346 2.1216145 2.7923906
2.127779 2.1246943 2.7721882
2.1566315 2.1262374 2.7556458
-0.62143993 2.1726325 2.771122
-0.59657931 2.1923614 2.7964945
2.0933566 2.1635168 2.7989004
2.1220005 2.1739659 2.7759588
2.1596186 2.174943 2.7524085
-0.61562926 2.2101595 2.7632008
-0.57958013 2.2219288 2.7743356
-0.53189659 2.2356944 2.7809625
-0.47361469 2.2313983 2.7794437
-0.43319488 2.2357769 2.7826538
-0.37555882 2.2301772 2.7824602
-0.32752478 2.2329378 2.7909966
-0.27091742 2.2330427 2.7961102
-0.23750301 2.2230451 2.7860324
-0.18138388 2.2260611 2.7932885
-0.12508999 2.2286301 2.7990673
-0.092644051 2.2248514 2.7953532
0.13327625 2.2295938 2.7999892
0.24655609 2.2316074 2.7962193
0.29474297 2.2292674 2.7894278
0.32796401 2.2355678 2.7943377
0.36110845 2.2402625 2.7969096
0.53952885 2.2399247 2.7725837
0.57301188 2.2440147 2.7721753
0.62644249 2.2444248 2.7951324
0.68515903 2.2455637 2.7743502
0.70458168 2.2489033 2.753041
2.0499637 2.2495415 2.7996166
2.0755882 2.2289705 2.7919652
2.11919 2.2192936 2.7734799
0.57526654 2.2528043 2.7830744
0.62474281 2.254667 2.7765198
0.66513342 2.2570331 2.782481
0.73232144 2.2593827 2.784924
0.77917022 2.2681897 2.7775347
0.82682961 2.274014 2.7701957
0.86888933 2.2790241 2.7859023
0.91981727 2.2900021 2.769695
0.96788466 2.2912021 2.7657864
1.0612427 2.2996039 2.7562857
2.0272312 2.2823365 2.7959669
2.073509 2.2760324 2.7724068
2.1146472 2.2592642 2.7593458
0.99009627 2.3069675 2.7544215
1.0179774 2.3084819 2.7706716
1.0817292 2.3123045 2.7753596
1.1239122 2.3082221 2.781821
1.1823775 2.3095188 2.7770197
1.2253177 2.314981 2.7721324
1.269558 2.3213618 2.7729549
1.3226999 2.3190143 2.7758176
1.3750286 2.3260376 2.7825367
1.4285686 2.3272288 2.7759726
1.476548 2.3207996 2.7773242
1.5245694 2.3186724 2.7709546
1.5767678 2.3187027 2.7685483
1.622048 2.3190787 2.7831161
1.6692245 2.3248017 2.7778182
1.7283492 2.3251965 2.7777295
1.7762064 2.3216052 2.7771096
1.8237321 2.3187017 2.770844
1.8770816 2.3130493 2.7735767
1.9301462 2.3103371 2.7768209
1.9725235 2.3080454 2.7692106
2.0228004 2.3047705 2.7657218
1.0258439 -0.63866109 2.8066807
1.0713665 -0.64905941 2.8449657
1.6423911 -0.51543438 2.8388634
1.6773005 -0.50767803 2.8344293
1.724865 -0.50215513 2.8176756
1.0793517 -0.47397566 2.8059053
1.690087 -0.47263494 2.8444736
1.7283074 -0.47263125 2.8272069
1.7647979 -0.46952972 2.8101642
1.0667295 -0.41088751 2.820622
1.6975684 -0.4268285 2.8462248
1.7277884 -0.42673159 2.8318205
1.7644528 -0.42636284 2.8116066
1.0580113 -0.38452721 2.841691
1.6912944 -0.38430339 2.8482211
1.7248352 -0.38032377 2.8318694
1.7671797 -0.37808496 2.8092282
1.7239251 -0.32684413 2.8353291
1.7699051 -0.33377221 2.8059213
1.7328677 -0.27507174 2.8328221
1.7822495 -0.27314046 2.8068521
1.7336349 -0.22818182 2.8425004
1.7722396 -0.22773828 2.8176122
1.8056488 -0.21778609 2.8055944
1.7398307 -0.17957199 2.8456182
1.7775772 -0.17530207 2.8241887
1.8112104 -0.16695735 2.8038645
1.7433865 -0.12166411 2.8473139
1.776413 -0.12311475 2.8307054
1.8169471 -0.11707085 2.8068268
1.7423095 -0.083454937 2.8465753
1.7745132 -0.075885668 2.835187
1.8175114 -0.075743921 2.8087397
1.7748708 -0.03010021 2.8363609
1.8165518 -0.028131429 2.8117826
1.7752866 0.023341404 2.8369997
1.8186622 0.023335485 2.8111122
1.777338 0.076881461 2.8395367
1.8202 0.076775759 2.8127353
1.7794592 0.1228912 2.8416591
1.8211163 0.12263302 2.8128726
1.7806969 0.176598 2.8414345
1.8234347 0.17631428 2.8142073
1.7817996 0.23035166 2.8402572
1.825974 0.2301525 2.8151436
1.7761116 0.26896435 2.8445029
1.822577 0.27674016 2.8223531
1.7850783 0.32449502 2.8344867
1.8297009 0.32269308 2.8138497
1.7852652 0.36597902 2.8429093
1.8246247 0.36827281 2.8217072
1.8611991 0.37351361 2.8024843
1.7862566 0.42788774 2.8436341
1.822369 0.42429423 2.8236392
1.8614826 0.42445669 2.8050952
1.7934064 0.475878 2.8435547
1.8277056 0.47963837 2.8252244
1.8613346 0.47936168 2.8059006
1.7862945 0.53519142 2.8483779
1.8234271 0.52700382 2.8279848
1.8616643 0.52689642 2.8077164
1.7899097 0.57511306 2.8482888
1.8250848 0.57324558 2.8280816
1.862411 0.57865191 2.808908
1.7935225 0.62297267 2.8464396
1.8227319 0.6223399 2.8281248
1.8621358 0.62253988 2.8091736
1.7977403 0.67124242 2.8448784
1.8279116 0.67088622 2.8278027
1.8635776 0.66716325 2.8066392
1.8228382 0.71815985 2.8315959
1.8647792 0.72615498 2.8100996
1.82515 0.76985425 2.8369422
1.8719218 0.7697466 2.8122349
1.8305634 0.81938314 2.8349457
1.8772237 0.81916928 2.8096011
1.8305634 0.87037736 2.8400714
1.8723249 0.86839277 2.816916
1.9008839 0.87003237 2.8015506
1.8317335 0.91787136 2.8375552
1.8760444 0.9207949 2.8164949
1.9103634 0.9220472 2.8032701
1.8400304 0.96841216 2.8394513
1.8756931 0.97233212 2.8192947
1.9026939 0.98987973 2.8065908
1.8409423 1.0251448 2.8427505
1.87767 1.0255582 2.8248725
1.9083133 1.0248343 2.8055398
1.8744122 1.0775043 2.8322239
1.9113443 1.0814006 2.8073056
0.32972336 1.1487387 2.8053534
1.8478849 1.1328218 2.8489821
1.877502 1.1231362 2.8303092
1.9172202 1.1227798 2.8072929
1.874915 1.1667831 2.8374956
1.9206796 1.1701903 2.8151526
1.9562912 1.17207 2.8013179
1.8803123 1.2243521 2.8376617
1.9278126 1.2271831 2.8144863
1.8810205 1.2771647 2.8423266
1.9262159 1.27592 2.8182111
1.9568939 1.2725575 2.802484
1.8900357 1.3203673 2.8445985
1.9223824 1.3217787 2.8246
1.9565158 1.318898 2.8026142
0.32291412 1.3860633 2.804611
1.8982334 1.3797891 2.8487759
1.9257901 1.3798326 2.8278675
1.9624921 1.378332 2.8078411
1.9231353 1.4275259 2.8345604
1.9627776 1.4260588 2.8075714
0.32582515 1.479134 2.800025
1.8977909 1.4754739 2.8475578
1.927011 1.4765218 2.8336644
1.9673328 1.4841644 2.8096757
1.9307077 1.5258706 2.8371181
1.9705074 1.5283771 2.8152008
0.33433893 1.5789714 2.809535
0.36518082 1.5846758 2.8032978
1.9323282 1.5759622 2.8414969
1.9712113 1.5694275 2.817467
2.0048213 1.5607258 2.8006926
0.33985752 1.621056 2.810117
0.36642581 1.6341698 2.80603
1.9374547 1.6225978 2.8433509
1.974013 1.6211327 2.818114
2.0027981 1.6322746 2.8029299
0.34382719 1.6628122 2.8333445
0.37913063 1.6668903 2.8044252
1.945155 1.6756032 2.8422298
1.9779054 1.6742864 2.8195708
2.0104568 1.6642483 2.8006387
1.9405162 1.7297229 2.8486729
1.970605 1.7230688 2.8293347
2.0138054 1.7168903 2.8074443
1.9454508 1.7601466 2.8422031
1.9769211 1.7751768 2.8260236
2.0116763 1.7738259 2.8086672
1.9821467 1.8301001 2.8310671
2.0167718 1.8297935 2.8090515
1.985003 1.8761041 2.8330646
2.0201571 1.8760818 2.8112605
-0.57623845 1.9450132 2.804213
1.9904337 1.9251138 2.8381696
2.0206552 1.9217535 2.8171201
2.0518606 1.9418145 2.8109891
-0.58979893 1.9878526 2.8171716
1.9855906 1.9733973 2.8462217
2.0199513 1.9721351 2.822325
2.0571923 1.9736791 2.8018889
-0.60052496 2.0290132 2.8108234
-0.58688927 2.0209398 2.8336291
1.990167 2.0228045 2.8411255
2.0276206 2.0172381 2.8191817
2.0687866 2.0295405 2.8132
-0.60514295 2.0847137 2.8087547
-0.59112531 2.0757504 2.8306706
2.024215 2.0679698 2.8279641
2.0617321 2.0766811 2.8086579
-0.60603327 2.1038456 2.8031433
-0.58798063 2.133842 2.8315122
2.0229199 2.1197016 2.830735
2.0619884 2.1225557 2.8114214
-0.57841885 2.1802804 2.8235655
2.022984 2.1736498 2.8349445
2.0648682 2.1715915 2.8091011
-0.5569675 2.2124062 2.8189609
-0.51969707 2.2248917 2.8238277
-0.47301021 2.2295527 2.8199079
-0.42309409 2.2279363 2.8180299
-0.37029982 2.2226181 2.8204143
-0.31960636 2.2293432 2.8274052
-0.27617773 2.2265916 2.8312352
-0.22016576 2.2334583 2.8189838
-0.17057563 2.230495 2.8227177
-0.12616062 2.2381759 2.829704
-0.073855199 2.2320635 2.8234496
-0.028410405 2.2352808 2.8251078
0.020351684 2.236903 2.8272324
0.069151871 2.2373497 2.8271637
0.11489457 2.2387307 2.8308144
0.17167054 2.2420204 2.8272669
0.22452085 2.2427661 2.8326149
0.2777248 2.2385964 2.8213639
0.33086368 2.2454739 2.8254378
0.3746314 2.2456009 2.8231919
0.48617971 2.2411134 2.8352392
0.53336161 2.2426283 2.8280416
0.57955831 2.2366493 2.8256278
0.63118184 2.2366159 2.8326254
0.68137604 2.2389019 2.8260062
0.72399575 2.2347183 2.8280818
0.76052576 2.2448838 2.8336883
1.9797429 2.2341576 2.8465693
2.0251477 2.2148643 2.8216183
2.063149 2.2070513 2.8063641
0.39773539 2.2557826 2.8282993
0.43259311 2.2583284 2.8432302
0.48108226 2.2638452 2.8246248
0.51797867 2.2584789 2.8102684
0.74932092 2.2528505 2.8136671
0.77626067 2.258944 2.8156152
0.82308507 2.2652376 2.8295863
0.87786198 2.2773843 2.8320267
0.92758715 2.2856514 2.8263626
0.97578198 2.2903678 2.8223972
1.0212452 2.2933397 2.8214862
1.0596225 2.2988806 2.8258257
1.1182785 2.2974625 2.8401759
1.9297385 2.2944024 2.831836
1.9761548 2.2769728 2.8260148
2.0222971 2.2590542 2.8189876
1.0367824 2.3029897 2.8036127
1.0765553 2.3071446 2.8140676
1.1307327 2.3050916 2.8107326
1.1736515 2.309541 2.828934
1.2280196 2.3105545 2.8195503
1.2780586 2.3121095 2.8149445
1.321141 2.3173175 2.8207636
1.375544 2.3154821 2.823878
1.4262158 2.3181379 2.8251927
1.468137 2.3128293 2.8218913
1.5194336 2.3119237 2.8258364
1.5651915 2.3191648 2.8257346
1.6191965 2.311801 2.8241372
1.6797785 2.3142781 2.8280177
1.7247531 2.3159604 2.8173871
1.7733095 2.3142877 2.8307886
1.8313633 2.3094666 2.8292003
1.8873166 2.3058646 2.8319654
1.9069742 2.3062563 2.8061357
1.9735935 2.3017006 2.8027527
1.1200302 -0.67542154 2.885921
1.2393526 -0.69938958 2.8922186
1.2555112 -0.69187713 2.8520396
1.5853741 -0.50387824 2.8899918
1.6203617 -0.5028581 2.8684871
1.6504062 -0.50270647 2.8547444
1.5945692 -0.47376791 2.8934743
1.6222899 -0.47292152 2.8757265
1.6590018 -0.47249413 2.8569553
1.5945601 -0.43554282 2.8978672
1.6233836 -0.42741802 2.8829551
1.6668839 -0.42679891 2.8593919
1.6225454 -0.37375578 2.8868847
1.6686563 -0.3697007 2.8655841
1.6279315 -0.32269618 2.8914332
1.6749624 -0.32009223 2.8671446
1.6306 -0.27457199 2.8926296
1.6736875 -0.27410236 2.8684366
1.7112278 -0.27399343 2.8506479
1.6398174 -0.22896461 2.8951442
1.6759609 -0.22866522 2.8752728
1.7124071 -0.22841386 2.8556006
1.6410313 -0.19088964 2.8993113
1.6772115 -0.1753512 2.8801444
1.7201594 -0.17186587 2.8575745
1.6757048 -0.12330351 2.8840091
1.7223856 -0.11988916 2.8609025
1.6739352 -0.074554943 2.8875518
1.7191719 -0.075948298 2.8620312
1.6755911 -0.030204479 2.8865907
1.7251785 -0.031551175 2.8628027
1.6825762 0.020806709 2.8876481
1.7250978 0.02487104 2.8638303
1.6817074 0.076995499 2.8909044
1.724394 0.076875366 2.8651571
1.6825714 0.12303332 2.8911686
1.7258286 0.12286126 2.8663034
1.6861265 0.17365552 2.8929429
1.7269473 0.17517798 2.8693268
1.7505873 0.19961056 2.8555343
1.6853203 0.22649296 2.8935218
1.7225885 0.23060189 2.8720987
1.7512803 0.23034739 2.8548782
1.6885415 0.27732894 2.8933852
1.7253883 0.27708721 2.8736641
1.7654705 0.28328222 2.8550258
1.6909539 0.32394812 2.8938978
1.7284713 0.32378691 2.8751438
1.7621268 0.31976944 2.8579862
1.6890993 0.37446514 2.8944468
1.7250916 0.36905003 2.8772485
1.7679342 0.37361583 2.8576264
1.6893954 0.42565498 2.898021
1.7219672 0.42371368 2.8822076
1.7611045 0.42528024 2.862062
1.6930119 0.48080596 2.8978443
1.7229955 0.48054191 2.8823576
1.767401 0.48247528 2.8614304
1.6953197 0.51249599 2.8977976
1.72769 0.52845639 2.8840127
1.7672986 0.52549535 2.8607557
1.6990467 0.56028521 2.8976316
1.7256619 0.57766765 2.885602
1.7666107 0.57510304 2.8593915
1.7225231 0.62270463 2.8878622
1.7664509 0.6256488 2.8634875
1.7242913 0.67297357 2.8892024
1.7688448 0.67210096 2.8635929
1.7289923 0.72185975 2.8883655
1.7742544 0.72116542 2.8635073
1.7336171 0.77098048 2.886728
1.7781023 0.76983869 2.8601854
1.7349472 0.81861079 2.8929937
1.773078 0.81887448 2.8685913
1.8009779 0.82811141 2.8519573
1.7393814 0.87217504 2.8922968
1.7767853 0.87111849 2.8699553
1.8072238 0.87055397 2.8525836
1.7380743 0.92324632 2.8955595
1.7739391 0.92092913 2.8752725
1.8110266 0.93324089 2.8550961
1.7450122 0.97486848 2.8948681
1.7748581 0.9737373 2.87621
1.8150321 0.97392017 2.8570554
1.7739059 1.0254892 2.8833933
1.8189626 1.0297099 2.860199
1.7455485 1.0970663 2.8984478
1.7765348 1.0802029 2.8856494
1.8243463 1.0799203 2.8607814
1.7490455 1.115428 2.8993855
1.7827597 1.124426 2.8835285
1.8274523 1.1224785 2.8604474
1.7831507 1.1704338 2.8884046
1.8221602 1.1694211 2.865495
1.8574057 1.1793277 2.8503065
1.7900705 1.2226461 2.8933699
1.8280541 1.2275572 2.8701332
1.8649125 1.2085825 2.8535156
1.7884817 1.2759863 2.8944104
1.8275777 1.2738227 2.8772075
1.8566203 1.2712309 2.8542609
1.7884566 1.3073483 2.8960953
1.8235142 1.3244441 2.8850763
1.862197 1.322026 2.8645499
1.8256874 1.3793433 2.8862503
1.8762912 1.3769891 2.8604271
