ply
format ascii 1.0
comment PCL generated
element vertex 1525
property float x
property float y
property float z
element camera 0
property float view_px
property float view_py
property float view_pz
property float x_axisx
property float x_axisy
property float x_axisz
property float y_axisx
property float y_axisy
property float y_axisz
property float z_axisx
property float z_axisy
property float z_axisz
property float focal
property float scalex
property float scaley
property float centerx
property float centery
property int viewportx
property int viewporty
property float k1
property float k2
end_header
1.7418293 -0.40064332 2.3599877
-0.83685309 -0.37837771 2.3634591
0.81005096 -0.37370324 2.3790619
0.81249338 -0.33317208 2.3904502
1.8340509 -0.32044995 2.3885324
2.3735695 -0.31489319 2.3727586
2.5430932 -0.30841425 2.3521404
2.3343835 -0.28103998 2.3506894
2.3711929 -0.2620157 2.3758731
2.5202637 -0.28122237 2.3528497
0.70854867 -0.21564418 2.3695483
2.3904524 -0.23008169 2.3745515
0.68550098 -0.17051926 2.3817427
0.71281755 -0.17585284 2.3860145
2.5606601 -0.15370511 2.3524039
0.68190289 -0.12280378 2.3882997
0.71479493 -0.12342339 2.3948562
2.3834085 -0.12704527 2.3833842
2.5341017 -0.12220574 2.358207
2.5615666 -0.12276024 2.3547673
0.68422151 -0.081886187 2.3904841
0.71852642 -0.085288204 2.3980119
2.3856962 -0.089421891 2.3871973
2.4224088 -0.0744716 2.3673332
2.4898038 -0.067681581 2.3614392
2.5266795 -0.065584928 2.3627455
2.5810194 -0.073429808 2.3568549
2.527549 -0.029774679 2.3832903
2.5752206 -0.029830884 2.3580923
2.5296669 0.016712513 2.3894799
2.5749941 0.026745759 2.3667459
2.6184082 0.048286166 2.3503735
-0.83935106 0.07722149 2.3900511
2.5388319 0.078953229 2.3928614
2.5779462 0.079258695 2.371002
-0.83360934 0.12384505 2.3723083
2.5418549 0.12576555 2.3938868
2.5765662 0.12608147 2.3715293
2.6008677 0.12644719 2.3610551
-0.82837433 0.16404419 2.3556879
2.5437977 0.17261653 2.3930922
2.5759261 0.17079902 2.3731377
2.6043272 0.18145357 2.3609796
2.5468929 0.21963431 2.3925743
2.5791395 0.22043103 2.3787689
2.6202507 0.22459781 2.3603857
-0.82950103 0.28740376 2.3507226
2.5479894 0.25874686 2.3901501
2.5735767 0.27614763 2.3797925
2.6234465 0.26880518 2.3562465
2.5811975 0.32794327 2.3814299
2.6306953 0.32830217 2.3582942
-0.83714044 0.39623734 2.3991313
2.5393479 0.36118683 2.3995802
2.5744405 0.37859967 2.3862636
2.6134644 0.37976789 2.3632619
2.6505234 0.38173923 2.3523681
-0.82999063 0.42257917 2.3750749
2.5486977 0.42536879 2.3993158
2.5827277 0.42715895 2.3868968
2.6211915 0.42834854 2.3631308
-0.82757264 0.47477221 2.3610957
2.5876961 0.47538874 2.3836157
2.6249325 0.47675982 2.3614743
-0.81716383 0.52914518 2.3602929
-0.78817016 0.54210949 2.3608503
2.5851221 0.52389663 2.3872595
2.6226361 0.52563673 2.3673201
2.6529229 0.53600645 2.3584478
-0.81778967 0.57735926 2.3577344
-0.78045058 0.59369856 2.3546445
2.5841229 0.57294339 2.3915377
2.6262758 0.57528597 2.370816
2.6554987 0.57648581 2.352546
-0.81994635 0.62867409 2.3612361
-0.78409398 0.61845791 2.3707829
-0.65626854 0.63548225 2.398962
2.5798552 0.6214605 2.3919954
2.6241629 0.6244936 2.3731411
2.6666296 0.62705374 2.3517637
-0.81737316 0.67732477 2.3621879
-0.78041202 0.67576671 2.3644507
-0.6540308 0.67717415 2.3824074
-0.62603807 0.69512224 2.3918982
-0.39630303 0.68125015 2.3761313
2.5847795 0.67547768 2.3916833
2.6219623 0.67393321 2.3746555
2.6516714 0.67542368 2.3567581
-0.82048362 0.72986764 2.3606133
-0.78032738 0.72562832 2.3553829
-0.65768552 0.70894819 2.3901079
-0.61972648 0.72071934 2.3654752
-0.57395375 0.72811526 2.3648441
-0.53738678 0.72592807 2.3677139
-0.4766086 0.734505 2.3772197
-0.42230001 0.72373986 2.3798418
2.5859919 0.71622497 2.3953855
2.6240952 0.72623956 2.3749051
2.6620579 0.72643846 2.3536184
-0.81788915 0.77941358 2.3564525
-0.78781277 0.77900994 2.3605154
-0.63056505 0.7562868 2.3719516
-0.5685361 0.77630073 2.3958187
-0.52485168 0.7769838 2.3640847
-0.47546107 0.7779212 2.3545823
-0.38971457 0.76180178 2.3945608
0.096759781 0.78554565 2.3707833
0.10975303 0.79474556 2.3981998
2.5908346 0.77262497 2.3953578
2.6260631 0.77264839 2.3769622
2.6577675 0.77664042 2.3564312
-0.82046843 0.82744455 2.3572602
-0.78627551 0.82611966 2.3706627
-0.36521816 0.83163965 2.3762085
0.094596952 0.81834549 2.3835649
2.6230268 0.82596737 2.3808246
2.6725912 0.83015829 2.3578825
-0.82370412 0.87608528 2.367213
-0.78325248 0.87193811 2.3649747
-0.60971987 0.86780572 2.3892255
0.078006454 0.87217671 2.3757594
2.588356 0.85747486 2.3992333
2.6211863 0.87658501 2.3792021
2.6676471 0.88129574 2.3609028
-0.82960546 0.92587608 2.3673916
-0.78978753 0.92223614 2.3729446
0.074366294 0.92764902 2.3730283
2.6220007 0.92705667 2.383502
2.6701827 0.92841518 2.3560534
-0.82779634 0.97545522 2.3733859
-0.78790873 0.96744746 2.3758273
-0.35924116 0.97840524 2.3819664
-0.34898037 0.99566537 2.392158
0.093535304 0.97147119 2.3731866
2.6229856 0.98259598 2.3882563
2.6586552 0.96689236 2.3633628
-0.85245883 1.0170887 2.3534915
-0.8289209 1.0265167 2.3779616
-0.78619301 1.0258099 2.3746619
0.090721786 1.0184371 2.360986
0.10613376 1.0307252 2.3943563
2.6253777 1.0200478 2.38276
2.6627221 1.024832 2.3630416
-0.8566435 1.059477 2.3528223
-0.82654393 1.0773354 2.3808887
-0.78314662 1.0811681 2.3808997
-0.59824663 1.0679612 2.3644979
0.088180996 1.0943278 2.3823171
0.10062996 1.0792347 2.3947489
2.6317358 1.0698024 2.3905504
2.6654928 1.0777925 2.365128
-0.85244447 1.126502 2.359592
-0.82622123 1.1273725 2.3852978
-0.78499311 1.129017 2.3827295
-0.61137241 1.1280296 2.3787532
-0.58384222 1.1413606 2.3516171
0.085078947 1.1238075 2.3703361
0.10126363 1.116701 2.3999336
2.6347208 1.1325737 2.3907299
2.6708167 1.1248032 2.368875
2.700449 1.1335294 2.3525605
-0.85486519 1.1675553 2.3524661
-0.83216107 1.1748521 2.3816323
-0.79013586 1.1744647 2.3845751
-0.60038286 1.194849 2.3899794
-0.5822311 1.175208 2.3725793
-0.52599633 1.1955693 2.3738158
-0.48489928 1.1925216 2.3590207
-0.358908 1.1906686 2.3569713
0.082745567 1.1739265 2.3757658
2.6366243 1.1710185 2.3911088
2.6744869 1.173117 2.3643279
2.7074068 1.1531545 2.3519809
-0.85663611 1.2264992 2.3582191
-0.82652885 1.2230657 2.3877132
-0.78573191 1.2324867 2.3910363
-0.57647598 1.2351869 2.3853087
-0.51569223 1.2286187 2.3750005
-0.47001687 1.2229166 2.3720734
-0.42568925 1.227838 2.3717263
-0.35616785 1.2144685 2.3756497
-0.33448842 1.2200425 2.3598971
-0.29103667 1.2135885 2.35147
0.074304119 1.2201408 2.3650181
2.6398308 1.2255439 2.3913176
2.6748173 1.2200452 2.3657758
2.7038054 1.2258668 2.3514342
-0.85448599 1.2677807 2.3574286
-0.83065444 1.2733696 2.3884356
-0.78838819 1.2747359 2.3890221
-0.58533877 1.2698547 2.3725185
-0.52758032 1.2514215 2.3961086
-0.47524521 1.2687745 2.3863049
-0.32849565 1.2892487 2.3786285
0.071540035 1.2864379 2.3754139
2.6388416 1.2771053 2.3932252
2.6730247 1.2738094 2.3694656
-0.85809773 1.3247986 2.3613703
-0.83074439 1.3244889 2.390661
-0.78679055 1.3215017 2.3893666
-0.53287345 1.3150543 2.3998399
-0.47859457 1.3101608 2.3702421
-0.31224808 1.3220341 2.3912807
0.06523104 1.3289815 2.3559675
2.6336708 1.3192791 2.3912513
2.6785929 1.3249506 2.3705969
2.7101917 1.3126065 2.3542314
-0.86323637 1.3751777 2.364763
-0.82828707 1.3754992 2.3903387
-0.78512317 1.3740984 2.3902352
-0.59134948 1.3964314 2.3936296
-0.47022915 1.3700289 2.352828
-0.32236403 1.3920584 2.396256
0.066458255 1.3793579 2.3895702
2.6442971 1.3641388 2.3941755
2.6783204 1.3771275 2.3748908
2.7107201 1.389227 2.3539512
-0.8642664 1.4267731 2.3691878
-0.82151681 1.4257946 2.3944018
-0.79929245 1.4148784 2.395462
-0.60372514 1.408082 2.3832014
-0.58597249 1.4154302 2.3804424
-0.47901592 1.4188812 2.3615646
0.072288744 1.4267852 2.3848822
2.641417 1.4224885 2.3979659
2.6758609 1.4228814 2.3746867
2.7120364 1.4284627 2.3541307
-0.86152381 1.4781507 2.3770552
-0.84946555 1.4729388 2.3964226
-0.47649825 1.4787529 2.385335
-0.43318498 1.4738828 2.3733585
0.080368988 1.465611 2.3988788
2.6728034 1.4720849 2.3795736
2.7159548 1.4846352 2.3574543
-0.86848634 1.5259674 2.3753018
-0.57631934 1.5220002 2.398057
-0.5213635 1.5203369 2.3841758
-0.4684135 1.5181816 2.3740592
-0.4270741 1.5280727 2.3767936
-0.39334601 1.5093534 2.3649912
2.6477988 1.5124717 2.3963301
2.6752732 1.5267729 2.3790126
2.7265797 1.5317324 2.3550854
-0.87184995 1.5737296 2.3820293
2.6766274 1.5735581 2.385222
2.7224479 1.573926 2.3643126
-0.88247889 1.6245275 2.3793275
2.6817372 1.6189278 2.3820901
2.7226305 1.6243871 2.3622875
2.7579715 1.6333177 2.3575723
-0.88719809 1.6773099 2.3809891
2.6825223 1.6737548 2.3901768
2.7207286 1.6758168 2.3629441
2.7631893 1.6540098 2.3529868
-0.90648961 1.7240878 2.362746
-0.89074278 1.7267575 2.3866725
2.6818042 1.7051325 2.3906446
2.7269568 1.7254671 2.3728702
-0.9103322 1.7781029 2.3784008
-0.89318925 1.773095 2.397114
2.6931567 1.778468 2.3921127
2.7290933 1.7773132 2.3728385
2.7685955 1.7759447 2.3547313
-0.91427767 1.8308003 2.3719244
-0.89773995 1.8032532 2.3962157
2.6952734 1.8198775 2.3995814
2.7356365 1.83269 2.3761659
2.768146 1.8270402 2.3567352
-0.92183113 1.8776554 2.3725312
2.7373202 1.8883508 2.3892028
2.7626696 1.8792404 2.3640139
-0.92151737 1.9227102 2.3739495
2.7322545 1.9263054 2.3861983
2.7680712 1.9324927 2.3717303
-0.9300428 1.97782 2.3730929
2.7326646 1.9758172 2.3960705
2.7533402 1.97765 2.3836358
-0.92770725 2.009105 2.3775222
2.7429562 2.010689 2.3890998
2.7185729 2.0747285 2.3961334
2.32498 2.3497734 2.3763199
2.434206 2.3412602 2.3866518
2.4652398 2.3356416 2.3842068
1.8863072 2.35232 2.3863637
1.9406728 2.3680055 2.3886771
1.9769464 2.3582637 2.370043
2.0272174 2.3620973 2.3697686
2.0700479 2.3564041 2.37708
2.1290786 2.3603303 2.3738708
2.168946 2.3603442 2.3744392
2.2150478 2.358799 2.3718188
2.2698815 2.3603663 2.3725581
2.3058851 2.3573539 2.3594429
2.3777931 2.3577051 2.3744581
2.4105482 2.3542843 2.3671939
2.1225395 -0.63186598 2.4259775
2.1690159 -0.62937349 2.4244642
2.2243588 -0.61423987 2.4343972
1.7316016 -0.53436542 2.4331596
2.2502038 -0.50826639 2.4268556
1.7271341 -0.47450984 2.4090388
2.260886 -0.49563611 2.4410269
0.83165842 -0.40815163 2.4010925
0.83521831 -0.3736791 2.4153454
2.3756483 -0.37131473 2.4395902
2.4098401 -0.35254312 2.4340339
0.83793223 -0.33864179 2.4268708
1.7984961 -0.33084401 2.4467781
1.8152179 -0.33071101 2.4358048
1.8656645 -0.32596809 2.4296415
2.4087384 -0.32494456 2.4390934
2.3985083 -0.2752848 2.4453847
2.4053359 -0.25899488 2.4251022
2.3983095 -0.2445673 2.4479949
2.4123337 -0.22907607 2.4347613
2.406395 -0.17492917 2.4325273
2.4155068 -0.12460768 2.4329193
0.68917394 -0.061750311 2.4045558
0.71339065 -0.067692503 2.4020987
2.4245391 -0.07579378 2.4407926
2.4578071 -0.0656505 2.4214346
0.68710887 -0.031047599 2.4126112
0.71519357 -0.027434023 2.4051676
2.4329522 -0.033596747 2.4428194
2.4720469 -0.029743591 2.4166934
-0.84360665 0.035901558 2.4028962
0.68302304 0.023765067 2.4161446
0.71258545 0.02376581 2.4104052
2.4406888 0.024193948 2.4433789
2.4773245 0.024301924 2.4217825
2.5177641 0.039963216 2.402842
0.68409824 0.077081129 2.4191866
0.71398407 0.077127568 2.4143531
2.44329 0.078260504 2.4449384
2.4801545 0.078495234 2.4234917
2.5176163 0.078747518 2.4017813
0.68607318 0.12484932 2.4248092
0.71585137 0.12485677 2.4193039
2.4474335 0.1247865 2.4473362
2.4743989 0.12501258 2.4306042
2.5142934 0.12551169 2.4112821
0.68772888 0.17277081 2.4286733
0.71779531 0.17284249 2.4238141
2.4498653 0.15587369 2.4482026
2.4694417 0.17346866 2.4338989
2.5143921 0.1721493 2.408778
0.68645865 0.21267527 2.4293411
0.71572572 0.2074891 2.4235945
2.4705448 0.22406602 2.4375501
2.5180359 0.2191221 2.4088867
2.481792 0.27778661 2.4346635
2.5217571 0.27402595 2.4074502
2.4790859 0.32466507 2.440747
2.5192473 0.32927355 2.4135633
2.477567 0.37567928 2.4401305
2.5241814 0.37914842 2.4155836
2.4847291 0.42375782 2.4403796
2.5280042 0.42300954 2.4177074
2.5534906 0.44191176 2.401319
2.4853017 0.4676353 2.4413438
2.5236111 0.4752439 2.4223876
2.5598147 0.47458017 2.4019253
2.4887459 0.52015525 2.4429884
2.5251746 0.5196628 2.4234035
2.5614154 0.52331239 2.4045846
-0.77770114 0.58050513 2.4268162
-0.67944133 0.58517021 2.4473994
2.4882321 0.5593549 2.4348347
2.5220065 0.57259941 2.4275377
2.5555923 0.57184011 2.4093256
-0.77341813 0.62663114 2.4268551
-0.66685492 0.6368587 2.4149518
2.4859257 0.62563014 2.4486039
2.5231333 0.61915183 2.4272637
2.5616741 0.62087774 2.4046824
-0.77396017 0.67604506 2.4392953
-0.6120621 0.69445688 2.4382987
-0.58502424 0.69438308 2.4309762
2.4927852 0.66701078 2.446121
2.5283625 0.66661888 2.4253795
2.5635965 0.67042518 2.4051292
-0.77442569 0.72075683 2.4248183
-0.66947544 0.74001658 2.4291027
-0.57323349 0.71555865 2.4333811
-0.53230506 0.73832178 2.4394329
-0.45954719 0.74031526 2.4273098
-0.4265399 0.72675353 2.4287169
2.4976912 0.70009732 2.4431479
2.52615 0.72103226 2.4325755
2.5670178 0.72106588 2.4086149
-0.77608711 0.77671647 2.4253433
-0.67189175 0.76108789 2.4339111
-0.61207968 0.78762525 2.4459107
-0.41765478 0.76071244 2.4431612
-0.37340629 0.77740765 2.4462268
-0.33426428 0.77714634 2.4287565
2.5255609 0.7664417 2.4325621
2.5661862 0.77514744 2.4133317
-0.77593321 0.82279462 2.4278848
-0.45700353 0.82344729 2.4177423
0.11941137 0.82036614 2.4297075
2.4982448 0.80068994 2.4477124
2.5267446 0.82214242 2.4363465
2.5753241 0.8235535 2.41185
-0.77376127 0.86982667 2.4320216
-0.62590939 0.86006308 2.4218895
-0.44942197 0.89298838 2.4288738
-0.37317434 0.87799674 2.4207773
0.091815911 0.87947297 2.4311914
0.10034316 0.88153744 2.4427757
2.5326438 0.87197471 2.4367263
2.5733171 0.87759644 2.414299
2.6018853 0.89445269 2.4014962
-0.77910393 0.92284775 2.4239354
-0.63533056 0.93148136 2.4406681
-0.36340436 0.90420556 2.4329557
0.088288829 0.9434002 2.430274
0.10079661 0.90994835 2.4476728
2.4974468 0.90214056 2.4475386
2.5250871 0.92250305 2.4389338
2.5720937 0.92852241 2.4139488
-0.77746344 0.9738766 2.4363589
-0.66204858 0.98551261 2.4416285
-0.64872944 0.96554357 2.4465077
-0.35164174 0.99102271 2.4139595
-0.30316535 0.99250454 2.4222283
0.087393522 0.95195067 2.4007213
0.11293668 0.97844726 2.427134
2.5276139 0.97509509 2.4399734
2.573498 0.9766221 2.4174285
2.6004579 0.98125112 2.4029005
-0.77785492 1.0248427 2.4315975
-0.66211873 1.0295414 2.428782
-0.36305901 1.0010116 2.4037259
0.12138741 1.0274051 2.4379215
2.5377192 1.0253173 2.4364522
2.5743151 1.031732 2.4163246
-0.77777165 1.0773405 2.4261043
-0.66116321 1.0865674 2.4205754
-0.62782371 1.0727319 2.4126041
0.11397352 1.0717731 2.4246264
2.5387518 1.0775615 2.442199
2.5764432 1.0711167 2.4159217
2.6069791 1.0805886 2.406004
-0.77860576 1.1256868 2.4339678
-0.66319704 1.1236454 2.430737
-0.63194883 1.1148907 2.407012
0.11033276 1.1215419 2.4202645
2.5354383 1.1191902 2.4443991
2.5708547 1.1200422 2.4266698
2.6102662 1.1267635 2.4080677
-0.7826587 1.1792428 2.4297552
-0.66375667 1.1656309 2.4357243
-0.6294831 1.1707059 2.4116471
0.089667417 1.1746261 2.4016235
0.10316774 1.1752477 2.4323747
2.5440066 1.180528 2.4404318
2.5772815 1.1780545 2.4246824
2.6103907 1.1719372 2.40661
-0.77882671 1.2254076 2.4325311
-0.65388715 1.2115171 2.4464405
-0.62280059 1.2394601 2.4316945
-0.58100694 1.2259613 2.4115503
-0.52295309 1.2365451 2.4122367
-0.49094319 1.2420005 2.4131207
0.091177776 1.2384479 2.4262717
0.10397032 1.2158871 2.4402499
2.5445268 1.2302241 2.4425962
2.5728924 1.2235801 2.4270911
2.6151898 1.2195619 2.4087887
-0.81381577 1.2843804 2.4022505
-0.77586484 1.2730058 2.4201205
-0.52174515 1.2653718 2.4307656
-0.47882199 1.2687082 2.4078186
2.5337713 1.2663234 2.4484775
2.5777888 1.2717063 2.4287798
2.6151512 1.2799307 2.4079504
-0.81623542 1.3289152 2.4025292
-0.77725422 1.3213158 2.416317
-0.60337979 1.3297981 2.4153354
-0.33497894 1.3338876 2.4178314
0.082927674 1.3293777 2.4327421
2.5486584 1.3072793 2.4477401
2.5781348 1.3316861 2.4322422
2.6114664 1.3221505 2.4104872
-0.59373236 1.3890741 2.4089978
-0.43984553 1.3818964 2.4498353
0.086338736 1.3743755 2.4219482
0.10659224 1.3887228 2.4466901
2.5765364 1.3763835 2.4312649
2.6218321 1.3765843 2.4110417
-0.83590394 1.4315952 2.4011667
-0.7828877 1.4401827 2.4186733
-0.5736118 1.4339887 2.4250028
-0.52190256 1.4385685 2.4227393
0.089947939 1.4258871 2.4140761
0.10681883 1.4305236 2.4352238
2.576371 1.4234191 2.4361026
2.6128061 1.4292691 2.4137497
-0.82868099 1.4771813 2.4161224
-0.778247 1.4704238 2.4183035
-0.74172771 1.4772515 2.446908
-0.61562908 1.4780903 2.4455721
-0.56267422 1.4701034 2.4415741
-0.52617031 1.4808891 2.4260125
-0.47435355 1.4921747 2.4080381
0.093472145 1.4566401 2.4108458
0.10721613 1.46837 2.4298558
2.5871723 1.4752547 2.4372158
2.6256447 1.4777905 2.4110088
-0.85219961 1.5487844 2.4226527
-0.83091599 1.5204399 2.4269102
-0.79244703 1.5247362 2.4273989
-0.67911643 1.5058353 2.4365535
-0.62437147 1.5061543 2.4214158
-0.57226706 1.5124692 2.428221
-0.52668887 1.5086559 2.415864
-0.49527147 1.5092888 2.4052017
2.579664 1.5223571 2.4375851
2.6187303 1.519096 2.4115908
-0.85429829 1.5798746 2.4145086
-0.83863944 1.569886 2.4381824
-0.7162872 1.575706 2.4431083
2.5771959 1.57652 2.4389906
2.6244321 1.5710218 2.4200628
2.6550078 1.587178 2.4024756
-0.85968047 1.6251593 2.4222293
2.5852015 1.6213968 2.4436421
2.6213906 1.6228249 2.4222465
2.6676183 1.6436299 2.4062619
-0.86203259 1.6678746 2.4308515
2.6236985 1.6696033 2.4294267
2.6615317 1.6627555 2.4068091
-0.87240493 1.7189405 2.4307346
2.6266937 1.7248405 2.4338994
2.6648564 1.7322915 2.4099054
-0.8787393 1.7723217 2.4301622
2.6278472 1.7775296 2.4308619
2.6680453 1.779864 2.4123824
-0.90414864 1.8303211 2.404335
-0.88529158 1.8269081 2.4290359
2.6254928 1.8235037 2.4395206
2.6705825 1.8301566 2.4185729
2.7124004 1.8494087 2.4046862
-0.90965694 1.8700345 2.4004905
-0.89125466 1.8790978 2.4242334
2.6341155 1.8643289 2.4336815
2.6750708 1.8824387 2.4261434
2.7119102 1.8812896 2.4111035
-0.90230858 1.9132681 2.4044607
-0.88817567 1.923425 2.4290729
2.6340854 1.9129763 2.4437478
2.6794777 1.9263961 2.4242742
2.7106173 1.9146711 2.4029334
-0.90834308 1.975228 2.4083068
-0.89158517 1.9664742 2.4317777
2.6458888 1.9652027 2.4417217
2.6828055 1.9724511 2.4286587
2.7149498 1.9761105 2.4111042
-0.91051507 2.019902 2.407712
-0.89134872 2.0273321 2.43787
2.6406946 2.0203447 2.4406879
2.6696305 2.0193925 2.4257672
2.7244048 2.0263367 2.4133196
2.6832802 2.0695875 2.4298875
2.7099304 2.0659261 2.4093013
2.6885309 2.1139429 2.4365847
2.7086363 2.1159816 2.416635
2.6785579 2.1751494 2.4383712
2.6613288 2.2304804 2.4400492
2.5977871 2.29721 2.4483118
2.6277184 2.2709122 2.4475474
1.7895355 2.3480933 2.4408779
1.8887141 2.3488116 2.419374
1.9683939 2.3471782 2.4328578
2.0123963 2.3490362 2.4203939
2.2351162 2.3488326 2.4162188
2.2736022 2.3433502 2.4454663
2.3915629 2.3438234 2.429297
2.4231882 2.3388519 2.4203475
2.4772172 2.3372407 2.4238362
2.5216222 2.3310192 2.4263232
2.5688219 2.3158956 2.4338157
1.8291531 2.3553646 2.4272208
1.8668318 2.3557022 2.4305947
1.9263796 2.3548722 2.4247274
1.9731961 2.3507774 2.408021
2.0401781 2.351047 2.4050529
2.0791483 2.358135 2.4320292
2.1163933 2.3552303 2.430259
2.1704898 2.3590446 2.4242942
2.2153664 2.3560712 2.4349577
2.281853 2.3514948 2.4243042
2.322067 2.3559577 2.4182446
2.3619668 2.3537138 2.4304457
2.1322949 -0.6206013 2.4691806
2.1686018 -0.62087023 2.4693739
2.2249258 -0.60987967 2.4749944
1.7544593 -0.55975634 2.4903917
2.2470112 -0.59421921 2.4941678
2.2630453 -0.586743 2.4846935
1.7537341 -0.52246004 2.4815474
2.2851956 -0.51966941 2.4932032
1.7450138 -0.48709783 2.4885223
1.763629 -0.47439376 2.4894559
2.2936323 -0.47845674 2.4901869
2.3116758 -0.46978712 2.4678674
2.2971241 -0.44244221 2.4900773
2.3207543 -0.4278495 2.4808326
2.3321037 -0.37663603 2.4821353
2.365823 -0.35559538 2.4602809
0.84578699 -0.3296046 2.4507589
1.8610022 -0.32307324 2.4782674
2.33125 -0.3209613 2.4900739
2.3707745 -0.32342958 2.4656377
2.3393917 -0.27797502 2.4868858
2.3700712 -0.27287799 2.4654787
2.3381886 -0.22575943 2.4900689
2.3729537 -0.23153743 2.4720993
2.4000492 -0.22170766 2.4516287
2.3393836 -0.17418228 2.4939792
2.3788691 -0.17807513 2.4686136
2.4013348 -0.15267593 2.4574249
2.3494875 -0.12170663 2.4909875
2.3803389 -0.1198579 2.4695477
2.4006019 -0.13726683 2.4574373
2.3495815 -0.091052122 2.4921968
2.3730569 -0.075786322 2.4789357
2.407392 -0.06560833 2.4572198
2.3680322 -0.029745705 2.4840443
2.408448 -0.026658496 2.4569371
2.3707917 0.02401749 2.4868839
2.4140365 0.024132004 2.459676
2.3725853 0.077868447 2.4877539
2.4165721 0.078108616 2.4612319
2.3753939 0.12416635 2.4890094
2.4194272 0.12449942 2.4624121
2.3789723 0.1685635 2.4868512
2.421242 0.17094362 2.4617701
2.3882654 0.22157252 2.4841614
2.4220047 0.22790734 2.4632475
0.71086293 0.28517073 2.4990757
2.3828175 0.27563536 2.4934118
2.4224391 0.28010386 2.4686565
2.4625156 0.28118345 2.4509757
2.3927479 0.32676306 2.491214
2.4257843 0.3253926 2.4708726
2.4649971 0.33929908 2.4567459
2.3932095 0.37397659 2.4932036
2.4244325 0.37464157 2.4744005
2.451293 0.37521091 2.4578447
2.383383 0.42091778 2.4983008
2.4224808 0.42235562 2.4803262
2.4580157 0.42315134 2.4578664
2.3891065 0.46871248 2.4970081
2.4266529 0.46998405 2.4771795
2.4624617 0.47090682 2.4547737
2.3959033 0.51695919 2.4960024
2.4222431 0.52301961 2.4797854
2.463578 0.52258813 2.458673
-0.75664806 0.5869996 2.4681792
-0.74626273 0.59970009 2.4982336
2.4231772 0.57882625 2.4802654
2.4690781 0.56822139 2.4584837
-0.758057 0.62523484 2.4664018
-0.7264176 0.63186115 2.4891641
-0.6955204 0.60072327 2.4567668
2.3919694 0.62949938 2.4992514
2.4283562 0.62936974 2.4818764
2.4683249 0.62516266 2.4606819
-0.75667936 0.67123157 2.4607267
-0.72786725 0.67258132 2.4855905
-0.56485659 0.69161683 2.4832337
2.4309523 0.68100601 2.4842117
2.4664984 0.68213898 2.4607689
-0.75951219 0.72969955 2.4587817
-0.73738384 0.71985763 2.4876378
-0.68893188 0.73550475 2.4550714
-0.55567122 0.71159011 2.4721999
-0.5343774 0.72974461 2.4900987
-0.43868408 0.73242837 2.476362
2.4275293 0.72840065 2.4879036
2.4731164 0.72984076 2.4650664
-0.75985879 0.77891535 2.4647357
-0.72929853 0.77572399 2.4906442
-0.69407511 0.76590586 2.4680963
-0.63554668 0.79388642 2.4620507
-0.50873613 0.75254655 2.4764509
-0.47283584 0.75425053 2.4870489
-0.41112208 0.75546467 2.4550917
-0.38282624 0.76788992 2.4706316
-0.31771407 0.78626597 2.4715898
2.4303482 0.7807743 2.4887784
2.4769158 0.77500635 2.4632263
-0.75659096 0.82517642 2.4612072
-0.73580092 0.8212055 2.4831018
-0.65375227 0.82867002 2.4844604
-0.63684601 0.83401924 2.4762845
0.13328429 0.8381694 2.462466
0.1551106 0.82979923 2.4891357
2.4381278 0.82853621 2.487051
2.475245 0.82497811 2.4628959
-0.76074749 0.87781018 2.4676392
-0.73939675 0.87613797 2.4877698
-0.63479656 0.86332208 2.4697285
-0.4598991 0.87066495 2.4590197
-0.39612859 0.88609439 2.4917443
0.12678184 0.87599999 2.488775
0.15195906 0.86199784 2.4990308
2.4306827 0.87414014 2.4934883
2.4761701 0.86811221 2.4666688
2.5210559 0.85643458 2.4556894
-0.76037741 0.92227781 2.4667571
-0.74374247 0.92600662 2.4908736
-0.64386183 0.92275405 2.4560988
0.089214623 0.92871583 2.4622421
0.12015171 0.93578362 2.4780886
0.1528147 0.9354589 2.4961731
2.4381444 0.91440141 2.492492
2.4744143 0.92219317 2.4703612
-0.760975 0.97433513 2.4720387
-0.73906726 0.98037452 2.496367
-0.65170705 0.98257315 2.4541633
-0.63527399 0.97361875 2.4706531
-0.41283664 0.99302953 2.490485
-0.38279927 0.98378646 2.4613318
0.12705675 0.9675498 2.4700532
2.4379282 0.96028006 2.4900179
2.4752197 0.97249156 2.4743426
2.5029776 0.99116099 2.4558265
-0.75958079 1.0259207 2.4710188
-0.74605536 1.027371 2.4961801
-0.63744199 1.0297792 2.4783013
-0.41418749 1.012061 2.494107
-0.39923227 1.0062453 2.4812207
0.13661671 1.0173545 2.4823239
2.4743543 1.0251709 2.4764926
2.5141151 1.0282193 2.4549758
-0.7618348 1.078064 2.4667337
-0.74200112 1.076098 2.4918973
-0.64245832 1.0678812 2.4741259
0.13512656 1.0742787 2.478224
2.4428766 1.0767285 2.497817
2.4758987 1.078174 2.475101
2.5129404 1.0812854 2.4557655
-0.76077145 1.1289232 2.4731586
0.12666792 1.1302681 2.4831159
2.4400196 1.1293826 2.4963067
2.474479 1.121865 2.4798758
2.5150702 1.1307927 2.4610984
-0.76544791 1.1773565 2.4688597
-0.74397248 1.1802471 2.4915092
0.12059648 1.1800706 2.4725032
2.4772575 1.1730877 2.4852772
2.5186903 1.1696304 2.4584899
-0.76360428 1.2261187 2.4705095
-0.74778128 1.2258356 2.4901361
-0.650976 1.2303658 2.4870553
-0.62846309 1.2334203 2.4654644
0.12203259 1.2090597 2.4712269
2.4774554 1.2256632 2.4847765
2.5155733 1.2281907 2.4607341
-0.76180768 1.2756574 2.471822
-0.63037992 1.2677836 2.4724247
-0.5533694 1.2818891 2.4523101
-0.45637327 1.29515 2.4626155
-0.43754122 1.2968352 2.4684191
0.092624918 1.2836751 2.4552357
0.11120347 1.2646145 2.4799666
2.4746263 1.2754416 2.4883692
2.5198236 1.2801532 2.4601803
-0.763291 1.3243699 2.4704869
-0.74376923 1.3078542 2.498913
-0.63298607 1.3127829 2.4996288
-0.58801264 1.3407015 2.4692113
-0.46283334 1.3331788 2.4897063
-0.40995848 1.3384876 2.4915891
0.093185812 1.3235804 2.4576991
0.11038132 1.3274562 2.4862349
2.4823668 1.3240943 2.4875324
2.5276268 1.3261514 2.4661181
-0.77243376 1.3654054 2.4660807
-0.74796706 1.3555043 2.4968417
-0.41382453 1.376489 2.4800754
-0.3847656 1.3619273 2.4936733
0.11473213 1.368899 2.4741418
2.4929352 1.3804213 2.4861667
2.5225084 1.3756782 2.4659681
2.5526924 1.3855549 2.4510772
-0.76497734 1.4280876 2.4708946
-0.73566568 1.4313037 2.4871182
-0.66329741 1.4337478 2.4614346
-0.56627184 1.4398422 2.4561775
-0.4228304 1.4033351 2.4616022
-0.37577969 1.4121082 2.4540186
0.12683301 1.4295117 2.4805887
2.4880643 1.4184737 2.4884427
2.5322375 1.4292828 2.46398
-0.75672793 1.4601513 2.4581935
-0.73609746 1.455883 2.4629436
-0.57013524 1.4941187 2.4525695
-0.54205436 1.4903171 2.4509923
0.13102014 1.4616791 2.4827776
2.4922156 1.4705713 2.4950538
2.5236633 1.4738439 2.4718318
2.5641494 1.4779056 2.455513
-0.81683832 1.5453659 2.4566901
2.4998977 1.5229093 2.4966316
2.5263319 1.5234741 2.4753361
2.5569692 1.5350654 2.4535084
-0.8199122 1.5850716 2.4781466
-0.78512502 1.563874 2.4662497
-0.74841183 1.5725596 2.4599187
2.5277975 1.5728787 2.4771388
2.5511081 1.5849061 2.4564784
-0.83290952 1.6237905 2.472208
-0.69499975 1.6028275 2.4631319
2.4903877 1.6418027 2.4949913
2.5189586 1.6126053 2.4814117
2.562278 1.624355 2.4621022
-0.85307312 1.699767 2.4603267
-0.83886558 1.6714191 2.4793088
2.5319381 1.6744251 2.4841478
2.577781 1.676792 2.4597647
-0.85715723 1.7290976 2.4600821
-0.84029657 1.7238241 2.4866912
2.5248642 1.725255 2.4874017
2.5743139 1.72981 2.4634147
2.6074524 1.7255986 2.4525506
-0.85987645 1.7789301 2.4668076
-0.83787519 1.7548547 2.4904883
2.5339253 1.7742859 2.4923286
2.5747192 1.7718971 2.466737
2.6067398 1.7899963 2.4531388
-0.86620921 1.8266108 2.4704323
-0.8477335 1.8188372 2.4943316
2.5445516 1.8315021 2.4997728
2.5727482 1.8182331 2.4759269
2.601675 1.83433 2.4592164
-0.86440641 1.8728129 2.4746671
2.5671537 1.8690577 2.4826529
2.6106761 1.874752 2.460655
-0.86857444 1.9297066 2.4740806
2.5830057 1.9281116 2.4859076
2.611166 1.9257165 2.4570971
-0.87063968 1.9799742 2.4769301
2.5868607 1.9796501 2.4859924
2.6176329 1.9695665 2.4660232
-0.870377 2.0190022 2.4746132
2.5825906 2.0336428 2.4910631
2.6211476 2.028513 2.4642797
-0.86926919 2.0612082 2.4757004
2.5814483 2.0783708 2.4954903
2.6238589 2.0823486 2.467113
2.5798135 2.1268339 2.4898753
2.6205747 2.1382368 2.4736412
2.6605368 2.1222475 2.4593399
2.5841038 2.1745458 2.4935172
2.6301663 2.1891427 2.4746206
2.6574655 2.1637077 2.456187
2.5899022 2.2334344 2.4922104
2.6270285 2.232913 2.4711051
2.6523228 2.2213631 2.4533699
2.5733392 2.283663 2.4791834
2.6068506 2.2685332 2.4667585
1.6892738 2.3386204 2.4870057
1.7498345 2.3404222 2.4536116
1.8975165 2.3465154 2.4915674
1.9832408 2.3484724 2.4805474
2.0197532 2.3453228 2.4793444
2.0502636 2.3476062 2.4767387
2.1357741 2.3465075 2.4595687
2.1700966 2.3466456 2.4796102
2.2384522 2.3441796 2.4717326
2.2695842 2.3394833 2.4713528
2.3281391 2.3440216 2.4827163
2.3740215 2.3351328 2.4719281
2.4252868 2.3309712 2.4733729
2.4786067 2.3207741 2.47646
2.5294371 2.314939 2.4754105
2.557765 2.3133605 2.4608979
1.7324631 2.351305 2.4803634
1.7795221 2.3534214 2.4815705
1.8200233 2.3595688 2.4792767
1.8689789 2.3596189 2.4790022
1.920844 2.3525212 2.4723508
1.9620144 2.3527226 2.4804893
2.024905 2.3562131 2.4653673
2.0843668 2.3562975 2.4679682
2.1193409 2.3578138 2.4897709
2.1569474 2.3502617 2.4512513
2.2213676 2.3541343 2.4787273
2.3342786 2.3502076 2.4589896
2.1821549 -0.6063512 2.5180559
2.2084432 -0.60729778 2.5051746
2.1844895 -0.57863533 2.5411665
2.222193 -0.57454228 2.5252371
2.2625661 -0.56299359 2.5064747
1.7480738 -0.5200209 2.516264
1.7525125 -0.50520712 2.5109503
2.1863141 -0.5486111 2.5489881
2.2223215 -0.52444005 2.5372658
2.2658074 -0.51974314 2.5088513
1.760803 -0.47338408 2.5251832
2.2279785 -0.47303024 2.5377815
2.2677736 -0.47179407 2.5144253
1.786943 -0.43109223 2.5293791
2.2284923 -0.43003201 2.5418928
2.268836 -0.42762581 2.5186458
2.3038721 -0.41308215 2.5018618
2.2303834 -0.37788042 2.545187
2.2703633 -0.37217429 2.5232873
2.3031595 -0.38230947 2.5051947
2.2413917 -0.31990957 2.5442905
2.2765312 -0.32355312 2.5210452
2.3089566 -0.30541712 2.5060322
2.2484894 -0.2740182 2.5424528
2.2797759 -0.27238995 2.5237746
2.3117139 -0.27848896 2.5044692
2.249476 -0.22831598 2.5473228
2.2795613 -0.22854395 2.529309
2.3155344 -0.22872646 2.5056953
2.2466936 -0.17464118 2.5476625
2.2815828 -0.17493244 2.5293615
2.3154273 -0.17514449 2.5091782
2.2467954 -0.13650231 2.5497434
2.2823741 -0.1214797 2.5328619
2.3235147 -0.12158233 2.5062177
2.2817671 -0.075583778 2.5336444
2.324038 -0.075669713 2.5082672
2.2829065 -0.0297349 2.5356596
2.3244693 -0.029732773 2.5094922
2.2821722 0.017866088 2.538065
2.3211477 0.026954046 2.5144114
2.2842779 0.077511705 2.5434196
2.3201344 0.077597566 2.5181003
2.2906463 0.12364986 2.5417111
2.3232117 0.12378989 2.5198026
2.2939837 0.16994089 2.5430877
2.3271322 0.17015575 2.5216789
2.3617506 0.1858826 2.5002029
2.2953703 0.22388297 2.540977
2.3291605 0.22420923 2.5201681
2.3655372 0.22478807 2.5013719
0.67905694 0.29185668 2.5131962
0.73054671 0.27360734 2.5276322
2.2992103 0.26276484 2.5420837
2.3262122 0.27982244 2.5226481
2.3710423 0.28719503 2.5016809
0.63913465 0.33395904 2.535763
0.67670912 0.327654 2.5175061
0.71611005 0.32426119 2.5112333
2.3199987 0.32517785 2.5296679
2.3649628 0.3261072 2.5055552
0.53714734 0.38505808 2.5471737
0.63739645 0.37540644 2.5422866
0.6762014 0.38011014 2.52423
0.7158283 0.37816754 2.5129685
2.3265212 0.37255514 2.5312221
2.3678832 0.37326822 2.5058744
0.63751924 0.42509207 2.544806
0.67626309 0.42641595 2.5275266
0.71573895 0.42954803 2.5187368
2.3276792 0.41779491 2.5348265
2.3596456 0.42364082 2.5135593
0.48824137 0.49139458 2.5456505
0.64273334 0.47038019 2.5473146
0.67099768 0.47216728 2.5369453
0.7188555 0.47388476 2.531508
2.3245444 0.47535318 2.5377254
2.3612239 0.47246099 2.5127521
0.64440739 0.50931859 2.5490475
0.67658812 0.52028447 2.5398288
0.71136951 0.52032298 2.5269721
2.3272028 0.53110451 2.5371277
2.370573 0.52743238 2.5091999
-0.74696022 0.58775628 2.5026214
0.68045872 0.57204479 2.5413375
0.71401 0.5725835 2.5288949
2.3256795 0.57944721 2.5412974
2.3711183 0.58105403 2.5166368
-0.73315573 0.60679662 2.513128
0.68542248 0.62330925 2.5433488
0.7112065 0.62600213 2.5343516
2.3310928 0.62782496 2.5375051
2.3680351 0.62936622 2.51826
-0.72494423 0.68435812 2.5014868
-0.5318653 0.6913684 2.5198286
0.68530226 0.67137367 2.5434604
0.70826328 0.67478502 2.5345969
2.3345387 0.67305732 2.5390372
2.3744869 0.67909008 2.5192788
2.4063818 0.68862057 2.5015495
-0.71966821 0.73311746 2.5016408
-0.66199642 0.70961106 2.5342164
-0.63060284 0.71001625 2.5409958
-0.51342076 0.72135776 2.5237377
-0.47582212 0.73983687 2.5279789
-0.4309203 0.71943992 2.5079021
-0.3990204 0.73543131 2.5446672
0.69251072 0.72136784 2.5471559
0.71157241 0.72128844 2.5431936
2.3322625 0.72979081 2.5427871
2.3752396 0.72825247 2.5183868
-0.72945803 0.75810701 2.5031078
-0.50963014 0.75058734 2.5146406
-0.49169147 0.75182939 2.5213594
-0.40926972 0.76004595 2.5234256
-0.37190574 0.76976061 2.5255797
-0.32943356 0.77476484 2.5224226
0.69276941 0.77942669 2.5467448
0.71113539 0.77474618 2.5458956
2.3350103 0.76573008 2.5451241
2.3736517 0.77863288 2.5241554
2.4052231 0.78828251 2.5055077
-0.72919774 0.84090859 2.5082669
-0.63060904 0.83052266 2.5156162
0.17081861 0.83840877 2.5076501
0.69260597 0.81370109 2.5456626
0.71069098 0.8233878 2.5438755
2.3418832 0.82805675 2.5466838
2.3768582 0.82921058 2.5242143
2.4135487 0.83093101 2.5028312
-0.72002083 0.87239671 2.508203
-0.63749027 0.88441229 2.5324159
-0.45092899 0.88319349 2.5162442
-0.4296959 0.89375907 2.5256314
0.13410728 0.89801037 2.5062692
0.16600297 0.88200438 2.520026
0.71342683 0.86529338 2.5446594
2.3424852 0.87800336 2.5433629
2.3734095 0.88222075 2.527153
2.4043906 0.88129526 2.5089612
-0.72503597 0.92483425 2.5115306
-0.45668802 0.9200691 2.542017
-0.39462686 0.92141604 2.5016882
0.13051295 0.91646731 2.5047545
0.1647664 0.92095894 2.5199521
2.3407772 0.92940027 2.5467222
2.3721797 0.92593265 2.5318522
2.4107521 0.92848223 2.5121167
-0.72177494 0.97341383 2.5099726
-0.65469539 0.9936226 2.5200679
-0.40441668 0.96393418 2.5065503
0.16179158 0.97691804 2.5320117
0.70665276 0.96407413 2.5463414
2.375078 0.97257477 2.5369847
2.4149182 0.9687829 2.5089805
-0.72531772 1.0312371 2.5085421
-0.63948834 1.0286263 2.5022881
-0.43528628 1.006295 2.5492175
0.16039762 1.02167 2.5325067
2.3771303 1.0178686 2.5379379
2.4224327 1.0249389 2.5105102
-0.72118199 1.0786602 2.5128658
0.14256744 1.0516691 2.5083232
0.15735622 1.0788995 2.538233
2.3816872 1.0762252 2.5365965
2.4227271 1.0736616 2.517065
-0.72802049 1.127457 2.5118914
0.14412619 1.1272973 2.5162108
0.1578957 1.1212945 2.5351524
2.3787723 1.1273612 2.5399108
2.4220386 1.1307342 2.5172718
-0.72201294 1.1684929 2.5072646
0.14050324 1.1806841 2.5298569
0.15931816 1.1573734 2.549798
2.3815591 1.1776673 2.5403867
2.4247298 1.1787132 2.5187867
-0.72682893 1.2221701 2.5135117
0.14082751 1.2274548 2.5205014
2.3853648 1.2207226 2.5446508
2.425741 1.2231392 2.5197649
2.4551709 1.2434434 2.501631
-0.72575766 1.2768706 2.5167975
0.13663639 1.2827736 2.5321102
2.3911211 1.2776769 2.5449808
2.4265871 1.2789419 2.5197315
-0.73215973 1.3274473 2.5179629
-0.43867666 1.3395562 2.5051348
0.13462782 1.3215197 2.5213442
2.383153 1.3322117 2.5454311
2.4228067 1.3274484 2.528307
2.4610128 1.338483 2.5012307
-0.72349381 1.3718559 2.5225601
-0.43468207 1.367539 2.5131674
-0.38077083 1.3866959 2.5051544
0.14134035 1.3742651 2.5247252
2.3954554 1.3725821 2.542923
2.4288042 1.3728848 2.5250838
2.4675434 1.3802711 2.5076537
-0.72634155 1.4267092 2.5222788
0.13533786 1.4126846 2.5023634
0.15032734 1.4029697 2.5429411
2.424787 1.4221309 2.5291102
2.4659684 1.4323497 2.510411
0.15101606 1.4631195 2.5321748
2.4238396 1.4735297 2.531492
2.4680347 1.4651045 2.5089283
2.3932257 1.5093732 2.5456049
2.4321959 1.5264349 2.5343261
2.4793169 1.5224981 2.5128803
2.4328756 1.5768614 2.5336607
2.480269 1.5744174 2.510401
-0.80867267 1.6320677 2.5141664
-0.77507907 1.6139077 2.5125771
-0.67874283 1.6434822 2.5030971
2.4336896 1.6297894 2.5378199
2.4747856 1.6237224 2.5153592
-0.81301534 1.6763783 2.5247891
-0.7975781 1.6887558 2.5488722
2.4330814 1.6688493 2.5409462
2.4719901 1.6780138 2.5183375
2.508368 1.6710697 2.5032718
-0.81908989 1.7234306 2.5314252
-0.79890436 1.7059035 2.5454891
2.4427996 1.7172779 2.5403636
2.47545 1.7164879 2.5168152
-0.82956094 1.7726773 2.5202744
2.4419053 1.7728325 2.5463459
2.4704783 1.7686892 2.5305598
2.5088425 1.7681084 2.5066056
-0.82653528 1.8159875 2.5262635
2.4388931 1.8364211 2.5440793
2.4807186 1.8236552 2.5327797
2.5261428 1.8149234 2.5100665
-0.84088594 1.8746269 2.5242889
2.4759061 1.8851305 2.5424583
2.5236504 1.8784825 2.5166543
-0.85127395 1.9244339 2.5111847
-0.83425921 1.9224756 2.5344863
2.4825475 1.9246403 2.5416739
2.5242281 1.9358292 2.519953
2.558871 1.9267926 2.5026562
-0.85503495 1.962584 2.5030413
-0.83729506 1.9721677 2.5306394
2.4871693 1.9796548 2.541791
2.5244074 1.98 2.5214329
2.5552397 1.9829633 2.5033514
-0.85283959 2.0371444 2.5145857
-0.83741075 2.0174272 2.5304565
2.4920909 2.0265393 2.547461
2.5244308 2.0244999 2.5223677
2.5543225 2.0419424 2.506115
-0.85641253 2.0758994 2.5040636
-0.83798742 2.0788414 2.5285845
2.4770477 2.0563505 2.5473018
2.5199094 2.0720665 2.5270274
2.5624225 2.0924611 2.5068107
2.4987876 2.1111469 2.5455856
2.5259194 2.1265507 2.5263398
2.5571642 2.1140506 2.5059981
2.491519 2.1666799 2.5405669
2.5257456 2.1724327 2.525928
2.5541241 2.1730614 2.5053091
2.4903684 2.2189608 2.5474548
2.5216832 2.2220829 2.5298514
2.5631056 2.2254684 2.513274
2.4848421 2.2819989 2.5398769
2.5239136 2.2758799 2.5190976
2.5615392 2.260654 2.5018942
1.5776073 2.3361161 2.5463507
1.6108682 2.3476291 2.5449319
1.6774288 2.3447809 2.5323925
1.7406464 2.3481991 2.5302949
1.773338 2.3473544 2.5193682
1.8257213 2.3434246 2.5318756
1.8740772 2.341013 2.518434
1.923164 2.3416374 2.5367815
1.9792914 2.3469765 2.522948
2.0214961 2.3374186 2.5220439
2.0913615 2.348526 2.5369937
2.1299925 2.3426871 2.5227084
2.1810124 2.341022 2.5289743
2.2366936 2.3433535 2.531522
2.2710714 2.330503 2.5239887
2.3200951 2.3249288 2.5248706
2.3755181 2.3269148 2.5256343
2.4272661 2.3227186 2.5272763
2.4646764 2.3136165 2.5144343
2.5265756 2.3001237 2.5070376
1.6484499 2.3650005 2.549464
1.6571698 2.3530855 2.5269804
1.7229619 2.3561449 2.5327909
1.8282335 2.3528833 2.5042961
1.9358938 2.3546939 2.5214889
1.9534554 2.3547261 2.5101473
2.0791616 2.352663 2.508563
2.208914 2.3510153 2.5042973
2.1873381 -0.51833314 2.5555019
2.2054286 -0.50369978 2.5502625
1.7845778 -0.46622103 2.5786071
2.1856263 -0.47216332 2.5609047
2.2035081 -0.47272301 2.552911
1.7873325 -0.43470126 2.5580649
2.1729233 -0.4254272 2.5669785
2.2067773 -0.42297307 2.556756
2.0786483 -0.36499929 2.5600314
2.1333196 -0.3887392 2.5865862
2.17488 -0.37706122 2.5755413
2.210052 -0.36841384 2.5574393
2.0934532 -0.34506527 2.5808153
2.149647 -0.32645941 2.5943029
2.1733868 -0.32657182 2.5794888
2.2132151 -0.31762785 2.563503
2.1498802 -0.2884469 2.5983229
2.1809952 -0.27161634 2.582979
2.2205977 -0.27601781 2.5595911
2.1812224 -0.2276344 2.5831192
2.2238152 -0.22806011 2.5610714
2.1823814 -0.17444324 2.5878654
2.2229826 -0.17460178 2.5635505
2.0012741 -0.13254906 2.5936627
2.1827891 -0.12293384 2.5871837
2.2285299 -0.11929371 2.5617583
2.1854761 -0.075531974 2.5954728
2.224817 -0.075529188 2.5695436
2.1842592 -0.029742083 2.5947428
2.2248871 -0.029736215 2.5703423
2.0239062 0.045035273 2.582356
2.1890888 0.023627868 2.5908363
2.2212799 0.023700394 2.5748
2.2557483 0.028375814 2.5568242
2.0269682 0.074760944 2.5856631
2.1873343 0.077104203 2.5974553
2.2211397 0.077245392 2.5794728
2.2611794 0.077402376 2.5563197
1.9955592 0.14816393 2.5852447
2.1894848 0.12302908 2.5984828
2.2221501 0.12318259 2.5790908
2.2649612 0.12347714 2.5561297
2.0043283 0.16363519 2.5958669
2.1902225 0.17659153 2.5966995
2.224225 0.1692397 2.5792494
2.2686749 0.16974266 2.5580204
2.1940868 0.23051155 2.5977337
2.228822 0.22329885 2.581058
2.2711256 0.22373672 2.5571895
0.72122681 0.27094501 2.5651259
2.1985466 0.27703452 2.5992024
2.2303622 0.277206 2.5784161
2.2750123 0.27801964 2.5570321
0.61781597 0.33553353 2.5574148
0.74512935 0.31449547 2.5524242
2.2181718 0.32371959 2.588666
2.2705667 0.32467481 2.5617862
0.54192853 0.37595525 2.5710957
0.57735455 0.37389365 2.5770762
0.60968745 0.37527385 2.5559349
2.2221498 0.37053001 2.5880325
2.2756252 0.37176576 2.562073
0.5350042 0.42946708 2.5876515
0.57688981 0.42251793 2.5783117
0.61657894 0.4196986 2.5579684
2.2270772 0.42355546 2.589633
2.2799439 0.41893685 2.5607657
0.54613608 0.46681455 2.5971606
0.57700801 0.47571093 2.581408
0.619766 0.47199893 2.5602601
2.2303343 0.47862363 2.5863798
2.2715364 0.47395357 2.5665004
2.3050313 0.47513717 2.5514679
0.57644182 0.52654207 2.5870452
0.6254369 0.525886 2.5612869
0.65902549 0.54244095 2.5503764
0.74600971 0.51879978 2.5798588
2.2316775 0.52868217 2.5909171
2.2742438 0.52960122 2.5662909
-0.74869198 0.59914452 2.5537157
0.5783661 0.57653916 2.5889716
0.62465841 0.57721537 2.5664134
0.66128528 0.58860469 2.5524092
2.237318 0.57672685 2.5889552
2.2809553 0.57797348 2.5651906
-0.67159653 0.64288914 2.5852551
-0.63284987 0.64476782 2.5813386
0.58269423 0.62120754 2.5927582
0.62282819 0.62662292 2.5724032
0.65945148 0.62957126 2.5560613
0.73013628 0.63778555 2.5527959
2.2301357 0.62431031 2.5910108
2.2721682 0.62804693 2.5711801
2.3040409 0.62683541 2.552058
-0.66154993 0.67138302 2.577517
-0.6293807 0.67748797 2.5701914
-0.51311517 0.68746924 2.5618737
-0.48960283 0.69265443 2.5806348
0.588144 0.67502302 2.5934722
0.62284768 0.67353761 2.5766721
0.65957892 0.67562312 2.5574939
0.73581231 0.66204572 2.5692501
2.2299662 0.67258817 2.5906422
2.2775126 0.67516601 2.5710707
2.3126781 0.67632633 2.551199
-0.66140151 0.70951968 2.558928
-0.63500774 0.70222807 2.5612459
-0.50183469 0.70718688 2.5501535
-0.47445488 0.72197062 2.5754182
-0.43887681 0.7306084 2.5947361
-0.38890687 0.73978454 2.5848241
0.59147274 0.72664416 2.5948787
0.62719738 0.72704697 2.5797789
0.66899437 0.72354478 2.559581
2.2390323 0.71977317 2.5940611
2.2723594 0.72639221 2.5748754
2.3075705 0.72159952 2.5575159
-0.36840779 0.75609273 2.5700538
-0.3299095 0.76555526 2.5770457
0.59505934 0.76470518 2.5980511
0.62708062 0.77600354 2.5807195
0.67014813 0.77570403 2.5586181
0.72362018 0.77201402 2.5528414
2.2412474 0.77294713 2.5961401
2.2761364 0.77412719 2.5763083
2.3214488 0.78142983 2.5587196
-0.63145477 0.84218073 2.5743992
0.19305588 0.84808999 2.5560346
0.62730724 0.82106656 2.5832129
0.67349243 0.83057147 2.5607667
0.73185688 0.81987256 2.573426
2.2496789 0.80748028 2.5976677
2.2716129 0.82681924 2.5841405
2.3157144 0.82720965 2.5629385
-0.61590779 0.86707854 2.5894923
-0.59408367 0.87027168 2.5812981
-0.46222407 0.89238256 2.5823934
0.18909416 0.87844789 2.5650585
0.207986 0.87033045 2.5806494
0.62438959 0.87258506 2.5873549
0.67111182 0.87554103 2.5627081
0.70842832 0.87563044 2.5528362
2.2803481 0.8765099 2.5847661
2.3214698 0.87446958 2.559438
-0.62441677 0.90896845 2.5869827
-0.50452042 0.93117869 2.5874143
-0.44216162 0.94273651 2.5681992
0.19040832 0.93079293 2.5720086
0.62711936 0.92371643 2.5893624
0.67444164 0.92549419 2.5641282
0.71458006 0.9268226 2.5603073
2.2766845 0.92742121 2.5877507
2.3154156 0.92881519 2.5642078
0.19044912 0.97883695 2.5788858
0.63168001 0.97510314 2.5874047
0.67747676 0.97551179 2.5636554
0.71492594 0.97412479 2.5626583
2.2822223 0.97968537 2.5873668
2.3218684 0.97834873 2.5658672
0.18658118 1.0243101 2.5737069
0.63393342 1.0247738 2.5891976
0.6728577 1.0276288 2.5682938
0.70909798 1.0292252 2.5655389
2.2832382 1.0238576 2.5902715
2.3303413 1.0199876 2.5647326
0.17693576 1.0679337 2.5665367
0.63234174 1.0738858 2.5916717
0.67215103 1.0730214 2.571629
0.7045843 1.0719672 2.562753
2.288651 1.0645211 2.5913134
2.3225062 1.0722551 2.5693996
2.3563533 1.0637301 2.5527306
0.17870772 1.1177918 2.580317
0.63903999 1.1243771 2.5935326
0.67603147 1.1229943 2.5730221
0.70906258 1.11875 2.5667276
2.2847154 1.1129925 2.5936012
2.3258774 1.125388 2.5749052
2.3545446 1.1355929 2.556942
0.17465496 1.1826612 2.5799096
0.64211905 1.1701478 2.5931685
0.67836851 1.1723741 2.5754435
0.71067554 1.178164 2.5773456
2.2935331 1.1867144 2.5938702
2.3281999 1.1795756 2.5737071
2.361845 1.1718879 2.5518775
0.17085345 1.2253774 2.5763333
0.63953733 1.2183857 2.597703
0.67000806 1.2254922 2.5830345
0.7041437 1.2266197 2.5690041
2.2995083 1.2144156 2.590668
2.3257627 1.2277619 2.578413
2.3577385 1.2274206 2.5581496
0.148517 1.2804199 2.5527334
0.17292669 1.2732912 2.5765224
0.67683029 1.2791349 2.5855949
0.71216059 1.2814876 2.583595
2.3269291 1.2742054 2.5847826
2.3672369 1.2805812 2.5617166
-0.6059683 1.3409988 2.5607498
0.17094244 1.3270754 2.5814712
0.67882407 1.328329 2.5870988
0.70645475 1.3287368 2.5824931
2.3262184 1.3272278 2.5825734
2.3643491 1.3268259 2.5584724
-0.60715544 1.3571998 2.5604553
0.17067301 1.3733344 2.5836556
0.67575222 1.3724525 2.5870681
0.70618916 1.3713398 2.5858202
2.3297362 1.3812172 2.5869629
2.3725841 1.3762233 2.5610521
0.16391981 1.4307256 2.5777342
0.69511527 1.4218302 2.5969503
2.3225224 1.4286948 2.5876842
2.3725452 1.4257059 2.5642612
0.16628271 1.4659592 2.5657759
0.68709344 1.4512219 2.5980027
0.70094776 1.451027 2.5948343
2.3294907 1.4714584 2.5871358
2.3746378 1.4765667 2.561311
2.3416502 1.5237862 2.5906017
2.3724465 1.5207912 2.566823
2.4074872 1.5354311 2.5518904
2.3428195 1.5718142 2.5925784
2.3742154 1.5708387 2.5728443
2.4070039 1.5766865 2.5545988
2.3385303 1.6233809 2.5972233
2.3752201 1.6250486 2.5724564
2.4118371 1.6180112 2.5518425
-0.78341961 1.6772671 2.5688157
-0.7397396 1.6730436 2.5678205
2.3491082 1.6565971 2.5947034
2.3737342 1.6762429 2.5809155
2.4093451 1.6712406 2.5574636
-0.80595982 1.7426674 2.5562053
-0.78279811 1.728352 2.5854299
2.3491507 1.7210175 2.5980256
2.3802109 1.726324 2.5789998
2.4182827 1.7192231 2.5562363
-0.81067628 1.781981 2.5549848
-0.79290283 1.7765481 2.5818467
2.373642 1.7763515 2.5828786
2.4214995 1.7728573 2.5629108
-0.80712575 1.8240824 2.5666103
-0.79197669 1.8203861 2.5880008
2.3727236 1.8240802 2.5937881
2.4163127 1.8247242 2.566
-0.81529284 1.8821725 2.5668335
-0.79818177 1.8643632 2.591116
2.3867919 1.8703721 2.587467
2.4259777 1.8733451 2.5633316
2.4593871 1.8696697 2.5545669
-0.81174272 1.9309974 2.5773973
-0.79429841 1.943202 2.5995057
2.3923879 1.9084805 2.5935633
2.4212606 1.9191748 2.5691071
2.4596622 1.9373161 2.5543573
-0.814336 1.9738735 2.5700023
-0.7973001 1.9732467 2.5951791
2.425878 1.9731389 2.5844362
2.4589808 1.9702706 2.5604308
-0.81330383 2.025229 2.5729585
2.4302669 2.0203018 2.5824578
2.4630053 2.0254962 2.5595217
-0.81457472 2.0743432 2.5660853
-0.79683566 2.0872567 2.5974398
2.4255996 2.0630786 2.5815864
2.474643 2.076643 2.5588303
-0.81055462 2.1233959 2.5765581
2.4347043 2.1203079 2.5892065
2.4731064 2.1218505 2.5627174
2.4248786 2.1646059 2.5875173
2.4674983 2.1697886 2.5654662
2.3978291 2.2468159 2.5982337
2.4291847 2.2227645 2.5865257
2.4650915 2.2215109 2.5635185
2.3899384 2.27601 2.5870454
2.4292676 2.27793 2.5695865
2.4686871 2.2614183 2.5570946
1.4857457 2.3378582 2.596879
1.5286561 2.3345566 2.579617
1.5917473 2.3399537 2.582798
1.6312952 2.3434732 2.5760696
1.6557771 2.341043 2.588285
1.730463 2.3433878 2.5729787
1.7817204 2.3425136 2.557343
1.811538 2.3413086 2.5783381
1.8741108 2.3422956 2.5745244
1.9233663 2.3362322 2.5842891
1.9738722 2.3393142 2.5674355
2.0205319 2.3389826 2.5685947
2.0700843 2.3413277 2.5723166
2.1205633 2.3394382 2.5792887
2.1683502 2.3289082 2.569335
2.2282529 2.3354487 2.5769753
2.2743251 2.3176069 2.5701103
2.3338044 2.3081367 2.580533
2.3725717 2.308217 2.5722446
2.4131253 2.3083577 2.5586514
1.5748256 2.3572555 2.578584
1.6911327 2.3543916 2.5883827
1.8445385 2.3500202 2.5718448
0.97687471 -0.65318853 2.6238651
0.95242923 -0.64140218 2.6393836
1.8075548 -0.51276332 2.63557
1.7993495 -0.44840258 2.6029453
1.8260355 -0.42225668 2.6162946
1.8550011 -0.37412512 2.6347172
2.1354752 -0.3646909 2.6018806
1.9911373 -0.31317735 2.625566
2.0379903 -0.31576294 2.6289091
2.0751932 -0.31963137 2.6265924
2.1223822 -0.32053831 2.6129549
1.9949459 -0.29880702 2.6319747
2.0375888 -0.27053186 2.6324217
2.0776691 -0.27280626 2.6402888
2.1198146 -0.27330732 2.6205966
2.1512244 -0.26578829 2.6019282
2.0341518 -0.22497536 2.6313684
2.0761364 -0.22706944 2.6417849
2.1196864 -0.22762495 2.6239703
2.1511905 -0.22771083 2.6048136
2.0199702 -0.17863752 2.6157572
2.0768743 -0.17498019 2.6437948
2.118562 -0.17426348 2.6258504
2.1505108 -0.17435893 2.6073041
2.0071983 -0.14778103 2.6007111
2.0795355 -0.1187611 2.6408372
2.1256852 -0.12098332 2.6226068
2.1556001 -0.1210691 2.606292
2.0710812 -0.075071461 2.6422169
2.1190839 -0.075393021 2.6302419
2.1597364 -0.075450949 2.6078501
2.0483975 -0.014393979 2.6284454
2.0682778 -0.032588623 2.6363997
2.1200857 -0.029761238 2.6321857
