ply
format ascii 1.0
comment PCL generated
element vertex 1502
property float x
property float y
property float z
element camera 0
property float view_px
property float view_py
property float view_pz
property float x_axisx
property float x_axisy
property float x_axisz
property float y_axisx
property float y_axisy
property float y_axisz
property float z_axisx
property float z_axisy
property float z_axisz
property float focal
property float scalex
property float scaley
property float centerx
property float centery
property int viewportx
property int viewporty
property float k1
property float k2
end_header
1.2598143 -0.041041218 1.144616
1.3910437 -0.028144851 1.1430621
1.4053259 -0.023203073 1.1402315
-1.3514727 0.020412207 1.1462007
-1.3303189 0.026857775 1.1397519
-1.2791927 0.02074836 1.1248565
-1.2305216 0.024592005 1.1097889
1.3949609 0.0008000129 1.1465976
1.4158072 0.00082771818 1.1489271
-1.3637803 0.075139716 1.1456903
-1.3304652 0.073378012 1.1382657
-1.2731932 0.077406697 1.1197405
-1.2265913 0.06786678 1.1057893
1.3784463 0.076359652 1.1452954
-1.3671848 0.12484804 1.1456482
-1.3303748 0.12613137 1.1333503
-1.2819822 0.12773862 1.1172915
-1.2381583 0.12271832 1.1037658
-1.4044685 0.17866275 1.1495552
-1.3702357 0.17248219 1.1407377
-1.3206812 0.17347926 1.1293346
-1.2693083 0.17665029 1.1082308
-1.2481712 0.15690823 1.1034992
-0.14123303 0.18419616 1.1272564
-1.4074837 0.20740095 1.1480702
-1.3758641 0.21093313 1.1405996
-1.3243639 0.21048103 1.1247269
-1.2647741 0.20978129 1.1051368
-0.15707934 0.22445734 1.1193792
-0.13132581 0.22002627 1.1276686
-0.077497855 0.23195568 1.1168096
1.1410147 0.24283814 1.1261709
1.299257 0.24113582 1.1009343
1.3251061 0.24381441 1.1015137
1.3692403 0.21299425 1.1083471
1.411453 0.21832938 1.1279206
1.1434932 0.28414273 1.1271445
1.1532739 0.28165486 1.1378336
1.3247046 0.27315024 1.1049439
1.3726361 0.27897388 1.1064205
1.1343898 0.34132302 1.1388706
1.1533626 0.3406679 1.1415888
1.2153169 0.34521368 1.1138024
1.3477947 0.31170607 1.1144783
1.3770669 0.31639689 1.1152195
1.400955 0.34052575 1.1243154
1.1284552 0.37656212 1.1293458
1.1693405 0.38026574 1.1065615
1.2277864 0.37916511 1.1054311
1.2794226 0.37399024 1.109519
1.3862743 0.38135302 1.1310462
1.1265113 0.41568026 1.133387
1.1807534 0.41885263 1.1193035
1.2043456 0.41943398 1.1048754
-1.5277185 -0.50298095 1.1629844
-1.4661371 -0.50445992 1.1542712
-1.4206119 -0.50115752 1.1505141
-1.5762366 -0.48315716 1.1985337
-1.530425 -0.4892903 1.173436
-1.4769495 -0.47937164 1.1803392
-1.428129 -0.47758883 1.1730013
-1.3755631 -0.47770733 1.1605499
-1.3335449 -0.46277794 1.1560251
-0.16399254 -0.47736901 1.1711763
-0.12405267 -0.48165238 1.1778997
-0.073953122 -0.48207331 1.1751064
-0.025826439 -0.48236915 1.1725976
0.025639109 -0.48167416 1.1749088
0.075680159 -0.48232886 1.1721059
0.12616561 -0.48116124 1.1759189
0.17406102 -0.47878754 1.1735462
0.22355072 -0.47722688 1.1746709
0.27460101 -0.47781596 1.1743643
0.32254228 -0.47908312 1.178663
0.37620816 -0.48085797 1.1786256
0.42491803 -0.48145878 1.1760936
0.47267005 -0.48405236 1.1779782
0.52711958 -0.48455715 1.1718405
0.57703066 -0.48602554 1.176816
0.62675709 -0.48697042 1.1732124
0.67472392 -0.48804399 1.1782956
0.72674894 -0.48837808 1.1679624
0.77868438 -0.49168089 1.1751541
0.81969434 -0.49208951 1.1729701
0.87257683 -0.49398893 1.1737493
0.92147684 -0.49367684 1.1664432
0.97250545 -0.49316621 1.1771333
1.0256747 -0.49303886 1.191092
-1.5006804 -0.44202584 1.1933329
-1.4662737 -0.4254714 1.1914326
-1.423013 -0.425529 1.1833527
-1.3742133 -0.42706192 1.1690463
-1.3281487 -0.42809516 1.1549785
-1.4596983 -0.37305361 1.1915634
-1.42352 -0.37797591 1.1838415
-1.3717579 -0.37301758 1.1691598
-1.3355522 -0.37777245 1.1602824
-1.4639425 -0.32491174 1.1938187
-1.4250237 -0.32225761 1.1815171
-1.3746742 -0.32656991 1.1679002
-1.3280011 -0.33042273 1.1551185
1.0455698 -0.33798301 1.1535501
1.0814267 -0.31728274 1.1581646
1.1037705 -0.30806464 1.1785668
-1.5006878 -0.29103267 1.1974481
-1.4743092 -0.27415106 1.195577
-1.4241966 -0.27462986 1.1821117
-1.3810078 -0.27353388 1.1690104
-1.3380289 -0.27937865 1.1561844
1.0985928 -0.2854912 1.1565285
1.1146392 -0.26858822 1.1706787
-1.5103484 -0.24826896 1.197311
-1.4712367 -0.22304447 1.1941344
-1.4247049 -0.22663628 1.1831673
-1.3757128 -0.22934289 1.1688181
-1.3348781 -0.22365101 1.1549438
1.1257228 -0.22320946 1.1688248
-1.4692066 -0.1823706 1.1941336
-1.4224548 -0.1743592 1.1778266
-1.3738176 -0.17245086 1.1634403
-1.3458347 -0.17766266 1.1595236
1.1288596 -0.17300329 1.1651938
-1.4750582 -0.12288485 1.1930559
-1.4264296 -0.1279158 1.1807853
-1.3754951 -0.12396764 1.1653624
-1.3400984 -0.11982206 1.1509489
1.1288396 -0.12128431 1.1729667
1.3846878 -0.10435519 1.1786684
-1.4715767 -0.07746952 1.1908782
-1.4240793 -0.077060319 1.1755202
-1.3776695 -0.076425761 1.1624771
-1.3417305 -0.077852502 1.1505439
1.0742067 -0.060702909 1.1897109
1.1335994 -0.071921326 1.174474
1.1517435 -0.057720903 1.1519231
1.3149737 -0.0656147 1.1571928
1.3845065 -0.087997489 1.1751902
1.4104879 -0.069327049 1.1771624
-1.4720623 -0.032670014 1.1898999
-1.4278953 -0.024589788 1.1744956
-1.3747001 -0.025595967 1.1569464
-1.3396568 -0.034585558 1.1504281
1.0364336 -0.015780553 1.1830919
1.0676481 -0.024669398 1.1909125
1.1356239 -0.02588797 1.182884
1.1672592 -0.021149477 1.1583382
1.2175202 -0.0094016222 1.1527356
1.2760844 -0.022370681 1.1573038
1.3265674 -0.030727135 1.1675304
1.3726825 -0.031264964 1.1668625
1.4121547 -0.032008633 1.1877515
-1.4736859 0.021816621 1.187512
-1.4230188 0.023424942 1.1682718
-1.382393 0.025601298 1.1588531
1.0389032 0.018669719 1.1877813
1.0674217 0.014662643 1.1835026
1.1367279 0.0090901749 1.19121
1.1736875 0.022819068 1.1756583
1.2264361 0.024205472 1.1646637
1.2794241 0.023897482 1.176001
1.3202556 0.016481252 1.1900594
1.3914379 0.024982652 1.1654351
1.4137975 0.025126569 1.1592504
-1.4657845 0.071796849 1.1794208
-1.4212728 0.076478608 1.1661261
-1.3830861 0.078199185 1.1559831
1.0432287 0.053876676 1.197512
1.0578449 0.068145484 1.1970315
1.1832075 0.06378334 1.1909276
1.2258645 0.072080113 1.1874822
1.2678894 0.072385691 1.1916871
1.3041593 0.063773021 1.1985922
1.3927586 0.07752645 1.1689779
1.4201609 0.077293977 1.1686487
-1.4683315 0.12201142 1.1780151
-1.4290498 0.1256983 1.1676292
1.0596492 0.12154391 1.198457
1.3966103 0.11333817 1.1770585
1.4183729 0.13074033 1.1679753
1.4543085 0.10044235 1.1764562
-1.4687093 0.17242941 1.1769099
-1.433207 0.18171793 1.1629688
-1.3927386 0.19430009 1.1524826
-0.12865052 0.18447086 1.1685164
1.0584725 0.1604099 1.1986945
1.1972369 0.19467759 1.198859
1.2219346 0.18256238 1.1881883
1.2690617 0.18333982 1.1893159
1.4147185 0.175051 1.1740178
1.4620795 0.15942742 1.1773503
-1.4763024 0.21122622 1.1779832
-1.4299892 0.21362723 1.1509171
-1.3922154 0.202289 1.1508826
-0.15008648 0.22449866 1.1556475
-0.12855604 0.22035226 1.1716167
-0.083642408 0.23203501 1.1810263
1.0348405 0.24263099 1.1811657
1.0662698 0.24381906 1.1969962
1.1746373 0.23293597 1.185068
1.21868 0.21052258 1.19214
1.2671298 0.20693237 1.1860882
1.4537395 0.20110007 1.1804895
-1.0256999 0.29397243 1.1878119
1.0464425 0.2763541 1.1948843
1.0699447 0.27616951 1.19085
1.1467826 0.29330269 1.192818
1.1613249 0.27771118 1.1792058
-1.0353255 0.30290484 1.1905707
1.0445248 0.32140234 1.1941363
1.0702323 0.32686314 1.186641
1.1350396 0.32913876 1.1782821
1.1612427 0.3146981 1.1673235
-1.0558856 0.38242206 1.1960005
1.0495631 0.36677042 1.1999348
1.0684202 0.37544736 1.1806003
1.1080774 0.37052354 1.16741
-1.0595121 0.43168816 1.1858957
-1.0455455 0.40552795 1.1839197
1.0697212 0.40583313 1.1793602
1.1057429 0.41642085 1.1638697
-1.0570281 0.46982914 1.1813085
-1.0442667 0.49426603 1.1600572
-1.0534086 0.51707125 1.1631708
-1.0443169 0.50528795 1.1559609
0.8141256 -0.50124633 1.239574
0.87637007 -0.50160778 1.236734
0.92323363 -0.50398028 1.2329735
0.97157985 -0.5037483 1.2239282
1.033667 -0.50316882 1.2331101
-1.5804751 -0.45111239 1.2274445
-1.5219514 -0.45709381 1.2077358
-0.1679543 -0.47967052 1.2260278
-0.12618373 -0.48202458 1.224087
-0.076238565 -0.48319632 1.2236288
-0.024907636 -0.48320329 1.2217717
0.023409426 -0.48203832 1.2248744
0.075005144 -0.48341295 1.2243556
0.12211187 -0.48165989 1.2265604
0.17370595 -0.48114926 1.2254741
0.22351986 -0.48001894 1.2242228
0.2757369 -0.48084122 1.2260032
0.32801718 -0.4826203 1.2273238
0.37334892 -0.48324373 1.2247425
0.42202899 -0.48413354 1.2186408
0.47403675 -0.4880017 1.2295007
0.52296835 -0.4883323 1.2205843
0.57511556 -0.49013928 1.2261425
0.62381315 -0.49257123 1.2252784
0.67608267 -0.492084 1.2188482
0.72709954 -0.49483398 1.2221525
0.77717239 -0.49557447 1.2219913
0.82662863 -0.49848536 1.2301785
0.86853671 -0.49757028 1.2054074
0.97890896 -0.49913374 1.2167437
1.0231938 -0.49620155 1.2134159
-1.6049644 -0.43722871 1.2354168
-1.5714353 -0.41703156 1.224003
-1.5256058 -0.42466298 1.2097434
-1.4923129 -0.41486192 1.2014573
-1.5757799 -0.37890872 1.2280692
-1.522959 -0.37538975 1.2103004
-1.4913347 -0.37029999 1.2039752
1.5752604 -0.35400027 1.2393101
-1.5589052 -0.32719159 1.2227051
-1.5174096 -0.32948875 1.2075649
-1.4923434 -0.32161096 1.2039473
-1.5504116 -0.28130656 1.2245616
-1.5268717 -0.27619627 1.2112952
-1.4867848 -0.29857147 1.2000293
-1.5229861 -0.22437784 1.2112792
-1.4946951 -0.23289748 1.2024567
1.1480589 -0.20178625 1.2041683
-1.5080028 -0.17499511 1.2054852
1.1471893 -0.19040702 1.2048154
-1.5018588 -0.14436552 1.2037818
-1.4966062 -0.13534726 1.2003559
1.1384614 -0.12087369 1.2135398
1.0754589 -0.06284751 1.2174858
1.125277 -0.071555212 1.2157428
1.4206877 -0.061453186 1.2119616
1.0392466 -0.017592885 1.2124122
1.0626529 -0.031822961 1.2188621
1.1179405 -0.028067034 1.2209109
1.0359573 0.025131719 1.2118939
1.0669531 0.014886296 1.2255875
1.1285571 0.031750001 1.2167767
1.3275365 0.037826475 1.201142
1.408336 0.013100437 1.2025318
1.0448593 0.07244686 1.2152175
1.0708482 0.083259024 1.20811
1.1348699 0.070624523 1.236541
1.1665472 0.082560219 1.2163843
1.2042397 0.095649764 1.2021999
1.2890786 0.087302707 1.2077737
1.3205403 0.077234969 1.2149979
1.4191152 0.067067623 1.2101194
1.045427 0.12427254 1.216903
1.0691032 0.12553976 1.2098496
1.12379 0.12088645 1.2431159
1.1784847 0.12261606 1.2326989
1.2235162 0.12764528 1.2123052
1.2720287 0.12221946 1.2152323
1.314936 0.1246842 1.2341936
1.4178029 0.1400445 1.2150892
-0.11374911 0.18795772 1.2287099
1.0422404 0.17449541 1.2179735
1.0667267 0.18020999 1.2076635
1.1884446 0.17991118 1.2246735
1.2137855 0.16112034 1.2098622
1.2748247 0.15931664 1.2073162
1.3180346 0.17315632 1.2167923
1.365328 0.1978052 1.2269902
1.4437292 0.16191082 1.239204
1.5239432 0.1879082 1.2245874
-0.12065614 0.21844685 1.2205509
-0.075377069 0.2323785 1.2242742
-0.014882433 0.23728701 1.2362386
1.0445364 0.23023437 1.2214488
1.0670662 0.22377333 1.2142494
1.1035854 0.23120224 1.2209742
1.1714222 0.22280969 1.2152586
1.2071339 0.21548471 1.2058884
1.3251317 0.20516981 1.2040052
1.3621414 0.2096355 1.2223291
1.4292099 0.20168772 1.2136629
1.0407081 0.27513167 1.2157979
1.0734065 0.28416207 1.2258861
1.1386284 0.2819787 1.2182643
1.1576785 0.26293328 1.2234085
-1.0626258 0.32697856 1.2124693
-1.0362127 0.32269001 1.2092214
1.0423225 0.32362309 1.2135868
1.0647726 0.32743639 1.2369163
1.1315643 0.31904835 1.2143668
-1.0539429 0.36861673 1.206105
-1.048607 0.3753292 1.2146664
1.0481622 0.3668943 1.209736
1.0521145 0.3788566 1.2108284
1.5815076 0.39813793 1.2325655
-1.0585033 0.4008635 1.2088503
1.5827787 0.42917663 1.2255883
-1.0650985 0.45561659 1.2002625
1.5855055 0.72473288 1.2373123
1.6031455 0.74012762 1.2391897
0.64689189 -0.50271118 1.2831295
0.67302495 -0.5014717 1.2807001
0.73700124 -0.50490791 1.2887813
0.76807427 -0.50239313 1.2777681
0.82601708 -0.50285751 1.2756636
0.8757568 -0.50413823 1.2727863
0.93212998 -0.51080781 1.2894101
0.96412498 -0.50683904 1.2552505
1.0241671 -0.51079583 1.2769582
-0.17059644 -0.47940823 1.2742633
-0.12132411 -0.48207444 1.2708598
-0.073712602 -0.48405772 1.2752669
-0.026039254 -0.48376101 1.274124
0.021769332 -0.48362651 1.2775285
0.073502325 -0.48386338 1.2755939
0.12753311 -0.48307526 1.2750516
0.17789592 -0.48330149 1.2788104
0.22675471 -0.48180032 1.269084
0.27272674 -0.48415542 1.2683657
0.32626235 -0.4861885 1.2731813
0.376315 -0.48859873 1.2765995
0.42328396 -0.48884732 1.2677267
0.4761546 -0.49306619 1.271992
0.52457482 -0.49367231 1.2673939
0.57212424 -0.49564019 1.2743877
0.621279 -0.49543709 1.2592516
0.67175096 -0.49857312 1.2622974
0.71467221 -0.49704146 1.2614439
0.78219438 -0.49925649 1.2684528
0.83030468 -0.49965999 1.2518467
1.5755786 -0.35164052 1.2565705
1.5804033 -0.34187001 1.266881
1.6121809 -0.33472198 1.2741809
1.0697958 -0.036707558 1.2564627
1.1291335 0.098777674 1.2507997
1.058399 0.11119583 1.2531253
1.1461409 0.11487291 1.2541333
1.1638918 0.13900104 1.2569572
-0.20524476 0.16926536 1.2960097
-0.19926703 0.16323404 1.2990794
-0.10723183 0.1834686 1.2644011
-0.092603594 0.1799877 1.2844673
1.0536795 0.16703016 1.2562971
1.1921465 0.16921291 1.2639203
1.2041545 0.17450058 1.2821648
-0.10728037 0.21980248 1.2699606
-0.082602389 0.22484469 1.2879075
-0.027774068 0.23632224 1.2739359
0.0046961424 0.23677535 1.2748692
1.0599098 0.21272221 1.2579882
1.1809702 0.22842848 1.2643201
1.0539961 0.27273345 1.2553797
1.170012 0.25745484 1.2623264
-1.0622393 0.33803943 1.2944436
-1.0367286 0.33137941 1.2954817
1.5961899 0.42827308 1.2623538
1.6228049 0.4457891 1.2720355
1.6149747 0.45655093 1.2709451
0.48226076 -0.50124288 1.3421698
0.52848089 -0.50277162 1.324544
0.58860815 -0.50282896 1.3156891
0.61904132 -0.50630265 1.3157469
0.66771036 -0.50548279 1.3192002
0.73936367 -0.50591421 1.3162675
0.75472617 -0.50895482 1.3193936
0.91084576 -0.51047957 1.3006732
-0.20041347 -0.46271917 1.3030666
-0.17468311 -0.48031595 1.3213986
-0.12722543 -0.48356184 1.3245076
-0.075647511 -0.48463789 1.3252687
-0.024736192 -0.48540202 1.3269403
0.026568346 -0.48449719 1.3244759
0.076183274 -0.48569742 1.3249773
0.12528169 -0.4841933 1.3238428
0.17370312 -0.48499915 1.3282109
0.22194949 -0.48625967 1.326746
0.2745226 -0.48853159 1.317336
0.32259673 -0.49031535 1.3161685
0.37003681 -0.49445406 1.3206493
0.41290694 -0.49597034 1.3219392
0.47755593 -0.4961887 1.3150187
0.50693226 -0.49822548 1.3047891
1.6336832 -0.33583343 1.3032006
1.6724205 -0.32086757 1.3327652
1.6833001 -0.28706926 1.3419659
-0.20438093 0.18163373 1.317072
-0.176346 0.17708561 1.3252565
-0.13595484 0.17242151 1.3164978
-0.081838541 0.18840466 1.3297935
-0.08323703 0.21894144 1.3236536
-0.029789219 0.23493107 1.3278607
0.0096293157 0.23650156 1.3168193
1.2128767 0.24266307 1.3126663
-1.0590596 0.33990809 1.3077106
-1.0426452 0.34600851 1.307716
0.37673941 -0.50281322 1.3862789
0.43142676 -0.50326943 1.3678569
0.47528169 -0.5050081 1.36624
0.51457691 -0.50669128 1.3726209
-0.2077127 -0.47114897 1.3820592
-0.17508045 -0.4806135 1.3696474
-0.1234154 -0.48446342 1.3753085
-0.07309784 -0.48603299 1.376323
-0.024390697 -0.48675257 1.3767878
0.024241522 -0.48680243 1.3756393
0.075355999 -0.48271558 1.3784734
0.1238499 -0.48657072 1.3687482
0.17565453 -0.48675665 1.3742484
0.22580554 -0.48954031 1.3807291
0.27557462 -0.49288332 1.3705667
0.31841168 -0.49606764 1.3712277
0.37586606 -0.49873146 1.3589103
0.47222009 -0.49839082 1.3588166
0.076382115 -0.41732854 1.3805511
1.6696252 -0.33627877 1.356815
1.7086616 -0.26705673 1.3661273
0.067764774 -0.082595229 1.3826122
0.081935018 0.053509083 1.3992975
0.072014071 0.12429817 1.3928539
-0.060626585 0.18245356 1.3802193
-0.037692919 0.18365298 1.3977232
0.071826577 0.17702492 1.3914027
-0.068006195 0.21690191 1.3773673
-0.023924196 0.22673723 1.3772012
0.022591781 0.23470512 1.3740513
0.28508461 -0.50102073 1.4478438
0.32564101 -0.50411189 1.4203426
0.35035327 -0.5081386 1.4357626
0.42330703 -0.51041967 1.4132401
0.50223345 -0.50750548 1.4016613
-0.20876272 -0.47410688 1.4224417
-0.17508163 -0.48183846 1.4232796
-0.12440109 -0.48445484 1.4236921
-0.077870913 -0.48584506 1.4271168
-0.027285859 -0.48612392 1.4246167
0.023811754 -0.48765537 1.4290069
0.070495591 -0.48318201 1.4179314
0.12725039 -0.48719507 1.4203565
0.17373037 -0.48812497 1.426077
0.22328249 -0.49059051 1.4245803
0.27078745 -0.49529412 1.4165474
0.30810452 -0.49852425 1.4143054
0.075579964 -0.10741588 1.4037954
0.076953769 -0.071823694 1.4099795
0.076464325 -0.027129455 1.4226305
0.0764011 0.023747362 1.4214926
0.072508946 0.074148305 1.4107323
0.0721232 0.11739781 1.4013168
-0.052452728 0.16932277 1.4121975
-0.02215503 0.18084465 1.4072324
0.074635021 0.17971058 1.406489
-0.056987066 0.22547463 1.4196895
-0.025574967 0.22021747 1.4212873
0.024746684 0.23189874 1.4248538
0.064841315 0.22369921 1.4253933
0.27658945 -0.50365424 1.4758327
0.32712972 -0.50425386 1.4513772
-0.21442305 -0.47748208 1.4731497
-0.17528503 -0.48304123 1.4748404
-0.12432919 -0.48660401 1.479869
-0.073919579 -0.48658559 1.4766179
-0.027378988 -0.48774475 1.4802037
0.020733809 -0.48750189 1.4791247
0.052645467 -0.4825272 1.4694347
0.12812136 -0.48775351 1.4768443
0.17508847 -0.48875141 1.475328
0.22674292 -0.49239388 1.4741654
0.25427198 -0.49742413 1.4645505
-0.022696586 0.22386009 1.4547768
0.024618017 0.22466506 1.4678353
0.06586735 0.22781578 1.4799076
0.27207565 -0.5058834 1.5248222
1.0390257 -0.54398215 1.5140504
-0.2156361 -0.48038942 1.5247753
-0.17273071 -0.4867084 1.5280049
-0.12611546 -0.48579296 1.525618
-0.079564787 -0.48802099 1.526723
-0.026331741 -0.48974672 1.5287889
0.026627654 -0.48986435 1.5216095
0.054778218 -0.48695835 1.5322516
0.13286421 -0.48823398 1.5203286
0.1755874 -0.49132836 1.5193312
0.2254734 -0.49401486 1.5183588
0.25482631 -0.49812159 1.5238403
0.93986285 -0.55178183 1.5929677
1.0316858 -0.55462921 1.5948222
1.0841868 -0.55713564 1.5893348
0.23168063 -0.50243783 1.5832649
0.26266587 -0.50941527 1.5888672
0.92506719 -0.54821157 1.5865974
0.98789692 -0.54777038 1.5905595
-0.22182344 -0.48971131 1.5973548
-0.1769643 -0.48774275 1.5756218
-0.12761131 -0.48888606 1.5811918
-0.071481198 -0.49194813 1.5770527
-0.025594935 -0.49255535 1.5749383
0.025194142 -0.49184418 1.5741069
0.056074291 -0.48692584 1.5709443
0.13131154 -0.49388039 1.5771098
0.16938052 -0.49361229 1.5722775
0.2110966 -0.49627793 1.5789766
1.9553565 -0.23449928 1.5935435
0.75884914 -0.55009747 1.6259916
0.827586 -0.55003434 1.6006683
0.8839885 -0.55803394 1.6396686
0.91367298 -0.55372196 1.6462588
0.98179013 -0.55442542 1.6340685
1.0301619 -0.55805409 1.6365539
1.0783994 -0.55803186 1.632378
1.1236724 -0.55908078 1.6305262
1.1774437 -0.55644453 1.6403375
0.038488619 -0.50180507 1.6471257
0.17303166 -0.50180268 1.6357009
0.23266925 -0.50240332 1.6258559
0.2643213 -0.50835919 1.6264641
0.7928223 -0.54979163 1.6129065
0.9362269 -0.54859924 1.6176304
1.0388498 -0.54949629 1.608483
-0.22434361 -0.48617154 1.613443
-0.17436256 -0.49150878 1.6269344
-0.1224531 -0.492064 1.627617
-0.069970846 -0.49359596 1.6288159
-0.025085721 -0.49391788 1.6215061
0.021187793 -0.49367982 1.6206062
0.057880394 -0.49060917 1.6240001
0.13346562 -0.49516249 1.6275966
0.18864958 -0.49839708 1.6196731
0.20004836 -0.49897265 1.6021115
1.9742701 -0.36246106 1.6237043
1.9271277 -0.31400779 1.6207895
1.9848778 -0.32628408 1.636772
1.9831407 -0.27437896 1.6430101
1.9237148 -0.20113643 1.6326498
1.9871897 -0.22459254 1.63605
1.976746 -0.16241048 1.6392564
2.0028853 -0.18274145 1.6382371
1.8717896 0.031854112 1.6265328
1.8385866 0.099869058 1.6479402
1.8702598 0.061411291 1.6162374
1.8918998 0.16867757 1.6490495
1.8924812 0.22465064 1.6437296
1.8605888 0.25385395 1.6118213
1.9976573 0.94443876 1.6250294
2.0424004 1.0171477 1.6467485
2.0648406 1.0304736 1.6400747
2.0496547 1.0623679 1.6497611
2.070003 1.0690142 1.6438611
2.0618091 1.1223758 1.6465898
2.0189357 1.1986173 1.6483588
0.67561996 -0.55953395 1.6842456
0.74435085 -0.56077957 1.683537
0.77895337 -0.55639762 1.6649936
0.83192694 -0.55879819 1.6694313
0.8693341 -0.55849761 1.6766093
0.92130804 -0.55536133 1.678689
0.97778857 -0.55627638 1.6786877
1.0313491 -0.55924755 1.6880584
1.0732841 -0.55612499 1.6750257
1.1310188 -0.55783975 1.672096
1.173605 -0.55928218 1.6799023
1.2203511 -0.55978107 1.6943604
1.3009272 -0.55457437 1.691401
1.3778757 -0.55294204 1.6820765
0.14213987 -0.50244772 1.6742096
0.19594195 -0.50311816 1.6727992
0.22127149 -0.504026 1.667874
0.26880515 -0.5139271 1.6826323
0.92208344 -0.54980874 1.6637318
1.3407811 -0.54878014 1.6874703
1.4182086 -0.53726804 1.6815442
-0.25077122 -0.48113751 1.6520104
-0.21985634 -0.49343428 1.6795737
-0.1796004 -0.49247789 1.6775059
-0.12967792 -0.49390846 1.6754618
-0.082231194 -0.49677143 1.6762149
-0.026685955 -0.4971019 1.6748582
0.023113221 -0.49783438 1.6711158
0.054282486 -0.49701443 1.6790743
0.12481324 -0.49904782 1.6637591
0.16771555 -0.49824408 1.6683692
0.2124165 -0.49914187 1.6728754
1.4898756 -0.45740741 1.6896538
1.9828376 -0.21438637 1.6553618
1.9838928 -0.18480961 1.6517403
1.9099714 0.046138331 1.6719517
1.8757416 0.079033233 1.6614884
1.9061612 0.074214846 1.6676493
1.8409146 0.13379863 1.6685206
1.8753961 0.12578414 1.6763695
1.9107534 0.12974498 1.676533
1.8218516 0.18534039 1.6810508
1.8735864 0.1720659 1.6909739
1.9115961 0.17809118 1.6896421
1.8435817 0.22332314 1.6729081
1.8834772 0.2270209 1.6899853
1.9123878 0.22077437 1.6919982
1.8875035 0.25979018 1.6662651
1.9196818 0.25203472 1.6856195
1.806659 0.73633772 1.6951101
1.8151242 0.79755527 1.680529
1.9297336 0.89239931 1.6947255
1.9376316 0.9282791 1.6956486
1.9708766 0.93352467 1.6847439
2.020319 0.94861072 1.6699405
1.9322662 0.98300314 1.6959352
1.9746697 0.97223669 1.6793176
2.0162425 0.97612 1.6633047
1.9404866 1.0253211 1.6951978
1.9727287 1.0232271 1.6826516
2.0188487 1.0218244 1.6621369
1.9320595 1.0758271 1.693113
1.9745182 1.0707705 1.6792705
2.0248988 1.0756603 1.6627045
2.0662241 1.0835564 1.6573061
1.9319292 1.1251899 1.6933668
1.9770238 1.1270125 1.6818552
2.0245476 1.1253988 1.6660881
2.053009 1.1232829 1.6570638
1.930727 1.1735675 1.6952946
1.9737985 1.1773115 1.6828803
2.0176036 1.1719328 1.6633461
1.9337591 1.2217598 1.6920103
1.9781669 1.2228824 1.6812128
2.0087748 1.2265079 1.6690077
1.9302428 1.2749023 1.6963578
1.9751909 1.2791299 1.6848406
2.0106111 1.2649202 1.6715673
1.9241585 1.3204015 1.6956981
1.970384 1.3174487 1.6812029
1.9401579 1.3797712 1.6942718
1.9647501 1.363511 1.6906595
1.9366325 1.4227886 1.6939507
1.9653083 1.4181353 1.6976608
1.8962699 1.4928803 1.6987009
1.9158784 1.4654251 1.6958083
0.44917881 -0.55200183 1.7426846
0.47038305 -0.55117905 1.7360835
0.63156796 -0.55826038 1.7237492
0.67173964 -0.56241411 1.7216369
0.72998917 -0.56280547 1.7222927
0.77510035 -0.56264138 1.7153817
0.82339227 -0.56082249 1.7243363
0.87771952 -0.55758047 1.7246552
0.9274025 -0.55756104 1.7271569
0.96752918 -0.5592224 1.7167661
1.0302519 -0.55871844 1.7307614
1.0688148 -0.55666792 1.7236887
1.1271039 -0.55847728 1.7305216
1.1794448 -0.55741578 1.7349316
1.2241439 -0.55677223 1.7274258
1.2896926 -0.55547047 1.72641
1.3133761 -0.55199909 1.7199421
-0.16749164 -0.50038278 1.7259004
-0.1066262 -0.50185812 1.7036376
-0.074134238 -0.5024156 1.7271277
-0.023034008 -0.50168258 1.7153673
0.031158347 -0.50302887 1.7227423
0.053304065 -0.502792 1.7391322
0.13883388 -0.50273812 1.717334
0.17353047 -0.50365752 1.7214104
0.22986868 -0.50980735 1.7342658
0.27126405 -0.51530403 1.7271005
0.3061156 -0.53894204 1.7312433
0.4819628 -0.54940629 1.7280077
1.2978395 -0.54755425 1.7092934
1.3202169 -0.54635954 1.7291123
1.3806846 -0.54501158 1.7221818
1.427465 -0.53485233 1.7295765
1.4731501 -0.52488822 1.7300651
-0.25425422 -0.49136922 1.7346125
-0.22508988 -0.495184 1.7221407
-0.1697 -0.49679643 1.7321129
-0.12486792 -0.49582016 1.7266438
-0.080825493 -0.49759465 1.7266144
-0.029842708 -0.49706426 1.7196426
0.010562211 -0.49690726 1.7192842
0.12884866 -0.4982917 1.7208868
1.5146697 -0.46140417 1.7289003
1.5345222 -0.43854943 1.7207899
1.6032773 -0.3728089 1.7272022
1.8610542 0.18675052 1.7034488
1.9021878 0.17157431 1.7000501
1.8621752 0.20376618 1.702767
1.7835808 0.68406516 1.7422075
1.8259621 0.69191629 1.7320482
1.7918702 0.7386322 1.7476048
1.8193932 0.72547203 1.7342447
1.7899287 0.79522604 1.7473758
1.8211629 0.78010827 1.7332747
1.7807723 0.83141643 1.7458811
1.8254201 0.82390708 1.7380793
1.8658104 0.84061617 1.718884
1.7904587 0.88065422 1.746156
1.8304509 0.87332433 1.7375883
1.8735219 0.87577194 1.7147826
1.920633 0.88161594 1.7136108
1.7980348 0.9283362 1.7487801
1.8242793 0.92601526 1.7353473
1.8756275 0.92086804 1.7168232
1.9150381 0.93211585 1.7056971
1.9970677 0.93024135 1.7262281
1.7978643 0.98231775 1.748314
1.8219019 0.97804981 1.7355814
1.8742936 0.97418517 1.7159806
1.912639 0.96946049 1.704895
1.7868183 1.0335356 1.7448517
1.825807 1.0235283 1.7320715
1.8769625 1.0266566 1.7166923
1.9218743 1.0330805 1.7051939
1.785589 1.0779836 1.7424308
1.8257159 1.0736759 1.7326722
1.87423 1.0782145 1.7145027
1.9088738 1.0721822 1.7060992
1.7927599 1.1442071 1.7448317
1.8266494 1.1233151 1.7333206
1.8726509 1.1268148 1.7163302
1.9075979 1.1268235 1.707374
1.7906486 1.1766897 1.7418431
1.8226534 1.1734091 1.7326242
1.8755829 1.1754463 1.7148221
1.9151626 1.1777933 1.7069459
1.7855091 1.2354311 1.7438504
1.8276064 1.2259642 1.7364557
1.8745435 1.2241411 1.718455
1.9106233 1.2231065 1.7051798
1.7842607 1.2782265 1.7452965
1.8239884 1.2786669 1.7313955
1.8694769 1.2699765 1.715443
1.903263 1.266197 1.7050738
1.7854559 1.3256431 1.7464056
1.8234248 1.3282409 1.734942
1.8761978 1.3265163 1.7137078
1.9186072 1.3316331 1.7008915
1.7884178 1.376686 1.744767
1.8267453 1.3714675 1.7280815
1.875687 1.3769054 1.7163808
1.9192351 1.3730423 1.7048149
1.7848408 1.4202425 1.7437229
1.8262929 1.4240674 1.7350152
1.8757967 1.4249628 1.7153262
1.9139366 1.4224306 1.7051359
1.7888838 1.4754096 1.7455467
1.8243434 1.4791374 1.7327868
1.8747679 1.4765368 1.7162451
1.9077812 1.4658091 1.7030891
1.7863164 1.5295311 1.7457846
1.8239404 1.5243093 1.7323513
1.8734705 1.5255343 1.7191421
1.7809807 1.5620261 1.7459368
1.8256427 1.5693878 1.7351832
1.8704948 1.5713472 1.7222446
1.7956367 1.6276182 1.745418
1.8191984 1.6202952 1.7366315
1.851452 1.6123587 1.7313106
1.7978877 1.6900457 1.7478491
1.8189722 1.6715324 1.7385311
1.80753 1.7125078 1.7481163
0.41530663 -0.55657744 1.7949653
0.51474452 -0.5622015 1.7960844
0.58291167 -0.56230891 1.7817917
0.62767309 -0.56178427 1.7692776
0.67825001 -0.56654739 1.7869934
0.72129017 -0.56664765 1.7777636
0.77813989 -0.56281358 1.7783422
0.82014889 -0.55994177 1.7696486
0.87445879 -0.56033891 1.7803599
0.92442465 -0.55861712 1.7751083
0.9761287 -0.56256998 1.7757089
1.0179601 -0.55666417 1.7754711
1.0781893 -0.5558188 1.7792114
1.1242217 -0.55434215 1.7724831
1.177277 -0.55213356 1.7751799
1.2383862 -0.55370897 1.7721037
1.2667425 -0.55359393 1.7554708
1.3009733 -0.55162245 1.7752029
-0.23941886 -0.50078797 1.7861485
-0.1715567 -0.50183213 1.7704804
-0.13000147 -0.50244647 1.7996799
-0.067519471 -0.50111818 1.7808487
-0.023859985 -0.50264788 1.7761294
0.023875587 -0.50204581 1.7685499
0.059984207 -0.50560898 1.7699056
0.14162259 -0.50528413 1.7763444
0.17608646 -0.50908977 1.783066
0.22270419 -0.50932902 1.7711742
0.28184354 -0.52068692 1.7674536
0.32362258 -0.54102403 1.7795951
1.2271894 -0.54774261 1.7755641
1.2711962 -0.54762608 1.7742144
1.3242213 -0.54310125 1.7719252
1.3757664 -0.53773963 1.7715425
1.4266948 -0.52473652 1.7778243
1.4777277 -0.51634699 1.77395
1.5140066 -0.50673109 1.7759033
-0.27172795 -0.49483809 1.7951307
-0.22463782 -0.49737266 1.7750698
-0.17948103 -0.49400383 1.775875
-0.13721201 -0.49931231 1.7771902
-0.07287728 -0.49807003 1.7698637
-0.045481257 -0.49876684 1.772963
0.010991056 -0.49936232 1.7917132
1.5271015 -0.49321905 1.7785031
1.6290148 -0.37339777 1.7893084
1.6393036 -0.3237637 1.7826805
1.6436594 -0.27932078 1.7915694
1.656673 -0.26767924 1.7820784
1.645052 -0.22243133 1.7911398
1.6549287 -0.23458695 1.7841567
1.6317192 -0.17554881 1.7951485
1.6191939 -0.14042053 1.7941285
1.4958671 0.28646049 1.7976583
1.5001417 0.49259904 1.7858388
1.5470307 0.5920676 1.7980219
1.6261479 0.63791668 1.7604725
1.6758195 0.6796549 1.789722
1.7180645 0.68511444 1.7655751
1.7718601 0.6923753 1.7532245
1.6776562 0.72676611 1.7931095
1.7271304 0.72494489 1.7745607
1.7734503 0.72410297 1.7579876
1.6743226 0.77396888 1.7919339
1.7219975 0.77818972 1.7763216
1.7688282 0.77241904 1.7576693
1.8067415 0.76820719 1.7533064
1.6782414 0.82842904 1.7926546
1.7223805 0.82580793 1.7744648
1.7691785 0.8203373 1.7586223
1.6750331 0.87228793 1.7903504
1.7281871 0.87368494 1.7725772
1.7692589 0.87370735 1.7573863
1.6787746 0.92391431 1.792776
1.7250596 0.92403793 1.7749718
1.7718002 0.92757988 1.7584474
1.6802022 0.97386324 1.7934968
1.7270271 0.97889513 1.7770565
1.776284 0.97418463 1.758124
1.6802261 1.025143 1.7916539
1.7235941 1.0262626 1.7762662
1.7661262 1.0244071 1.7583424
1.6737056 1.080832 1.7904315
1.7237326 1.0746926 1.7763689
1.7647696 1.0738763 1.7587042
1.6788549 1.1267079 1.7894214
1.7213149 1.126527 1.7732487
1.7697957 1.1230773 1.7579117
1.6809182 1.1762335 1.7921014
1.7224915 1.1738039 1.7711561
1.7673197 1.1768382 1.7562569
1.6762371 1.2230934 1.7942117
1.7270454 1.2257869 1.7752466
1.762427 1.2228003 1.7582581
1.6774416 1.2725555 1.7886715
1.7279077 1.2732646 1.7716852
1.7594128 1.2806356 1.7545435
1.6820601 1.327064 1.7886494
1.7267009 1.3253961 1.7725003
1.7615412 1.3287888 1.7565526
1.6769776 1.3704985 1.7864182
1.7307745 1.3779558 1.7646211
1.7652833 1.3759 1.7542006
1.6476415 1.4323618 1.7992823
1.67691 1.424835 1.7886622
1.7247736 1.4276689 1.7689509
1.7638888 1.4320539 1.7551757
1.641946 1.4636015 1.7994726
1.6800979 1.4752361 1.7900524
1.7264366 1.4774538 1.7702348
1.7670768 1.4731984 1.7579643
1.6747805 1.5234729 1.7893595
1.7263006 1.5317183 1.7701939
1.7665631 1.51999 1.757268
1.6760035 1.5712347 1.7875577
1.7201655 1.5793407 1.7701802
1.7617 1.5781618 1.7551665
1.6383401 1.6365753 1.7998399
1.6721587 1.6270881 1.7909211
1.7247069 1.6251736 1.7696042
1.7745752 1.6229 1.7602456
1.6793392 1.67241 1.7887013
1.7264072 1.6764623 1.7751094
1.7783703 1.6730829 1.7588648
1.6787291 1.7234361 1.7937849
1.7273637 1.7257587 1.7796527
1.7758374 1.7253542 1.7606431
1.673365 1.7582209 1.7922441
1.7299877 1.7551626 1.7796808
1.7720473 1.7638228 1.7648213
0.42835832 -0.56191891 1.8107353
0.4762128 -0.56438303 1.8272256
0.52494794 -0.56558293 1.8331814
0.57529747 -0.56359714 1.8157668
0.62999701 -0.56334031 1.8215315
0.67321503 -0.56127757 1.8193756
0.72034419 -0.56424123 1.8272251
0.76886892 -0.56175905 1.8249143
0.8256256 -0.56006384 1.8263175
0.87319481 -0.55841148 1.8270172
0.92208028 -0.55513394 1.8213141
0.97646785 -0.5562706 1.8245029
1.0119599 -0.55360574 1.8222963
1.0807277 -0.55287164 1.8253084
1.108902 -0.55285293 1.8344686
1.1713364 -0.55619758 1.8186259
1.2054285 -0.55007875 1.8213266
-0.26193193 -0.5014478 1.8204367
-0.231264 -0.50304759 1.8290761
-0.16911598 -0.50512975 1.8412868
-0.11380649 -0.50438935 1.824368
-0.07457272 -0.5046342 1.8338977
-0.019979009 -0.50262469 1.8202862
0.025683414 -0.50454617 1.827141
0.061754439 -0.5053547 1.8239083
0.14050341 -0.50836527 1.8204408
0.17200305 -0.50708383 1.8225358
0.22787055 -0.51285565 1.8265764
0.27632037 -0.51856935 1.8177451
0.30919197 -0.53249782 1.8250713
0.93894947 -0.54888123 1.8461332
1.0260673 -0.54727852 1.8259439
1.0522754 -0.54697824 1.8351116
1.1293969 -0.54574752 1.8247439
1.1788918 -0.5462395 1.8382542
1.2288849 -0.54269564 1.828894
1.2778398 -0.53917176 1.827278
1.3251324 -0.53137577 1.823789
1.3747864 -0.52283424 1.8230946
1.4222555 -0.51176989 1.8289816
1.4725462 -0.50728273 1.8148433
-0.20292108 -0.49951226 1.818382
-0.15818121 -0.49909359 1.8198168
-0.13964044 -0.49657169 1.8115835
-0.033440683 -0.4998627 1.8270077
1.4892975 -0.49859032 1.8357763
1.527545 -0.49310312 1.8270305
1.5556961 -0.49152219 1.8143355
1.5444531 -0.40399113 1.8397818
1.5640479 -0.40622884 1.8422225
1.530506 -0.37459639 1.8381209
1.5802746 -0.37602779 1.814111
1.6116861 -0.36055684 1.8011801
1.5327539 -0.32881588 1.8415846
1.577702 -0.32640386 1.819101
1.616114 -0.32368237 1.8042679
1.5396643 -0.27643684 1.8428864
1.5770572 -0.27545953 1.8235416
1.6198292 -0.27025726 1.8080713
1.5380083 -0.22964069 1.8449966
1.5719669 -0.22647378 1.8266186
1.6180902 -0.22314332 1.8063287
1.535768 -0.1700808 1.842979
1.5719594 -0.17252314 1.8282257
1.611618 -0.17544836 1.8085623
1.5425417 -0.12148498 1.8409493
1.5705334 -0.12672086 1.8261982
1.6089529 -0.13551661 1.8136101
1.540297 -0.077122055 1.8366905
1.5586599 -0.092884868 1.822553
1.5203001 -0.026218373 1.8362023
1.5212328 0.022052009 1.8474619
1.5222126 0.07568685 1.8361163
1.5236235 0.12636049 1.8351632
1.525718 0.17873423 1.8457057
1.4942411 0.2120862 1.8043227
1.5048356 0.20293485 1.8181418
1.5143135 0.28083405 1.8375231
1.5176007 0.33595181 1.8380152
1.4946299 0.36286771 1.8050498
1.5090463 0.35560545 1.8242527
1.5232846 0.43813047 1.8482963
1.5292503 0.47829396 1.8474717
1.5339377 0.5246101 1.8334877
1.5429581 0.56991172 1.8398278
1.5558312 0.58303118 1.833854
1.5420436 0.62080276 1.8463773
1.5681723 0.62665409 1.8320645
1.6222196 0.64172602 1.8106409
1.5404847 0.67519766 1.8447665
1.5753196 0.67692178 1.8344067
1.6231558 0.67257768 1.8133491
1.5457336 0.72144991 1.8467073
1.5763028 0.72741824 1.832986
1.6246854 0.72303271 1.8134758
1.6518219 0.71154362 1.8016205
1.5422692 0.77607584 1.8463857
1.5764079 0.77899075 1.8323619
1.626976 0.7696349 1.8127943
1.6558256 0.79285598 1.8003997
1.5422099 0.82587981 1.8456007
1.5732157 0.82874024 1.8330219
1.6262187 0.82129425 1.8134804
1.6608741 0.8327114 1.8030477
1.5432701 0.87689531 1.8450177
1.5758013 0.87880486 1.8337126
1.6249425 0.87248176 1.8123569
1.6528188 0.89553374 1.8028183
1.5414537 0.92852479 1.8453432
1.5757766 0.92601943 1.8329422
1.6238602 0.92461723 1.8129779
1.6542139 0.92867512 1.8023359
1.5460169 0.96958441 1.8463788
1.5752858 0.97415411 1.8338437
1.6230212 0.97653526 1.8141925
1.6602405 0.9764924 1.8010088
1.5399739 1.0200833 1.8445556
1.5752305 1.0250236 1.8333514
1.6266581 1.0254337 1.8140432
1.6585828 1.0219574 1.8022881
1.5407617 1.0740741 1.846822
1.5725483 1.0758888 1.8343185
1.6229333 1.0745425 1.8135966
1.655207 1.0773358 1.8043429
1.5408343 1.1275882 1.8484389
1.5748608 1.1252888 1.8331263
1.625042 1.1249599 1.8118365
1.6598916 1.1296253 1.8010871
1.5424018 1.1853863 1.8471037
1.5783062 1.1749525 1.8308979
1.6271 1.173136 1.8126869
1.6561382 1.165473 1.8029916
1.5327311 1.2187116 1.8453034
1.5720291 1.2238145 1.8376662
1.6225805 1.2263221 1.814574
1.6501756 1.2228384 1.8027722
1.545771 1.2825563 1.843883
1.5749855 1.2702895 1.8308034
1.6257734 1.27312 1.8116491
1.5441288 1.3219568 1.8465258
1.5780354 1.3228379 1.8330003
1.623672 1.324109 1.8122798
1.6587179 1.3170338 1.8020531
1.5423962 1.3679943 1.8446274
1.5754733 1.3720105 1.8324196
1.6238806 1.3762401 1.8133526
1.6512873 1.3871793 1.8047197
1.5404394 1.426525 1.8462286
1.5712584 1.4210931 1.8297588
1.6245067 1.4260442 1.8104155
1.658855 1.4061009 1.8047929
1.5392812 1.4777644 1.8444117
1.5759213 1.4694413 1.8263774
1.6220407 1.4811895 1.8117067
1.6520514 1.4853158 1.8019223
1.5382791 1.5236886 1.843123
1.5739096 1.5213841 1.8265256
1.6237348 1.525491 1.8106849
1.5341082 1.5746642 1.8431004
1.5780139 1.5733086 1.8257327
1.6264884 1.5732889 1.8113118
1.6547562 1.5820045 1.8029745
1.5401411 1.6218556 1.8432006
1.5744063 1.628046 1.8268236
1.6212629 1.6157591 1.8071201
1.5318054 1.6763216 1.8430493
1.5762424 1.678668 1.8301269
1.6291053 1.6753328 1.8101573
1.6567768 1.6812956 1.8010917
1.5207018 1.7199291 1.8460724
1.5766575 1.7243578 1.8303781
1.618215 1.7217721 1.8103559
1.6530371 1.7173213 1.8014699
1.5360823 1.7513313 1.843226
1.573101 1.7559923 1.8257538
1.6295466 1.7572774 1.8130374
1.7264938 1.7927064 1.813221
0.34126541 -0.55334693 1.8825759
0.38454422 -0.56225204 1.8735873
0.42226321 -0.56438738 1.8697417
0.47385648 -0.56534153 1.8759259
0.5213905 -0.56753218 1.8806741
0.57503951 -0.56615657 1.8806758
0.62142372 -0.56323737 1.880004
0.67767894 -0.55999357 1.8765805
0.728338 -0.56198311 1.8713511
0.77703387 -0.56072283 1.8754597
0.8255235 -0.55498129 1.873439
0.87432384 -0.55358452 1.8725646
0.92494678 -0.5518375 1.8771687
0.95887649 -0.55188078 1.8506024
1.0441686 -0.55057251 1.8536354
-0.25797558 -0.50218242 1.8709892
-0.22771239 -0.50375229 1.8763653
-0.17120029 -0.50518632 1.8827249
-0.12401249 -0.5036661 1.8675776
-0.077878609 -0.50380343 1.8757361
-0.025204683 -0.5058648 1.8784088
0.031148436 -0.50661504 1.8769079
0.056865506 -0.50910997 1.8604393
0.14424142 -0.51267314 1.87034
0.18989515 -0.51325655 1.8816673
0.21668261 -0.5113464 1.8726398
0.27660322 -0.51867306 1.8706059
0.31435817 -0.53541255 1.8860054
0.89075804 -0.54754227 1.8790329
0.9254877 -0.54890901 1.8792257
0.97515571 -0.54603797 1.8791585
1.0225942 -0.5448637 1.8703071
1.0786275 -0.54166144 1.8761458
1.1221702 -0.53750181 1.8681486
1.1733574 -0.53333825 1.8754047
1.2219996 -0.53110558 1.8746171
1.2772481 -0.52343082 1.8730409
1.3219218 -0.51368147 1.8779564
1.3700042 -0.50721025 1.8695055
1.4371119 -0.50638366 1.8506471
-0.22837549 -0.49828023 1.8829664
1.3809512 -0.49678066 1.8936548
1.4278616 -0.49417278 1.877786
1.4694531 -0.49107802 1.870667
1.503282 -0.48861307 1.8672081
1.4435748 -0.41430598 1.8995433
1.4721252 -0.40487358 1.8678073
1.5204455 -0.40343675 1.8522552
1.3860307 -0.38481224 1.8964418
1.4236759 -0.37539706 1.882496
1.4751478 -0.37586564 1.8612701
1.5005648 -0.39021024 1.8506415
1.3937719 -0.32318288 1.8971006
1.4284596 -0.32366571 1.8849258
1.4794738 -0.32406372 1.8654544
1.5129051 -0.31126744 1.8522158
1.3982511 -0.28941652 1.8985957
1.4289241 -0.27403131 1.8893808
1.4767078 -0.27487212 1.8683196
1.5145695 -0.27584925 1.8536526
1.4269915 -0.22530234 1.8918813
1.4747291 -0.22599344 1.871052
1.5141031 -0.22481829 1.8558418
1.4323756 -0.17475733 1.8913229
1.4732543 -0.17190626 1.873791
1.5131365 -0.17514084 1.8566366
1.4288261 -0.12677817 1.8927071
1.4716649 -0.12329119 1.8748276
1.5144949 -0.12367968 1.8565334
1.4314193 -0.074682124 1.8936471
1.4716496 -0.074867263 1.8768116
1.5145879 -0.075092874 1.8587203
1.4356406 -0.026400192 1.8930814
1.4712054 -0.026434632 1.8772727
1.5123935 -0.027951915 1.8589387
1.4327799 0.021005346 1.894441
1.4726958 0.022003978 1.8791491
1.5069835 0.022061706 1.8606606
1.4328963 0.074673712 1.8934549
1.4743466 0.07593479 1.8800417
1.5108062 0.076104328 1.8613423
1.4386554 0.12414332 1.8937733
1.4751583 0.12452476 1.8789437
1.5131016 0.12306292 1.8614464
1.4393092 0.17474882 1.8941716
1.4766208 0.17324284 1.8775994
1.5133641 0.17162552 1.8591511
1.4317685 0.22475451 1.8950469
1.4742253 0.22770199 1.8801059
1.5140388 0.22802778 1.8577493
1.4330759 0.27572837 1.8942174
1.4743571 0.27566323 1.8796649
1.5066491 0.27650002 1.8623658
1.4338797 0.32781985 1.8937989
1.4739717 0.3262375 1.8783302
1.5124273 0.32421783 1.8594527
1.4344864 0.37467775 1.8928757
1.47703 0.37587535 1.8746699
1.5132585 0.37680301 1.8575248
1.4339681 0.42376116 1.8919762
1.4767493 0.42754972 1.8738549
1.5127858 0.4190467 1.8569549
1.4301403 0.47545004 1.8933539
1.4751635 0.47673929 1.8746974
1.5138054 0.4753693 1.8595374
1.4338874 0.52526367 1.8906615
1.4734644 0.52421552 1.8757495
1.5158302 0.52632797 1.8607577
1.4306647 0.5791238 1.8925133
1.4765806 0.57544953 1.8738056
1.5186863 0.57206917 1.8588053
1.427994 0.62273091 1.8928909
1.4718333 0.627626 1.8752904
1.5180695 0.62762284 1.8597537
1.4261616 0.67345726 1.8907878
1.4751655 0.67227226 1.8714955
1.5162994 0.67909729 1.8589649
1.3911948 0.74471682 1.8984402
1.4230917 0.72369099 1.8902249
1.4722542 0.72193235 1.8702834
1.5216013 0.7262848 1.8586917
1.399114 0.78248429 1.8979971
1.4260494 0.77675503 1.8896821
1.4717951 0.77412504 1.8730384
1.5188409 0.77665734 1.858881
1.3962103 0.83773148 1.8981037
1.4255559 0.82677752 1.8888236
1.475525 0.82293171 1.8691492
1.5207684 0.82502794 1.8578705
1.4271859 0.88063127 1.890535
1.4762191 0.87150466 1.869884
1.5212084 0.87309062 1.856673
1.3979166 0.90796566 1.8986641
1.4306744 0.92936093 1.8890965
1.4730242 0.92168808 1.8718935
1.5161711 0.92713803 1.8590505
1.4229213 0.97447628 1.8899897
1.4735367 0.97575819 1.8720455
1.5199661 0.97843456 1.8569583
1.3939265 1.0123186 1.8992287
1.4240355 1.0217412 1.8884217
1.4721794 1.0270096 1.8728446
1.5177461 1.0286548 1.8568556
1.3951638 1.0738907 1.8993804
1.4242289 1.0760764 1.8913758
1.4794103 1.0732732 1.8713906
1.522891 1.0799938 1.8599143
1.4270178 1.1230196 1.8882831
1.4725802 1.1229554 1.8705294
1.5180532 1.1253151 1.858986
1.3975468 1.1944318 1.8978796
1.4226432 1.1701052 1.8872861
1.4779071 1.1717206 1.8689828
1.5196615 1.1732502 1.8550999
1.4265254 1.2228281 1.8896238
1.4729379 1.2218635 1.8692679
1.5262462 1.2291454 1.8571442
1.3930323 1.283047 1.8986013
1.426931 1.2742106 1.887499
1.4757985 1.2733235 1.8678578
1.5219693 1.2740688 1.8592269
1.4212023 1.3202107 1.8879231
1.4721547 1.3277757 1.8725275
1.5177096 1.326314 1.8579247
1.3899645 1.3787167 1.8964741
1.4265399 1.374492 1.8869095
1.4697793 1.3746741 1.8694594
1.5176694 1.3760896 1.8568865
1.3887372 1.4234408 1.8974586
1.4253229 1.4262937 1.8873224
1.4738278 1.4264685 1.8685365
1.5134649 1.4263524 1.8565222
1.3911035 1.4819379 1.8964701
1.420199 1.4760661 1.889421
1.4736984 1.4728992 1.8693403
1.517696 1.482272 1.8548328
1.3942986 1.5255171 1.8957912
1.4264344 1.5268688 1.8830193
1.4746006 1.5190341 1.8655939
1.5134153 1.530405 1.8569742
1.3939689 1.5878806 1.8972998
1.4239156 1.5734041 1.8837543
1.4752314 1.5707877 1.8638207
1.5171858 1.569304 1.853332
1.3842827 1.6236905 1.8976444
1.4260738 1.6210383 1.8840851
1.4772133 1.6249825 1.8629347
1.5226693 1.6269892 1.8564265
1.3943992 1.6706334 1.8975139
1.4248612 1.6737516 1.8831065
1.4702389 1.6747133 1.8638515
1.5142154 1.6677023 1.8556657
1.3944722 1.7208875 1.8967837
1.4325792 1.7229871 1.8811144
1.4775158 1.7184452 1.8598714
1.5567529 1.7260373 1.8510842
1.3760282 1.7578623 1.8952076
1.4235071 1.7622077 1.8906673
1.4689063 1.7548901 1.8621601
1.5195209 1.7549636 1.8603436
0.34972885 -0.559407 1.9498379
0.37580323 -0.55997074 1.9199202
0.42444372 -0.56054217 1.9213188
0.47011071 -0.56373513 1.9253404
0.52695435 -0.5667302 1.9195433
0.57206529 -0.56612962 1.9256177
0.6233725 -0.56072879 1.9288113
0.67358267 -0.55998462 1.9306548
0.72265631 -0.55654222 1.9198147
0.77597487 -0.55723107 1.932704
0.81855261 -0.55444956 1.9256121
0.86558437 -0.55174452 1.9250307
0.90617126 -0.55198848 1.9124379
-0.22146265 -0.50643837 1.9240941
-0.18283278 -0.50530726 1.9256295
-0.12857187 -0.50501615 1.9148552
-0.075224794 -0.50776756 1.9271953
-0.025818605 -0.50797379 1.9288433
0.022609945 -0.5103718 1.9326864
0.058300458 -0.50795346 1.9098899
0.17002411 -0.51525128 1.9205399
0.23827299 -0.51647544 1.9234498
0.27791277 -0.52236509 1.9325802
0.32100025 -0.53727245 1.9281387
0.82340717 -0.54817194 1.9240705
0.87793523 -0.54711252 1.9280016
0.9215275 -0.54380983 1.9224102
0.97574061 -0.54054838 1.9282098
1.0296639 -0.53704417 1.9259148
1.0699092 -0.53330576 1.9238622
1.1210414 -0.52753443 1.9269232
1.1781226 -0.52371448 1.9276122
1.2256105 -0.51489842 1.9269409
1.2690849 -0.50963271 1.9163566
1.3134031 -0.50453246 1.9133571
-0.17565715 -0.49656218 1.9175074
1.281081 -0.4958514 1.9434175
1.3323553 -0.49523389 1.93305
1.367861 -0.49158984 1.9221232
1.4120989 -0.48756868 1.9183419
1.4507341 -0.4858433 1.9176772
1.2438339 -0.40449134 1.9452953
1.2817919 -0.40636876 1.9381967
1.3297751 -0.40792584 1.9229747
1.3779807 -0.41105369 1.9166446
1.4211092 -0.41414127 1.9119664
1.2453028 -0.37685701 1.9470685
1.2777215 -0.37308261 1.9369709
1.3239391 -0.37405744 1.9195884
1.3668736 -0.37169176 1.907038
1.2752298 -0.3244437 1.9398516
1.3214588 -0.32531035 1.9228442
1.3683245 -0.32070971 1.9097056
1.2734588 -0.27615228 1.9427942
1.3201804 -0.27699345 1.9267941
1.3718698 -0.27331731 1.9100765
1.2748337 -0.22323518 1.9438021
1.3258566 -0.22445452 1.9279157
1.3776119 -0.22429617 1.9083736
1.2861965 -0.17613016 1.9420501
1.3282754 -0.17531277 1.9265362
1.3764926 -0.17600451 1.9107691
1.4074314 -0.17651705 1.9010512
1.2806269 -0.12574841 1.943954
1.3264276 -0.12735444 1.9292294
1.3752811 -0.12777606 1.9120455
1.4054712 -0.12808475 1.9014111
1.2872012 -0.072422571 1.9437292
1.3275428 -0.074129619 1.930439
1.3757856 -0.074409828 1.9149128
1.4098597 -0.074619867 1.9035892
1.2850384 -0.026163496 1.9428631
1.3271654 -0.026236979 1.9308274
1.3740704 -0.026292291 1.91351
1.4118654 -0.026376152 1.9028304
1.2867163 0.021557545 1.94538
1.3275049 0.021645639 1.9313002
1.3756335 0.021759545 1.9156573
1.4104097 0.023189504 1.9034277
1.287464 0.07080739 1.9455712
1.326497 0.076381162 1.9335011
1.3763583 0.07522063 1.9155452
1.4108833 0.076794855 1.9028844
1.2865511 0.12790118 1.9466754
1.3246065 0.12782322 1.9343669
1.3776447 0.12344956 1.9153419
1.4149203 0.12392958 1.9037249
1.2920277 0.1761622 1.9472857
1.3265109 0.17437734 1.9342915
1.3775159 0.17276517 1.914567
1.4164118 0.17011832 1.9039931
1.2937534 0.22442886 1.946009
1.3226154 0.2248147 1.9351828
1.3726051 0.22417222 1.9172044
1.4080805 0.23040192 1.9047505
1.2944487 0.27410758 1.9464655
1.3243046 0.27503172 1.93449
1.3735863 0.27458584 1.9182267
1.4093885 0.27530214 1.9043746
1.2869817 0.32380727 1.9465398
1.3263178 0.32490462 1.9330577
1.3757008 0.3234821 1.9151112
1.4115015 0.32055518 1.9042064
1.2859145 0.37484264 1.9475594
1.3233259 0.37554276 1.9345723
1.3762295 0.37409127 1.914453
1.4105473 0.37407672 1.9030339
1.286003 0.42777601 1.9471028
1.3240013 0.4264465 1.9322846
1.3724513 0.42271954 1.9166111
1.4084059 0.42156118 1.9039735
1.2877316 0.47553146 1.9456332
1.3241026 0.47627681 1.9332621
1.3764855 0.47284141 1.9130499
1.4072973 0.47230172 1.90245
1.289776 0.52643746 1.9461449
1.3233367 0.52559316 1.9322703
1.3712022 0.52232313 1.9144671
1.408702 0.52566731 1.9040953
1.2856016 0.57117587 1.9448298
1.3273742 0.57281101 1.9298073
1.3757992 0.5748536 1.9117697
1.4073982 0.57112837 1.9027234
1.2864596 0.62316966 1.9452404
1.3246576 0.62309039 1.9308652
1.3734291 0.62333435 1.9129937
1.4014717 0.62827116 1.9019766
1.2850027 0.67697996 1.9446994
1.3262174 0.67732805 1.929854
1.3772552 0.67643201 1.9109722
1.4052821 0.65206796 1.9010317
1.2808326 0.72211975 1.9444636
1.323792 0.72455662 1.9299078
1.3709569 0.72562879 1.9112141
1.2774551 0.76984805 1.9436151
1.3247843 0.77258414 1.9284897
1.3751692 0.77598685 1.9110689
1.2877998 0.82126915 1.941021
1.3258753 0.82116163 1.9261345
1.373292 0.82267892 1.9093058
1.2824119 0.86888874 1.943581
1.3214315 0.87027252 1.9260678
1.3728136 0.87444127 1.9088569
1.402292 0.85831642 1.900014
1.2774541 0.9237324 1.9452693
1.3239826 0.92144519 1.9265875
1.3750035 0.92864329 1.9110277
1.4058361 0.93023956 1.9023848
1.2811679 0.97039717 1.9429809
1.3237742 0.97420162 1.9277842
1.3738649 0.9783988 1.9123955
1.4050379 0.96212715 1.9004956
1.2796416 1.0230484 1.945502
1.3243256 1.0274729 1.9289119
1.3758539 1.0251005 1.9115394
1.2832433 1.0798012 1.9413151
1.3261061 1.0753644 1.927547
1.3721411 1.0713055 1.9110202
1.2821252 1.1288384 1.9433877
1.3275335 1.1234244 1.9286023
1.3766122 1.1259617 1.910273
1.2899824 1.1764065 1.9434615
1.3251289 1.172369 1.9275961
1.3757845 1.17422 1.9112576
1.2852516 1.2253087 1.9433395
1.3238162 1.2240121 1.9297754
1.3734103 1.2228835 1.9108666
1.2828188 1.2701586 1.9419373
1.3242439 1.2754036 1.9277847
1.369959 1.2738028 1.9120092
1.4013873 1.2557727 1.9000814
1.2800502 1.3206006 1.9446534
1.324545 1.3243327 1.9307503
1.3753839 1.3303888 1.9091027
1.2818674 1.3752204 1.9442549
1.323046 1.3734185 1.9300677
1.3666383 1.372069 1.9099942
1.2807943 1.4291384 1.9428902
1.3256629 1.422577 1.9288187
1.3697492 1.4262416 1.9115622
1.2783926 1.4771256 1.9408071
1.3259995 1.4758072 1.9268029
1.3681843 1.471059 1.9064121
1.288712 1.5356935 1.9415795
1.3268794 1.5204821 1.921082
1.3703524 1.5243163 1.9088612
1.2822063 1.5809966 1.9383774
1.3254315 1.5685862 1.9246672
1.3692958 1.5749577 1.905917
1.2775191 1.6278235 1.9416113
1.3259172 1.6222243 1.9237651
1.3657075 1.6306542 1.9055223
1.2759483 1.6729921 1.939573
1.3212737 1.67064 1.9234993
