ply
format ascii 1.0
comment PCL generated
element vertex 1440
property float x
property float y
property float z
element camera 0
property float view_px
property float view_py
property float view_pz
property float x_axisx
property float x_axisy
property float x_axisz
property float y_axisx
property float y_axisy
property float y_axisz
property float z_axisx
property float z_axisy
property float z_axisz
property float focal
property float scalex
property float scaley
property float centerx
property float centery
property int viewportx
property int viewporty
property float k1
property float k2
end_header
-0.28743696 -0.22471069 0.80418992
-0.40881133 -0.17480208 0.84593135
-0.37413347 -0.17520642 0.8333174
-0.32450765 -0.17463325 0.81529486
-0.29040378 -0.17640489 0.80332422
-0.41301921 -0.12288822 0.84514916
-0.37417606 -0.12543015 0.8312214
-0.32397377 -0.12417664 0.81260818
-0.2937687 -0.12678424 0.80213016
-0.41716427 -0.073714748 0.84391481
-0.3752445 -0.073859364 0.82881725
-0.32503575 -0.076088779 0.81070006
-0.29579118 -0.079334259 0.80066329
-0.41824484 -0.024537899 0.84141225
-0.37416986 -0.026234359 0.82554948
-0.3265779 -0.02656145 0.80812895
-0.45139298 0.037012164 0.84931564
-0.42298755 0.023495508 0.84003431
-0.37440121 0.024080878 0.82233936
-0.33201665 0.022930479 0.807078
-0.4559108 0.078601301 0.8477425
-0.42455608 0.075190507 0.83665633
-0.37572992 0.074662268 0.8191269
-0.33676687 0.074330993 0.8053574
-0.46077445 0.12617742 0.84578365
-0.42532352 0.12560201 0.83339256
-0.37533751 0.12462573 0.81538856
-0.34143996 0.12312186 0.80387682
-0.46528724 0.17544539 0.8437748
-0.42323065 0.17497097 0.82902014
-0.37388954 0.17555028 0.8114984
-0.34490973 0.16957533 0.801875
-0.51196897 0.23128274 0.84655571
-0.47285649 0.21648538 0.84292579
-0.42412141 0.21580461 0.82817549
-0.37484515 0.21970618 0.81046253
-0.33395597 0.2363175 0.80475479
-0.13559392 0.22961012 0.82982606
-0.29757053 0.26411399 0.84601271
-1.1204921 -0.51925743 0.88027018
-1.0751427 -0.51959765 0.87708044
-1.0255232 -0.52048272 0.87204671
-0.97558445 -0.51901865 0.87559056
-0.92243332 -0.51767641 0.8727268
-0.87361127 -0.5170145 0.87701255
-0.82631475 -0.51545691 0.87637162
-0.7766943 -0.51282817 0.87344646
-0.72497708 -0.50910705 0.87576967
-0.67593318 -0.50538141 0.87345237
-0.62849063 -0.5033915 0.86527574
-0.58114606 -0.50234419 0.85864115
0.835733 -0.50246179 0.87065488
0.87721777 -0.50703508 0.87259901
0.92327648 -0.50903744 0.87689185
0.97511113 -0.51229155 0.87661213
1.0247087 -0.51330185 0.876634
1.0702891 -0.51487452 0.8750177
1.1209232 -0.51514518 0.88224059
1.1573199 -0.51572335 0.89201748
-0.66624302 -0.49944603 0.89529389
-0.61801881 -0.49599805 0.88746923
-0.56983703 -0.48413444 0.88349801
-0.52474499 -0.47778469 0.8735323
-0.47794029 -0.47032887 0.86322296
-0.44016942 -0.46171653 0.85326809
-0.12011643 -0.48054427 0.87617695
-0.074302278 -0.48185259 0.87414557
-0.025952647 -0.4820694 0.87557656
0.024091199 -0.48138794 0.87476474
0.074095309 -0.4805693 0.87360233
0.12421914 -0.47943231 0.87405938
0.1747959 -0.47685581 0.87646979
0.2241376 -0.47519115 0.87667304
0.27435789 -0.4743174 0.87435979
0.32453665 -0.47259292 0.87409091
0.37468895 -0.4715721 0.87636107
0.4240846 -0.47096258 0.8745805
0.4736689 -0.47066599 0.87558776
0.52485222 -0.47055662 0.87413132
0.57494038 -0.47117788 0.87342846
0.6252858 -0.47220436 0.87167114
0.67482519 -0.47443363 0.87384367
0.72941607 -0.47974697 0.8789258
0.77365011 -0.48795128 0.87282193
0.81608051 -0.49755606 0.88268346
-0.55171156 -0.43705976 0.8978889
-0.52349055 -0.42625174 0.88990927
-0.47448719 -0.4246524 0.87278593
-0.43041649 -0.42447159 0.85695064
-0.51996392 -0.37598801 0.89179498
-0.47405225 -0.37434089 0.8754009
-0.42532346 -0.37463161 0.85810351
-0.52099288 -0.32381544 0.89122128
-0.47450978 -0.32458493 0.87510276
-0.4258135 -0.32506883 0.85783881
-0.39879242 -0.32710314 0.8504377
-0.55033576 -0.25100613 0.89911556
-0.52293748 -0.27419177 0.89033002
-0.47456408 -0.27387604 0.87341005
-0.42789635 -0.27688375 0.85713136
-0.55351353 -0.2205057 0.89836758
-0.52435839 -0.22535414 0.88892221
-0.47422147 -0.22349399 0.87153989
-0.43041357 -0.2260129 0.85598654
-0.55570245 -0.17191067 0.89780343
-0.524207 -0.17578353 0.8873688
-0.47407734 -0.17391355 0.86958432
-0.43322387 -0.17550208 0.85496151
-0.55900037 -0.12259591 0.89707565
-0.52422732 -0.12505963 0.88483924
-0.47479758 -0.12502566 0.86776775
-0.43791762 -0.12713967 0.85443717
-0.56251442 -0.074258275 0.89581239
-0.52542883 -0.074001141 0.8825745
-0.47497553 -0.076198123 0.86505699
-0.44177753 -0.077084593 0.85340488
-0.56648117 -0.025493639 0.89366549
-0.52324551 -0.025646184 0.8789413
-0.472682 -0.026399691 0.86105734
-0.44279188 -0.031091992 0.85168839
-0.57083738 0.024534181 0.8918758
-0.52444869 0.023817841 0.87600869
-0.47513217 0.023649869 0.8585633
-0.60646045 0.094034553 0.89805967
-0.57773012 0.07555072 0.89063048
-0.52670521 0.074850582 0.87258434
-0.48095259 0.074258566 0.85694373
-0.61002886 0.13071503 0.89634818
-0.57564193 0.12497941 0.88580453
-0.52504236 0.12509033 0.86851472
-0.4853926 0.12438349 0.85466313
-0.6132319 0.17793171 0.89422679
-0.57283509 0.17459555 0.8805306
-0.52461684 0.17515446 0.86428303
-0.49195501 0.17165962 0.85348827
-0.66099238 0.231245 0.89671981
-0.62140733 0.22140184 0.89314461
-0.57427531 0.21750164 0.87774879
-0.525056 0.21652552 0.86027128
-0.49377373 0.21837524 0.85210323
-0.13118835 0.23127523 0.87991488
-0.3061569 0.26784012 0.85683912
-0.2958445 0.28141558 0.88147068
1.193972 0.44631737 0.89927548
1.2011682 0.43274271 0.89788073
1.191439 0.46539238 0.89851028
-1.2189348 -0.5157249 0.93436962
-1.1742688 -0.5172348 0.92540115
-1.1233779 -0.51826471 0.927827
-1.0739591 -0.51780516 0.92304713
-1.0260613 -0.51616967 0.92574716
-0.97502095 -0.51404762 0.92423576
-0.92849422 -0.5124858 0.92392254
-0.87573284 -0.50945526 0.92684442
-0.82472152 -0.50620908 0.92333359
-0.77839595 -0.50508463 0.91768962
-0.73221779 -0.50239801 0.91175312
-0.6946609 -0.50081748 0.90377247
0.84957713 -0.50476563 0.92092156
0.87596452 -0.50523674 0.92344391
0.92303222 -0.50610501 0.92551184
0.9763962 -0.50776368 0.92553413
1.0239325 -0.50840485 0.92496294
1.0750092 -0.51041472 0.9248541
1.1264455 -0.50980216 0.92583019
1.1751994 -0.5092603 0.92865205
1.217899 -0.50714415 0.93767124
-0.82356405 -0.49943152 0.94586372
-0.76869094 -0.49675202 0.94216317
-0.71933651 -0.48765516 0.93632019
-0.67397124 -0.47908157 0.92684859
-0.62485671 -0.47348577 0.91456831
-0.58483583 -0.46350372 0.90601885
-0.12261591 -0.48045397 0.92497176
-0.075882666 -0.4812851 0.92363411
-0.025662301 -0.48147908 0.9260599
0.024620309 -0.48107117 0.92448914
0.075359307 -0.48059654 0.92577046
0.12546204 -0.4790915 0.92315263
0.17458358 -0.47666484 0.92528838
0.22577661 -0.47450346 0.92537767
0.27572933 -0.47333547 0.92570722
0.32487366 -0.47254413 0.92599326
0.37509069 -0.47211802 0.92475379
0.42463592 -0.471387 0.92454159
0.47432142 -0.47084433 0.92412645
0.52320611 -0.47145441 0.9223851
0.57353824 -0.47232777 0.92268378
0.62509489 -0.47356266 0.92586511
0.67509502 -0.47495693 0.92499113
0.72160417 -0.47676945 0.92559201
0.77305651 -0.48279396 0.92687309
0.8219825 -0.49481675 0.92710119
-0.66996187 -0.42626166 0.94324887
-0.62553191 -0.42491108 0.92745316
-0.57601708 -0.42543939 0.90979081
-0.54669404 -0.41243276 0.90061849
-0.66687828 -0.37488076 0.94570869
-0.62474787 -0.3750869 0.93032491
-0.57505369 -0.37543136 0.91184616
-0.54439175 -0.36839011 0.90122926
-0.66850817 -0.32212472 0.94401973
-0.62585336 -0.32476905 0.9292382
-0.57537121 -0.32503733 0.91135836
-0.54605055 -0.32350346 0.90139478
-0.67001241 -0.27434719 0.94324809
-0.62475002 -0.27416152 0.92717057
-0.57408065 -0.27489865 0.90875214
-0.54817891 -0.28511131 0.9012177
-0.67225009 -0.22526102 0.9419924
-0.62516111 -0.22485085 0.92550898
-0.57892966 -0.22437395 0.90875906
-0.54914141 -0.23572293 0.90022027
-0.6732403 -0.17530477 0.9411146
-0.6230489 -0.17315786 0.92241144
-0.57886571 -0.17611536 0.90671575
-0.70432347 -0.11515451 0.94895983
-0.67527133 -0.12423181 0.93906146
-0.62357265 -0.12417793 0.92019737
-0.58212024 -0.12550464 0.9055444
-0.70514762 -0.07036452 0.94620687
-0.6733858 -0.074529745 0.93550307
-0.62603283 -0.074620217 0.91834378
-0.58655757 -0.077017166 0.90422851
-0.71297348 -0.025028381 0.94666946
-0.6750527 -0.026123079 0.93332011
-0.62380379 -0.025065983 0.91424495
-0.59128374 -0.029073374 0.90296435
-0.71497059 0.024104971 0.94339216
-0.67450619 0.024065631 0.92903292
-0.62420166 0.023671275 0.91123021
-0.59600747 0.019210573 0.90090281
-0.7197597 0.075272679 0.94123107
-0.67316663 0.074952736 0.92497653
-0.62678301 0.073626906 0.90804106
-0.59985059 0.059282236 0.90043873
-0.7549513 0.13392867 0.94846123
-0.72421181 0.1241449 0.93847919
-0.67341161 0.12530057 0.92070287
-0.63239312 0.1226012 0.90617657
-0.75923049 0.17686288 0.94645339
-0.72377551 0.17345251 0.93397683
-0.67566586 0.1751079 0.91684335
-0.63879204 0.1733216 0.90438414
-0.76683044 0.21274652 0.94554067
-0.72557509 0.21743423 0.93193984
-0.67596692 0.21609232 0.91170013
-0.63978809 0.21608603 0.90453351
-0.15021116 0.22480871 0.93600601
-0.12534752 0.23060516 0.93026048
-0.53040004 0.27534908 0.94396096
-0.30489734 0.29687744 0.90662605
-0.30906975 0.3176536 0.94841349
-0.55474108 0.4386647 0.94735879
1.1440301 0.43393517 0.94017982
1.1764622 0.43016955 0.92678529
1.2169646 0.41304907 0.92876589
-0.55402064 0.46670219 0.94840473
-0.54629892 0.46406531 0.94264722
1.1472127 0.48040694 0.94541758
1.1661805 0.47410038 0.92023796
-0.55687499 0.51471287 0.94810587
-0.53663909 0.54375941 0.94883215
1.1455973 0.51887572 0.94820374
1.1677016 0.51793253 0.93142498
-0.52034748 0.5574826 0.94258344
-1.3106295 -0.50785238 0.99409658
-1.2714491 -0.51217324 0.97849458
-1.2222126 -0.51106352 0.97303814
-1.1774794 -0.51096815 0.97052097
-1.1244028 -0.50912446 0.965639
-1.0746449 -0.50955141 0.96515656
-1.0249367 -0.50762457 0.96640444
-0.97498429 -0.50523227 0.96835673
-0.92356962 -0.50492388 0.96573597
-0.87398565 -0.50280327 0.95941794
0.88172942 -0.50188863 0.96315271
0.92707032 -0.50317204 0.96946269
0.97301251 -0.50267762 0.96712786
1.029124 -0.5030899 0.95988137
1.0748979 -0.50338912 0.96698147
1.1201392 -0.50318325 0.96450245
1.1689825 -0.50253928 0.96495986
1.2227682 -0.50283772 0.96312779
1.262096 -0.50167823 0.95547992
-1.2502639 -0.49992064 0.99188113
-1.2234317 -0.49747348 0.9947626
-1.1649204 -0.49751058 0.98295856
-1.1252321 -0.49657208 0.98099393
-1.0740652 -0.49668089 0.98470545
-1.0228354 -0.49443087 0.98435253
-0.96641159 -0.48956096 0.98558944
-0.92550129 -0.49591669 0.99253124
-0.87118208 -0.4898209 0.98596191
-0.82308608 -0.47927228 0.97755885
-0.77491963 -0.47372648 0.96602446
-0.72980773 -0.46339652 0.95703626
-0.69506967 -0.45270494 0.95096719
-0.1527878 -0.47500199 0.99522781
-0.12526707 -0.48010451 0.97378469
-0.075203903 -0.48164633 0.97401035
-0.025420254 -0.48156783 0.976412
0.024356252 -0.48174921 0.97567087
0.07395526 -0.48084423 0.97614455
0.12437769 -0.47900277 0.97319323
0.17475018 -0.47648656 0.97340888
0.22405776 -0.47390115 0.97486967
0.27260402 -0.47331592 0.97496492
0.32527483 -0.47311926 0.9737407
0.37350953 -0.47233564 0.97554803
0.42327076 -0.47270757 0.97465616
0.47419426 -0.47310767 0.97588903
0.52477747 -0.47286522 0.97255331
0.5776667 -0.47361571 0.97363698
0.62566715 -0.47441226 0.97628516
0.67613041 -0.47626945 0.97452271
0.72588748 -0.4776963 0.97784418
0.77848816 -0.48009363 0.9744736
0.82833314 -0.48893031 0.97645926
0.87166619 -0.49604964 0.98329562
0.9180547 -0.49879536 0.99140608
0.9814797 -0.49678347 0.98558617
1.022669 -0.49647725 0.98639792
1.0786271 -0.49661011 0.99116224
1.1266336 -0.49607295 0.9914152
1.176795 -0.49676552 0.98406982
1.2299082 -0.48672375 0.98335952
1.2740706 -0.47741088 0.98219895
1.308301 -0.47441143 0.98589045
-0.81728792 -0.42665347 0.994807
-0.77467299 -0.42599571 0.98035657
-0.72491771 -0.42448077 0.96336079
-0.69496059 -0.42361826 0.95402932
1.1853412 -0.40754828 0.99493074
1.2275381 -0.42240006 0.98947108
1.2676804 -0.42667323 0.97510892
-0.8130067 -0.37410918 0.99574471
-0.77248526 -0.3752324 0.98243153
-0.72390085 -0.3754473 0.96570534
-0.69003528 -0.37605935 0.95407158
1.1785951 -0.38682288 0.99732083
1.2256044 -0.37626618 0.98851413
1.262192 -0.37347391 0.97828937
-0.81301326 -0.32480618 0.99475014
-0.77425259 -0.3255336 0.98229486
-0.7246893 -0.32487428 0.96529633
-0.69122976 -0.33182237 0.95289284
1.2689059 -0.34536657 0.99437428
-0.81688803 -0.27299646 0.99447191
-0.77405608 -0.27463654 0.9806332
-0.72342485 -0.2752476 0.96298438
-0.69364882 -0.2782498 0.95260251
-0.81722766 -0.22428383 0.99318206
-0.77648926 -0.22454736 0.98005223
-0.72429919 -0.2241786 0.96108514
-0.69787532 -0.21389595 0.95317996
-0.81982398 -0.17410921 0.99229652
-0.77361161 -0.17278168 0.97722805
-0.72391117 -0.17548896 0.95938975
-0.69596863 -0.17753556 0.95088774
-0.82377952 -0.12594181 0.99229926
-0.77528644 -0.12306122 0.97493345
-0.72613466 -0.12663053 0.95812732
-0.85472935 -0.061707146 0.99697024
-0.82534117 -0.074521154 0.98981142
-0.77736533 -0.07494764 0.97343236
-0.73144007 -0.076708831 0.95698625
-0.85806233 -0.023297736 0.99651831
-0.82411307 -0.025835933 0.98616201
-0.77443051 -0.025887813 0.96886277
-0.7362051 -0.030001551 0.95608568
-0.86762309 0.025854757 0.9955548
-0.82721537 0.022742115 0.98333263
-0.77440435 0.023084655 0.96545994
-0.740569 0.026002955 0.95288634
-0.87053293 0.0750608 0.99285448
-0.82592034 0.075215675 0.9783321
-0.77546775 0.075030953 0.96141255
-0.74764639 0.072878718 0.95163381
-0.90629542 0.13697584 0.99839646
-0.87423795 0.1244567 0.98981923
-0.82529241 0.12573148 0.97383702
-0.77773297 0.12403625 0.95769131
-0.91012901 0.17986622 0.9960804
-0.8785603 0.1739855 0.98679852
-0.82866776 0.17513332 0.97009176
-0.78574163 0.17476594 0.95623976
-0.96188992 0.2232291 0.99892151
-0.91935706 0.21453382 0.99291432
-0.87194014 0.21695884 0.97822797
-0.82338279 0.21424876 0.96513939
-0.79016125 0.21639752 0.95518303
-0.15661444 0.22584483 0.99310893
-0.12368836 0.22990301 0.9756673
-0.094348669 0.23221873 0.97239524
-0.53263825 0.28858566 0.98186213
-0.47586817 0.29454079 0.95657063
-0.55496711 0.32252893 0.97846985
-0.53989381 0.32334438 0.98135591
-0.31667188 0.33747268 0.9755736
-0.28991061 0.32301688 0.97649753
-0.55410427 0.38171673 0.97228545
-0.53716981 0.37725705 0.99017179
-0.40307742 0.36043906 0.98981035
-0.35230455 0.37059 0.97052521
-0.33435363 0.37460199 0.98766571
-0.28383431 0.37943077 0.99307823
1.1956291 0.39872527 0.99457568
1.226779 0.39701912 0.97744775
1.2663354 0.39683035 0.98863727
-0.55667931 0.42538205 0.96333909
-0.53515559 0.42446777 0.97773212
-0.3257089 0.4276292 0.98828572
-0.28985959 0.43064076 0.99233341
1.1385216 0.43941107 0.97636372
1.1707096 0.41549456 0.97260529
1.2092881 0.40217882 0.95948923
1.2741206 0.40440175 0.96987444
-0.5547269 0.47752428 0.95933855
-0.53480327 0.47504941 0.96886402
-0.32221264 0.47007552 0.99373055
-0.29347119 0.46463245 0.99226868
1.1275158 0.47452098 0.97066736
-0.55657971 0.52657002 0.95838773
-0.53551269 0.52331978 0.96655929
-0.33985597 0.5012871 0.99656016
1.1341319 0.51089245 0.96351725
-0.55448699 0.5561437 0.96278286
-0.53414619 0.5562979 0.95974445
-1.3516563 -0.50315762 1.0206604
-1.3234851 -0.50170571 1.0031362
-1.2772837 -0.50736797 1.0252941
-1.2222719 -0.51170725 1.0449847
-1.1777637 -0.50599843 1.0302913
-1.1273994 -0.50484556 1.0366673
-1.0867894 -0.50228155 1.027281
-1.3066777 -0.4982256 1.003091
-1.2744899 -0.49682224 1.0086424
-1.210741 -0.49799433 1.0030458
-1.1107672 -0.49856481 1.0473127
-1.0694517 -0.49704555 1.0413328
-1.0209702 -0.48963043 1.0309713
-0.9715656 -0.47415969 1.0319257
-0.92478687 -0.47451505 1.018067
-0.87854254 -0.46603769 1.0072179
-0.84415638 -0.45189008 1.001555
-0.15437555 -0.47495821 1.0275503
-0.12594397 -0.48039261 1.0238751
-0.072792672 -0.48163885 1.0247928
-0.026179086 -0.48189697 1.0251415
0.025331249 -0.48163092 1.0237675
0.076628618 -0.48092666 1.0252951
0.12396732 -0.47937953 1.021989
0.17545262 -0.47691715 1.023881
0.2234749 -0.47472298 1.0250841
0.27592573 -0.47390342 1.0242438
0.32478607 -0.47390747 1.022874
0.37401435 -0.47412184 1.0262502
0.42598116 -0.47469696 1.0229064
0.47722712 -0.47562584 1.0269324
0.5250054 -0.47509524 1.0235908
0.57599527 -0.47583434 1.0270245
0.62635559 -0.47672018 1.0282726
0.67251909 -0.47842291 1.0238718
0.72709066 -0.48109129 1.0279591
0.77764034 -0.48335946 1.0328541
0.82332283 -0.48657548 1.0259216
0.87546545 -0.49093151 1.0252283
0.92914277 -0.49347785 1.0274235
0.97772813 -0.48075026 1.0262516
1.0235661 -0.47429809 1.0227042
1.0751185 -0.48055178 1.0232203
1.1239766 -0.4794834 1.0249158
1.1769184 -0.47823414 1.0228269
1.2252202 -0.47785458 1.017385
1.261372 -0.47680745 1.0069067
-0.96911061 -0.42727095 1.0431771
-0.92229819 -0.42429417 1.0295805
-0.87241757 -0.4241527 1.0127056
-0.83878589 -0.4218823 1.0030867
0.98188978 -0.42365435 1.0328525
1.0237128 -0.42357224 1.0143735
1.0723026 -0.42524406 1.0125302
1.1228482 -0.42366365 1.0119172
1.1697719 -0.43048763 1.0080327
1.208047 -0.44097877 1.0042384
-0.96414471 -0.37514466 1.0443383
-0.92812514 -0.37493104 1.034
-0.87620437 -0.37542206 1.016533
-0.8370561 -0.37478346 1.0042331
0.98605621 -0.38117805 1.0359299
1.023894 -0.37270111 1.0225086
1.077013 -0.3745001 1.0147009
1.1254337 -0.37382388 1.0107907
1.1712766 -0.3680068 1.0060266
1.2106889 -0.36117515 1.0013025
-0.96401894 -0.32518345 1.0429235
-0.92613631 -0.32490632 1.0328084
-0.87500268 -0.326397 1.0163163
-0.83673155 -0.32411829 1.0029889
1.0313535 -0.34469622 1.0409124
1.0745103 -0.34098029 1.0357951
1.126101 -0.33951932 1.0350026
1.1737839 -0.33932069 1.0306451
1.2251422 -0.33549616 1.0265173
1.2686007 -0.32393977 1.0266511
1.3192796 -0.32406542 1.0407625
-0.96793896 -0.27595198 1.044452
-0.92473811 -0.27465731 1.0318762
-0.87393385 -0.27570251 1.0137875
-0.83896846 -0.27921757 1.0030887
-0.96730232 -0.22549009 1.0434371
-0.92260462 -0.22368872 1.028771
-0.87362361 -0.22565877 1.0128698
-0.84329307 -0.22416966 1.0036948
-1.0061706 -0.17626868 1.049023
-0.97582483 -0.17383139 1.0441289
-0.92461312 -0.17461143 1.0275849
-0.87448472 -0.17518619 1.0120227
-0.8452633 -0.17796884 1.0023246
-0.97573769 -0.12396363 1.0416749
-0.92515516 -0.12508391 1.02553
-0.87411886 -0.12397399 1.009586
-0.84669554 -0.14205174 1.0031822
-1.0115421 -0.069427483 1.0476841
-0.97683328 -0.073090546 1.038676
-0.92573506 -0.078116521 1.0235949
-0.87975454 -0.074855864 1.0082415
-0.84867078 -0.076452829 1.0001857
-1.0138047 -0.028894573 1.0476533
-0.97511357 -0.025059948 1.0357252
-0.92521977 -0.026724428 1.0195522
-0.88336211 -0.02971909 1.0062857
-1.0162588 0.026528791 1.0439904
-0.97452331 0.021806506 1.0315906
-0.92212802 0.025732867 1.0148473
-0.88216418 0.02230945 1.002678
-1.0568715 0.087012343 1.0483946
-1.0264575 0.075745769 1.0430665
-0.97670525 0.073428944 1.0278529
-0.92770672 0.074968211 1.0120506
-0.89633751 0.075794332 1.0013711
-1.0595052 0.12730183 1.0472443
-1.0266045 0.12608863 1.0394553
-0.97534233 0.12379304 1.0230808
-0.92630422 0.12484177 1.0074042
-1.0677717 0.17566369 1.0463542
-1.0262872 0.17437324 1.0336474
-0.97582173 0.17508708 1.0175699
-0.93504477 0.17314337 1.0058335
-0.16045612 0.17845057 1.0363246
-1.0773588 0.2115768 1.0434974
-1.0301653 0.2107534 1.0304669
-0.97512174 0.21046509 1.0126278
-0.94891334 0.219264 1.0035974
-0.15891507 0.21955895 1.0258243
-0.11947545 0.22943753 1.0223439
-0.085315019 0.23158011 1.0243934
-0.52819967 0.29289815 1.0053947
-0.52570075 0.32589999 1.0100365
-0.49348578 0.34142202 1.0298698
-0.30420899 0.34667248 1.0070755
-0.29275829 0.34271255 1.0057657
-0.5262652 0.36594108 1.0054299
-0.48707062 0.35538971 1.0498983
-0.31338432 0.37781391 1.0105585
-0.29468977 0.37008411 1.009428
1.1896387 0.39521986 1.0228583
1.2192621 0.38379467 1.0242307
1.2644204 0.37750933 1.0293804
1.3084586 0.39039618 1.0342915
1.3596855 0.39665025 1.0452424
-0.31473452 0.42139012 1.0112664
-0.29621747 0.42300197 1.0072594
1.1365358 0.43728548 1.0218991
1.167183 0.41244718 1.0224586
1.2226713 0.40046999 1.0194035
1.3350011 0.40464446 1.0218893
-0.31446475 0.46587783 1.0078948
-0.29729205 0.45590177 1.0009854
1.1296694 0.47212067 1.0261384
1.1334084 0.50205147 1.0332247
-1.4521235 -0.51261741 1.0908817
-1.4299974 -0.51592803 1.0853559
-1.3738008 -0.51376563 1.0825497
-1.3211235 -0.51015317 1.0866849
-1.2744266 -0.50654638 1.0766151
-1.2283182 -0.50671738 1.0727544
-1.1839311 -0.50510627 1.0638531
-1.1378192 -0.5015077 1.0568645
-1.2671915 -0.49827415 1.0955261
-1.2211267 -0.49678546 1.0939702
-1.1673199 -0.49258915 1.0828931
-1.1241111 -0.47534844 1.0831965
-1.0740836 -0.47690272 1.0661652
-1.0291263 -0.4673107 1.0571257
-0.15848269 -0.4760173 1.0760128
-0.12572294 -0.48108509 1.0759141
-0.076359525 -0.4823519 1.075364
-0.026111133 -0.48217112 1.0745169
0.024004221 -0.48202381 1.0753195
0.073233314 -0.48131084 1.0728542
0.12552464 -0.47954977 1.0752313
0.17473759 -0.47805145 1.0745233
0.22472487 -0.47606423 1.0768921
0.27438265 -0.47567925 1.076453
0.32524034 -0.47457576 1.0742385
0.37463439 -0.47486052 1.0742208
0.42583096 -0.47619298 1.0724344
0.47778487 -0.47686553 1.0716026
0.52768838 -0.47776487 1.0774779
0.57448524 -0.47846571 1.0744017
0.6243211 -0.47938195 1.0750856
0.67863089 -0.48115698 1.07841
0.72492266 -0.48204994 1.070068
0.77649295 -0.48418754 1.0777981
0.82432973 -0.48686644 1.0765998
0.86711234 -0.48746178 1.0709161
0.92320061 -0.48743427 1.0742996
0.97135758 -0.47442767 1.0712674
1.1187477 -0.47753966 1.050375
-1.1181818 -0.42563406 1.0925939
-1.0733113 -0.42331231 1.077373
-1.026096 -0.42548653 1.0623156
-0.99237043 -0.41260397 1.0541632
0.9585346 -0.42416906 1.0707831
-1.1217173 -0.36963212 1.0927089
-1.0737734 -0.37456024 1.0787591
-1.0210593 -0.37598661 1.062045
-0.98657244 -0.37224349 1.0534939
0.9701677 -0.37364289 1.071238
-1.1230969 -0.32253727 1.0926851
-1.0777118 -0.32453138 1.079276
-1.0247383 -0.32245976 1.0637597
-0.98978639 -0.3276197 1.0532392
0.99209535 -0.34481704 1.0765662
1.0232517 -0.33441949 1.0726531
1.0801376 -0.31997445 1.0785223
1.1251112 -0.31504571 1.0671026
1.1778334 -0.3142173 1.064942
1.2213659 -0.31296256 1.055863
1.2902588 -0.30631769 1.0523652
1.3226241 -0.31023845 1.065441
1.3622471 -0.32263416 1.0750961
-1.1240588 -0.27315953 1.0910134
-1.0735853 -0.27429581 1.0775537
-1.0244975 -0.27613443 1.0616134
-0.99582511 -0.27673566 1.0547503
1.0998292 -0.2951141 1.0936188
1.126195 -0.27821562 1.086843
1.1755046 -0.27528894 1.080391
1.2245888 -0.27532962 1.0683736
1.2720847 -0.2756514 1.0709743
1.3160132 -0.28648639 1.0862486
-1.1564049 -0.21673775 1.0963316
-1.1252571 -0.22312203 1.0910832
-1.0767267 -0.2271674 1.075816
-1.0247285 -0.22388211 1.0603288
-0.99225926 -0.23212814 1.0526346
1.1412091 -0.24372748 1.0960504
1.1775749 -0.22531016 1.094748
1.2217184 -0.226257 1.0874712
1.2632997 -0.22212043 1.091612
-1.1616914 -0.17268313 1.0992212
-1.1217495 -0.17725945 1.087554
-1.0762275 -0.17327365 1.0737737
-1.0268319 -0.17713384 1.0597531
-0.98736697 -0.18828246 1.051735
1.1886491 -0.1712366 1.0971478
1.2270924 -0.17680252 1.0949215
1.2696533 -0.19434921 1.0976
-1.1581429 -0.12044786 1.0929095
-1.1239271 -0.12537423 1.085771
-1.0704159 -0.12598827 1.0701241
-1.0236335 -0.12692121 1.0565845
1.1895043 -0.13913138 1.0961667
1.2328402 -0.14471006 1.0954007
-1.1607335 -0.081864342 1.0945541
-1.1278907 -0.075029843 1.0846241
-1.0767883 -0.074162744 1.0691872
-1.0315301 -0.079270266 1.0567734
-1.1636345 -0.029836738 1.0935935
-1.1233202 -0.025665954 1.0811059
-1.0763395 -0.028288525 1.0666534
-1.0370543 -0.025052086 1.0544323
-1.2023958 0.033232894 1.0989165
-1.1707104 0.022484882 1.0905167
-1.123613 0.022914428 1.0770994
-1.0739369 0.026425865 1.061817
-1.039116 0.017878277 1.0527585
-1.2103354 0.087969273 1.0966468
-1.1708368 0.073564567 1.0871991
-1.1251101 0.076103434 1.0744487
-1.0777968 0.074767873 1.0587403
-1.2090296 0.12145947 1.0952709
-1.1700531 0.12545823 1.0825553
-1.1273016 0.12600888 1.0689135
-1.0821298 0.12442699 1.0553274
-1.2212976 0.17170551 1.0936627
-1.1730599 0.17616525 1.0782794
-1.124948 0.17499954 1.0648685
-1.0904565 0.17875223 1.0545378
-0.15643407 0.18374218 1.0706229
-0.14732705 0.16768451 1.0717816
-1.2325728 0.20842557 1.0910527
-1.1753407 0.21117669 1.0712161
-1.132194 0.21457486 1.0645251
-0.15911065 0.21634002 1.0783885
-0.12408801 0.2289222 1.0697502
-0.082966968 0.23206182 1.0745393
1.1922036 0.22628205 1.0716872
1.2337884 0.22352232 1.0816228
1.274554 0.22688796 1.0886807
1.3283719 0.23604748 1.0984707
1.3594437 0.22405493 1.0936117
1.2198457 0.25013009 1.0837194
1.2681782 0.25922412 1.0839753
1.3398119 0.2567504 1.0973809
1.3594366 0.26532423 1.095615
-0.52653384 0.34836921 1.0530196
-0.48822799 0.34694937 1.0546737
-0.53062582 0.3591606 1.0652755
-0.48985577 0.35368082 1.0567961
1.1947247 0.38598737 1.0815752
1.2235099 0.38395745 1.0828348
1.2688245 0.37001532 1.0824324
1.3211207 0.37439394 1.0966564
1.1774677 0.42374375 1.0672971
1.2113628 0.41259676 1.0971384
1.357203 0.40597072 1.0545844
1.1477251 0.4503186 1.0687509
1.1588759 0.49812502 1.0773716
-1.5034006 -0.50501502 1.1376112
-1.4790866 -0.50991398 1.1283823
-1.4311912 -0.50920856 1.1279211
-1.3815106 -0.5073083 1.1171869
-1.3244901 -0.50178623 1.1169928
-1.412176 -0.49818155 1.1436821
-1.3749847 -0.49494874 1.1410053
-1.3232583 -0.48689029 1.1372029
-1.2695806 -0.47775224 1.1266553
-1.2241397 -0.47525704 1.1170678
-1.1797949 -0.46844295 1.1053668
-0.16085029 -0.47691309 1.1222243
-0.12317921 -0.48168236 1.1267799
-0.074670069 -0.48196682 1.1261823
-0.024506496 -0.48152256 1.1215341
0.022291183 -0.48200372 1.1282592
0.075465679 -0.4826501 1.1253006
0.12519561 -0.48034987 1.1268448
0.17578499 -0.4792015 1.1258675
0.22613893 -0.47695819 1.1259497
0.2743983 -0.47584176 1.1242654
0.32245627 -0.47722542 1.1263225
0.37499493 -0.47614056 1.1211842
0.42396981 -0.47875917 1.1234987
0.47505778 -0.48066911 1.1284372
0.52626425 -0.48144841 1.1299049
0.57591373 -0.4821879 1.1261162
0.62510216 -0.48297417 1.1236204
0.6760183 -0.48332074 1.1247208
0.7291261 -0.48507351 1.1236337
0.77163088 -0.48654282 1.12368
0.82727009 -0.48892233 1.1260649
0.8819474 -0.49004877 1.1211791
0.92521214 -0.49001303 1.1208507
0.96873933 -0.48182547 1.1256732
1.0010573 -0.48489892 1.1463062
-1.3091416 -0.42438468 1.1470208
-1.274018 -0.42523196 1.13867
-1.2239645 -0.4238762 1.1244532
-1.17492 -0.42760944 1.1102806
-1.1433733 -0.42061868 1.1031688
0.96321434 -0.42593879 1.114951
-1.279196 -0.37735003 1.1432103
-1.2240671 -0.3771227 1.1249737
-1.1732464 -0.37564421 1.1101447
-1.1412585 -0.39984417 1.1018158
0.97436601 -0.37377712 1.1107264
1.007952 -0.35593915 1.1384567
-1.3119811 -0.32184562 1.1473471
-1.2758807 -0.32914528 1.1399871
-1.2262599 -0.32469639 1.1255209
-1.177779 -0.32785562 1.1115707
-1.1480976 -0.32487643 1.1019206
0.99688745 -0.34498146 1.1074013
1.0238594 -0.33387491 1.1202778
1.0711913 -0.31196672 1.1208823
-1.3174198 -0.28636542 1.148981
-1.2704438 -0.27616999 1.1364017
-1.2253542 -0.27616879 1.1240817
-1.1755154 -0.2761735 1.1077061
1.0909034 -0.2892555 1.1232649
1.1097884 -0.26616505 1.1210405
1.3246232 -0.26743856 1.1047254
-1.3138987 -0.22901776 1.1470244
-1.2710764 -0.22327781 1.1348693
-1.22139 -0.22861728 1.1206684
-1.1762475 -0.22739878 1.1071827
1.1303741 -0.22514771 1.1213396
1.1584924 -0.21138784 1.1019387
-1.3206226 -0.1701058 1.1474142
-1.2758385 -0.17638631 1.1349598
-1.222414 -0.17778167 1.1176436
-1.1820149 -0.1708589 1.1073904
1.1359442 -0.17485228 1.1283996
1.1663904 -0.17261714 1.105612
1.2236602 -0.17234352 1.1009924
1.2736568 -0.1723953 1.1041739
-1.3142825 -0.12787873 1.1435767
-1.2778474 -0.12500139 1.13401
-1.2245169 -0.12254324 1.1171587
-1.1818794 -0.12493329 1.1031435
1.139961 -0.12619969 1.1326908
1.1716055 -0.12009903 1.1135234
1.22565 -0.11906921 1.1069647
1.2737362 -0.12437578 1.1154262
-1.317911 -0.071340568 1.1426256
-1.2755269 -0.075716756 1.1311517
-1.2251101 -0.072199516 1.1151881
-1.1895473 -0.072637722 1.1050811
1.1441172 -0.083832048 1.1428785
1.1740069 -0.072870322 1.1307547
1.2209346 -0.07373672 1.1241958
1.2682438 -0.072933331 1.1346271
1.3043994 -0.099501945 1.1387384
1.3962864 -0.067307591 1.1461611
1.4021417 -0.055183947 1.1368555
-1.3510274 -0.018928351 1.145876
-1.3207679 -0.026961394 1.1438881
-1.2712642 -0.025805904 1.1266352
-1.2222495 -0.02516637 1.110437
-1.1878554 -0.025912674 1.1015521
1.1857848 -0.033518549 1.1438388
1.2240267 -0.029228076 1.1419132
1.2662271 -0.039297033 1.1469107
1.3934915 -0.028745007 1.1421592
1.40556 -0.017872639 1.1404996
-1.3527491 0.0086257914 1.147416
-1.3270072 0.026497098 1.1403846
-1.2751775 0.022180794 1.125113
-1.2262279 0.022704808 1.1089108
-1.1890098 0.01500695 1.1005449
1.2325478 0.00058817782 1.1482486
1.3973252 0.012836818 1.1484281
1.4133865 0.00082630292 1.1469626
-1.360002 0.076598994 1.1453867
-1.3270391 0.07197541 1.1378002
-1.2726996 0.077815413 1.1185548
-1.2257165 0.066110127 1.1037893
1.37362 0.08006496 1.1410558
-1.3649491 0.12357336 1.1445551
-1.3226787 0.11984079 1.1331012
-1.2741395 0.12608966 1.1148621
-1.238757 0.13211109 1.1047083
-1.4073405 0.19522743 1.1497304
-1.3667631 0.17696358 1.1420935
-1.3167254 0.17464924 1.1249572
-1.2749509 0.17907912 1.1103071
-1.2409822 0.19414614 1.1057873
-0.14146431 0.18627498 1.1275046
-1.4070686 0.21139197 1.1471237
-1.3747275 0.20974655 1.140744
-1.3303251 0.21107663 1.1257579
-1.2879907 0.21237218 1.1112969
-0.15647821 0.22386485 1.1195445
-0.12838946 0.2220616 1.1270733
-0.073517561 0.23321356 1.131413
-0.048017927 0.2333528 1.1345005
1.1368841 0.24051981 1.120052
1.1526214 0.24241474 1.1451267
1.3286495 0.23176418 1.1018878
1.3714937 0.2317884 1.1070713
1.4170794 0.2191997 1.1324168
1.1423361 0.2656973 1.1298734
1.1547949 0.29062933 1.1374569
1.3290676 0.27405766 1.1085937
1.3691674 0.28930274 1.1086317
1.1368468 0.34424859 1.1307901
1.1584424 0.3416096 1.143175
1.3480036 0.30780989 1.1155605
1.3736886 0.31582975 1.1119548
1.1279738 0.37636456 1.1288646
1.1717359 0.37791905 1.1106398
1.2250618 0.3836298 1.1061397
1.2693936 0.37560317 1.104382
1.3967568 0.38423663 1.1395986
1.1261094 0.41656968 1.1347883
1.1764129 0.41763443 1.1169198
1.2044777 0.41762686 1.106293
-1.0356731 0.50110573 1.1463932
-1.5319951 -0.50440204 1.1662561
-1.4728605 -0.50201023 1.162371
0.93977082 -0.50081164 1.1905876
-1.5603459 -0.48710847 1.1838634
-1.5229858 -0.48739544 1.170247
-1.4738796 -0.47830978 1.181554
-1.4291453 -0.47538447 1.1746253
-1.3767942 -0.47108868 1.1640888
-1.3287232 -0.46496272 1.1531812
-0.16451351 -0.47832522 1.172076
-0.12438147 -0.48159856 1.1747398
-0.074210979 -0.48227128 1.1749116
-0.02507033 -0.48189947 1.1737846
0.027360771 -0.4819181 1.1763749
0.076428317 -0.48289609 1.1743566
0.12524034 -0.48085931 1.1744237
0.17324483 -0.48022351 1.1727871
0.22486186 -0.47820386 1.1744603
0.27398923 -0.47877741 1.1736388
0.32624406 -0.47840405 1.1747332
0.37783313 -0.4809871 1.1716481
0.42228472 -0.48077208 1.1711675
0.47246221 -0.48411497 1.1786039
0.52255577 -0.4844487 1.1730295
0.57649422 -0.48602679 1.175494
0.6215502 -0.48691621 1.1751729
0.67434734 -0.4886055 1.1760181
0.72688371 -0.49022922 1.1755935
0.77406293 -0.48988941 1.167767
0.82892781 -0.49375296 1.1682339
0.87451655 -0.49320489 1.167545
0.92839926 -0.49404636 1.1689175
0.97718304 -0.49174482 1.1712298
1.0307761 -0.49549115 1.1970162
-1.4681795 -0.43033117 1.1929426
-1.419382 -0.41875666 1.1794947
-1.3722844 -0.42336151 1.1664327
-1.3348274 -0.42640537 1.1580287
-1.2977874 -0.42325574 1.1516051
-1.4664912 -0.37258959 1.1923386
-1.4258401 -0.37604487 1.1843333
-1.37546 -0.37952471 1.1702834
-1.3297992 -0.3690505 1.1576009
-1.4696681 -0.33092159 1.1943004
-1.4240341 -0.32586712 1.1832709
-1.3713865 -0.32366875 1.1669567
-1.3280857 -0.32514775 1.1564287
1.0833942 -0.32011762 1.1667625
-1.4695626 -0.27504635 1.194265
-1.4267912 -0.27414203 1.1825316
-1.3775345 -0.27400592 1.1680865
-1.3271637 -0.27168545 1.1557599
1.1146269 -0.27122849 1.1714313
-1.465592 -0.22530447 1.1904951
-1.4208175 -0.2260478 1.1799523
-1.3666867 -0.22663127 1.1623992
-1.3334062 -0.22257741 1.1546615
1.1258744 -0.22235893 1.1678065
-1.5000694 -0.17832436 1.1987196
-1.4718903 -0.16877161 1.1921433
-1.4324794 -0.17588623 1.1822311
-1.3748419 -0.17540167 1.1648194
-1.3349781 -0.18578954 1.153803
1.1293451 -0.17356926 1.1656309
-1.4713358 -0.12401979 1.1917179
-1.422511 -0.12828752 1.1775028
-1.3702322 -0.12415832 1.1608465
-1.3390288 -0.1204566 1.1537462
1.1289465 -0.12188559 1.1722114
1.3823825 -0.10418012 1.1766742
-1.4713494 -0.079394221 1.1903476
-1.4236487 -0.073602021 1.1740088
-1.3792464 -0.075350508 1.1619785
-1.3436481 -0.076413058 1.1522057
1.0752492 -0.060766425 1.1908559
1.1328043 -0.071434766 1.1745218
1.1522031 -0.054105833 1.152539
1.2990053 -0.061097123 1.1505816
1.3171026 -0.072132871 1.1563288
1.3853482 -0.087298006 1.1742053
1.4126073 -0.066549838 1.1783402
1.4740719 -0.074835688 1.1944451
-1.4791747 -0.028581083 1.1919249
-1.4294256 -0.027887294 1.1741616
-1.376792 -0.028800666 1.1586503
-1.3401176 -0.025445364 1.1509649
1.0367427 -0.016932461 1.1851033
1.0681815 -0.023448585 1.1891168
1.1357501 -0.025761515 1.1821656
1.1669339 -0.020783696 1.1588541
1.2116189 -0.0093677156 1.1517951
1.2750771 -0.019303929 1.1573888
1.3325719 -0.031589858 1.1679766
1.3721842 -0.024865361 1.1685481
1.4157665 -0.03693822 1.1871904
-1.4717336 0.021777818 1.1859392
-1.4216238 0.021776957 1.1698654
-1.3775609 0.025900902 1.1554784
1.0374961 0.019887779 1.1891047
1.0658722 0.013701241 1.1828151
1.1378324 0.0093359342 1.1921331
1.1738236 0.023012519 1.175788
1.2221224 0.024323458 1.1632981
1.2730474 0.023829227 1.1742525
1.3170373 0.019849826 1.1906136
1.3917472 0.024983773 1.1656961
1.4191021 0.031238051 1.1566396
-1.4677892 0.071949191 1.1847883
-1.4260969 0.077739723 1.1693448
-1.3825125 0.074327275 1.1527504
1.0444741 0.050367393 1.1990814
1.0575527 0.06672065 1.1963897
1.1798726 0.063190289 1.1915855
1.2234032 0.070534192 1.1871951
1.2639276 0.07247632 1.1897475
1.3015565 0.055768725 1.1965561
1.3914666 0.079622425 1.1673356
1.4242173 0.075661778 1.1615207
1.4525737 0.058873165 1.1774356
-1.4642397 0.12167204 1.1747321
-1.42608 0.12651861 1.1650017
-1.3945944 0.14166695 1.153071
1.0613016 0.12554127 1.1982691
1.3961051 0.11238275 1.1664307
1.420525 0.12822938 1.1718291
1.4509062 0.13333106 1.1709421
-1.4706662 0.17552157 1.1764739
-1.4237283 0.17063932 1.1598694
-1.3853437 0.15716887 1.1510108
-0.12827425 0.1834908 1.1721151
1.0499506 0.16551057 1.1964935
1.05826 0.16181198 1.1982753
1.1949431 0.1981063 1.1960177
1.2255123 0.1832151 1.1872944
1.2715629 0.18202923 1.1901683
1.3012406 0.1828595 1.1998414
1.4180945 0.17641491 1.1751659
1.4756069 0.16929068 1.187296
-1.4731768 0.20869601 1.1757815
-1.4297708 0.20852919 1.1564609
-0.13167158 0.21604057 1.177001
-0.079614699 0.2327285 1.175423
-0.041820627 0.23664877 1.1938887
1.0329435 0.2421862 1.1790005
1.0647993 0.24348457 1.1953616
1.17505 0.23465171 1.1867659
1.2240983 0.21044378 1.1921258
1.2745415 0.20879813 1.1914246
-1.0298269 0.29412964 1.1857913
1.0458816 0.27891916 1.1966765
1.0676177 0.2767587 1.1913816
1.1469177 0.29285517 1.1894188
1.1610063 0.27621874 1.1762793
-1.0503868 0.34386 1.1993905
-1.0365807 0.30689144 1.1912137
1.047043 0.32707667 1.1922834
1.0733957 0.32476413 1.1876216
1.1333234 0.33088779 1.1779722
1.1597395 0.31906721 1.1646433
-1.0511856 0.38801467 1.1886654
-1.04768 0.37349081 1.1955361
1.0499526 0.38157204 1.1964284
1.0694431 0.37531325 1.1796497
1.1089257 0.37198159 1.1658725
-1.0574636 0.42966485 1.1860605
-1.0486985 0.41113809 1.1898694
1.0757678 0.40688652 1.180752
1.105125 0.41735458 1.1624725
-1.0530283 0.47047299 1.1767275
-1.0483931 0.47419369 1.1726387
-1.0512718 0.50128376 1.1664579
0.78488946 -0.5007838 1.2362837
0.82079035 -0.50099194 1.2352151
0.87940037 -0.50159615 1.2311887
0.9240365 -0.50241059 1.2255291
0.97182018 -0.50109792 1.2214612
1.0250962 -0.50178528 1.2258118
-1.5208406 -0.4567602 1.2068542
-1.4982991 -0.4569957 1.2030396
-0.16826108 -0.47851384 1.2235616
-0.12548153 -0.48245415 1.222648
-0.075735502 -0.48277214 1.2241343
-0.026073501 -0.48314705 1.2260478
0.020625997 -0.48260257 1.2232339
0.075213261 -0.48356959 1.2231218
0.12526716 -0.48203078 1.2247626
0.17450623 -0.4817439 1.2254112
0.22524539 -0.48077044 1.2221903
0.27486268 -0.48027903 1.2220917
0.32502928 -0.48136586 1.2248743
0.3722491 -0.48370823 1.2231972
0.42631435 -0.48666567 1.2234733
0.47200891 -0.48763534 1.2224798
0.52108371 -0.48968518 1.2223438
0.57437569 -0.49023333 1.2246476
0.6298725 -0.4912315 1.223758
0.67406678 -0.49392414 1.2225198
0.72506708 -0.49544325 1.2257053
0.77847427 -0.49704733 1.226087
0.82296473 -0.49828571 1.2221564
0.87160766 -0.49873132 1.2255263
0.92980665 -0.49727973 1.2126101
0.95000523 -0.4994213 1.2369086
-1.60128 -0.4407692 1.2313983
-1.5726495 -0.42317164 1.2219614
-1.5246518 -0.42580852 1.2105943
-1.484899 -0.40971231 1.204376
-1.5713034 -0.38146186 1.2256249
-1.5259302 -0.37614998 1.2126831
-1.4872499 -0.37578955 1.2043722
1.5795312 -0.35496801 1.2426684
-1.5611894 -0.3298707 1.2240391
-1.5203297 -0.32568818 1.210034
-1.4942896 -0.30867401 1.2043656
-1.5253661 -0.27650636 1.2110382
-1.4845837 -0.27822837 1.2020189
-1.5144085 -0.22621053 1.2066022
-1.49449 -0.22148986 1.2039266
1.1455054 -0.20133744 1.20149
-1.5069808 -0.17915654 1.204181
-1.4863218 -0.19472876 1.2009863
1.1461115 -0.19022913 1.2036834
-1.5019355 -0.14009587 1.2042372
-1.4993148 -0.10574088 1.2048879
1.1373922 -0.11163181 1.2167554
1.1509281 -0.14973085 1.2137058
-1.496188 -0.092752591 1.2032107
1.0713699 -0.06135726 1.2125261
1.1251247 -0.071521893 1.2155761
1.4273014 -0.061706398 1.2176051
1.0419036 -0.022028418 1.2148808
1.063622 -0.034667399 1.2192398
1.1175067 -0.028860856 1.2197194
1.4063976 -0.011557898 1.200938
1.0360608 0.025872201 1.2138963
1.0954847 0.037110604 1.2163382
1.1312041 0.030522339 1.2160976
1.3383763 0.036741987 1.208467
1.4142766 0.021463702 1.2074229
1.0444597 0.072339788 1.2129859
1.0712422 0.08217264 1.2066969
1.1328988 0.07051903 1.234955
1.1667762 0.083579995 1.2168988
1.2234796 0.09508232 1.2021204
1.290079 0.083332971 1.2064943
1.3197249 0.078309633 1.2141885
1.4137943 0.066791013 1.2055355
1.044933 0.12581284 1.2197741
1.0646418 0.1215127 1.2089583
1.1250873 0.12481445 1.2442417
1.1784152 0.12341674 1.232967
1.2253094 0.12679116 1.2128391
1.2773761 0.12400045 1.217623
1.3241943 0.11381707 1.2363508
1.4214355 0.13733944 1.216211
-0.11633726 0.18497705 1.2229431
1.0423464 0.17503148 1.2172889
1.0682749 0.17975992 1.2065829
1.187928 0.18107086 1.2236911
1.2124563 0.16297238 1.2095096
1.2848238 0.16243891 1.2091602
1.3293127 0.17490681 1.2228413
1.4240098 0.17241454 1.2206323
1.5301731 0.18869424 1.2295914
-0.1209817 0.21910486 1.2245837
-0.07448411 0.23257248 1.2305322
-0.042424619 0.23427397 1.2122149
1.0445315 0.22833411 1.2195899
1.0662373 0.22441645 1.2160224
1.1150862 0.23696646 1.2294893
1.1709598 0.22444339 1.2176464
1.2155085 0.21629703 1.2070051
1.3328487 0.20729513 1.205786
1.3501114 0.20372418 1.2121434
1.433836 0.20717295 1.2247207
-1.0429397 0.29995319 1.2146696
1.0402544 0.27540004 1.2140896
1.0896777 0.25034553 1.2017968
1.1404508 0.28438997 1.2206596
1.1559745 0.26247162 1.2141225
-1.0606031 0.32941794 1.2079606
-1.0426937 0.32500017 1.213557
1.0412018 0.32327619 1.2091539
1.0510141 0.32035652 1.2420667
1.1340001 0.31810278 1.2140023
-1.0587615 0.37172517 1.2112755
-1.0478356 0.3674491 1.2046492
1.0464796 0.36396915 1.2076817
1.052279 0.37272063 1.209036
1.0661825 0.40518194 1.2248862
1.1151572 0.43218645 1.2013601
1.5998708 0.72914881 1.2405666
1.6124241 0.74441129 1.246362
0.50391555 -0.50204492 1.2951248
0.56847763 -0.50130856 1.2951436
0.62721521 -0.50253892 1.28422
0.67423689 -0.50194776 1.2758684
0.71587819 -0.50193638 1.2780656
0.77228743 -0.5026648 1.2780252
0.82941222 -0.50371915 1.2704753
0.86994863 -0.50231093 1.266474
0.93744916 -0.51064116 1.2857007
0.95730972 -0.51119059 1.2755562
1.0359597 -0.50701976 1.2546713
1.0648661 -0.51535201 1.2834679
-0.1711787 -0.47918174 1.2758416
-0.12778103 -0.48254135 1.2736682
-0.07651481 -0.4840036 1.2760198
-0.029630836 -0.48418707 1.2751367
0.023892261 -0.48402372 1.2756357
0.07462465 -0.48418161 1.2746938
0.12483528 -0.48299599 1.2737175
0.17597643 -0.4829348 1.2731431
0.22418463 -0.48354289 1.2740793
0.27527186 -0.48569542 1.2772348
0.32122692 -0.48591736 1.2730286
0.37275437 -0.48919496 1.2806611
0.42445925 -0.49201331 1.277015
0.46982676 -0.4919906 1.2679962
0.52961612 -0.49495772 1.2718979
0.58132041 -0.49658188 1.2660086
0.62199342 -0.49796146 1.2757127
0.67103559 -0.49884161 1.2656646
0.728715 -0.49894357 1.267285
0.78053719 -0.49915764 1.2668728
0.86179674 -0.49832529 1.2571186
1.5692292 -0.35022348 1.2515067
1.5997397 -0.33672455 1.2634158
1.6149369 -0.33778715 1.2842578
1.0525177 0.0040359767 1.2503631
1.1439265 0.099415235 1.2528573
1.0593703 0.11129788 1.2542753
1.1419153 0.11274698 1.2531935
1.1624141 0.13810684 1.2591163
-0.10966468 0.18434407 1.268082
-0.094201982 0.18148714 1.2953255
1.0542799 0.16341384 1.2574171
1.1942855 0.16463687 1.265316
1.2112049 0.1755079 1.2897457
-0.10886909 0.22050825 1.2655946
-0.077208884 0.22523832 1.2755229
-0.030784354 0.23687825 1.2919824
0.01410873 0.23785692 1.2975681
1.0607404 0.21414387 1.2588077
1.1885974 0.20736766 1.2610743
1.0545187 0.28034285 1.2545879
1.1651769 0.26413116 1.2557009
-1.060813 0.33033764 1.2968315
-1.0382617 0.33184856 1.2973703
1.5964879 0.73666227 1.2518505
1.6294285 0.77440876 1.2742664
1.6499132 0.80040526 1.2956171
0.49426612 -0.50156218 1.3253351
0.5282827 -0.50207466 1.3246788
0.56289428 -0.50484419 1.3299532
0.61502612 -0.50503725 1.3132831
0.67999595 -0.50783312 1.3299966
0.72975022 -0.50725526 1.3183644
0.75861365 -0.50575233 1.3228487
0.8952719 -0.5144977 1.3235772
0.93401247 -0.51324105 1.3120874
1.0517882 -0.52446502 1.3280346
1.1034102 -0.52018678 1.3096673
-0.20335773 -0.4661983 1.3230126
-0.17607917 -0.47925982 1.3263614
-0.12352518 -0.48321089 1.319648
-0.07413581 -0.48474318 1.3238335
-0.022661345 -0.48556086 1.323741
0.024848692 -0.48635605 1.3295114
0.074786723 -0.48559254 1.3261837
0.1238791 -0.4840472 1.3211589
0.17756203 -0.48515278 1.322682
0.22110413 -0.48662364 1.3265978
0.27276805 -0.48932782 1.3202132
0.32130873 -0.49120966 1.3248329
0.36456284 -0.49299493 1.3236047
0.41901988 -0.49552503 1.3162644
0.46393427 -0.49625957 1.3187619
0.5074864 -0.49876654 1.3135334
0.57343113 -0.49874613 1.3084027
1.6040044 -0.33694726 1.3006784
1.6812077 -0.30593121 1.3369882
1.6801245 -0.28656876 1.3394533
-0.17728873 0.17759903 1.3266344
-0.14107054 0.17048591 1.3171086
-0.07877332 0.18362394 1.3236352
1.2008357 0.16031437 1.3102832
-0.1002989 0.22934897 1.3196942
-0.082524225 0.21922992 1.320044
-0.031410139 0.23443669 1.3263261
0.015424808 0.23587176 1.3328779
1.1907927 0.2398304 1.3037019
1.2221189 0.24451217 1.3226688
-1.0387371 0.34471154 1.3028141
1.6508842 0.78110462 1.3048657
0.29779059 -0.5002864 1.3986331
0.3787398 -0.50278127 1.3823134
0.42190942 -0.50464469 1.3753824
0.47881025 -0.50514477 1.3657854
0.51417464 -0.50510883 1.3621464
-0.20325328 -0.47319949 1.3698745
-0.17170571 -0.47973999 1.3726642
-0.12538999 -0.48482677 1.3725152
-0.075260766 -0.4861545 1.371359
-0.02690227 -0.48728347 1.3766226
0.027148137 -0.48682526 1.3748726
0.075354889 -0.48191538 1.3827702
0.12533003 -0.4861092 1.3750176
0.17187695 -0.48637578 1.3706754
0.22456029 -0.48926952 1.3793851
0.27315417 -0.49383143 1.371954
0.32343945 -0.49791384 1.3756919
0.3841897 -0.49899474 1.3727489
0.48063314 -0.49983606 1.3609905
0.075101599 -0.41569439 1.382286
0.075357392 -0.11045946 1.3994983
0.075305946 -0.093651317 1.3992404
0.071396522 0.13348551 1.3934016
-0.059996765 0.18635665 1.3830445
-0.041416824 0.18594131 1.3976154
0.073210448 0.15802281 1.3876318
-0.068779543 0.21850629 1.3752947
-0.025893539 0.22821783 1.3801415
0.02047856 0.23417914 1.3761431
0.28115436 -0.50127852 1.4262266
0.32699728 -0.50432521 1.4283905
0.36330661 -0.5049206 1.4164335
0.4160867 -0.51273191 1.4312544
-0.21092713 -0.47499487 1.4250027
-0.17581789 -0.4817242 1.4206438
-0.1230936 -0.48475161 1.4227103
-0.075506985 -0.48640868 1.4252344
-0.025391575 -0.48692933 1.4279732
0.01812806 -0.48811778 1.4277894
0.064805374 -0.48168221 1.4148002
0.1254023 -0.48721334 1.4292983
0.17332241 -0.48883253 1.4266888
0.22614212 -0.4914476 1.4267986
0.27631941 -0.49732444 1.4209492
0.075647406 -0.10080243 1.4053738
0.075928278 -0.072027661 1.4117104
0.076456651 -0.027133431 1.4226359
0.076372519 0.02374384 1.4210248
0.072564617 0.074222453 1.4118582
0.072729573 0.11136333 1.404076
-0.0523833 0.17246403 1.4100571
-0.021806348 0.1804011 1.4071581
0.073411778 0.19798754 1.4205933
-0.055642437 0.22681999 1.4193925
-0.025631439 0.21901125 1.4230279
0.024199594 0.22984238 1.4279271
0.065036252 0.22445115 1.4300318
0.27835336 -0.50420821 1.4671209
0.30782902 -0.50815898 1.4739194
-0.21338624 -0.47816324 1.478279
-0.17543565 -0.48467949 1.4764334
-0.12433689 -0.48628917 1.4771461
-0.075432159 -0.48536953 1.4750121
-0.025910085 -0.48682889 1.4781898
0.027837366 -0.48760292 1.4779487
0.052728005 -0.48326612 1.4717424
0.12823135 -0.48579994 1.4722433
0.17794923 -0.49029338 1.4788563
0.22978687 -0.49289325 1.4666119
0.25860336 -0.49854782 1.483461
-0.015717417 0.22414581 1.4566951
0.025823111 0.22657578 1.4699517
0.066286862 0.22897094 1.4780511
0.98906279 -0.55370748 1.5420322
1.0970509 -0.55146343 1.5471671
1.1119784 -0.55002737 1.5327779
0.28197467 -0.51058441 1.5254668
0.31908667 -0.51341379 1.5041263
1.0835934 -0.54472578 1.5282578
-0.21813142 -0.48182851 1.531687
-0.17240371 -0.48478588 1.5214854
-0.1246239 -0.4878031 1.5299417
-0.073325992 -0.4882215 1.5251271
-0.025317216 -0.48940098 1.5209378
0.025896238 -0.48876765 1.5320234
0.054575808 -0.48895925 1.5257781
0.13426517 -0.49022418 1.5265552
0.17709859 -0.4930397 1.5247024
0.22094674 -0.49454913 1.5204989
0.2509065 -0.49789491 1.5151203
0.085727639 0.22775906 1.5147856
1.0210907 -0.55247605 1.57761
1.0776503 -0.55305207 1.5832696
1.1262982 -0.55701929 1.5909065
0.236499 -0.50021267 1.5756949
0.26466468 -0.50734681 1.5726019
0.88911194 -0.54555273 1.5594915
0.9879021 -0.54792506 1.5675489
1.0106547 -0.54811001 1.5806202
1.0755632 -0.54959363 1.5519714
-0.21338138 -0.48646447 1.5796225
-0.174233 -0.48838738 1.5765622
-0.12400101 -0.48845789 1.5762973
-0.075708888 -0.49216536 1.5776416
-0.028194521 -0.49080476 1.5707619
0.021019571 -0.49226522 1.5799054
0.055501517 -0.48960245 1.5532925
0.12793702 -0.49262428 1.5759463
0.17013203 -0.49422276 1.5712285
0.22199908 -0.49592018 1.5740948
1.9545337 -0.24561411 1.5915133
1.8451962 0.022658089 1.5955054
0.74836135 -0.55508041 1.6465912
0.83065844 -0.55498844 1.6496934
0.87478739 -0.55500764 1.6325537
0.9229762 -0.55390841 1.6255342
0.97565776 -0.55273128 1.621034
1.0229621 -0.55433929 1.6350714
1.0788143 -0.55622131 1.6294549
1.1292228 -0.55605942 1.6318377
1.1634437 -0.55664837 1.6354393
0.1806639 -0.50130934 1.6205412
0.21482925 -0.50221497 1.6169256
0.26400977 -0.50928497 1.6294285
0.92506588 -0.54986686 1.6272227
0.97237903 -0.54762447 1.6333911
1.3830636 -0.54570878 1.643955
-0.22155757 -0.48702496 1.6165161
-0.17704396 -0.49079594 1.6215851
-0.13048927 -0.49086681 1.6219289
-0.077113934 -0.49211583 1.6255865
-0.026890095 -0.49353701 1.6237063
0.025946753 -0.49619547 1.6253889
0.057796281 -0.49786279 1.620014
0.13121465 -0.49495125 1.6254809
0.17677903 -0.49743667 1.6219883
0.20699465 -0.49823654 1.6268806
1.9761785 -0.36281496 1.6252737
1.9234527 -0.31340173 1.6176997
1.983071 -0.32599545 1.6352719
1.9908944 -0.27871686 1.6418902
1.9167039 -0.20599768 1.6261125
1.9819208 -0.22392122 1.6335316
1.9859726 -0.17343071 1.6407632
2.000016 -0.19395562 1.6348488
1.8739907 0.034052134 1.6270428
1.8657817 0.059658635 1.6259851
1.8865218 0.16819806 1.6443617
1.8930832 0.2247221 1.6442524
2.0163026 0.96549344 1.6348894
2.0463209 1.0108552 1.6456728
2.0635417 1.0298315 1.639033
2.0770061 1.0653324 1.6467578
2.0619469 1.1224456 1.6466982
