ply
format ascii 1.0
comment PCL generated
element vertex 1518
property float x
property float y
property float z
element camera 0
property float view_px
property float view_py
property float view_pz
property float x_axisx
property float x_axisy
property float x_axisz
property float y_axisx
property float y_axisy
property float y_axisz
property float z_axisx
property float z_axisy
property float z_axisz
property float focal
property float scalex
property float scaley
property float centerx
property float centery
property int viewportx
property int viewporty
property float k1
property float k2
end_header
0.17632265 -0.49521425 1.5772128
0.22061236 -0.4979493 1.5753827
1.9445677 -0.36921766 1.5845602
1.9574285 -0.36036652 1.5971177
1.9553252 -0.23449552 1.593518
1.8431877 0.022633424 1.5937686
0.77069002 -0.55553013 1.6405454
0.89528322 -0.55955213 1.6404817
0.91776109 -0.55356526 1.6284918
0.97416812 -0.55374116 1.6315609
1.0214362 -0.55436164 1.6200659
1.1250017 -0.55633801 1.6284752
1.2746826 -0.55409467 1.6226294
1.3119309 -0.5523839 1.6270601
0.042377658 -0.50000376 1.6411505
0.13152574 -0.50162286 1.6433051
0.16398172 -0.50189191 1.6422276
0.21982092 -0.50211483 1.6315507
0.27508202 -0.51692504 1.6369323
1.2880167 -0.54636401 1.6157583
1.3265336 -0.54872847 1.6479293
-0.22798367 -0.48824888 1.6286242
-0.17502327 -0.49200577 1.6245196
-0.12292936 -0.49196339 1.6246994
-0.068858527 -0.49405101 1.6290153
-0.024278099 -0.49367523 1.6207021
0.026075045 -0.49491799 1.6282448
0.054224227 -0.49374855 1.6344309
0.14147112 -0.49599302 1.6336724
0.1768062 -0.49384692 1.6101562
0.21696982 -0.49945146 1.6091322
1.9808336 -0.36344272 1.6323142
1.9201446 -0.32404375 1.6130992
1.9848975 -0.32628232 1.6367943
1.9874214 -0.27906862 1.6433439
1.9204882 -0.2344342 1.6261864
1.9879379 -0.21958646 1.6342199
1.9836786 -0.17614911 1.639652
1.8692647 0.039424717 1.6160053
1.8578826 0.055859171 1.6260587
1.8856671 0.16812186 1.6436168
1.8762789 0.22826493 1.628983
1.9887589 0.94023186 1.6177909
2.0218081 0.9803617 1.6340498
2.0405834 1.0018322 1.6437957
2.0659647 1.0299866 1.6453722
2.0489609 1.0620084 1.6492027
2.0653651 1.0693238 1.6428934
2.065944 1.1086078 1.6453793
2.03003 1.1725433 1.6490352
0.74519604 -0.55701745 1.6865172
0.77491158 -0.56078935 1.6843204
0.82343966 -0.55907601 1.6667186
0.87866431 -0.55767161 1.6680502
0.92494315 -0.55332643 1.6755686
0.97402704 -0.55390364 1.6638794
1.0246904 -0.55584115 1.6781055
1.0737238 -0.55633813 1.6757334
1.1123414 -0.55930841 1.6716713
1.164494 -0.55787003 1.6853477
1.2905657 -0.55294549 1.6671281
1.3143173 -0.55603683 1.6895086
-0.16491458 -0.50103366 1.6977044
-0.064580955 -0.50017393 1.6993264
0.0020926893 -0.50238347 1.6780307
0.13762069 -0.5009768 1.669508
0.19381833 -0.50416374 1.6913494
0.22430341 -0.50580394 1.6752046
0.27330208 -0.51546806 1.6700954
0.31081185 -0.53386027 1.6750177
0.92593718 -0.54941773 1.6606402
1.2794887 -0.54963166 1.682514
1.3210293 -0.5485642 1.6670985
1.3686268 -0.54686272 1.6849825
1.4238192 -0.53748721 1.6785668
1.4516165 -0.5338071 1.6946074
-0.25610423 -0.49136955 1.6871427
-0.22218439 -0.48942882 1.6664566
-0.1766535 -0.49204415 1.6661994
-0.12451326 -0.4979364 1.6852492
-0.080094621 -0.49716258 1.6739271
-0.024416823 -0.4967573 1.6753329
0.014369767 -0.49649563 1.6729702
0.060133711 -0.49730942 1.6897001
0.12939639 -0.49698088 1.6713371
0.16990134 -0.49930203 1.6619233
1.484776 -0.46258709 1.6924199
1.5063882 -0.4525812 1.6803148
1.5054169 -0.43898529 1.662244
1.9784844 -0.25730681 1.6519877
1.9764012 -0.22262475 1.6543171
1.9798995 -0.1942904 1.6602556
1.8955255 0.045789372 1.659306
1.8812997 0.073582962 1.6614254
1.9088119 0.079955451 1.669753
1.837608 0.11464611 1.6529516
1.8784307 0.13122812 1.6817077
1.9120309 0.12814146 1.6792222
1.7952114 0.18122882 1.6635221
1.8284817 0.17820124 1.6782055
1.8805807 0.17022473 1.6932455
1.91131 0.17351945 1.6825521
1.8439994 0.20736203 1.6855397
1.8805294 0.22336142 1.6871207
1.915784 0.22301841 1.6856601
1.8876473 0.25491455 1.6776487
1.9100852 0.25643963 1.6764381
1.8141445 0.79712486 1.6796221
1.9380879 0.93252259 1.6943011
1.9760492 0.93545294 1.6821487
2.0263767 0.94858813 1.6642653
1.9307182 0.97431481 1.6958293
1.9723178 0.97384024 1.6804658
2.0148673 0.97545892 1.6621656
1.9329273 1.0234662 1.6958078
1.9693151 1.0265015 1.6795911
2.0232642 1.0240694 1.663572
1.931286 1.0816516 1.6929208
1.9760774 1.0772388 1.6803458
2.0229144 1.0745919 1.6610708
1.9337116 1.1264093 1.6939267
1.9741874 1.1249901 1.6815243
2.0228138 1.1244066 1.6646616
2.0574582 1.1234274 1.6536165
1.9403697 1.1763967 1.6950845
1.9753426 1.1715735 1.679193
2.0235567 1.1694283 1.6598095
1.9423378 1.2179257 1.6947724
1.9758456 1.2231475 1.68049
2.0158718 1.2238992 1.6676377
1.934289 1.2805988 1.6964014
1.974319 1.2734014 1.6840419
2.0102224 1.2646669 1.6712446
1.9393684 1.331827 1.6939187
1.9706385 1.320959 1.6853942
1.9341093 1.3707691 1.692645
1.9634441 1.3707385 1.682303
1.9309177 1.4185195 1.6962135
1.9525914 1.4089589 1.6866758
1.9159275 1.4654799 1.6958567
0.52038401 -0.55784404 1.7482864
0.68345845 -0.56452507 1.7308645
0.72388029 -0.56179494 1.7261865
0.77491778 -0.56084919 1.7235852
0.82740831 -0.56044936 1.7216097
0.87530822 -0.55908811 1.7213341
0.92274648 -0.55827796 1.7243389
0.98044431 -0.56042528 1.7302114
1.0266687 -0.55852538 1.7332119
1.0792149 -0.55796891 1.7266355
1.1262366 -0.55609268 1.7248533
1.1778822 -0.55578691 1.7359067
1.2142309 -0.55520999 1.7275274
1.2734773 -0.55273402 1.7238138
1.3239632 -0.55220407 1.7142515
-0.21880651 -0.50137174 1.7254622
-0.082058549 -0.50048614 1.715112
-0.023253866 -0.50240469 1.7305545
0.028667184 -0.50256461 1.7256016
0.052345991 -0.50212425 1.7062445
0.17623839 -0.50496018 1.7257477
0.22726981 -0.50694865 1.7175094
0.27569386 -0.51869547 1.7268801
0.31097552 -0.53749198 1.7258626
1.2305793 -0.54976511 1.712532
1.3335642 -0.54609281 1.7293556
1.3780036 -0.54486191 1.7289857
1.428277 -0.53891331 1.725026
1.4686601 -0.52235657 1.7280101
-0.25488144 -0.48870051 1.7089726
-0.22261138 -0.49638203 1.731274
-0.17339741 -0.4950166 1.7238976
-0.13087115 -0.49587676 1.720207
-0.075320996 -0.49709576 1.7188199
-0.034387719 -0.4977262 1.7218958
0.023243494 -0.49544749 1.7140735
0.057128109 -0.49898738 1.725879
1.5148053 -0.45582008 1.7166319
1.5365406 -0.440626 1.7186673
1.5507056 -0.43113706 1.7168818
1.6257931 -0.31105471 1.7421241
1.8803306 0.18191241 1.7004877
1.9065616 0.18907894 1.7023506
1.910305 0.20657937 1.7039497
1.585947 0.26627323 1.7440649
1.6024027 0.25659207 1.7434614
1.6262046 0.64129633 1.7483975
1.7758503 0.67588675 1.7289422
1.8225982 0.69272417 1.7347428
1.7883301 0.73139173 1.7462622
1.8171564 0.72581398 1.730013
1.7935348 0.77678478 1.7468007
1.8173321 0.77753967 1.7378772
1.7930707 0.82572943 1.7466159
1.8291272 0.82246977 1.7376072
1.8628861 0.840096 1.7239351
1.7815788 0.86803943 1.7459453
1.8237625 0.8715291 1.736719
1.8759745 0.87463439 1.7223617
1.921088 0.88669252 1.7119135
1.7973422 0.92797858 1.7481065
1.8244326 0.92676556 1.738817
1.8748199 0.92759949 1.7216954
1.9144526 0.9207893 1.706026
1.9875256 0.92579669 1.7179803
1.7939996 0.97626823 1.7463894
1.8267074 0.97300708 1.7374973
1.8757917 0.97497785 1.7173698
1.9086158 0.97351664 1.7034003
1.7908213 1.0320547 1.7455435
1.8252177 1.0219443 1.7349231
1.8744259 1.0245322 1.7172017
1.9183098 1.0386292 1.7050819
1.7891417 1.080132 1.7458901
1.8265705 1.0753495 1.7311059
1.8774265 1.0734396 1.7111871
1.9113107 1.0783677 1.7024808
1.7911514 1.1344056 1.7458296
1.8243611 1.1231277 1.7305082
1.8711406 1.1257793 1.7121415
1.9164585 1.131633 1.7052219
1.7899934 1.1871012 1.7440557
1.8289038 1.170689 1.7334012
1.8759787 1.1802989 1.7146584
1.9168081 1.173389 1.7069669
1.7794583 1.2121645 1.7470481
1.8249292 1.2259208 1.735177
1.8741084 1.223845 1.7180454
1.9174335 1.22087 1.7056625
1.7865288 1.2584132 1.7436502
1.8254757 1.2775753 1.7365038
1.8712362 1.2719703 1.7138951
1.9165926 1.2652755 1.7047173
1.7936291 1.3317417 1.7468754
1.8228782 1.327767 1.7321478
1.8775072 1.3232325 1.7141962
1.9158748 1.3233671 1.7021387
1.7890736 1.3830105 1.7465373
1.8248717 1.3824691 1.7332437
1.8769891 1.3782912 1.7138386
1.9082562 1.369747 1.7059234
1.7839698 1.4204266 1.7466514
1.8195953 1.4255209 1.7325466
1.8733908 1.4267733 1.7167306
1.9062339 1.4322447 1.7027508
1.787048 1.4696279 1.7464877
1.8239957 1.4749867 1.7349145
1.8767259 1.4780197 1.7143131
1.907517 1.465606 1.7028532
1.7877016 1.5275151 1.749248
1.8262932 1.526044 1.7384322
1.8671936 1.5225523 1.7171654
1.7933148 1.5788783 1.7440268
1.8257333 1.5757674 1.7348344
1.8675069 1.5688163 1.7194897
1.7873886 1.6476023 1.7443314
1.8230989 1.6204685 1.7339995
1.7840744 1.6723566 1.7478555
1.8166301 1.6694028 1.7363247
1.7880456 1.7330979 1.7491939
1.8003876 1.7057409 1.7412086
1.7668791 1.7520474 1.7483371
0.37884948 -0.5557881 1.7978474
0.44905719 -0.55390131 1.7803931
0.49443528 -0.55975473 1.7917919
0.52349228 -0.56275225 1.763938
0.57592016 -0.56439298 1.7811773
0.6245724 -0.56310385 1.7745584
0.67945874 -0.56542242 1.7717597
0.72347659 -0.56535953 1.7799386
0.77512282 -0.5643962 1.7706957
0.82616574 -0.56285298 1.7895116
0.87254679 -0.56021696 1.7769163
0.92850578 -0.56036139 1.7801522
0.96928811 -0.55852556 1.7762523
1.0232232 -0.55536294 1.7761478
1.0738937 -0.55836058 1.7741382
1.1279876 -0.55498672 1.7678742
1.1685674 -0.55278289 1.77792
1.2192798 -0.55288261 1.7673715
1.2684271 -0.55432856 1.7577549
-0.26164633 -0.50127387 1.7857957
-0.2347071 -0.50012052 1.7841632
-0.17677931 -0.50171632 1.7943593
-0.10916357 -0.5020861 1.7829387
-0.066799805 -0.50011611 1.7610511
-0.02832558 -0.50325382 1.7809112
0.021291653 -0.50196719 1.7748066
0.05471538 -0.50295436 1.7876742
0.13862488 -0.50463647 1.7698202
0.17110932 -0.50772256 1.7778374
0.22176293 -0.51107377 1.7751347
0.2797575 -0.51963818 1.7768246
0.31935769 -0.5415954 1.7741375
1.1159592 -0.54812211 1.781468
1.1733207 -0.54766941 1.7805617
1.2284602 -0.54704446 1.7796525
1.2755955 -0.54594368 1.7780907
1.3188236 -0.54195005 1.7755072
1.3737224 -0.53785992 1.7770262
1.4242532 -0.52793938 1.7789156
1.4742112 -0.52001673 1.7790643
1.5124345 -0.5079987 1.7778484
-0.26096076 -0.49555251 1.7820249
-0.22527458 -0.49564469 1.7799574
-0.18929674 -0.49603266 1.7730417
-0.13246456 -0.49921614 1.7716448
-0.081201859 -0.49712566 1.7608396
-0.023633452 -0.49842352 1.7638866
0.023706716 -0.49922204 1.7586404
0.062382217 -0.49870706 1.7561986
1.5397284 -0.49016139 1.7842276
1.6292839 -0.37175369 1.7878115
1.6425366 -0.32583746 1.7882682
1.6535187 -0.30542973 1.7734693
1.6356202 -0.27560613 1.7940216
1.6536738 -0.2726832 1.7781212
1.6381503 -0.22325192 1.7926923
1.6565037 -0.23480684 1.7858552
1.6284194 -0.17760982 1.7938967
1.6176536 -0.14028695 1.7924218
1.4998831 0.13758518 1.7971635
1.5945108 0.24100642 1.7568223
1.613961 0.24232362 1.758023
1.5984755 0.25766441 1.7592281
1.6142582 0.62987781 1.7597997
1.6751976 0.67907059 1.7903332
1.7142484 0.68633175 1.7745559
1.760236 0.6923213 1.7632651
1.682758 0.72539872 1.7902993
1.7270401 0.72577673 1.7746441
1.7682731 0.72175193 1.7581203
1.6828972 0.77756351 1.792663
1.7233993 0.77682644 1.7771831
1.7698404 0.7728802 1.7586842
1.6801103 0.82536238 1.7916216
1.7246594 0.82290077 1.7765672
1.7693074 0.82569277 1.7588298
1.640489 0.86576915 1.7992785
1.6775414 0.87380856 1.7921491
1.7258581 0.8732124 1.7738067
1.7630448 0.87716693 1.762002
1.6818365 0.92296243 1.7929217
1.7255516 0.92430967 1.7754953
1.7744458 0.92529279 1.7585901
1.8117235 0.90545976 1.7507358
1.6794621 0.97287583 1.789289
1.7247047 0.97595841 1.7736695
1.7729244 0.97541356 1.7569879
1.6780663 1.0265199 1.791523
1.7266043 1.023747 1.7736716
1.7657608 1.0246813 1.7570529
1.6436439 1.0947624 1.7963076
1.6786116 1.0743834 1.7904133
1.722131 1.0748655 1.7746472
1.7649759 1.0752227 1.7626352
1.6437887 1.1387875 1.7995831
1.6791987 1.124524 1.791097
1.7227339 1.1274511 1.7747041
1.7682316 1.1249595 1.7589264
1.6474247 1.1533241 1.7968886
1.6802156 1.1757333 1.7913474
1.7275462 1.1778903 1.7714257
1.769209 1.1751584 1.7558892
1.6447808 1.2415191 1.7976013
1.6785538 1.2245346 1.7897259
1.7253001 1.2269903 1.7720277
1.771312 1.2325478 1.7581236
1.6465263 1.2719438 1.7962102
1.6811742 1.2799352 1.7922946
1.7240816 1.2750355 1.769657
1.770601 1.2772963 1.7543396
1.6766542 1.3244637 1.7905146
1.7250705 1.3276945 1.7721331
1.7684178 1.3229825 1.7558849
1.6414149 1.3726795 1.7979462
1.6751995 1.370579 1.7883406
1.7254171 1.3755701 1.7683146
1.7703601 1.3719372 1.7545775
1.6761503 1.4193505 1.78803
1.7280897 1.4268398 1.7672145
1.7620693 1.4244419 1.7548496
1.6458564 1.479746 1.7951652
1.6775944 1.469353 1.787537
1.7242813 1.47355 1.7667978
1.7692951 1.4758344 1.7547042
1.6733918 1.5224736 1.7918677
1.724171 1.5233949 1.7723106
1.769107 1.5265522 1.7558874
1.8039887 1.5173515 1.7510715
1.6471586 1.5682989 1.7992392
1.6745238 1.5739629 1.7897069
1.724834 1.5710716 1.7718734
1.7701968 1.5805407 1.7598647
1.6463096 1.6122065 1.7989439
1.677806 1.6283864 1.7891701
1.728412 1.6223104 1.7699096
1.7720289 1.624271 1.7551426
1.6770914 1.6701729 1.7863224
1.7215307 1.672889 1.7769095
1.760136 1.681868 1.7604296
1.6456271 1.7499049 1.7975826
1.6733314 1.7201512 1.7919208
1.7250891 1.7264566 1.7769938
1.7711792 1.7229637 1.7598153
1.6723804 1.7571836 1.7911847
1.7394652 1.7512817 1.7663704
1.75455 1.7530437 1.7587422
0.33607742 -0.55019873 1.8169048
0.38946912 -0.55815661 1.8041959
0.44479099 -0.56216598 1.8416641
0.47287068 -0.56261981 1.838354
0.52880234 -0.56569582 1.8193544
0.56881982 -0.56402856 1.824371
0.63129324 -0.56583911 1.8248142
0.66916841 -0.56155312 1.8300545
0.72786856 -0.56361699 1.8297195
0.77772176 -0.56236225 1.8164991
0.82921296 -0.55985457 1.8168011
0.87261343 -0.55675375 1.8286717
0.92241043 -0.55753672 1.828411
0.97568566 -0.5548147 1.8261309
1.0204312 -0.55383903 1.8168586
1.0764074 -0.55394894 1.8097488
1.1241251 -0.55537945 1.8156791
1.1648871 -0.55553913 1.819019
1.2078784 -0.55354548 1.8354628
-0.27472374 -0.50029361 1.8149219
-0.20874995 -0.50277162 1.829903
-0.15968621 -0.50385273 1.8371601
-0.12272473 -0.50236982 1.8239094
-0.068971865 -0.5034579 1.8200544
-0.02805711 -0.50546253 1.8270534
0.023087313 -0.50544018 1.8247389
0.060323067 -0.50490588 1.8280133
0.17327277 -0.51288038 1.8347765
0.22505151 -0.51271683 1.8247446
0.2702702 -0.51783687 1.8259341
0.32628196 -0.54369938 1.8286841
1.0259573 -0.54697484 1.8290828
1.077536 -0.54613656 1.8292774
1.1235827 -0.5475741 1.8277637
1.1774348 -0.5462451 1.8376954
1.2278783 -0.54427689 1.8320326
1.2745779 -0.53876156 1.8263505
1.3196068 -0.53026402 1.8291669
1.3762604 -0.52251285 1.8268849
1.4289819 -0.51227272 1.8273674
1.4729595 -0.50742513 1.8153636
1.5273073 -0.502141 1.8301194
-0.25507388 -0.49682999 1.8041023
-0.24686584 -0.49817362 1.8098112
-0.18432342 -0.49755064 1.8125015
1.4866558 -0.49771154 1.832552
1.5402961 -0.49283123 1.8163642
1.5320848 -0.40361631 1.8456041
1.5530201 -0.4033646 1.8292333
1.529801 -0.3736048 1.8395203
1.5774428 -0.37670189 1.8158854
1.610993 -0.37197891 1.8035791
1.5322983 -0.32871819 1.8410343
1.5790074 -0.32666871 1.8206069
1.6178498 -0.32240278 1.8038427
1.5382664 -0.27618316 1.8412158
1.5772145 -0.27549437 1.823727
1.6130041 -0.26843756 1.8083494
1.5370272 -0.22949184 1.8438174
1.5725077 -0.2265472 1.8272496
1.6135085 -0.22240239 1.8081281
1.5404532 -0.17274056 1.8438823
1.5707996 -0.17306949 1.8284515
1.6082026 -0.17356312 1.8100069
1.5425972 -0.12028412 1.8430318
1.5720879 -0.12720014 1.8272227
1.6086994 -0.13715239 1.8098034
1.5406401 -0.077141225 1.8371112
1.5578642 -0.092832953 1.8216225
1.5180988 -0.024428517 1.8369716
1.521211 0.022059703 1.8474354
1.5224221 0.075505815 1.8273321
1.5246029 0.12401338 1.832829
1.5247107 0.17590691 1.844681
1.4985328 0.21269533 1.8095049
1.5118881 0.20388593 1.8266627
1.4980496 0.28687844 1.800281
1.5111754 0.27739725 1.833056
1.5167775 0.33032584 1.8378308
1.4945457 0.35218838 1.8067232
1.5246735 0.44399822 1.8488944
1.526377 0.48212877 1.83866
1.5347699 0.52488816 1.8344988
1.5427709 0.57121468 1.8424042
1.5544872 0.58147001 1.8269953
1.5440009 0.6251629 1.8469499
1.5689831 0.62857801 1.8329141
1.6216565 0.64150518 1.8100213
1.5450786 0.67657965 1.845006
1.5733274 0.67915875 1.8343685
1.6219395 0.67141217 1.8145026
1.6567674 0.68848789 1.8039979
1.5442244 0.73081672 1.8461349
1.5780427 0.72621369 1.8298621
1.6269708 0.72491753 1.8156942
1.6577014 0.7255224 1.8040016
1.5410727 0.77547103 1.8449544
1.5750732 0.77832788 1.8307977
1.6251353 0.77300316 1.8137895
1.6583881 0.77123451 1.803907
1.5416505 0.8328138 1.8481567
1.5746083 0.82736015 1.8314736
1.6273552 0.82164431 1.8120512
1.661406 0.83298409 1.8036327
1.5395479 0.86970747 1.8450906
1.5741457 0.87654555 1.832767
1.6223508 0.87222856 1.8117845
1.6626388 0.88501817 1.80384
1.540987 0.92132264 1.8436308
1.5777556 0.92205656 1.8317237
1.6243743 0.92460579 1.8108132
1.6648724 0.93133914 1.8028696
1.5453827 0.9691776 1.8456254
1.5746396 0.97163451 1.8326066
1.6230351 0.97636396 1.8145041
1.6530671 0.97575694 1.8042932
1.5396512 1.0155697 1.8475817
1.5740383 1.0253642 1.831962
1.6232879 1.0251266 1.8123443
1.6535026 1.0212482 1.8042392
1.5424662 1.0813557 1.8443949
1.5736622 1.0727851 1.8322729
1.6234236 1.075976 1.8122145
1.6557018 1.0651431 1.8025875
1.5408227 1.1298234 1.8449248
1.5767131 1.1238571 1.8321081
1.620507 1.1254901 1.8129666
1.6529843 1.1129539 1.8000951
1.5427052 1.1820376 1.8456942
1.5734009 1.1727642 1.8327414
1.6205174 1.173581 1.8137871
1.6549531 1.1810198 1.8062706
1.5406187 1.231645 1.8437434
1.5768083 1.2256711 1.8308841
1.6258724 1.2236443 1.8127916
1.6537309 1.2087551 1.8023947
1.5434221 1.2745548 1.8447365
1.5769771 1.2774433 1.8297588
1.6217941 1.2714202 1.8102078
1.5371628 1.3226126 1.8460659
1.5750698 1.3225778 1.8281726
1.6261113 1.3264527 1.8078381
1.5389246 1.3767014 1.8451526
1.5757639 1.3722606 1.832751
1.6175909 1.3797128 1.8140296
1.5404228 1.4265398 1.8440889
1.5745447 1.4194338 1.8304363
1.6267219 1.4267249 1.8095263
1.5341326 1.4799482 1.8440828
1.5721828 1.4709827 1.8291481
1.6191355 1.4739237 1.8076749
1.533959 1.5299443 1.8415036
1.577027 1.520268 1.8251626
1.626507 1.5266351 1.8079233
1.5330076 1.5756857 1.8458525
1.573894 1.5720235 1.826296
1.6201695 1.5798404 1.807463
1.5264814 1.6273432 1.8439349
1.5759088 1.6256492 1.8247062
1.6214777 1.6304954 1.8063694
1.496781 1.6622438 1.8474493
1.5312972 1.6772864 1.8432875
1.5712011 1.6800029 1.8266941
1.6277406 1.6749653 1.8064303
1.656363 1.6808758 1.8006419
1.5412788 1.7229447 1.8456885
1.5797223 1.7274047 1.8253791
1.6274134 1.7268114 1.8086745
1.5360916 1.7513402 1.8432343
1.5731611 1.7560596 1.8258238
1.6124139 1.7563504 1.815346
0.3471429 -0.55899769 1.8786263
0.36800167 -0.55778968 1.8786873
0.43390238 -0.56109935 1.8793877
0.46931764 -0.56183726 1.8703115
0.52340811 -0.56805164 1.8778088
0.57900965 -0.56694108 1.8801428
0.62204349 -0.56231976 1.8729744
0.67576748 -0.56123096 1.8778019
0.72477645 -0.56251115 1.8722973
0.77703887 -0.56158733 1.8796974
0.82184535 -0.55864823 1.8667657
0.88005984 -0.55438519 1.8715502
0.92909414 -0.55178624 1.8613695
0.9791795 -0.55372798 1.8744847
1.0350351 -0.55104721 1.8594691
-0.2593579 -0.50484675 1.8808489
-0.22301959 -0.50579745 1.8753033
-0.1652196 -0.5026052 1.8673965
-0.13570113 -0.506069 1.8819219
-0.066292875 -0.50614667 1.872852
-0.023965685 -0.50654495 1.8735257
0.026954308 -0.50661474 1.8728683
0.05772388 -0.50756586 1.8901836
0.14956336 -0.5152148 1.8793753
0.17342752 -0.51185697 1.8716063
0.22527099 -0.51417047 1.8705323
0.28030413 -0.52067089 1.8823221
0.31499857 -0.53719509 1.8749361
0.86100274 -0.54612118 1.8628995
0.928918 -0.54763466 1.8867391
0.98179048 -0.54487544 1.8991534
1.0189855 -0.54505062 1.8798126
1.075435 -0.54118711 1.8794047
1.1231135 -0.53807044 1.8732303
1.1716294 -0.53337008 1.8780326
1.2219437 -0.53096241 1.8782673
1.2769326 -0.52611125 1.8744204
1.3228483 -0.51356083 1.8747714
1.373433 -0.51000482 1.8709613
1.4088418 -0.50400585 1.8554312
1.4720668 -0.50012964 1.8559332
-0.17993169 -0.49802122 1.8613535
-0.10673588 -0.4997209 1.8595022
-0.097585663 -0.49939826 1.8586342
1.3882159 -0.49745026 1.8930641
1.4258491 -0.49496242 1.8774395
1.4736284 -0.49024871 1.8725263
1.5226249 -0.49131805 1.8633258
1.4470391 -0.41217425 1.8830512
1.4832578 -0.40079695 1.8582617
1.5028664 -0.40167645 1.8515633
1.3878311 -0.37945426 1.8962431
1.4227647 -0.37684581 1.8831277
1.474154 -0.3743282 1.8625193
1.5015186 -0.39045823 1.8518177
1.397158 -0.32536152 1.8959322
1.4292829 -0.32254046 1.8836946
1.4792609 -0.32401282 1.8651832
1.5136857 -0.31142852 1.8531743
1.3934258 -0.28093636 1.8981835
1.4277519 -0.27380279 1.8878105
1.4767655 -0.27489004 1.8683902
1.5149689 -0.27591652 1.8541446
1.4268885 -0.22528362 1.8917446
1.4746668 -0.22597578 1.8709732
1.5131494 -0.22467652 1.8546742
1.4324297 -0.17476116 1.8913941
1.4740375 -0.17199484 1.8747749
1.5169412 -0.17254429 1.8563758
1.4286906 -0.1267585 1.8925267
1.472554 -0.12335698 1.8759636
1.5159073 -0.1237952 1.858271
1.4297739 -0.074675962 1.8946426
1.4722461 -0.074895188 1.8775734
1.514482 -0.075090267 1.8585876
1.429379 -0.026389627 1.895113
1.4720496 -0.026450275 1.878352
1.5112456 -0.02864272 1.859751
1.430638 0.021134993 1.8952805
1.4729327 0.022013927 1.8794401
1.5073494 0.022071838 1.8611155
1.4378436 0.075684533 1.8947887
1.4744976 0.075936995 1.8802385
1.5153097 0.076132514 1.8594078
1.433404 0.12552552 1.8952206
1.475389 0.12453967 1.8792415
1.5158156 0.12340271 1.8597801
1.4356974 0.17511027 1.8937211
1.4776666 0.17336541 1.8789206
1.5141324 0.17270988 1.8600253
1.4357772 0.22507469 1.8944801
1.4759123 0.22713214 1.8783816
1.5146139 0.22561625 1.8575603
1.4326475 0.2756488 1.8936262
1.4734793 0.27607214 1.8790553
1.5081987 0.27621242 1.861655
1.4370902 0.32523483 1.8932016
1.4736946 0.32617831 1.8779724
1.5108291 0.32490218 1.8597335
1.4346229 0.37471023 1.8930517
1.4774398 0.37598008 1.875182
1.5137683 0.37693149 1.8581567
1.4301097 0.42217684 1.8940574
1.4723969 0.42603126 1.8768028
1.5112009 0.42620286 1.8583821
1.4307396 0.47564697 1.8941358
1.4762151 0.4770726 1.8760397
1.5142597 0.47875777 1.86061
1.4311811 0.52385455 1.8919168
1.4749334 0.52238357 1.8752348
1.5157852 0.52631992 1.8607022
1.4250225 0.57709199 1.8927383
1.4743464 0.57532239 1.8751971
1.5190934 0.56946403 1.8583369
1.3954116 0.60360724 1.8996241
1.4254094 0.62160999 1.8894641
1.4724302 0.62605983 1.8731432
1.5205885 0.62507296 1.8591241
1.3971491 0.69770384 1.8987087
1.4246459 0.67364597 1.8910766
1.4749243 0.67215955 1.8711777
1.5217055 0.67756486 1.8572017
1.3991675 0.70979929 1.8980416
1.4260635 0.72759682 1.8896993
1.4732028 0.72240168 1.871485
1.5209488 0.72493714 1.8604172
1.398223 0.77640498 1.8986957
1.4259251 0.77819192 1.889016
1.4713366 0.77534372 1.8728751
1.5163268 0.77435368 1.8583097
1.3966751 0.83801293 1.8987346
1.4235238 0.82585865 1.8888378
1.4755669 0.82487166 1.8723034
1.5217497 0.82265264 1.8577639
1.3918951 0.88710815 1.8972532
1.4235553 0.87796223 1.8883682
1.4760479 0.87093645 1.8723346
1.5180228 0.87779397 1.8575144
1.3971883 0.9074927 1.897675
1.4281147 0.92317861 1.8899285
1.4770046 0.92425662 1.8714553
1.5208553 0.92355698 1.8605762
1.3981409 0.97275025 1.8975537
1.4281752 0.97109729 1.8896996
1.4732 0.97518051 1.8688654
1.5232832 0.97451818 1.8574491
1.3975197 1.0264778 1.8987875
1.4283547 1.0226915 1.8884509
1.4730958 1.0248917 1.8704084
1.5213766 1.0320015 1.8576114
1.3942226 1.07898 1.8952404
1.4268337 1.0745023 1.8894199
1.4764881 1.0730753 1.8707353
1.5181162 1.0755417 1.8576078
1.4282476 1.121402 1.8874478
1.4733053 1.1235048 1.871441
1.5201572 1.1268808 1.8615773
1.4289874 1.1752179 1.8883016
1.4761698 1.1727594 1.8701235
1.5164332 1.1727222 1.8585349
1.3875295 1.2310575 1.8982019
1.4282653 1.226673 1.8904166
1.4731374 1.2243751 1.8704225
1.518247 1.2233115 1.8579144
1.3993235 1.2539233 1.8972831
1.424493 1.2723852 1.8881878
1.475076 1.27381 1.8674952
1.5223871 1.2760317 1.8584267
1.4262595 1.3252969 1.887592
1.4757912 1.3242291 1.869121
1.5137043 1.3225921 1.8582555
1.3960557 1.3939017 1.8989369
1.4266264 1.3792866 1.8883429
1.4727092 1.3726596 1.8699441
1.5178356 1.3768176 1.8567249
1.3909127 1.4379076 1.892374
1.4208643 1.4273694 1.8875288
1.4739599 1.4204884 1.8674068
1.5217384 1.432595 1.8586134
1.3938073 1.474279 1.8961126
1.4263421 1.4801967 1.8860766
1.4769126 1.4692193 1.8662006
1.5216019 1.4726529 1.8552765
1.3945926 1.5258336 1.8961917
1.4252185 1.5296535 1.8831606
1.4773062 1.5198257 1.8649337
1.5126014 1.5274639 1.8519263
1.3932105 1.5739887 1.8968213
1.4243007 1.579559 1.8821015
1.4742743 1.5697737 1.8626083
1.5078299 1.569351 1.8518059
1.3895952 1.6228406 1.8980137
1.4239748 1.6226461 1.8832439
1.4698668 1.6250712 1.8616642
1.5151653 1.6093036 1.8543739
1.3934008 1.669439 1.8961579
1.4239839 1.6727152 1.8819396
1.4697558 1.6785769 1.8616344
1.522423 1.6763861 1.854193
1.3903972 1.7254956 1.8964809
1.4269085 1.7281579 1.8809829
1.4783324 1.7290866 1.861059
1.5160178 1.7233976 1.8529431
1.399186 1.7624919 1.8879898
1.4262563 1.7506617 1.8830627
1.4699783 1.7561206 1.8634284
1.516808 1.7518305 1.8570223
0.34381372 -0.55465698 1.9159359
0.36021399 -0.55400586 1.917466
0.40673262 -0.56116533 1.9127134
0.47956419 -0.56547868 1.9370921
0.52421081 -0.56561029 1.9250017
0.57468253 -0.56647974 1.9281069
0.62780142 -0.56111771 1.9285899
0.67978358 -0.55852342 1.9188502
0.72547889 -0.5573824 1.9249403
0.77691597 -0.55797905 1.9263768
0.82378531 -0.55353117 1.9193854
0.87125456 -0.55219907 1.9166095
-0.25012159 -0.50491691 1.9064665
-0.22348167 -0.50658172 1.9213322
-0.17615153 -0.50737482 1.9213024
-0.12829386 -0.50781393 1.9308699
-0.07622809 -0.51107389 1.9335586
-0.023656022 -0.51004881 1.9367388
0.025871359 -0.50730729 1.9262799
0.058709435 -0.5068453 1.9241121
0.17293696 -0.51436341 1.92145
0.22927752 -0.51788664 1.9275324
0.27533612 -0.5219062 1.9373541
0.3206706 -0.53482848 1.9216329
0.8254807 -0.54843545 1.9245429
0.8838523 -0.5462997 1.9312559
0.92690045 -0.54332882 1.9228104
0.97501063 -0.54024577 1.932832
1.0227276 -0.53643763 1.9247189
1.0685803 -0.53138012 1.9277458
1.1220137 -0.52630097 1.9276913
1.175733 -0.5210039 1.9293346
1.229562 -0.51356196 1.9292339
1.2732882 -0.51111132 1.9165828
1.3127472 -0.50694376 1.9118087
1.2888454 -0.49676964 1.9442648
1.3268901 -0.49341711 1.9362607
1.3654236 -0.49177554 1.9162878
1.4092861 -0.48906314 1.917715
1.4623234 -0.48876324 1.9109102
1.2753768 -0.40603176 1.939284
1.3312478 -0.40837494 1.9250869
1.3764173 -0.41058859 1.9144779
1.4160643 -0.41266391 1.9051313
1.450155 -0.41619453 1.9082021
1.2481394 -0.36691275 1.9467144
1.2763942 -0.37408683 1.9373668
1.3249174 -0.37433428 1.9210136
1.3654709 -0.37383062 1.9062489
1.2473493 -0.34008467 1.9491972
1.2762821 -0.32470965 1.941439
1.3241513 -0.3246415 1.9237404
1.3708167 -0.32481346 1.9065481
1.2775912 -0.27767903 1.9432714
1.3235059 -0.27572677 1.9269546
1.3695598 -0.2767452 1.9097145
1.2761973 -0.22342637 1.9440566
1.3250461 -0.22357823 1.9285712
1.3782036 -0.22439103 1.9091982
1.2820261 -0.17484258 1.9432452
1.326499 -0.1762276 1.9269936
1.3762565 -0.17597637 1.9104515
1.4075196 -0.17652197 1.9011708
1.285202 -0.12707183 1.9444143
1.3274707 -0.12744892 1.9307431
1.3758917 -0.12783894 1.9128994
1.4056718 -0.12810065 1.9016823
1.2864622 -0.073940605 1.9440926
1.3274671 -0.074128062 1.9303343
1.3756129 -0.074399598 1.914678
1.4056387 -0.074558042 1.9038502
1.2841754 -0.026581556 1.9448254
1.3279518 -0.026252018 1.9319757
1.3749481 -0.026311381 1.9147177
1.4047664 -0.02634983 1.9036506
1.2900485 0.022455402 1.9450558
1.3276768 0.021638878 1.9315624
1.3750727 0.021756202 1.9148791
1.4065938 0.023614816 1.9026121
1.2880471 0.076163769 1.9447615
1.3279207 0.074873671 1.9308236
1.3757967 0.075195864 1.9147657
1.4125659 0.075476304 1.9026016
1.2877127 0.12433153 1.945631
1.3267707 0.12931883 1.9333982
1.3763875 0.1244201 1.916604
1.4104227 0.12058554 1.9040854
1.2872096 0.17776258 1.9470464
1.3236938 0.17527767 1.934857
1.3765134 0.17322049 1.9153962
1.4127599 0.16765796 1.9025481
1.2881752 0.22309253 1.9472623
1.3218733 0.22468993 1.9341015
1.3736966 0.2242419 1.9166379
1.4122721 0.23199891 1.90504
1.288465 0.2771326 1.9464569
1.3247037 0.27510732 1.9350743
1.373408 0.27454728 1.9179822
1.4075783 0.27278557 1.9037024
1.2917691 0.32352889 1.9466577
1.3270503 0.32507807 1.934131
1.3761011 0.32357961 1.9156713
1.4124556 0.32453185 1.9022894
1.2870332 0.37698749 1.9457852
1.3249342 0.37594101 1.9329342
1.3754791 0.37737012 1.9164609
1.4086363 0.37304494 1.9048424
1.2907034 0.42817062 1.9460934
1.3243407 0.42655826 1.9327786
1.3751352 0.42389905 1.9151092
1.4076365 0.42953536 1.9038776
1.2899737 0.47427505 1.9443815
1.3263209 0.47819155 1.9312184
1.3772644 0.47311187 1.9141319
1.4069034 0.47216275 1.9019189
1.2873666 0.52617735 1.9461904
1.3254809 0.52602214 1.9311852
1.3772922 0.52411062 1.9145505
1.4073398 0.53214079 1.9028692
1.2858332 0.5712806 1.9452044
1.3257293 0.57375193 1.9303827
1.3760442 0.57494891 1.9121252
1.4043121 0.55891597 1.901242
1.2868183 0.62334239 1.9457791
1.32253 0.62475467 1.9323845
1.3693424 0.62427443 1.9148767
1.4019032 0.62846392 1.9025623
1.286469 0.67402065 1.9462605
1.3261366 0.67865884 1.9299706
1.3776022 0.67525923 1.9100162
1.280491 0.72191805 1.9439497
1.3239852 0.72279143 1.9272273
1.3736033 0.72807044 1.9097923
1.281889 0.76981837 1.9409419
1.3261154 0.77213168 1.9275626
1.3728998 0.77591246 1.9107441
1.2826717 0.82119048 1.9425013
1.3267026 0.82167363 1.9273483
1.3736265 0.82288563 1.9097735
1.2878937 0.87304127 1.9425627
1.3256477 0.87119591 1.9265246
1.3703558 0.87326717 1.9082526
1.2822914 0.92120028 1.9444335
1.3244089 0.92312133 1.9301281
1.3729302 0.92763036 1.9109348
1.4093797 0.9382965 1.9048076
1.2851366 0.97002643 1.9430324
1.3249016 0.97353017 1.9265175
1.3738406 0.97891748 1.9099774
1.4101911 0.95028603 1.901069
1.2852814 1.0253642 1.9444605
1.3232719 1.0275311 1.927435
1.3712142 1.0240219 1.9084935
1.4079809 1.0026474 1.9006659
1.2787695 1.0772847 1.9422182
1.325826 1.0751464 1.9271609
1.3722537 1.0713753 1.9111841
1.4113338 1.0715566 1.9010084
1.2861488 1.1200891 1.9429678
1.3246553 1.1246217 1.9264284
1.371484 1.1240944 1.9095438
1.409596 1.1425231 1.9040879
1.2833308 1.1795784 1.9434948
1.3215833 1.1758195 1.9297427
1.3727732 1.1736031 1.9071308
1.4088387 1.1930823 1.9045849
1.2806497 1.22728 1.9431329
1.3284161 1.2280836 1.9286331
1.3680557 1.2192482 1.9102561
1.4053735 1.2130175 1.9019473
1.2835538 1.2711152 1.9440955
1.3256592 1.2776868 1.9288615
1.3748411 1.2748899 1.9117438
1.2845231 1.3147771 1.9437158
1.3266047 1.3243977 1.9296342
1.3759779 1.3276757 1.9119408
1.403065 1.3103738 1.9015132
1.2852557 1.3737791 1.942574
1.3272508 1.3755071 1.9321175
1.3765402 1.3784455 1.9125777
1.4022367 1.3574908 1.902271
1.2821271 1.4336585 1.9462343
1.3249935 1.4206229 1.9286473
1.3710579 1.4241116 1.9101448
1.2820251 1.4768232 1.9419847
1.3265079 1.4666435 1.9267689
1.3706839 1.4737481 1.90991
1.2832326 1.529608 1.9402046
1.3234311 1.5223505 1.9270242
1.3700409 1.5239664 1.9084274
1.2760915 1.5811651 1.9421839
1.3290521 1.5725613 1.9231725
1.3693011 1.5798864 1.9100907
1.2486542 1.6112967 1.9481497
1.2771261 1.6237838 1.9403737
1.3204427 1.622334 1.9244367
1.3678578 1.6332902 1.9099979
1.2827929 1.6768486 1.9410665
1.3249549 1.6701663 1.9265435
1.3674693 1.6788553 1.9094675
1.283264 1.7224222 1.944203
1.327175 1.7190412 1.9251235
1.3651611 1.72358 1.909207
1.2856331 1.7652519 1.9455229
1.3229585 1.7564374 1.9252628
1.3715826 1.7604734 1.9020281
1.3313724 1.8158599 1.9194558
0.34694499 -0.55101776 1.9941047
0.37423903 -0.55757284 1.9770854
0.42408955 -0.56452429 1.9788032
0.47610846 -0.56504786 1.9785911
0.52836031 -0.56201154 1.9777982
0.57344955 -0.56222212 1.9778847
0.62550247 -0.55910379 1.9813786
0.67851627 -0.5556013 1.9722533
0.72734207 -0.55157685 1.9647096
0.77593476 -0.55384356 1.96656
0.84844273 -0.55011523 1.9666899
-0.25770962 -0.51060122 1.9659941
-0.22267935 -0.50984234 1.9658442
-0.17619801 -0.51182175 1.9767058
-0.12235733 -0.50872231 1.9673809
-0.074423887 -0.50925589 1.9710414
-0.032018896 -0.50861502 1.9616333
0.021595821 -0.51428735 1.9721105
0.1833135 -0.51621342 1.9766719
0.22533345 -0.51631922 1.9649094
0.27194288 -0.51773947 1.9612753
0.3187393 -0.53024876 1.9771824
0.71820229 -0.54765767 1.9849949
0.78110009 -0.54936039 1.9834366
0.82266307 -0.54565799 1.9781858
0.87482876 -0.5396471 1.9765695
0.92541528 -0.53372288 1.971148
0.97591203 -0.52740937 1.9729673
1.0263711 -0.52291828 1.9779192
1.0772455 -0.5168547 1.9715804
1.1241016 -0.51050812 1.9748256
1.1707876 -0.50636208 1.965137
1.2197574 -0.50361598 1.9562991
1.1202687 -0.49995315 1.9828829
1.1766309 -0.49508628 1.9894907
1.2268326 -0.49361309 1.9780372
1.272846 -0.49180454 1.9686221
1.0805551 -0.4013015 1.9977059
1.1256212 -0.40228009 1.985191
1.1799496 -0.40631253 1.9728763
1.2222866 -0.40765581 1.9615982
1.0893368 -0.37817582 1.9982483
1.1256007 -0.37580079 1.9889818
1.1754307 -0.37646985 1.9718519
1.2219145 -0.37322995 1.9574894
1.1234769 -0.32751966 1.9914212
1.1739339 -0.32829201 1.975692
1.2218609 -0.324121 1.9590307
1.0978127 -0.28406414 1.9967858
1.1266204 -0.27413705 1.9913237
1.1755531 -0.2734935 1.9772304
1.2254335 -0.27692768 1.9597491
1.2573347 -0.26903379 1.9513375
1.1256909 -0.22645657 1.9940721
1.1758837 -0.22168146 1.9786313
1.2261382 -0.22213891 1.9611174
1.2545711 -0.21981981 1.9516499
1.1234391 -0.17865565 1.9935684
1.1741631 -0.17386937 1.9792559
1.2241578 -0.17419636 1.9615556
1.2557808 -0.17141581 1.9528501
1.0924876 -0.11503533 1.9992454
1.1253399 -0.12424911 1.9932603
1.1742886 -0.12716843 1.9801869
1.2231126 -0.12650023 1.96258
1.2574807 -0.1268158 1.9527174
1.1310349 -0.075090773 1.9926279
1.1750212 -0.07203842 1.9791992
1.2237082 -0.074128844 1.9628952
1.2577775 -0.072618783 1.9528334
1.1262165 -0.02644074 1.9961762
1.1723464 -0.026072169 1.9816109
1.223399 -0.026122393 1.9659072
1.2556654 -0.025377259 1.9531759
1.1299585 0.024085008 1.9946408
1.1740001 0.020483706 1.9825383
1.2238038 0.021442497 1.9665489
1.2620094 0.020696314 1.9539477
1.1278689 0.071110405 1.9962035
1.173777 0.074131094 1.983007
1.2248175 0.074368246 1.967149
1.2608134 0.072627701 1.9556569
1.129668 0.13040471 1.9955981
1.1748271 0.1269974 1.9827473
1.2255471 0.12735766 1.9662263
1.2621617 0.12868622 1.9555014
1.1344683 0.17551857 1.9969199
1.1759039 0.17467374 1.9818382
1.2267473 0.17517412 1.9653534
1.2651632 0.17461163 1.9538405
1.134575 0.22151636 1.9966364
1.173712 0.2215894 1.9832191
1.2246696 0.22418392 1.9673547
1.2664158 0.22499971 1.9553661
1.1351815 0.2699171 1.9970546
1.1734771 0.27778894 1.9853878
1.2234432 0.27551702 1.9683276
1.2621688 0.28122187 1.9552331
1.1326025 0.32387245 1.9960536
1.1724231 0.32463649 1.984457
1.2241052 0.32567391 1.9686836
1.2652349 0.32667953 1.9564404
1.1374526 0.37066516 1.9973379
1.174039 0.37220958 1.9849378
1.2250811 0.37619811 1.9685066
1.2630572 0.37340546 1.9546005
1.1409042 0.42779857 1.9962937
1.1745471 0.42303476 1.9857481
1.2257664 0.42411956 1.9683603
1.2681663 0.42338166 1.9541438
1.1417097 0.47436118 1.9970491
1.1751266 0.47424197 1.9856346
1.2242899 0.47391409 1.9686651
1.2641919 0.47352818 1.9555281
1.0964606 0.53918982 1.9907638
1.1291413 0.53224397 1.9941899
1.1743571 0.52239805 1.9876498
1.2243681 0.52505553 1.9679672
1.2645619 0.52570051 1.9555809
1.0811363 0.59824514 1.985904
1.1374574 0.57210594 1.9945315
1.1772777 0.57409072 1.9854505
1.223979 0.57408345 1.9681501
1.2597158 0.5762037 1.9550622
1.0941652 0.60865778 1.9920799
1.1276357 0.62456858 1.9957045
1.1748452 0.62414408 1.9842222
1.2265185 0.62765205 1.9661174
1.2640828 0.62835914 1.9543809
1.1357367 0.67243981 1.9971137
1.1763376 0.67177194 1.9847288
1.225446 0.67190975 1.9667484
1.2622221 0.6771546 1.9537427
1.140231 0.73368239 1.9977304
1.1748699 0.7231285 1.9849586
1.2256682 0.72305423 1.9665294
1.256932 0.72103739 1.9530859
1.1419537 0.77159882 1.9969574
1.1746845 0.77942896 1.9834485
1.2252654 0.77548283 1.9661201
1.2560301 0.77011955 1.954213
1.1387352 0.82308525 1.996596
1.1752309 0.82623434 1.984624
1.2239735 0.82808506 1.9644771
1.2588674 0.83476239 1.9535007
1.1444612 0.87805462 1.9960765
1.1744409 0.87637585 1.983299
1.2263597 0.87981147 1.9646171
1.2641138 0.87876254 1.9533466
1.141343 0.92584682 1.9957108
1.1759378 0.92660451 1.9815685
1.2255557 0.92797136 1.9639771
1.258393 0.92901725 1.9528455
1.1451064 0.97875512 1.9974847
1.1700623 0.97490185 1.9830263
1.2220256 0.97536319 1.9659384
1.2587079 0.97459769 1.9531013
1.1379629 1.0263948 1.9980934
1.1774005 1.0217828 1.983333
1.226348 1.0225188 1.9651573
1.2626144 1.0234098 1.9542149
1.1479911 1.0654554 1.9969915
1.1753893 1.0726305 1.9818339
1.2271379 1.0753788 1.9652487
1.2595459 1.0674411 1.9538488
1.1461221 1.1206632 1.9985509
1.1749541 1.1264156 1.9845792
1.2266811 1.1253704 1.9663696
1.2612458 1.1289361 1.9526905
1.142902 1.1754321 1.9966484
1.1732213 1.1766763 1.984621
1.2243226 1.1725758 1.968043
1.260821 1.1766281 1.9548153
1.1442173 1.2269682 1.9979491
1.1724645 1.2224934 1.9854023
1.2238051 1.2234579 1.9659659
1.254912 1.225167 1.9529315
1.149099 1.2648864 1.997672
1.1778826 1.2737018 1.9859746
1.2229201 1.2722865 1.9663974
1.2590955 1.2746544 1.9528662
1.1754673 1.326436 1.9860543
1.2275598 1.3266534 1.968684
1.2617956 1.3315672 1.95469
1.1760243 1.3758646 1.9881586
1.2269588 1.3761538 1.9671468
1.2632499 1.382181 1.9559761
1.1476105 1.4374924 1.9994838
1.1760044 1.4228681 1.9881829
1.2249215 1.4240863 1.9674522
1.2601388 1.4257118 1.9559443
1.1495427 1.4521227 1.9952569
1.1759667 1.4699597 1.9838874
1.2268519 1.476737 1.9689593
1.2575587 1.4767213 1.9519879
1.1492386 1.5043105 1.9985893
1.1744847 1.5243832 1.987996
1.2253124 1.527072 1.9683386
1.2597306 1.5243669 1.9520772
1.1463867 1.5541582 1.9966429
1.1742172 1.5734276 1.9850091
1.2259721 1.5801374 1.9659044
1.2520982 1.5621148 1.9537951
1.1686029 1.6258101 1.9884987
1.2253417 1.6288363 1.9657646
1.2566211 1.6342579 1.9513159
1.1450642 1.6629708 1.9976542
1.1801689 1.6682303 1.9844775
1.2218986 1.672649 1.9657809
1.2581347 1.672875 1.9526405
1.1070154 1.7464938 1.9981183
1.1770245 1.7214432 1.9859223
1.2246406 1.7230657 1.9668241
1.2636492 1.7333317 1.9543668
1.1718707 1.7572324 1.9811041
1.2261904 1.7624493 1.9672306
1.263696 1.7641809 1.9594119
0.38434768 -0.55649519 2.0194731
0.42976394 -0.55944294 2.0275962
0.47384563 -0.55957747 2.0258267
0.52058929 -0.55831796 2.0254002
0.57270795 -0.55645746 2.0234342
0.6174022 -0.55519933 2.0253978
0.67129201 -0.55284703 2.0181735
0.73856282 -0.55180919 2.0046527
0.77050477 -0.551193 2.0154519
-0.22154315 -0.51199329 2.0142815
-0.17196298 -0.51188618 2.0239475
-0.1257204 -0.51312536 2.0242503
-0.073532015 -0.51507032 2.0336266
-0.032177266 -0.51651704 2.0400662
0.027171461 -0.51552546 2.022784
0.05134796 -0.51789081 2.0050113
0.17417896 -0.51493585 2.0088086
0.22605899 -0.52160448 2.0316751
0.27949518 -0.52154613 2.0168657
0.32292029 -0.53112417 2.0261478
0.3514055 -0.5481357 2.0215797
0.61382902 -0.54998195 2.0265718
0.68487281 -0.54560089 2.0217209
0.72945231 -0.54338199 2.0249987
0.77499568 -0.54392588 2.0310538
0.82755822 -0.53585535 2.0238252
0.87388366 -0.52787727 2.0267401
0.92492098 -0.51878822 2.0264726
0.9757877 -0.5106529 2.0265849
1.0276788 -0.50630975 2.0149007
1.0720217 -0.50500846 2.0092661
0.99692458 -0.49152759 2.0435331
1.0232922 -0.49397057 2.035183
1.0740917 -0.49337316 2.034946
1.1260542 -0.49474323 2.0190969
1.1775049 -0.49098834 2.0256355
1.2348815 -0.49250013 2.007647
0.93652707 -0.40077728 2.0464921
0.97688866 -0.40321743 2.0366185
1.0252725 -0.40789798 2.0291491
1.071736 -0.41490412 2.0279934
1.1267027 -0.41921207 2.0208154
1.172123 -0.42196935 2.0180345
0.93925917 -0.38234979 2.0483303
0.97302163 -0.3742227 2.0366883
1.0266308 -0.37451437 2.0195572
1.068144 -0.37314576 2.0045543
0.9434889 -0.32981014 2.0484922
0.97263998 -0.32722771 2.0394442
1.0253363 -0.32661465 2.0229504
1.0738213 -0.32690868 2.0068793
0.94929719 -0.27854559 2.0489366
0.97526443 -0.27318805 2.0398743
1.0238183 -0.27350169 2.0255501
1.0742427 -0.27221295 2.0081286
0.94691604 -0.22539477 2.048342
0.97677541 -0.22555083 2.0400267
1.0240983 -0.22567007 2.0248358
1.0759326 -0.22599551 2.0089037
0.94615781 -0.18328236 2.0496354
0.97790504 -0.17808327 2.0399947
1.0259945 -0.17822023 2.0251074
1.0741961 -0.17835739 2.0090754
0.94483137 -0.12806916 2.0496562
0.97633481 -0.12545516 2.0394423
1.0240617 -0.12551218 2.0240798
1.0722264 -0.12615581 2.0102005
1.1069784 -0.13122582 2.0015817
0.94392812 -0.088722974 2.04917
0.97551978 -0.073041297 2.03952
1.0235262 -0.073086306 2.0248296
1.0723909 -0.073187783 2.0103705
1.1058601 -0.073304772 2.0016389
0.9751811 -0.025954297 2.0395968
1.0252659 -0.025052948 2.0254703
1.072978 -0.026808962 2.0098112
1.1051933 -0.024260236 2.0012734
0.94372576 0.021086127 2.0499306
0.97576636 0.021110689 2.0408111
1.0235814 0.021148738 2.0257246
1.0726894 0.021209843 2.0117519
1.1072652 0.017739078 2.0011399
0.94382125 0.052461028 2.049716
0.97642845 0.073484398 2.0413001
1.0246657 0.073579617 2.026958
1.0734998 0.073719636 2.012336
1.1090379 0.082283989 2.002347
0.97759652 0.12599573 2.0418725
1.0261548 0.12618895 2.0279944
1.0744586 0.12632599 2.0122037
1.1115617 0.11779594 2.0024767
0.97537237 0.17246956 2.0450256
1.0228155 0.17374106 2.0311255
1.0755649 0.17379184 2.0116758
1.1126865 0.17237312 2.0015547
0.97696948 0.22231238 2.0454407
1.0244557 0.22143324 2.0310249
1.0769882 0.22248001 2.0127878
1.1111969 0.22045636 2.00313
0.98375285 0.27448949 2.0443168
1.0262971 0.27459925 2.0299792
1.074882 0.27490002 2.0140691
1.1125149 0.27816793 2.0040915
0.98360163 0.32802033 2.0443752
1.0240567 0.32606214 2.0312569
1.0735699 0.32413596 2.0157816
1.1104294 0.32358113 2.0031664
0.98519593 0.37336895 2.0455096
1.0256925 0.37702763 2.0340621
1.0750157 0.37128448 2.0171425
1.1147934 0.3763133 2.0042951
0.98713034 0.42594284 2.0457633
1.0248036 0.42612591 2.0331936
1.0734869 0.42644781 2.0164165
1.1131076 0.4273763 2.0055966
0.9892503 0.47748482 2.0464497
1.0254838 0.47427151 2.0325215
1.07513 0.47763914 2.0180285
1.1174663 0.47728071 2.0052936
0.99214727 0.52552569 2.0449588
1.0253118 0.52663302 2.0329888
1.0755217 0.52550888 2.0176361
1.1177034 0.51253843 2.0026886
0.98826987 0.57375538 2.0467947
1.0259098 0.57649213 2.0343039
1.0759041 0.57552677 2.0150628
1.1151222 0.58350623 2.0044718
0.99639672 0.62591541 2.0470364
1.0267631 0.62145132 2.0357285
1.0710977 0.62380314 2.0144458
1.1111388 0.62212229 2.0006397
0.99016392 0.67532694 2.0473614
1.0258273 0.67541331 2.0361724
1.0755634 0.67376989 2.0182216
1.1104403 0.68000847 2.0054574
0.99230862 0.72919756 2.0470066
1.0248992 0.72729379 2.0369005
1.0757514 0.72843671 2.0206838
1.1178099 0.72656232 2.0048213
0.99220198 0.77036452 2.0461268
1.0257431 0.77579063 2.0362918
1.0747805 0.77549738 2.0188942
1.1164007 0.77694732 2.0045161
0.99023455 0.82228422 2.0468273
1.0253661 0.82165796 2.0348618
1.0738579 0.82367182 2.0193737
1.1143491 0.82903767 2.0055485
0.9933933 0.86608595 2.0479176
1.0253031 0.87270695 2.034193
1.0748543 0.87246758 2.016361
1.1199701 0.87328768 2.0044458
0.99259847 0.92469275 2.0470395
1.0269518 0.9213261 2.0350289
1.0744877 0.92216939 2.016026
1.1145451 0.92724878 2.0046232
0.99067581 0.97698438 2.047688
1.0241016 0.97230136 2.0363538
1.0752016 0.97582912 2.0171564
1.1211342 0.97754472 2.0052526
0.99165076 1.0215285 2.0449531
1.0262522 1.0265001 2.0337429
1.0751934 1.0274023 2.0185533
1.1144923 1.024671 2.0044756
0.99110717 1.0799482 2.0470493
1.0262432 1.0756398 2.0371187
1.0725006 1.0749824 2.0190549
1.1223865 1.0761009 2.004503
0.99119246 1.1266575 2.0473876
1.02618 1.1229303 2.036701
1.0769953 1.1245033 2.0196557
1.1206357 1.12714 2.0056157
0.99303395 1.1816783 2.0445254
1.0284145 1.1774774 2.0362585
1.0762013 1.1757501 2.0188897
1.1189628 1.1747062 2.0062129
1.0263741 1.2273856 2.040761
1.0757139 1.2263459 2.0215931
1.1186867 1.2246782 2.0052221
1.0225364 1.2735298 2.0416615
1.0729181 1.2738138 2.0230067
1.1236495 1.2805953 2.008364
1.1584191 1.2989898 2.0010073
0.99820578 1.3097339 2.0489426
1.0246617 1.3254529 2.0408933
1.073527 1.3236979 2.0248449
1.1248376 1.3253545 2.0087187
1.1509112 1.327906 2.0012362
1.0248541 1.3743291 2.0390453
1.0778254 1.377405 2.0225816
1.1243385 1.3724842 2.0070949
0.99759543 1.4439228 2.0497468
1.0256956 1.4270922 2.0440154
1.0725938 1.4260253 2.024904
1.1255206 1.4240954 2.0066261
1.0307659 1.4810528 2.0425375
1.072559 1.4741925 2.0305386
1.1246854 1.4735303 2.012955
1.1616224 1.4920596 2.000536
1.027649 1.5313954 2.0429039
1.0770881 1.5186573 2.0254309
1.1223891 1.5208577 2.0080316
1.0353256 1.5729297 2.0455718
1.0760809 1.5697602 2.0269587
1.1250528 1.5762676 2.0114398
1.0374116 1.6245724 2.0459411
1.0737957 1.6225452 2.0263865
1.1255007 1.6276492 2.0097902
1.0332892 1.6769557 2.0429478
1.0736945 1.6745914 2.0268199
1.1208307 1.6709948 2.0075409
1.1520272 1.6858668 2.0004206
1.0287156 1.7292916 2.0424187
1.0754843 1.730158 2.0220475
1.1253105 1.7208625 2.011246
1.1531135 1.7451699 2.0020728
1.0390503 1.7508557 2.0361371
1.134829 1.7597811 2.0037532
1.1729081 1.8146189 2.005667
0.38538837 -0.55623525 2.0681419
0.421381 -0.55629456 2.0723693
0.47325119 -0.55635172 2.076925
0.52540332 -0.55342162 2.0568745
0.58360308 -0.55514729 2.0528736
-0.22296482 -0.51681519 2.0751815
-0.17844601 -0.51282513 2.061945
-0.12549168 -0.51392984 2.0761065
-0.079425149 -0.51639158 2.0684266
-0.02567704 -0.51873487 2.0739045
0.027867535 -0.51579952 2.078922
0.057878315 -0.51804566 2.0665793
0.1730343 -0.52144241 2.0548954
0.22750865 -0.52255183 2.0768294
0.27631912 -0.5245434 2.0702927
0.32171744 -0.52836883 2.0811484
0.35689273 -0.54155594 2.0769093
0.48644269 -0.54881614 2.0735376
0.53091794 -0.54536074 2.0736048
0.57876998 -0.54483807 2.0772679
0.62516528 -0.54438138 2.0706103
0.67343867 -0.54285842 2.074867
0.72781843 -0.53840917 2.077487
0.7783168 -0.53007835 2.0727975
0.82617611 -0.51665819 2.0801938
0.87476158 -0.51115268 2.0674164
0.91947824 -0.50470299 2.0644746
0.95218247 -0.50119007 2.0521662
0.88006335 -0.49551368 2.0831194
0.92799199 -0.49471074 2.0820222
0.97285622 -0.49110469 2.0679016
1.0151749 -0.48444238 2.0568709
1.0655183 -0.48774794 2.0548863
1.1171445 -0.49135032 2.0529208
0.79663754 -0.4021149 2.0953476
0.82973212 -0.40366134 2.0848436
0.87480462 -0.40878761 2.0770597
0.91691083 -0.40849304 2.0615587
0.96695721 -0.4153139 2.057724
0.79649907 -0.37559459 2.0983572
0.82729846 -0.37514809 2.0873175
0.87520319 -0.37367892 2.0704145
0.91761196 -0.3735328 2.0573192
0.79551625 -0.34341592 2.0995405
0.8261528 -0.32712924 2.0899587
0.87782753 -0.32670665 2.0722046
0.92293549 -0.32472509 2.0570204
0.82435018 -0.27375624 2.0906496
0.87590051 -0.27339309 2.0729556
0.92410916 -0.27225548 2.0572684
0.79107094 -0.21010803 2.0996923
0.82290697 -0.22595339 2.0908713
0.87403929 -0.22556718 2.0725064
0.92105108 -0.22549441 2.0575843
0.8210389 -0.17823762 2.0892527
0.87278527 -0.17806868 2.0726995
0.92130059 -0.17707312 2.0582178
0.79812962 -0.129243 2.097326
0.82640469 -0.12460083 2.0872815
0.8720417 -0.12629338 2.0712147
0.91977435 -0.12494477 2.0574481
0.7948584 -0.073205017 2.0968606
0.82908928 -0.073096417 2.0845397
0.87549686 -0.073020093 2.0695415
0.92131913 -0.071689211 2.0571115
0.79252571 -0.026028911 2.0952344
0.82875359 -0.026006158 2.0844376
0.87542272 -0.025977947 2.0701239
0.92305911 -0.025984187 2.0570862
0.79449713 0.017141832 2.0966668
0.82575709 0.022070102 2.0880089
0.87183166 0.020203067 2.0732279
0.92225796 0.021088935 2.0575192
0.7992605 0.073502854 2.0969582
0.82478684 0.073455289 2.0882173
0.87139809 0.07341776 2.0736222
0.92287534 0.074316747 2.0580015
0.79982781 0.11026515 2.0973444
0.82660216 0.12609908 2.0910399
0.87261409 0.12594205 2.0747309
0.92493689 0.12593928 2.0585492
0.8242982 0.17528087 2.0918276
0.87342787 0.17781229 2.0763288
0.92728013 0.17775746 2.0588329
0.9592312 0.19465172 2.0507314
0.82943451 0.2238275 2.0941384
0.87763965 0.22530529 2.0780993
0.92618883 0.22423093 2.0607896
0.95037848 0.24237801 2.0541811
0.83751464 0.27491441 2.0938804
