ply
format ascii 1.0
comment PCL generated
element vertex 1512
property float x
property float y
property float z
element camera 0
property float view_px
property float view_py
property float view_pz
property float x_axisx
property float x_axisy
property float x_axisz
property float y_axisx
property float y_axisy
property float y_axisz
property float z_axisx
property float z_axisy
property float z_axisz
property float focal
property float scalex
property float scaley
property float centerx
property float centery
property int viewportx
property int viewporty
property float k1
property float k2
end_header
-0.52379692 0.57450521 2.7896862
-0.47386149 0.57493252 2.78672
-0.42414966 0.57701045 2.7851007
-0.37559974 0.57542711 2.7820208
-0.32749587 0.57414621 2.7798059
-0.27277693 0.57268828 2.776624
-0.22507931 0.57132602 2.7728586
-0.1793858 0.5753209 2.7712743
-0.13244459 0.57497674 2.7759426
-2.3554645 0.61141711 2.7565117
-2.3414001 0.63364804 2.7799807
-0.66620457 0.62152135 2.7974596
-0.62154007 0.62516659 2.7948701
-0.57350022 0.6251871 2.7954109
-0.52346957 0.62286109 2.7913163
-0.47546107 0.62503344 2.7877433
-0.42541167 0.62637991 2.7865241
-0.3767122 0.62464416 2.783412
-0.32828817 0.62292451 2.7797472
-0.27421042 0.62401032 2.7788429
-0.22596778 0.62755173 2.7759686
-0.17846532 0.6265974 2.7740314
-0.1291559 0.6267103 2.7739916
0.48931015 0.6344552 2.7529285
-2.3519208 0.69777209 2.7670009
-2.3443863 0.67308736 2.7790823
-0.70862436 0.65679973 2.798949
-0.67987257 0.65581805 2.7994206
-0.62523955 0.67724591 2.7971964
-0.57521415 0.67529875 2.7962024
-0.52507234 0.67282557 2.7923763
-0.47429517 0.67571509 2.7888441
-0.42659989 0.67593956 2.786799
-0.37423939 0.67667335 2.7864554
-0.32662398 0.67095906 2.7834821
-0.27420208 0.67297202 2.7814164
-0.22680503 0.67729014 2.7788796
-0.17913967 0.67628026 2.7770422
-0.12334497 0.67352837 2.7767177
-0.086678021 0.6849491 2.7771835
0.44867456 0.66798246 2.7512774
-2.3539908 0.73160696 2.7620809
-2.3458204 0.71755558 2.7877169
-0.62216383 0.72602111 2.797611
-0.578246 0.72514176 2.7965021
-0.52689821 0.72339481 2.7938962
-0.4792479 0.72630084 2.7942212
-0.42833483 0.72664398 2.7899368
-0.37253341 0.72478127 2.7880819
-0.32410637 0.72349417 2.7871752
-0.27405936 0.723719 2.7831233
-0.22081527 0.72728544 2.7810326
-0.17307387 0.72656971 2.7805786
-0.12530908 0.72520483 2.7770326
-0.071022436 0.72444934 2.7754586
-0.023650492 0.72473925 2.7771597
0.016996592 0.73743057 2.7754149
0.064605951 0.74744308 2.7820559
0.47844064 0.72619939 2.7549679
-2.3579865 0.78416306 2.7629609
-2.3457165 0.75921333 2.778199
-0.65773398 0.77280772 2.7976773
-0.62455678 0.77692139 2.7964184
-0.5710054 0.77491379 2.7974157
-0.52470255 0.77309394 2.796252
-0.47197238 0.77190351 2.7928669
-0.42129403 0.77473122 2.789454
-0.37377343 0.7752232 2.7885935
-0.32514444 0.77375692 2.7874267
-0.27811909 0.77377588 2.7857139
-0.2215271 0.77735162 2.7813318
-0.17358154 0.77636081 2.7800653
-0.12569879 0.77500755 2.7769356
-0.07122694 0.77401227 2.7746594
-0.023710243 0.77412552 2.7756407
0.023799451 0.77342671 2.773124
0.076942965 0.77455568 2.7723083
0.49328738 0.76209331 2.754282
0.50685728 0.7688477 2.7511129
-2.3534772 0.82025683 2.7731404
-2.3485 0.81853098 2.7673223
-0.60948849 0.81520575 2.7993386
-0.56885034 0.82294381 2.7990284
-0.52393413 0.82605094 2.7975562
-0.47411364 0.82387197 2.7960961
-0.42585349 0.8257376 2.7927353
-0.3752009 0.82637948 2.789871
-0.32637569 0.824781 2.7885826
-0.27774483 0.82324934 2.7869291
-0.22039244 0.82518333 2.7828746
-0.17429371 0.82742864 2.7821639
-0.12627891 0.82643378 2.7805684
-0.071543045 0.82517576 2.7776499
-0.02379421 0.82447153 2.775862
0.023885794 0.82398814 2.7742052
0.070304871 0.8257786 2.7730901
0.5142383 0.828399 2.7816374
-2.3550494 0.87413269 2.7778075
-0.55404639 0.86441731 2.7986774
-0.5209555 0.87277317 2.7978814
-0.47132936 0.87349463 2.7949886
-0.42572916 0.87249237 2.7919228
-0.3750827 0.87321883 2.7918649
-0.3256622 0.87828285 2.7904704
-0.27742827 0.87321961 2.7879584
-0.22527954 0.87594455 2.7851083
-0.17496797 0.87864691 2.7828865
-0.12669115 0.87702322 2.779494
-0.071770214 0.87569714 2.7766237
-0.023880458 0.87548786 2.7765014
0.023984557 0.87526387 2.7757962
0.071760625 0.87430185 2.7721963
0.49468896 0.89073735 2.7638702
0.51396978 0.87018836 2.7551818
-2.3593705 0.92622924 2.7688477
-0.55606818 0.90955174 2.7997229
-0.52362329 0.92272091 2.7982688
-0.47981045 0.92119443 2.798908
-0.4242487 0.92534453 2.7968585
-0.37832546 0.92353594 2.7937992
-0.32205731 0.92834044 2.7905719
-0.27289009 0.92608708 2.7873483
-0.22415805 0.92457217 2.7857049
-0.17555088 0.92291057 2.7830696
-0.12716632 0.92163247 2.7809985
-0.072098635 0.92084128 2.7799547
-0.023988917 0.92323953 2.7788453
0.024070527 0.92665029 2.7757213
0.079003885 0.92684644 2.7756617
0.11804629 0.94406384 2.774636
0.48258203 0.92395318 2.7567773
0.5225808 0.92038047 2.7517967
-2.3597169 0.9735958 2.7723699
-2.3492069 0.98298919 2.790163
-0.51762587 0.96542645 2.7988956
-0.47049719 0.96401441 2.7986772
-0.4173668 0.97557586 2.7983274
-0.36876559 0.97374344 2.7941959
-0.32349879 0.97428626 2.7933781
-0.27402651 0.97157097 2.789191
-0.22347657 0.97207999 2.7870622
-0.17505251 0.97346854 2.7843888
-0.12781152 0.97469115 2.7837448
-0.072450101 0.97373408 2.7823939
-0.024092672 0.9746744 2.7798698
0.024172649 0.97879404 2.7761385
0.077347212 0.97661269 2.7731397
0.12468852 0.97935992 2.7716503
0.16666085 0.98995179 2.7789531
0.44204578 0.9811067 2.7657287
0.4742581 0.97394013 2.7556994
0.5239042 0.97482091 2.7520244
0.57640594 0.97733593 2.7520151
-2.3626134 1.0231451 2.7814991
-0.51732039 1.0138189 2.7994063
-0.41516224 1.0199469 2.7976706
-0.36749518 1.0188183 2.7976205
-0.32497427 1.0206845 2.7958243
-0.27406779 1.0213392 2.7929709
-0.22771567 1.0254977 2.7905114
-0.17867589 1.0266529 2.7878699
-0.12846409 1.0282599 2.7858772
-0.072743304 1.0262001 2.7816908
-0.024192598 1.0253005 2.77986
0.024273248 1.0243235 2.7771759
0.072692543 1.0241193 2.7760496
0.12103663 1.0233768 2.772886
0.17642112 1.0237128 2.7717743
0.22272861 1.0351452 2.7758374
0.26847097 1.0458442 2.7853987
0.32465884 1.0473493 2.7852962
0.37812936 1.0368661 2.7781775
0.42608532 1.0245743 2.7616777
0.47530392 1.0270318 2.7563798
0.52398056 1.0297199 2.7538071
0.57284796 1.0326413 2.7536137
0.6103723 1.036033 2.7520356
0.67498153 1.0353506 2.7501459
-2.3711412 1.0738295 2.772733
-0.40427411 1.0549536 2.7985024
-0.38962328 1.0533646 2.7956727
-0.32312959 1.0624436 2.7962489
-0.27805579 1.0744092 2.7936747
-0.22697149 1.0776631 2.7943571
-0.17322995 1.0786134 2.7922251
-0.12482629 1.0731174 2.7873712
-0.073078126 1.0727028 2.7835712
-0.024310527 1.0717131 2.7815993
0.024380894 1.0703021 2.7779472
0.073007263 1.0702605 2.7772601
0.12213482 1.0719454 2.774298
0.17854758 1.0752975 2.7710588
0.22568485 1.06935 2.7692106
0.27642107 1.0691938 2.7718019
0.32354873 1.0715575 2.7682648
0.37233603 1.0718153 2.7646027
0.42640123 1.0712938 2.7614608
0.47454223 1.0746281 2.7569928
0.52711391 1.0752854 2.7560666
0.57713461 1.0774587 2.7547519
0.63130182 1.0765873 2.7531137
0.66534162 1.068933 2.7522717
0.71520972 1.0923636 2.7506771
-2.3743141 1.1270611 2.7763112
-0.30644631 1.1134549 2.7976415
-0.2685031 1.1215032 2.7942073
-0.22487558 1.1236335 2.7979493
-0.17013963 1.1228001 2.7934258
-0.12264328 1.1219158 2.7894199
-0.073476538 1.1206931 2.7875593
-0.024425436 1.1188769 2.783643
0.024508856 1.118441 2.782552
0.074644618 1.122538 2.7780397
0.12185382 1.1264892 2.7775338
0.17667273 1.1303216 2.7755027
0.22701699 1.1245672 2.7720463
0.27596426 1.1248143 2.7695491
0.32495531 1.1251634 2.7667208
0.37280115 1.1247635 2.7653804
0.42362809 1.1204116 2.7650161
0.47294748 1.1211876 2.7613018
0.522376 1.1220089 2.7571127
0.5723334 1.1237266 2.7544136
0.62349737 1.1273738 2.7557809
0.66891527 1.1350176 2.7525978
-2.3762245 1.1741632 2.7797854
-0.25606027 1.1757069 2.7990496
-0.22614346 1.1629636 2.7988768
-0.17293952 1.1669496 2.7967832
-0.12341699 1.1713778 2.7949901
-0.073888056 1.1691655 2.7909205
-0.023298182 1.1733762 2.7878358
0.024651824 1.1741886 2.7846239
0.072467014 1.1786377 2.7833731
0.12500493 1.1799386 2.7810905
0.17707409 1.1779393 2.7743804
0.22554751 1.1818278 2.7739701
0.27791929 1.1819825 2.7747271
0.32530579 1.179965 2.7710202
0.37747994 1.1740224 2.7663302
0.42562234 1.1678984 2.7656987
0.47533619 1.1690941 2.7628367
0.52558756 1.1712388 2.76159
0.57622004 1.1737826 2.760536
0.62723482 1.1766837 2.7596822
0.67349505 1.1768572 2.7561648
0.71826416 1.1842656 2.7524815
0.78736818 1.1687958 2.7501421
-2.3747499 1.2186235 2.7701805
-0.28064322 1.2082733 2.798857
-0.21410489 1.2118118 2.798748
-0.17849602 1.2133261 2.7977896
-0.12405377 1.2128744 2.7988243
-0.074322037 1.2182974 2.7940128
-0.02471897 1.2272364 2.7905746
0.024831908 1.2322739 2.7898052
0.074364915 1.2317487 2.7880278
0.12386271 1.2276815 2.78667
0.17320156 1.230045 2.7810605
0.22244273 1.2287339 2.7755897
0.27497047 1.2285272 2.7754846
0.32569951 1.2309171 2.776392
0.37382761 1.2241759 2.7720201
0.42084819 1.2237209 2.7704904
0.47260582 1.2204727 2.7679644
0.52344811 1.2218512 2.764643
0.57210565 1.2225351 2.762804
0.62278855 1.2243885 2.7591975
0.67453486 1.2279253 2.758708
0.72420621 1.232049 2.7557838
0.77024221 1.232613 2.7516503
-2.3831413 1.2787379 2.7794914
-0.16738547 1.2542211 2.7994092
-0.11753733 1.2615802 2.799428
-0.071705222 1.2663859 2.7982199
-0.026919691 1.2747675 2.7966692
0.023173682 1.2762349 2.7928767
0.074751034 1.2808962 2.7890255
0.12298524 1.2794225 2.79005
0.17445105 1.2815919 2.7873945
0.22399218 1.2799555 2.781286
0.27205932 1.2785449 2.7796328
0.32411513 1.282287 2.7793617
0.37612557 1.2786038 2.7769108
0.42431343 1.2727635 2.7716954
0.4764151 1.2723439 2.773416
0.52443725 1.2702092 2.7669575
0.57619053 1.2742381 2.768595
0.62518626 1.2746639 2.7652075
0.67608172 1.2805544 2.7626843
0.72343433 1.281551 2.759948
0.76471901 1.2735714 2.7552159
0.83823889 1.2757015 2.7511957
0.86551285 1.282241 2.7504802
0.90557331 1.2950058 2.7511246
0.9677887 1.2858242 2.7529781
-2.3840153 1.318769 2.7742159
-0.06795343 1.3101153 2.7989829
-0.010682498 1.3096505 2.7985759
0.028651003 1.3121818 2.7950149
0.075197324 1.3243662 2.7938862
0.12835449 1.32311 2.7923601
0.17546155 1.3278965 2.790596
0.22422662 1.3296549 2.788795
0.27710393 1.3290081 2.7840242
0.32585198 1.3321215 2.7797902
0.37487614 1.3220009 2.7848246
0.42634982 1.3186221 2.7766845
0.47502851 1.3239191 2.7787852
0.52393627 1.3211704 2.773695
0.57470053 1.3271056 2.7723081
0.62396955 1.3275037 2.768708
0.67581064 1.330144 2.7655447
0.72577244 1.3305302 2.7617304
0.77302796 1.3200202 2.75688
0.81891549 1.3239875 2.7558925
0.87359148 1.3291063 2.7561147
0.92637467 1.3477702 2.7504871
0.95644087 1.3342086 2.7505767
1.1010462 1.3349766 2.7505457
-2.388154 1.3833501 2.776937
0.029549453 1.3645701 2.7980647
0.079704598 1.3651259 2.79653
0.12602158 1.3679876 2.7962301
0.17631435 1.3690856 2.7922451
0.23011249 1.3735493 2.7902839
0.27723044 1.3753897 2.7863064
0.32484356 1.3756038 2.7855058
0.37567896 1.3716242 2.78406
0.42263037 1.3727785 2.7851036
0.4735662 1.3738486 2.7813356
0.52461982 1.3750632 2.7771947
0.57410264 1.3757012 2.7745814
0.62481415 1.3805022 2.7698033
0.67085379 1.3801246 2.76916
0.72690314 1.3739706 2.7652569
0.77672631 1.3714037 2.7618492
0.82317162 1.3759246 2.7615309
0.87219906 1.3779328 2.7583108
0.92621273 1.3792053 2.7566097
0.96779901 1.3683968 2.7549453
1.0130633 1.3956454 2.7567649
1.1076133 1.3877118 2.7500653
1.3140582 1.3869084 2.7586515
-2.390511 1.4269426 2.7743094
0.0036611678 1.4018658 2.7982509
0.061491825 1.4026237 2.7992823
0.14812773 1.401614 2.7949321
0.17733695 1.4137052 2.7949827
0.22572684 1.4179499 2.7933383
0.27621883 1.4225613 2.7919602
0.3222543 1.419449 2.7856379
0.37379816 1.4226993 2.7873898
0.42507443 1.4243722 2.785377
0.47268718 1.4262525 2.7869744
0.52328104 1.4305595 2.7823277
0.575275 1.4271978 2.7811852
0.62150753 1.4287539 2.7739744
0.67891228 1.4239706 2.7724402
0.72424185 1.4194664 2.7684076
0.77727735 1.4272475 2.7668421
0.82943606 1.4306347 2.7657766
0.87546128 1.4261657 2.7640741
0.92093444 1.4205929 2.7595758
0.97199047 1.424576 2.7584186
1.0090544 1.4302188 2.756592
1.0860064 1.4268037 2.7521858
1.1452858 1.419837 2.7507434
1.1804565 1.4260336 2.7528532
1.2206494 1.4344398 2.7512252
1.276819 1.4411981 2.7530208
1.300844 1.43486 2.7502248
-2.4007382 1.4779409 2.7810795
-2.3909354 1.4950157 2.7783689
0.10548066 1.4545434 2.79877
0.18586445 1.4650159 2.7990828
0.22634585 1.4748875 2.7990015
0.27110133 1.4703673 2.7948687
0.32703203 1.4709204 2.7937229
0.37694719 1.4786967 2.7943799
0.42813385 1.4785267 2.7886503
0.47077903 1.4784853 2.7877707
0.52528352 1.4770428 2.784894
0.57498556 1.4716846 2.7858167
0.6267789 1.4725589 2.7792246
0.67658484 1.4761239 2.7786887
0.7265023 1.475435 2.7711105
0.77325702 1.4802216 2.7711089
0.82308882 1.4739211 2.7680621
0.87483627 1.4703807 2.7642727
0.92584944 1.4790541 2.7655945
0.97410142 1.4773084 2.7635605
1.0240868 1.4751772 2.7611754
1.0712186 1.473824 2.7552385
1.1188146 1.4756559 2.7553272
1.178038 1.4784025 2.7565804
1.2236853 1.4795953 2.7565377
1.2739042 1.4771467 2.7531698
1.3068457 1.4721559 2.7501438
-2.4056273 1.5430254 2.7570326
-2.3972554 1.5215555 2.7815125
0.20878379 1.5090904 2.7979898
0.28335515 1.5344588 2.7986734
0.34219411 1.5234606 2.7984614
0.35694301 1.5236073 2.7973671
0.42487648 1.5248321 2.7949824
0.47781572 1.523762 2.7914364
0.52172756 1.5199423 2.7880447
0.57453918 1.5234082 2.7837844
0.62562567 1.5254593 2.7825346
0.6685797 1.5245097 2.7775488
0.72137296 1.5277411 2.7763464
0.77905363 1.5286235 2.7767115
0.82429737 1.522141 2.7717593
0.87087256 1.5253259 2.7671478
0.92026478 1.5268064 2.7657862
0.97907495 1.52363 2.7675846
1.0253495 1.5252521 2.7624626
1.0738847 1.5289015 2.7601237
1.1288437 1.5208004 2.7593377
1.174895 1.5279952 2.7590752
1.2313071 1.5271778 2.7573147
1.2779214 1.5184284 2.7527912
1.3236023 1.5132225 2.7529397
1.3532549 1.5360672 2.750392
-2.4048092 1.5679361 2.7699153
-2.3957171 1.5658429 2.7707942
0.29202062 1.5747817 2.7974191
0.34407496 1.5688775 2.7987065
0.3756038 1.5673376 2.7970707
0.4268457 1.5659666 2.7960095
0.47589707 1.5757221 2.7934365
0.52421415 1.5766276 2.7919099
0.5725922 1.5773289 2.7894063
0.62313038 1.5786588 2.7887909
0.67841548 1.5738531 2.7859404
0.7241407 1.5758313 2.7808928
0.77364945 1.5728725 2.7781477
0.82808739 1.5779933 2.7826302
0.87848121 1.5763612 2.7752178
0.92833823 1.5773374 2.7721598
0.97386253 1.5767937 2.7692177
1.01948 1.5760475 2.765368
1.0768101 1.5728265 2.7636147
1.1240634 1.5803224 2.7636576
1.1724668 1.5765909 2.7638597
1.2217956 1.5730847 2.7587636
1.2688981 1.5779446 2.7582309
1.3336319 1.579667 2.7568958
-2.4059458 1.6291815 2.7639399
-2.3996282 1.6160156 2.7915785
0.34561005 1.6055841 2.7987278
0.3682248 1.606982 2.7990355
0.41330808 1.6087673 2.7974873
0.47402132 1.6288564 2.7964139
0.52809125 1.6257325 2.7964802
0.57369286 1.627614 2.7930334
0.62664187 1.6213634 2.7898865
0.67757773 1.6262314 2.7861943
0.72699666 1.6276332 2.7825797
0.77186441 1.6271714 2.7822762
0.82563794 1.6188903 2.7798417
0.87603533 1.6235498 2.7765038
0.92700928 1.628752 2.7732809
0.98043472 1.6255864 2.7708023
1.0312756 1.6248721 2.768419
1.0767287 1.6240705 2.7681997
1.1297352 1.6276287 2.7662153
1.1778445 1.62321 2.7649138
1.2223881 1.6296635 2.7628341
1.2787416 1.6243584 2.7598026
1.3276063 1.6297868 2.7568917
1.4828999 1.6386354 2.7504041
-2.405782 1.674171 2.7706215
-2.399075 1.6910995 2.7926178
0.43905064 1.6663934 2.7969794
0.47896051 1.656036 2.7958639
0.52985477 1.6740594 2.7980926
0.57721806 1.6753964 2.7932601
0.62355465 1.6782655 2.7906375
0.66948873 1.6721725 2.7885621
0.72443616 1.6767828 2.7860494
0.78028959 1.6730096 2.7804174
0.82709986 1.6774689 2.7820666
0.87417501 1.6724275 2.7791445
0.92314059 1.6781921 2.7771347
0.97152412 1.6747171 2.7753551
1.0187355 1.6778481 2.7722104
1.0733632 1.6754673 2.7726524
1.1207757 1.675891 2.7688777
1.1709632 1.6733574 2.7659705
1.2276394 1.6807119 2.7681751
1.2733405 1.6759608 2.7640355
1.329157 1.6808196 2.7603972
1.3598387 1.6718643 2.750109
1.5126917 1.6859555 2.7526903
1.6148028 1.6818002 2.7512381
-2.3886566 1.726276 2.7783515
0.48846668 1.7194097 2.7992511
0.5029543 1.7095917 2.7971089
0.58854091 1.7166066 2.7961249
0.62801385 1.7283393 2.7928073
0.67433476 1.722425 2.790926
0.72106785 1.7248814 2.7860498
0.76734537 1.7283719 2.786644
0.8219732 1.7266325 2.7865982
0.87559497 1.7234879 2.7829132
0.92610407 1.7273059 2.7810714
0.97938156 1.726984 2.7792046
1.0326965 1.7315066 2.7794633
1.0788444 1.7253467 2.7748299
1.1295921 1.7281799 2.7715447
1.1742481 1.7195057 2.7711599
1.2255787 1.7266707 2.7727139
1.2780707 1.7258567 2.7707236
1.3262935 1.726648 2.7690566
1.3679079 1.7255106 2.7605665
1.4163011 1.7293507 2.7530284
1.4634348 1.7247844 2.7515006
1.588346 1.7232494 2.7517972
-2.379426 1.7780671 2.7771659
0.54010695 1.7930566 2.7995105
0.58200854 1.777038 2.7993791
0.62748802 1.7706926 2.7953627
0.67944115 1.7738508 2.7934706
0.72689366 1.7772821 2.7898271
0.77789146 1.7800802 2.7908003
0.82036901 1.7744102 2.7855415
0.87210423 1.7756829 2.7880642
0.92446423 1.7737309 2.7841718
0.97056407 1.7753369 2.7846224
1.0190611 1.7731514 2.7786896
1.0710765 1.7783977 2.7796912
1.1211764 1.7708578 2.7786806
1.1758014 1.775317 2.7761416
1.2256322 1.7776048 2.7732415
1.2784539 1.7716146 2.7740412
1.3227385 1.7750078 2.7695239
1.3590755 1.7719278 2.7620881
1.4341524 1.7782446 2.7686336
1.4655308 1.7750062 2.7618644
1.5218968 1.787918 2.7680697
1.56961 1.7876157 2.7655663
1.6042378 1.7989072 2.7710969
1.677104 1.7897651 2.7582541
1.7412812 1.7881365 2.7643712
1.780471 1.7730578 2.7555454
-2.3855727 1.8259704 2.7810738
0.62579298 1.83145 2.7983961
0.67394829 1.8225943 2.797127
0.7287603 1.8188848 2.7947185
0.77695614 1.8287284 2.7947476
0.83073694 1.8253775 2.7865741
0.87548673 1.8217121 2.7889426
0.92810154 1.8253945 2.7888451
0.9790138 1.8232087 2.7841406
1.025926 1.8239411 2.7861362
1.0762404 1.8257118 2.7849698
1.1255889 1.8259152 2.7837262
1.1775904 1.8198839 2.7774892
1.223328 1.834458 2.7795725
1.2748957 1.8235623 2.7782979
1.3270465 1.8319459 2.7769687
1.3772738 1.8176358 2.7804499
1.4244573 1.8286787 2.7839999
1.4761243 1.8244568 2.7783012
1.5275105 1.8223335 2.7709827
1.5757891 1.8267342 2.7729754
1.6293652 1.8274584 2.7670448
1.6734747 1.8268044 2.766263
1.718717 1.825798 2.7575424
1.7763754 1.8260911 2.7667737
1.8270617 1.8238646 2.7552798
1.8748164 1.8262404 2.753711
1.9263493 1.8204759 2.7567832
-2.4118941 1.8735237 2.7667179
0.68096876 1.8682604 2.7976084
0.71783739 1.8731067 2.7978365
0.76949114 1.8675637 2.7947276
0.82519227 1.8758521 2.7952464
0.8782931 1.8751782 2.7932086
0.91824371 1.8738445 2.7912948
0.96928233 1.8758405 2.7920916
1.022278 1.8784744 2.7885578
1.0685922 1.8750515 2.7888303
1.1229328 1.8788472 2.7853994
1.1705906 1.8695086 2.7816944
1.2276149 1.8763309 2.7810376
1.2738603 1.8677759 2.7797937
1.3224199 1.8776175 2.7807999
1.3720144 1.8708175 2.7778447
1.4252781 1.8738546 2.7776151
1.4695209 1.8703772 2.7753863
1.525815 1.8781136 2.7759931
1.569952 1.871896 2.7718158
1.6226969 1.8780603 2.7699842
1.6773958 1.8665345 2.7618279
1.7257332 1.8808482 2.759892
1.7738926 1.8652061 2.7545712
1.8308471 1.8787361 2.7584648
1.8657045 1.8710631 2.7539401
1.929095 1.8657777 2.7507124
-2.4073987 1.9145176 2.7861228
-2.3710685 1.9443928 2.7744017
0.78233182 1.9032568 2.7984941
0.8298384 1.9210206 2.798605
0.87563604 1.9261646 2.7954302
0.92342567 1.9269215 2.7954643
0.97210532 1.9177675 2.7937508
1.0321116 1.9287131 2.7938218
1.0800278 1.9251794 2.793134
1.1194367 1.9105082 2.7859325
1.1717671 1.9230881 2.789005
1.2247541 1.9259303 2.7895064
1.2746108 1.9228323 2.7878335
1.3235788 1.9179688 2.7828681
1.3777199 1.9262241 2.7849052
1.4248722 1.9226255 2.7795792
1.4796294 1.9239832 2.7812271
1.5206016 1.9263586 2.7747197
1.574428 1.9247395 2.7716677
1.6230991 1.9218023 2.7695339
1.6754011 1.9253422 2.7702649
1.7243431 1.9244815 2.7638857
1.7745811 1.9245663 2.7580326
1.832193 1.9318193 2.7541845
1.8708456 1.9235955 2.7560117
1.9171398 1.9313018 2.7552454
-2.3535509 1.972795 2.772083
-2.3489799 1.9505538 2.7780786
0.79782021 1.969316 2.7973251
0.90988803 1.988729 2.799135
0.97186214 1.9630798 2.7992077
1.0225018 1.9732177 2.7945886
1.0772878 1.9772916 2.7957022
1.1237417 1.9739014 2.7952697
1.1768918 1.97445 2.7935317
1.2257972 1.9672356 2.7920945
1.2809805 1.9764169 2.7951272
1.3229723 1.9675821 2.7851443
1.3747866 1.9773372 2.7880883
1.4177338 1.9719366 2.7835941
1.4731207 1.9789238 2.7829869
1.523443 1.9719579 2.7752748
1.5737636 1.981411 2.7760837
1.6239903 1.9690235 2.777842
1.6725838 1.9819359 2.7683241
1.7208071 1.973332 2.7660692
1.7713516 1.9826062 2.7629433
1.8248047 1.9695842 2.7556548
1.8830785 1.9781218 2.7558651
1.9140322 1.9629483 2.7524221
1.9554554 1.9522985 2.7513473
2.0163887 1.9956059 2.7540321
-2.3617632 2.0153389 2.7820754
0.8692444 2.0034821 2.7984021
0.99456787 2.0466638 2.7953432
1.0163753 2.0172784 2.795737
1.0882088 2.030426 2.7936513
1.1226336 2.0173755 2.7972798
1.1720017 2.040406 2.7987919
1.2252452 2.0217826 2.7934422
1.2809612 2.0251915 2.7926562
1.3295835 2.0138273 2.7883971
1.3783441 2.0246549 2.7862966
1.4263752 2.0254347 2.7861381
1.4741433 2.0252483 2.7840567
1.524209 2.0276256 2.7847207
1.5777404 2.025517 2.779448
1.6232929 2.0255463 2.7730987
1.6658527 2.0205133 2.7628682
1.7218153 2.0277627 2.7671623
1.7769878 2.0221176 2.7604918
1.8204739 2.0162148 2.7550976
1.8738849 2.0276735 2.7587724
1.9227815 2.0247579 2.7550573
1.9817691 2.0315957 2.7546487
2.0209229 2.0355556 2.7530506
2.1370797 2.0349965 2.754724
-2.3747463 2.0731249 2.7673814
1.013806 2.0527472 2.7988195
1.0740037 2.0696256 2.7940767
1.1286358 2.0528011 2.7973595
1.1962893 2.0788038 2.79618
1.2313221 2.0737505 2.7935641
1.2766211 2.0716968 2.7914789
1.3266512 2.079437 2.7964275
1.3765908 2.0712121 2.7915092
1.4206396 2.0834155 2.7887387
1.4719226 2.0705864 2.7873087
1.5238994 2.082011 2.7850153
1.5732106 2.0730307 2.7793636
1.6292385 2.0785577 2.7730339
1.6725045 2.0791671 2.7668171
1.7240705 2.0752106 2.7670534
1.7715775 2.0738978 2.7640195
1.8225632 2.0741429 2.7613425
1.8700614 2.0774391 2.7601738
1.9256254 2.0743387 2.7625127
1.9787415 2.077652 2.7540758
2.0177102 2.0680425 2.7569716
2.0855167 2.064486 2.7527816
2.1297708 2.0546501 2.7513247
2.2321615 2.0647929 2.7506306
-2.3754494 2.1223743 2.77828
1.07485 2.1092923 2.7951977
1.1466594 2.1036999 2.7981503
1.1807412 2.1264629 2.7968102
1.2214236 2.1184821 2.7939262
1.2705873 2.1115341 2.7919762
1.3293008 2.136251 2.7980032
1.3748713 2.1302016 2.794698
1.4254472 2.1221795 2.7919137
1.4717125 2.1221585 2.7867017
1.5225883 2.1266055 2.7841332
1.5742179 2.1200349 2.7781506
1.6213173 2.1283813 2.7726722
1.679697 2.1271191 2.7703428
1.7227924 2.1241791 2.7699485
1.7753894 2.1292048 2.7666485
1.8256704 2.1211691 2.7638729
1.8763225 2.127943 2.7668359
1.9236232 2.1248412 2.7638497
1.9584002 2.1337421 2.7589035
2.0321815 2.1370504 2.7565784
2.0747168 2.1258128 2.7540181
-2.3875909 2.1661813 2.7990818
1.1762991 2.1692502 2.7966297
1.2231236 2.1781323 2.7927885
1.2734884 2.1714811 2.7964602
1.3293238 2.1698787 2.7939897
1.3738173 2.1831748 2.7960043
1.4252837 2.1764538 2.7905166
1.4715085 2.1704905 2.7842066
1.5256453 2.1768627 2.7822258
1.5700383 2.1712315 2.7781007
1.616595 2.1768606 2.7707601
1.670599 2.1648288 2.7676849
1.7252283 2.1776462 2.7683873
1.7747986 2.1768055 2.7690692
1.8273419 2.1752169 2.7649167
1.8784337 2.1777403 2.7612069
1.925122 2.172143 2.7598386
1.9746605 2.1735387 2.7541294
2.0214586 2.1809628 2.7533367
2.082427 2.1610031 2.7537127
2.1755035 2.1816735 2.7545867
-2.4275932 2.2112887 2.7758255
1.185657 2.2203517 2.7964172
1.2167556 2.2394323 2.794672
1.2753294 2.2168379 2.7975416
1.3253162 2.2369037 2.7944558
1.3732675 2.2227559 2.78755
1.4282225 2.226356 2.7856355
1.4768772 2.2293792 2.7837
1.5259416 2.2263269 2.7793999
1.5859385 2.228147 2.7822227
1.6272497 2.2256486 2.7761154
1.6741619 2.2217305 2.7698467
1.7257422 2.2345557 2.7674234
1.7724068 2.2227473 2.7681339
1.8265733 2.228863 2.7646956
1.8774569 2.2328086 2.7633533
1.9217815 2.2166667 2.7568645
1.982278 2.2281272 2.7576907
2.0224228 2.228446 2.7555451
2.132273 2.2026155 2.7522159
2.1615074 2.213799 2.7536523
-2.4143531 2.2866015 2.7647805
1.0327541 2.2883997 2.7965953
1.0689722 2.2881298 2.7962494
1.1232952 2.289892 2.7921917
1.1774822 2.2794006 2.7940311
1.2237546 2.2779188 2.7929113
1.2698509 2.275636 2.7901242
1.3271173 2.277293 2.788018
1.3742788 2.2757571 2.784725
1.4237403 2.2773311 2.7844903
1.478068 2.2768805 2.7783883
1.5237869 2.276823 2.7723794
1.5678505 2.263417 2.7736704
1.6240396 2.2810194 2.7730258
1.673723 2.2622366 2.7619777
1.7175597 2.2825599 2.7670937
1.7763026 2.2803979 2.7688804
1.8249435 2.2791989 2.7647133
1.8737342 2.2776232 2.7593772
1.9278512 2.2588582 2.7561216
1.9757318 2.2776875 2.7592525
2.0214865 2.2743723 2.7546866
2.0711851 2.2702231 2.7534621
-2.3776388 2.3074026 2.7813046
0.89324558 2.3157563 2.7940938
0.9388659 2.3248787 2.793324
0.97670114 2.3348112 2.7953486
1.0210844 2.3311627 2.7941744
1.0739996 2.3272798 2.7893498
1.124215 2.3259315 2.7805705
1.1774646 2.3302677 2.7859211
1.2211432 2.3233202 2.7853098
1.2809712 2.3305302 2.7799532
1.3253696 2.32372 2.7813692
1.374959 2.3267083 2.7726691
1.4215345 2.3225317 2.7760072
1.4706053 2.3314378 2.7667291
1.5219551 2.3242662 2.7641973
1.5728875 2.3232121 2.7639446
1.6192037 2.3219757 2.7586303
1.6733869 2.327179 2.7586598
1.7305053 2.3165948 2.7662404
1.7694687 2.3218451 2.7599494
1.8176967 2.3230143 2.7555852
1.8714446 2.3305609 2.7580786
1.9313987 2.3295109 2.7567368
1.9735626 2.3179905 2.7555723
2.0066733 2.3250942 2.7544727
2.0987298 2.3181219 2.7515316
-2.281029 2.3833661 2.77683
-2.2261975 2.3852296 2.785579
-2.1686482 2.3876772 2.769093
-2.1229241 2.3881779 2.7768688
-2.0735967 2.3935018 2.7718329
-2.0162685 2.3949971 2.7767265
-1.9758898 2.390533 2.7869337
-1.9453698 2.3951294 2.776051
-1.8752505 2.3973646 2.7997069
-1.8342555 2.3983388 2.7816448
-1.7578717 2.3997381 2.7844799
-1.7055875 2.3955002 2.7647283
-1.6774971 2.3939209 2.7773795
-1.6258849 2.3930578 2.7826066
-1.5665129 2.390274 2.7748508
-1.5209972 2.395788 2.7787037
-1.4727556 2.3914618 2.7718065
-1.4080048 2.3961515 2.7733889
-1.367327 2.3863184 2.7773228
-1.328866 2.3887057 2.7781868
-1.2824529 2.3873858 2.7730999
-1.2243444 2.3892646 2.783788
1.0967958 2.3567579 2.7862282
1.1389444 2.3556674 2.770083
1.1768677 2.3633504 2.7667093
1.2242633 2.3636429 2.7672451
1.2799467 2.3627234 2.7623272
1.3282418 2.3634024 2.7618971
1.3716093 2.3667095 2.7573786
1.4212879 2.3588581 2.7589214
1.4631454 2.3702607 2.7561958
1.5332561 2.3560493 2.7538917
1.5753366 2.3576007 2.7551258
1.6168945 2.3579838 2.7546132
1.7475801 2.3644552 2.7561421
1.7801325 2.3628945 2.7564354
1.8311338 2.3525393 2.753083
1.8553821 2.3604026 2.7516255
-1.9287138 2.4089615 2.7719233
-1.8811855 2.4015255 2.773783
-1.8108261 2.4098239 2.7704244
-1.7755539 2.4126859 2.7630959
-1.7368242 2.4048088 2.7829795
-1.672224 2.404346 2.7549562
-1.6429274 2.4008236 2.7651303
-1.5245851 2.4014883 2.7853954
-1.4329869 2.4007781 2.7751572
-1.3992164 2.4048846 2.7705567
-2.2799332 -0.41824809 2.8213384
-1.8609272 -0.434627 2.8356376
-1.8269285 -0.42436498 2.8316994
-1.7822728 -0.42554906 2.8405311
-1.7342743 -0.42260966 2.8377199
-1.6865587 -0.41837543 2.8447781
-2.2848547 -0.3795723 2.8229547
-1.661823 -0.37815884 2.8392231
-0.3072066 -0.37810969 2.8039083
-2.2826977 -0.33002999 2.8303516
-1.6088901 -0.34306398 2.8154817
-1.5713785 -0.31318757 2.8332453
-1.2501353 -0.30240518 2.8301988
-1.227074 -0.3204602 2.8200319
-1.1779827 -0.31391254 2.8213882
-1.1201684 -0.31077737 2.8060756
-1.0798002 -0.30934337 2.8025901
-2.3053606 -0.26128918 2.8055518
-2.2891679 -0.28180313 2.8277383
-1.5741746 -0.28709659 2.8436062
-1.5262352 -0.26210463 2.8371792
-1.4101869 -0.26208249 2.8167427
-1.3789276 -0.26168764 2.8226719
-1.3250983 -0.25970879 2.8159745
-1.268533 -0.27184084 2.8275125
-1.2252331 -0.27284747 2.8311973
-1.1756788 -0.26853415 2.8286922
-1.1294329 -0.27950212 2.8197041
-1.0829465 -0.27497092 2.8132331
-1.0315396 -0.26079404 2.8055868
-2.3046584 -0.22846149 2.8069797
-2.2972257 -0.229376 2.8290312
-1.5792532 -0.21616742 2.8374894
-1.5084985 -0.22206193 2.8400764
-1.4779749 -0.22710118 2.8154233
-1.4194144 -0.22710128 2.8373814
-1.3715888 -0.22716613 2.8448534
-1.3198062 -0.22559601 2.8393795
-1.2735841 -0.22578086 2.8374279
-1.2271478 -0.21927623 2.833724
-1.18224 -0.2268001 2.8277533
-1.1317782 -0.22687967 2.8209231
-1.0815492 -0.2252934 2.8126063
-1.0249919 -0.22373497 2.8055029
-0.97973889 -0.22268236 2.8021748
0.01703188 -0.24435456 2.8394308
-2.3005824 -0.18720242 2.8044953
-2.2924976 -0.17972791 2.8260925
-1.5790776 -0.16391256 2.8397052
-1.5089117 -0.1776489 2.843092
-1.4703354 -0.18941988 2.8028383
-1.4234464 -0.18020545 2.8428781
-1.3707334 -0.17702249 2.8455958
-1.3190216 -0.17417002 2.8435025
-1.2748531 -0.1731313 2.8378422
-1.226998 -0.17353016 2.8355432
-1.1749389 -0.17563285 2.8255098
-1.1306385 -0.17703468 2.8205156
-1.0815891 -0.17597927 2.8150947
-1.0251604 -0.17477964 2.8082845
-0.97024083 -0.17310168 2.8031533
-0.4971444 -0.1825836 2.8036232
-0.063835099 -0.16137911 2.8163221
-2.3024623 -0.13009565 2.8093731
-2.2964666 -0.13071758 2.8331366
-1.5659938 -0.10895815 2.8399105
-1.5089031 -0.12327462 2.8450959
-1.4307636 -0.12413421 2.8301113
-1.3621117 -0.12391871 2.8473463
-1.3185451 -0.12326602 2.8443089
-1.2732173 -0.1224083 2.8359931
-1.2319423 -0.12189918 2.8351803
-1.1795342 -0.12808265 2.8254788
-1.1285366 -0.12717409 2.8171053
-1.0786248 -0.12804325 2.8171997
-1.0224791 -0.12442715 2.8084786
-0.9713003 -0.12496304 2.8025222
-0.11819993 -0.10808469 2.83021
-0.090400442 -0.13397618 2.8062613
-2.3046238 -0.081097521 2.8134744
-2.2923582 -0.081410952 2.8373253
-1.6116906 -0.074671797 2.8457301
-1.5804743 -0.074027769 2.8283987
-1.5315685 -0.074006073 2.8455522
-1.499225 -0.058628008 2.8283229
-1.4253736 -0.071570709 2.8331659
-1.359445 -0.072719261 2.8465505
-1.325775 -0.072395846 2.8430941
-1.2789561 -0.073428065 2.8388784
-1.2295923 -0.06978929 2.83566
-1.1803228 -0.078253686 2.8286028
-1.1315986 -0.077855676 2.8259201
-1.0819434 -0.077363305 2.8190277
-1.0252289 -0.076825991 2.8114185
-0.96943265 -0.076296404 2.8036959
-0.93995064 -0.096982196 2.8047664
-0.4978663 -0.074424297 2.8108666
-2.3069015 -0.032069545 2.8248081
-2.2996852 -0.03215877 2.8393087
-1.5778365 -0.03929935 2.8296497
-1.5211502 -0.032947931 2.827877
-1.4984224 -0.014416138 2.8271861
-1.4308319 -0.028995607 2.8320231
-1.3527863 -0.028915638 2.8473368
-1.3170419 -0.028830849 2.8473268
-1.2710192 -0.026589217 2.8406444
-1.2295656 -0.030304555 2.8360438
-1.1811938 -0.028345518 2.8313055
-1.1306195 -0.028164424 2.8241105
-1.0824244 -0.028032137 2.8208861
-1.0251402 -0.027829217 2.8117816
-0.97529876 -0.025715785 2.8088284
-0.49784204 -0.033822231 2.8112383
-0.14396988 -0.026765488 2.8060095
-2.3109148 0.020446092 2.8156867
-2.2979102 0.017195558 2.8371792
-1.5315676 0.025084397 2.8335142
-1.487462 0.01491072 2.8064613
-1.4304626 0.019311989 2.8312919
-1.3635695 0.023619909 2.8485799
-1.3244621 0.020064408 2.8456721
-1.2772006 0.019941758 2.8415093
-1.2262669 0.02231537 2.8381512
-1.1779244 0.02303547 2.8311346
-1.1305608 0.02144862 2.8239343
-1.0773816 0.021303179 2.8192689
-1.0223002 0.021160528 2.8129537
-0.97099894 0.0210231 2.8087883
-0.93172479 0.020922786 2.8034079
-0.49713555 0.020356674 2.8072774
-2.3065016 0.07832633 2.8334529
-1.5153599 0.073997788 2.8248322
-1.417985 0.075294882 2.8358061
-1.3730962 0.076273784 2.8464499
-1.3257601 0.066722788 2.8455906
-1.2810575 0.074315354 2.8406868
-1.2320342 0.072062545 2.8364487
-1.1779315 0.074403182 2.830482
-1.1276275 0.078200936 2.8257358
-1.07621 0.078225426 2.819473
-1.0233076 0.075220011 2.8150728
-0.97086662 0.076712757 2.8076956
-0.92598158 0.078223631 2.8036978
-0.880009 0.089860164 2.8027828
-0.49759555 0.074530363 2.8092391
-0.1306318 0.071496859 2.8071363
-2.3131518 0.13033049 2.826045
-1.4132786 0.12244912 2.8409979
-1.3653717 0.1244908 2.8479974
-1.3183249 0.12387487 2.8472161
-1.2710292 0.12596734 2.8418226
-1.2248296 0.12114345 2.8373373
-1.1789778 0.12017343 2.8318985
-1.1271421 0.12926549 2.8276815
-1.0710317 0.12568387 2.8215995
-1.0187354 0.12619349 2.8132558
-0.97243828 0.12563105 2.8110471
-0.92530566 0.12490804 2.80457
-0.88015991 0.12242234 2.8023369
-0.49848151 0.12894268 2.8129148
-0.13062814 0.14077994 2.8053381
-2.3133788 0.17967466 2.8240392
-1.4150692 0.1760876 2.8367939
-1.372336 0.17228508 2.8488882
-1.3082927 0.17104813 2.8473637
-1.2690814 0.17378539 2.843035
-1.2214998 0.17472744 2.8418081
-1.1729978 0.17485632 2.8334496
-1.1222955 0.17566903 2.8276286
-1.0683941 0.17649187 2.8209131
-1.0201291 0.17546856 2.815244
-0.97278625 0.17450142 2.8102429
-0.92690355 0.17372793 2.8076122
-0.87858671 0.16826294 2.8035009
-0.82767355 0.1817686 2.8010011
-0.49844638 0.1764002 2.8110034
-2.3082049 0.23119743 2.8262608
-1.5139189 0.22138776 2.8163948
-1.4271623 0.2204432 2.8356273
-1.3173672 0.22338539 2.8452263
-1.2708806 0.2247247 2.8445222
-1.2186219 0.22309542 2.8373888
-1.1705436 0.22385393 2.8344886
-1.1195853 0.22766593 2.8295598
-1.068545 0.22589305 2.8188646
-1.0230207 0.22517496 2.8208408
-0.97471684 0.22375505 2.8133914
-0.92599326 0.22522199 2.8068521
-0.87615943 0.22972848 2.8037694
-0.81941456 0.2295658 2.8012931
-0.79004037 0.23714122 2.8011155
-0.50040519 0.23157847 2.8194089
-0.4984487 0.21713299 2.8091054
-0.40852198 0.20266283 2.8071203
-0.38086277 0.20231652 2.8048425
-2.3121414 0.2810401 2.8273184
-1.5310763 0.25365508 2.8464856
-1.4934874 0.27921522 2.807559
-1.4362032 0.27946964 2.8325696
-1.3757401 0.28643954 2.8493924
-1.3128822 0.27405185 2.846122
-1.2742822 0.27577558 2.8443213
-1.2234027 0.27231064 2.8408101
-1.1717417 0.27331424 2.8300912
-1.1201277 0.27594817 2.8315651
-1.0717916 0.27610338 2.8243053
-1.0235356 0.27452844 2.8191957
-0.97583294 0.2729919 2.8136265
-0.93047357 0.273523 2.8088646
-0.87623876 0.27722177 2.8058109
-0.82582515 0.27426517 2.8031955
-0.79387164 0.26132235 2.8004329
-0.5115068 0.25754917 2.8024468
-0.49928817 0.25823694 2.8115616
-2.3144805 0.33085832 2.8257074
-1.4986465 0.33909887 2.8124971
-1.4372299 0.32215375 2.8451388
-1.3607024 0.33770946 2.8496165
-1.3173155 0.32504469 2.8482692
-1.274384 0.32701799 2.8453236
-1.2243886 0.32529441 2.8438795
-1.1718674 0.32276604 2.8345287
-1.1245524 0.32538179 2.8314748
-1.0740991 0.32633466 2.8267291
-1.0262285 0.32462865 2.8230076
-0.97823322 0.32275605 2.8169639
-0.92383182 0.32785952 2.811502
-0.86988527 0.3259362 2.8056128
-0.83417386 0.33465233 2.80353
-0.76838619 0.32811049 2.8005493
-0.73789889 0.34334731 2.8007727
-2.3200891 0.38130021 2.8272991
-1.5611434 0.38224882 2.8411419
-1.5326332 0.36399478 2.8237534
-1.4779936 0.39285263 2.8129921
-1.4362558 0.3695434 2.8424985
-1.3282454 0.37106118 2.8496802
-1.2736213 0.37635636 2.8439643
-1.2259153 0.37633997 2.8430054
-1.1764654 0.37440822 2.8412907
-1.1224934 0.37414363 2.8300736
-1.075888 0.37659121 2.8271029
-1.0274156 0.37445202 2.8219769
-0.97925001 0.37223196 2.8157005
-0.92524952 0.37724718 2.8116052
-0.87165719 0.37522003 2.8071842
-0.82721281 0.37395513 2.8063495
-0.77323782 0.37471202 2.8026216
-0.73344576 0.38783494 2.8018031
-0.67479408 0.39062902 2.8014665
-2.322515 0.43135741 2.8242941
-1.5239304 0.44967571 2.8491724
-1.4520322 0.41204512 2.81745
-1.4361539 0.4268156 2.8421984
-1.3313867 0.44040829 2.8493779
-1.2614704 0.4219698 2.8447511
-1.2266433 0.42570674 2.8432679
-1.177532 0.42319298 2.8390234
-1.1288625 0.42456609 2.8335788
-1.0787232 0.4274292 2.8296211
-1.0293998 0.42469841 2.8225749
-0.97501111 0.42257622 2.8205874
-0.91939944 0.42667034 2.8118918
-0.8737936 0.42489398 2.8092797
-0.82848555 0.42308354 2.805932
-0.77860165 0.42421404 2.8026428
-0.72763926 0.42847398 2.8017294
-2.3244371 0.47780046 2.8171704
-1.5032624 0.4628965 2.8424828
-1.4054861 0.47128758 2.8308046
-1.2838383 0.47187224 2.8467374
-1.2327813 0.47681499 2.8445821
-1.1804401 0.47675955 2.8401713
-1.1308671 0.47412574 2.8368747
-1.0767401 0.47617722 2.8302748
-1.0267917 0.4760842 2.8261399
-0.97303444 0.47033909 2.8191426
-0.92243576 0.47718102 2.8157306
-0.87589192 0.47475809 2.8106749
-0.82337743 0.47611937 2.8078296
-0.77441114 0.47380069 2.8028362
-0.7250399 0.4737581 2.8006747
-0.68583953 0.47538152 2.8004363
-2.3262916 0.52838624 2.8231087
-1.5044326 0.50806153 2.8390386
-1.4410272 0.50414532 2.8369632
-1.3247948 0.53609478 2.8417325
-1.2630602 0.52593482 2.8454988
-1.2247968 0.5236147 2.8431509
-1.1777097 0.5226047 2.8409965
-1.1289099 0.52513766 2.8357077
-1.0759416 0.52348107 2.8302052
-1.0217029 0.52794784 2.8268213
-0.97411978 0.52152973 2.8200295
-0.92262322 0.52522808 2.8146868
-0.87802267 0.52492279 2.8115022
-0.82570404 0.52328515 2.8050544
-0.77317655 0.52719355 2.8052707
-0.72193855 0.52797616 2.8031855
-2.3261681 0.57510293 2.8233302
-1.3218845 0.57577598 2.8436661
-1.2606765 0.57100505 2.8472321
-1.220073 0.57572693 2.8442478
-1.1713122 0.57455951 2.8411226
-1.1201606 0.57654023 2.8369915
-1.0692956 0.57243383 2.8284905
-1.0199981 0.57476252 2.8250597
-0.97362012 0.5737744 2.8205633
-0.92953283 0.57613266 2.8203781
-0.8756265 0.57691586 2.8144395
-0.82282084 0.57107008 2.8092141
-0.77349764 0.57500851 2.8049517
-0.72526634 0.57663596 2.8016622
-0.12002111 0.59018153 2.8347466
-2.3283825 0.61858517 2.8277037
-1.3236698 0.62643921 2.8408074
-1.2710807 0.61417115 2.8494027
-1.2241929 0.62883461 2.8461237
-1.1733329 0.62507087 2.8422658
-1.1205611 0.62367147 2.8351688
-1.0740042 0.62526935 2.8334341
-1.0262891 0.62585771 2.8269193
-0.97755009 0.62586427 2.8245981
-0.92977875 0.62242264 2.819047
-0.87439817 0.62487644 2.8150086
-0.82173634 0.6226263 2.8082631
-0.77852666 0.62468326 2.8060088
-0.72573835 0.62522256 2.804698
-0.68893909 0.62334943 2.8023064
-2.3360107 0.67190176 2.834131
-1.323222 0.67561454 2.8354464
-1.2822852 0.67092794 2.8486748
-1.22727 0.67438018 2.8460391
-1.1744998 0.67309254 2.8414762
-1.12822 0.67622161 2.8386488
-1.0778468 0.67796999 2.8353891
-1.0281976 0.6737715 2.8291121
-0.97231859 0.67567992 2.8256912
-0.91940266 0.67144144 2.8189721
-0.87163919 0.67777038 2.8174272
-0.82557011 0.67471915 2.8135512
-0.77431792 0.67507911 2.807714
-0.7285713 0.67780089 2.8050473
-0.67478323 0.67845678 2.8013635
-0.64654976 0.65019667 2.8011048
-2.3383279 0.72294217 2.8264627
-1.3254204 0.72721738 2.8462853
-1.2765944 0.72166926 2.8474
-1.2306554 0.72033095 2.8461249
-1.1820922 0.7261048 2.8434091
-1.1300441 0.7270056 2.8383603
-1.080534 0.72303766 2.834878
-1.0257872 0.72560239 2.8304508
-0.97862577 0.72508287 2.8250651
-0.92522299 0.72362119 2.8183854
-0.87386453 0.72197002 2.8173273
-0.8266232 0.72403502 2.8135917
-0.7767849 0.72436363 2.8105369
-0.7221821 0.72587794 2.8030212
-0.67846859 0.72390836 2.8025784
-0.64948761 0.72958291 2.8009772
-0.56374055 0.73341584 2.8001907
-0.065541603 0.70442218 2.8371358
0.017320158 0.73277426 2.8357689
-2.3371696 0.77658755 2.8200841
-1.3297914 0.77130139 2.847651
-1.2581402 0.78897399 2.845645
-1.2390313 0.77105647 2.8467851
-1.1763151 0.77718526 2.8435733
-1.1208656 0.77083862 2.8398697
-1.0674109 0.77358603 2.8370295
-1.0200022 0.77878624 2.8316417
-0.97082877 0.77406108 2.8251057
-0.92316669 0.7701456 2.8209448
-0.87689495 0.77418739 2.8178475
-0.82921064 0.77641892 2.8131034
-0.77543867 0.77278143 2.8097889
-0.72321171 0.77531523 2.8035183
-0.67773807 0.77600586 2.8042386
-0.58735144 0.79262388 2.8005967
0.086616889 0.76182824 2.8352301
-2.3541374 0.83477366 2.8037519
-2.3374817 0.82572263 2.8277919
-1.4117535 0.8286224 2.847918
-1.3733978 0.8229236 2.8466272
-1.32385 0.81329584 2.8488882
-1.2686533 0.82712835 2.8494155
-1.2236501 0.83139294 2.8477149
-1.172201 0.82341361 2.8445787
-1.1200184 0.82150859 2.8403926
-1.0737822 0.82615864 2.8357689
-1.0226455 0.82418036 2.8302379
-0.97426426 0.81995273 2.8265257
-0.92720848 0.82366347 2.8233311
-0.87525946 0.82852834 2.8201914
-0.82156503 0.82110512 2.81494
-0.77270818 0.81881922 2.8108947
-0.72984362 0.82792586 2.8087564
-0.67616409 0.82703185 2.8044136
-0.62880141 0.8260054 2.8010063
-0.57670277 0.8240993 2.8008058
0.10011261 0.80055988 2.8172643
-2.3393941 0.87682801 2.8210576
-1.400562 0.89132953 2.8477607
-1.3838749 0.89030296 2.8499675
-1.2604773 0.87041742 2.8474317
-1.2269027 0.8751123 2.8462517
-1.1816857 0.87353361 2.8461444
-1.1266999 0.87378561 2.8428364
-1.0783788 0.87763894 2.8421404
-1.0275944 0.87174946 2.8346858
-0.97706741 0.875359 2.8307958
-0.92641902 0.87915176 2.8255675
-0.87391591 0.87124389 2.8207157
-0.82028526 0.87325424 2.8152242
-0.77719909 0.87328762 2.8168373
-0.72612137 0.87762678 2.8109667
-0.67415142 0.87052679 2.805774
-0.62391901 0.87656659 2.8040075
-0.57841229 0.87474054 2.802839
-0.52890092 0.88135886 2.8006866
-0.49826911 0.88529187 2.8012559
-2.3437099 0.92044115 2.8216786
-1.3855859 0.90650994 2.8499486
-1.3163965 0.91548628 2.8485365
-1.2223839 0.925897 2.84832
-1.1753677 0.92508191 2.8479655
-1.123685 0.92450225 2.8475521
-1.0739323 0.92395991 2.8417273
-1.0260201 0.91988015 2.8347244
-0.973625 0.92743891 2.8317168
-0.91954082 0.92342633 2.8267541
-0.87170732 0.92301214 2.825974
-0.82778996 0.92750883 2.8199902
-0.77805793 0.92880028 2.8193254
-0.72519845 0.92118526 2.8141568
-0.67462152 0.92567474 2.8086784
-0.6251415 0.92807859 2.8077397
-0.57398665 0.92882681 2.8045619
-0.54281938 0.92482698 2.8022442
-0.45671949 0.92068082 2.8000674
-0.43633398 0.94276643 2.8010023
0.46882781 0.94476247 2.8264349
-2.3528743 0.95059276 2.804574
-2.3390079 0.97235996 2.8316262
-1.2527471 0.95769978 2.8492296
-1.2021086 0.9531157 2.8497019
-1.1690829 0.96528941 2.8470576
-1.1196722 0.97590077 2.843991
-1.0708795 0.97185546 2.8445044
-1.0223457 0.97505349 2.8422413
-0.97361714 0.9775964 2.8376255
-0.92448902 0.97192317 2.8315685
-0.87790269 0.97336131 2.8303702
-0.82774019 0.97976702 2.8240738
-0.7743153 0.97197348 2.8200235
-0.72372329 0.96999919 2.819186
-0.67805445 0.98008209 2.8111634
-0.62560552 0.97579449 2.8068876
-0.57419431 0.97253227 2.8048694
-0.52355814 0.97887945 2.8024013
-0.47788787 0.99470568 2.8042836
-0.44027385 0.99062586 2.8004684
-0.38814542 0.9864071 2.8009524
0.13601106 0.95545602 2.8150637
0.15644732 0.97326124 2.8003752
0.4431105 0.99262065 2.8354435
-2.3542662 1.0349885 2.8155117
-2.3427951 1.0227668 2.8302436
-1.2241316 1.0111245 2.84834
-1.1244891 1.0246526 2.844806
-1.072819 1.0222175 2.8419845
-1.0298059 1.0294117 2.8461218
-0.97787732 1.0258247 2.8388803
-0.92726439 1.0230051 2.8331506
-0.87684596 1.0270213 2.8323982
-0.81918395 1.0251662 2.8261366
-0.77248216 1.0206957 2.8224061
-0.72696829 1.024505 2.8193123
-0.67417616 1.0275949 2.8151197
-0.62173486 1.0234859 2.811918
-0.57713836 1.0200043 2.8086929
-0.5291881 1.0287795 2.806525
-0.47565639 1.0291325 2.8043158
-0.43817025 1.0328009 2.8016977
-0.38100001 1.0275457 2.8014829
0.21559215 1.0319198 2.8342102
-2.3580282 1.079476 2.806134
-2.340487 1.0746123 2.837141
-1.1626306 1.0620778 2.8489342
-1.1272705 1.0717622 2.8455923
-1.0803419 1.0738106 2.8452737
-1.0266832 1.0800387 2.8441572
-0.97441274 1.074021 2.8402183
-0.92343557 1.0700455 2.8353715
-0.87035429 1.0782721 2.8311048
-0.82278454 1.0732036 2.8270481
-0.77513415 1.0723405 2.8254523
-0.72606331 1.082372 2.8234224
-0.67373359 1.0751349 2.8210812
-0.62461179 1.0710644 2.8137083
-0.57290787 1.07496 2.8107657
-0.52176088 1.0793185 2.8085098
-0.47799355 1.076682 2.806941
-0.4294323 1.0756601 2.8059592
-0.37516862 1.0729955 2.8029315
-0.32650432 1.0829866 2.8035722
-0.23547889 1.0969903 2.8002179
0.24532926 1.0523657 2.8461177
-2.3571084 1.1244301 2.8134067
-2.3452089 1.1176009 2.8382525
-1.1138262 1.1201046 2.8478732
-1.0714138 1.1202402 2.847795
-1.0207585 1.1287603 2.8451071
-0.96778589 1.1193023 2.8382068
-0.92051601 1.1222085 2.835798
-0.87494159 1.1278955 2.8336668
-0.82827652 1.1241592 2.8337369
-0.77553779 1.1233838 2.8252327
-0.72272813 1.1274805 2.8248637
-0.67405945 1.1249471 2.8226299
-0.6277926 1.1195898 2.8162408
-0.5753836 1.1256958 2.8137772
-0.52451915 1.1278826 2.8115928
-0.47318602 1.1245701 2.8095617
-0.42180192 1.1204365 2.8047917
-0.37581778 1.1200511 2.8043907
-0.32860312 1.1240197 2.8026719
-0.27551195 1.1342297 2.802752
-0.22231054 1.1437786 2.8005085
-0.19398007 1.143224 2.800616
-2.3644974 1.1792877 2.8264258
-1.1059055 1.1550393 2.8486745
-1.0718507 1.1657753 2.8478084
-1.0158584 1.1750053 2.8464651
-0.97606087 1.1731288 2.8429022
-0.92768371 1.1756996 2.8398356
-0.88006741 1.1786873 2.8372548
-0.82708031 1.1751233 2.8357987
-0.77471244 1.1678761 2.8317366
-0.72396094 1.1790676 2.8284283
-0.67778277 1.1746688 2.8255982
-0.6234085 1.1678663 2.8175228
-0.57369918 1.1779562 2.8180585
-0.52697659 1.176217 2.8123674
-0.47550008 1.1729912 2.8109457
-0.42431828 1.1699253 2.8092422
-0.37377068 1.1720092 2.8082345
-0.32472539 1.1770865 2.8049855
-0.27864075 1.1780478 2.8031275
-0.22047143 1.185751 2.8023667
-0.17349787 1.1867398 2.8013422
-2.365186 1.2249073 2.8184164
-1.1218596 1.2242907 2.8493912
-1.0198121 1.233938 2.8482995
-0.97845095 1.2258899 2.8450322
-0.92798257 1.2216127 2.8403955
-0.87419856 1.2264746 2.837527
-0.82031697 1.2216343 2.833581
-0.7740525 1.2183129 2.8348567
-0.72762275 1.228916 2.8293083
-0.67611903 1.2260451 2.8279858
-0.62226921 1.2159309 2.8200934
-0.57568306 1.231379 2.8210666
-0.52490628 1.2279086 2.8164566
-0.47366109 1.2208107 2.81354
-0.42625925 1.2182592 2.8091276
-0.37573862 1.2199191 2.8105483
-0.32568067 1.2315745 2.8119054
-0.27406627 1.2290008 2.8064513
-0.22933848 1.2316326 2.8063374
-0.1696596 1.2319993 2.8039989
-0.12447415 1.2383226 2.8017218
-2.369447 1.2742927 2.828464
-1.0984658 1.2536646 2.8443005
-1.0228333 1.2676642 2.8469315
-0.96845043 1.2723144 2.8463233
-0.92412776 1.2717695 2.8455789
-0.87246019 1.2783962 2.8429494
-0.82415128 1.2717278 2.8326356
-0.77786756 1.2685763 2.8347569
-0.72417879 1.2796518 2.8317041
-0.66979104 1.2740629 2.8284886
-0.62452221 1.2713418 2.8297136
-0.57174951 1.2786378 2.8258202
-0.52124035 1.2748755 2.8186178
-0.47401482 1.2740548 2.8189974
-0.42392108 1.2738297 2.8140182
-0.37432337 1.2716464 2.8156903
-0.3272956 1.280856 2.8121538
-0.2764045 1.2783861 2.8105233
-0.22576073 1.2762302 2.8090293
-0.17598093 1.2756556 2.8069625
-0.12699531 1.2737585 2.8027742
-0.079174712 1.273433 2.8012271
-0.024957685 1.2863817 2.801686
0.032190982 1.2858477 2.8004737
-2.3692775 1.3237361 2.8225541
-0.97629035 1.3235259 2.8487744
-0.9254688 1.3080533 2.845293
-0.88112825 1.3213059 2.8451138
-0.82364714 1.327209 2.8431838
-0.77845645 1.3221846 2.8410964
-0.72230327 1.3275888 2.8342433
-0.67436785 1.3270169 2.8331029
-0.62797463 1.3224661 2.8307521
-0.57644254 1.3239305 2.827554
-0.52207685 1.3293167 2.8242502
-0.47739902 1.3269277 2.8247349
-0.42680338 1.3234223 2.8196182
-0.37499395 1.3225176 2.8159165
-0.32756007 1.3315952 2.813942
-0.27606812 1.3279799 2.8134325
-0.2270723 1.3269405 2.8111103
-0.17637302 1.3251542 2.8098841
-0.12576397 1.3229899 2.8072419
-0.079009324 1.3262242 2.8064411
-0.029847084 1.3255705 2.80287
0.018006189 1.336368 2.8023355
0.10421226 1.3364064 2.8010964
-2.3758061 1.3747259 2.823261
-0.96668017 1.3879418 2.8485918
-0.91653043 1.3733587 2.8480961
-0.87465471 1.3664844 2.8468447
-0.82049966 1.3791723 2.8439856
-0.77310193 1.3748422 2.8443213
-0.72785056 1.3742107 2.8409886
-0.67677855 1.378078 2.8365812
-0.62633705 1.3760295 2.8326406
-0.57212889 1.3709681 2.8289826
-0.52488071 1.3786688 2.8247423
-0.47717556 1.3799469 2.8254483
-0.42555845 1.3731302 2.8240032
-0.37543261 1.3709484 2.8213425
-0.32342327 1.3751123 2.8228383
-0.27258587 1.3815833 2.8166344
-0.22874273 1.3803387 2.8168664
-0.17771472 1.3787699 2.8162928
-0.1264811 1.3738793 2.808286
-0.075885512 1.3744935 2.810828
-0.025229981 1.3722647 2.8069293
0.022220451 1.3732551 2.8040118
0.061400142 1.3788614 2.8027983
-2.3800664 1.4283404 2.8318243
-0.90512413 1.4244212 2.8467319
-0.87035847 1.4183366 2.8464353
-0.82450789 1.4235708 2.8441751
