ply
format ascii 1.0
comment PCL generated
element vertex 1519
property float x
property float y
property float z
element camera 0
property float view_px
property float view_py
property float view_pz
property float x_axisx
property float x_axisy
property float x_axisz
property float y_axisx
property float y_axisy
property float y_axisz
property float z_axisx
property float z_axisy
property float z_axisz
property float focal
property float scalex
property float scaley
property float centerx
property float centery
property int viewportx
property int viewporty
property float k1
property float k2
end_header
-2.4572129 1.5982947 2.3439846
-2.4558778 1.6238322 2.3189085
-2.4414053 1.6487777 2.330698
-2.4569836 1.6778909 2.3227971
-2.461875 1.7264546 2.3378303
-2.4608054 1.7662191 2.3252001
-2.2998953 2.3960097 2.3421152
-2.2763801 2.4078953 2.3356683
-2.2189081 2.4064548 2.3207762
-2.1721275 2.4161894 2.3267431
-2.1338983 2.4208944 2.3291819
2.1642408 2.4256418 2.3170197
2.2349162 2.4470491 2.3439379
2.21613 2.4539857 2.3263803
2.2555857 2.4501622 2.3349338
-1.3260903 -0.52121508 2.3884125
-1.2880101 -0.51364815 2.3614075
-1.2114034 -0.52290332 2.3712394
-1.1773915 -0.51889598 2.3621368
-1.1034189 -0.54681969 2.3999975
-1.0803766 -0.52919674 2.3826852
-0.30961132 -0.51509184 2.3778954
-0.28878102 -0.52347815 2.3815305
-0.20603406 -0.54560757 2.3878067
-0.19475845 -0.54654747 2.3925648
-1.3399588 -0.45584112 2.3808658
-1.2262189 -0.45133632 2.3968346
-0.31821898 -0.46874204 2.3603213
-0.29509145 -0.47450525 2.3840408
-2.3028588 -0.40080363 2.3729625
-2.2951396 -0.42645231 2.3770688
-1.352958 -0.44327286 2.377867
-1.3409206 -0.4200967 2.37534
-1.2156848 -0.42261204 2.3795216
-2.3073211 -0.36782995 2.3709517
-2.296952 -0.38746187 2.3968906
-1.3560817 -0.35538369 2.3943594
-1.3345525 -0.37315586 2.3695571
-1.2152519 -0.37893805 2.3839531
-2.3107986 -0.32648376 2.3769605
-1.3364514 -0.34092107 2.3886395
-0.91068017 -0.32823259 2.3648496
-2.4709342 -0.25936049 2.3746486
-2.3165932 -0.28495723 2.3791151
-0.91624123 -0.29637367 2.3582873
-2.5066197 -0.24523903 2.3669369
-2.4725895 -0.24419962 2.3775721
-2.4177876 -0.24106893 2.3671851
-2.3657165 -0.2302601 2.3782516
-2.3434987 -0.21506381 2.3654637
-2.3341405 -0.17752714 2.3678813
-2.3401072 -0.12235715 2.3695664
-2.3537252 -0.063942075 2.3879972
-2.345134 -0.08342167 2.3694687
-2.3608062 -0.02890723 2.3769829
2.9561863 -0.04887661 2.3986411
-2.3541522 0.024510292 2.3782179
-2.346137 0.0084838569 2.3762817
-2.3571827 0.080792367 2.3768063
-2.3606474 0.12268919 2.3775148
-2.360069 0.17362836 2.3845973
0.69529861 0.17611335 2.3895946
0.98902375 0.18053354 2.3819468
1.0433856 0.17560099 2.3823195
-2.3632903 0.22645767 2.3839602
-2.364641 0.27171847 2.3811579
-2.3697379 0.3250542 2.3804002
-2.3734906 0.37842318 2.3772881
1.425559 0.37498221 2.360148
-2.3772316 0.42436114 2.3742712
1.4278358 0.43204489 2.3657331
-2.3688674 0.47333717 2.3718503
1.4382942 0.4808712 2.3670707
-2.3664272 0.52707303 2.3758912
1.4367952 0.52756661 2.3709002
-2.3701069 0.57751071 2.3673391
1.4370272 0.57023919 2.365654
-2.3678696 0.62645334 2.3834317
1.4350992 0.62383765 2.3639538
-2.3754401 0.6743784 2.380012
1.4373418 0.67834973 2.3850641
-2.3781667 0.72111583 2.3708572
1.4341168 0.71583444 2.3708613
-2.3797889 0.77092481 2.3789217
-2.3804796 0.82315129 2.3721983
-2.3843014 0.87471139 2.3716068
-2.3859599 0.92919332 2.3718653
-2.3941369 0.967363 2.3760729
-2.4003618 1.0384398 2.3695862
-2.3943598 1.0224174 2.3794165
-2.4023194 1.0900689 2.3676894
-2.3978133 1.0643873 2.3726325
-2.4032016 1.1276084 2.3777823
-2.4133801 1.1880686 2.3807406
-2.4105375 1.2286996 2.3732879
-2.4214115 1.2869394 2.3880758
-2.4343317 1.3207048 2.3767345
-2.4371605 1.3755627 2.3788974
-2.4298711 1.4298437 2.3772936
-2.4533744 1.4960403 2.3944707
-2.4396114 1.4744031 2.3702478
-2.4635463 1.5758276 2.3737693
-2.455158 1.6226921 2.3761597
-2.4581046 1.6785408 2.3821657
-2.4571593 1.7247767 2.3820224
-2.4668748 1.7726841 2.3797777
-2.3636007 2.3825572 2.3751833
-2.3167205 2.3862545 2.3567762
-2.2896357 2.3949523 2.3687015
-2.2622805 2.4062068 2.3706548
-2.2381973 2.4146686 2.3727105
-2.1796401 2.4170952 2.3745298
-2.1270211 2.4193795 2.3721514
-2.07181 2.4189785 2.383657
-2.0160925 2.4056063 2.3833818
2.0868552 2.4376092 2.3867934
2.1268241 2.4438746 2.3837416
2.1767857 2.4418077 2.3746834
2.2318532 2.4453106 2.3848307
2.1831348 2.4667914 2.3681698
2.2205617 2.4508572 2.35956
2.2866931 2.4566932 2.3869586
2.3165846 2.4598081 2.3786631
2.3644269 2.4538851 2.3932278
-2.2345624 -0.55304098 2.4292531
-0.18454738 -0.55078387 2.4117219
-2.229089 -0.52359033 2.443002
-1.3551675 -0.51226628 2.400187
-1.3326086 -0.51347893 2.4164963
-1.252815 -0.51612484 2.4256697
-1.2237071 -0.51510566 2.4125438
-1.1705616 -0.51860952 2.4185586
-1.1254858 -0.53565574 2.4351144
-0.30811614 -0.50470799 2.41401
-0.27422881 -0.53389132 2.4254296
-0.21584308 -0.54403126 2.4340839
-0.19532169 -0.5364663 2.4012263
-2.273865 -0.45558628 2.4377172
-2.2434893 -0.48304832 2.4448233
-1.3567166 -0.47436956 2.4087951
-1.2180467 -0.46555582 2.4083991
-0.30527169 -0.46235773 2.4449973
-0.28648168 -0.48006731 2.4252205
-2.2874682 -0.42571577 2.4273975
-2.301496 -0.35947984 2.4196787
-2.2926457 -0.37761164 2.4315186
-2.3049314 -0.32563257 2.4203091
-2.2995825 -0.33778822 2.4344893
-1.3432552 -0.3299557 2.4021041
-2.4652326 -0.26122874 2.4122467
-2.3170087 -0.28408882 2.4114385
-0.78000331 -0.28900644 2.4328635
-2.3551939 -0.24095356 2.4176772
-2.3377855 -0.22289777 2.4247129
-2.3388274 -0.17245305 2.4245446
-0.76296663 -0.15671244 2.4481504
-2.3346136 -0.12356091 2.4159646
-0.77486742 -0.14461674 2.4455483
-0.74374706 -0.14443569 2.4487169
-2.3451383 -0.074567296 2.4305747
2.9928238 -0.06655921 2.4280686
-2.3554759 -0.029113373 2.4066949
-2.3464417 -0.029273653 2.4355118
2.9807701 -0.023736587 2.4188399
-2.3454201 0.021088755 2.4268968
2.9720328 0.010201743 2.4117565
-2.3575068 0.072797343 2.4219499
-1.2655747 0.082727104 2.4442835
-2.3520043 0.1217917 2.4215593
-2.3452392 0.12977809 2.4425454
-1.2686334 0.12046422 2.4343436
-2.3528304 0.17038621 2.4254503
-2.3451295 0.16766259 2.4403884
-1.2677068 0.16190323 2.4381163
0.5720796 0.17609301 2.411361
0.63698697 0.17620148 2.4018865
0.66885722 0.17687094 2.4055295
0.71267688 0.16848709 2.4499047
0.97761333 0.17177495 2.4375632
1.012146 0.17244834 2.438271
1.0687572 0.17003195 2.421572
-2.3563325 0.22865073 2.4334304
-2.3592122 0.27453747 2.4322402
-2.3582733 0.32000649 2.4263525
-2.3678699 0.3746953 2.4294872
-2.3692949 0.42835498 2.4232023
1.4499463 0.43045408 2.4222116
-2.3667397 0.47058225 2.420877
-2.364229 0.52491742 2.4274402
1.4459773 0.52027339 2.4019029
1.4636205 0.51346296 2.4333606
-2.3662949 0.57278579 2.4209316
-2.3680632 0.62482893 2.4284801
1.4483771 0.64411575 2.4117997
1.4558359 0.62098241 2.429517
-2.3710215 0.68074691 2.4260099
1.4456493 0.65601808 2.4045281
1.4618527 0.68989676 2.4257731
-2.3760107 0.72980899 2.426513
1.4532647 0.72535861 2.4322116
-2.3796544 0.77494466 2.4258549
-2.3813903 0.83273613 2.4310017
-2.383759 0.87797976 2.4227684
-2.385704 0.92756319 2.4181519
-2.405026 0.97590148 2.429985
-2.3980243 0.99679583 2.4144292
-2.4048846 1.0267968 2.4274757
-2.3970516 1.0251653 2.4269671
-2.4044347 1.089479 2.4356227
-2.3929131 1.064782 2.4152248
-2.4081774 1.1232998 2.4266012
-2.4092357 1.1758196 2.4226727
-2.4101911 1.2206485 2.4213452
-2.4226136 1.2696154 2.4231577
-2.4311872 1.3275592 2.424165
-2.4326987 1.3657588 2.4251707
-2.433567 1.422806 2.4244792
-2.4362023 1.4768893 2.4300792
-2.4524138 1.5223476 2.415309
-2.4446225 1.5278958 2.438489
-2.4610329 1.5750325 2.4165418
-2.4562519 1.622843 2.4243712
-2.4561594 1.6741081 2.4226673
-2.4493194 1.6885368 2.4300611
-2.4659994 1.725794 2.4316187
-2.4726086 1.7718853 2.4265466
-2.5606668 2.3261011 2.4344575
-2.5358913 2.3384707 2.4442413
-2.5136991 2.3541033 2.4270225
-2.4772069 2.3642268 2.4258204
-2.4280527 2.3725624 2.4214983
-2.379698 2.3865373 2.4294205
-2.3316813 2.3928232 2.4004574
-2.2667851 2.3996716 2.413739
-2.2464607 2.3971822 2.4236858
-2.3149307 2.4035695 2.4302819
-2.2878931 2.4033651 2.4270263
-2.2238295 2.4164126 2.4207819
-2.1699648 2.4154847 2.4346664
-2.1202846 2.4112263 2.426188
-2.0768342 2.4202459 2.4346488
-2.0236681 2.4168413 2.4229896
-1.9745759 2.4186437 2.4304683
2.0362399 2.4402905 2.4241755
2.0632753 2.4409685 2.4074936
2.1389709 2.441607 2.4415104
2.1812065 2.4488251 2.4245939
2.2280746 2.442811 2.4257092
2.2699499 2.4434164 2.4267471
2.3369493 2.4449847 2.4410493
2.3699241 2.441402 2.4341998
2.4277198 2.4441464 2.4353056
2.4706345 2.4498951 2.4447072
2.0297799 2.4538052 2.4491794
2.0959222 2.451122 2.443152
2.1242857 2.4529605 2.4271977
2.2348409 2.4502287 2.4330821
2.3268261 2.4527323 2.4172442
2.3970485 2.4502351 2.4080467
-2.2171669 -0.55433619 2.4524815
-0.23713538 -0.55235404 2.4702282
-2.218472 -0.52644056 2.4736958
-1.1617727 -0.52463901 2.4687061
-1.1191658 -0.53240073 2.4541171
-0.55369091 -0.53244883 2.4594128
-0.2678965 -0.53895724 2.4777095
-0.23116094 -0.5403226 2.4722416
-2.251199 -0.45008752 2.451704
-2.2177489 -0.47017911 2.4705553
-2.188607 -0.46465603 2.4926481
-0.28392243 -0.47220403 2.4666834
-2.2613957 -0.41778174 2.4564235
-2.2227275 -0.42036524 2.4812415
-2.2669985 -0.37630227 2.465471
-2.2301497 -0.37791461 2.4872856
-0.82968116 -0.3672654 2.4582882
-2.3065739 -0.3020696 2.4602699
-2.2743418 -0.32571629 2.4679346
-2.2373729 -0.32827327 2.4905205
-0.81089044 -0.30821058 2.4870076
-0.78157371 -0.31578118 2.4698129
-2.3643928 -0.27493516 2.4672449
-2.3081288 -0.28711623 2.4634776
-2.273468 -0.2866053 2.4828014
-2.2475281 -0.28622335 2.4968569
-1.2933513 -0.25905347 2.4895139
-0.80567241 -0.28787553 2.4724874
-0.78897834 -0.28014714 2.4618123
-0.74821395 -0.28317755 2.4986994
-2.3322873 -0.22751291 2.4688973
-1.2942398 -0.24625728 2.4921679
-2.3356724 -0.17430894 2.4732745
-0.80016804 -0.15809788 2.4633503
-0.77619988 -0.16984591 2.4610045
-0.73831272 -0.1622306 2.4640553
-2.335557 -0.12099295 2.4758341
-0.77035016 -0.12876514 2.4688947
-0.73579723 -0.13548963 2.4725266
-2.3361983 -0.075301848 2.4780118
-2.3377018 -0.029558877 2.480376
-2.3536994 0.035290945 2.4685316
-2.3481622 0.0085797366 2.4772415
-1.2860039 0.026028298 2.4847057
-2.3556769 0.077075221 2.4554255
-2.3476505 0.077411227 2.4827235
-1.3058792 0.058592644 2.4927673
-1.2820991 0.0706193 2.4616876
-2.3536406 0.12308784 2.4659138
-2.3478105 0.11547079 2.4744065
-2.3561568 0.17824247 2.4684029
-2.346036 0.16220188 2.4989376
-1.3060912 0.19473581 2.4880464
-1.2857279 0.17951441 2.459657
0.57963461 0.16824813 2.4699476
0.66334152 0.16816926 2.4544404
0.70076597 0.16851273 2.452642
1.0264364 0.16762172 2.456264
-2.3556275 0.22311342 2.4761167
-1.3117657 0.20860319 2.498081
-1.2713075 0.20419073 2.4501319
-2.3552234 0.27715439 2.4781601
-2.3567183 0.32390901 2.4820144
-2.3592219 0.37330553 2.4757078
-2.3634121 0.42509443 2.4757929
-2.3686974 0.48020005 2.4726701
-2.3628762 0.52384919 2.473376
-2.3457456 0.54202801 2.4809265
-2.3626509 0.58298069 2.4765017
-2.3476667 0.55613041 2.4654651
-2.3717294 0.62416857 2.4776688
-2.3733618 0.66872168 2.4723258
-2.3798852 0.71738768 2.4721284
1.4777853 0.7037912 2.4808865
-2.3778312 0.77143425 2.4786615
-2.3826842 0.81771004 2.474256
-2.3827498 0.87046719 2.4710011
-2.4061136 0.92082769 2.4500725
-2.3925467 0.92218906 2.4849603
-2.4041262 0.96604192 2.4644747
-2.397707 0.9802351 2.4762313
-2.4021764 1.0278575 2.472661
-2.3965411 1.0329201 2.4804628
-2.4084089 1.0707635 2.464026
-2.3980179 1.0732815 2.4836059
-2.4092278 1.1220859 2.4781952
-2.4152253 1.1735227 2.4780476
-2.4150219 1.2313536 2.4793446
-2.4211559 1.2795566 2.4598181
-2.4320199 1.3249745 2.4788644
-2.4382942 1.3805345 2.4692609
-2.44017 1.4221264 2.478147
-2.4438307 1.4748384 2.4775021
-2.4565349 1.5459064 2.4817517
-2.4476953 1.5149472 2.4862514
-2.4560714 1.579618 2.4628804
-2.4468536 1.5791252 2.46943
-2.4555902 1.6244366 2.4750926
-2.4572134 1.673203 2.4752963
-2.4578021 1.7317568 2.4705119
-2.4554727 1.7785939 2.4759476
-2.5224419 2.3250487 2.4606831
-2.4800119 2.3296299 2.4650674
-2.424583 2.3391497 2.4802575
-2.3934841 2.3449285 2.4978099
-2.466475 2.3531089 2.4595618
-2.4135432 2.356035 2.4571052
-2.370127 2.3708034 2.4764113
-2.3319466 2.3937395 2.4756639
-2.2809384 2.3970077 2.472481
-2.3420825 2.4038994 2.4560356
-2.2245135 2.4053452 2.4786782
-2.1825087 2.4180033 2.4732406
-2.118109 2.41153 2.4776938
-2.0710394 2.4163637 2.4744368
-2.0255053 2.4192793 2.4810805
-1.9731983 2.4209116 2.475991
-1.9319345 2.4265943 2.4803631
-1.8899817 2.4223363 2.4902177
1.9291763 2.4387608 2.490916
1.9740529 2.4308438 2.4707394
2.0253952 2.4413342 2.474391
2.0711021 2.444937 2.4779589
2.1198566 2.44151 2.4754469
2.1775 2.4422326 2.4698849
2.231235 2.4433427 2.478447
2.2726817 2.4448304 2.4852796
2.3174505 2.4442058 2.4754407
2.3920407 2.4457567 2.4930532
2.4270871 2.4435551 2.4797237
2.4807336 2.4409456 2.4828236
2.5172155 2.4397111 2.46999
2.5632193 2.4374437 2.4949601
2.0836537 2.4576998 2.4615405
2.325032 2.4521127 2.483376
2.3615394 2.4521065 2.4801667
-2.2184865 -0.51081753 2.5348134
-1.1620183 -0.52705407 2.5183177
-1.142298 -0.52712792 2.5129766
-0.26766944 -0.54152638 2.5337889
-0.24443993 -0.54461384 2.549895
-2.1889014 -0.47472146 2.5130339
-1.1674989 -0.47070667 2.5384037
-0.63405234 -0.47468311 2.539011
-2.1867959 -0.42073703 2.5114357
-1.1724138 -0.4298043 2.5419154
-1.1436522 -0.43639559 2.5395589
-2.2082105 -0.3690955 2.5144982
-2.1903045 -0.38666943 2.524955
-1.1543305 -0.3639687 2.5381701
-1.14347 -0.39071783 2.5444005
-2.2181575 -0.32355168 2.5200231
-0.81145805 -0.32946411 2.5076208
-0.76887399 -0.32363468 2.5205309
-2.3690557 -0.27821201 2.5154529
-2.2771628 -0.27376151 2.5168507
-2.2384453 -0.28701442 2.5151317
-1.3201336 -0.26305926 2.5257924
-1.2701831 -0.26096866 2.5198326
-0.80235082 -0.2767818 2.5464699
-0.77107817 -0.27900231 2.519495
-0.74244833 -0.28360245 2.5236747
-2.3312409 -0.23030953 2.5223553
-1.3240505 -0.2494231 2.5192795
-0.80022889 -0.21328714 2.5437863
-0.77978033 -0.23158437 2.5412621
-2.3295155 -0.17619593 2.5241003
-0.81770182 -0.18160638 2.5371494
-0.77344537 -0.19095202 2.5184798
-0.74184805 -0.17372702 2.5281703
-2.3270583 -0.12217803 2.5241091
-0.81426138 -0.1256429 2.5496216
-0.77473611 -0.12335987 2.5084257
-2.3316312 -0.079209313 2.5275822
3.097218 -0.051547073 2.5454562
-2.3300731 -0.029917248 2.5296261
-2.3421507 0.023994589 2.5137718
-1.3288336 0.026627317 2.5370071
-2.342386 0.078021586 2.52266
-2.3424699 0.12400892 2.5114567
-2.3502669 0.18557581 2.5020399
-2.3421962 0.1671021 2.530684
-2.3559768 0.23026294 2.5145452
-2.3468091 0.20970716 2.5256414
-2.3538742 0.2792457 2.5127861
-2.3444757 0.27505991 2.5371015
-0.20194039 0.2894702 2.5115752
-0.18320696 0.28845006 2.5036318
-2.3570478 0.32715398 2.5258281
-2.3458273 0.3199228 2.5437851
-0.20462447 0.329979 2.5419941
-0.18497059 0.32160887 2.5253701
-2.3632712 0.37476712 2.5268614
0.64170015 0.39307797 2.5002973
-2.3596122 0.42219362 2.5311487
0.64985722 0.4105126 2.5307348
-2.3584328 0.46877265 2.5226882
-2.3642554 0.51404512 2.5244091
-2.3649659 0.5892936 2.5229015
-2.3605461 0.63232964 2.5164065
-2.3490953 0.62846953 2.527153
-2.3682699 0.67879587 2.5222001
-2.3758719 0.7284531 2.5187159
-2.3747785 0.77814412 2.5199864
-2.3818145 0.8271867 2.5270436
-2.3837428 0.87539589 2.5204353
-2.3852735 0.92793113 2.5302854
-2.4016855 0.96990997 2.525049
-2.3960767 0.98228049 2.5469034
-2.4019027 1.0103853 2.5113387
-2.3885226 1.0256205 2.5358939
-2.4064031 1.0924476 2.5197728
-2.3930709 1.0713198 2.5315051
-2.4034965 1.1342419 2.5224473
-2.3979416 1.1085979 2.5200067
-2.416352 1.1786395 2.5204525
-2.4114928 1.2190326 2.5296447
-2.4295113 1.2846673 2.5239205
-2.4286392 1.326044 2.5181789
-2.4331355 1.3750407 2.5188949
-2.4346766 1.431695 2.5260091
-2.4386144 1.4807564 2.5287461
-2.4372003 1.5242206 2.5229769
-2.4542229 1.5722567 2.5018888
-2.4461823 1.563007 2.5210028
-2.4573085 1.6196953 2.5181644
-2.4483693 1.6251631 2.5410635
-2.4572861 1.6773084 2.5051055
-2.4486225 1.6754055 2.5262964
-2.4557941 1.7229 2.5157957
-2.445471 1.7217228 2.5211897
-2.4408798 1.7657366 2.5283349
-2.3634303 1.7644198 2.5334363
-2.3406062 1.760223 2.5411887
-2.3759761 1.8919795 2.5148494
-2.3385704 1.907486 2.5286806
-2.3685751 2.3476171 2.5207226
-2.3570373 2.3637846 2.5116241
-2.326802 2.375654 2.5280297
-2.2716076 2.388365 2.5240932
-2.2464216 2.3994503 2.5156252
-2.228905 2.4002607 2.5292268
-2.1778321 2.4138806 2.5250919
-2.1323838 2.4207535 2.5409873
-2.0758772 2.4155264 2.5268478
-2.0426383 2.4260948 2.5229623
-1.9824935 2.4253621 2.5187054
-1.9357237 2.4210091 2.528075
-1.882241 2.4217463 2.5249205
-1.8393792 2.4249835 2.5256858
-1.7758132 2.4100776 2.5418971
1.8185887 2.4206924 2.5324416
1.8725337 2.4338601 2.519083
1.9210297 2.4330864 2.5287442
1.9810498 2.4434781 2.5275097
2.027926 2.4384406 2.5243833
2.0802181 2.4387553 2.5188439
2.1275036 2.4334669 2.5219195
2.1776719 2.4354255 2.5239818
2.2308412 2.4399786 2.5283213
2.2740159 2.4376776 2.51688
2.3230619 2.4417176 2.5346489
2.3677638 2.4401393 2.52335
2.419831 2.4363036 2.525825
2.4705391 2.4304543 2.5258558
2.5199516 2.4323208 2.5170398
2.5737162 2.437289 2.5345213
2.6170795 2.4351783 2.5312312
2.6704018 2.4355698 2.5333443
-0.22974297 -0.55396855 2.5948389
-0.14771822 -0.55328357 2.5955527
-0.56357193 -0.54759395 2.5928502
-0.27460104 -0.53359741 2.5717053
-0.24144019 -0.52682269 2.5880284
-0.16834919 -0.52699333 2.5766809
-0.62947714 -0.48073348 2.5734706
-2.2110729 -0.43754768 2.5815761
-1.1783231 -0.4067626 2.5534656
-1.1483927 -0.41202897 2.5531673
-2.2176459 -0.35918096 2.5701499
-1.1750062 -0.37724894 2.5576487
-0.88746119 -0.36774206 2.5901439
-1.1886582 -0.3356272 2.5669279
-0.74418747 -0.3039147 2.5739188
-2.4149876 -0.26779839 2.5656657
-2.3766482 -0.27635083 2.5630045
-2.3384874 -0.26457465 2.5713551
-2.2647302 -0.2923817 2.5735841
-1.2781084 -0.2520594 2.567729
-1.2484635 -0.26328632 2.5538816
-0.85776484 -0.28903431 2.5910273
-0.80785024 -0.25967839 2.5652573
-0.78335047 -0.26208726 2.5619183
-0.74604118 -0.25387779 2.5839984
-2.3287306 -0.22537535 2.5783253
-0.82084876 -0.22232436 2.5728557
-0.77311915 -0.22333892 2.5736325
-0.74805921 -0.23545782 2.5921865
-2.3294098 -0.17381096 2.5794957
-0.83937526 -0.18356773 2.5621965
-0.75809675 -0.19022019 2.5829458
-2.3323982 -0.1209323 2.5853004
-0.81502986 -0.10770799 2.5738034
-0.77180463 -0.10857305 2.564599
-0.74157786 -0.13875365 2.5742722
3.1270638 -0.11480117 2.5684114
-2.3338714 -0.073004916 2.5693748
-0.81416988 -0.084585704 2.5787828
-0.77284086 -0.078110307 2.5686796
-0.74815255 -0.07630866 2.5988317
-2.339834 -0.030364245 2.5839345
-0.784814 -0.025310654 2.5867858
-2.3426616 0.024289869 2.5723939
3.1083007 0.010702617 2.5548396
3.1566648 0.038042847 2.5943379
-2.3424525 0.078908361 2.57412
3.1599047 0.056217115 2.5966899
-2.3442259 0.12571774 2.5714612
-2.3538632 0.17381835 2.5943308
-2.3424437 0.17739391 2.5619667
-2.3543243 0.20461199 2.5781732
-2.346024 0.23183289 2.5640609
-2.3569517 0.28355944 2.5794828
-2.3481998 0.25179774 2.5825183
-2.3609138 0.32836217 2.5831943
-0.20552622 0.32325009 2.5538573
-0.17129453 0.3303 2.5946677
-2.3575654 0.37755531 2.5647285
-2.3499041 0.36184433 2.5730517
-2.3514662 0.42957476 2.5732281
-2.3422654 0.42607209 2.5858727
0.65947145 0.44045067 2.5830147
3.0028613 0.44519883 2.5963235
-2.3579056 0.47459489 2.5781162
0.65304124 0.45879865 2.5905411
-2.3602684 0.52284908 2.5757415
2.9335492 0.51023108 2.5898738
-2.3766031 0.57082963 2.5738719
-2.3670826 0.61679584 2.5684242
-2.3655403 0.6688931 2.5676119
-2.3746126 0.72136432 2.578198
-2.3803062 0.77174807 2.5752757
-2.3769901 0.81614888 2.5673163
-2.3790393 0.876194 2.5733168
-2.3782179 0.91910791 2.5656524
1.9729249 0.93186545 2.5998061
-2.386548 0.97802663 2.5752065
-2.3841145 1.0184469 2.5750415
-2.3904817 1.0672156 2.5766814
-2.4034545 1.139035 2.5658181
-2.386493 1.1171616 2.5643413
-2.4064503 1.180065 2.5670424
-2.3979182 1.1608152 2.5846145
-2.4084837 1.2298293 2.5816486
-2.4147084 1.2735265 2.576884
-2.4281764 1.3268665 2.5671446
-2.4218595 1.3707801 2.5783463
-2.4292214 1.4241233 2.5719471
-2.432085 1.476233 2.5816855
-2.4337208 1.5322059 2.5799441
-2.4339199 1.5790225 2.5778894
-2.4363923 1.6315686 2.5690122
-2.440042 1.6747456 2.5697711
-2.431783 1.7291688 2.5762303
-2.4119086 1.7644744 2.576376
-2.3595335 1.7875967 2.5945809
-2.3396697 1.8383166 2.5738394
-2.3318048 1.898675 2.5652473
-2.3383868 1.9216737 2.5612612
-2.408165 2.3307524 2.5794561
-2.3783071 2.3336933 2.5827985
-2.3256693 2.3415844 2.5878601
-2.400516 2.3513651 2.5513654
-2.3632417 2.3513074 2.5783892
-2.3187706 2.3624897 2.5678287
-2.2744937 2.369854 2.5814638
-2.2406561 2.3887138 2.5768621
-2.2160022 2.4068291 2.5720329
-2.1650484 2.409857 2.5746868
-2.115252 2.4131954 2.5695622
-2.0806797 2.4143422 2.5799749
-2.0224128 2.4225049 2.5735831
-1.9733315 2.4157503 2.5660164
-1.9211581 2.420316 2.5753825
-1.8668813 2.4139671 2.5742936
-1.8262243 2.424824 2.5744107
-1.7648529 2.4152369 2.5831182
-1.7383139 2.4186063 2.5767379
-1.6898044 2.4117639 2.594521
1.7471678 2.430933 2.5903208
1.7777714 2.4267664 2.579684
1.8184319 2.4247577 2.5692639
1.8845234 2.4342456 2.5742981
1.9365687 2.4363225 2.5799351
1.9734877 2.4383466 2.5666454
2.0227909 2.4364343 2.5746262
2.0760105 2.437849 2.578083
2.1242933 2.4364994 2.5729933
2.1769612 2.4321539 2.5745542
2.2250071 2.430613 2.5727959
2.2775712 2.4334064 2.5751951
2.3301556 2.4402149 2.5729833
2.3810709 2.4352424 2.5748234
2.4328783 2.4305 2.5765171
2.4888918 2.429209 2.5815084
2.5293448 2.4247179 2.5761693
2.5750337 2.4283433 2.5655234
2.6396568 2.4421947 2.5927465
2.681298 2.4440353 2.5820827
2.7208612 2.4431233 2.5843866
2.751971 2.4335539 2.5936239
-0.20811792 -0.56212538 2.6139975
-0.18037228 -0.56331754 2.6106937
-0.12964235 -0.55678928 2.6126606
-0.26961717 -0.52654314 2.6169262
-0.22657424 -0.53291869 2.618922
-0.19911876 -0.53737658 2.6102908
-0.14888765 -0.5386374 2.6187186
-0.58683878 -0.46171382 2.6201258
-2.2271194 -0.41750237 2.603514
-0.60597593 -0.44064605 2.6486831
-0.90573686 -0.36345908 2.6031308
-2.2843854 -0.31263176 2.6238019
-2.2459402 -0.34053856 2.6055663
-2.321326 -0.26713324 2.6258729
-2.267122 -0.29471654 2.6054776
-1.25941 -0.25500011 2.6093819
-1.2239053 -0.25322351 2.6001701
-0.75156677 -0.28386962 2.6250944
-2.3227153 -0.2199757 2.6311064
-0.85045165 -0.21977185 2.6155851
-0.84096235 -0.23186979 2.6068239
-0.75314033 -0.21140333 2.6112585
1.7483681 -0.23024543 2.6361108
-2.3326049 -0.16858652 2.6231842
-0.76195568 -0.19444561 2.6428244
-2.334578 -0.1292343 2.6272523
-0.85576504 -0.11701985 2.6363871
-0.84633881 -0.12860331 2.6069477
-0.76236826 -0.10922616 2.6240444
-0.74901426 -0.14257452 2.647599
2.7097857 -0.10024802 2.6478443
2.7818761 -0.11839177 2.6370738
2.8218775 -0.11578991 2.6396353
2.8639095 -0.11993587 2.6333745
3.0786941 -0.12087782 2.64011
3.1309104 -0.12880401 2.6240802
3.1523139 -0.10739429 2.622736
-2.3322127 -0.077800453 2.6188474
-0.83795452 -0.077531509 2.6251538
-0.7487027 -0.089109249 2.6004789
2.6473248 -0.09922839 2.6489904
2.7205148 -0.074936643 2.6430993
2.7815201 -0.071341887 2.6381619
2.826242 -0.06758666 2.640274
2.8649962 -0.067956917 2.6358979
3.0213985 -0.069823809 2.6451814
3.0654688 -0.073817514 2.6367984
3.1168091 -0.07970801 2.6271489
3.1616769 -0.0712284 2.6314383
-2.3322132 -0.030610459 2.6195915
-0.82641077 -0.028391156 2.6328971
-0.76566911 -0.019116549 2.6133952
2.4965222 -0.04787695 2.6491346
2.7391667 -0.049719252 2.6458733
2.7679234 -0.049902316 2.641659
3.0204804 -0.025192834 2.6450043
3.0738027 -0.025311064 2.6412969
3.1385694 -0.025605807 2.6463056
3.163511 -0.025611162 2.633616
-2.3363028 0.024508072 2.6241572
2.8252177 0.022029774 2.6446707
2.8580711 0.018701853 2.6300786
3.0066159 0.01046169 2.6328807
3.0706532 0.019642321 2.6385672
3.12731 0.015310389 2.6283879
3.1558685 0.02911428 2.6271122
-2.3426561 0.079891421 2.6303203
1.6900882 0.071884096 2.6408145
2.7707658 0.052509643 2.6441581
2.8204901 0.058698352 2.6375768
2.862699 0.053361893 2.6338966
3.0263214 0.067047 2.6382225
3.0739422 0.06161949 2.635246
3.122304 0.068068646 2.6206129
3.1598248 0.056495376 2.6299913
-2.3438237 0.12735432 2.6299765
-2.3522398 0.16692592 2.6226039
-2.3462439 0.17920327 2.6375082
-2.351253 0.23958389 2.6465392
-2.3466172 0.21916428 2.6248822
2.1583242 0.20846084 2.6434987
2.6145661 0.217271 2.6405663
2.6735535 0.22550964 2.6468947
2.7154744 0.22151344 2.6464636
2.7811823 0.21557005 2.6466141
2.8261955 0.22934075 2.6430728
2.8789463 0.22788228 2.6404281
2.9230733 0.23303692 2.634593
-2.3539913 0.27383724 2.6287444
2.7220945 0.27302098 2.6486771
2.7531009 0.27444759 2.6468112
2.8285515 0.2738311 2.6464095
2.8689377 0.28874153 2.6421471
2.9328196 0.27143279 2.642406
2.972801 0.27888724 2.6337612
3.012538 0.28639427 2.6241915
-2.3545418 0.32105705 2.6186969
-2.3459249 0.32637948 2.6324601
2.7956378 0.34593651 2.6481988
2.8247492 0.3301222 2.6452694
2.8692958 0.32902813 2.6415629
2.9270077 0.31839418 2.6434824
2.9771879 0.32101461 2.6389332
3.0218012 0.32300007 2.6286085
-2.3561778 0.37437919 2.6235116
-0.20067848 0.3824057 2.6484942
-0.19367309 0.36846378 2.6414244
2.173614 0.37269929 2.6472738
2.7817633 0.37104726 2.6479478
2.820776 0.38225117 2.6460879
2.8896987 0.36922261 2.6443956
2.9346173 0.37217084 2.6442649
2.9762325 0.37081265 2.6357188
3.0217149 0.38156897 2.6300242
-2.3577752 0.4216319 2.6282146
0.66102123 0.43860796 2.6252038
2.7842321 0.42303094 2.6434426
2.8284645 0.4221811 2.6453533
2.8724959 0.41616076 2.6386302
2.9216349 0.4278163 2.6381431
2.975301 0.42854285 2.6406078
3.0161445 0.42725071 2.6306734
-2.3570852 0.47871295 2.6174674
0.65887612 0.4875555 2.6289489
2.1847448 0.46809024 2.6483891
2.8270864 0.46173573 2.6463857
2.8712542 0.47851691 2.6446886
2.927537 0.47839931 2.6392825
2.9746342 0.47709656 2.6193614
-2.3582304 0.52853906 2.6258202
0.64921635 0.50394636 2.623939
0.66167766 0.51509166 2.6460238
1.1282041 0.53552145 2.6478896
2.8927314 0.52983254 2.6481717
2.9311345 0.52321398 2.635236
-2.3613064 0.57824314 2.6280468
1.5549878 0.55045611 2.6151125
2.0308867 0.592857 2.6237087
2.0853739 0.58441257 2.6374745
2.8336849 0.57777888 2.6492968
2.8662219 0.58962291 2.6451917
2.9334025 0.57845759 2.6441135
2.9549048 0.57034022 2.6320307
-2.3622227 0.62661344 2.6194942
2.0297978 0.60772222 2.6194539
2.3594551 0.6382075 2.6454482
2.5352306 0.62348354 2.6421967
2.5736935 0.63724017 2.6490083
2.6295252 0.63432658 2.6445405
2.6745663 0.63907611 2.6418662
2.7234201 0.63605261 2.6434944
2.7846713 0.63366485 2.6396165
2.8235271 0.62790221 2.6293433
2.9022248 0.60227484 2.6436524
-2.3738592 0.67808604 2.621989
1.5539637 0.66891259 2.6234775
2.2905009 0.68844634 2.6458735
2.3200648 0.67486733 2.642895
2.3744259 0.69909227 2.6498535
2.4832523 0.66821492 2.6389878
2.5265083 0.6829794 2.646493
2.5791204 0.67147261 2.6420243
2.6268861 0.67804229 2.648519
2.6656139 0.68148237 2.6395066
2.7226698 0.67020112 2.635263
2.7818525 0.6732772 2.6314836
2.8157802 0.68038273 2.6269348
2.8503566 0.68243968 2.6102076
-2.3740139 0.73224211 2.6253331
2.2963812 0.70625001 2.6490471
2.3212256 0.70896149 2.6471658
2.3765092 0.71596146 2.6484239
2.4946918 0.74825919 2.6493125
2.5317276 0.72138846 2.6455007
2.5785317 0.73310173 2.648813
2.6083162 0.72714585 2.641665
2.6678596 0.72463423 2.6317639
2.7223804 0.71843421 2.6320674
2.7700603 0.72964054 2.6364522
2.8232994 0.70836651 2.6278977
2.8632402 0.72062021 2.6137869
-2.3748784 0.77666986 2.6280122
1.5484964 0.77288848 2.6237426
2.4754319 0.78892279 2.6494598
2.5311513 0.76549983 2.6453931
2.5688758 0.77764094 2.6400576
2.62146 0.77199745 2.6364031
2.6785941 0.76723158 2.6407559
2.7291183 0.77825707 2.6380086
2.7646477 0.78262544 2.6344507
2.8191452 0.7731449 2.6415322
-2.3781846 0.82611609 2.624325
1.5734813 0.83580571 2.621381
2.1719952 0.8322863 2.6388862
2.4311523 0.84309453 2.6484308
2.4815154 0.82413483 2.6471131
2.5228715 0.82397604 2.6419373
2.5781896 0.82825941 2.640151
2.6205316 0.82521355 2.6378961
2.6699798 0.82416278 2.6415207
2.7331324 0.83299005 2.6387661
2.7754889 0.82056069 2.6354437
2.824728 0.8273589 2.632755
2.9695351 0.82707429 2.61237
-2.3818245 0.87792933 2.6198449
2.1929164 0.87331206 2.6338127
2.2729816 0.8859973 2.6371417
2.3738453 0.88659894 2.6488261
2.4124374 0.88356602 2.6473589
2.4940968 0.87012959 2.648787
2.5260038 0.86227608 2.6436393
2.5639069 0.87979013 2.642833
2.6193938 0.8730098 2.6364524
2.6714075 0.87609529 2.6283114
2.7312577 0.87575155 2.6246023
2.7754753 0.86992013 2.6300054
2.8103065 0.86960983 2.6233497
2.8820722 0.88975704 2.6213295
-2.3767552 0.92132121 2.628526
1.6853553 0.90037 2.6376462
2.036494 0.91336393 2.6435568
2.1970971 0.92491132 2.6350813
2.2898622 0.92504728 2.6470823
2.3750057 0.9034487 2.6453006
2.4245949 0.94606835 2.6431966
2.4692733 0.93040228 2.6460092
2.5125241 0.91379112 2.6462226
2.5803204 0.92223567 2.6453354
2.6291623 0.92189628 2.6393819
2.6707783 0.93610901 2.6349785
2.7214165 0.92594719 2.6331818
2.7880661 0.9313221 2.6276348
2.8242152 0.91797632 2.6232412
2.869693 0.92114496 2.625396
2.9178391 0.9132058 2.6153557
2.9603994 0.90288895 2.6254983
-2.3814456 0.96580422 2.6203294
1.9741392 0.97049433 2.6220007
2.0047412 0.96241069 2.6370423
2.2043905 0.98868728 2.6468244
2.2637107 0.95324934 2.6376135
2.3270125 0.96617013 2.6487768
2.4201157 0.96415448 2.6486759
2.4750881 0.97278726 2.6451058
2.5306067 0.98807663 2.6439064
2.5853426 0.97343355 2.644007
2.6215959 0.98237592 2.6389885
2.6735926 0.96886504 2.6362376
2.7182636 0.97570527 2.6312432
2.7824478 0.96651989 2.6221664
2.820159 0.9813453 2.6164055
2.861979 0.96892226 2.6114006
2.9270375 0.97187138 2.6179707
-2.3930104 1.0261313 2.6279757
2.194519 1.0478561 2.6471479
2.2067685 1.013872 2.6418514
2.3160174 1.0340145 2.6458385
2.4831803 1.0467424 2.6472213
2.5209827 1.0265663 2.6480875
2.5736434 1.0256313 2.64166
2.6324069 1.0267291 2.6398509
2.6853251 1.0252149 2.6305346
2.7433293 1.0197893 2.6439497
2.7808039 1.0191742 2.6379173
2.8121784 1.0301088 2.6326311
2.8518929 1.0249263 2.6175511
2.9262755 1.0297756 2.6217937
-2.4015052 1.0795372 2.6197968
-2.3993814 1.0823274 2.6332722
2.201566 1.0835558 2.644444
2.474683 1.0778081 2.646457
2.525341 1.0726154 2.6458602
2.5869274 1.065249 2.6434088
2.6164989 1.0704002 2.6411629
2.6612153 1.0572321 2.6272182
2.7408872 1.062795 2.6264348
2.7835813 1.0636364 2.637424
2.8408248 1.0898041 2.6186726
-2.4069488 1.1232357 2.6311994
2.2092719 1.103573 2.6479204
2.5131693 1.1194633 2.6459162
2.5765259 1.1324216 2.6473839
2.6325889 1.1302466 2.6437769
2.6673996 1.1178045 2.6415365
2.7814374 1.1194611 2.6327014
2.8237143 1.1258152 2.6228004
2.8928342 1.10287 2.6331592
2.9250534 1.1408725 2.6290662
2.9637601 1.1343482 2.6235518
-2.4049554 1.1555551 2.63025
-2.395426 1.1800888 2.6258941
2.4065514 1.1603438 2.6483576
2.4919264 1.1769648 2.6446517
2.5138278 1.1792494 2.6356604
2.6210983 1.1750307 2.6427114
2.8256721 1.1659511 2.6277838
2.8623567 1.1610402 2.6153245
-2.4086041 1.2202328 2.6268106
-2.3998125 1.2452542 2.6227167
2.2377043 1.2163804 2.644578
2.2646194 1.2220635 2.6447046
2.5144455 1.209269 2.6421871
2.5743327 1.2128066 2.6430316
2.6295488 1.2049921 2.6409183
2.6920078 1.2392156 2.6466987
2.7255263 1.2464929 2.6463959
2.8200483 1.2032123 2.6252532
-2.4063838 1.2784547 2.6352022
2.6748023 1.2748427 2.6480117
-2.4169898 1.3222644 2.6266162
2.5990262 1.3163002 2.6482086
2.698035 1.339442 2.6481099
-2.4167793 1.3774366 2.6305981
-2.4176481 1.426406 2.6236796
-2.419143 1.4802544 2.6295676
2.6781373 1.4959981 2.6453915
2.7469618 1.4910009 2.6376133
2.7820811 1.491029 2.641984
2.8154569 1.4899218 2.6442592
-2.4262455 1.5313591 2.624017
2.6715991 1.5154119 2.6468601
-2.4219522 1.5698577 2.6107569
-2.4338322 1.6298677 2.6249628
-2.4384832 1.6859729 2.6306551
-2.4214845 1.7305293 2.6205108
-2.4044981 1.7550697 2.6418345
-2.3974588 1.7838049 2.6280353
-2.3747251 1.8303052 2.6340575
-2.3935134 1.9308666 2.6445179
-2.3886244 1.9959818 2.6385145
-2.42295 2.2428367 2.6205649
-2.3531995 2.2855179 2.6073887
-2.2821236 2.2978678 2.6341233
-2.362483 2.3132062 2.6043546
-2.2825654 2.3260949 2.606405
-2.2673652 2.3543766 2.6213949
-2.2326732 2.3784702 2.6261547
-2.2098444 2.4024701 2.6375892
-2.1813834 2.4055471 2.6279812
-2.1323254 2.4104691 2.6242924
-2.0729127 2.4186275 2.632807
-2.0186422 2.4213724 2.6286914
-1.9613371 2.41377 2.6279097
-1.9240485 2.4168189 2.627568
-1.8778558 2.4172735 2.6251161
-1.823367 2.4168539 2.6192467
-1.7692322 2.4137242 2.6326807
-1.7233893 2.4168994 2.6231658
-1.6736706 2.4174905 2.632019
-1.6359173 2.4122431 2.6383932
1.6321737 2.4169073 2.6343689
1.6746085 2.4120936 2.6278937
1.7270374 2.4230781 2.622663
1.771021 2.4250691 2.6287713
1.829863 2.4235635 2.6288185
1.8732986 2.4257562 2.6170223
1.9249721 2.4270766 2.6223848
1.9717312 2.4221983 2.6280837
2.0260129 2.4282491 2.6246493
2.0764899 2.4267197 2.6221018
2.1269732 2.4241598 2.6288905
2.175843 2.4236763 2.6289754
2.2208898 2.423116 2.6199372
2.2770641 2.4246905 2.6299531
2.3252099 2.4297864 2.6363876
2.3757384 2.4339423 2.6236522
2.4315646 2.4290717 2.6227653
2.4855685 2.434783 2.6426733
2.5093007 2.4297891 2.6162252
2.5680835 2.4297626 2.6223621
2.6184876 2.4335926 2.6256499
2.6682045 2.4299614 2.6238892
2.7183716 2.4262657 2.6218472
2.776248 2.4350338 2.6296043
2.8190856 2.4262753 2.6323454
2.8704121 2.4242418 2.6422019
-0.56054503 -0.55065435 2.6740687
-0.12630001 -0.5616312 2.677314
-0.58441168 -0.54144156 2.6924314
-0.54281521 -0.54601276 2.6533267
-0.48383451 -0.52658647 2.6988015
-0.2792553 -0.52093732 2.6747434
-0.20236586 -0.52686369 2.655426
-0.13976422 -0.5461998 2.6883612
-0.32158035 -0.49374846 2.6823494
-0.68153405 -0.42135277 2.6832695
-0.61026871 -0.43071413 2.66887
-2.278542 -0.37165904 2.6705267
-0.92983258 -0.35979798 2.6736283
-2.3036866 -0.30950713 2.6766191
-2.2975311 -0.32567152 2.6829152
-0.92896092 -0.31510741 2.6960034
-0.89755529 -0.30457777 2.6676865
-0.74659276 -0.30249256 2.679297
-2.318583 -0.2735433 2.6791763
-1.2132561 -0.28686062 2.6761639
-0.86381716 -0.26473522 2.6761529
-2.3182516 -0.22185522 2.6706779
-0.76409876 -0.23806587 2.6965637
1.7226988 -0.21079242 2.6863945
1.7761269 -0.21374957 2.6851172
1.8006676 -0.20572782 2.6870191
-2.3244908 -0.17398621 2.6658084
1.7232783 -0.17443387 2.6892385
1.77791 -0.17549059 2.6839688
-2.3281972 -0.12651466 2.6722724
-0.76561695 -0.12658155 2.6743326
-0.74535489 -0.13779484 2.6837842
1.7225065 -0.12338426 2.6901333
1.7759622 -0.12403303 2.6831474
-2.3299506 -0.078831695 2.6758158
-0.76459992 -0.064971097 2.6561904
1.7205837 -0.072323956 2.6885142
1.7752835 -0.072756499 2.683548
1.9771347 -0.074746475 2.6786404
2.0326328 -0.075376846 2.6797073
2.0735781 -0.075736396 2.6745083
2.123724 -0.078476571 2.6734569
2.170789 -0.071572825 2.6699078
2.2207026 -0.07339479 2.6667435
2.2791171 -0.068624362 2.6709437
2.3321476 -0.070915341 2.6787834
2.3629649 -0.07110136 2.6688309
2.4222627 -0.073341295 2.6655116
2.4748991 -0.069634773 2.6662438
2.5219865 -0.07279788 2.6602616
2.5809505 -0.073493801 2.6600418
2.6294065 -0.078161776 2.6549315
2.6711655 -0.077264145 2.6523981
3.1062002 -0.052731771 2.652143
-2.3314857 -0.031045042 2.6783133
-0.76668441 -0.01294532 2.6639097
1.6986796 -0.014067796 2.6846788
1.7281296 -0.014117763 2.6860924
1.7530755 -0.014129741 2.680104
2.0330095 -0.044984251 2.6807339
2.075458 -0.045221023 2.6774993
2.1200652 -0.04549491 2.6757483
2.1762445 -0.04583158 2.6721404
2.2315681 -0.04630591 2.680335
2.2759507 -0.046538815 2.6735489
2.3309064 -0.046976835 2.6777792
2.365901 -0.047170468 2.6725702
2.4203937 -0.047573738 2.6730385
2.4705205 -0.047878519 2.6670074
2.5326812 -0.048233163 2.6566732
2.5856431 -0.048731972 2.6653476
2.6253476 -0.048971921 2.6592634
2.668395 -0.049265288 2.6554146
3.1138048 -0.034678452 2.6588542
-2.3326113 0.025883645 2.6774042
1.697088 0.0076596253 2.6821558
1.7249241 0.014991433 2.6909885
1.752031 0.00044823176 2.6785214
2.6270516 0.017800333 2.6611974
2.6502905 0.0095172022 2.6533818
2.7871101 0.027050201 2.6601233
2.8112488 0.0013183887 2.6510522
3.0310819 0.037400983 2.6540596
-2.3363361 0.080725044 2.6828556
1.716864 0.072419316 2.6531003
1.7519711 0.073294632 2.6775932
-2.3389497 0.12877466 2.6842234
-2.338516 0.17673586 2.6813614
2.083163 0.19941708 2.6668074
-2.3422868 0.22493243 2.6795774
2.0995784 0.21483652 2.6574748
2.1311266 0.21996899 2.6734579
2.1561031 0.2252568 2.6689925
2.3231597 0.23993045 2.6747978
2.3730645 0.2287893 2.6693091
2.428684 0.22799437 2.6739025
2.484283 0.23018211 2.6733181
2.5314982 0.2349896 2.6648791
2.5847449 0.22389574 2.6655626
2.6272936 0.23503862 2.6521523
2.6595721 0.23644903 2.6531875
2.7238567 0.23919721 2.6533153
2.7668712 0.22830807 2.6559293
2.8555849 0.21000522 2.6526775
-2.3556669 0.25597936 2.6502204
-2.3425093 0.27316412 2.6790082
2.1433136 0.27975684 2.6783378
2.1583307 0.27970886 2.6674888
2.3451931 0.27346182 2.6823833
2.3774137 0.27443096 2.6735704
2.4331253 0.27714112 2.6747844
2.4840119 0.27943996 2.6720004
2.5200937 0.28103885 2.6689837
2.5672402 0.27478829 2.6649668
2.6265404 0.26924142 2.6641247
2.6823041 0.27155384 2.6570675
2.7277164 0.27359286 2.654098
2.7768044 0.27168018 2.6538198
2.8026261 0.29496986 2.660373
2.8927786 0.26401162 2.6502514
-2.353214 0.32158849 2.6715505
-2.3464839 0.32176721 2.6789618
0.58300889 0.32575607 2.6763086
0.60269946 0.32584476 2.6741385
1.2453578 0.3277806 2.6565549
1.4988986 0.34212321 2.6981728
1.5242183 0.34302068 2.6962802
1.5567878 0.34392613 2.6911323
2.1350815 0.32619163 2.6783931
2.1730828 0.33063129 2.6690903
2.3785565 0.32103318 2.6769044
2.4371614 0.3264493 2.6744592
2.4823956 0.33281302 2.6695642
2.5233424 0.32790345 2.6724138
2.5801177 0.32101482 2.670821
2.6291773 0.32340553 2.664685
2.6701901 0.31805712 2.664201
2.7207687 0.32483777 2.6580939
2.7804019 0.32464924 2.6552567
-2.355273 0.37427571 2.6802483
-2.3437676 0.35464382 2.6875362
-0.20304357 0.39980879 2.6784573
-0.18943796 0.3854664 2.6703148
0.67406833 0.36834753 2.6851356
1.1943901 0.36299729 2.679234
1.2208457 0.35786948 2.6862712
1.4986762 0.35631284 2.6963995
1.5239697 0.37685814 2.6977088
1.5582749 0.37292495 2.69081
2.1346116 0.36941689 2.6806459
2.1675448 0.37478006 2.6742535
2.3811338 0.36817306 2.6757731
2.4163568 0.37754321 2.6730762
2.4643648 0.37696746 2.6679132
2.5241821 0.38110825 2.6702557
2.5820823 0.36817276 2.670644
2.6288264 0.37069434 2.6636665
2.6735473 0.37379807 2.6659584
2.7236931 0.37634441 2.654974
2.7685833 0.37904418 2.6503723
2.8026552 0.38136047 2.6506453
2.8716712 0.38605917 2.6501973
-2.3553598 0.42842191 2.6672382
-2.3476579 0.41161814 2.6851087
-0.19081023 0.40119991 2.6884041
0.58440429 0.4310213 2.6728547
0.60665393 0.43291914 2.6816814
1.1417567 0.42710811 2.657793
1.4871695 0.43543401 2.6986139
1.5289096 0.41572762 2.6969786
1.557682 0.42291984 2.6842031
2.1197629 0.42200381 2.6746275
2.1672645 0.42247257 2.6779802
2.388459 0.42266461 2.6849658
2.424264 0.42469034 2.6789687
2.480952 0.42889977 2.6794007
2.5294967 0.43160549 2.6692877
2.5802772 0.41487628 2.6659088
2.6223369 0.42559391 2.6656213
2.6738148 0.42493343 2.6626756
2.7303317 0.42855546 2.654573
2.777596 0.43197155 2.6520061
-2.3543103 0.48028523 2.6646047
-2.3488955 0.45213497 2.6809828
-0.20343666 0.45226803 2.6782064
-0.19085282 0.45306581 2.6835608
0.58653259 0.45881772 2.6797462
0.61052537 0.46208304 2.6958501
0.65917152 0.48543689 2.6675014
1.1562386 0.46684146 2.687413
1.5577488 0.46805739 2.6944637
2.1290793 0.47247091 2.6848395
2.1794736 0.47352171 2.6797566
2.3891208 0.47144422 2.6787348
2.4250648 0.47374809 2.6727412
2.4809253 0.47494572 2.6804755
2.5238688 0.48176923 2.6714203
2.5803156 0.46455514 2.663516
2.6285102 0.47673002 2.6692092
2.6803696 0.47698215 2.6615946
2.7201481 0.47953987 2.6529477
2.7744389 0.4759545 2.6585686
2.8294926 0.47125745 2.6527297
-2.3569872 0.52798015 2.6681654
0.59358513 0.51166075 2.6745212
0.64744568 0.53906703 2.6685688
0.66759855 0.53550553 2.6817498
1.5861704 0.53178114 2.6847885
2.0326812 0.5345757 2.6514928
2.0812767 0.53164363 2.6766202
2.1309309 0.52905691 2.6800647
2.181072 0.51950151 2.6811931
2.2008882 0.50294125 2.6631382
2.3947093 0.52134806 2.6772137
2.4277649 0.52002519 2.6762218
2.4762371 0.53074235 2.6739676
2.5275862 0.52792519 2.6784973
2.5750825 0.52032346 2.672775
2.6298673 0.52460986 2.665931
2.6770325 0.52898645 2.6657429
2.7164474 0.52863872 2.6604807
2.7718682 0.51509893 2.6577857
2.8212416 0.52780515 2.6595888
2.8620605 0.52740449 2.6526921
-2.3557465 0.57874346 2.6785336
0.51612139 0.56547832 2.6847739
0.66873682 0.5590139 2.6973352
1.1393495 0.57505494 2.6689308
1.3911273 0.587901 2.6899824
1.4810729 0.58846623 2.6980247
1.5293217 0.58330315 2.6904371
1.5678945 0.56982636 2.681637
2.0354857 0.55059242 2.6525846
2.0847092 0.56540501 2.6703739
2.1154132 0.56170654 2.681078
2.1727147 0.55865443 2.6792459
2.3852937 0.56375676 2.669255
2.431042 0.56818104 2.6688535
2.4678595 0.56619936 2.668855
2.5286524 0.56761479 2.67788
2.5756042 0.56842828 2.6743667
2.625406 0.56365281 2.6596549
2.6724708 0.5745936 2.6635237
2.7296035 0.57177651 2.6593835
2.7709072 0.56330365 2.6564975
2.8149533 0.57656515 2.6561284
2.8662784 0.56329405 2.65029
2.9155741 0.56836551 2.6515923
-2.3649714 0.61966485 2.6868136
1.1439605 0.61171716 2.6742868
1.3890064 0.62555766 2.6963501
1.4293542 0.62667441 2.6960394
1.4834677 0.62550819 2.6916292
1.5268143 0.62513131 2.687614
1.5663973 0.62343842 2.6676097
2.3773892 0.61655378 2.6551759
2.4280529 0.63232982 2.6570542
2.4935486 0.6399886 2.6726635
2.5172417 0.63213706 2.6579845
2.5924826 0.6230166 2.6561375
-2.3641355 0.66827589 2.6757839
1.4250115 0.67289072 2.6975029
1.4715846 0.67966723 2.6970828
1.5236893 0.67726862 2.6928287
1.5631645 0.6750229 2.6868148
2.3697383 0.67590761 2.655705
2.423265 0.6762799 2.6612582
2.4681783 0.68058497 2.6543512
2.5257597 0.65854669 2.6564713
2.575366 0.68177998 2.6573644
2.6334569 0.67972219 2.6551981
-2.3704119 0.71903163 2.6719325
1.3888 0.70008278 2.6995711
1.423263 0.70301157 2.6997359
1.4829477 0.71693504 2.6982045
1.5283986 0.7293855 2.6945279
1.5674038 0.72775549 2.6839883
2.2813852 0.73062396 2.6564388
2.3214593 0.73571783 2.656924
2.3708379 0.72838593 2.6599219
2.4265645 0.72085106 2.6613114
2.475385 0.73000902 2.6586328
2.5798342 0.70820075 2.6561923
2.6363702 0.71445173 2.6502807
-2.3634825 0.77381212 2.6792984
0.48030144 0.75528193 2.679256
1.1496592 0.78740948 2.6549203
1.4804065 0.77062303 2.695663
1.5304208 0.76744694 2.6958821
1.5667911 0.77109241 2.6846116
2.2902 0.77372575 2.6569142
2.3294427 0.77878684 2.6561024
2.3793409 0.7655133 2.6589303
2.4270976 0.77484912 2.6562479
2.4640379 0.77960289 2.6549096
2.5022087 0.7755121 2.6509967
-2.3696215 0.82237536 2.6775119
1.1682328 0.81416667 2.694757
1.5673175 0.8247987 2.6921623
2.1532171 0.83840287 2.654808
2.3220208 0.82697254 2.659656
2.3714094 0.82280427 2.6555436
2.4169779 0.82180673 2.6569285
2.4605675 0.83098489 2.6536348
2.509831 0.8029359 2.6525562
-2.3781984 0.87483412 2.6736176
1.1594982 0.88840115 2.6953018
1.5467716 0.86752319 2.6977313
1.5763088 0.86783558 2.6944416
1.6215218 0.88236338 2.6864812
1.6677525 0.8880074 2.6598296
2.0890419 0.89139253 2.659488
2.1332526 0.87405187 2.6629779
2.1778481 0.87679815 2.6611109
2.2818544 0.87329364 2.6520638
2.3228827 0.87970096 2.6531
2.3727674 0.86160195 2.6546516
2.4334092 0.86788893 2.6549969
2.4791834 0.8743251 2.6522582
2.5310786 0.8940053 2.6513836
-2.3902953 0.93220234 2.6883421
1.5725631 0.92795193 2.6962745
1.6244341 0.92236465 2.6908205
1.6729579 0.92459202 2.6756206
1.724678 0.93898314 2.6676159
2.0385714 0.9398368 2.6604078
2.0779123 0.93349928 2.6614304
2.1206143 0.92288816 2.6640592
2.1765289 0.92623812 2.6653612
2.3303049 0.92655951 2.6650987
2.3697696 0.93412828 2.6571162
2.4145219 0.92877704 2.6528928
2.4622715 0.90759069 2.6557355
2.5332036 0.94003451 2.6566484
-2.4051104 0.98821652 2.6894326
-2.3750551 0.95933658 2.6610639
0.75767326 0.99437666 2.6835308
1.1397243 0.96817923 2.6649253
1.5387931 0.97701609 2.6968365
1.5835009 0.97438443 2.6953576
1.6240697 0.97121561 2.6937535
1.6721181 0.97828925 2.6885467
1.7225238 0.97747695 2.6844528
1.7804936 0.98006326 2.6764488
1.8292053 0.98589414 2.6714933
1.8715041 0.98245704 2.6657267
1.9185598 0.98507684 2.6641836
1.973691 0.99730986 2.6620524
2.0368681 0.97610795 2.6551015
2.0728467 0.97997874 2.6647413
2.1255395 0.97496194 2.6707506
2.180867 0.98088008 2.6669614
2.203999 0.96439999 2.6539793
2.3206446 0.97101599 2.6556473
2.3698654 0.97110176 2.6545434
2.4221194 0.9904967 2.6594079
2.4809389 0.97505057 2.6514335
2.5350695 0.95765156 2.6532755
2.5633819 0.9619571 2.6508293
-2.3909285 1.0218419 2.6742263
1.1561016 1.0105579 2.6954575
1.6434122 1.0234517 2.6966655
1.6659502 1.0149134 2.6939514
1.7225562 1.0299399 2.6937609
1.7753477 1.0238214 2.6882582
1.8245982 1.0235282 2.68033
1.8826984 1.02783 2.6833789
1.9284505 1.0252414 2.6765275
1.9748621 1.0253178 2.6715364
2.028378 1.0287647 2.6744225
2.0738103 1.0293978 2.6702805
2.12322 1.0205624 2.6666913
2.1766124 1.0308665 2.6616018
2.2900436 1.0133494 2.6525548
2.3215716 1.0159193 2.6589925
2.364867 1.0281749 2.6598065
2.4215262 1.0242257 2.6611001
2.4650331 1.0231438 2.6536868
-2.3910489 1.0668104 2.6658349
0.93786788 1.0714447 2.685168
1.06999 1.0808609 2.6770875
1.1060566 1.0886674 2.6805708
1.6934 1.0813057 2.6996603
1.7265849 1.0703468 2.6924868
1.7776504 1.0756762 2.6929331
1.8295765 1.0759643 2.6945314
1.8717886 1.0744166 2.6863065
1.9219404 1.0769628 2.6831963
1.9723314 1.071382 2.6765761
2.021601 1.0769174 2.6748228
2.0732138 1.0752591 2.6723118
2.1272743 1.079913 2.670948
2.1749234 1.0822816 2.6754787
2.2025425 1.0717955 2.666815
2.3251584 1.07485 2.660465
2.38182 1.0715358 2.6630788
2.4270818 1.0742748 2.654135
2.5479045 1.0596875 2.6514752
2.5861733 1.0856979 2.652689
-2.40167 1.1452017 2.6648169
-2.3920865 1.1278485 2.676362
0.94024658 1.1226789 2.6861091
0.95274824 1.103075 2.6643629
1.0887251 1.1138598 2.6757574
1.1040519 1.1150835 2.6958454
1.7303913 1.116905 2.6979227
1.7778741 1.1267544 2.6937242
1.8221673 1.1279655 2.6893563
1.8706843 1.1212237 2.688345
1.9196558 1.1287142 2.6863956
1.9737786 1.1199601 2.681644
2.0285797 1.130005 2.6839874
2.0805647 1.1233227 2.6786385
2.121634 1.1274872 2.6790695
2.1802814 1.1229501 2.6743801
2.204174 1.1336203 2.6640778
2.2991192 1.1320355 2.656877
2.3294096 1.1167459 2.6567581
2.3786683 1.1214607 2.6617072
2.4210312 1.1295667 2.6610241
2.4713199 1.1287811 2.6549056
2.525913 1.1295881 2.6518703
2.5798516 1.1038744 2.656055
-2.4018199 1.1732105 2.6777735
0.95347136 1.1628705 2.6965194
1.0387276 1.1631145 2.6737177
1.0651183 1.1687287 2.6803498
1.6948147 1.199671 2.6975465
1.7355107 1.1769102 2.6987963
1.7849381 1.1764133 2.6974895
1.8283229 1.1727927 2.6940544
1.8766519 1.1804329 2.6922002
1.9248203 1.1646245 2.6888986
1.9695344 1.1753908 2.6856306
2.0293193 1.1737273 2.690057
2.0679965 1.1711215 2.6804185
2.1291578 1.170382 2.6870191
2.1769509 1.1786983 2.6836164
2.2115757 1.1757696 2.6702604
2.3233325 1.1756319 2.6588392
2.3763006 1.1745945 2.6676662
2.435441 1.1688637 2.6587007
2.4705224 1.1811304 2.6602955
2.5698094 1.1769183 2.6552954
2.6755283 1.1788644 2.6515145
-2.4078784 1.2306502 2.6838264
1.7152358 1.2032239 2.6976287
1.7964227 1.2164879 2.6941609
1.8237642 1.2104598 2.696203
1.8711014 1.2218863 2.6954081
1.928808 1.2236595 2.6945393
1.9761457 1.2282212 2.6915259
2.0223458 1.2354604 2.6933625
2.0701928 1.2301866 2.6963828
2.1240468 1.2240067 2.6881912
2.1765721 1.2283237 2.6791298
2.2237904 1.2222764 2.6752596
2.2738905 1.2481804 2.6646411
2.3346581 1.2292824 2.6671257
2.3846815 1.2308465 2.6742618
2.427789 1.2257599 2.6676562
2.4740951 1.2233574 2.6569369
2.564044 1.2421536 2.6544361
2.6054974 1.2408762 2.6515775
2.7517362 1.2146454 2.652977
-2.4039009 1.2650524 2.6915414
-2.3963535 1.2751564 2.665226
1.9395968 1.2805651 2.6973908
1.9716202 1.2760322 2.6915867
2.0240073 1.2774881 2.691222
2.0806823 1.2735813 2.688134
2.1204152 1.2674727 2.6832418
2.1766007 1.2734834 2.682261
