ply
format ascii 1.0
comment PCL generated
element vertex 1509
property float x
property float y
property float z
element camera 0
property float view_px
property float view_py
property float view_pz
property float x_axisx
property float x_axisy
property float x_axisz
property float y_axisx
property float y_axisy
property float y_axisz
property float z_axisx
property float z_axisy
property float z_axisz
property float focal
property float scalex
property float scaley
property float centerx
property float centery
property int viewportx
property int viewporty
property float k1
property float k2
end_header
-1.824811 -0.326377 2.8701642
-1.7732047 -0.32406986 2.868103
-1.7222315 -0.32178971 2.8653841
-1.6717551 -0.32405588 2.8611977
-1.6259501 -0.31952387 2.8570557
-1.5903279 -0.30042195 2.8519397
-2.2685993 -0.28027803 2.868243
-2.2328508 -0.28276342 2.8923523
-2.1810248 -0.28685576 2.8965719
-2.1189368 -0.27631167 2.8981206
-2.0648229 -0.29034564 2.8960884
-2.0292256 -0.27612025 2.8974669
-1.9739429 -0.27063948 2.8940389
-1.9130633 -0.27238262 2.8851473
-1.8701766 -0.27715835 2.8785641
-1.8243065 -0.2795974 2.8730905
-1.7776811 -0.27552241 2.869947
-1.7283727 -0.27774596 2.8668101
-1.6712937 -0.27371061 2.8642905
-1.6243511 -0.27225649 2.864948
-1.5780606 -0.26496866 2.8543987
-2.2666659 -0.23047568 2.8693285
-2.2348521 -0.230635 2.8918502
-2.060118 -0.22519557 2.8939238
-2.0290449 -0.22443783 2.8974636
-1.9780895 -0.22273555 2.8941658
-1.9278241 -0.22349758 2.887006
-1.8723969 -0.2205499 2.8790474
-1.8233581 -0.22503091 2.8751585
-1.7728127 -0.22358036 2.8745947
-1.7218376 -0.22968154 2.8712819
-1.6729878 -0.22827546 2.8701351
-1.6239942 -0.22677994 2.8672047
-1.5665482 -0.22676124 2.8564887
-1.5369663 -0.22405429 2.8596859
-1.4094739 -0.21316858 2.8530366
-2.2714651 -0.18104424 2.8714774
-2.2404499 -0.18531182 2.8937507
-2.1541667 -0.16286708 2.899893
-2.0596135 -0.17676152 2.8958085
-2.0318344 -0.17625052 2.8987181
-1.9806302 -0.17814957 2.8966386
-1.9327358 -0.17340992 2.8864062
-1.8769627 -0.17193745 2.8814516
-1.8231578 -0.17059457 2.8776562
-1.7742099 -0.1713907 2.8755002
-1.7254868 -0.1735542 2.8748231
-1.6727588 -0.17405893 2.8695235
-1.6249713 -0.17445081 2.8660307
-1.5697923 -0.18159156 2.8593724
-1.5359098 -0.17905164 2.8599873
-1.3905909 -0.16117527 2.8520558
-2.2718809 -0.12927571 2.8691497
-2.2340252 -0.13145502 2.8956826
-2.0680015 -0.12856652 2.898942
-2.0153317 -0.11964843 2.8984835
-1.9809576 -0.12702279 2.8959687
-1.9266144 -0.12792882 2.8909068
-1.8718826 -0.1226294 2.8846514
-1.8242501 -0.12400756 2.8811386
-1.7738847 -0.12310492 2.8768072
-1.7234811 -0.12218952 2.8718681
-1.6728685 -0.11952514 2.8706317
-1.6259373 -0.12285449 2.8681049
-1.5721345 -0.13293064 2.8576651
-1.5377477 -0.12218197 2.8587852
-1.4066153 -0.13928941 2.8504422
-1.3758918 -0.11695404 2.8525486
-1.3214931 -0.14537798 2.8500576
-2.2754192 -0.081865318 2.8710446
-2.2358041 -0.081904493 2.896224
-2.0134745 -0.079505406 2.8968315
-1.9678941 -0.078985415 2.8940134
-1.930993 -0.080854557 2.8936362
-1.8743815 -0.075902402 2.8845553
-1.8236901 -0.077327609 2.881459
-1.7753985 -0.076852299 2.8804219
-1.7266003 -0.076360233 2.8782277
-1.6739033 -0.07388813 2.873522
-1.627107 -0.081197046 2.8617947
-1.52255 -0.089026913 2.8548567
-1.4060422 -0.087835707 2.8507125
-1.3810008 -0.087652378 2.8521457
-2.2774186 -0.032347102 2.8743117
-2.2355382 -0.035642944 2.8965969
-2.013644 -0.047489222 2.8976135
-1.9810135 -0.031328585 2.8979754
-1.927442 -0.029154323 2.8941231
-1.8735329 -0.033132367 2.8889728
-1.8260781 -0.030698461 2.8858411
-1.7733519 -0.030480832 2.8817449
-1.721326 -0.030261422 2.876996
-1.672424 -0.030099882 2.8756049
-1.6202453 -0.026820173 2.8635859
-1.5741445 -0.019634502 2.8560498
-1.5357846 -0.029466571 2.8523693
-1.4060235 -0.029096937 2.8514712
-1.3754319 -0.020238359 2.8520374
-1.303737 -0.014288732 2.8503082
-2.2772896 0.017263263 2.8741961
-2.2471521 0.017251784 2.8990343
-2.0590231 0.048931114 2.8986833
-1.9695619 0.024405941 2.8971009
-1.9233516 0.022047006 2.8948176
-1.8707178 0.024000732 2.8915107
-1.826148 0.023823716 2.8859286
-1.7741324 0.023616351 2.8829873
-1.7226539 0.023419064 2.8791916
-1.6741451 0.021183038 2.8755798
-1.6264939 0.025601417 2.8723717
-1.5780176 0.025956446 2.8707709
-1.5345907 0.015218189 2.8530016
-1.4065963 0.022321645 2.8526196
-1.3753971 0.018572602 2.8545775
-1.3204969 0.029346818 2.8502882
-2.2790844 0.070167072 2.8725708
-2.2406464 0.073420092 2.8961637
-1.9781512 0.07492128 2.8983765
-1.9175308 0.07635951 2.8952148
-1.8710674 0.078923672 2.8912582
-1.8264815 0.078340314 2.8857021
-1.7738627 0.077720135 2.881799
-1.7236296 0.077183306 2.8800781
-1.6734377 0.076618403 2.8766096
-1.6207922 0.078240134 2.8741791
-1.5794424 0.073591597 2.8760734
-1.5494291 0.075002901 2.8546457
-1.3773979 0.063705087 2.8509204
-2.280596 0.12214044 2.8761613
-2.2476387 0.13317107 2.8970983
-1.9783071 0.12277666 2.8973017
-1.9138486 0.13003679 2.8945186
-1.8733767 0.12616758 2.8935325
-1.8260456 0.12749457 2.8905032
-1.7728279 0.12221481 2.8829625
-1.7254783 0.1233843 2.8819344
-1.6736904 0.12238669 2.8758354
-1.6214359 0.11938136 2.8742335
-1.5751177 0.12266426 2.8711324
-1.3755188 0.11499456 2.8517113
-2.276993 0.17796347 2.8813071
-2.248992 0.18294591 2.8966169
-1.9500575 0.15938579 2.8966911
-1.9093267 0.18234146 2.8982913
-1.8735656 0.17330258 2.8918974
-1.8300719 0.17215534 2.8882048
-1.7773538 0.17082059 2.8843651
-1.7274466 0.16969872 2.8834279
-1.6777648 0.17620307 2.8806889
-1.6263877 0.17477852 2.8737454
-1.5789973 0.17371462 2.872041
-1.3766954 0.18040593 2.8525178
-2.3012283 0.2495406 2.8636088
-2.2741625 0.23143674 2.8825517
-1.9086412 0.22179151 2.8950799
-1.8764485 0.22079594 2.8938568
-1.8201898 0.22202849 2.8891778
-1.7715436 0.2252818 2.8882971
-1.7266233 0.22464558 2.8846128
-1.6772015 0.22987992 2.8810227
-1.6235877 0.23006572 2.8729923
-1.5782332 0.22472905 2.8722286
-1.4096078 0.22112262 2.8525152
-1.3759782 0.22858559 2.8535709
-1.3290104 0.23175351 2.8514943
-2.3005185 0.28262818 2.8601146
-2.2754717 0.27869385 2.8804026
-1.9196962 0.27003571 2.8979568
-1.8755102 0.27085182 2.89446
-1.8291893 0.27657926 2.893719
-1.7738675 0.2799212 2.888459
-1.7243266 0.27976945 2.8839045
-1.6739123 0.27345413 2.8777986
-1.6237559 0.27384415 2.8757455
-1.5794412 0.2725071 2.876833
-1.4118195 0.27308467 2.853725
-1.3819021 0.27225766 2.8542194
-1.3255768 0.28143701 2.8512762
-1.2919046 0.29139006 2.850225
-2.3021183 0.34090811 2.8568559
-2.2855012 0.31953916 2.8804195
-1.9600725 0.33587062 2.8997743
-1.9205486 0.30716717 2.8963706
-1.8788937 0.32746005 2.8966916
-1.8239939 0.32711628 2.8936486
-1.7745644 0.32662752 2.8858736
-1.7241052 0.3244184 2.884074
-1.6731153 0.32201621 2.8797786
-1.6222296 0.3228479 2.8767438
-1.5750659 0.32517999 2.8719552
-1.5388542 0.32984927 2.8552608
-1.4140371 0.32519674 2.8542879
-1.3826647 0.3261528 2.8562083
-1.3269706 0.31951383 2.851402
-1.2849424 0.31694877 2.8512673
-2.3045821 0.37449735 2.8564482
-2.2829947 0.36965078 2.8844371
-1.9182787 0.38179877 2.8968074
-1.8770982 0.37761167 2.898391
-1.8233576 0.37691781 2.8949955
-1.7747504 0.3761839 2.888562
-1.7249451 0.36936736 2.8855529
-1.6741861 0.37281874 2.8794017
-1.6299925 0.37377945 2.8759251
-1.5817443 0.37285265 2.8629494
-1.544597 0.39120519 2.8603261
-1.4138324 0.35468596 2.8513358
-1.3812689 0.37600788 2.8533285
-1.3318063 0.37975395 2.8525057
-1.2839861 0.36953163 2.8507702
-2.3108985 0.41717538 2.8594525
-2.2819226 0.41793382 2.8867939
-1.9226164 0.42245886 2.898967
-1.8673979 0.43041945 2.8971572
-1.8264965 0.42469859 2.8949373
-1.7748086 0.41932926 2.8893931
-1.7236048 0.42671689 2.8842049
-1.6761038 0.42936549 2.8836794
-1.6237714 0.42526108 2.8758409
-1.5724798 0.42576012 2.8647006
-1.5357554 0.41339356 2.8584111
-1.4150643 0.41794339 2.8546658
-1.3697938 0.43027925 2.8537416
-1.3296546 0.42375591 2.8527029
-1.2866083 0.41900197 2.8517857
-2.3092244 0.46480805 2.8640866
-2.2870336 0.4690538 2.8868847
-1.8681977 0.47151896 2.8984056
-1.8270642 0.47240943 2.8934472
-1.7758304 0.47401416 2.8887625
-1.7281573 0.4766486 2.8844438
-1.673236 0.4773967 2.8804228
-1.6236291 0.47412559 2.8771718
-1.5714787 0.47340232 2.8704159
-1.5268025 0.4796412 2.8625212
-1.4049631 0.48964858 2.8542826
-1.370515 0.47315943 2.8564224
-1.3240182 0.47306442 2.8542106
-1.2997297 0.46159422 2.8515615
-2.308718 0.51553035 2.8626914
-2.2894161 0.52490723 2.8901715
-1.8213369 0.51588029 2.8963802
-1.7722069 0.52773577 2.8899326
-1.7220813 0.53046811 2.8866696
-1.6725086 0.52249473 2.8829341
-1.6205336 0.5208165 2.8783109
-1.5828887 0.51912922 2.8824515
-1.5328405 0.5125742 2.8583088
-1.4056007 0.50470811 2.8536954
-1.375178 0.51183552 2.8615274
-1.3366281 0.50107515 2.853683
-1.2363615 0.52545333 2.850898
-2.3120456 0.56626505 2.8638053
-2.2883313 0.57182807 2.8895648
-1.8510288 0.58714485 2.8960676
-1.8143711 0.57244706 2.8971198
-1.7750477 0.58040392 2.8893459
-1.723905 0.5763877 2.8872974
-1.6716064 0.57179648 2.8815706
-1.6207376 0.57354647 2.8785629
-1.5902313 0.5751878 2.888238
-1.3071446 0.57471663 2.8533814
-1.2847521 0.57685959 2.8557048
-2.3119066 0.62258202 2.8675339
-2.2882161 0.61913794 2.8895717
-1.8738246 0.61317134 2.8949053
-1.8249712 0.61937946 2.8944588
-1.7801489 0.62926161 2.8900614
-1.7284205 0.6247313 2.8874533
-1.6736965 0.61890286 2.8779247
-1.6284297 0.62811476 2.8774576
-1.5940336 0.63035679 2.8867579
-1.315321 0.6253823 2.8513372
-1.2809907 0.62057537 2.8525105
-2.3135507 0.67509443 2.8707359
-2.2921898 0.67623609 2.8924596
-1.8601794 0.65379381 2.8997686
-1.8215393 0.68211788 2.8933694
-1.777382 0.678352 2.8938334
-1.7279028 0.67086333 2.8884685
-1.6742191 0.67651582 2.8823802
-1.6254079 0.67636794 2.877126
-1.5980564 0.6781624 2.8861783
-1.3106347 0.67417228 2.8550587
-1.2910519 0.67726099 2.854243
-1.2294416 0.67558503 2.8511486
-2.3144066 0.73006147 2.8731
-2.2976642 0.71170151 2.8926301
-1.8658842 0.71976209 2.8967998
-1.8212365 0.72471339 2.895328
-1.7710981 0.72631788 2.8912785
-1.7273723 0.72120881 2.8856277
-1.6766193 0.72660857 2.8812904
-1.6232153 0.72899693 2.878407
-1.5987842 0.71699858 2.8804882
-1.3013558 0.74184924 2.8507574
-1.2671134 0.72807717 2.8521397
-1.2223045 0.72118807 2.8525572
0.017464858 0.73815304 2.8565593
-2.3146725 0.78110224 2.875982
-2.2877684 0.78182155 2.8980548
-1.8509378 0.76012367 2.8984394
-1.8154762 0.77690238 2.8961058
-1.7756573 0.76622391 2.8969471
-1.7254838 0.77196038 2.8851941
-1.6753569 0.77551633 2.8792899
-1.6227051 0.77501518 2.8784211
-1.593614 0.79143965 2.8918028
-1.3181273 0.78055793 2.8555641
-1.2697176 0.76537418 2.8512046
-1.2138019 0.78617263 2.85324
-2.3162098 0.82536763 2.8749099
-2.2920156 0.81729412 2.8956192
-1.8569782 0.80272257 2.8994322
-1.8306433 0.82189006 2.8974676
-1.7729223 0.82323891 2.8916378
-1.7238954 0.81943977 2.8867097
-1.6761229 0.83269304 2.8836453
-1.6232972 0.82084084 2.874326
-1.5783229 0.8262651 2.8730075
-1.529137 0.82910621 2.8623359
-1.4344736 0.8482216 2.8542931
-1.3798903 0.83508676 2.8535023
-1.3265445 0.82244325 2.8531027
-1.2752349 0.81828338 2.8535421
-1.2383609 0.82715428 2.8540518
-2.3149517 0.87060171 2.8790903
-1.9507213 0.86400563 2.8992002
-1.8305215 0.86703569 2.8986318
-1.7634714 0.87034452 2.8908839
-1.7246172 0.87046731 2.8916738
-1.6716529 0.87978947 2.8851039
-1.6261147 0.87399673 2.8812659
-1.5743742 0.87745368 2.8674111
-1.5268241 0.87322414 2.8629749
-1.4737618 0.87262744 2.8595841
-1.4229538 0.88145381 2.85532
-1.3796636 0.87312937 2.8556073
-1.3231177 0.86996835 2.8546562
-1.2851793 0.87460756 2.8549047
-1.2347804 0.87720889 2.8514984
-2.3181803 0.92258018 2.8796482
-1.8528093 0.92095101 2.899775
-1.8281733 0.90060723 2.8983705
-1.776148 0.93266219 2.8980289
-1.7254062 0.92074311 2.8911688
-1.6719903 0.92896456 2.8816206
-1.6295663 0.92276186 2.8761597
-1.5787495 0.92626625 2.8688812
-1.5261071 0.92723578 2.8646131
-1.4799813 0.91825253 2.8580425
-1.4264789 0.92858875 2.8565435
-1.372772 0.92315781 2.8564515
-1.3177142 0.91923851 2.8550594
-1.2700585 0.9295041 2.8568666
-1.2304521 0.92880088 2.8531587
-1.1827061 0.91980469 2.8504095
-2.3229196 0.97991872 2.8774927
-1.7645776 0.96887612 2.8952482
-1.7265266 0.9692716 2.8912888
-1.6718928 0.98073149 2.8864436
-1.6224648 0.97053081 2.8793628
-1.5735476 0.9793604 2.874923
-1.5269034 0.97390217 2.8699477
-1.4717973 0.97396684 2.8650618
-1.4212868 0.98034954 2.8600547
-1.3770604 0.97101271 2.8592229
-1.326878 0.97821969 2.8574893
-1.2752665 0.97847259 2.8574519
-1.227559 0.97515166 2.8541226
-1.1837575 0.96822077 2.8522968
-2.3281291 1.0292784 2.8758252
-1.766572 1.0388145 2.8980536
-1.730455 1.0279154 2.8965864
-1.6757919 1.022882 2.8877027
-1.628438 1.0256989 2.8841991
-1.5782464 1.0239474 2.8799341
-1.5269972 1.0307301 2.8775477
-1.480242 1.0207698 2.8706701
-1.422413 1.0274237 2.8662739
-1.3711463 1.0245047 2.8618295
-1.3268112 1.0249355 2.8587902
-1.2815807 1.0286996 2.8598287
-1.2287965 1.0224993 2.8572323
-1.1801651 1.0290495 2.8545909
-1.1286185 1.0373437 2.8529098
-1.0954911 1.0401473 2.851203
-2.3320153 1.0789136 2.8775787
-2.2960334 1.0819271 2.8981891
-1.75213 1.0800861 2.8968477
-1.7145634 1.0782156 2.8930397
-1.6764239 1.0747364 2.8938961
-1.6236602 1.0763975 2.8840766
-1.5765623 1.0719923 2.8784013
-1.5281798 1.079214 2.8774381
-1.476892 1.0703787 2.869354
-1.4312679 1.0755204 2.8675575
-1.3777136 1.074989 2.8680496
-1.3239057 1.0763234 2.8653514
-1.269235 1.0764256 2.8586648
-1.2189668 1.0724163 2.8565013
-1.1731045 1.0764921 2.8538764
-1.1342685 1.0696847 2.8506963
-1.0179797 1.0812649 2.8500452
0.361891 1.0606147 2.8600044
-2.3261287 1.1228441 2.87902
-1.7372925 1.1131159 2.8970118
-1.676387 1.1181695 2.8935986
-1.6253277 1.1270816 2.8906169
-1.5776279 1.1240352 2.8835373
-1.5270361 1.1310805 2.8793819
-1.4762626 1.1223003 2.8726251
-1.4209459 1.131049 2.8686779
-1.3791335 1.1236038 2.8690696
-1.3312744 1.1210151 2.8649499
-1.2760587 1.1279445 2.8608775
-1.2226664 1.1208833 2.857769
-1.1743025 1.127587 2.8562531
-1.1406378 1.1448056 2.8563099
-1.0791813 1.1281123 2.8504503
-1.0240645 1.1473302 2.8501084
-2.3300323 1.1731764 2.8795173
-1.7133528 1.1688591 2.897814
-1.6794653 1.1787169 2.8960545
-1.6281322 1.1761559 2.8909009
-1.5755966 1.170516 2.8811119
-1.521698 1.177386 2.8792987
-1.472654 1.1773022 2.8766971
-1.4277867 1.1702192 2.8721695
-1.3723258 1.1756396 2.8670306
-1.3224561 1.1708637 2.8642337
-1.278082 1.1773708 2.8634839
-1.2292604 1.172601 2.8594916
-1.1767398 1.1733861 2.854919
-1.1269755 1.1763855 2.8551064
-1.0808465 1.1685908 2.8536718
-1.0357287 1.174464 2.8530688
-2.3525341 1.2406065 2.8500628
-2.3355567 1.2223617 2.8744013
-1.7570856 1.2236816 2.8986828
-1.7284384 1.224221 2.8956261
-1.671276 1.227843 2.8970282
-1.6294976 1.2197171 2.8916852
-1.5757333 1.2296767 2.8855858
-1.5274071 1.2182676 2.8793399
-1.4773376 1.2300161 2.876637
-1.4291188 1.2170305 2.8721192
-1.3769641 1.225976 2.8672674
-1.3233525 1.2196584 2.8632805
-1.2675623 1.2236145 2.8598728
-1.2203177 1.2245952 2.859127
-1.1767257 1.2222776 2.8594267
-1.1269026 1.2270179 2.8549767
-1.0809562 1.2207589 2.8519316
-2.3392994 1.2738557 2.8744979
-1.7042586 1.2696863 2.8984931
-1.670444 1.269997 2.8974714
-1.6260664 1.2760867 2.8937457
-1.5698116 1.2769279 2.8864136
-1.526975 1.2748474 2.8816199
-1.4756688 1.2748203 2.8768158
-1.4242587 1.2717767 2.8726401
-1.3714548 1.2820942 2.8729365
-1.3263553 1.2708862 2.8662829
-1.2788845 1.2729284 2.8663425
-1.2250489 1.2754407 2.8607163
-1.1739402 1.269842 2.8571551
-1.1232295 1.2797856 2.8593962
-1.0709269 1.2719221 2.8548405
-1.0381531 1.2688574 2.856365
-0.97857839 1.2834915 2.8518345
-2.3530545 1.3274795 2.8638849
-2.3344829 1.3224628 2.890202
-1.7167786 1.3446026 2.8961041
-1.6655985 1.3363774 2.8974209
-1.633158 1.3217573 2.8972721
-1.5753089 1.3247578 2.8916526
-1.520636 1.3256859 2.8824356
-1.47925 1.3248593 2.8812997
-1.4277264 1.3240141 2.8747275
-1.3793865 1.3233013 2.8714764
-1.3208712 1.325308 2.8710358
-1.2741865 1.3251339 2.8664236
-1.2241952 1.3289648 2.8633306
-1.1779332 1.3205911 2.8629425
-1.128379 1.3239076 2.8594429
-1.0774758 1.3253919 2.8567696
-1.0265076 1.3186085 2.8546724
-0.97818416 1.3298604 2.8529267
-0.93754226 1.3257939 2.8536005
-2.363945 1.3760211 2.8693702
-2.3452735 1.3806682 2.897954
-1.7220981 1.3652172 2.8988867
-1.6111305 1.3786016 2.8959608
-1.57398 1.3763628 2.8966007
-1.5238396 1.3756593 2.8921978
-1.4738239 1.374577 2.8864028
-1.4230976 1.3721175 2.8772581
-1.3720534 1.3742951 2.8729689
-1.3280725 1.3729 2.8728998
-1.2753072 1.3733203 2.8673639
-1.2198867 1.3772409 2.8646104
-1.1724994 1.3777508 2.8635776
-1.1229625 1.3680022 2.861079
-1.0726296 1.3810742 2.8589365
-1.0265793 1.3709141 2.8542504
-0.97117323 1.3762245 2.8522935
-0.93076628 1.3733093 2.8510494
-2.3601451 1.4261677 2.871594
-2.3494272 1.4098711 2.8919413
-1.6118878 1.4207569 2.8981414
-1.5662135 1.4247261 2.8963497
-1.5209417 1.4207131 2.8899968
-1.4707623 1.4272801 2.8809412
-1.4226693 1.4192824 2.880512
-1.3720362 1.4264441 2.8789439
-1.327269 1.4264755 2.8746901
-1.2780831 1.4238352 2.8715248
-1.2317537 1.4235786 2.8671813
-1.1743071 1.4271566 2.8627346
-1.1236749 1.4215069 2.8603668
-1.0727806 1.4231659 2.8588359
-1.0220532 1.424472 2.8558722
-0.97389251 1.4203314 2.8546073
-0.93007904 1.4202555 2.8508949
-0.86711818 1.4317753 2.8522062
-0.84248543 1.4285305 2.8508174
-2.3585045 1.4690596 2.8797977
-2.3454394 1.4720747 2.8984504
-1.5790099 1.4531889 2.8991075
-1.5109404 1.4723864 2.8976872
-1.4714767 1.4761367 2.8853455
-1.4254283 1.478247 2.8864238
-1.3819926 1.4728168 2.8817353
-1.3258069 1.4730464 2.8740225
-1.2756398 1.4716043 2.8711994
-1.2234557 1.4793118 2.8712327
-1.1806252 1.4726009 2.8672509
-1.1298116 1.4764752 2.8642678
-1.0791917 1.4703727 2.861012
-1.028656 1.4721948 2.8595486
-0.97796506 1.4731911 2.8557642
-0.93080819 1.4723002 2.854943
-0.88211948 1.4784756 2.8524895
-0.83706671 1.4549117 2.8512096
-2.3706043 1.5285002 2.8844318
-1.5528954 1.5331057 2.8950169
-1.5269926 1.5195121 2.8968954
-1.464901 1.5346599 2.8982563
-1.4226211 1.5295802 2.888998
-1.376343 1.5254247 2.8830876
-1.3234138 1.5258204 2.8783071
-1.2769239 1.521776 2.8752236
-1.2286614 1.5255226 2.8734963
-1.1745528 1.5247219 2.8692112
-1.121243 1.5241474 2.8647671
-1.0711175 1.5265473 2.8601396
-1.0234233 1.5182326 2.8611076
-0.96856385 1.5286015 2.8589768
-0.92210853 1.519869 2.8528967
-0.86638266 1.526647 2.8532965
-0.82042402 1.5268707 2.8534956
-0.77079934 1.5116786 2.8519506
-2.3761113 1.5762578 2.877037
-1.4725165 1.5670009 2.8952332
-1.4271562 1.5829107 2.8930602
-1.372648 1.577704 2.8895316
-1.3196863 1.5645069 2.8779049
-1.27319 1.5731316 2.8786697
-1.2251608 1.5773517 2.877934
-1.1775584 1.5706458 2.8694305
-1.1283661 1.5731992 2.8665471
-1.0775335 1.5756963 2.8675077
-1.0252684 1.5754789 2.8627958
-0.97982377 1.5744725 2.8605692
-0.92351884 1.5770887 2.8553171
-0.87943149 1.5745245 2.8548374
-0.82474709 1.5758196 2.8516948
-0.77397496 1.5765311 2.8518896
-0.73449564 1.5789362 2.8525171
-0.6898061 1.5859153 2.8506985
-0.60434407 1.5968966 2.8509843
-2.3692808 1.6292832 2.8817449
-1.5483841 1.6027796 2.899281
-1.4597541 1.6454964 2.8993788
-1.4233227 1.6242228 2.8968945
-1.3742399 1.6202868 2.8915296
-1.327792 1.6236607 2.8904228
-1.2759453 1.6179943 2.8837101
-1.228398 1.6251084 2.8813093
-1.1761839 1.6265814 2.8768466
-1.1197516 1.6281565 2.8702927
-1.0769658 1.6258914 2.8722525
-1.0204819 1.6279725 2.8655186
-0.97561485 1.6227144 2.862114
-0.93054515 1.6280278 2.8603318
-0.87764007 1.6240349 2.857856
-0.83030319 1.6225238 2.8555484
-0.77702582 1.6282641 2.8524024
-0.7272411 1.6339391 2.8528097
-0.68099695 1.6359521 2.851969
-0.63712257 1.6181295 2.8501694
-2.3696744 1.6763357 2.8725398
-1.4636636 1.6664054 2.899538
-1.4177234 1.6773007 2.8986933
-1.367805 1.6583498 2.8995633
-1.3221623 1.676802 2.8928814
-1.280038 1.6732059 2.887517
-1.2254744 1.6713951 2.8820488
-1.1730734 1.676834 2.8785617
-1.1279703 1.6746629 2.8757808
-1.07426 1.673426 2.8707321
-1.0228903 1.6738745 2.8630328
-0.971255 1.6756798 2.8666637
-0.92002487 1.6761878 2.8625584
-0.87252241 1.6753508 2.8623097
-0.8173731 1.6741564 2.8574684
-0.77216685 1.6860778 2.8576283
-0.72135133 1.6731317 2.8515778
-0.67406863 1.6799427 2.8519034
-0.61489666 1.6675383 2.8514922
-2.3579819 1.7195127 2.8701861
-2.3424611 1.7340655 2.8907514
-1.3707803 1.7152061 2.8978214
-1.3260975 1.7273178 2.8955011
-1.2685488 1.7264904 2.8907831
-1.2278755 1.7215337 2.888818
-1.1740264 1.7264676 2.879112
-1.1233904 1.7286917 2.8813777
-1.0740556 1.7255224 2.8753536
-1.026449 1.7243252 2.8721223
-0.97584909 1.7246571 2.8692338
-0.92747563 1.7292619 2.8676033
-0.87311059 1.7232597 2.8625329
-0.82805377 1.7252351 2.8619251
-0.77615148 1.7244612 2.8588254
-0.72641987 1.7253348 2.853159
-0.68470925 1.728277 2.8525712
-0.62277019 1.7335079 2.8522403
-0.55717105 1.7402945 2.8518155
-0.51974577 1.7331049 2.8506024
-0.45736599 1.7378254 2.850225
-2.3551893 1.7727154 2.8765457
-2.3380964 1.7906156 2.8965604
-1.3110631 1.7679782 2.8962705
-1.2743142 1.7740625 2.8934894
-1.2229922 1.7727677 2.8933921
-1.1750133 1.7814908 2.8910935
-1.127782 1.7711495 2.8871086
-1.0738156 1.7782588 2.8792093
-1.0238519 1.7713512 2.8776155
-0.97631091 1.7752824 2.8710778
-0.92361194 1.7764419 2.8681149
-0.87802714 1.7744958 2.8664956
-0.82755053 1.7706474 2.8620486
-0.7768867 1.7771356 2.8633833
-0.72404498 1.7774481 2.8576386
-0.67072248 1.7768866 2.8540595
-0.6163314 1.7756906 2.8531342
-0.57373804 1.7800436 2.8514705
-0.52319181 1.7756472 2.8549714
-0.44511196 1.7965662 2.8502259
-2.3612797 1.8275681 2.8708069
-2.3466187 1.8156736 2.896996
-1.3349576 1.8472354 2.8981109
-1.2859607 1.8366454 2.8967378
-1.2321824 1.8264059 2.8968818
-1.1690121 1.8207924 2.8926842
-1.125458 1.820316 2.8906751
-1.0731912 1.8257903 2.8842564
-1.0266494 1.8220203 2.8835592
-0.97700483 1.8259684 2.8816223
-0.9275344 1.831682 2.8763921
-0.87345856 1.8272772 2.8747749
-0.81784523 1.8185673 2.8655412
-0.77094358 1.8271397 2.863102
-0.71872628 1.8241495 2.8614938
-0.6741606 1.8283609 2.8575909
-0.6224755 1.824958 2.8540981
-0.57325667 1.816316 2.8513799
-0.52643365 1.825595 2.8535469
-0.47947183 1.8352909 2.8537099
-0.40810895 1.8351985 2.8513951
-2.3556616 1.8784952 2.8767421
-2.3321784 1.8919023 2.8889105
-1.2627813 1.8638725 2.8964374
-1.212998 1.8787581 2.8957214
-1.1773626 1.8696642 2.8978755
-1.1283456 1.8798909 2.8941946
-1.0745872 1.8774834 2.8942518
-1.0216872 1.8812361 2.8918104
-0.96876782 1.871989 2.8800623
-0.92342466 1.8797941 2.8802528
-0.87544745 1.8687099 2.8772783
-0.8300283 1.8747292 2.8726923
-0.77565533 1.8701587 2.8644931
-0.72745132 1.8769475 2.8684399
-0.6773715 1.8782463 2.8633804
-0.62663192 1.8686713 2.857219
-0.57851142 1.8739316 2.8569117
-0.53045845 1.8788257 2.8555756
-0.47680971 1.8765167 2.8539238
-0.42493829 1.8789403 2.853219
-0.38697067 1.876949 2.8543642
-0.32339239 1.8709475 2.8513443
-0.26850641 1.8686634 2.8522222
-0.24506626 1.8679663 2.8527875
-2.357512 1.9171956 2.8574018
-2.3189414 1.9253391 2.8768067
-2.2994506 1.9152398 2.8941803
-1.2099972 1.9301105 2.8980579
-1.0767455 1.9193599 2.8928864
-1.0277412 1.9251733 2.8916779
-0.97624838 1.9157015 2.886858
-0.92051905 1.9228147 2.8814213
-0.8693952 1.9255111 2.8810294
-0.8256737 1.9259098 2.8747442
-0.77713686 1.9203699 2.8693736
-0.72845787 1.9280428 2.8722723
-0.67392612 1.9227558 2.8674352
-0.62326831 1.9233683 2.8655295
-0.57561201 1.9299818 2.8624532
-0.52057427 1.9221249 2.8587196
-0.46970573 1.9242839 2.8581114
-0.42172852 1.9335487 2.853313
-0.37370601 1.9282341 2.8537664
-0.31040365 1.933915 2.8523383
-0.289096 1.9263636 2.8533595
-0.19910391 1.9060344 2.850039
-0.12095097 1.9051288 2.8520815
-2.3286366 1.9786782 2.8847542
-1.1058326 1.9639283 2.8962636
-1.070969 1.9690257 2.8970566
-1.018718 1.9771551 2.8967624
-0.98288 1.974786 2.8958104
-0.92838305 1.9719619 2.8882778
-0.88031262 1.9818569 2.8886435
-0.82438284 1.9742837 2.8827231
-0.77483779 1.9772469 2.8770185
-0.72234446 1.9780555 2.8765752
-0.67117673 1.9699937 2.874121
-0.62431866 1.9797183 2.8712161
-0.57189888 1.9763469 2.8677924
-0.522439 1.9707597 2.8669195
-0.47580451 1.9776137 2.8632267
-0.42517886 1.9795753 2.8603852
-0.3763105 1.9733983 2.8567212
-0.32801926 1.9688214 2.854702
-0.28698406 1.983725 2.8513443
-0.2234842 1.9815056 2.8526478
-0.18571712 1.9924731 2.851784
-0.12256855 1.9938879 2.8564966
-0.059132114 1.9886479 2.8505681
-2.3255494 2.0216589 2.8762684
-1.082201 2.0398469 2.8992255
-1.016763 2.0259745 2.8966947
-0.97225034 2.0263097 2.8954196
-0.920928 2.0265763 2.888428
-0.87650651 2.0335913 2.8931026
-0.82557887 2.0160294 2.8818672
-0.77604944 2.0308115 2.8864255
-0.72870916 2.0280273 2.8837311
-0.67451298 2.0242667 2.8761692
-0.62644827 2.0295813 2.8721054
-0.57638603 2.0240786 2.8724012
-0.52366418 2.0197291 2.8670726
-0.47748366 2.0310032 2.864485
-0.4282161 2.0257068 2.8630407
-0.37942597 2.0217361 2.8627975
-0.33107534 2.0225337 2.8618627
-0.27627686 2.0332618 2.8590965
-0.21595685 2.0343814 2.8593926
-0.18688405 2.0368159 2.8519678
-0.1261138 2.0220416 2.8525188
-0.083197638 2.0222197 2.8509099
-2.3284483 2.0702071 2.8746271
-1.0523144 2.0802875 2.8995631
-1.0335187 2.0762124 2.898834
-0.98944664 2.0799167 2.8993416
-0.92771512 2.0863874 2.8966274
-0.87388557 2.0798409 2.8946371
-0.81805432 2.0757895 2.8890123
-0.77058715 2.0760112 2.8860052
-0.72076261 2.0802274 2.8853292
-0.67666572 2.0784788 2.8791759
-0.62778211 2.0754597 2.8760753
-0.58102649 2.0729339 2.8770401
-0.53126019 2.0771909 2.8745167
-0.47676834 2.0812237 2.8694215
-0.42818865 2.0715985 2.8675349
-0.37774748 2.0706792 2.8663917
-0.32158211 2.076993 2.8630495
-0.26885781 2.0760641 2.8610322
-0.2205884 2.0784421 2.8608963
-0.17206092 2.0736277 2.8568685
-0.12919143 2.0684464 2.8567345
-0.071998373 2.0773346 2.8575785
-0.031086925 2.0691011 2.8515131
0.019990576 2.0676277 2.8526847
0.059986353 2.0788193 2.8520849
0.14797951 2.0798271 2.8509297
-2.3539984 2.1320693 2.8571091
-2.3380651 2.1072388 2.8683829
-1.2281157 2.1404757 2.8989105
-0.91911638 2.128442 2.896471
-0.8733542 2.1176348 2.8905137
-0.82660162 2.1275172 2.8904626
-0.77513444 2.1296687 2.8916328
-0.72554076 2.1237416 2.8868918
-0.67373234 2.1308742 2.884356
-0.61930948 2.1252916 2.8793221
-0.57160091 2.1203761 2.8771458
-0.52289361 2.1273768 2.8720379
-0.46862695 2.1279185 2.8734848
-0.41828826 2.1206155 2.8696804
-0.36619559 2.1182306 2.8652492
-0.31709465 2.1322038 2.8672478
-0.2710439 2.1286175 2.8630154
-0.22176164 2.1217246 2.8571045
-0.17329617 2.1210308 2.8588493
-0.12493083 2.1208141 2.8605797
-0.07644891 2.1182003 2.8584111
-0.031322293 2.1178346 2.8554778
0.017456604 2.1192501 2.8553629
0.070449762 2.1228383 2.8530042
0.11995624 2.1227124 2.8538601
-1.0295954 2.1702175 2.8993132
-0.98837811 2.1778328 2.8987515
-0.91306722 2.1804311 2.8938403
-0.87588507 2.1716771 2.8908026
-0.83237219 2.1731369 2.892005
-0.78092533 2.1771359 2.894073
-0.72790909 2.1720254 2.8910313
-0.67735404 2.1866214 2.8879921
-0.62464911 2.1766982 2.8840342
-0.57211602 2.1657646 2.8779099
-0.52253431 2.1814768 2.8744199
-0.47174832 2.1749387 2.8727357
-0.42084396 2.1664097 2.867631
-0.37201753 2.1757522 2.8696554
-0.3250362 2.1787469 2.8691499
-0.27312785 2.1777184 2.8654082
-0.22396813 2.175463 2.8658764
-0.17475884 2.1713707 2.8632152
-0.1257561 2.1674554 2.8601122
-0.077107884 2.1683688 2.8627205
-0.02835498 2.1742976 2.8555305
0.018024266 2.1815932 2.8562405
0.069248512 2.199338 2.8565011
0.11797119 2.1967082 2.8517535
0.17503725 2.1981919 2.8512611
0.21433838 2.1518006 2.8508937
-2.4375391 2.2487619 2.8817289
-2.052187 2.2452607 2.8842013
-2.012409 2.2219651 2.8657832
-1.9891121 2.2166057 2.8701973
-1.1524632 2.245445 2.8989127
-1.0786098 2.2122746 2.8984711
-1.0139426 2.2307236 2.8971207
-0.9742586 2.2301874 2.8960123
-0.93083984 2.2271304 2.8935153
-0.87438172 2.2209761 2.895555
-0.82361174 2.229244 2.8890457
-0.77157885 2.2274261 2.8878379
-0.72400111 2.2217021 2.8878758
-0.6769504 2.2278304 2.8812006
-0.62882876 2.2246451 2.882534
-0.57544243 2.2257636 2.8808415
-0.52702487 2.2333987 2.8782368
-0.47511461 2.2235014 2.8725531
-0.42206961 2.2224145 2.8657987
-0.37727445 2.2303975 2.8681915
-0.32515946 2.2317102 2.8683021
-0.27505589 2.2260153 2.865206
-0.22536439 2.221837 2.8633251
-0.17412119 2.2277241 2.8619916
-0.12681453 2.2219901 2.8616872
-0.075543635 2.2208903 2.8566723
-0.02861014 2.2343826 2.8551219
0.020487411 2.2346766 2.8555527
0.064019375 2.2253811 2.8535519
0.11872878 2.2378595 2.8524415
0.16376203 2.2357807 2.8531997
-2.051337 2.2630444 2.8701258
-2.0151565 2.272531 2.8629599
-1.2370179 2.2914565 2.8996048
-1.169477 2.2964559 2.8937068
-1.1212392 2.2866986 2.8959465
-1.0747993 2.2887049 2.8956399
-1.0269203 2.28248 2.8926084
-0.97281253 2.2751 2.8891737
-0.92642891 2.2806923 2.8922858
-0.87877661 2.2678368 2.8870904
-0.82637233 2.280822 2.8834045
-0.7720744 2.2706473 2.8822365
-0.72148579 2.274734 2.8775682
-0.67598534 2.2765346 2.8766952
-0.63229722 2.2704418 2.8768799
-0.58371794 2.2808075 2.8730733
-0.52994615 2.2791479 2.8725624
-0.47769952 2.2689464 2.866925
-0.43196127 2.2730203 2.8700967
-0.37747076 2.2780821 2.8668752
-0.32699573 2.2774537 2.8631573
-0.27687475 2.2738063 2.8628759
-0.2267822 2.268986 2.8603792
-0.18830286 2.2718675 2.8610916
-0.12750134 2.2649093 2.85712
-0.082318544 2.2698808 2.8600464
-0.012302507 2.2697253 2.8530014
0.020570144 2.2684622 2.8513379
0.078122444 2.269402 2.8517358
0.12766886 2.2735972 2.8555512
0.16899002 2.2758944 2.8566551
-2.4783766 2.3268728 2.8773072
-2.4019628 2.3494802 2.898118
-2.109369 2.3346894 2.8925662
-2.0732508 2.3320899 2.8869343
-2.0467837 2.3164527 2.8754873
-1.5054456 2.3379617 2.8984175
-1.4628918 2.3453465 2.8887339
-1.4264987 2.3325062 2.8950064
-1.3705896 2.3341775 2.8916855
-1.3218284 2.3352308 2.8936234
-1.2728043 2.3352566 2.8936086
-1.2192963 2.3257372 2.8916318
-1.1699564 2.3235264 2.8770306
-1.1218729 2.3249998 2.8817353
-1.0715274 2.3258264 2.8843961
-1.0203848 2.317282 2.8807483
-0.97576535 2.327038 2.8794405
-0.91769022 2.3261774 2.8738844
-0.87395495 2.3200924 2.8729508
-0.8254649 2.3226371 2.8640058
-0.77569473 2.3237596 2.8674474
-0.7229771 2.3263147 2.8655827
-0.66984862 2.3179302 2.8655436
-0.62071037 2.3124175 2.8643861
-0.57392985 2.3133447 2.8606138
-0.53214175 2.3138592 2.8679695
-0.47984907 2.3042414 2.8633926
-0.42929387 2.3015842 2.8666639
-0.39580265 2.30075 2.8696189
-2.4367802 2.3545809 2.8830762
-2.3841012 2.3613091 2.8816199
-2.3260939 2.3717496 2.8739278
-2.2851849 2.3695662 2.8812723
-2.227504 2.3692491 2.878294
-2.1678288 2.3659055 2.8709745
-2.1263959 2.3617144 2.8743668
-2.071275 2.3614728 2.8615961
-2.0080733 2.3716855 2.856741
-1.9690056 2.3745921 2.8740399
-1.9278132 2.3795147 2.8841391
-1.8757775 2.3817909 2.879926
-1.8216882 2.3839073 2.8742974
-1.7782313 2.3845785 2.8775649
-1.726177 2.3787816 2.8789043
-1.6740197 2.3804986 2.8763015
-1.6244478 2.3764613 2.8810453
-1.574012 2.3798881 2.8738675
-1.5292854 2.3710096 2.8841238
-1.4751568 2.3692596 2.8715634
-1.4233681 2.3659618 2.877574
-1.3753788 2.370563 2.8619547
-1.3238409 2.3653769 2.8793144
-1.2786505 2.3733284 2.866755
-1.2228584 2.3649154 2.8672371
-1.1689268 2.3591955 2.8602722
-1.1298211 2.3605814 2.860513
-1.0659072 2.3624341 2.8660669
-1.023715 2.3594193 2.8662436
-0.97662705 2.3586159 2.8615646
-0.92686743 2.3653405 2.858407
-0.87792981 2.3649867 2.8624618
-0.8496961 2.3579097 2.8604667
-2.1264148 -0.42546567 2.9050326
-2.0563505 -0.43744418 2.9017525
-2.0334609 -0.43602687 2.9012625
-2.166223 -0.36928904 2.9012685
-2.1185989 -0.35859695 2.9013138
-2.1625049 -0.3112101 2.9016345
-2.1235862 -0.32585683 2.9005024
-2.0938292 -0.30838653 2.903435
-2.0248945 -0.32148537 2.9004846
-2.2084417 -0.27176732 2.9022622
-2.167253 -0.27434903 2.9029334
-2.1337588 -0.27748787 2.9077652
-2.0824783 -0.2719869 2.903115
-2.0439389 -0.25743946 2.9007757
-2.2054129 -0.23018079 2.9010909
-2.1716261 -0.22924577 2.9039104
-2.127048 -0.22800434 2.9072361
-2.0927522 -0.22694357 2.9077561
-2.2129431 -0.17747597 2.901161
-2.1727605 -0.18321563 2.9048097
-2.1246302 -0.1788228 2.9066172
-2.0890708 -0.17788436 2.905267
-2.0275116 -0.17632647 2.9031479
-1.9964279 -0.15949392 2.9014883
-2.2035787 -0.13113461 2.9035175
-2.1675546 -0.130481 2.9032266
-2.1232359 -0.12979586 2.906708
-2.0785153 -0.12890978 2.9030836
-2.0361547 -0.13221911 2.9040415
-2.2086368 -0.081745259 2.9036145
-2.1689272 -0.081342228 2.9064524
-2.1214206 -0.080829762 2.9055834
-2.0747898 -0.080297522 2.9044731
-2.042177 -0.079996623 2.9061439
-1.9941088 -0.07938832 2.9005744
-2.2090387 -0.02817326 2.9048946
-2.1712527 -0.032203969 2.9102898
-2.1198647 -0.031930607 2.9041471
-2.075036 -0.031769704 2.9055145
-2.0349641 -0.028435448 2.9092546
-1.985117 -0.031434182 2.9039955
-2.2161491 0.017184651 2.9063005
-2.1696811 0.021750938 2.9104507
-2.123379 0.02506746 2.908931
-2.0773852 0.021408632 2.9065423
-2.0312638 0.024695132 2.9070928
-1.9871967 0.029278317 2.9037173
-2.2143648 0.076122567 2.9053824
-2.1754267 0.078148879 2.9127753
-2.1257894 0.082220867 2.911339
-2.0774813 0.081607766 2.9080594
-2.0283511 0.081027932 2.9088807
-1.9641345 0.083340928 2.9008434
-1.9088336 0.095343746 2.9008305
-2.2172472 0.13279632 2.9052153
-2.1728637 0.13209659 2.9100206
-2.1269255 0.13125387 2.9114389
-2.080343 0.13036682 2.9106061
-2.0328667 0.12938406 2.907135
-1.9703201 0.13073474 2.9011099
-1.9303015 0.11148966 2.9008458
-2.217953 0.1824166 2.903918
-2.1760476 0.18165354 2.9121034
-2.1267273 0.18024355 2.9090374
-2.0829496 0.17925622 2.9121768
-2.0307362 0.17779361 2.908819
-1.9774361 0.17859276 2.904314
-1.927984 0.17111601 2.9030085
-2.2215981 0.23236871 2.9057815
-2.1794899 0.23138542 2.913847
-2.1320007 0.22979216 2.9134457
-2.0755901 0.22985494 2.9109025
-2.0189662 0.22354229 2.907614
-1.9685168 0.22414048 2.9046781
-1.9338218 0.22289233 2.9010677
-2.2258527 0.28255954 2.9077389
-2.1783841 0.283483 2.9154503
-2.1197293 0.27657002 2.9132295
-2.0646167 0.27643102 2.9122365
-2.01545 0.27411988 2.9059784
-1.9732341 0.27270612 2.9084132
-1.929653 0.27069753 2.9022667
-1.8947116 0.28530154 2.9016364
-2.2603896 0.31709945 2.9017994
-2.2260356 0.33523002 2.9102635
-2.1765497 0.32789835 2.9130461
-2.1232474 0.32823455 2.9137788
-2.069556 0.32587621 2.9151678
-2.0207014 0.32325429 2.909605
-1.9763396 0.31781071 2.9061716
-1.9345397 0.32980511 2.9049194
-1.877743 0.34044468 2.9029918
-2.2628224 0.35911995 2.9009397
-2.2196651 0.38068056 2.9104805
-2.1629515 0.37969494 2.9109857
-2.1172826 0.37741253 2.9128511
-2.0724676 0.37520805 2.914562
-2.0278943 0.37297559 2.9153864
-1.9812933 0.37029698 2.9118865
-1.9338921 0.3739984 2.9027843
-1.8795664 0.38829386 2.9013109
-2.2246614 0.42483485 2.9080458
-2.1685219 0.43025887 2.9128883
-2.1235304 0.42782247 2.9159653
-2.0787098 0.42534828 2.917999
-2.0307252 0.42214945 2.914197
-1.9771378 0.42652184 2.9077258
-1.9205778 0.43485984 2.9025016
-1.8805614 0.41225341 2.9003129
-2.265146 0.47806266 2.9060159
-2.2246382 0.46700743 2.9082
-2.1773138 0.48179054 2.9183943
-2.129823 0.47852972 2.9184191
-2.0832345 0.47538731 2.9182739
-2.031271 0.47402793 2.9155993
-1.9734898 0.47422871 2.9092543
-1.9177912 0.47899449 2.9010456
-1.887325 0.48526949 2.9021416
-1.8446472 0.47449911 2.9017644
-2.2663536 0.51725805 2.9053454
-2.2227619 0.51785499 2.9095547
-2.1765268 0.52991986 2.9214382
-2.1237535 0.53087115 2.9189579
-2.0723171 0.52449548 2.9176891
-2.0231156 0.51842445 2.9163663
-1.9727293 0.52501148 2.9130275
-1.9252657 0.52891761 2.9058249
-1.8795835 0.52506548 2.9010088
-1.8387747 0.5382967 2.90025
-2.2625215 0.5716458 2.9050474
-2.2256773 0.57233596 2.9174323
-2.1684396 0.57432735 2.9199345
-2.1198406 0.57918876 2.9225495
-2.0700939 0.57452416 2.9179363
-2.0232599 0.57054204 2.9159572
-1.9759326 0.57436281 2.9105444
-1.9296633 0.57826883 2.9052763
-1.8791525 0.57245469 2.9057641
-1.8321247 0.56241196 2.9026346
-2.2631097 0.62755948 2.9045582
-2.226202 0.61972392 2.9184875
-2.1722734 0.62065041 2.9198079
-2.1224489 0.62671757 2.9216657
-2.0765164 0.62566733 2.9188633
-2.0305059 0.62162942 2.9184027
-1.9780809 0.62809563 2.9121265
-1.925429 0.62762725 2.9072723
-1.874911 0.62684238 2.9028578
-2.2652905 0.67574137 2.906848
-2.2242427 0.67350334 2.9185851
-2.1794565 0.67004269 2.9242537
-2.1252227 0.67791128 2.9255347
-2.0748346 0.67713439 2.9239058
-2.0224872 0.66932482 2.9188671
-1.966226 0.67900956 2.9146609
-1.9200336 0.6768207 2.9069684
-1.8784218 0.67605871 2.9049535
-1.8394825 0.6520955 2.9001248
-2.2733333 0.72895956 2.906986
-2.229625 0.72572255 2.9156666
-2.1799834 0.7239958 2.9216735
-2.1261356 0.71910125 2.9231091
-2.0669739 0.72678947 2.9195642
-2.0197151 0.7216773 2.9174078
-1.9760517 0.72036904 2.9152179
-1.9276228 0.72801191 2.9092157
-1.8855163 0.72821057 2.909838
-1.8313042 0.73465955 2.9053762
-2.2641261 0.78146243 2.9114654
-2.224766 0.77617049 2.9193707
-2.1676607 0.77220631 2.9207904
-2.1223989 0.76794505 2.9246194
-2.0774841 0.78026325 2.924062
-2.0278025 0.77394134 2.9189832
-1.9763565 0.77041119 2.9161925
-1.9255764 0.78125614 2.9120922
-1.8775256 0.77247828 2.9050975
-1.837173 0.78505772 2.904886
-1.7872791 0.79016638 2.9003437
-1.5966834 0.77742034 2.9005535
-2.2739923 0.82361239 2.9094846
-2.2257245 0.83173186 2.9209535
-2.1782253 0.82655329 2.9236867
-2.1260855 0.82319695 2.9250705
-2.0707994 0.82651377 2.9209323
-2.0243077 0.82521379 2.9194713
-1.9739119 0.81911129 2.9173393
-1.9203676 0.82884741 2.9105856
-1.8783181 0.82713795 2.9084098
-1.8205557 0.8274529 2.9023991
-2.2762692 0.87206656 2.9123383
-2.238107 0.87900651 2.9268978
-2.1821659 0.88259971 2.923259
-2.1230822 0.8705005 2.9236467
-2.0733447 0.8710435 2.9281576
-2.0243239 0.87831169 2.9243839
-1.9806998 0.87294418 2.9236884
-1.9254224 0.87738436 2.9109926
-1.8775721 0.87437785 2.9072239
-1.8193657 0.8769536 2.9030278
-1.7908072 0.88995588 2.9074728
-2.2724597 0.92525345 2.9106741
-2.2209208 0.92426205 2.9223323
-2.1738358 0.92456216 2.9279385
-2.1214614 0.92233598 2.924855
-2.0783684 0.9207508 2.9269009
-2.0255272 0.93106419 2.9247715
-1.9773606 0.9240554 2.9209507
-1.9232483 0.92339611 2.9151359
-1.8728564 0.92610455 2.9108925
-1.8250009 0.92718977 2.9040346
-1.7936763 0.92349172 2.9042931
-2.3016644 0.98179305 2.9005826
-2.2760234 0.97781247 2.9113097
-2.229409 0.97648549 2.9238536
-2.1772826 0.97253603 2.927633
-2.1254394 0.97622567 2.9305012
-2.070303 0.97090882 2.92905
-2.0204797 0.97553349 2.9287739
-1.9714599 0.97610402 2.9215286
-1.9252927 0.97191602 2.9150813
-1.8749629 0.98089588 2.911407
-1.8226449 0.97051239 2.9066987
-1.7753958 0.99212426 2.9023447
-2.3108244 1.020309 2.901989
-2.2801723 1.0267572 2.9105964
-2.2234674 1.0252769 2.9241812
-2.1683481 1.0232174 2.9281015
-2.1234126 1.0264559 2.9312205
-2.0761921 1.0283438 2.9298389
-2.0266979 1.020326 2.9262202
-1.9789801 1.0271364 2.9232085
-1.932844 1.0269423 2.9237514
-1.870641 1.0278833 2.9117792
-1.822431 1.0234618 2.9101181
-1.7801176 1.0216416 2.9026973
-1.7257811 1.0256273 2.9010348
-2.318867 1.0585114 2.9016278
-2.270386 1.0691789 2.9119496
-2.2289679 1.072705 2.927248
-2.1717193 1.0788678 2.9285591
-2.1276364 1.0684525 2.9288664
-2.0762279 1.0804482 2.9325645
-2.0206354 1.0731792 2.9252021
-1.9726331 1.0756043 2.9204085
-1.9227197 1.0714045 2.9147432
-1.8783638 1.0775417 2.918607
-1.8317169 1.077648 2.9109335
-1.7878888 1.0731862 2.9044266
-1.7327547 1.0699925 2.9013591
-2.3125212 1.1332633 2.904896
-2.2700613 1.1305468 2.9132626
-2.2216482 1.1239405 2.9282038
-2.1742232 1.1210248 2.932488
-2.1192086 1.1265209 2.9306328
-2.0766897 1.1244278 2.9343622
-2.0242603 1.1262079 2.9306808
-1.9812654 1.1256945 2.9267199
-1.9246793 1.1297708 2.9204712
-1.8810648 1.1179403 2.914753
-1.8253641 1.126935 2.9079285
-1.7773783 1.1254009 2.9069977
-1.7245506 1.1346918 2.9042869
-1.6849028 1.1426227 2.9026203
-2.3089228 1.1707036 2.905385
-2.2735355 1.1747109 2.9154217
-2.2265716 1.1727908 2.9317451
-2.180994 1.1755948 2.9359684
-2.1288915 1.1745142 2.9300792
-2.0756507 1.1755214 2.9321718
-2.0221491 1.1745369 2.9317317
-1.965541 1.1742077 2.9257629
-1.9171989 1.1794938 2.9203305
-1.8744379 1.1758536 2.9184618
-1.8234608 1.177404 2.9139709
-1.774188 1.1752521 2.9081271
-1.7365671 1.1772612 2.9040174
-1.6662971 1.1569552 2.9004998
-2.3093703 1.227996 2.904382
-2.2756469 1.2284867 2.9188235
-2.2275171 1.2198834 2.929323
-2.1709807 1.2241263 2.9350433
-2.120321 1.2223076 2.9376507
-2.0708368 1.2219775 2.9336925
-2.0273957 1.2272775 2.9323385
-1.9736769 1.2272614 2.9255042
-1.9342937 1.2282274 2.926002
-1.8752086 1.2314188 2.9202731
-1.8207587 1.2180456 2.9141669
-1.7722988 1.2244866 2.9075973
-1.7192408 1.2253855 2.9035008
-1.6787202 1.2303119 2.901042
-2.3139703 1.2792073 2.9109554
-2.271657 1.2752149 2.9254715
-2.2245698 1.2746284 2.9340546
-2.1800675 1.2740042 2.9338665
-2.1296751 1.2771132 2.936852
-2.0789294 1.2743253 2.9364245
-2.024555 1.2818985 2.9310429
-1.9759244 1.274334 2.9280474
-1.9217397 1.2716559 2.924659
-1.8687067 1.2742835 2.9129522
-1.8221198 1.277171 2.9174843
-1.7760198 1.2707778 2.9103699
-1.7245709 1.2719842 2.9043493
-1.6953127 1.2915338 2.9129269
-2.3140678 1.3284363 2.9112244
-2.2787461 1.328034 2.924207
-2.2208245 1.3240196 2.9303875
-2.1700275 1.3306966 2.9351287
-2.1260254 1.3228295 2.9370077
-2.0748062 1.3294263 2.9395816
-2.0237319 1.3271878 2.932301
-1.9771818 1.3251756 2.9348645
-1.9317814 1.3218539 2.926729
-1.8738749 1.3254551 2.9232292
-1.8258572 1.3207296 2.9231086
-1.7728525 1.3231074 2.9131844
-1.7277222 1.3221084 2.9058387
-1.6839424 1.3211149 2.9063056
-1.6168329 1.3297743 2.9012907
-2.3170593 1.379729 2.9144325
-2.2748973 1.3757207 2.9299061
-2.2305646 1.3815142 2.9329813
-2.1770616 1.3763993 2.9323812
-2.1252675 1.3741705 2.9392438
-2.0753572 1.3711718 2.9361026
-2.0242057 1.3761016 2.9338622
-1.9760135 1.3693305 2.931637
-1.920518 1.3744416 2.9300108
-1.8734999 1.3732673 2.9243157
-1.8286952 1.373315 2.9206727
-1.7736245 1.3797394 2.9135013
-1.7238684 1.3740265 2.9090929
-1.6742232 1.3741599 2.9049888
-1.6442918 1.3716016 2.9019048
-2.3228259 1.427495 2.9150114
-2.2738662 1.4249928 2.9276786
-2.2159235 1.4252001 2.935271
-2.1706233 1.4275271 2.940573
-2.1226428 1.421271 2.9396994
-2.0708997 1.4226284 2.9396462
-2.0254409 1.4260244 2.93593
-1.9758365 1.4215915 2.9346089
-1.920874 1.4290257 2.9290502
-1.8748817 1.4228079 2.9275017
-1.8242131 1.4253448 2.9255123
-1.7742226 1.4284413 2.915946
-1.7230883 1.4290011 2.917012
-1.6713427 1.426169 2.9092524
-1.6262144 1.4341877 2.9065223
-1.5702343 1.4283818 2.9038849
-2.3544643 1.4957597 2.9015939
-2.3288147 1.4747974 2.9183252
-2.2796044 1.4790218 2.9334779
-2.2254837 1.4757764 2.9411278
-2.1728365 1.4790425 2.9425378
-2.1212354 1.479617 2.9469724
-2.0743082 1.4769373 2.9389291
-2.0264442 1.4762428 2.9369662
-1.9720494 1.467605 2.9331183
-1.9228475 1.47613 2.9295955
-1.8729206 1.4793867 2.9334071
-1.8279289 1.4698931 2.9214518
-1.7725559 1.4729838 2.9152429
-1.7260828 1.4709539 2.9145377
-1.6743408 1.4801525 2.9135137
-1.6190604 1.4758019 2.9056952
-1.5776432 1.4840727 2.9051862
-1.5316203 1.4793031 2.901916
-2.3605752 1.5177094 2.9009621
-2.3264594 1.5280213 2.9244545
-2.2657375 1.5175499 2.9348772
-2.2225051 1.5238384 2.939558
-2.1722369 1.5202439 2.9438751
-2.11868 1.5161866 2.9370518
-2.0757363 1.5303437 2.9345708
-2.0276654 1.5271242 2.9377091
-1.9785117 1.5248243 2.9326966
-1.926862 1.5292437 2.9308038
-1.8757104 1.5218893 2.9289765
-1.8174784 1.5240037 2.9240606
-1.7790978 1.5240471 2.9236891
-1.7273024 1.5280749 2.9199631
-1.677159 1.5183362 2.9120817
-1.6276916 1.5266412 2.9061806
-1.5786792 1.5209519 2.9052882
-1.5194515 1.5406051 2.9041882
-1.4812723 1.5185249 2.9023821
-1.4391084 1.5248766 2.9008911
-2.3591495 1.5739549 2.9132948
-2.3241792 1.5778558 2.9306111
-2.2778256 1.5749245 2.941766
-2.2305796 1.5709977 2.942342
-2.1837013 1.5706837 2.9444871
-2.1129503 1.5780107 2.9406819
-2.0766885 1.5794711 2.9390235
-2.0281167 1.5778853 2.9365556
-1.9728254 1.577435 2.9405951
-1.925024 1.5775787 2.9311001
-1.8748455 1.5710926 2.9267423
-1.8313847 1.579981 2.9298437
-1.7683859 1.5701756 2.9217045
-1.7255123 1.578634 2.923028
-1.6779193 1.5767115 2.9174871
-1.6231833 1.5714804 2.9120955
-1.5791969 1.5774428 2.9089923
-1.5254012 1.5713148 2.9048493
-1.4821888 1.5798764 2.9053352
-1.4471323 1.566008 2.9032533
-2.356688 1.6240554 2.9060454
-2.3311276 1.6252387 2.9273949
-2.2767022 1.6280059 2.9426668
-2.2234609 1.6224296 2.9452691
-2.181432 1.6300362 2.943527
-2.1241055 1.6129913 2.9438052
-2.0744898 1.6199019 2.9372795
-2.0303171 1.6305139 2.937243
-1.9785366 1.6304847 2.9409275
-1.9204705 1.6234297 2.9354291
-1.8708912 1.627423 2.9318414
-1.8220323 1.628074 2.9295204
-1.7828162 1.6273201 2.9284451
-1.7211723 1.6218834 2.9162598
-1.6759431 1.6235952 2.9247611
-1.6254669 1.6276144 2.9205589
-1.5794369 1.6259964 2.9151113
-1.522427 1.6241848 2.9073029
-1.4766979 1.6213446 2.9047737
-1.4427793 1.6448878 2.9049275
-2.3540325 1.665059 2.9024425
-2.3236909 1.6778589 2.9231534
-2.2719417 1.6756957 2.9410977
-2.2179799 1.6793462 2.9465287
-2.1672471 1.6772144 2.9457359
-2.1075511 1.6745635 2.9489059
-2.0671692 1.6725354 2.9415128
-2.0204344 1.6721697 2.9419737
-1.9699947 1.6765379 2.938802
-1.9215307 1.6751703 2.9389873
-1.8763112 1.6732378 2.9326277
-1.8298765 1.6796205 2.9299147
-1.7725528 1.6748546 2.9260824
-1.7304862 1.6775386 2.9280865
-1.6813986 1.6695096 2.9199505
-1.630428 1.6719309 2.9189289
-1.5746493 1.6773845 2.9188478
-1.5228107 1.6707577 2.9096527
-1.4751723 1.6789143 2.9104137
-1.423216 1.670732 2.9036694
-1.3768169 1.6833642 2.9021561
-2.3203926 1.7233808 2.9152801
-2.2765343 1.7257555 2.9320776
-2.2298512 1.7248585 2.9440103
-2.1788063 1.7133549 2.9479599
-2.1042297 1.7493478 2.9490447
-2.0789797 1.7089336 2.9451494
-2.025636 1.72586 2.9397049
-1.9864187 1.7175292 2.9427519
-1.9310541 1.725296 2.9419637
-1.8733295 1.7214108 2.9400284
-1.8263894 1.7275341 2.9306545
-1.7834263 1.7281524 2.9307017
-1.7240144 1.7267009 2.9240243
-1.6732308 1.7208943 2.9229672
-1.6218206 1.7284976 2.9185665
-1.5774095 1.7240512 2.9204555
-1.5190279 1.7248476 2.9130118
-1.4753336 1.72015 2.9132297
-1.4251953 1.7285516 2.9088006
-1.3748266 1.7312659 2.9010956
-1.3099189 1.7417791 2.9057572
-2.3182952 1.7813247 2.9209306
-2.2754653 1.7834808 2.9407704
-2.2251921 1.7659518 2.9452302
-2.1692853 1.7747663 2.9432893
-2.1088476 1.7712642 2.9462061
-2.0679226 1.7679964 2.9459774
-2.0217445 1.7769566 2.9431899
-1.968799 1.7787313 2.9442873
-1.9277252 1.7740768 2.9405746
-1.8757607 1.7729036 2.9340971
-1.8209583 1.7739207 2.9338255
-1.7738168 1.7790519 2.9304414
-1.7252254 1.7822046 2.9294343
-1.6690267 1.7699778 2.9218566
-1.6214275 1.7799946 2.9237978
-1.575001 1.776605 2.9175785
-1.5269322 1.7702518 2.9101756
-1.4708757 1.7701718 2.9071088
-1.4300176 1.7712568 2.9107325
-1.3722247 1.7778325 2.9055436
-1.3346531 1.7775306 2.9057832
-1.2879689 1.7865956 2.9005713
-2.3246644 1.8295062 2.9187045
-2.2823024 1.8252294 2.9374309
-2.2293277 1.8296483 2.9451649
-2.1764448 1.8339754 2.9469244
-2.0640743 1.834489 2.9485748
-2.011615 1.8197317 2.9462521
-1.9738836 1.8291553 2.946106
-1.9205061 1.8195258 2.9402847
-1.8729986 1.8254409 2.9393873
-1.8360233 1.8237747 2.9398839
-1.7766463 1.8237524 2.9274228
-1.7237418 1.8224945 2.9242005
-1.6717136 1.8252062 2.9283488
-1.6290643 1.8229129 2.9262969
-1.5801963 1.8271059 2.9224083
-1.522913 1.8305672 2.9191437
-1.4765552 1.8215207 2.9142821
-1.4247606 1.8222097 2.9121735
-1.3778204 1.8233712 2.9086368
-1.3229464 1.822721 2.9030473
-1.2728387 1.8226095 2.9015105
-1.2101626 1.8139074 2.9007852
-1.1974193 1.8441652 2.9026749
-1.1079738 1.8486793 2.9017491
-2.3249216 1.8662233 2.9060938
-2.2772753 1.8750676 2.9235005
-2.2246995 1.8790574 2.9413013
-2.1863708 1.8700068 2.9451971
-2.1162066 1.8751388 2.9492354
-2.0307245 1.8735321 2.9468341
-1.9601358 1.8759801 2.944093
-1.920853 1.872781 2.9448569
-1.8724407 1.8672177 2.9406707
-1.8264223 1.8777721 2.9406803
-1.7714794 1.8751103 2.9361837
-1.723556 1.8772155 2.9331136
-1.6739353 1.8698931 2.9293628
-1.626626 1.8734499 2.9283085
-1.5782031 1.8820102 2.9200912
