ply
format ascii 1.0
comment PCL generated
element vertex 1533
property float x
property float y
property float z
element camera 0
property float view_px
property float view_py
property float view_pz
property float x_axisx
property float x_axisy
property float x_axisz
property float y_axisx
property float y_axisy
property float y_axisz
property float z_axisx
property float z_axisy
property float z_axisz
property float focal
property float scalex
property float scaley
property float centerx
property float centery
property int viewportx
property int viewporty
property float k1
property float k2
end_header
3.3442976 1.6245452 3.6272552
3.3621547 1.6220113 3.6027341
-0.32852229 1.6758357 3.6161587
-0.28369877 1.675078 3.6404488
3.3392217 1.6742021 3.6250851
-0.36662194 1.7084413 3.6146009
-0.3297666 1.728547 3.6139574
-0.29405981 1.7277611 3.6373367
3.3368671 1.7254635 3.6254282
-0.36195859 1.7841115 3.6066751
-0.33141601 1.7792163 3.6174302
-0.29590821 1.7761998 3.6472499
3.3424644 1.7714094 3.6297398
-0.36033374 1.8258228 3.6093855
-0.32206458 1.8261036 3.6258271
-0.29663664 1.8182501 3.6428564
3.3462412 1.8167138 3.6316764
3.3602803 1.8314799 3.6103327
-0.35947314 1.8782178 3.6173317
-0.32541341 1.8777826 3.6260507
-0.29835185 1.8761619 3.6465151
3.3415442 1.8758955 3.6408992
3.3563066 1.8710383 3.6123748
-0.36020362 1.9135542 3.6126652
-0.32189694 1.930495 3.6359057
3.3398571 1.9204313 3.6266592
3.3529754 1.9346784 3.6037681
-0.37179229 1.9752353 3.612757
-0.32310194 1.9719055 3.6357479
3.3380272 1.9837707 3.6284215
-0.36532378 2.0268261 3.6137786
-0.33026093 2.0207782 3.6350503
3.3398113 2.0291469 3.6261084
3.3523555 2.0430048 3.6019404
-0.36951873 2.083631 3.6175404
-0.33214647 2.070812 3.6397109
3.3344796 2.0832398 3.626621
-0.37660167 2.1277006 3.6140728
-0.33344585 2.1176152 3.6373916
3.3291261 2.1177549 3.6367645
3.3501449 2.1279118 3.6083019
-0.36925307 2.1746261 3.6141481
-0.33701617 2.1725857 3.6351478
3.3384237 2.1808712 3.6351182
3.3621652 2.1595461 3.6087918
-0.3745797 2.2289701 3.6146967
-0.32725558 2.2234392 3.639915
3.3328784 2.2226124 3.6229599
-0.40405136 2.2596612 3.6009076
-0.37591863 2.2759974 3.6090617
-0.33524358 2.274235 3.6364348
3.3270197 2.2723818 3.6327844
-0.36727887 2.3221409 3.6017118
-0.32735923 2.3271158 3.6275754
-0.29029426 2.3036766 3.6388526
3.3336036 2.3119824 3.6297829
3.3500905 2.3284001 3.6082029
-0.32610783 2.3734734 3.607661
-0.28383565 2.3786976 3.6264482
3.3243535 2.3723252 3.6282797
-0.25244272 2.4067228 3.61866
-0.2260588 2.409977 3.6182463
-0.16952896 2.4125991 3.6272144
-0.1236798 2.4161882 3.6180372
-0.069413275 2.426729 3.6249554
-0.028030017 2.426672 3.6220043
0.029845178 2.4319975 3.6332581
0.074426562 2.4300942 3.6199541
0.12932384 2.4323318 3.6320918
0.17377882 2.4328005 3.6213744
0.23011179 2.4370716 3.6186457
0.27383944 2.4397595 3.6269274
0.30998233 2.4336765 3.6222818
0.38483274 2.4392824 3.6385729
0.41891858 2.4389944 3.6250851
0.47430447 2.4367137 3.6264663
0.52426523 2.4370921 3.6216555
0.57471365 2.4392538 3.6189632
0.62523872 2.441493 3.6157787
0.6638155 2.4361782 3.6023464
0.72859746 2.4392924 3.6247568
0.77294588 2.4457009 3.6412647
0.81042308 2.4368815 3.6212583
0.88203347 2.4400697 3.6129556
0.91826153 2.435781 3.6414976
1.0732894 2.44223 3.6178913
1.1268235 2.4481335 3.6142218
1.1842778 2.4410844 3.6321239
1.2242758 2.4390202 3.6181149
1.2674966 2.4330115 3.6186748
1.3300472 2.4435403 3.6403439
1.4252135 2.4390128 3.6342278
1.5279434 2.4361672 3.6224613
1.5623634 2.435863 3.621645
1.6440585 2.4170864 3.631295
1.6873455 2.4340725 3.6448207
2.1247272 2.4481606 3.6333971
3.3215861 2.4278533 3.6201949
0.83651036 2.4543555 3.6436026
0.85561973 2.4510138 3.634927
0.91782331 2.4549177 3.6289668
0.96012723 2.4593852 3.6272264
1.0371516 2.4530602 3.6434078
1.2819839 2.4514663 3.6222332
1.307591 2.4609113 3.6302214
1.4917742 2.4504943 3.64731
2.1316817 2.4544678 3.614831
3.2783668 2.4807315 3.636086
3.314209 2.4680023 3.6136413
1.3973961 -0.42124793 3.6515324
1.4152783 -0.41065443 3.6638868
1.4706782 -0.42017856 3.6932914
1.42275 -0.37504578 3.6770573
1.4516723 -0.36148864 3.6911869
1.3873262 -0.32944494 3.6578848
1.4209547 -0.32063979 3.6776536
1.4627218 -0.33406949 3.6949184
1.3913705 -0.27893925 3.6581645
1.4249392 -0.27640846 3.6799834
1.4525422 -0.27818507 3.6983511
1.3822507 -0.21919413 3.6589394
1.4211267 -0.22713035 3.6810682
1.3883719 -0.17045052 3.6591828
1.4294156 -0.17555133 3.695786
1.3792917 -0.14640784 3.6713967
1.4188322 -0.14765349 3.69557
3.1714342 0.37231472 3.6683903
0.53676039 0.43471801 3.6766036
3.1671064 0.42633176 3.6583352
0.53489512 0.47745478 3.660167
3.1671553 0.46996444 3.6538296
0.53643483 0.53200221 3.6658413
0.53528351 0.56627041 3.654464
3.1540816 0.59152019 3.6650496
0.53881758 0.62347531 3.6727993
3.1694455 0.6252296 3.6574564
0.53776336 0.67555279 3.6593239
3.2667561 0.68022376 3.6785088
0.53928989 0.71312863 3.6652222
3.2823687 0.7236616 3.6823499
3.285697 0.77373338 3.6846321
3.2824163 0.81491834 3.6803501
3.3007491 0.83071262 3.6698248
3.2866964 0.881868 3.6756401
3.3032606 0.86499894 3.6658788
3.2806642 0.93812323 3.6820211
3.3075325 0.94476849 3.6538072
-0.15616657 0.98221558 3.6543214
-0.12491049 0.9778738 3.6563303
-0.085218593 0.98773414 3.6764443
3.2812483 0.98064804 3.680418
3.3166115 0.98116618 3.6561003
-0.15663314 1.0209916 3.658612
-0.12123919 1.0249436 3.6736898
-0.085799001 1.0215912 3.6964989
0.022685187 1.0311936 3.6975014
3.2902682 1.0433639 3.6985533
3.3152938 1.0293047 3.6651464
-0.15718439 1.0784911 3.6610565
-0.12170169 1.0737871 3.6784248
-0.08604911 1.0698885 3.6986361
3.2867341 1.0761917 3.6861393
3.3027072 1.0740565 3.6612744
-0.15733281 1.1244917 3.6553583
-0.12195031 1.1212648 3.6770325
-0.086228102 1.1175401 3.6972299
3.2821283 1.118699 3.6844995
3.3085313 1.1212282 3.6559377
-0.16687129 1.1733713 3.6575825
-0.12492585 1.1740454 3.6781566
3.2969656 1.1703894 3.673584
-0.16930656 1.2285023 3.6599483
-0.12291062 1.2210845 3.6858952
3.2874324 1.2206633 3.6931038
3.3033295 1.2181468 3.6678154
-0.17121674 1.2797037 3.6643169
-0.13251008 1.2712891 3.6885862
3.291584 1.267875 3.6843958
3.3074074 1.2652266 3.658901
-0.17800607 1.3247989 3.6701891
-0.13468531 1.3166325 3.6876163
3.2893772 1.3172114 3.6896217
3.3124273 1.3196064 3.6636143
-0.17880286 1.3764483 3.6745176
-0.14259751 1.3808801 3.6875732
3.2892976 1.3677036 3.6967366
3.3118832 1.3606125 3.6652603
-0.21495025 1.4092969 3.6536183
-0.17979999 1.4303302 3.6830723
-0.14333878 1.425096 3.6969833
3.29285 1.4151751 3.6856339
3.3090501 1.4123101 3.6601782
-0.22565055 1.4836552 3.6609883
-0.18020807 1.4705213 3.6811581
-0.14371255 1.465896 3.6965864
3.3149543 1.4658914 3.6727109
-0.22614449 1.5238011 3.6583221
-0.1862793 1.5203534 3.683718
3.2951818 1.5304004 3.6958566
3.3052032 1.5128279 3.667366
-0.21813069 1.5727974 3.6677325
-0.18216512 1.5796335 3.6933773
3.2935827 1.5644263 3.6813025
3.31458 1.5634322 3.6607618
-0.26176652 1.6301755 3.6522741
-0.21913768 1.6235378 3.6711891
-0.18311796 1.6348736 3.698324
3.3191559 1.6176059 3.6701517
-0.25641662 1.6697857 3.6537638
-0.21777312 1.6762606 3.6798379
3.3146625 1.6676919 3.6689744
-0.26729947 1.7264636 3.6591048
-0.22154336 1.7264136 3.6843712
3.3106298 1.7182872 3.667731
-0.26677471 1.7768173 3.6637459
-0.22273131 1.7734233 3.6909277
3.3213356 1.7689136 3.6690743
-0.26954174 1.82616 3.6602793
-0.2259464 1.8194104 3.6841743
3.3167043 1.827961 3.6792059
-0.27074587 1.8723865 3.6628518
-0.22435467 1.8722457 3.6870918
-0.18666036 1.8771973 3.6984515
3.2982299 1.8965632 3.6997788
3.3208151 1.8757359 3.6720822
-0.27807507 1.9236244 3.6588504
-0.23531175 1.9314876 3.6907506
3.3154163 1.9290136 3.6745079
-0.30169591 1.9929843 3.6503253
-0.27351332 1.9779634 3.6672828
-0.2360312 1.9759539 3.6871634
3.3162229 1.9657861 3.6756933
-0.30286869 2.0296059 3.6527863
-0.27447551 2.0233123 3.6644034
-0.2368753 2.021765 3.6850269
3.3126838 2.0208356 3.6792209
-0.30459923 2.0798957 3.6575596
-0.27616262 2.0745831 3.6710486
-0.24795909 2.0721724 3.6895709
3.3128173 2.065649 3.6750576
-0.30588517 2.127543 3.6563611
-0.27735049 2.1224172 3.6702259
-0.23951699 2.1225028 3.6935451
3.2979748 2.128418 3.6932535
3.310226 2.1209183 3.6613259
-0.30739653 2.1771038 3.6572232
-0.273258 2.1754272 3.6773007
-0.24051762 2.1707795 3.6921329
3.2868676 2.1971507 3.6956606
3.3099296 2.1751301 3.6687155
-0.30812028 2.2115746 3.6525936
-0.27037367 2.2231991 3.6740811
3.2881217 2.2342269 3.6779506
3.3087487 2.2319179 3.6550956
-0.30966493 2.2620032 3.6526823
-0.26882192 2.2788227 3.6705449
-0.23304513 2.2720549 3.6939886
3.2988231 2.277858 3.6703873
-0.26882499 2.3342609 3.6639187
-0.23414807 2.322679 3.6926446
3.3071911 2.329875 3.6728051
-0.26016688 2.3742058 3.6560123
-0.22447331 2.3757076 3.6737239
-0.18196839 2.3919196 3.687042
3.305954 2.3852727 3.6771491
-0.21435831 2.413986 3.6516457
-0.18153362 2.4066138 3.6688061
-0.12495117 2.4206033 3.6648707
-0.071079001 2.4175892 3.6776376
-0.02835582 2.4198964 3.6789181
0.025129614 2.4275815 3.677007
0.075449534 2.4333518 3.6852398
0.1260096 2.4390233 3.6927545
0.17598709 2.4340544 3.6836653
0.2307069 2.4374857 3.6662004
0.27348351 2.4427855 3.6787622
0.32782605 2.4414856 3.6869209
0.37404642 2.4424603 3.6713972
0.4290491 2.438422 3.6844957
0.47036192 2.448303 3.6853788
0.54763675 2.4321563 3.6524079
0.57552123 2.4361141 3.6799893
0.62187058 2.4373879 3.6719482
0.66628259 2.4428501 3.6673396
0.73754555 2.4420626 3.6834123
0.77555215 2.4337502 3.6642976
0.84040296 2.4453878 3.6712997
0.88193005 2.447571 3.6670473
1.0121317 2.4461975 3.6815217
1.094083 2.4456699 3.6620226
1.127093 2.4440842 3.6809864
1.1802877 2.4335077 3.6652195
1.2291368 2.4486263 3.677134
1.2655904 2.4453127 3.6768653
1.3178397 2.4385574 3.681258
1.3731111 2.4309552 3.6676829
1.4201658 2.4427299 3.6807904
1.4742657 2.4404151 3.6712227
1.7238492 2.4295149 3.6720638
1.7742198 2.4451828 3.6802683
3.2876885 2.4264965 3.6821616
3.3034151 2.4201236 3.6533871
0.34649226 2.4508553 3.6589603
0.49099886 2.4503455 3.686404
0.52149105 2.4509382 3.6840439
0.6959734 2.4592953 3.6743383
0.82218593 2.4518089 3.6845667
0.86387897 2.4542112 3.6808195
0.92605281 2.4565122 3.672446
0.98345178 2.4566567 3.6753333
1.0220027 2.4554377 3.6722994
1.0653617 2.4504857 3.6764443
1.1381859 2.4521749 3.6617539
1.1581562 2.4508502 3.6546118
1.5255426 2.45016 3.682689
3.2442465 2.4796922 3.697835
3.2662067 2.4655042 3.6832504
1.5236254 -0.42023599 3.7285831
1.4781591 -0.37277091 3.7053392
1.5162843 -0.38115257 3.7349176
1.4840842 -0.31808352 3.7237978
1.5226367 -0.32499188 3.7413259
1.4706712 -0.27951375 3.7128682
1.5049044 -0.28103244 3.7258112
1.4692297 -0.21962833 3.7119937
1.5085828 -0.22930688 3.7243538
1.4714888 -0.17471485 3.7088439
1.5210146 -0.18141399 3.7353146
1.475053 -0.14864583 3.7081635
1.5239513 -0.149786 3.7264364
3.17646 0.33143029 3.7191684
0.54339677 0.37731674 3.7266147
0.54443944 0.41398242 3.7312574
3.1984434 0.53330827 3.7252119
3.2110605 0.51314795 3.7425611
3.1870673 0.56454003 3.7077887
3.1888161 0.6021843 3.7473049
3.2028894 0.64509046 3.7154319
0.53135431 0.67215419 3.7432706
3.2362986 0.68314415 3.7279401
0.5297271 0.74253637 3.7226551
3.2321577 0.72942591 3.7370424
3.2601893 0.7327888 3.7121964
3.2415369 0.77648926 3.7401617
3.2561753 0.77466321 3.714591
3.2455859 0.82249629 3.7366033
3.2608967 0.82070804 3.7117026
3.2605028 0.86849225 3.7237093
3.2496071 0.94744158 3.7160316
3.2629819 0.91424042 3.7172611
3.2481012 0.99895072 3.7469275
3.2575831 0.98364913 3.7175746
-0.06785734 1.0236561 3.7042277
-0.031723153 1.0371383 3.71875
3.2651966 1.0304161 3.7247803
-0.068110593 1.0760311 3.7104988
-0.028218452 1.0675991 3.7312913
0.019843975 1.0756749 3.7303913
3.2669501 1.080853 3.7280626
-0.064722434 1.1285197 3.7146122
-0.027469406 1.11558 3.7396483
0.032052189 1.1159775 3.7247889
3.2682559 1.1318566 3.7241089
-0.066309556 1.1749218 3.7181098
-0.027551411 1.1792376 3.7399096
3.275465 1.1748517 3.7139194
-0.105472 1.2483664 3.7090676
-0.068780117 1.2220708 3.7196026
-0.026102692 1.2197026 3.7429702
3.2728646 1.2227422 3.7353313
-0.10567455 1.2783632 3.7097504
-0.069182284 1.2751298 3.7298944
-0.032392293 1.2709937 3.7475038
3.279645 1.2788376 3.7275655
-0.10617493 1.3213689 3.7184467
-0.069366626 1.3249681 3.7291489
3.2717459 1.3170072 3.7215378
-0.11945594 1.3687259 3.7097702
-0.072329819 1.3718526 3.7348454
3.2648745 1.3718625 3.734447
-0.11773014 1.4250609 3.7082081
-0.07938683 1.421211 3.741792
3.2701893 1.4202701 3.7255485
-0.12222935 1.4793173 3.72052
-0.089164205 1.474981 3.7469563
3.2802548 1.4709445 3.7213764
-0.16330899 1.5313492 3.7040155
-0.12382526 1.5249432 3.7257984
-0.089461707 1.5270214 3.746289
3.2760189 1.5206677 3.7223682
-0.16406131 1.5759534 3.7100289
-0.12699957 1.5724102 3.72774
-0.089735433 1.5789596 3.7440522
3.2840974 1.5785333 3.728009
-0.17100926 1.626438 3.7119339
-0.13022895 1.6208581 3.7306614
-0.090162978 1.6339625 3.7475824
3.2844315 1.6233532 3.7196937
-0.17461845 1.6716478 3.7087579
-0.1316615 1.6646274 3.7281163
3.2798278 1.6737026 3.7284222
3.3073092 1.6874588 3.7004688
-0.17734954 1.7233524 3.7123866
-0.12873621 1.7234684 3.7384689
3.2821193 1.7277904 3.7247515
-0.17612532 1.7719011 3.7127042
-0.13299601 1.7696072 3.7371578
3.2856295 1.7749004 3.7184427
3.3032506 1.791653 3.7018278
-0.17554155 1.827515 3.7261224
-0.13935186 1.8178017 3.7396131
3.2775576 1.8323549 3.7249789
-0.17435144 1.8695894 3.713768
-0.14181238 1.869055 3.7379119
3.2835007 1.8712019 3.7162619
-0.2070476 1.9270419 3.7055199
-0.17279656 1.9244283 3.719588
-0.14978042 1.9145318 3.7280321
3.2795608 1.9199061 3.7317905
-0.20809796 1.9851999 3.7057204
-0.17390224 1.975803 3.728888
3.2884223 1.9712157 3.7294147
-0.20921776 2.0348306 3.7101798
-0.17079437 2.0218508 3.7313769
3.2873003 2.0256317 3.7284184
3.3006387 2.0072241 3.7036538
-0.21973759 2.0813174 3.7072458
-0.17154901 2.0700281 3.7320511
3.2870283 2.0809898 3.7277465
-0.21130183 2.1337764 3.7144847
-0.17246334 2.1205385 3.7356329
3.2766647 2.1393859 3.7282908
-0.21838921 2.1752903 3.707922
-0.17960463 2.1697762 3.7283285
3.279192 2.1759138 3.7225132
-0.22272891 2.2284529 3.7061229
-0.18083686 2.2245448 3.7364702
3.2685082 2.2226036 3.7278442
-0.21388583 2.2792976 3.7066603
-0.17859006 2.2644038 3.7297359
3.2773223 2.2760143 3.7219644
-0.21478972 2.3288987 3.7034602
-0.17834783 2.3223705 3.7271209
-0.13604033 2.3394156 3.7439442
3.28018 2.3231096 3.7286718
3.300369 2.3201652 3.7049961
-0.17176796 2.3642433 3.7155881
-0.12624148 2.3751159 3.7382512
-0.085973918 2.3894312 3.7408271
3.2774057 2.3666136 3.728544
-0.15626532 2.4008641 3.7154741
-0.12610564 2.4128089 3.7142034
-0.080833852 2.4129281 3.7256427
-0.021875525 2.4147446 3.7256775
0.025319871 2.4208429 3.7240226
0.072581567 2.4227746 3.7237918
0.12684816 2.4354753 3.7283792
0.17788798 2.4394693 3.7329192
0.22338246 2.4416487 3.7240422
0.28019461 2.4455843 3.7374797
0.31935006 2.433424 3.7163851
0.36750144 2.4352131 3.7323132
0.41298294 2.4476428 3.7311594
0.47225437 2.4378316 3.7105751
0.52321815 2.4386902 3.706625
0.56685364 2.4313965 3.732331
0.64162964 2.4437985 3.7423837
0.68424934 2.4493873 3.7452869
0.71325666 2.4430633 3.7311335
0.82563919 2.4415791 3.7106783
0.88023704 2.4405761 3.7208748
0.93832153 2.4474893 3.7426381
0.97888333 2.4452591 3.7308297
1.0211679 2.4369521 3.7306237
1.0744874 2.4402804 3.7242489
1.1135273 2.4389181 3.720382
1.1685861 2.4313872 3.7095191
1.2278273 2.4353905 3.7236943
1.2693452 2.4380884 3.7247036
1.3182111 2.4375701 3.7256055
1.3610592 2.4391422 3.7158809
1.4221556 2.4379823 3.7307737
1.4755358 2.4335876 3.7183213
1.5220501 2.440371 3.7148328
1.7841322 2.4372573 3.7125907
1.8679619 2.4407525 3.7364256
3.2610388 2.4216723 3.7290442
0.65839666 2.4503431 3.7079332
0.7229144 2.4544551 3.7191269
0.78084707 2.4580927 3.7299452
0.81140429 2.460608 3.7431479
0.8604697 2.453202 3.722842
0.92306393 2.4552546 3.7143054
0.96961045 2.4529588 3.7159278
3.2331126 2.4672637 3.7258193
1.5799767 -0.41253877 3.7631798
1.6237712 -0.41561517 3.781723
1.5438473 -0.3702305 3.7647219
1.5775362 -0.37760726 3.77354
1.6189878 -0.37440896 3.7905278
1.5375804 -0.32142654 3.7524426
1.5784746 -0.3239952 3.7740698
1.6198909 -0.32657468 3.7956886
1.5376887 -0.27413911 3.755275
1.573248 -0.27536255 3.7641785
1.616873 -0.27796629 3.7912817
1.5392053 -0.21755904 3.7615209
1.5788172 -0.22868228 3.7796428
1.5747271 -0.17101248 3.7719355
1.618587 -0.16730896 3.7870224
1.6115992 -0.13361548 3.7842588
3.1762326 0.33485603 3.7816012
3.1991253 0.35843626 3.78597
3.2146227 0.37343159 3.774895
3.2179062 0.42646709 3.7810631
3.2172699 0.48234296 3.7746272
3.2186823 0.5291816 3.7923892
3.1912551 0.58441848 3.795424
3.2145863 0.5733515 3.7820344
0.53383833 0.63879526 3.7650108
3.1852186 0.61689746 3.7837355
0.53377485 0.69346452 3.75811
3.2105591 0.67995071 3.7794392
0.53381217 0.72088689 3.75493
3.2137406 0.73285961 3.7792406
3.2217329 0.77983481 3.7809525
3.2226291 0.82521081 3.7738628
3.2280602 0.8718431 3.7715487
3.2349527 0.91905558 3.7704287
3.235487 0.96791208 3.7828777
3.2505889 0.96566552 3.7574182
3.2298501 1.0213329 3.7817426
3.2347546 1.0791562 3.783134
-0.013756586 1.1343389 3.7534592
0.0093191154 1.1313483 3.759685
3.2377956 1.129481 3.777415
3.2510962 1.1440556 3.7600348
-0.013774256 1.1634594 3.7524545
0.025954949 1.1748799 3.7709546
0.065350585 1.1708603 3.7918134
3.24014 1.1826626 3.7816315
3.2538054 1.1793398 3.7540212
-0.013845 1.2343248 3.7573948
0.021065643 1.2275581 3.7747486
0.060952596 1.2270973 3.7962637
3.2356732 1.2259427 3.7794034
3.2677398 1.241841 3.7541502
-0.013886387 1.2752154 3.7600074
0.026178287 1.2781011 3.7812004
3.2329607 1.280679 3.7912326
3.257061 1.2742829 3.7620423
-0.02508978 1.3201401 3.7558587
0.023600241 1.3246291 3.7860165
3.240108 1.3297529 3.7859106
3.2547045 1.3263099 3.7590103
-0.021542016 1.3759604 3.7752266
0.014224868 1.370355 3.785265
3.2324448 1.3798437 3.7761629
-0.056252003 1.4318025 3.7563298
-0.023484074 1.4234934 3.7756371
0.0048023658 1.4286151 3.7892509
3.2367716 1.425809 3.7749352
-0.061076961 1.4772112 3.7530336
-0.025395762 1.4686859 3.7688141
0.0048175659 1.4617565 3.7941632
3.2587459 1.4842893 3.7763336
-0.061318945 1.5210798 3.7579687
-0.021802744 1.5262619 3.7867744
0.0048415749 1.526636 3.7982626
3.2493608 1.5298647 3.7802432
3.2599194 1.5122929 3.7522173
-0.063542463 1.5726731 3.7648978
-0.023779375 1.5752449 3.7868013
3.2392633 1.5830096 3.7963846
3.2620857 1.5750815 3.7648535
-0.065048151 1.6242162 3.7668293
-0.028672069 1.6298144 3.7885165
3.2438734 1.6322178 3.7845092
3.2598071 1.6284821 3.7582965
-0.10963354 1.6792206 3.7516072
-0.071823187 1.6783123 3.7746246
-0.027197601 1.6743903 3.7908185
3.246316 1.6686859 3.7740006
3.2534912 1.6959233 3.7732029
-0.10981034 1.7010381 3.7515597
-0.074721202 1.7246993 3.7695832
-0.033738185 1.7196482 3.7936499
3.2416492 1.7374816 3.790432
3.2599027 1.7346699 3.7665768
-0.11067139 1.7914118 3.7554612
-0.072394542 1.7784653 3.7760129
-0.033953261 1.7888856 3.7985685
3.2605522 1.7825731 3.7646987
-0.11108318 1.8270911 3.7594161
-0.077351488 1.8196964 3.7680814
3.2594924 1.8183448 3.782105
-0.11131476 1.8696215 3.7535505
-0.072931349 1.8700496 3.7781339
3.2470236 1.8723543 3.7928162
3.2622557 1.8674715 3.7649994
-0.12163986 1.9187524 3.7595546
-0.077212185 1.9222885 3.7809868
3.2598286 1.91898 3.7733433
-0.15126684 1.9725879 3.7502778
-0.12417497 1.9727995 3.7602737
-0.083592974 1.9789445 3.7863603
3.2620106 1.9856914 3.7810719
-0.12081844 2.029007 3.7592652
-0.083917595 2.0262933 3.7860503
3.2620299 2.0322239 3.7681847
-0.12663323 2.08026 3.7591355
-0.084169641 2.0719883 3.7816169
3.259732 2.0744581 3.7713158
-0.12402041 2.1248276 3.7663109
-0.084570237 2.1215727 3.78315
3.2652082 2.1234612 3.7733729
-0.15447496 2.1938961 3.7564008
-0.12455194 2.1736896 3.7653279
-0.085017711 2.172997 3.7866085
3.2361882 2.1875553 3.7887118
3.2553689 2.1720297 3.7706664
-0.15481475 2.2287076 3.7514334
-0.12310413 2.227596 3.7632012
-0.085422263 2.2234693 3.7870319
3.233793 2.2320178 3.7806511
3.2591798 2.2110238 3.7564702
-0.15591426 2.2948427 3.75528
-0.12893933 2.2789743 3.7581089
-0.085885465 2.275739 3.7891464
3.2477677 2.2685776 3.7643642
3.2554629 2.2984102 3.7602532
-0.12290713 2.3186951 3.7669227
-0.086359888 2.3290751 3.7916393
3.2478411 2.3349156 3.785104
3.2636857 2.3287356 3.7565038
-0.11669302 2.3558722 3.7707996
-0.076187991 2.3703041 3.7735555
-0.028946275 2.3895965 3.797673
3.2375011 2.3732343 3.7764292
3.2509468 2.3863673 3.761703
-0.056216944 2.4152045 3.7816334
-0.025517467 2.4152021 3.7818737
0.018808987 2.422241 3.7789695
0.080286317 2.424753 3.7822235
0.12793097 2.4274783 3.7742851
0.17846532 2.4270177 3.7552543
0.21973471 2.432229 3.7616601
0.27132294 2.4317057 3.7687569
0.32220814 2.434773 3.7599497
0.38539854 2.4361775 3.7787042
0.41501763 2.4391923 3.7598407
0.58555442 2.4462845 3.7961752
0.64813596 2.447825 3.7907569
0.67789412 2.4429975 3.7790651
0.72162795 2.4322455 3.7701628
0.75219339 2.4490328 3.7777596
0.88224179 2.4397144 3.7627151
0.93579996 2.4472499 3.7869391
0.97532821 2.4415717 3.7699008
1.0481424 2.4410799 3.753732
1.076296 2.4367495 3.7853882
1.1375861 2.4330964 3.7652211
1.1747441 2.4449532 3.7758963
1.2081112 2.4485626 3.7735741
1.2747029 2.4338138 3.7777424
1.3277518 2.4340432 3.7635784
1.379156 2.4367933 3.7692692
1.4241486 2.4330349 3.7811623
1.4519821 2.4260628 3.7605748
1.8969927 2.4313138 3.7856674
1.9146556 2.43683 3.7621343
1.9814436 2.4431324 3.799073
3.2212856 2.4286747 3.7771578
0.43877664 2.4574931 3.786253
0.46918043 2.4546154 3.7789509
0.52152652 2.4582818 3.7793577
0.61948186 2.4576192 3.7812099
0.6643675 2.4519496 3.7520814
0.78518784 2.4548278 3.7817543
0.82736623 2.4566436 3.7776427
0.91854489 2.4500403 3.7505703
1.1250899 2.45155 3.7987635
3.1234834 2.4810052 3.7913492
3.186604 2.4673657 3.7862935
3.2079256 2.4648421 3.764101
1.6653498 -0.41318092 3.8110588
1.7190733 -0.41105723 3.8410974
1.6482786 -0.37671334 3.8080101
1.675483 -0.37847024 3.8200374
1.7076356 -0.37154233 3.843281
1.6367397 -0.3183372 3.8102045
1.6684463 -0.33393604 3.8269248
1.7084517 -0.32275975 3.8482194
1.6473429 -0.26057875 3.8125582
1.6745951 -0.27538306 3.8240256
1.7006379 -0.25307068 3.834172
1.6309373 -0.22703752 3.8062053
1.6740696 -0.22290166 3.8252735
1.6426769 -0.18275796 3.804841
1.6683006 -0.18346815 3.8135042
1.7049017 -0.18532816 3.8464675
3.1568913 0.33631438 3.8216588
3.1784382 0.36690369 3.8170395
3.1907585 0.42079106 3.8272951
3.1881239 0.47342691 3.8260489
3.1869059 0.53131497 3.8397374
3.2031136 0.53029037 3.816473
3.18171 0.57041556 3.8142393
3.1711848 0.62071764 3.830735
3.1954052 0.66849655 3.8321147
3.2053828 0.65461963 3.8029137
3.1822054 0.72460246 3.8290062
3.1853852 0.78193885 3.8234544
3.145123 0.81421977 3.8332992
3.1842105 0.82690728 3.8139863
3.1956429 0.87841749 3.8407536
3.2096221 0.87603736 3.8142619
3.198606 0.92484295 3.8352575
3.2137623 0.92266387 3.8100781
3.1911652 0.9682163 3.8167989
3.2151356 0.96860743 3.8020902
3.1930752 1.0179813 3.8307328
3.2053668 1.0296781 3.8211167
3.1921945 1.0672007 3.8408897
3.2097311 1.0654321 3.8182936
0.17434914 1.1117307 3.841332
3.1954172 1.1256632 3.8308125
3.2119834 1.1234537 3.8069382
0.089083239 1.180707 3.8073912
0.12738717 1.1882489 3.8309884
3.1790898 1.1509783 3.8491921
3.2134993 1.185497 3.8157377
0.089316197 1.2212263 3.8087969
0.11786152 1.2157252 3.8226066
3.1902783 1.2242998 3.8445213
3.216284 1.2378834 3.8127716
0.0802968 1.2738858 3.815505
0.11860655 1.2708465 3.8363123
3.1956241 1.2841591 3.834893
3.2156537 1.2829397 3.8147416
0.07816159 1.322431 3.8158619
0.11917549 1.3246179 3.8437691
3.2175338 1.3292576 3.8191907
0.03004059 1.3751818 3.8032906
0.0713429 1.3774168 3.8186474
0.10510582 1.3750552 3.8403721
3.1926906 1.3970201 3.8445275
3.2207422 1.3733499 3.8297215
0.033351101 1.425931 3.8096523
0.071798064 1.4248819 3.8345284
0.10047623 1.4154178 3.8368595
3.2136757 1.4382998 3.827667
0.027826959 1.4838938 3.8186679
0.072046474 1.4682077 3.8378594
3.2196066 1.4855444 3.8280718
3.2517123 1.4725581 3.8030152
0.03368368 1.5265225 3.8244834
0.067524731 1.517856 3.8426516
3.21767 1.5314047 3.8098381
0.024130639 1.5763963 3.8154755
0.062928677 1.5765252 3.8416748
3.196763 1.5851134 3.8356555
3.2184038 1.5842416 3.8165762
-0.014331715 1.6133415 3.8007448
0.027019288 1.6293072 3.8235955
0.063177496 1.6313314 3.8427851
3.2193496 1.6316811 3.8169479
-0.014397861 1.6785401 3.8003705
0.024340233 1.6775841 3.8230698
0.063321032 1.6739947 3.8398192
3.2216265 1.6682882 3.8229325
-0.02091592 1.7238007 3.8028047
0.024461007 1.7244667 3.8288879
3.2222934 1.7161072 3.8221664
-0.019401059 1.7730047 3.8127081
0.020614749 1.7675537 3.8300872
3.2231147 1.7721652 3.8179243
-0.053634517 1.8359817 3.8021657
-0.024326425 1.8257248 3.8046701
0.020745322 1.8205051 3.8367004
3.2320726 1.8229386 3.8182335
-0.024472492 1.8765293 3.8150005
0.014875963 1.8750315 3.835448
3.2195992 1.8771744 3.8290997
-0.054011866 1.92752 3.8008177
-0.024585668 1.9247123 3.8185329
0.011650159 1.9321672 3.8411243
3.2265334 1.9291418 3.8165057
-0.05418507 1.9632907 3.8019867
-0.024702527 1.973524 3.8220103
0.011715717 1.9886737 3.843734
3.23458 1.9804329 3.8140032
-0.054479554 2.0235147 3.8036525
-0.024792576 2.0197697 3.8194103
0.015072433 2.0194111 3.8415453
3.2212636 2.0202074 3.8470979
3.2526412 2.0368302 3.8322573
-0.054744363 2.0731745 3.8064287
-0.024923125 2.0709591 3.8248553
0.0050963499 2.0938478 3.844677
3.2357779 2.0767701 3.824333
3.2526517 2.0610862 3.8209026
-0.054978978 2.1120641 3.8105574
-0.025028409 2.1195993 3.8243649
0.0051032668 2.1273203 3.838367
3.223918 2.1266901 3.8277097
3.255208 2.1112447 3.8006196
-0.055265933 2.1733675 3.8094337
-0.025155537 2.1703119 3.8262992
0.0051404503 2.1942742 3.8464627
3.2243061 2.1742465 3.8139789
-0.055531338 2.2342939 3.8059111
-0.025282973 2.2220325 3.8286495
0.0051472266 2.2177961 3.8433664
3.2115357 2.2146227 3.8293273
-0.055771239 2.284524 3.804224
-0.025384972 2.2725816 3.8276589
0.015440111 2.2963405 3.8459105
3.2324903 2.2782717 3.8290005
-0.056093283 2.3385015 3.8074393
-0.025488775 2.3222609 3.8239474
0.015481655 2.3335543 3.8426082
3.2276611 2.335808 3.8287992
3.255547 2.3158121 3.8073349
-0.022146983 2.3667166 3.8178051
0.025818104 2.3795664 3.8313677
0.067164019 2.3957677 3.8356144
3.1936522 2.3986123 3.836251
3.2206013 2.3777492 3.8139675
0.030939637 2.4133177 3.8105235
0.081003062 2.4111817 3.8314884
0.12208108 2.4204266 3.8168688
0.17508215 2.4323325 3.8312378
0.22263876 2.4334025 3.8267984
0.26915163 2.4329093 3.8237429
0.37812206 2.4380274 3.8175824
0.44199008 2.4442463 3.8293881
0.47219861 2.4391525 3.8185441
0.54820061 2.4438016 3.8398046
0.56787258 2.4386101 3.8293195
0.60772806 2.4313395 3.8129919
0.66115904 2.4368806 3.8150063
0.71423101 2.4403372 3.8131759
0.75706738 2.4440024 3.8126738
0.8896262 2.4430718 3.833441
0.97378659 2.4429071 3.8171785
1.0271906 2.4461372 3.8267419
1.077791 2.4429321 3.841038
1.119108 2.4403598 3.8274603
1.1751142 2.4412763 3.827399
1.2216983 2.4404593 3.8340187
1.2769125 2.4369915 3.8295746
1.319219 2.4361875 3.8168125
1.4159069 2.4341426 3.8337822
1.9301789 2.4344466 3.8044293
1.9762833 2.4392352 3.8211107
2.0188434 2.4392929 3.8300643
3.1937997 2.4481986 3.8088956
3.200634 2.4286461 3.8309369
0.3274135 2.4531138 3.8306479
0.42079669 2.4523633 3.8224885
0.52451199 2.4515579 3.8113291
0.5658651 2.4507697 3.8055577
0.60832626 2.4545448 3.8064742
0.78185326 2.4562688 3.8285356
0.82288837 2.4535229 3.8174026
0.86738288 2.4502003 3.8267207
0.9360137 2.4542999 3.8432374
1.2412546 2.4512336 3.8160069
3.1748996 2.4650269 3.826952
1.7801538 -0.41616368 3.8762209
1.7304803 -0.37326723 3.8568397
1.7771766 -0.38025922 3.8772411
1.8230511 -0.3992036 3.8960431
1.740216 -0.32503372 3.8691444
1.7709184 -0.32707864 3.88695
1.7290152 -0.27966064 3.8590741
1.779394 -0.27720833 3.8831923
1.8206551 -0.28895861 3.897707
1.72089 -0.2251981 3.8558681
1.7759538 -0.22721848 3.8779147
1.6843046 -0.15591958 3.8509831
1.7274671 -0.17144483 3.859972
1.7760035 -0.17774667 3.8798161
1.8194238 -0.18907194 3.8993254
1.7141244 -0.13721018 3.8686891
1.7699286 -0.13848887 3.8926008
3.1867707 0.38462463 3.8542638
3.1889949 0.40747267 3.8550041
0.28389579 0.474659 3.875278
0.28544649 0.51467651 3.8933086
0.3249698 0.69696188 3.8983226
3.1769624 0.66935396 3.8528252
0.3248207 0.78138876 3.8858571
3.1791449 0.91437453 3.8575003
3.1690404 1.0785469 3.8538861
0.19392796 1.1159819 3.855412
0.22435287 1.1262417 3.889807
3.1786008 1.1278008 3.8543675
0.15693922 1.1980329 3.8618295
3.185755 1.1764441 3.8513491
0.13783535 1.22577 3.8537207
0.17948078 1.2269924 3.8805153
0.22250366 1.2163247 3.8966529
0.13822757 1.2769113 3.8541763
0.17749542 1.2753965 3.8796406
0.21664953 1.2514938 3.8998964
0.13875525 1.3296337 3.8578973
0.16632226 1.322314 3.8781281
0.13278718 1.3687587 3.861084
0.17881246 1.371992 3.8887081
3.1984577 1.3645694 3.8621712
0.12408976 1.4191395 3.857801
0.16965249 1.4245731 3.888741
0.12339399 1.4724853 3.8690243
0.16525321 1.4722776 3.8884592
0.08224982 1.5374541 3.8513746
0.12141304 1.5238088 3.8704312
0.16091357 1.5306847 3.8869109
0.082533702 1.5816002 3.8537738
0.11913778 1.5733273 3.8746257
0.16155146 1.5661101 3.8942337
0.076377995 1.623456 3.8584564
0.1226014 1.627148 3.883868
0.076590329 1.6671289 3.8576806
0.12304951 1.6758738 3.8856878
3.2067418 1.6848156 3.8626294
0.071734928 1.7238877 3.8620572
0.12349909 1.721249 3.8872042
0.044429395 1.794444 3.8587401
0.074108057 1.7771769 3.8701773
0.1106244 1.7691709 3.885185
0.044442821 1.8147335 3.8533857
0.076357499 1.8269144 3.8690975
0.11120779 1.8247017 3.8898637
0.044645645 1.8726285 3.8541498
0.074716434 1.8809811 3.8710132
0.11150473 1.8630649 3.8895085
0.044824861 1.9199929 3.8556695
0.075009279 1.9284685 3.872364
0.10539962 1.9164027 3.8950992
3.1945834 1.91948 3.8527124
0.035046514 1.9686133 3.8586006
0.075497136 1.9813175 3.8830891
0.10579269 1.9638681 3.8952355
0.045207426 2.016746 3.8591857
0.075672485 2.0261292 3.8767886
0.10616073 2.0010264 3.8976991
0.025269875 2.0704896 3.8594873
0.07612963 2.0785937 3.8839514
3.2135661 2.0913684 3.8562925
0.03898384 2.1252441 3.8718598
0.073105432 2.1269405 3.8897257
3.196713 2.1449733 3.8595395
3.2027457 2.1245975 3.8786013
0.029621769 2.1722522 3.8696868
0.066580996 2.1802294 3.8880196
3.188133 2.1678503 3.8903375
3.2042856 2.17449 3.8567142
0.029736066 2.2252972 3.8650563
0.073789157 2.2292423 3.8922794
3.1926093 2.2199812 3.8715339
0.02988686 2.2723863 3.8666122
0.077548265 2.2835503 3.8895657
3.186687 2.2823331 3.8868823
3.2064133 2.2788568 3.8631673
0.046460986 2.320612 3.8644123
0.074343204 2.3291051 3.8855851
3.196825 2.3267167 3.8799694
3.2211478 2.3264542 3.8615327
0.04662751 2.3600214 3.8642468
0.080018893 2.3718104 3.8744099
0.11642865 2.3906076 3.8840296
3.1897182 2.3666961 3.8857534
3.2030957 2.3808961 3.8611155
0.11977173 2.4156799 3.8665295
0.16706784 2.4168954 3.8779798
0.22499081 2.4279861 3.882704
0.28178251 2.4265416 3.8666992
0.32990509 2.4403443 3.875088
0.36886144 2.4405196 3.8799562
0.42099953 2.4442203 3.8789089
0.47876376 2.4413133 3.8866329
0.51596606 2.4490671 3.866246
0.73279989 2.4466884 3.8648829
0.77332497 2.4455564 3.8718975
0.82983899 2.4477205 3.8626351
0.85637236 2.4472995 3.8913591
0.97201496 2.4438469 3.864511
1.0220561 2.438617 3.8687229
1.0738312 2.4367721 3.8778303
1.1259251 2.4338951 3.8614271
1.1719701 2.4301186 3.8677731
1.2245402 2.4389699 3.8780375
1.278404 2.4388773 3.8800485
1.3299187 2.434361 3.8585429
1.3706588 2.4331679 3.8815768
3.182339 2.4315836 3.8773565
0.53376228 2.4525061 3.89922
0.58974153 2.4579859 3.887121
0.62721175 2.4566693 3.8731482
0.6818251 2.4601068 3.878967
0.70487356 2.459574 3.8897858
0.88001978 2.4539206 3.8982129
0.92110991 2.4550757 3.8813539
3.1459408 2.4687085 3.8948596
3.1684518 2.4793329 3.8671689
1.8296623 -0.42070001 3.9086897
1.8709326 -0.40304935 3.923492
1.8240162 -0.36746374 3.9168406
1.8750283 -0.3736023 3.9341669
1.7999358 -0.31874928 3.9009871
1.8179854 -0.3329078 3.9060042
1.8702908 -0.32667848 3.9320083
1.8224603 -0.25928345 3.9030507
1.8687463 -0.27162379 3.9267428
1.8232536 -0.22944307 3.9060459
1.8685182 -0.2255168 3.9332244
1.8310411 -0.16018125 3.9251611
1.869971 -0.17101666 3.93331
1.8179269 -0.13988099 3.9222674
1.8713619 -0.14087322 3.937078
0.38379255 0.36009619 3.9490359
0.32144189 0.43009776 3.9382687
0.36517945 0.43629557 3.9487972
0.32620224 0.47267982 3.9351442
0.28717583 0.5460301 3.914376
0.32075715 0.52662343 3.9303441
0.28738785 0.57473183 3.9145875
0.32256588 0.5691402 3.9405808
0.28786215 0.62279922 3.9162824
0.33708993 0.64559543 3.9355464
0.36674577 0.63818634 3.9477725
0.33702955 0.6739856 3.9318166
0.36679104 0.66684133 3.9451416
0.3474029 0.72329479 3.9357483
0.36746299 0.73488104 3.944499
0.34864545 0.77363181 3.9438241
0.33666122 0.8359704 3.9450471
0.36855328 0.80405337 3.9475384
0.33983105 0.871023 3.9395845
0.33092269 0.92073745 3.9408081
0.35025826 0.93074518 3.9399743
0.33137044 0.97000778 3.9384546
0.35126457 0.96228558 3.9466722
0.33244148 1.0020436 3.9463546
0.27334759 1.0932317 3.9135916
0.31351492 1.0802883 3.9380054
0.26384193 1.1222732 3.9094441
0.32409063 1.1124077 3.9433141
0.23537625 1.1910732 3.9027038
0.26495513 1.1752474 3.9165576
0.31535515 1.1739659 3.9442973
0.23619041 1.2337531 3.908098
0.26581627 1.2273929 3.9193306
0.31579942 1.2047771 3.9439142
0.22726581 1.2763025 3.9122243
0.26743951 1.2738147 3.9349334
0.31720841 1.2784843 3.9469049
0.19849564 1.3262277 3.9070377
0.23039643 1.325727 3.922915
0.26601511 1.3210686 3.932467
0.1989781 1.3973883 3.9003458
0.22873336 1.372058 3.9171085
0.25915533 1.3787442 3.9348607
0.1995022 1.4302673 3.9033508
0.22969571 1.4169314 3.9240494
0.26000297 1.4224825 3.9381623
0.18058425 1.4833462 3.9031506
0.22098489 1.472789 3.9307523
0.26109424 1.4678593 3.9447563
0.1814093 1.5293676 3.9105065
0.22458257 1.5229875 3.9325006
0.26207379 1.5228474 3.9465826
0.17546134 1.5868311 3.9090683
0.22247703 1.5716599 3.9332864
0.17262946 1.627139 3.9089532
0.21647842 1.6190265 3.9324656
0.17356199 1.6756148 3.9183989
0.2243925 1.6807911 3.9400043
0.14398997 1.7471918 3.9027786
0.17427903 1.7222562 3.9222374
0.21522643 1.7314856 3.9418674
0.13790295 1.7871103 3.9072437
0.17483306 1.7677792 3.9223728
0.20560431 1.7749444 3.9372306
0.13831162 1.8256823 3.9077904
0.1757855 1.8175002 3.9305482
0.20694314 1.8369663 3.9465213
0.13876177 1.8785151 3.9048836
0.17654613 1.8658392 3.9344313
0.13635874 1.9284363 3.9188719
0.17739412 1.9205477 3.9378724
0.13676047 1.9745907 3.9158173
0.17832598 1.9764833 3.9423003
0.13143368 2.0283897 3.9220695
0.16879627 2.0353956 3.9393163
0.12765864 2.0719166 3.9165545
0.12827322 2.1230049 3.9195108
0.16981265 2.1197107 3.9354465
0.087256819 2.1649015 3.9054618
0.11867625 2.1760259 3.9249208
0.15044403 2.1991305 3.9428999
0.087459967 2.2008171 3.9019034
0.11907025 2.2248311 3.9211535
0.16121534 2.2254636 3.9438386
0.087928109 2.253999 3.9053771
0.11953776 2.2753375 3.9192157
0.16692056 2.2736111 3.9374251
0.11993937 2.3247216 3.9141583
0.15917645 2.3364539 3.9403839
3.1744821 2.3284361 3.9006147
0.12375104 2.3697169 3.9080563
0.16944113 2.3775544 3.9344959
3.1458926 2.368897 3.9487019
3.1599171 2.3836291 3.9250877
0.18419154 2.4098911 3.920773
0.22706877 2.4184823 3.9330735
0.26607624 2.4246376 3.9338653
0.32270715 2.4335234 3.9303229
0.37523854 2.4313955 3.9233479
0.41945311 2.4425762 3.9381304
0.47250688 2.4426143 3.9336069
0.52645504 2.446491 3.9347291
0.57922047 2.444855 3.9263847
0.62246996 2.4406548 3.9294446
0.76993269 2.4437919 3.9335613
0.84200841 2.4460807 3.9374731
0.87235045 2.4409451 3.9238038
0.92642403 2.4424775 3.9167736
0.98238182 2.437696 3.9214559
1.0207373 2.4416935 3.9440436
1.0737982 2.4396472 3.9296045
1.1251545 2.4339545 3.9086564
1.1756282 2.4385233 3.9288354
1.2252768 2.4403026 3.9440567
1.2774999 2.4360709 3.923697
1.3192077 2.4327984 3.9071043
1.3615869 2.4285758 3.9373341
1.4092669 2.4353952 3.9362197
1.4501191 2.4303613 3.9154682
1.5306752 2.4321499 3.9448817
3.1447086 2.4303377 3.9138846
3.1721694 2.419853 3.9062283
0.55607957 2.4577272 3.9052598
0.64160234 2.4607933 3.9001625
0.67684793 2.4520164 3.926177
0.72054613 2.4556394 3.9261546
0.79364324 2.4506671 3.9071417
0.81546068 2.4522157 3.9062283
3.1282282 2.4618683 3.9282637
1.9351021 -0.40805772 3.9582987
1.9854584 -0.41214326 3.9871101
2.0068493 -0.41229185 3.9811869
1.9285613 -0.37815779 3.9716105
1.9732172 -0.37423605 3.984515
2.0107663 -0.38207382 3.9911489
1.8953799 -0.3045074 3.9564569
1.9243636 -0.32628694 3.9661477
1.9702168 -0.32503062 3.9913082
1.9253628 -0.27535057 3.9709494
1.9579976 -0.28739241 3.9881911
1.8932648 -0.20266084 3.9565935
1.9216574 -0.22388513 3.9655378
1.9637647 -0.21876431 3.9865525
1.9246738 -0.17318392 3.9735589
1.9324396 -0.1431462 3.9904468
0.43546724 0.34455162 3.9863076
0.46534958 0.34542933 3.994324
0.37525323 0.38949195 3.9576044
0.42637458 0.37365678 3.9894209
0.46622568 0.38452673 3.9995251
0.33677208 0.41738111 3.9523082
0.37915885 0.4251422 3.9627316
0.42413419 0.41930386 3.9879956
0.46630627 0.40382016 3.9989641
0.37637106 0.47640988 3.9631736
0.41679075 0.47904113 3.982769
0.34700331 0.53234482 3.9512455
0.37734783 0.52537692 3.9695687
0.42340016 0.52993208 3.9862049
0.34133682 0.58417207 3.9545577
0.37825665 0.57450086 3.9745581
0.41829154 0.57691884 3.9888153
0.38679335 0.63029057 3.9578316
0.42254245 0.6289413 3.9776618
0.38322473 0.67537469 3.9658008
0.42879716 0.67444068 3.9861348
0.38327098 0.72336102 3.9607282
0.41726294 0.7284441 3.9810948
0.37880582 0.77671444 3.9577367
0.42016688 0.78229469 3.9836118
0.54682046 0.77422923 3.9831069
0.34994331 0.80527502 3.954695
0.37692335 0.83071822 3.9646742
0.4174296 0.8186757 3.9838173
0.45150313 0.81559157 3.9988568
0.38061559 0.87678772 3.9633214
0.41984519 0.87646645 3.9864688
0.37535641 0.92135876 3.9694755
0.42367691 0.92522103 3.9976485
0.45315 0.91601628 3.9993684
0.37943158 0.97504884 3.9699028
0.41902021 0.96952379 3.9930456
0.33369851 1.0348513 3.9562535
0.37114716 1.0238063 3.9728279
0.41412538 1.0133406 3.9859295
0.33422041 1.0752211 3.9555001
0.37508625 1.0714651 3.9769971
0.32855853 1.1393495 3.953903
0.37362108 1.1283108 3.9812942
0.33617663 1.1789737 3.9599395
0.37776831 1.1772925 3.9868927
0.33040193 1.2238163 3.960161
0.37836674 1.2249969 3.9837551
0.33309615 1.2685778 3.9640605
0.36901662 1.2693188 3.9807453
0.32942358 1.3274022 3.9670842
0.37052515 1.3239028 3.9860289
0.40147421 1.3282861 3.997333
0.33068669 1.3719599 3.9730835
0.37190139 1.3784312 3.9894066
0.32949883 1.4207639 3.9717574
0.36270419 1.4209461 3.9884841
0.33526212 1.4762396 3.981091
0.36301681 1.4519984 3.9845409
0.26233771 1.5243441 3.9506087
0.32434845 1.5267344 3.9821758
0.26338962 1.5801687 3.9529061
0.31531847 1.5714314 3.9841363
0.2451048 1.640489 3.9654284
0.26453975 1.6269917 3.9589064
0.3111369 1.6208597 3.9825327
0.24521649 1.6612569 3.9614129
0.26576936 1.6746845 3.9656315
0.31457505 1.682108 3.9897797
0.24601461 1.7269226 3.9562376
0.26607674 1.7168019 3.9581618
0.32105953 1.7257092 3.9918087
0.23898414 1.7785209 3.9592259
0.26728898 1.7548726 3.966886
0.31684271 1.7755857 3.9937603
0.22773466 1.8266001 3.9610157
0.270459 1.8369349 3.9944081
0.2245152 1.872888 3.9625237
0.26049086 1.869159 3.9882112
0.16784713 1.9323602 3.9502943
0.21955307 1.9295104 3.9671071
0.26166165 1.9186268 3.9922247
0.21654801 1.9707289 3.9616051
0.26276419 1.9679791 3.9947586
0.18971872 2.0199323 3.9560523
0.22178259 2.0215158 3.9819813
0.25310043 2.0039947 3.9943981
0.18372865 2.0738964 3.9577701
0.22484389 2.076026 3.9825027
0.25473517 2.0793443 3.9971659
0.18452048 2.1171417 3.9611361
0.22374806 2.1226392 3.9857721
0.25491413 2.1016228 3.9920666
0.17596516 2.1774547 3.967371
0.21968243 2.1756415 3.9903793
0.1933617 2.2260187 3.9667025
0.22550976 2.2234144 3.9838426
0.25758255 2.218298 3.9964204
0.18402034 2.2809639 3.9724669
0.22646098 2.2748544 3.9829013
0.25821504 2.2553666 3.9932027
0.18745871 2.3192611 3.9551363
0.22717553 2.3243742 3.9774761
0.26026192 2.3370171 3.9976873
0.19537334 2.3654099 3.9580212
0.22978739 2.3760552 3.9654527
0.2659108 2.3824291 3.983469
3.1335783 2.3784316 3.981921
0.2815927 2.4121747 3.9646482
0.32532349 2.4211416 3.9769104
0.37822622 2.4293993 3.9644728
0.42239708 2.427649 3.9808078
0.47584009 2.4296775 3.9750431
0.53402269 2.4364073 3.9775743
0.56989241 2.4371436 3.9750185
0.68016499 2.4426219 3.9556301
0.72669393 2.4442468 3.9750116
0.77260208 2.4425249 3.9885716
0.83896935 2.4470439 3.9859114
0.88216388 2.4467616 3.9782748
0.92497182 2.4454954 3.9686513
0.97164476 2.4431016 3.97961
1.0275506 2.4435704 3.9774301
1.071985 2.4384098 3.9753666
1.1252503 2.4359231 3.9596682
1.1715266 2.4346993 3.9793901
1.2239245 2.4375024 3.9882352
1.2670325 2.4359636 3.9750113
1.3224543 2.4371023 3.9628437
1.3787624 2.4370472 3.9976721
1.4231207 2.4371717 3.9856567
1.4513106 2.4473677 3.9960196
3.1251309 2.4191475 3.9758706
0.62993854 2.4555466 3.9833457
0.65034103 2.4512842 3.9737964
0.81570733 2.4530802 3.9765348
1.4753639 2.4503858 3.9945073
3.0458295 2.4682238 3.962913
3.1217434 2.4639347 3.9759111
2.0176287 -0.35227284 4.0068111
2.0173731 -0.32112628 4.0081491
1.9821219 -0.27513263 4.0050321
2.0329223 -0.28176892 4.0412621
1.9819864 -0.2337684 4.0065765
2.0246909 -0.22857042 4.0272069
1.9763798 -0.1750547 4.0055208
2.0263176 -0.17673342 4.0322952
1.9786584 -0.14425969 4.010983
2.0201077 -0.14499994 4.0208178
1.6319795 0.2239632 4.0437207
0.48778057 0.34774411 4.0195713
0.48030028 0.37268123 4.0097675
0.5071606 0.36710882 4.0173893
0.44768867 0.4428744 4.0031509
0.47956958 0.42842397 4.010839
0.44856107 0.47268367 4.0087595
0.47796503 0.47314867 4.0105124
0.44866863 0.51136899 4.0065928
0.47961369 0.52321851 4.0202751
1.6283424 0.53114313 4.0427771
1.6615878 0.52175492 4.0413647
0.44956225 0.58973598 4.0075483
0.47477436 0.57086581 4.0246572
0.51215398 0.57555431 4.0411015
1.6410416 0.55240142 4.0441008
0.48140523 0.62233913 4.0261235
0.52694309 0.62725103 4.0283709
0.47878689 0.6759035 4.0147781
0.53022784 0.67131871 4.0186386
0.4749012 0.72582871 4.0187554
0.52731395 0.72638983 4.0334878
0.55126381 0.71226537 4.0239272
0.43154979 0.7563917 4.0029001
0.46958202 0.77351367 4.0154386
0.52318287 0.77253836 4.0284352
0.43277654 0.83634102 4.0039868
0.48013797 0.82464224 4.027112
0.52487218 0.82412475 4.0349479
0.55420458 0.8239581 4.031692
0.4333311 0.85688776 4.0063748
0.47250769 0.87877196 4.0234075
0.52341872 0.87290716 4.04286
0.57684332 0.8677448 4.0455809
0.48228249 0.92849523 4.0222712
0.51762468 0.92679173 4.0416055
0.43495005 0.98715663 4.0017786
0.47312564 0.97172803 4.0277581
0.42944852 1.0319663 4.0046029
0.46795866 1.0244876 4.0261598
0.39734945 1.0987834 4.0006671
0.42807236 1.0725539 4.0159292
0.47000694 1.0785022 4.0352345
0.50026262 1.0500462 4.0428915
0.42900124 1.1241852 4.0155854
0.47049984 1.1192493 4.0321836
0.43083328 1.1785091 4.0230837
0.47254309 1.1738722 4.0401549
0.39974132 1.2238439 4.0015144
0.43210465 1.221742 4.0270548
0.47385004 1.2269818 4.0412884
0.42528203 1.2757118 4.0222821
0.4641335 1.2576344 4.0381651
0.42776799 1.324028 4.0214415
0.46657738 1.3244758 4.0462914
0.42600179 1.3730278 4.0330963
0.46795452 1.3686334 4.0491023
0.38456762 1.4283414 4.0079908
0.42410758 1.4227294 4.0278883
0.37889794 1.4754472 4.0079522
0.43103191 1.4764992 4.0301538
0.47030267 1.4665418 4.0475016
0.37720808 1.5288363 4.0135341
0.41967377 1.5269883 4.0351315
0.34707177 1.5793617 4.0025005
0.3788684 1.5758646 4.0201197
0.42075533 1.571444 4.0346203
0.34214506 1.6313462 4.0114193
0.37821203 1.6182001 4.0250502
0.41852185 1.613113 4.0359015
0.33864284 1.6577311 4.0024462
0.37883589 1.6782929 4.0313196
0.4142293 1.6671441 4.0481305
0.36872604 1.7237895 4.027442
0.37439033 1.7742691 4.0312963
0.29228422 1.8458959 4.0128713
0.33330193 1.8048973 4.0238805
0.28555501 1.8808092 4.0034122
0.31920812 1.8687718 4.0225325
0.29383364 1.9278921 4.0099535
0.32630554 1.9266423 4.0307636
0.29477277 1.9754441 4.0083399
0.33129928 1.9703285 4.0373836
0.27992457 2.0309911 4.0175204
0.31870279 2.0166636 4.0410433
0.28065592 2.0738888 4.0141954
0.32518378 2.0768566 4.0369835
0.28224674 2.1319633 4.0196366
0.33553183 2.1220825 4.0428081
0.2357531 2.1582973 4.0047441
0.26789907 2.1745534 4.0097656
0.31532934 2.1702111 4.0387926
0.28008541 2.2300887 4.0166264
0.30246854 2.2287109 4.0364652
0.27386484 2.2826831 4.0099106
0.32528284 2.276823 4.0393929
0.27473703 2.3253615 4.0074024
0.3230578 2.3245804 4.0319695
0.28251976 2.3667977 4.0017004
0.3269406 2.3760188 4.0224419
0.37883019 2.3844128 4.0410371
0.41577604 2.3976703 4.0454893
3.1174908 2.3832493 4.0312171
0.33784232 2.4025111 4.0131149
0.38133806 2.417074 4.0117559
0.43020108 2.4121451 4.0380383
0.47321534 2.4257381 4.0265751
0.53203183 2.43132 4.0304322
0.58281249 2.4326465 4.0273232
0.62285095 2.4376159 4.0234237
0.67256296 2.4393847 4.0156417
0.7239058 2.4387295 4.0357404
0.7795006 2.4425106 4.0342979
0.82365018 2.4441702 4.0304308
0.87714726 2.44122 4.0167446
0.92793572 2.4356749 4.0270858
0.97656661 2.4391501 4.0274944
1.0259126 2.4364538 4.0293961
1.071309 2.4398689 4.0262346
1.1248345 2.436836 4.0096316
1.198433 2.4306033 4.0313125
1.2330525 2.4335136 4.0283623
1.2673638 2.4357405 4.0240531
1.3350029 2.43801 4.0110121
1.3632269 2.4377425 4.0283933
1.4188442 2.4377298 4.0132208
1.5537094 2.4462984 4.0151577
1.6247778 2.4464071 4.0457063
3.0844932 2.4490442 4.040287
3.1090264 2.4358988 4.0291791
1.4888163 2.4502416 4.0417433
1.5338575 2.4504156 4.0287437
3.1040046 2.4697797 4.0025382
3.232065 -0.35915902 4.0746708
3.2397668 -0.3164553 4.0797701
3.2347455 -0.28178075 4.0979767
3.2502823 -0.26931 4.0732746
3.2489719 -0.23395416 4.0733857
3.2589383 -0.16395822 4.0886159
1.8858451 0.14661308 4.0945902
1.5898595 0.22900036 4.0740957
1.6204513 0.22959296 4.0570335
1.5860723 0.26716089 4.0976844
1.6149968 0.27712071 4.0841246
1.6188645 0.32917705 4.0912037
1.6311983 0.37075609 4.0911078
1.6290135 0.49360201 4.0764923
1.665818 0.49233633 4.0543766
1.5912113 0.51521051 4.0944529
1.6197835 0.51799589 4.0654058
0.53383613 0.57792199 4.0559654
0.55359012 0.57809889 4.0554595
1.6243302 0.5729847 4.0804901
1.6415761 0.62169284 4.0959902
0.53947878 0.8908841 4.0619359
0.55859953 0.87003934 4.0581312
0.70113993 0.89512259 4.0649753
0.53981459 0.92116123 4.0600176
0.56819391 0.92767525 4.0712218
0.61866778 0.92853338 4.0761075
0.49994755 0.98998338 4.0504084
0.53342772 0.97741681 4.0639024
0.56775951 0.97119939 4.0736618
0.6262722 0.97202045 4.0935392
0.52239984 1.0248388 4.0641418
0.5767284 1.023091 4.0941486
0.61748195 1.0140991 4.096096
0.52403218 1.0779711 4.0682859
0.56622434 1.0723362 4.0830235
0.5286718 1.1273515 4.0732045
0.57569122 1.1211824 4.0942636
0.52667731 1.1736029 4.0715756
0.58038557 1.1506941 4.0984116
0.51652473 1.223581 4.0618024
0.55139244 1.224216 4.0969033
0.48021272 1.2783686 4.0577722
0.52515584 1.2740631 4.0723672
0.56237757 1.2868745 4.0894771
0.48871517 1.3200352 4.0641775
0.5214321 1.3263373 4.0809813
0.57414263 1.3210559 4.0936151
0.48489675 1.3789231 4.0621476
0.52309918 1.3712081 4.0848317
0.4807393 1.4269999 4.0592275
0.51470488 1.4167479 4.0903568
0.49297655 1.4738613 4.066052
0.51653957 1.4729375 4.092484
0.47354916 1.5240904 4.0630083
0.51872164 1.5305355 4.0967665
0.47511449 1.5699505 4.065567
0.51987177 1.5853958 4.092268
0.4367905 1.6443909 4.0750675
0.47846362 1.6224095 4.0835123
0.51993126 1.6061733 4.087142
0.43654582 1.6742918 4.0639935
0.47073317 1.6727755 4.074544
0.50769758 1.6590929 4.0869155
0.39616913 1.7493093 4.0528641
0.42667243 1.7169584 4.0563955
0.47145545 1.730377 4.084887
0.51141179 1.7405764 4.0965419
0.42627817 1.7711519 4.0580306
0.47000551 1.7828885 4.0890012
0.50479335 1.7694488 4.0914159
0.46430767 1.8155482 4.0920544
0.33724499 1.8885266 4.0512891
0.36977819 1.8748879 4.071629
0.41925374 1.8734503 4.0860815
0.37018991 1.9291029 4.0587201
0.40956631 1.9101416 4.0758038
0.37213698 1.981133 4.0654759
0.41229448 1.9719452 4.086081
0.34085599 2.024169 4.0547924
0.37403476 2.0334983 4.0714989
0.41744283 2.0185266 4.0884199
0.34149075 2.059454 4.0509033
0.37533635 2.0828166 4.0700836
