ply
format ascii 1.0
comment PCL generated
element vertex 1502
property float x
property float y
property float z
element camera 0
property float view_px
property float view_py
property float view_pz
property float x_axisx
property float x_axisy
property float x_axisz
property float y_axisx
property float y_axisy
property float y_axisz
property float z_axisx
property float z_axisy
property float z_axisz
property float focal
property float scalex
property float scaley
property float centerx
property float centery
property int viewportx
property int viewporty
property float k1
property float k2
end_header
-1.5478829 -0.072162472 2.7541819
-1.4390968 -0.064587727 2.7801547
-0.013204291 -0.082892366 2.7795601
0.010066303 -0.073310465 2.7946644
-1.6145849 -0.036163345 2.7525301
-1.5734253 -0.043459859 2.7679605
-1.4282395 -0.014028728 2.7596569
0.0067219888 -0.029909307 2.7887971
-1.6100184 0.0254259 2.7548633
-1.574392 0.022271944 2.7697642
-1.532578 0.02225408 2.7849495
-1.4452447 0.00029654769 2.7594104
-0.0098358579 0.033045746 2.7652478
0.0060591507 0.018662119 2.7917106
-1.6078453 0.077109829 2.756
-1.5743854 0.075019509 2.7754254
-1.5434941 0.063787848 2.7891378
-0.0098925959 0.072998554 2.780652
0.0060587237 0.077271357 2.7908945
-1.6139703 0.12480823 2.7572863
-1.5735567 0.12507242 2.7821681
-1.5378515 0.10310247 2.7997062
-0.0098627778 0.11247696 2.7713914
0.007837926 0.11538449 2.7880809
-1.6148143 0.17614599 2.7566206
-1.5749489 0.17657554 2.7825489
-0.51792449 0.18722017 2.7664125
-0.47340336 0.18810433 2.7850676
-0.43674678 0.19342442 2.7689171
-1.6184025 0.22462824 2.7578323
-1.5756994 0.22074883 2.7815206
-0.66023815 0.22800854 2.7525492
-0.62056941 0.22820835 2.7612321
-0.56878048 0.22682855 2.7850955
-0.5232498 0.20883887 2.7728505
-0.47481346 0.20748028 2.7865374
-0.4344635 0.21234682 2.7534723
-1.6181277 0.27523366 2.7584155
-1.5780126 0.272567 2.78216
-1.6164037 0.32588819 2.760932
-1.5787523 0.32473299 2.7847226
-1.6176057 0.37625277 2.7621381
-1.5763918 0.37694871 2.7864206
-1.6190197 0.42821848 2.7588921
-1.5790666 0.4293713 2.7855465
-1.5494415 0.4145408 2.7994695
-1.6239905 0.47393459 2.761879
-1.5815555 0.47449791 2.7845328
-1.6228741 0.5287798 2.7653117
-1.583282 0.51538128 2.7877083
-1.6247807 0.58045918 2.7640698
-1.576057 0.57575333 2.7904077
-1.651912 0.64183605 2.7520463
-1.6246856 0.62527883 2.7663369
-1.5791301 0.62760544 2.7906873
-1.6534923 0.65738356 2.751976
-1.6276734 0.67398083 2.769578
-1.5911671 0.67435282 2.787596
-1.6241016 0.72217071 2.7667291
-1.581616 0.72175956 2.7950869
-1.6218511 0.77629936 2.7670164
-1.5844218 0.76821518 2.790889
-1.6549457 0.82987899 2.7518609
-1.6243274 0.83268595 2.7710271
-1.5869901 0.8242054 2.7921655
-1.6619228 0.8788209 2.7524948
-1.6246926 0.87913936 2.7709372
-1.5855842 0.87673932 2.7948294
-1.6517876 0.92706043 2.7563136
-1.6233488 0.92815942 2.7735682
-1.5862404 0.92866665 2.7920713
-1.657266 0.9758752 2.7530906
-1.62216 0.97767228 2.7758067
-1.5874945 0.97980338 2.7989991
-1.659399 1.0297652 2.7556727
-1.6251936 1.0267674 2.7784324
-1.589026 1.0291796 2.7973251
-1.6619711 1.0816554 2.7571998
-1.6246879 1.0796115 2.7762504
-1.5975001 1.0706832 2.7925243
-1.6624616 1.1286635 2.7582757
-1.6236864 1.128453 2.7811098
-1.5910136 1.1309329 2.7984197
-1.6627401 1.1800021 2.7575662
-1.6301397 1.1772827 2.7797368
-1.5973537 1.1743131 2.7970014
-1.6671655 1.2258924 2.7574296
-1.6221247 1.2178077 2.7857604
-1.5869683 1.2171373 2.7999747
-1.6675881 1.2694056 2.7606902
-1.6272322 1.2710716 2.7846036
-1.5990343 1.289282 2.7989264
-1.6672194 1.3254279 2.7612677
-1.6294374 1.3263254 2.7879016
-1.6744325 1.3737601 2.761163
-1.6275485 1.3761555 2.7900848
-1.706056 1.4391141 2.7570417
-1.6676294 1.4213105 2.7724605
-1.632374 1.4233725 2.7912145
-1.7101672 1.4666386 2.7531948
-1.6730132 1.4772092 2.7745838
-1.6342243 1.4784014 2.7963653
-1.7061464 1.5254464 2.7591724
-1.6742224 1.5257403 2.7759981
-1.6429543 1.5266554 2.7935719
-1.7147765 1.5762357 2.7598474
-1.6750895 1.5770898 2.7820218
-1.649043 1.5566243 2.7928896
-1.7161014 1.6294997 2.76334
-1.6787993 1.6280692 2.7882373
-1.7199577 1.6756516 2.7620413
-1.6764221 1.6814144 2.7860093
-1.720718 1.73408 2.771507
-1.6784637 1.7332298 2.7915602
-1.726678 1.7734069 2.7631466
-1.6964927 1.7766216 2.7857041
-1.7549187 1.8187379 2.7538438
-1.720571 1.8263474 2.7714179
-1.6896999 1.820619 2.7923398
-1.7585053 1.8993754 2.7609034
-1.7280759 1.8812549 2.7741115
-1.6948503 1.8514169 2.7867041
-1.7745572 1.9390182 2.7568562
-1.7300414 1.9308743 2.7727649
-1.694837 1.9209915 2.7938521
-1.7565711 1.9756484 2.7576718
-1.7228155 1.9761213 2.7769601
-1.6929679 1.989745 2.7970362
-1.7658455 2.0226843 2.7588756
-1.7216018 2.0267379 2.7820339
-1.6982162 2.0131269 2.7950625
-1.7634881 2.0723267 2.7610402
-1.724344 2.0693188 2.7813978
-1.7675632 2.1222827 2.7627363
-1.7257297 2.1219344 2.7809501
-1.7677567 2.1681783 2.7577519
-1.7286949 2.1658483 2.7795703
-1.7662529 2.2131593 2.7578022
-1.7287354 2.2207572 2.7843316
-1.7652011 2.26895 2.7600741
-1.7248636 2.2714643 2.7823277
-1.7258645 2.3211102 2.7668509
-1.6835936 2.3335955 2.7904723
-1.7144367 2.3648686 2.7538939
-1.6733671 2.3777871 2.7684872
-1.6344445 2.3845086 2.7774386
-1.5758826 2.3924539 2.7600698
-1.5045166 2.3978257 2.7896206
-1.4846646 2.3944266 2.7939959
-1.4418529 2.3999035 2.7827194
-1.5894005 2.4010682 2.7928977
-1.5290508 2.4050832 2.7753334
-1.4750258 2.4080875 2.7694259
-1.4216487 2.4131801 2.7722268
-1.3790772 2.4169931 2.7735612
-1.3276604 2.4199159 2.7844372
-1.2877481 2.4107785 2.7882926
1.2935233 2.4052649 2.7786343
1.328254 2.4209294 2.7858772
1.3712473 2.4195509 2.7656276
1.4200573 2.4254854 2.790596
1.47133 2.4225481 2.76299
1.5231342 2.4276011 2.771775
1.5765547 2.4219651 2.7703497
1.6397896 2.4301927 2.7840455
1.681874 2.4363103 2.75736
1.727702 2.4320619 2.767463
1.7745981 2.4283774 2.7778397
1.8272139 2.4377697 2.7625179
1.8764265 2.4371657 2.7869315
1.923308 2.439302 2.7733848
1.9788512 2.441467 2.7650013
2.0247946 2.4445992 2.786613
2.0744109 2.4382606 2.7672124
2.1355107 2.4369059 2.7949162
1.6737689 2.4508314 2.7834496
2.5164025 2.4543455 2.7567925
-0.90849108 -0.53303385 2.8130932
0.17995648 -0.50221169 2.8130839
0.22786245 -0.50306195 2.8155797
0.27622309 -0.50444126 2.8205183
0.31989914 -0.50728059 2.8178394
0.37315333 -0.50650126 2.8248072
0.42079613 -0.50617808 2.8185592
0.46948746 -0.50701898 2.8182573
0.52333122 -0.50607967 2.8066511
-1.2586621 -0.46405703 2.8343642
-0.942119 -0.49385503 2.8287115
0.17208566 -0.49195173 2.8340836
0.22336721 -0.49463227 2.8472583
0.33406556 -0.49577549 2.8467798
0.36854422 -0.49582928 2.8443079
0.47375369 -0.49780312 2.8455179
0.54486537 -0.49959803 2.847589
0.5633893 -0.4975495 2.8332238
-1.2613959 -0.43598637 2.8437669
0.12659268 -0.43767813 2.8440437
-1.4270798 -0.35371822 2.8436246
0.080428578 -0.37102357 2.8294888
0.03706903 -0.32287052 2.8084621
0.079765722 -0.32372159 2.8335888
-1.4391373 -0.27537253 2.8253257
0.037014816 -0.27538359 2.8074875
0.076723322 -0.2765601 2.8329961
-1.4534658 -0.22300811 2.8293462
-1.4348617 -0.23449646 2.8332059
0.037003033 -0.22154333 2.8095791
0.073275633 -0.22185403 2.8328154
-1.4283143 -0.17446709 2.8118927
0.031957392 -0.17278862 2.8102965
0.076245464 -0.17629443 2.8391492
-1.4537318 -0.10224095 2.8246214
-1.4329679 -0.12762974 2.8257229
0.030247455 -0.12736894 2.8090324
0.075090982 -0.12671812 2.8372266
-1.455369 -0.07802137 2.8339825
-1.4462374 -0.072938509 2.8275628
0.036985189 -0.07378111 2.8126225
0.073294595 -0.076036982 2.8384347
-1.4598447 -0.038886279 2.8318787
-1.4262049 -0.025352968 2.8313341
0.031934123 -0.02511638 2.8121712
0.071164742 -0.027043954 2.8368311
-1.5112156 0.039413672 2.8066196
-1.4746162 0.026018748 2.8293755
-1.4478828 0.00029075026 2.831398
0.031515367 0.020779183 2.8142571
0.066646703 0.018081333 2.8373618
-1.5213379 0.075571828 2.8069203
-1.4755883 0.073905788 2.8334074
0.031552877 0.072145194 2.817055
0.069973953 0.076398045 2.838238
-1.5250478 0.12740022 2.8112333
-1.4850287 0.12560286 2.8332279
0.033001564 0.11289132 2.8143659
0.068569086 0.11394674 2.8404877
-1.5239757 0.17841838 2.810792
-1.4775112 0.17607437 2.8383687
-1.521297 0.22135395 2.8134902
-1.4782013 0.21986519 2.8401055
-0.52945793 0.23237197 2.825757
-0.47208491 0.21745597 2.8167791
-1.5233017 0.27329051 2.8138232
-1.4833837 0.27407724 2.8393254
-1.5628285 0.31071135 2.8008702
-1.5266709 0.32564685 2.8159978
-1.4801569 0.32452285 2.8420205
-1.5505296 0.38522315 2.8045816
-1.5284439 0.37168133 2.8150685
-1.4886616 0.37158081 2.8413868
-1.5525454 0.43761265 2.8025503
-1.5236373 0.4229852 2.8175256
-1.4903886 0.42405483 2.8392997
-1.5554566 0.47556433 2.803282
-1.52474 0.47765175 2.8199179
-1.4913884 0.4739123 2.838913
-1.5630203 0.5251286 2.8021848
-1.5240244 0.5220511 2.8229697
-1.4907193 0.52342254 2.8451211
-1.5619636 0.55211681 2.8048151
-1.5258381 0.57493114 2.8187473
-1.4922304 0.56884784 2.8416336
-1.5519263 0.62866324 2.8080218
-1.5246288 0.6297366 2.8250422
-1.4921457 0.62826496 2.8439472
-1.5635351 0.67533523 2.8044674
-1.5242418 0.67736149 2.8230362
-1.4914291 0.67428589 2.8442125
-1.5597986 0.72208422 2.8059232
-1.5237899 0.72282225 2.8242528
-1.489946 0.72462624 2.8463943
-1.5600909 0.77296269 2.8049321
-1.5262733 0.76889271 2.8247809
-1.488712 0.76744705 2.8445721
-1.5612619 0.82190007 2.8079045
-1.5250618 0.82100362 2.8315842
-1.4978447 0.81191701 2.8446498
-1.5677444 0.88504809 2.8067255
-1.5277443 0.87222099 2.8309677
-1.4882185 0.87585592 2.8476913
-1.5592996 0.9307391 2.8114555
-1.5227677 0.92698932 2.8347719
-1.4967037 0.94977379 2.8472478
-1.5650083 0.98008126 2.8097541
-1.5249022 0.98385471 2.834626
-1.4979607 0.96590072 2.8457258
-1.5644583 1.0328993 2.8125126
-1.524029 1.0309091 2.8364887
-1.5708169 1.0812093 2.8110628
-1.5267426 1.0827775 2.8348501
-1.5703398 1.1285453 2.8107145
-1.5249331 1.1258101 2.8374422
-1.5658904 1.169641 2.8162804
-1.524933 1.169099 2.8385234
-1.572055 1.2191991 2.812397
-1.5332007 1.222452 2.8384902
-1.5737362 1.2724886 2.8173487
-1.5337045 1.2735673 2.843034
-1.6059343 1.3185421 2.8021827
-1.5777146 1.3292451 2.8193791
-1.540185 1.3309646 2.8403673
-1.60104 1.3831993 2.8071656
-1.5740801 1.3743665 2.8234928
-1.5405419 1.377964 2.8441048
-1.6085421 1.4216563 2.8074067
-1.5755066 1.4251444 2.8264608
-1.5466444 1.4154105 2.84286
-1.6158934 1.4804808 2.8101451
-1.5720614 1.4722424 2.8332131
-1.5414432 1.4817446 2.8469059
-1.6200279 1.5278596 2.8073637
-1.5782524 1.5215528 2.8343377
-1.6212639 1.5692078 2.8126762
-1.5816759 1.5702306 2.8334501
-1.6537101 1.6422123 2.8055091
-1.6245966 1.6213226 2.8174362
-1.5792122 1.6191801 2.8401489
-1.6586418 1.6635839 2.805793
-1.6267033 1.6728306 2.8193684
-1.5937084 1.672755 2.8348289
-1.6566443 1.7364053 2.8092108
-1.627206 1.7225571 2.8257511
-1.5891341 1.7185757 2.8474948
-1.6686703 1.7806017 2.8037257
-1.6208973 1.7763741 2.8335631
-1.5967939 1.7518842 2.8485761
-1.6664019 1.8226433 2.8082399
-1.6254331 1.8237339 2.8306425
-1.6680822 1.873176 2.8074877
-1.6257235 1.8719114 2.8348505
-1.6717399 1.9326817 2.8138759
-1.6257651 1.9253865 2.8370128
-1.6720133 1.9790074 2.813252
-1.6300094 1.9855282 2.8379416
-1.6702377 2.0295396 2.8182895
-1.6291354 2.0320423 2.8434842
-1.7008864 2.0891578 2.8040574
-1.6772585 2.0753293 2.8170016
-1.6312214 2.0741482 2.8382428
-1.7053759 2.1121364 2.8000703
-1.6736611 2.1248844 2.8178384
-1.6313771 2.1267114 2.8424506
-1.7070731 2.1890652 2.8057234
-1.6789291 2.1694446 2.8122895
-1.6394073 2.17237 2.8333378
-1.6792402 2.2254279 2.8185472
-1.6343734 2.2246265 2.8402128
-1.7033049 2.2604575 2.8011181
-1.6695105 2.2717726 2.8164632
-1.6267477 2.2742009 2.8422174
-1.6635283 2.3126285 2.809267
-1.6256499 2.3245592 2.8251333
-1.5886103 2.3371501 2.8377647
-1.6148938 2.3697903 2.8138263
-1.5747762 2.3791034 2.8276062
-1.5285136 2.3931191 2.8241625
-1.4743218 2.3931019 2.8262715
-1.4429247 2.3898005 2.8258452
-1.3808465 2.3987753 2.8464456
-1.5535257 2.4009504 2.8104157
-1.4172281 2.4047 2.8296003
-1.370719 2.4109578 2.8200982
-1.3279853 2.4100389 2.8271785
-1.2741132 2.4141188 2.8206482
-1.2274317 2.4165387 2.8289599
-1.1804358 2.423378 2.8463545
1.1386979 2.4093084 2.8423693
1.1769987 2.4163127 2.8382485
1.2299615 2.4128335 2.8231964
1.274873 2.4188561 2.8271267
1.3299086 2.4179113 2.828135
1.377594 2.4272697 2.8346982
1.4213804 2.4251661 2.8282328
1.4757316 2.4282093 2.8238254
1.5285046 2.4274125 2.8218007
1.5662148 2.4205422 2.8336492
1.6248468 2.4294939 2.8281574
1.674273 2.4300318 2.8207846
1.7213033 2.4358995 2.8257997
1.7715278 2.4309785 2.8261824
1.8274205 2.4348958 2.8226802
1.8731347 2.426815 2.8197887
1.9205348 2.4313736 2.8287816
1.9742584 2.4372077 2.8239391
2.0294302 2.4426441 2.8262272
2.0963776 2.4355886 2.8181844
2.1166236 2.4315925 2.8296192
2.1598976 2.4454587 2.8412187
-0.93748832 -0.52532309 2.8735917
-0.41700706 -0.50460094 2.8908238
0.28141513 -0.50011498 2.8756292
0.4210583 -0.50094789 2.8692389
0.5181188 -0.50058478 2.8566272
0.59548032 -0.50723672 2.8855543
0.62157708 -0.50557292 2.872134
-1.2814656 -0.4576939 2.887392
0.14170715 -0.46286672 2.8705909
0.17501324 -0.47647399 2.8783393
0.22606184 -0.48664474 2.8828735
0.27368 -0.49248794 2.8789871
0.32033363 -0.49067083 2.8800859
0.37563977 -0.49301389 2.8825743
0.42996749 -0.49277604 2.8831487
0.47382414 -0.49123046 2.8905287
0.52920902 -0.49054721 2.8800809
0.56528354 -0.49140075 2.8807051
-1.2833152 -0.42136747 2.8955081
0.13335058 -0.41874602 2.8806
0.15668933 -0.42457226 2.8957403
-1.4077153 -0.35442454 2.8571658
-1.3742483 -0.35830373 2.8771276
0.099295229 -0.35582754 2.8539126
0.12650105 -0.37561411 2.8777823
0.15663861 -0.38964936 2.8980024
-1.4173321 -0.32537237 2.8615153
-1.3843422 -0.32633802 2.8828309
0.12654439 -0.3237077 2.8801365
0.15637136 -0.31951776 2.898555
-1.41646 -0.27340099 2.863595
-1.3806262 -0.27749747 2.8894935
0.1278563 -0.27616322 2.8845401
-1.4216926 -0.22050175 2.8704147
-1.3852047 -0.22256087 2.8915989
0.098956145 -0.23185225 2.8522911
0.12293688 -0.2264798 2.8800652
-1.420851 -0.17891443 2.8707373
-1.3873968 -0.18106447 2.8945942
0.098983526 -0.16369575 2.8560958
0.12637135 -0.17416972 2.8846302
-1.418575 -0.12375018 2.8697755
-1.3919737 -0.1259542 2.8917396
0.098986462 -0.13641064 2.8571138
0.12360936 -0.12197767 2.8848517
-1.4234143 -0.073676772 2.8686297
-1.3879015 -0.070248947 2.8935723
0.098949693 -0.06814447 2.8575761
0.11940784 -0.074585125 2.8796132
-1.4128388 -0.031789087 2.8770416
-1.3837703 -0.029419059 2.8944333
0.098880351 -0.027225219 2.8559897
0.12576379 -0.02923023 2.8844604
-1.4577152 0.044579521 2.8503387
-1.4249018 0.022480875 2.8721027
-1.3882825 0.018082697 2.8930368
0.093076311 0.023411701 2.8569348
0.12281808 0.01838107 2.8833754
-1.4242144 0.074270405 2.8700876
-1.388518 0.070809796 2.8947349
0.096285567 0.071014836 2.8591199
0.11965591 0.074838653 2.8858731
-1.4609544 0.12606071 2.8548193
-1.4257385 0.12619805 2.8717928
-1.3938251 0.12663981 2.8953705
0.092327282 0.12314157 2.8632393
0.11348282 0.11689577 2.8788037
-1.4255104 0.17801666 2.8693457
-1.3856932 0.17859335 2.8944719
-1.4620465 0.22979304 2.8522329
-1.4279498 0.22284396 2.871978
-1.3904619 0.21963836 2.8933535
-1.4632399 0.27444345 2.851655
-1.4292309 0.27501285 2.8712683
-1.3971922 0.27599782 2.8948517
-1.4576602 0.33718374 2.8589277
-1.4270487 0.32603651 2.873616
-1.3988026 0.32854965 2.8942597
-0.91336232 0.32969087 2.8972392
-1.4611597 0.37211597 2.8568575
-1.4207581 0.37321958 2.8816135
-1.4633455 0.4248125 2.855788
-1.4233744 0.42622918 2.8816221
-1.4675661 0.47833478 2.8579903
-1.4264568 0.47955486 2.8818579
-1.3920473 0.4955973 2.8995609
-1.4697661 0.52393723 2.8564825
-1.428027 0.52508444 2.8793333
-1.4679832 0.57218945 2.8594632
-1.4270127 0.56996471 2.881969
-1.4666235 0.62131774 2.8608007
-1.4250386 0.62612557 2.8823123
-1.39922 0.61886114 2.897639
-1.4660703 0.67877239 2.8609016
-1.4261963 0.68171668 2.8832893
-1.4673741 0.72624999 2.8627446
-1.4292545 0.72980273 2.8861833
-1.466369 0.77771682 2.8611445
-1.4272883 0.77367818 2.884907
-1.4708263 0.82134938 2.8612328
-1.4288064 0.8234098 2.8855588
-1.4692186 0.87053961 2.8657701
-1.4314646 0.87000674 2.8859131
-1.4746355 0.91971684 2.865526
-1.4245241 0.9219529 2.8928123
-1.4719471 0.96895665 2.8667471
-1.4365228 0.97096759 2.8873894
-1.4739424 1.0201466 2.865274
-1.4315039 1.018563 2.8888175
-1.4759289 1.0696863 2.867507
-1.4339885 1.0730578 2.8944833
-1.5012469 1.1021959 2.8532667
-1.473702 1.1203654 2.8677418
-1.4386274 1.1233312 2.8903668
-1.509733 1.1708685 2.8502066
-1.4742317 1.1736852 2.8726609
-1.4382108 1.1761702 2.8939831
-1.5072337 1.2251894 2.857161
-1.4743948 1.2272608 2.8762119
-1.4460071 1.2298435 2.8945987
-1.5158949 1.283581 2.8559504
-1.4791697 1.2813232 2.8768969
-1.4419768 1.2647321 2.894907
-1.5101395 1.3244463 2.8597126
-1.470554 1.3231219 2.8824391
-1.4453024 1.3383628 2.8984771
-1.5169607 1.3702735 2.857806
-1.4772023 1.374885 2.8811882
-1.4480352 1.3568571 2.8981812
-1.520614 1.4290057 2.864502
-1.4800539 1.4284497 2.887574
-1.5239345 1.4738414 2.8626006
-1.4818943 1.4750392 2.8880789
-1.556623 1.5451355 2.8540521
-1.5233459 1.5232497 2.8668618
-1.4840399 1.5277883 2.8893199
-1.5609801 1.5739398 2.8511715
-1.5264937 1.5779717 2.8721156
-1.486735 1.573123 2.8885133
-1.5540406 1.6245122 2.8569787
-1.5242523 1.623468 2.8731313
-1.4925756 1.6207607 2.8969402
-1.5668529 1.6792713 2.8609791
-1.5187546 1.6773641 2.8872685
-1.498201 1.6516321 2.8965678
-1.5670413 1.7216626 2.8639958
-1.5295129 1.7261662 2.8899183
-1.56875 1.7745874 2.8649642
-1.5295503 1.7723192 2.8863671
-1.5758456 1.8314726 2.866257
-1.5279751 1.8254293 2.8929193
-1.5719775 1.8737087 2.8690655
-1.5327405 1.8712288 2.88902
-1.6010873 1.9307773 2.8591862
-1.5738295 1.9202709 2.8730145
-1.5436246 1.9251062 2.8958488
-1.607772 1.9645873 2.85621
-1.5778762 1.9707114 2.8725803
-1.5438762 1.9705522 2.8968115
-1.605378 2.0434308 2.854708
-1.5723714 2.0237474 2.8764701
-1.5383902 2.0377069 2.8963869
-1.6166803 2.0927105 2.8530879
-1.5813743 2.0834053 2.8744113
-1.5424036 2.0885613 2.8945963
-1.6066256 2.1286564 2.8579755
-1.5743414 2.1323454 2.8796656
-1.5379148 2.1216688 2.8989043
-1.6111606 2.1806829 2.8544343
-1.5743629 2.1796601 2.8772376
-1.5488354 2.1720688 2.8970497
-1.6094443 2.2268901 2.8563018
-1.575441 2.2289498 2.8760338
-1.5422668 2.2322879 2.8970094
-1.6024799 2.2866116 2.853646
-1.5747391 2.2762978 2.8709991
-1.5379294 2.276021 2.8946455
-1.5685947 2.3196182 2.8648822
-1.5315135 2.3276322 2.8907003
-1.5595039 2.3561943 2.8608937
-1.5242555 2.3765182 2.8729503
-1.4748176 2.3875089 2.8829772
-1.420367 2.3938141 2.8806548
-1.3699911 2.3975003 2.8780718
-1.3266058 2.409482 2.8744392
-1.2774057 2.4094896 2.8748293
-1.2206506 2.4158282 2.8805928
-1.1689266 2.4135892 2.8647089
-1.1240802 2.4204371 2.8711772
-1.0768794 2.4273262 2.886873
-1.0277028 2.4151063 2.8860016
0.98412603 2.4153218 2.8994844
1.038919 2.4207263 2.890245
1.0756228 2.4101257 2.8735735
1.1141968 2.4129238 2.8555703
1.1668988 2.4141538 2.8755658
1.2206317 2.4122448 2.8758986
1.276631 2.4208932 2.8818333
1.3095994 2.4161081 2.8622589
1.3939908 2.437248 2.8961596
1.4259911 2.4303288 2.8725586
1.4709936 2.4316616 2.8843338
1.5229698 2.427058 2.8772876
1.5771399 2.4192371 2.8669815
1.6237935 2.4254997 2.8741784
1.6737682 2.4245875 2.878758
1.7211653 2.4192827 2.8776665
1.7830275 2.4303639 2.8763497
1.8192469 2.4311697 2.872179
1.8763649 2.4252515 2.8669684
1.9212344 2.425359 2.8633394
1.9700768 2.4415398 2.8838034
2.0020776 2.4363959 2.8787959
2.0802813 2.441108 2.8693218
2.1272566 2.4328082 2.8883324
2.1747739 2.4429257 2.8751533
2.2548172 2.4473677 2.8787713
2.032964 2.4507234 2.8839948
2.0535123 2.4524395 2.8741355
-1.2279661 -0.51490217 2.9326725
-1.1691647 -0.52931505 2.9290335
-0.45418 -0.51495528 2.9473312
-0.43970031 -0.50045502 2.9492311
0.61925554 -0.50097656 2.9310396
-1.2736169 -0.4669629 2.9201996
-1.2479515 -0.49150541 2.9229572
-0.97011364 -0.49399719 2.9144711
-0.42332312 -0.49801415 2.9362204
0.19230241 -0.46130598 2.903044
0.22787899 -0.46955559 2.9085
0.2744309 -0.46679544 2.9244742
0.32263407 -0.46780887 2.9367464
0.37399215 -0.48161939 2.9291401
0.42285195 -0.48309311 2.9335797
0.46664542 -0.484321 2.9368064
0.5338493 -0.48711631 2.9465201
0.58880258 -0.49943686 2.9259365
0.62563848 -0.49848107 2.9150622
0.68885332 -0.49952626 2.9119217
-1.306476 -0.40175366 2.9116983
-1.2793683 -0.42676017 2.930347
-0.41852742 -0.43609795 2.9088607
0.18538184 -0.42648265 2.9076369
0.22869413 -0.42903233 2.9231164
0.27249393 -0.42447063 2.9385304
0.30766389 -0.42617136 2.9480748
-1.3177652 -0.36852455 2.930649
-1.2939639 -0.38983595 2.9424818
0.18013556 -0.37590885 2.9095268
0.22868218 -0.37275669 2.9279947
0.27107576 -0.37669733 2.9414048
0.30172297 -0.39741939 2.9485872
-1.3617798 -0.32806015 2.9080992
-1.3212327 -0.32914075 2.9321032
0.14278556 -0.33413348 2.9042854
0.1795045 -0.32852778 2.9113696
0.22854294 -0.32330751 2.9298956
0.26730129 -0.32012683 2.9421473
-1.3578024 -0.27056655 2.9098604
-1.3217858 -0.27504796 2.9333827
-1.2994841 -0.29936349 2.9430096
-0.40750447 -0.29763532 2.9437056
0.17800099 -0.2720395 2.9132295
0.2282338 -0.27374136 2.9291613
0.26479295 -0.27526465 2.9435921
-1.3602372 -0.22335202 2.9117534
-1.3263556 -0.22394173 2.9313772
-1.2998501 -0.23951411 2.9476523
-0.40777025 -0.24109119 2.9489908
0.14231502 -0.23126958 2.9010608
0.17784977 -0.22301678 2.9133689
0.22833371 -0.22469643 2.9331808
0.27001223 -0.22402205 2.9452176
-1.3632513 -0.17647576 2.9125447
-1.3257174 -0.17901728 2.9320974
-0.40456912 -0.1969783 2.9278734
0.14239605 -0.15270805 2.9060738
0.17783514 -0.174208 2.9153252
0.22797172 -0.17526282 2.9307222
0.26656741 -0.17839143 2.9417701
-1.3674637 -0.1264483 2.9128187
-1.3265305 -0.12681922 2.935775
0.14208411 -0.1315916 2.9003491
0.17775379 -0.12536678 2.9155519
0.22788453 -0.12612396 2.9312155
0.26758343 -0.12691495 2.9473341
-1.3640546 -0.076206036 2.9067633
-1.3279092 -0.074407257 2.9325347
0.13937795 -0.077589676 2.9029365
0.17767151 -0.076566607 2.9153867
0.22808315 -0.077138148 2.9348021
0.2600843 -0.081698075 2.9460332
-1.3585547 -0.029520443 2.9139502
-1.3248082 -0.029616365 2.9337194
0.14201474 -0.013810351 2.9007761
0.17767332 -0.027811155 2.9159062
0.22794281 -0.02799858 2.9334981
0.26426765 -0.028141564 2.9459145
-1.3657207 0.022571811 2.9108746
-1.326977 0.02435567 2.9326885
-1.2979277 0.015192261 2.9498899
0.14217539 0.027772672 2.9039528
0.17760839 0.020919986 2.9148383
0.22801827 0.021080019 2.934454
0.26088062 0.014148063 2.9477084
-1.3634105 0.076521389 2.9098632
-1.3264687 0.074974604 2.9367514
0.13956295 0.077785656 2.9066708
0.17780048 0.076712608 2.9174147
0.22801329 0.077192269 2.9337494
0.26335698 0.07454928 2.9464269
-1.3663388 0.12684537 2.9102173
-1.3263814 0.12728618 2.9352319
0.13096653 0.12514563 2.9098485
0.17566548 0.1210094 2.9201889
0.22817416 0.11794601 2.9347553
0.25745732 0.11287644 2.9476824
-1.3598433 0.17909437 2.9127719
-1.3271065 0.17969367 2.9348688
-1.3669119 0.22591363 2.9117208
-1.3297673 0.22501618 2.9385326
-1.3700794 0.27654114 2.9107103
-1.3314416 0.27299339 2.9355299
-0.91912484 0.28851923 2.9187262
-1.3718899 0.32924494 2.9106603
-1.330592 0.324992 2.9371285
-0.9310956 0.32485598 2.9259362
-1.3739289 0.37466368 2.911056
-1.3337481 0.37598282 2.9363573
-0.92938751 0.36463687 2.9456978
-1.3744082 0.42425299 2.9105844
-1.3309655 0.42179477 2.938498
-1.3682574 0.47374997 2.9151495
-1.3317471 0.47565079 2.9407811
-1.3740268 0.52735215 2.9129477
-1.3305969 0.53146636 2.9396861
-1.3768444 0.57370347 2.9127095
-1.3281199 0.57545346 2.9393179
-1.3755392 0.61892343 2.9146051
-1.3358166 0.62244934 2.9386551
-1.4037257 0.658701 2.9008751
-1.3767066 0.67543942 2.9157083
-1.3395091 0.66981179 2.9395223
-1.4088064 0.71425694 2.9021714
-1.3725213 0.72893947 2.9209507
-1.3321873 0.72560722 2.9445114
-1.3765281 0.77825242 2.9160557
-1.3361243 0.78136039 2.9432704
-1.4030263 0.83379543 2.9046824
-1.376935 0.82549727 2.9192996
-1.3393065 0.82928491 2.9410822
-1.4065868 0.87424874 2.9036982
-1.3769047 0.87836361 2.9238226
-1.3418448 0.87493098 2.9414186
-1.3764294 0.92575353 2.9240398
-1.3412417 0.92805368 2.9445727
-1.4088293 0.97310948 2.9051104
-1.3721619 0.97446442 2.922899
-1.3444661 0.97679251 2.9405491
-1.4049168 1.022204 2.9038646
-1.3718373 1.0262526 2.9240134
-1.3428545 1.0280285 2.9449039
-1.4116082 1.0737582 2.9050324
-1.3761611 1.0764626 2.9262857
-1.3411051 1.0795826 2.9483614
-1.4098376 1.1252344 2.9069176
-1.3752921 1.1289228 2.9305491
-1.346341 1.130915 2.9466724
-1.4159433 1.1771984 2.9053428
-1.3773988 1.1804612 2.9288375
-1.3392833 1.170539 2.9470336
-1.4170161 1.2322936 2.9062691
-1.3725795 1.2210221 2.934001
-1.4182714 1.2770557 2.9083219
-1.3771337 1.2705241 2.9345961
-1.4215043 1.3225533 2.9134209
-1.3726814 1.3245295 2.9412153
-1.452191 1.3767608 2.9006119
-1.4225364 1.3790669 2.9176948
-1.3892207 1.3777245 2.9421947
-1.4582845 1.4146917 2.9006708
-1.4246647 1.427008 2.9177334
-1.3894845 1.4166865 2.940767
-1.4569058 1.4723754 2.9046049
-1.4251699 1.4736397 2.9243369
-1.3934516 1.4793811 2.9453623
-1.4655968 1.5245467 2.9041779
-1.4270306 1.5273263 2.9298348
-1.3971778 1.515918 2.9402907
-1.4610047 1.5721989 2.9113562
-1.4245061 1.5770802 2.9365034
-1.39083 1.5761093 2.9471691
-1.4705729 1.6236899 2.9123402
-1.4316984 1.6263 2.9334183
-1.4708726 1.6746421 2.9137371
-1.4356228 1.6728383 2.9347444
-1.4741948 1.7297343 2.9205842
-1.4351122 1.7329062 2.9428451
-1.5029433 1.7674861 2.900842
-1.4725289 1.7711748 2.9209232
-1.4354914 1.7765862 2.9397261
-1.5098568 1.8008555 2.9014349
-1.4770327 1.8249686 2.9206595
-1.4376484 1.8232462 2.9437675
-1.5159478 1.8840933 2.9069719
-1.4767209 1.8782136 2.9282486
-1.446963 1.895956 2.9445546
-1.5161307 1.9253947 2.9126391
-1.4693285 1.9285487 2.9342692
-1.5195637 1.972477 2.9110954
-1.4782019 1.9747168 2.9329109
-1.4470934 1.9879243 2.9492457
-1.5155066 2.0158625 2.9128876
-1.4731683 2.0229583 2.9354901
-1.4498466 2.0090318 2.94506
-1.5193679 2.0645306 2.910959
-1.4799572 2.0702834 2.9379807
-1.5185394 2.1286073 2.9133799
-1.4778246 2.1247275 2.9371769
-1.5204018 2.1874814 2.9109859
-1.4758688 2.166692 2.9366848
-1.5173213 2.2348046 2.9124196
-1.4758421 2.2143483 2.941999
-1.5109963 2.286272 2.9095948
-1.4789428 2.2721124 2.9332597
-1.4448197 2.2734046 2.9450366
-1.5056803 2.3293376 2.9051235
-1.4708996 2.3311837 2.9233449
-1.4392675 2.3472502 2.9414961
-1.4686527 2.3663146 2.9077468
-1.4189405 2.3787062 2.9291699
-1.3772513 2.3921373 2.9288254
-1.32751 2.3951302 2.939991
-1.2654926 2.3979163 2.929318
-1.2383915 2.3973927 2.9385195
0.87300426 2.3983738 2.9074912
-1.3225292 2.4041059 2.9162729
-1.2756324 2.4064519 2.9122708
-1.2253882 2.4073143 2.9194305
-1.1743052 2.4119792 2.9290257
-1.1270635 2.4201021 2.9191065
-1.0759861 2.4186299 2.9299593
-1.0228441 2.4214511 2.922812
-0.97913444 2.4202645 2.9161575
-0.92758495 2.4276803 2.9313343
-0.8743872 2.4263899 2.943506
-0.83341187 2.4095805 2.9317389
0.75459492 2.4085371 2.9484599
0.82715893 2.4166183 2.9424813
0.88121086 2.4209652 2.9348316
0.92326355 2.4162626 2.9177146
0.96979284 2.4214256 2.9330039
1.024493 2.4258215 2.9229896
1.0737815 2.4136074 2.9241068
1.1270144 2.4237332 2.9242721
1.1775851 2.4183552 2.9145346
1.2213758 2.4169426 2.934536
1.2787894 2.4240611 2.9233658
1.3233117 2.4224861 2.9270406
1.3759248 2.4327011 2.9205456
1.4231949 2.4212031 2.9235244
1.4733279 2.4277778 2.9274702
1.518917 2.4314091 2.9260056
1.5657318 2.4301777 2.9194901
1.6169468 2.425832 2.9264824
1.6721616 2.4285066 2.9172015
1.7239684 2.4307671 2.9370029
1.7821646 2.4359443 2.9291685
1.8263609 2.436533 2.9354787
1.870616 2.4346101 2.9226723
1.9230169 2.4325502 2.9193504
1.983404 2.4411359 2.9443285
2.0337052 2.4342728 2.9257801
2.0785165 2.4434774 2.9377077
2.1243434 2.4418969 2.9302077
2.1749909 2.4345648 2.9089093
2.2335575 2.4472885 2.9426489
2.0699482 2.4527361 2.9114468
2.2706676 2.4554663 2.9326911
2.3402762 2.4568713 2.938822
-1.2115067 -0.50909609 2.9826066
-1.1839784 -0.51563293 2.9828653
-0.50373673 -0.52182513 2.9820166
0.66836321 -0.50562882 2.9519532
-1.2591259 -0.45832297 2.9533794
-1.2255048 -0.4632999 2.9806855
-1.1935481 -0.47721425 2.9975774
-1.1092138 -0.49614871 2.9922404
-1.0846554 -0.49183714 2.9700131
-0.42884973 -0.47565773 2.9776611
0.34636575 -0.45690632 2.9577184
0.37936175 -0.46149722 2.9613104
0.42460942 -0.4680689 2.9695919
0.47693533 -0.46832097 2.9781044
0.52086329 -0.47593066 2.9855175
0.57521552 -0.48462012 2.9716246
0.63540053 -0.49361649 2.9735169
0.7386111 -0.49959192 2.9948924
-1.2662849 -0.41810226 2.9584484
-1.2284989 -0.42315984 2.9852617
0.33755583 -0.424878 2.9623032
0.37700832 -0.42351004 2.9751167
0.4228549 -0.42630371 2.9909194
0.46322003 -0.4449347 2.997467
-1.2737229 -0.3741872 2.9610796
-1.2359101 -0.37774801 2.9869375
-0.41200179 -0.37972969 2.9703112
0.28727651 -0.35452664 2.9504669
0.32441512 -0.37466478 2.9615939
0.37687057 -0.37313861 2.9783931
0.41845468 -0.3775641 2.993644
-1.2733101 -0.32721677 2.9656446
-1.2339565 -0.32263497 2.9903619
-0.41922843 -0.33631763 2.9908421
0.28267625 -0.33577356 2.953542
0.3241722 -0.32758531 2.9629891
0.37677526 -0.32281667 2.9814298
0.41382027 -0.32352462 2.9944949
-1.2737387 -0.27331284 2.9638042
-1.2419598 -0.27159497 2.9890473
-0.41836992 -0.25741953 2.972321
0.28691858 -0.27617562 2.9521501
0.32395378 -0.27753994 2.9643035
0.37663731 -0.27249897 2.9836662
0.42008689 -0.27573776 2.995733
-1.300545 -0.21715477 2.950429
-1.2742435 -0.22531499 2.9677799
-1.2418313 -0.22626404 2.9913378
-0.42692736 -0.2224468 2.9834483
0.28701556 -0.24084692 2.9551754
0.3238906 -0.22766878 2.9664519
0.37737209 -0.22391576 2.9816306
0.41184494 -0.22325015 2.996192
-1.300248 -0.17963402 2.9514859
-1.2727617 -0.17472304 2.9702523
-1.2405171 -0.17324886 2.9905663
0.28641102 -0.16964066 2.9520912
0.32362482 -0.17770313 2.966089
0.37457249 -0.17465466 2.9834714
0.40983912 -0.1688745 2.9926794
-1.3003774 -0.12718847 2.9536386
-1.2750746 -0.12300159 2.9698677
-1.239272 -0.12032778 2.989342
0.286412 -0.12722158 2.9534547
0.32360694 -0.12792829 2.9676332
0.37608078 -0.12169082 2.9856355
0.41566262 -0.12047831 2.9967732
-1.2792553 -0.074812241 2.96492
-1.2401786 -0.075186871 2.9925299
0.28017041 -0.074657515 2.952997
0.32364935 -0.078168944 2.9690385
0.37614942 -0.071582898 2.9871979
0.40662631 -0.071901388 2.9983623
-1.2790967 -0.029788228 2.9650738
-1.2392532 -0.029927641 2.9908111
-1.0823879 -0.044469368 2.9910893
0.28621554 -0.02821026 2.9530668
0.32329708 -0.028363081 2.9664717
0.37597841 -0.028589331 2.9862316
0.40624908 -0.02869883 2.996026
-1.3009263 0.045221385 2.9564676
-1.2768481 0.021687632 2.9682879
-1.238852 0.02280681 2.989835
-1.1016955 0.044989228 2.9993641
0.27737421 0.024776025 2.9534156
0.32326666 0.02136155 2.9662671
0.37593958 0.021539839 2.9859231
0.41114116 0.021625906 2.9962795
-1.3004463 0.075184435 2.9548984
-1.2754351 0.075296119 2.9677339
-1.2399238 0.075586013 2.9917946
0.28366685 0.082085229 2.9553468
0.32358104 0.078241356 2.9683454
0.37629154 0.071713336 2.9882028
-1.3008482 0.12020282 2.9547427
-1.2741525 0.12050447 2.97157
-1.2409505 0.12092073 2.9932005
-1.1020082 0.10477617 2.9991503
-1.0997144 0.1492959 2.9915738
0.18135396 0.1422132 2.9742775
0.21645737 0.13725591 2.9675443
0.27542537 0.12179152 2.9575102
0.32390541 0.12102488 2.9703033
0.37627894 0.11470476 2.9871778
0.40677774 0.1224336 2.9982953
-1.3005972 0.17265698 2.9522896
-1.2746124 0.17318916 2.970763
-1.2407092 0.17369884 2.9907556
-1.3023677 0.22544385 2.9537945
-1.272948 0.22759262 2.9722495
-1.2415247 0.22390577 2.9944789
-1.3030182 0.2706165 2.9525721
-1.2743461 0.27003264 2.9729867
-1.2418005 0.27534622 2.9921107
-1.3058759 0.3239153 2.9552531
-1.2733418 0.32633212 2.9746001
-1.2399808 0.32102367 2.9926848
-0.92284888 0.32373777 2.9782064
-1.3089329 0.37748274 2.9577239
-1.2737795 0.37824306 2.9753132
-1.2386533 0.37904668 2.9929295
-0.96079385 0.37114003 2.9949951
-0.92448562 0.35375619 2.9812148
-1.3076947 0.41481334 2.951335
-1.2747713 0.42394447 2.9733229
-1.2407279 0.42520639 2.9936237
-1.3110348 0.47633836 2.9523282
-1.2781644 0.47226959 2.9714847
-1.2391436 0.47538894 2.994823
-1.3089515 0.53044504 2.95416
-1.2759532 0.52412349 2.9734216
-1.2396814 0.53066975 2.993063
-1.302662 0.57757872 2.9598846
-1.272543 0.57907927 2.9779515
-1.2484581 0.58060861 2.9940965
-1.3104769 0.62399244 2.955241
-1.2731949 0.62771809 2.9792564
-1.2483448 0.61109447 2.9895279
-1.3136723 0.67127419 2.9552267
-1.2747824 0.67408508 2.981499
-1.2387583 0.66761339 2.9996538
-1.311131 0.71896958 2.9574454
-1.277707 0.72168517 2.9806395
-1.2430844 0.73923093 2.9985323
-1.3089674 0.7783972 2.9590552
-1.2750576 0.76737523 2.9785793
-1.2447541 0.7710855 2.9969583
-1.3124024 0.83168703 2.959677
-1.2764115 0.81788003 2.9807217
-1.2488017 0.81997889 2.9978669
-1.3160721 0.88032728 2.9581797
-1.2769634 0.87290245 2.9806736
-1.2497373 0.85154998 2.9939098
-1.3176702 0.93234956 2.9594045
-1.2756753 0.92262727 2.9842234
-1.3172828 0.97963226 2.9594011
-1.2752331 0.97274041 2.9874678
-1.3203969 1.0282711 2.9602022
-1.279164 1.0226932 2.9851959
-1.3199325 1.0814537 2.9613323
-1.2813038 1.0698041 2.9840946
-1.3174306 1.1251811 2.9650457
-1.2755182 1.122193 2.9890914
-1.3143164 1.1687478 2.967041
-1.2807922 1.1703815 2.9890304
-1.3256199 1.2237893 2.9653311
-1.2839144 1.2202278 2.9881456
-1.3507934 1.2915276 2.9523492
-1.325025 1.2744691 2.9676795
-1.2855303 1.2772239 2.9933772
-1.3253022 1.329845 2.9668186
-1.2909597 1.3222269 2.9898815
-1.3685522 1.3731164 2.953474
-1.3240626 1.3770432 2.9786937
-1.2868104 1.3720794 2.9939513
-1.3621763 1.423386 2.957834
-1.3256114 1.427542 2.9805653
-1.2962086 1.4308603 2.9984369
-1.3698647 1.4720852 2.9591362
-1.3278415 1.476879 2.9819376
-1.2974499 1.4647565 2.9892972
-1.3703741 1.5223645 2.9647048
-1.3284471 1.5228525 2.98685
-1.3683089 1.5702894 2.9642172
-1.3362592 1.5787177 2.9898405
-1.4065273 1.6436921 2.9589548
-1.3752527 1.6210161 2.9694273
-1.3326781 1.6280941 2.9951007
-1.4162331 1.676314 2.9530897
-1.3742423 1.6752374 2.9789019
-1.3373576 1.6761881 2.9959633
-1.4174185 1.7211899 2.9607966
-1.3715197 1.7203389 2.9833591
-1.3377757 1.7200811 2.9950619
-1.4140208 1.7682728 2.9593506
-1.3760256 1.7741743 2.9811618
-1.3458824 1.764284 2.9975619
-1.4147449 1.8268247 2.9631622
-1.3782005 1.8214227 2.980381
-1.4257753 1.8711216 2.9637403
-1.3782979 1.8698055 2.9836457
-1.3464521 1.8815193 2.9970541
-1.4221194 1.9248949 2.9619727
-1.382498 1.9128132 2.9846401
-1.4220375 1.9805299 2.9663165
-1.3886855 1.9725735 2.9933829
-1.421512 2.0266807 2.9672556
-1.3817091 2.0320344 2.9921527
-1.4305253 2.0745442 2.9658134
-1.3923584 2.0755632 2.9894044
-1.4521546 2.1067891 2.9514797
-1.4218007 2.1226742 2.9704177
-1.3903604 2.1284046 2.9924731
-1.4306326 2.171303 2.9671957
-1.3892972 2.1759095 2.9912734
-1.4591244 2.2321076 2.953665
-1.4202477 2.2182164 2.9674885
-1.3840564 2.2297912 2.9937897
-1.4202583 2.2730079 2.9772775
-1.381479 2.2779987 2.9977746
-1.4533855 2.3048987 2.9504766
-1.4187584 2.3266039 2.9633131
-1.3777472 2.3228979 2.9891274
-1.3703789 2.3658154 2.9692605
-1.3318129 2.3781364 2.9783154
-1.2766553 2.3919213 2.9739406
-1.2287667 2.3955958 2.9773645
-1.1854653 2.3988104 2.9591808
0.3862451 2.3962064 2.9916017
-1.2100717 2.4032378 2.975821
-1.1603872 2.4024537 2.9727788
-1.1260464 2.4087281 2.9704003
-1.079452 2.4196949 2.9853837
-1.0321735 2.4161868 2.9728324
-0.97231865 2.4250665 2.9693062
-0.9177947 2.4218612 2.9796801
-0.86845112 2.4167905 2.9677162
-0.82287133 2.4297791 2.981559
-0.78173465 2.4238453 2.9738407
-0.73247534 2.4221115 2.9704916
-0.68069839 2.425061 2.9845886
-0.62885147 2.4283564 2.9982989
0.52836955 2.4109507 2.9923058
0.58166981 2.4148152 2.9890308
0.62733579 2.4223058 2.9909372
0.67058128 2.4202456 2.9804304
0.721075 2.423434 2.9833081
0.78250581 2.4196033 2.9775732
0.83357024 2.4177816 2.9775536
0.88355821 2.4199078 2.9800656
0.92340827 2.4131804 2.9668324
0.98058337 2.4146097 2.9711492
1.0269176 2.4203255 2.9777329
1.0719856 2.4173546 2.97543
1.1321523 2.4174387 2.9657452
1.1787783 2.4215827 2.978488
1.2307959 2.4174531 2.9697502
1.2851247 2.4232006 2.9709682
1.3205916 2.4153416 2.9720678
1.3746357 2.4261203 2.9763207
1.436906 2.4250271 2.9791098
1.473142 2.4242289 2.9624832
1.5216701 2.4293411 2.9793959
1.5820442 2.4323168 2.9667103
1.6284384 2.4275575 2.9794114
1.6759939 2.4257426 2.9790554
1.7248348 2.4264274 2.9728982
1.7705413 2.4269235 2.9646595
1.8262463 2.430033 2.9694071
1.8707224 2.4340923 2.9818089
1.9229833 2.4375627 2.9733722
1.997944 2.4396513 2.9799232
2.0202551 2.4432561 2.9728301
2.0811391 2.4384971 2.9753227
2.1281486 2.4383757 2.9782741
2.1776302 2.4397736 2.9656181
2.2176394 2.4415402 2.9677773
2.2779977 2.4541926 2.9761093
2.3388312 2.456291 2.9904153
2.3619773 2.4594746 2.9805355
-1.1656984 -0.50101882 3.0096653
-0.47089994 -0.50875658 3.0256627
0.76136148 -0.50493014 3.0244205
-1.1704928 -0.46716112 3.0113711
-1.1332667 -0.47502238 3.0215118
-1.0060593 -0.49723017 3.0241768
-0.46447286 -0.4681077 3.0204535
-0.44734085 -0.48733377 3.0028555
0.49819827 -0.45078194 3.0001781
0.53437454 -0.45734704 3.0153415
0.57442266 -0.46467614 3.0247831
0.624515 -0.49128249 3.0307126
0.67554992 -0.49449968 3.0200374
0.71953636 -0.49195239 3.0448897
0.7584064 -0.49298143 3.0452271
-1.1733971 -0.42512754 3.0159836
-1.1315773 -0.42654374 3.0380526
0.47404492 -0.42176163 3.0059371
0.52680033 -0.4242056 3.0277452
0.57089472 -0.42711172 3.033783
-1.2088995 -0.37876081 3.0035465
-1.1733034 -0.3795222 3.019892
-1.129012 -0.37597802 3.0388718
-0.42857435 -0.36905888 3.0200994
0.43850753 -0.36952475 3.002939
0.46971405 -0.37854487 3.0135722
0.52406359 -0.37366498 3.0279899
0.57141614 -0.37589258 3.0409906
-1.2080406 -0.32549474 3.0056822
-1.1731935 -0.32634351 3.0238578
-1.131588 -0.32423082 3.0391695
-0.43226689 -0.32694522 3.0147202
0.43547541 -0.32738918 3.0054171
0.46911266 -0.32715973 3.0135937
0.52374941 -0.32217023 3.0301311
0.56904763 -0.314509 3.0463619
-1.2146116 -0.27224097 3.0047228
-1.1724354 -0.27301356 3.0255406
-1.1374844 -0.27374041 3.0435035
-0.44174165 -0.27010775 3.0328841
0.43717131 -0.26003247 3.0011821
0.4718717 -0.27470702 3.0156295
0.52641797 -0.27992076 3.0365052
0.56292892 -0.27949718 3.04268
-1.2138623 -0.22669774 3.0054538
-1.1719593 -0.22738354 3.0268695
-1.1283422 -0.22777331 3.0438361
-0.43629152 -0.21994746 3.049289
0.43258569 -0.22402771 3.0050719
0.47602266 -0.22517781 3.0164504
0.53122413 -0.22703879 3.0358031
0.5633564 -0.21345985 3.04849
-1.2130529 -0.17363836 3.0058424
-1.1730156 -0.17573722 3.0276029
-1.1323515 -0.17441523 3.042033
-1.094615 -0.17290032 3.0218074
-0.43121058 -0.18839414 3.0150373
0.43126899 -0.17616768 3.0047355
0.47159347 -0.17283759 3.0187142
0.52554405 -0.17696542 3.036505
0.5632174 -0.17660072 3.0492694
-1.2129979 -0.12071893 3.0074861
-1.1757237 -0.12261923 3.0277202
-1.14069 -0.11822554 3.0410159
-1.0915763 -0.12740183 3.0148945
0.43301475 -0.12622555 3.0032368
0.47572717 -0.12337682 3.0182838
0.53106529 -0.12443134 3.0387173
0.56909591 -0.12182121 3.0478618
-1.2143368 -0.075460397 3.0117848
-1.1714419 -0.075637206 3.0306654
-1.1244123 -0.075459704 3.0337515
-1.0885931 -0.074660853 3.0078347
0.42985454 -0.072169878 3.0078189
0.47365865 -0.071216084 3.0191078
0.52825618 -0.074656032 3.0407851
0.56845462 -0.076398037 3.0476897
-1.212299 -0.030017219 3.0072603
-1.1753762 -0.030123776 3.0283818
-1.1279098 -0.030061455 3.0313838
-1.0869644 -0.022240283 3.0038841
0.42930803 -0.028798684 3.0044453
0.47110963 -0.030425791 3.0186758
0.52571249 -0.02789513 3.0406649
0.56657583 -0.019513683 3.0435047
-1.2130049 0.022865802 3.0089958
-1.1743801 0.025100639 3.0294933
-1.1278716 0.016993608 3.0306695
-1.0886059 0.022640899 3.0083613
0.4319427 0.021729557 3.0058231
0.47436827 0.022333972 3.0205705
0.52870786 0.02146606 3.0399222
0.56765568 0.023557873 3.0438492
-1.2122203 0.075736754 3.0064209
-1.172657 0.076103114 3.0337069
-1.121621 0.075706109 3.0305479
-1.0934974 0.075329013 3.0212727
0.42235792 0.072241068 3.0063777
0.47177219 0.071290568 3.0224948
0.52580816 0.074653991 3.040658
0.56194723 0.088211164 3.044734
-1.2132887 0.12116645 3.0080099
-1.1732441 0.1217019 3.0341742
-1.1140718 0.12046536 3.0166035
-1.0979379 0.11337947 3.0327206
0.23563494 0.14501302 3.030509
0.32929149 0.14476475 3.0194814
0.35433039 0.14614303 3.0465937
0.42685202 0.11360119 3.007736
0.46906465 0.11639915 3.0230691
0.52105117 0.11576682 3.0359361
0.56170028 0.11753969 3.0427244
-1.2142982 0.17422988 3.0086632
-1.1733763 0.17488325 3.0326493
-1.1371042 0.16752453 3.0474565
-1.0200977 0.17707142 3.0414057
-1.2146853 0.2272629 3.007127
-1.1728777 0.22795588 3.0289059
-1.1372654 0.23601608 3.0447316
-1.2164682 0.27308115 3.0088894
-1.1749886 0.27400577 3.0317106
-1.1335086 0.26422155 3.0479603
-1.2176708 0.3264538 3.0081213
-1.1774958 0.32218349 3.0298765
-1.2182204 0.37975308 3.0051029
-1.176754 0.37546331 3.0330842
-1.142913 0.38246182 3.0495903
-0.95366621 0.3891241 3.0213547
-0.93822163 0.37396622 3.0242696
-1.2182093 0.42861947 3.0095277
-1.1781856 0.42666042 3.0336761
-1.1447413 0.43668252 3.0494409
-0.95816439 0.40599176 3.0342517
-1.2141509 0.47104621 3.0123496
-1.1748074 0.47476232 3.0358691
-1.2159374 0.51758111 3.0115023
-1.1767281 0.52154857 3.0355248
-1.2201566 0.57676786 3.0130739
-1.1811721 0.57460451 3.0364382
-1.2246898 0.62990701 3.0131171
-1.1759697 0.62806135 3.0380023
-1.2217609 0.67899019 3.0105076
-1.181771 0.68110788 3.0356019
-1.2202383 0.72384113 3.0145936
-1.1773773 0.72807419 3.0395567
-1.2212813 0.77377832 3.0156739
-1.184153 0.77679825 3.0393441
-1.2214164 0.82236892 3.0157108
-1.1829627 0.82490128 3.0370216
-1.2245008 0.87111002 3.0139248
-1.1827757 0.87474012 3.0398633
-1.2255645 0.92247772 3.014775
-1.1842488 0.92231226 3.0396905
-1.2255177 0.97140145 3.0172615
-1.1830989 0.97514743 3.0424626
-1.2519209 1.0286183 3.0039594
-1.2251089 1.0204227 3.0183334
-1.1872958 1.025951 3.0419962
-1.2562437 1.0715619 3.0042267
-1.2249174 1.076082 3.0224817
-1.1893566 1.0734304 3.0406909
-1.258141 1.1047323 3.0003769
-1.2254459 1.1267489 3.0246754
-1.1849695 1.1257306 3.0464344
-1.2573932 1.1876069 3.0061762
-1.2277102 1.1755209 3.0251968
-1.1948313 1.1752684 3.0482597
-1.2611651 1.233691 3.0063915
-1.2278652 1.2269813 3.0266888
-1.1979955 1.2184676 3.0447257
-1.2616856 1.2741697 3.0072484
-1.2225382 1.2736742 3.032232
-1.2663715 1.3212397 3.0107677
-1.2242274 1.3257394 3.0354209
-1.2712462 1.3776569 3.0129337
-1.231757 1.3754494 3.0328982
-1.2707297 1.4265537 3.0157108
-1.2292398 1.4217128 3.0427837
-1.2725903 1.4736708 3.018141
-1.2367381 1.4744391 3.0401442
-1.3105476 1.5288661 3.0004618
-1.2757248 1.5251216 3.0221188
-1.2394527 1.5247818 3.0433342
-1.309154 1.5699608 3.0057318
-1.2754869 1.5736755 3.0292914
-1.3088917 1.6294829 3.0062864
-1.2780179 1.6241783 3.0265515
-1.249162 1.6299443 3.0481324
-1.3108236 1.684226 3.0147552
-1.2755065 1.6734189 3.0345109
-1.3172407 1.7261467 3.0144527
-1.281619 1.7252343 3.0371037
-1.318823 1.7767938 3.0162177
-1.27795 1.7753822 3.0428376
-1.3601481 1.8427 3.0005062
-1.3235502 1.8304584 3.0194204
-1.2863963 1.824036 3.0398116
-1.3221482 1.8788927 3.0239303
-1.284851 1.8743153 3.0456402
-1.3558913 1.9205627 3.0047405
-1.3242482 1.924631 3.0235322
-1.2932913 1.9298906 3.0439363
-1.3622382 1.9834796 3.0046275
-1.3274966 1.9725564 3.0252035
-1.287491 1.9704279 3.0450222
-1.35797 2.0356374 3.0073574
-1.3230482 2.0182016 3.0298176
-1.3730704 2.0876021 3.0038977
-1.3295226 2.0730767 3.0264254
-1.2969211 2.0583198 3.0484209
-1.3662415 2.1320901 3.0078404
-1.3210901 2.1274879 3.0317831
-1.3614362 2.1864045 3.0123889
-1.3285292 2.182193 3.0284371
-1.2974441 2.176686 3.0466261
-1.3606404 2.2245054 3.0076787
-1.322762 2.2340081 3.0302694
-1.363975 2.2788029 3.0058653
-1.3294393 2.2813346 3.0228107
-1.2950565 2.2752399 3.0455778
-1.3525417 2.3261466 3.0038824
-1.3190757 2.3309555 3.0237563
-1.279066 2.3381414 3.0426149
-1.3075652 2.3652408 3.007508
-1.2702278 2.3689997 3.0240455
-1.2304627 2.3893175 3.0251486
-1.1731235 2.3925211 3.0299652
-1.1325061 2.3923686 3.0239546
-1.1797534 2.4057329 3.0085955
-1.1123569 2.4058475 3.0117755
-1.0781466 2.4099259 3.027956
-1.0178602 2.4200485 3.0262351
-0.97237968 2.4215622 3.0262775
-0.93173826 2.4152963 3.0303257
-0.87084049 2.4214542 3.0267467
-0.82362485 2.4228992 3.0219035
-0.7758376 2.4308269 3.0287583
-0.72659737 2.4242074 3.0180211
-0.66967112 2.431318 3.029434
-0.62681705 2.4371161 3.0445735
-0.57823259 2.4286149 3.0243008
-0.52846324 2.4287169 3.0285895
-0.46986619 2.4203289 3.0207651
-0.42738268 2.4331131 3.0336828
-0.38275567 2.429708 3.0342762
-0.32951018 2.4259768 3.0347149
-0.27686411 2.4266744 3.0399246
-0.18849346 2.4209042 3.0382481
-0.13525005 2.4096437 3.026413
-0.030696088 2.4238243 3.0465961
0.039459717 2.4190769 3.0405505
0.08349894 2.425657 3.0480864
0.11854339 2.4238825 3.0449049
0.179975 2.4234495 3.0419035
0.22341859 2.4187379 3.0335946
0.28483561 2.4194486 3.030273
0.32026801 2.4223726 3.0310276
0.36471671 2.4260697 3.0315824
0.43025878 2.4197001 3.024899
0.48283046 2.4175429 3.027493
0.52840328 2.4263403 3.0347974
0.56759208 2.4120412 3.0219383
0.62174952 2.4170265 3.0195367
0.67125702 2.4165039 3.0187323
0.73128259 2.4207418 3.0214143
0.76745152 2.4141066 3.022748
0.82687122 2.4145064 3.0244317
0.87033659 2.4198976 3.0249653
0.91990614 2.4239349 3.0360858
0.97826004 2.4351978 3.0359671
1.0288681 2.4209607 3.0146968
1.0760338 2.4196362 3.0329328
1.1230732 2.419029 3.0232375
1.1699136 2.4227118 3.0360165
1.2255363 2.4247501 3.020153
1.2718018 2.4255741 3.0281968
1.3289582 2.4289949 3.0277545
1.3802972 2.4291143 3.0281534
1.4194508 2.4330854 3.0182943
1.4754847 2.4264541 3.021682
1.5285654 2.4318838 3.0317316
1.5758305 2.4309812 3.0260231
1.6192846 2.4230886 3.0190952
1.6710447 2.4249363 3.0403051
1.723226 2.431787 3.0257454
1.7695923 2.4338524 3.0276966
1.8232384 2.4322755 3.0194244
1.8886775 2.4358776 3.035619
1.9175501 2.435761 3.0194964
1.9793948 2.4428616 3.0196986
2.0282979 2.4452052 3.0188251
2.0861285 2.4372082 3.0345662
2.1236627 2.43606 3.0259361
2.1896687 2.4445062 3.0161436
2.221447 2.4476695 3.026768
2.4043143 2.4416876 3.0231373
2.297266 2.4548116 3.0156467
2.326375 2.4542291 3.0210786
-0.89898199 -0.52014333 3.0946014
-0.8209902 -0.54977125 3.0998554
-0.61399788 -0.54237324 3.088439
-0.58095276 -0.53962809 3.0766273
-0.52272522 -0.52342391 3.0779839
-0.48793009 -0.5065279 3.0714402
-1.0688745 -0.47832134 3.0913417
-1.0342133 -0.49196336 3.0856099
-0.47985518 -0.49095136 3.0695581
0.62797439 -0.4774183 3.0875463
0.68162721 -0.48186442 3.08412
0.72779679 -0.48254669 3.0816243
0.76572478 -0.48264545 3.0761642
0.80708075 -0.48483655 3.0836797
-1.0821873 -0.42705506 3.0946722
-0.45672771 -0.40840086 3.0744929
-1.0868438 -0.37368137 3.0927505
-0.46386257 -0.37521911 3.0845084
-1.0907803 -0.32361123 3.0958776
-0.45665225 -0.32668018 3.0803401
0.57644749 -0.33562279 3.0575848
-1.0884615 -0.29214868 3.0913897
0.57717705 -0.26890442 3.0549843
-1.1054872 -0.21257496 3.0502048
-1.0900347 -0.23094393 3.099376
-0.45571762 -0.23708846 3.0793371
0.57671463 -0.22538361 3.058815
-1.101472 -0.19940735 3.0859628
-1.0884544 -0.17675574 3.0972319
0.57362115 -0.17707933 3.0564523
-1.1024729 -0.12277529 3.0914254
-1.0898174 -0.12761492 3.0870259
0.57974964 -0.14761466 3.0580091
-1.1021799 -0.06894891 3.0917253
-1.0882776 -0.07675077 3.0994563
0.57813931 -0.058838226 3.0514216
-1.1039814 -0.030610725 3.097163
-1.0882913 -0.045983724 3.099915
0.57305831 -0.039189368 3.0512893
-1.1021084 0.015539906 3.0919521
-1.087846 0.02323659 3.098712
0.57478219 0.019771621 3.0604951
-1.1027012 0.084702693 3.0928116
-1.0877562 0.069357038 3.0980053
0.57384658 0.071000598 3.0603774
-1.1166328 0.12568197 3.0750663
-1.087131 0.13846719 3.0945988
0.54305339 0.14046352 3.0638876
0.57176572 0.12723577 3.0733955
-1.1204441 0.17603619 3.0699029
-1.0869262 0.15380538 3.0935097
-1.0258986 0.16673289 3.0592012
-0.99842829 0.18238258 3.0740607
-0.86213446 0.18638746 3.0838687
-1.1228875 0.22908445 3.0588248
-1.0803635 0.23357442 3.0712597
