ply
format ascii 1.0
comment PCL generated
element vertex 1497
property float x
property float y
property float z
element camera 0
property float view_px
property float view_py
property float view_pz
property float x_axisx
property float x_axisy
property float x_axisz
property float y_axisx
property float y_axisy
property float y_axisz
property float z_axisx
property float z_axisy
property float z_axisz
property float focal
property float scalex
property float scaley
property float centerx
property float centery
property int viewportx
property int viewporty
property float k1
property float k2
end_header
-1.6231399 -0.27683297 2.7336376
-1.5746908 -0.26148582 2.7455697
-1.5364227 -0.26747203 2.7144444
-0.061743662 -0.26666582 2.7185178
-0.04900749 -0.28118014 2.7331195
-1.6733751 -0.22562075 2.7125518
-1.6233991 -0.2257981 2.7375023
-1.5750349 -0.24699366 2.7471516
-1.4229016 -0.24220997 2.7418289
-0.062297527 -0.23186956 2.7450676
-0.049256328 -0.2498167 2.7490973
-1.6730049 -0.17455773 2.7147582
-1.6278303 -0.17473949 2.7384346
-1.5328369 -0.18572181 2.7130249
-1.4204525 -0.18483436 2.7402749
-0.36348271 -0.15715364 2.7275572
-0.068401672 -0.16963223 2.7312448
-1.7008895 -0.13070141 2.7008505
-1.6729903 -0.12352327 2.7167861
-1.6316153 -0.12371811 2.7406063
-1.536262 -0.14357643 2.7314813
-0.068118148 -0.12989412 2.7206154
-1.7005265 -0.065126516 2.7020254
-1.6724148 -0.0724729 2.7172012
-1.6315259 -0.072621979 2.7417974
-1.5324216 -0.078569725 2.7265263
-1.4322643 -0.099220067 2.7334056
-0.022628378 -0.077745222 2.7166331
-1.7015855 -0.043306746 2.7040277
-1.6748638 -0.028741593 2.7156682
-1.6391937 -0.028824417 2.7397454
-1.5713863 -0.021432972 2.7487187
-1.5275753 -0.014044849 2.734448
-1.4257032 -0.013858795 2.7220857
-1.6782893 0.021783378 2.7151275
-1.6367096 0.021476837 2.7407231
-1.4580169 0.014496171 2.7186525
-0.10022797 0.025929088 2.7111638
-0.0097752102 0.013145877 2.748323
-1.7002101 0.080516011 2.7010744
-1.6758912 0.071844742 2.716646
-1.6320668 0.073403984 2.7425532
-0.10672958 0.071238942 2.7112324
-0.087000623 0.058074236 2.702194
-1.7020016 0.12434705 2.702594
-1.6749126 0.12448362 2.7196543
-1.6358137 0.12458839 2.741214
-0.11323228 0.11011229 2.711355
-1.7046429 0.17564 2.7046089
-1.6713543 0.17707847 2.7227366
-1.6392915 0.17237729 2.7435501
-0.65978497 0.1889286 2.7049599
-0.62385547 0.19155155 2.7168903
-0.57330561 0.19231376 2.7354288
-0.5371964 0.19060151 2.7478983
-0.43226159 0.19806944 2.7401733
-1.7064869 0.22700489 2.7045779
-1.6727675 0.22737044 2.7263477
-1.6384617 0.227658 2.7468755
-0.67937899 0.2221763 2.7176299
-0.62354267 0.21125472 2.7144973
-0.57436711 0.2126002 2.7396078
-0.43279791 0.21153274 2.7429161
-1.7145354 0.28254133 2.7057772
-1.6754409 0.27904934 2.7270634
-1.639596 0.27916467 2.7451999
-1.7108026 0.32282451 2.7039802
-1.6768261 0.32332546 2.725626
-1.6412693 0.32352951 2.7443326
-1.7147069 0.37460661 2.7078145
-1.6738187 0.3756685 2.731065
-1.6456553 0.37594426 2.7466679
-1.7145631 0.42529181 2.7078342
-1.6773772 0.42808062 2.7310841
-1.648559 0.42824009 2.7457898
-1.7137108 0.47220472 2.707093
-1.6725234 0.47304365 2.733053
-1.7144839 0.51987821 2.7067642
-1.6759733 0.52582669 2.7314062
-1.6373919 0.51789218 2.7468984
-1.7173419 0.58323914 2.7066345
-1.6779152 0.57765138 2.7310069
-1.7157691 0.62248993 2.7115605
-1.677017 0.62517804 2.7331016
-1.6497072 0.64097941 2.7483733
-1.7250965 0.67003804 2.7129762
-1.6748983 0.67194754 2.7370968
-1.7173134 0.72783953 2.7136257
-1.6758088 0.71992147 2.7366564
-1.7215029 0.78065658 2.7120903
-1.6762439 0.77569383 2.7376029
-1.7190441 0.82811713 2.7133179
-1.6820152 0.82742369 2.7370071
-1.7239872 0.87544483 2.7144871
-1.6744837 0.87747365 2.7410874
-1.7240682 0.92514771 2.7137651
-1.6809634 0.92642236 2.739948
-1.7241497 0.97496039 2.7169876
-1.6800628 0.97585613 2.742094
-1.7231864 1.0246048 2.7179418
-1.687672 1.0262171 2.7412529
-1.7255863 1.07683 2.718648
-1.6871198 1.0766958 2.7425561
-1.7537957 1.1338959 2.7018521
-1.7269207 1.125214 2.7206726
-1.6864811 1.1275251 2.742976
-1.7602586 1.169039 2.7010765
-1.7271302 1.1805317 2.7222981
-1.6899862 1.1751258 2.7425551
-1.7550057 1.2304006 2.7053654
-1.7248925 1.2277632 2.71983
-1.6880112 1.2202821 2.7444344
-1.7633374 1.2753406 2.7033656
-1.723832 1.2730536 2.7260253
-1.6997523 1.2510643 2.7430136
-1.7613045 1.3168303 2.7054415
-1.7252685 1.3212301 2.7266264
-1.6949488 1.3220649 2.7445145
-1.7596295 1.3787963 2.7069273
-1.7245419 1.376295 2.7334192
-1.7692548 1.4241636 2.7092836
-1.7322212 1.4263841 2.7347956
-1.77088 1.4719124 2.7104261
-1.7280774 1.4765904 2.7391822
-1.8028451 1.533492 2.7031643
-1.7753807 1.5226165 2.7154148
-1.7371205 1.5243499 2.7403312
-1.7748703 1.574079 2.7179494
-1.7400286 1.5746143 2.7427871
-1.8051106 1.6226852 2.7037945
-1.7744875 1.6244694 2.72505
-1.7362179 1.6269683 2.744065
-1.8108014 1.6762755 2.7078776
-1.7725656 1.6741765 2.7291942
-1.7401606 1.695817 2.7453961
-1.8110815 1.733487 2.7130091
-1.7738662 1.7293671 2.7325954
-1.7370286 1.7173042 2.7491412
-1.8176193 1.7728895 2.7114961
-1.7773553 1.7741851 2.737114
-1.8198515 1.8251237 2.7136137
-1.7835598 1.8256733 2.7388926
-1.7485161 1.8037423 2.7485383
-1.8245544 1.8776646 2.7091904
-1.7793623 1.8745213 2.7362537
-1.8505032 1.9409894 2.7021368
-1.8208612 1.9281148 2.7163289
-1.7858971 1.9272003 2.7420256
-1.8241814 1.9748732 2.7175617
-1.7900758 1.9749162 2.7374501
-1.8612312 2.0217373 2.7045443
-1.8208892 2.0223186 2.717994
-1.7910205 2.0201981 2.7428987
-1.8506227 2.0815775 2.7058492
-1.8243017 2.0725462 2.7265775
-1.7933416 2.0581198 2.7398353
-1.8242435 2.1172273 2.7210712
-1.7917237 2.1199117 2.7448342
-1.8543916 2.1669817 2.7051311
-1.820724 2.1686311 2.7280118
-1.7886642 2.1810615 2.7469206
-1.8288927 2.2234402 2.7212925
-1.7828938 2.2119124 2.7462587
-1.8223274 2.2688534 2.7227092
-1.7862215 2.2722969 2.7466087
-1.8208801 2.324084 2.7122772
-1.7802551 2.3215234 2.7317753
-1.7451025 2.3400762 2.7395101
-1.8046376 2.3658454 2.704309
-1.7763453 2.3728752 2.7107573
-1.7339231 2.3779087 2.7287636
-1.6723229 2.3916967 2.7356646
-1.6263584 2.3943505 2.7235606
-1.5925151 2.3967497 2.744715
-1.7144963 2.4008124 2.7266107
-1.6138504 2.4066672 2.7083471
-1.5670044 2.4070024 2.7230477
-1.5230217 2.4120488 2.7228615
-1.4739937 2.4172511 2.7306907
-1.4209478 2.4146426 2.7363658
1.4255533 2.422452 2.7454596
1.4772449 2.4210236 2.7193272
1.5232986 2.4327428 2.7266014
1.5721142 2.4282265 2.7219291
1.6188869 2.4275157 2.7368391
1.6730585 2.4291053 2.7267137
1.7262421 2.4353514 2.7317009
1.7778494 2.4352946 2.723454
1.8266075 2.4309752 2.7095785
1.8742259 2.4346519 2.7299609
1.9198273 2.4308412 2.7252443
1.9643348 2.4306192 2.7119367
2.0200183 2.4349852 2.7284291
2.4210474 2.4474578 2.7125998
2.467129 2.4352612 2.706605
2.6874907 2.4447291 2.7150886
2.6096091 2.4678574 2.7134545
-0.90741569 -0.52430159 2.7639391
-0.70761657 -0.50584382 2.7781985
-0.68747258 -0.5011307 2.7546034
0.1766876 -0.50640094 2.7603235
0.22490925 -0.50996733 2.777523
0.28093916 -0.51454985 2.7843337
0.33079267 -0.51630205 2.7865875
0.37660784 -0.51733214 2.7749889
0.42203578 -0.51306701 2.7794564
0.47213361 -0.51609325 2.7907927
0.53122997 -0.50726259 2.7734168
-0.92282426 -0.49756485 2.7691069
-0.70460236 -0.49007437 2.7680042
-0.68197101 -0.48849463 2.7624936
0.14988534 -0.49270248 2.7608633
0.16470286 -0.49722895 2.7857292
0.097495534 -0.40313318 2.7975111
0.023349877 -0.35913798 2.7736943
0.056765091 -0.3735469 2.7804921
-1.5893362 -0.30654377 2.7519574
-1.4177065 -0.31878904 2.7932339
-0.021196371 -0.31381997 2.7630253
0.012313139 -0.32613659 2.7850437
-1.5878878 -0.28436682 2.7511702
-0.026860116 -0.27324274 2.7664554
0.014109191 -0.271321 2.7936997
-1.5826107 -0.22207963 2.7540426
-1.4383513 -0.22316714 2.7728996
-0.062440559 -0.22363828 2.7518704
-0.029663494 -0.2247716 2.7661982
0.010079258 -0.22018625 2.7923255
-1.6024058 -0.1748468 2.7514081
-1.5767301 -0.17270789 2.7610266
-0.062394135 -0.17745769 2.7519741
-0.029673424 -0.1786492 2.7708254
0.0087445239 -0.17621358 2.7953038
-1.6031697 -0.12379996 2.7547269
-1.5796396 -0.12367938 2.7612245
-0.028346935 -0.12699947 2.7717612
0.0060654972 -0.1306884 2.7939785
-1.6032472 -0.072681658 2.7561846
-1.5782299 -0.070606068 2.7669072
-0.013187936 -0.082787544 2.7759161
0.0087347953 -0.082630575 2.7940183
-1.6098541 -0.028839143 2.7523711
-1.5740939 -0.036086068 2.761225
0.0033953879 -0.026648527 2.7971923
-1.608901 0.023315694 2.7529521
-1.5742184 0.022272371 2.76946
-1.5306129 0.02425733 2.7848718
-1.4505744 0.00029764129 2.7695863
-0.0098686079 0.033130817 2.7744551
0.0033864793 0.019979578 2.7898467
-1.6036862 0.073429376 2.7567976
-1.5698429 0.073538035 2.7770302
-1.5358398 0.058979336 2.7970123
-0.0098947026 0.07301762 2.7812443
0.0033926952 0.073372431 2.7943857
-1.6111088 0.12477807 2.757621
-1.5726668 0.12500265 2.7806075
-1.5371566 0.10305588 2.7984409
-0.0098808343 0.11268001 2.7764654
0.0033956778 0.1068045 2.7961845
-1.6147763 0.17614169 2.7565536
-1.5736946 0.17643483 2.7803402
-0.51036894 0.18689512 2.7624469
-0.47427243 0.18845335 2.790236
-0.43749982 0.18710856 2.7740004
-1.617228 0.22041732 2.7583435
-1.5763344 0.22083206 2.7826235
-1.5406638 0.23567382 2.7988458
-0.66276443 0.22889218 2.7632217
-0.62839943 0.23026955 2.7858276
-0.57176989 0.22322755 2.7730014
-0.52281779 0.20867138 2.7705789
-0.47703412 0.20763113 2.7883427
-1.6195649 0.27215204 2.7588468
-1.5784255 0.27265039 2.7828948
-1.5416688 0.29470441 2.7965224
-1.6158921 0.32578462 2.7600601
-1.5761111 0.32311997 2.7844758
-1.6172109 0.37616572 2.7614625
-1.5765659 0.37699094 2.7867136
-1.6207517 0.42867485 2.7618442
-1.5786458 0.42925066 2.7847967
-1.625127 0.47426212 2.7638052
-1.5830764 0.47495848 2.7872026
-1.6211855 0.52761912 2.7645395
-1.5820076 0.51836997 2.7889266
-1.6244795 0.57827097 2.7651503
-1.583118 0.57407779 2.7898562
-1.6502202 0.62627465 2.7518578
-1.6238323 0.62494266 2.76489
-1.5836393 0.62984002 2.7889447
-1.6252588 0.67298716 2.76546
-1.5830866 0.67409605 2.7897553
-1.6226124 0.71997303 2.7684009
-1.5805973 0.72129434 2.7932854
-1.6513615 0.78291446 2.756139
-1.6225976 0.77318865 2.7690325
-1.5860564 0.77279294 2.7904866
-1.6543916 0.82959813 2.7509401
-1.6243938 0.8327179 2.7711463
-1.5889229 0.82455558 2.7928045
-1.62473 0.87916428 2.7710092
-1.5851095 0.88026708 2.7931051
-1.6527375 0.92759657 2.7578976
-1.6233938 0.9281773 2.773633
-1.5874885 0.92940062 2.7942705
-1.6579825 0.97630048 2.7542801
-1.6243104 0.97909856 2.7745864
-1.5895311 0.9748832 2.795218
-1.6597637 1.0299854 2.7562733
-1.6243967 1.0262578 2.7770584
-1.5918326 1.0285205 2.7938318
-1.6629245 1.0738454 2.7560296
-1.6247451 1.0796435 2.7763562
-1.5935117 1.079167 2.7944891
-1.6591957 1.1319934 2.759562
-1.6220535 1.1273121 2.778316
-1.5897175 1.1222643 2.7986016
-1.6635889 1.1795017 2.7556551
-1.6290183 1.1791826 2.7775772
-1.5976397 1.1822935 2.7949314
-1.6694211 1.2270578 2.7563303
-1.6233507 1.2206752 2.7833643
-1.671787 1.2691996 2.7580345
-1.6270667 1.2709486 2.784333
-1.6662289 1.3242381 2.7646182
-1.626804 1.3291837 2.789896
-1.677637 1.3745213 2.7615659
-1.6335882 1.3748434 2.7892785
-1.7032467 1.4367443 2.752502
-1.6735119 1.4199183 2.7719135
-1.6322949 1.4232919 2.7910819
-1.7070316 1.4559376 2.751678
-1.673787 1.4774147 2.7705252
-1.6368264 1.4730811 2.7937913
-1.7089399 1.5204473 2.7534673
-1.6729215 1.5245734 2.7738731
-1.6428866 1.5266068 2.7934504
-1.7136315 1.574622 2.7632129
-1.6692749 1.5766754 2.7840145
-1.636726 1.576578 2.7998905
-1.7136579 1.6207501 2.7569406
-1.6790715 1.6268097 2.7808142
-1.7216763 1.6691381 2.7635801
-1.6836543 1.6721648 2.7898827
-1.7185274 1.725981 2.7710857
-1.6839123 1.7248892 2.7929828
-1.7270123 1.7737275 2.7636528
-1.6878192 1.776268 2.7894351
-1.7609818 1.8334275 2.7585907
-1.7270418 1.822805 2.7727847
-1.6874326 1.8182091 2.7886114
-1.7599676 1.8750285 2.7552464
-1.7300111 1.870285 2.7730379
-1.6988664 1.8558041 2.7933075
-1.7629106 1.9296541 2.7524667
-1.7245069 1.9263117 2.778821
-1.6982371 1.9248203 2.7995219
-1.767733 1.9785802 2.7569885
-1.7248381 1.9784433 2.7801943
-1.7608775 2.0246418 2.7609754
-1.7215542 2.026654 2.7819324
-1.6977549 2.0125799 2.7943032
-1.7723174 2.0724895 2.756413
-1.7305269 2.0743115 2.782757
-1.6895378 2.0579169 2.7964685
-1.7666261 2.1211653 2.7612674
-1.7288908 2.1270511 2.7782984
-1.7718056 2.1630611 2.7536781
-1.7237487 2.1709142 2.7797136
-1.6952364 2.1563458 2.798146
-1.7573018 2.2226169 2.7646859
-1.7237183 2.2170966 2.7851422
-1.7615672 2.2651303 2.7628441
-1.7206038 2.2687457 2.7843521
-1.7608248 2.3015573 2.7527206
-1.7250338 2.3199847 2.7655172
-1.6815777 2.3307979 2.7871306
-1.7159507 2.3669572 2.7563257
-1.678556 2.3736889 2.7662566
-1.6291901 2.3832281 2.7795289
-1.5747049 2.3913171 2.7696319
-1.531086 2.3977556 2.7767649
-1.4850892 2.3951113 2.794795
-1.5102246 2.4017007 2.7729053
-1.4745923 2.4073789 2.76862
-1.4279971 2.4120042 2.7773185
-1.3767569 2.4129398 2.7688854
-1.3300947 2.411886 2.7817416
-1.2701497 2.4104609 2.7948403
1.2810457 2.4145691 2.796433
1.3214295 2.4244864 2.7935708
1.3826596 2.4274244 2.7811179
1.433792 2.4276407 2.7682724
1.4778447 2.4215698 2.7682824
1.5327673 2.433511 2.7756145
1.576529 2.4333 2.7769423
1.6261339 2.4338233 2.7828724
1.6668867 2.4199369 2.7680931
1.7250628 2.4237359 2.7666268
1.7739593 2.4320803 2.7733784
1.8266602 2.4333549 2.7816789
1.8810202 2.4417896 2.780674
1.9223499 2.4288731 2.7791586
1.9762758 2.435379 2.7746046
2.0256476 2.4456191 2.7877705
2.0678275 2.4410679 2.7685518
2.1087854 2.447 2.7828424
-0.93190426 -0.52427876 2.8403425
-0.73389107 -0.50076562 2.82599
0.18762428 -0.50465071 2.8264651
0.22844817 -0.50439322 2.8230314
0.27615154 -0.50435001 2.8200092
0.32435158 -0.50510889 2.8209047
0.37948182 -0.50583547 2.8204832
0.42994079 -0.50891846 2.8331509
0.47677511 -0.50745088 2.819881
0.52091354 -0.51048303 2.812145
0.17438065 -0.4920097 2.8343334
0.23734854 -0.49514326 2.8494873
0.27145505 -0.49461406 2.8444281
0.33386442 -0.49547556 2.8450575
0.47387028 -0.49793217 2.8462715
0.53492785 -0.49681148 2.8325686
0.55790824 -0.49884751 2.8415318
-1.2656555 -0.42049012 2.8362825
-1.4238071 -0.3528955 2.8369684
-1.3734416 -0.36211562 2.8035569
0.043801628 -0.3566148 2.8066368
0.081924312 -0.37007445 2.8329098
0.11270529 -0.36860618 2.8454483
-1.4235466 -0.32012188 2.8047113
0.037054438 -0.32727051 2.8072672
0.071383744 -0.32580313 2.8335216
-1.4400361 -0.27552718 2.8270619
0.039240148 -0.27981579 2.8066628
0.076685384 -0.27916816 2.8315778
0.11260284 -0.28642645 2.848938
-1.454754 -0.2164717 2.8305449
-1.4348888 -0.24798232 2.8151922
0.037024744 -0.22167115 2.8108838
0.073365271 -0.22213443 2.8363357
-1.4275595 -0.17437188 2.8104086
0.034137156 -0.1726767 2.8120735
0.071221866 -0.17608973 2.8359537
-1.4575384 -0.10198944 2.8150322
-1.439186 -0.11950437 2.8353665
0.03149033 -0.12561308 2.8108172
0.073292874 -0.12707855 2.8370824
-1.4567388 -0.073171794 2.8344388
0.030260252 -0.06946481 2.8104837
0.071183898 -0.07444749 2.8374393
-1.459193 -0.036464095 2.8362701
-1.4202121 -0.021646762 2.8280494
0.030310819 -0.026825441 2.8148413
0.071224026 -0.027070832 2.8399992
-1.5045993 0.036932565 2.8053381
-1.4721651 0.02551174 2.8323112
0.030254707 0.020150622 2.8109233
0.069966264 0.01850708 2.8387773
-1.5217304 0.075594343 2.8076465
-1.4794517 0.072399609 2.8307137
0.030300006 0.073877059 2.8134353
0.0685113 0.077287003 2.8391156
-1.5223788 0.12658232 2.8115873
-1.4834446 0.12625529 2.8332331
0.026448041 0.11500374 2.8099363
0.06445086 0.1152433 2.8389745
-1.5198817 0.17698164 2.8132098
-1.4756696 0.17761856 2.8428631
-1.5193883 0.22003165 2.8145742
-1.481676 0.22201312 2.8393881
-0.62303203 0.23161674 2.8035247
-0.53843236 0.23331925 2.8364353
-0.45834088 0.21738003 2.8172889
-1.5225359 0.27195358 2.8158495
-1.4770516 0.27200568 2.8412035
-1.5266961 0.32565713 2.8160388
-1.4857907 0.3263872 2.8399153
-1.5302813 0.37275431 2.8145227
-1.4878424 0.3713702 2.8398182
-1.5515404 0.42992225 2.8015778
-1.524785 0.42330989 2.819644
-1.4875031 0.42311585 2.8395543
-1.5554333 0.47556338 2.8032391
-1.5217499 0.47661984 2.8246038
-1.4832093 0.48109329 2.8446598
-1.5591459 0.5213595 2.803998
-1.5249747 0.52238888 2.8247213
-1.4844818 0.52033746 2.8472996
-1.5604111 0.57950991 2.804522
-1.5267036 0.57431346 2.8239372
-1.4899689 0.57211953 2.8437035
-1.5583078 0.62583053 2.8067617
-1.5241818 0.62955242 2.8242135
-1.4894782 0.62819469 2.844589
-1.5548377 0.67481261 2.8054416
-1.5233865 0.67793548 2.8270237
-1.4892932 0.67358685 2.8454447
-1.5597301 0.72204757 2.8058007
-1.5249025 0.7233445 2.8263128
-1.4895231 0.72442216 2.8455856
-1.5591286 0.77285296 2.8083763
-1.5246589 0.76919168 2.8274057
-1.4934548 0.77172214 2.8441858
-1.5626867 0.82533199 2.807328
-1.5286419 0.82198858 2.827601
-1.4949338 0.82378298 2.84535
-1.5675292 0.88189089 2.807086
-1.5261508 0.87656534 2.8277905
-1.4902631 0.86343682 2.8454516
-1.5594732 0.93084574 2.8117704
-1.5240002 0.92480958 2.8344212
-1.4939408 0.91745824 2.8495491
-1.5652314 0.98022151 2.8101528
-1.5256714 0.97672349 2.8338335
-1.5662359 1.0325254 2.811511
-1.5261751 1.0273818 2.8368165
-1.5676515 1.0784346 2.8102765
-1.5243423 1.0747155 2.8370368
-1.570448 1.1302561 2.8141873
-1.5301102 1.1177834 2.8368466
-1.5720056 1.1684889 2.8166058
-1.5263577 1.1721305 2.8405616
-1.5747342 1.2197546 2.8128328
-1.5331603 1.2243738 2.8377717
-1.6029525 1.2924411 2.8057847
-1.5739964 1.2727078 2.8178098
-1.531835 1.2764791 2.8420517
-1.607098 1.3194914 2.8042159
-1.5784209 1.3298368 2.8206372
-1.5391771 1.3300942 2.8385019
-1.6085539 1.3748894 2.8058937
-1.5741808 1.3744566 2.8236611
-1.5367857 1.3666525 2.8402305
-1.6117338 1.4169585 2.8058114
-1.5764016 1.4259397 2.8280609
-1.542051 1.4240928 2.8433256
-1.6162879 1.4803257 2.8095982
-1.5765419 1.4710076 2.8314521
-1.5425705 1.4828281 2.8489878
-1.6153022 1.5258039 2.812232
-1.5759113 1.5213883 2.834986
-1.5461222 1.502399 2.8487401
-1.6184486 1.5680186 2.815768
-1.583391 1.5719364 2.8365157
-1.6512843 1.6398033 2.8013937
-1.6268033 1.6208128 2.8152294
-1.5910658 1.6188927 2.8366048
-1.6600294 1.6732277 2.8040285
-1.6255841 1.6716784 2.8174255
-1.5977046 1.6769457 2.841939
-1.6602787 1.7261659 2.8075507
-1.6252533 1.7248707 2.8262296
-1.5892761 1.7187324 2.8477478
-1.6612515 1.7833134 2.8101406
-1.6243609 1.7797527 2.8281219
-1.5971105 1.7605846 2.8448334
-1.6609069 1.8168865 2.8066397
-1.6236167 1.8217245 2.827527
-1.5944474 1.8351229 2.8468251
-1.6668659 1.8725064 2.8118625
-1.6219921 1.8751774 2.8342378
-1.5993762 1.8576884 2.8464136
-1.6786305 1.9184711 2.8059258
-1.6283991 1.9159267 2.8346944
-1.6735544 1.9745865 2.8158031
-1.6302261 1.9761585 2.8396842
-1.671654 2.028805 2.8120499
-1.6315647 2.0269189 2.837235
-1.7014896 2.0898986 2.8050516
-1.6716129 2.0765033 2.8178191
-1.6321663 2.0753579 2.8398759
-1.7055631 2.1123681 2.8003776
-1.6725346 2.1234472 2.8159325
-1.6304188 2.1254482 2.8407779
-1.6711047 2.1765275 2.8199942
-1.6387792 2.1724987 2.8407705
-1.6769766 2.2224293 2.8147447
-1.6336473 2.2236526 2.838963
-1.6740383 2.274899 2.8150263
-1.6308864 2.2707391 2.8386779
-1.6652675 2.3150537 2.8122165
-1.6274191 2.3237605 2.8295686
-1.6181772 2.3590524 2.8161066
-1.5743294 2.3754342 2.8290057
-1.5260301 2.3909357 2.8287396
-1.4712794 2.3953409 2.8309133
-1.4399782 2.3907454 2.8480616
-1.3992641 2.3999145 2.8402157
-1.4741757 2.4062281 2.8160095
-1.4239101 2.4054184 2.8180168
-1.3735795 2.4038467 2.8183582
-1.3298339 2.4110096 2.8214386
-1.2761436 2.4087214 2.8179901
-1.2181098 2.4111645 2.8159325
-1.1706479 2.4212379 2.8469284
1.1188346 2.404114 2.8422141
1.1792674 2.4209046 2.8436117
1.2231045 2.4209952 2.8276587
1.2675984 2.4184375 2.829375
1.3224479 2.4253705 2.8195088
1.3712078 2.425808 2.8276906
1.4269824 2.4355545 2.827616
1.4754987 2.4278493 2.8234229
1.5322703 2.4277525 2.8204386
1.5825955 2.4294691 2.8287685
1.6363016 2.4337509 2.8322089
1.6689399 2.4310539 2.8251619
1.7202188 2.4418316 2.8284559
1.7741648 2.4346104 2.83041
1.8433716 2.4345417 2.8347561
1.8833203 2.4335511 2.8210106
1.9282794 2.4294081 2.8209126
1.9762889 2.4353509 2.8468828
2.0263698 2.438961 2.8219659
2.0689995 2.436904 2.8379555
2.1321137 2.4411528 2.8202648
2.151696 2.4361725 2.83043
-1.2015424 -0.52890402 2.8864233
-1.166702 -0.53771037 2.8595433
-0.93567717 -0.51217163 2.85361
0.40647879 -0.50012648 2.8658671
0.51195931 -0.50134373 2.8617945
0.58040023 -0.50637716 2.8825669
0.63165474 -0.50799751 2.8848908
0.65252596 -0.50775349 2.8803723
-1.2755075 -0.46715215 2.8855078
0.14172682 -0.46291083 2.8709917
0.17497343 -0.47256491 2.8780272
0.22155212 -0.48544148 2.876302
0.27443424 -0.49074373 2.8766601
0.31391075 -0.49091366 2.8750026
0.37992731 -0.49475208 2.8785107
0.42785931 -0.4938238 2.8685436
0.4751243 -0.49377376 2.8717434
0.53992039 -0.49389452 2.8988955
0.55380255 -0.49368623 2.8959119
-1.2842182 -0.42166859 2.8975451
0.13264126 -0.42102918 2.8775311
0.16136962 -0.42932144 2.8957517
-1.4059806 -0.35585687 2.871315
-1.368634 -0.35581508 2.8836358
-1.3177338 -0.36681214 2.8646214
0.12790936 -0.37600911 2.8784077
0.15661895 -0.38960046 2.8976388
-1.4176291 -0.32545042 2.8621256
-1.3818878 -0.32880244 2.8834915
0.09914431 -0.32795575 2.851675
0.12791659 -0.32462928 2.8824275
-1.4161149 -0.27333248 2.8628979
-1.3804651 -0.27746019 2.8891418
0.099101663 -0.25951263 2.8549905
0.12965257 -0.2745899 2.8861394
-1.4245328 -0.22173297 2.865509
-1.3854343 -0.2225973 2.8920767
0.099057756 -0.23208608 2.8552201
0.12490518 -0.22749262 2.8831761
-1.4206855 -0.17888232 2.8703899
-1.3897911 -0.18182044 2.8941455
0.098819464 -0.17704868 2.8508501
0.12604941 -0.17449746 2.8836844
-1.416679 -0.12549867 2.8712943
-1.3899288 -0.12157252 2.8948066
0.09890487 -0.13628714 2.8547447
0.11930515 -0.12747873 2.8758698
-1.4230322 -0.073651567 2.8678367
-1.38379 -0.073942237 2.8939388
0.098972306 -0.074993938 2.8581104
0.12059406 -0.075721771 2.8847373
-1.4161135 -0.033521168 2.8719265
-1.3839388 -0.029422445 2.894784
0.098867595 -0.027227128 2.8556213
0.11907168 -0.027455458 2.8817105
-1.4246953 0.022472683 2.8716848
-1.3862472 0.017575877 2.893615
0.096239865 0.024588693 2.8583367
0.12070552 0.020705555 2.8879759
-1.4584303 0.081526384 2.8511124
-1.4244508 0.074280791 2.8705482
-1.3855811 0.071513191 2.8940043
0.094409764 0.070510916 2.8575056
0.1182371 0.071149237 2.8834164
-1.4586917 0.12586084 2.8503978
-1.4248083 0.12611474 2.8699028
-1.3917906 0.12646042 2.8911443
0.092280708 0.12300134 2.8607712
0.12079035 0.1173005 2.888351
-1.4611484 0.17786115 2.8532016
-1.4271933 0.17823422 2.8727238
-1.3874161 0.1756551 2.8945949
-1.4615036 0.22231083 2.8515921
-1.4281486 0.22286884 2.8723872
-1.3954271 0.22355521 2.8944633
-1.4559685 0.29224935 2.8592012
-1.4250332 0.27477947 2.8757777
-1.3967565 0.26846096 2.8944721
-1.4584098 0.32688791 2.855468
-1.4251156 0.32775292 2.8766344
-1.3971677 0.32816419 2.8908768
-0.91328639 0.31533551 2.8980913
-1.4619073 0.37231812 2.8583241
-1.4247487 0.37458339 2.8788743
-1.3995861 0.36605811 2.8926518
-1.4629289 0.42607817 2.8573372
-1.4230163 0.42611712 2.8808801
-1.4655094 0.47515529 2.8578236
-1.425579 0.47926641 2.8800876
-1.3909516 0.48021454 2.8990774
-1.4625803 0.53003609 2.8590589
-1.4267265 0.5239898 2.8817506
-1.3943141 0.54151148 2.8984301
-1.4642382 0.57218629 2.8608577
-1.4236978 0.57132477 2.8821805
-1.4643097 0.62334418 2.8606033
-1.4216857 0.62720954 2.8842227
-1.4652592 0.67840117 2.8593178
-1.4256839 0.67872453 2.8827193
-1.4684614 0.72519141 2.8573189
-1.4277858 0.72753447 2.8834994
-1.4667592 0.77359056 2.8627748
-1.4249843 0.77558708 2.8871853
-1.4690965 0.8195504 2.8627129
-1.4287053 0.82334882 2.8853395
-1.4676539 0.86959034 2.8627024
-1.4340262 0.87230951 2.8860815
-1.4682857 0.9212451 2.8661058
-1.4289299 0.92151284 2.8895235
-1.5009423 0.96782327 2.8513901
-1.4735521 0.96645558 2.8630908
-1.4305505 0.97084218 2.8891351
-1.5067726 1.0178418 2.8502035
-1.4745855 1.0205986 2.8665333
-1.4326673 1.0193886 2.8911536
-1.5003561 1.0860285 2.8561361
-1.4731891 1.0678221 2.8675261
-1.433216 1.0724853 2.8929241
-1.5048195 1.1203896 2.8553684
-1.4745719 1.1210387 2.8694229
-1.4399906 1.1243914 2.8931065
-1.5085106 1.1543223 2.8528168
-1.4760324 1.1748344 2.8707209
-1.4372488 1.1754019 2.8920684
-1.5054013 1.2197816 2.8549936
-1.4743314 1.2272018 2.8760774
-1.4411809 1.2330278 2.8930435
-1.5090536 1.2771856 2.8535254
-1.4793992 1.278541 2.8746541
-1.4408394 1.2637308 2.8926129
-1.5109274 1.3285074 2.8557875
-1.4713385 1.3210168 2.8842359
-1.4450169 1.3380984 2.8979044
-1.5220116 1.3777518 2.8591282
-1.4781498 1.3757683 2.8830135
-1.4461234 1.3550656 2.8943548
-1.5163314 1.4248382 2.8618436
-1.4791908 1.4276251 2.8858945
-1.5234852 1.4734033 2.8617487
-1.4780619 1.4706346 2.8863699
-1.4458911 1.4666448 2.8954926
-1.5518112 1.5241431 2.8522813
-1.5212786 1.5260584 2.8697593
-1.4917694 1.5290483 2.8890533
-1.5600914 1.5812682 2.8607056
-1.5234075 1.5772238 2.874922
-1.4894404 1.5760018 2.8937874
-1.5654405 1.6278496 2.8591511
-1.524471 1.6279559 2.8773766
-1.491715 1.6198193 2.8952727
-1.5702689 1.681035 2.858882
-1.5266975 1.6805736 2.8814468
-1.4949031 1.670652 2.8954403
-1.5641189 1.7184277 2.8586187
-1.5264916 1.7227755 2.8842595
-1.5709676 1.776841 2.8632007
-1.5299608 1.7781305 2.8893778
-1.57468 1.8255297 2.8623838
-1.5385115 1.8302037 2.8837075
-1.5725693 1.8744398 2.8701665
-1.5350875 1.8797725 2.8903782
-1.6017182 1.9486375 2.8504586
-1.5773795 1.9236573 2.8672905
-1.5364387 1.9075984 2.8870873
-1.6081669 1.9736511 2.8518913
-1.5733798 1.9704641 2.8790131
-1.5345507 1.9782341 2.8943386
-1.6027236 2.0314093 2.8552489
-1.5750015 2.0241838 2.8760271
-1.5476724 2.001276 2.8889482
-1.6153086 2.0909348 2.850667
-1.5780612 2.0790462 2.8683872
-1.5401406 2.0719266 2.8940368
-1.6067638 2.1288452 2.8582182
-1.5737557 2.1315486 2.8785515
-1.5382335 2.1308975 2.8939648
-1.6105508 2.1808748 2.8619256
-1.5714315 2.18466 2.8828664
-1.5398211 2.1806636 2.8950295
-1.6091712 2.2265024 2.855824
-1.5758432 2.2295249 2.876797
-1.5407424 2.2300949 2.8941369
-1.6035014 2.2880692 2.8554649
-1.5789858 2.2729201 2.8676653
-1.5406373 2.2786047 2.8907256
-1.5741028 2.3242199 2.8653467
-1.5302219 2.3256769 2.8882837
-1.5565395 2.3517156 2.8554556
-1.5206398 2.3684862 2.8689907
-1.4747558 2.3787286 2.8805468
-1.4206339 2.3921745 2.8716669
-1.3797297 2.3944781 2.8793244
0.93981349 2.391582 2.8808196
-1.3764715 2.4066596 2.8595424
-1.3251228 2.4078388 2.866986
-1.2729498 2.4109299 2.875411
-1.2254217 2.4165208 2.8760884
-1.1815701 2.4188905 2.8766429
-1.1319228 2.4200654 2.8711236
-1.0799198 2.4144742 2.8687449
-1.0215406 2.4211392 2.8959031
0.96291792 2.4060359 2.8933363
1.0334079 2.4078856 2.8749135
1.079331 2.4184852 2.8835163
1.1280849 2.413399 2.8732705
1.180045 2.4139357 2.8706617
1.2231793 2.4120238 2.8709257
1.2816859 2.4136841 2.8698089
1.3371648 2.4225762 2.8730209
1.3839388 2.4286134 2.8686857
1.4241978 2.4272859 2.8689659
1.4680626 2.4268847 2.8786774
1.521065 2.4189913 2.8688953
1.5712634 2.4241819 2.877188
1.6258246 2.4270003 2.8685615
1.6767704 2.4222806 2.873729
1.7347015 2.4345493 2.8731141
1.7798771 2.4272008 2.8802454
1.8244835 2.4371574 2.8715181
1.8701181 2.4293027 2.8771539
1.9228712 2.4274042 2.8656962
1.965709 2.4266696 2.8844352
2.0285244 2.4331214 2.875555
2.0797591 2.427758 2.8780689
2.1230745 2.4376216 2.8755805
2.1986735 2.4479613 2.8682959
2.2130437 2.4434037 2.8751125
2.1852107 2.4546165 2.8889384
-1.2559614 -0.50965524 2.9399211
-1.2094738 -0.52401704 2.9477091
-1.1735551 -0.53288591 2.9187303
-0.94318157 -0.53882223 2.922368
-0.42689335 -0.50802076 2.9097333
0.59044784 -0.50083244 2.9341123
0.63555479 -0.50254226 2.9381609
-1.2664789 -0.47306439 2.9292443
-0.98052305 -0.4992978 2.9457436
-0.42997628 -0.49748349 2.9324064
0.1991483 -0.46098152 2.900701
0.23377745 -0.46310043 2.9124548
0.27417284 -0.46634537 2.9217207
0.32452762 -0.46905032 2.9363985
0.36599025 -0.48116142 2.9269693
0.41250023 -0.47989315 2.9371653
0.47871879 -0.48568243 2.9217529
0.52607334 -0.48826283 2.9190125
0.56866145 -0.4889296 2.9237461
0.62133008 -0.49882126 2.9177239
-1.3051012 -0.40133092 2.9086344
-1.2777699 -0.42621145 2.9266894
0.18806049 -0.42343062 2.9060299
0.22734275 -0.42695829 2.9223299
0.27087671 -0.42471397 2.9403162
-1.3167415 -0.37111944 2.9334624
0.18176121 -0.37377062 2.9103625
0.22879426 -0.37291765 2.9292614
0.26698676 -0.37645945 2.9408536
0.30166411 -0.38314986 2.9492333
-1.3644629 -0.325627 2.9078639
-1.3207895 -0.32903448 2.9311163
0.17661209 -0.32647029 2.9097915
0.22840898 -0.32311794 2.9281573
0.27227747 -0.32517365 2.9444494
-1.3580179 -0.27060291 2.9103172
-1.3212651 -0.27592629 2.9321759
-1.2998692 -0.28446865 2.9449172
-0.40643632 -0.26857889 2.9377565
0.17793545 -0.27195424 2.9122977
0.22822891 -0.2737312 2.9290113
0.26678085 -0.2719633 2.9461572
-1.360189 -0.22334468 2.911643
-1.3267273 -0.22400941 2.9322104
-0.40585384 -0.22582531 2.9358416
0.14228503 -0.2289027 2.9005957
0.17785692 -0.22304387 2.9137363
0.22806321 -0.22441499 2.9295716
0.26995176 -0.22395706 2.9445243
-1.3649535 -0.17665488 2.9102588
-1.3247577 -0.17889211 2.9299748
-1.2994246 -0.18701002 2.9493072
-0.40364277 -0.18952653 2.9214621
0.14221177 -0.17331125 2.9015636
0.1777494 -0.1741285 2.9139922
0.22793631 -0.1752255 2.9301834
0.26603049 -0.1813803 2.9422441
-1.3656073 -0.12842225 2.912127
-1.325303 -0.1267017 2.9330609
0.14216501 -0.12473341 2.9021854
0.17758535 -0.12525286 2.9128878
0.22807653 -0.12622514 2.9335392
0.26289648 -0.12960391 2.9447505
-1.3590873 -0.07414005 2.9108782
-1.3270837 -0.074365154 2.9306877
-1.2979078 -0.074580319 2.9492614
0.14214805 -0.076198705 2.902885
0.17772222 -0.076584205 2.9161615
0.22811963 -0.077135228 2.9351804
0.26674306 -0.078274265 2.9466143
-1.358138 -0.029515171 2.913059
-1.3249536 -0.029615752 2.9340358
-1.2979248 -0.037176177 2.9497795
0.1387374 -0.027698172 2.9045987
0.17774077 -0.02782402 2.9169037
0.22808112 -0.028022073 2.9353044
0.26075786 -0.028143093 2.9462702
-1.3623681 0.02555044 2.9110515
-1.3254994 0.022642963 2.9352303
-1.2976146 0.045106262 2.9489412
0.14213532 0.02083664 2.9031637
0.1778598 0.020949008 2.9188941
0.22791296 0.021076845 2.9331653
0.25696713 0.02117026 2.9434531
-1.3619106 0.076829143 2.9125636
-1.3252771 0.074906945 2.9341066
-1.2979833 0.060082253 2.9495802
0.13759176 0.080953158 2.9042151
0.17769107 0.076648705 2.915596
0.22829729 0.077290036 2.9373753
0.26442865 0.077587664 2.9470479
-1.3657759 0.12679292 2.9090178
-1.3279616 0.12526815 2.9353631
0.14272605 0.12534381 2.9134777
0.17561117 0.12095767 2.9190092
0.22849588 0.1195182 2.9389448
-1.3628718 0.18120857 2.9112451
-1.3267289 0.17685279 2.9379554
-1.3685408 0.22401285 2.910701
-1.3296643 0.224998 2.9383109
-1.3705374 0.27663717 2.9116929
-1.329901 0.26998663 2.9361167
-0.9256233 0.28829014 2.9148531
-1.3738669 0.3297174 2.9148686
-1.3296481 0.32468015 2.9374366
-0.92950356 0.3263483 2.9207828
-1.3741745 0.37473121 2.9115989
-1.3338135 0.37600484 2.9364862
-0.9296537 0.36474133 2.9465415
-1.3753008 0.42315432 2.9126222
-1.3342903 0.42184502 2.937885
-1.3679575 0.4763546 2.9155481
-1.3330762 0.47272268 2.9376483
-1.3725644 0.5262078 2.9150987
-1.3333725 0.52912563 2.9378927
-1.3771056 0.57381195 2.9132729
-1.333099 0.57790476 2.9390514
-1.4009242 0.60450757 2.9034901
-1.3719231 0.62016183 2.914134
-1.3312898 0.62235415 2.9396367
-1.4072248 0.69827932 2.9016211
-1.3728839 0.67569125 2.9183023
-1.3355739 0.66393667 2.9428449
-1.3705436 0.72788388 2.9167399
-1.3327247 0.72203094 2.943526
-1.3770761 0.77856964 2.9172239
-1.3346382 0.77675337 2.9435883
-1.4016414 0.83297426 2.9018147
-1.3759507 0.82489699 2.9172103
-1.339294 0.82928032 2.9410598
-1.4063329 0.87409419 2.9031734
-1.373968 0.87796444 2.9238486
-1.3399222 0.87441933 2.9432018
-1.4087315 0.90629411 2.9011574
-1.3753572 0.92503089 2.9217625
-1.3404474 0.92750049 2.9428298
-1.4058374 0.97795779 2.9039032
-1.3758028 0.97332984 2.9233999
-1.3457121 0.97770524 2.9432728
-1.405831 1.0228776 2.9057522
-1.373027 1.027143 2.926532
-1.3434632 1.0284889 2.9462347
-1.4114637 1.0736523 2.9047339
-1.3761411 1.0764313 2.9262259
-1.3391683 1.0702064 2.9462414
-1.4101681 1.1254942 2.9075963
-1.3740281 1.1278968 2.9278669
-1.3442876 1.1134959 2.9466779
-1.4137957 1.1735768 2.9057114
-1.3726895 1.1796606 2.9327447
-1.4139749 1.2291212 2.9108779
-1.3739125 1.2225206 2.9359772
-1.4183942 1.2771719 2.908587
-1.3774325 1.2707922 2.9352174
-1.4239501 1.3223497 2.9119744
-1.3826803 1.3233858 2.9358568
-1.4524771 1.377032 2.9011831
-1.4210426 1.3776106 2.9146199
-1.3782508 1.3699859 2.9390264
-1.4581608 1.4145718 2.9004247
-1.4249041 1.4272538 2.9182432
-1.3884783 1.4156622 2.9386268
-1.4561634 1.4932975 2.9095268
-1.4250524 1.4735168 2.9240909
-1.3920355 1.4778891 2.9423647
-1.4707794 1.5244131 2.9091187
-1.4261681 1.5264059 2.9280698
-1.3995547 1.518497 2.9452927
-1.4658729 1.5713333 2.9136679
-1.422979 1.5753832 2.9333532
-1.4669663 1.6268339 2.9162621
-1.4296938 1.6261374 2.9381356
-1.4686698 1.6724237 2.9153376
-1.4324294 1.6781276 2.9364338
-1.4788224 1.725371 2.9097869
-1.4410511 1.7300239 2.9346061
-1.5040424 1.7687786 2.9029634
-1.4752783 1.7752018 2.9188173
-1.4379686 1.7796398 2.9447861
-1.5174789 1.8353395 2.9029224
-1.4715093 1.8213875 2.9219632
-1.4480242 1.8076354 2.9404354
-1.5112722 1.8687165 2.9074178
-1.4749393 1.873206 2.9261312
-1.4429032 1.8736295 2.9452069
-1.5238951 1.928202 2.9034503
-1.4747654 1.924505 2.9245243
-1.5145327 1.9668168 2.9098511
-1.4770569 1.9731874 2.930629
-1.4437022 1.9746485 2.9471345
-1.5191424 2.0221319 2.9081037
-1.4763775 2.018532 2.9303939
-1.4423151 2.0192943 2.9459562
-1.5192293 2.0754595 2.9094818
-1.4780468 2.0713401 2.9319263
-1.4406743 2.0552847 2.9488218
-1.5120771 2.128284 2.9134188
-1.4702898 2.1222973 2.9362838
-1.5207777 2.1799176 2.909194
-1.4761666 2.1671212 2.9372668
-1.4451141 2.1752887 2.9478235
-1.5152994 2.2291026 2.9162307
-1.4770982 2.224653 2.9339163
-1.5103054 2.2852278 2.9082699
-1.4780327 2.2749999 2.9332199
-1.5057664 2.3294659 2.905293
-1.468372 2.3239801 2.9283397
-1.4367191 2.3430943 2.9362879
-1.4612942 2.3680592 2.9102914
-1.4220997 2.3768125 2.9203422
-1.3777803 2.3877358 2.9247513
-1.321062 2.3960044 2.9341424
-1.2894475 2.391274 2.9490623
-1.2476244 2.3979433 2.9359505
-1.3583717 2.4040623 2.9019313
-1.3299389 2.4012728 2.9093251
-1.271112 2.4031677 2.9220238
-1.2262032 2.4043882 2.9244754
-1.1820797 2.4156265 2.9214585
-1.1269467 2.4198802 2.9188454
-1.0764358 2.4255259 2.9269819
-1.0216813 2.4246902 2.9365261
-0.97806787 2.4237142 2.9263644
-0.93039846 2.4350038 2.9401731
-0.87169015 2.4191027 2.9346669
0.77189523 2.4080868 2.9441099
0.82815337 2.419524 2.9460189
0.88092136 2.4202287 2.9339616
0.92773581 2.4144523 2.9259198
0.97754735 2.418354 2.9321024
1.0234429 2.4232831 2.9199038
1.0750453 2.4164762 2.9275622
1.1218392 2.4132357 2.9263709
1.1663769 2.413578 2.9118755
1.2219876 2.4181597 2.9360144
1.2718422 2.4104772 2.9221134
1.3243766 2.4243999 2.9293265
1.3778729 2.4392443 2.9317358
1.4273993 2.4331293 2.9252479
1.4784762 2.4213088 2.9156463
1.5343776 2.4195633 2.9283123
1.5793548 2.4215243 2.9240465
1.6188762 2.4272242 2.9207187
1.6723404 2.4224703 2.9219248
1.7305404 2.4268062 2.9274707
1.7572625 2.425158 2.9107769
1.8319796 2.4314938 2.9242175
1.8716464 2.4274414 2.9402175
1.9245814 2.4345338 2.9217329
1.97518 2.4309945 2.9320135
2.0218053 2.4315104 2.9283514
2.0825932 2.4482701 2.9434695
2.1217492 2.4356871 2.9289875
2.1820846 2.4425015 2.91839
2.2034936 2.4358275 2.9417706
2.2547276 2.4488904 2.9314649
2.2772462 2.4519186 2.9218256
2.3093266 2.4551167 2.9312842
-1.2074592 -0.51136255 2.9651334
-1.1765498 -0.51851237 2.9706209
-0.97853702 -0.50586903 2.9878619
-0.93955696 -0.50096381 2.965348
-0.46075305 -0.51218253 2.9589882
0.67090189 -0.50754941 2.9631658
-1.2610618 -0.45902818 2.9579201
-1.2234282 -0.46679956 2.9807184
-1.1837492 -0.49056309 2.9967506
-0.42608258 -0.47526053 2.9751027
0.34641844 -0.47125724 2.9567029
0.37854132 -0.46352744 2.960463
0.43036154 -0.46969131 2.9661222
0.47653225 -0.47092354 2.9778631
0.52276355 -0.47256142 2.985518
0.57678998 -0.48231673 2.9800932
0.61428326 -0.49418077 2.9799623
0.66035873 -0.49602407 2.9848711
0.7081393 -0.49883807 2.9951012
-1.2668395 -0.41828197 2.959739
-1.2325442 -0.42450309 2.9826107
-0.41980654 -0.44490087 2.9682422
0.28793699 -0.42641655 2.9511373
0.32615742 -0.42553526 2.9579396
0.3770707 -0.4235779 2.9755542
0.4225426 -0.42600414 2.9887078
0.45674354 -0.43847379 2.9958324
-1.2767341 -0.37640023 2.9629719
-1.2361708 -0.37783131 2.9875562
-0.41210085 -0.36553872 2.9721937
0.28387153 -0.37244278 2.9507155
0.32438153 -0.37564105 2.9612401
0.37704501 -0.37329763 2.9796927
0.42089236 -0.37740389 2.9942987
-1.2750813 -0.32325435 2.9634409
-1.2356194 -0.32476568 2.990515
-0.41663194 -0.33403283 2.9809237
0.32418734 -0.32759175 2.9630568
0.3762641 -0.32239977 2.9774468
0.42001507 -0.32200563 2.9886551
0.45160624 -0.31782067 2.9960454
-1.2743498 -0.27044624 2.9654136
-1.2361083 -0.27344152 2.990118
-0.40953404 -0.29199976 2.9588225
0.28332108 -0.28320754 2.9513454
0.3236815 -0.27731049 2.9617658
0.37559378 -0.27175206 2.9754403
0.41257757 -0.27351445 2.9916778
-1.3012027 -0.2247678 2.9515202
-1.2743444 -0.22532958 2.9680054
-1.2409066 -0.22610009 2.9891045
-0.42637399 -0.22449052 2.9794836
0.2866382 -0.24053025 2.9512901
0.32352516 -0.22741239 2.9630563
0.37748358 -0.22395329 2.9824295
0.41586801 -0.21772704 2.9947155
0.46586707 -0.21658736 2.9992476
-1.3003143 -0.16465443 2.9522576
-1.2725492 -0.17469293 2.9697526
-1.2402457 -0.17319784 2.9899232
-0.42653483 -0.18635134 2.9823444
0.2830106 -0.16618325 2.953793
0.32327357 -0.17751782 2.9629838
0.37438297 -0.17455749 2.9817896
0.4195424 -0.17457752 2.996799
-1.3008907 -0.14223409 2.9543626
-1.2784882 -0.1211308 2.9653721
-1.2398257 -0.12039026 2.9906867
0.28293061 -0.1237075 2.954308
0.32361144 -0.12792826 2.967597
0.37709239 -0.12354355 2.9831686
0.41598815 -0.12139393 2.9947233
-1.2722876 -0.074844919 2.9684203
-1.2394214 -0.075142719 2.9907045
-1.0856409 -0.081912726 2.9995608
0.28616959 -0.075306989 2.9520662
0.32376781 -0.078199416 2.97014
0.37466636 -0.074420705 2.9868517
0.41008341 -0.071875922 2.9969828
-1.2749782 -0.02829935 2.9673343
-1.2393868 -0.029925093 2.9911349
0.28069288 -0.028230986 2.9546919
0.32351673 -0.028384371 2.9684458
0.37618208 -0.028603189 2.9877863
0.40611634 -0.02869314 2.9950469
-1.2786748 0.021248404 2.96804
-1.2402191 0.02283268 2.9931338
0.2792592 0.021243524 2.9545896
0.32375357 0.021386113 2.9706302
0.37613642 0.021529557 2.987468
0.41027018 0.025240101 2.9987776
-1.2771908 0.076624103 2.9653494
-1.2397763 0.075578578 2.9914391
0.28645042 0.077834561 2.9548309
0.32376504 0.078296848 2.9699807
0.37566507 0.071601868 2.9832814
0.41115031 0.067183889 2.9959052
-1.3007144 0.12018535 2.9544384
-1.2734704 0.12044707 2.9699879
-1.2404643 0.12087623 2.9920292
0.1314607 0.14209323 2.9735062
0.18031007 0.14142586 2.9578128
0.20123994 0.14122102 2.9526284
0.27227053 0.12023891 2.9542284
0.32392842 0.12104012 2.9705939
0.37405485 0.11278477 2.984009
0.41024137 0.11160112 2.9972372
-1.3009331 0.17270604 2.953052
-1.2746159 0.17319115 2.9707842
-1.2408779 0.17371763 2.9911587
-1.3017812 0.22534163 2.9524643
-1.2756034 0.22600931 2.9705884
-1.2417004 0.22668345 2.9906523
-1.3035585 0.27073452 2.9537957
-1.277048 0.27148402 2.9712591
-1.2427382 0.27220118 2.9904795
-0.91829592 0.29284286 2.9656088
-1.3042669 0.31598246 2.9522092
-1.272151 0.32490864 2.9759572
-1.2382301 0.32589966 2.9962938
-0.9200539 0.32274619 2.969187
-1.3064671 0.3767755 2.9521515
-1.2734588 0.37814704 2.9745915
-1.2394427 0.37928215 2.994837
-0.92114723 0.35247877 2.9704494
-1.3090652 0.42279419 2.9536524
-1.2749447 0.42399549 2.9737108
-1.2410588 0.42533097 2.9944217
-1.3105692 0.47617987 2.9512787
-1.2766801 0.47004101 2.9728889
-1.2429966 0.47161016 2.9942667
-1.3092399 0.53400314 2.957026
-1.2762522 0.52209157 2.9744
-1.2423264 0.52128381 2.9951282
-1.3075969 0.57403362 2.955822
-1.2725056 0.58058828 2.9776628
-1.2483013 0.57289326 2.9947882
-1.3044034 0.62399763 2.9571941
-1.2709206 0.62623376 2.9796436
-1.236722 0.64353472 2.9983068
-1.3142682 0.67461717 2.956074
-1.2742186 0.67378998 2.9801915
-1.2384393 0.66744238 2.9988809
-1.3114232 0.71913153 2.9581039
-1.2769378 0.72124416 2.9788094
-1.243149 0.73926932 2.998688
-1.3082799 0.77534187 2.9609458
-1.272984 0.76951724 2.9816046
-1.3126727 0.83184379 2.9602852
-1.2790133 0.82163668 2.9820886
-1.2486676 0.81989485 2.9975441
-1.315763 0.88013107 2.9574871
-1.2743735 0.87357867 2.984076
-1.3195546 0.9291088 2.9556
-1.2774667 0.9245069 2.9823287
-1.3174379 0.97974968 2.9597638
-1.2756809 0.97307956 2.9885223
-1.3196685 1.0277014 2.9585612
-1.2794629 1.0229337 2.9859037
-1.3255972 1.0818114 2.9605582
-1.2785085 1.0717485 2.9858518
-1.3501087 1.1498182 2.9503813
-1.3200469 1.1256844 2.9633245
-1.2734119 1.1200944 2.9899321
-1.3196175 1.1729623 2.9630675
-1.2788388 1.1723986 2.9891572
-1.3256012 1.2237836 2.9653168
-1.284552 1.2253996 2.9882567
-1.3513696 1.2920785 2.9536085
-1.3249338 1.2743747 2.9674821
-1.2838367 1.2803321 2.9926441
-1.3561039 1.3286344 2.9530871
-1.3279145 1.3255779 2.9683011
-1.2892385 1.325889 2.9920681
-1.3634574 1.3841106 2.952121
-1.3229042 1.3714236 2.9761832
-1.2883139 1.3736687 2.9974544
-1.363493 1.4247766 2.9606884
-1.3258138 1.4277455 2.9810131
-1.2949438 1.4294701 2.9955087
-1.3652813 1.4740422 2.960916
-1.332137 1.4773123 2.9890819
-1.2988023 1.4662831 2.9924128
-1.3699918 1.5219241 2.9638376
-1.3292286 1.5260875 2.9877152
-1.3785766 1.5726242 2.9656048
-1.3409107 1.576707 2.9881144
-1.4020548 1.6301942 2.9531746
-1.3730824 1.6212511 2.9702561
-1.3371181 1.6326306 2.9925518
-1.4100614 1.6728115 2.9552002
-1.3801855 1.6769272 2.9749672
-1.348058 1.6784377 2.9898176
-1.4118661 1.7268254 2.9604037
-1.37001 1.7184471 2.9800828
-1.3391635 1.7218657 2.9981689
-1.4166988 1.7754923 2.9587803
-1.3791655 1.7721584 2.9801679
-1.3455731 1.7723342 2.9928558
-1.4202243 1.8237616 2.9619887
-1.3725942 1.8280567 2.9883869
-1.4210304 1.8727888 2.9605229
-1.3781667 1.8696443 2.983381
-1.3469692 1.8822418 2.9982052
-1.4209534 1.9289885 2.9633934
-1.3796867 1.9222389 2.9843667
-1.4203908 1.9781846 2.9628229
-1.3873892 1.9776518 2.9868069
-1.4158549 2.0218353 2.9650822
-1.3807828 2.0306721 2.9901485
-1.428135 2.0778942 2.9684901
-1.3900659 2.0794425 2.9902015
-1.4223057 2.1234081 2.9714472
-1.3916625 2.1304057 2.9952712
-1.4270332 2.1694655 2.9696686
-1.3937222 2.1811688 2.9914615
-1.4537569 2.2060971 2.9542108
-1.4221677 2.2212324 2.9715021
-1.3913958 2.2290184 2.9963064
-1.4311596 2.2711973 2.9671233
-1.387941 2.27384 2.9887674
-1.4205942 2.323005 2.9634571
-1.376581 2.3209457 2.9866033
-1.4057782 2.36064 2.9557381
-1.3680476 2.3662429 2.9708426
-1.3202568 2.3791637 2.9816432
-1.2737023 2.3913255 2.978066
-1.2182995 2.3927252 2.9769363
-1.1856468 2.399374 2.997632
1.0953823 2.397346 2.9868083
-1.2164202 2.4069688 2.9598956
-1.1749283 2.4100335 2.9634571
-1.1270117 2.4107902 2.9729443
-1.0708438 2.4129801 2.9665728
-1.0283778 2.4139116 2.9744892
-0.9688133 2.4230132 2.9765317
-0.92149675 2.420465 2.9804282
-0.87974823 2.4235702 2.9738436
-0.82533127 2.4283745 2.9756401
-0.76872414 2.4257615 2.9674988
-0.71832412 2.4335377 2.9881032
-0.68317884 2.43396 2.9955754
-0.61841738 2.4219656 2.9919527
0.49360523 2.4119244 2.9985051
0.5982095 2.4110415 2.9815207
0.62415409 2.4101303 2.9759083
0.66884565 2.413955 2.9726822
0.72645968 2.4124177 2.9731982
0.78074372 2.4250388 2.9850183
0.82630384 2.4222903 2.9851923
0.87612957 2.4212654 2.9807119
0.918733 2.4125347 2.9671988
0.97934324 2.4115093 2.967329
1.0288569 2.4149115 2.9759355
1.0711327 2.415381 2.9730029
1.1217599 2.4142725 2.9647765
1.1779871 2.4234931 2.9738936
1.2314196 2.4141955 2.9744716
1.2749563 2.4147718 2.9883146
1.3263922 2.4259489 2.9851193
1.3693737 2.4204905 2.9761271
1.4218146 2.4318974 2.9754996
1.4770107 2.4306271 2.9703102
1.5184152 2.4241457 2.9730134
1.5764023 2.426836 2.9749329
1.6224676 2.4325874 2.9900582
1.6786082 2.4347486 2.9768875
1.7236218 2.4247267 2.9708166
1.791234 2.4400959 2.9601626
1.8272437 2.4313886 2.9710751
1.8765864 2.4271009 2.9820144
1.9279852 2.4317541 2.9608464
1.9838217 2.4342217 2.9789612
2.01703 2.4296188 2.9750619
2.0831246 2.4408133 2.9781437
2.1173606 2.4368052 2.9740062
2.1744757 2.436831 2.9747353
2.2287056 2.4438112 2.9896989
2.2696974 2.4452505 2.9652655
2.3093798 2.4463739 2.9918833
2.0709329 2.4574502 2.9665208
2.3576012 2.4549177 2.9750133
2.4172742 2.4546001 2.9855962
-1.1411296 -0.50024164 3.0110357
-0.96680051 -0.50752467 3.0009413
-0.48374036 -0.51694942 3.0434382
0.63703632 -0.50063497 3.0168447
0.69630164 -0.50088149 3.009666
0.72768921 -0.50219989 3.0129325
-1.1720771 -0.46826142 3.0080819
-1.1339471 -0.46790484 3.0176413
-1.0073041 -0.49784538 3.0279186
-0.4469119 -0.47959492 3.000752
0.49123251 -0.4510625 3.0028267
0.53315973 -0.45631826 3.0086646
0.5747484 -0.46489874 3.0262494
0.63198358 -0.49137813 3.0302384
0.67309964 -0.4917163 3.0265117
0.73607755 -0.49304608 3.0493
0.76454198 -0.49212429 3.0386932
-1.2095132 -0.41687518 3.0016065
-1.1737106 -0.42523301 3.0167525
-1.1299387 -0.42591992 3.0336428
-0.43421239 -0.40865332 3.0219624
0.47684512 -0.4220942 3.008039
0.52618861 -0.42370215 3.0241859
0.57203817 -0.42794096 3.0398118
-1.2081965 -0.37854528 3.0017993
-1.1732659 -0.37951934 3.0198271
-1.1297829 -0.37623858 3.040952
0.43914899 -0.36280903 3.0079141
0.47506568 -0.3746064 3.0136385
0.52781183 -0.37617949 3.0309646
0.57090133 -0.37941331 3.0437732
-1.207894 -0.32545459 3.0053172
-1.173053 -0.32630566 3.0235078
-1.1344205 -0.32851702 3.0405333
-0.43291607 -0.32011172 3.0197961
0.43787813 -0.34728691 3.0003242
0.47973481 -0.32697073 3.0106761
0.53084129 -0.32205158 3.0280163
0.56401157 -0.32427779 3.0456667
-1.2106646 -0.26841992 3.0056107
-1.1725398 -0.27303454 3.0258026
-1.1279006 -0.26948175 3.0402517
-0.43326378 -0.28397143 3.0245967
0.4337942 -0.27462423 3.0022886
0.47340834 -0.27699095 3.0098557
0.52799612 -0.27668262 3.0317276
0.56819797 -0.27233377 3.0444319
-1.2145965 -0.22682907 3.0072749
-1.1721895 -0.22742836 3.0274584
-1.12762 -0.23141576 3.0416729
0.43336892 -0.23464736 3.0015321
0.47441986 -0.2238607 3.0129554
0.52819091 -0.2283881 3.031502
0.56996876 -0.2205375 3.0431898
-1.2140895 -0.17378309 3.0084116
-1.1766554 -0.17596088 3.0263426
-1.1363863 -0.17436762 3.039886
-1.0975927 -0.16581579 3.0303009
0.43645215 -0.1586263 3.0007911
0.47544464 -0.17411119 3.015013
0.53061235 -0.17554861 3.0344889
0.57027799 -0.17650539 3.0467145
-1.2133616 -0.12076364 3.0083778
-1.1754606 -0.11955353 3.0271392
-1.1408449 -0.12430871 3.0412667
-1.0926682 -0.12002292 3.0181303
0.43652725 -0.124993 3.0022914
0.47570786 -0.12337892 3.0182495
0.52978367 -0.12414128 3.0313816
0.5654822 -0.12448376 3.0361321
-1.2131329 -0.075383216 3.0088034
-1.1759057 -0.077148676 3.0291893
-1.1316383 -0.07120917 3.035423
-1.0869255 -0.059596956 3.0034618
0.43103981 -0.072128497 3.005856
0.4759562 -0.072588243 3.0208607
0.52851659 -0.074891403 3.035882
0.56202662 -0.088078655 3.0452814
-1.2137676 -0.030048283 3.0109053
-1.1738809 -0.028767727 3.0315964
-1.1238087 -0.032163914 3.0274444
-1.0876656 -0.02971719 3.0057726
0.42919526 -0.02879584 3.0036726
0.475916 -0.028994771 3.0210717
0.52902973 -0.029225789 3.0393286
0.57658422 -0.021959953 3.0435042
-1.2135855 0.022897242 3.0104375
-1.1736281 0.021437978 3.0324974
-1.1243293 0.025376949 3.0310106
-1.0930976 0.022749132 3.0207739
0.42756784 0.019904865 3.0050459
0.47484034 0.020419745 3.0236137
0.52496552 0.026653336 3.0363503
0.57111931 0.039195813 3.0409195
-1.2127773 0.075771429 3.0078049
-1.1728317 0.076110803 3.0341523
-1.1222841 0.075747848 3.032346
-1.0975153 0.075605541 3.0323741
0.4274044 0.074692041 3.0075903
0.47422445 0.074087501 3.022589
0.52816457 0.071859799 3.0402107
0.56650811 0.063696161 3.0427668
-1.2127908 0.12111372 3.0067787
-1.1727185 0.12164571 3.0328133
-1.1173316 0.12109578 3.0328696
-1.0927107 0.1278297 3.0178621
0.21924827 0.14377294 3.0053113
0.3307645 0.1454125 3.0329919
0.3731786 0.13780573 3.0213666
