ply
format ascii 1.0
comment PCL generated
element vertex 1529
property float x
property float y
property float z
element camera 0
property float view_px
property float view_py
property float view_pz
property float x_axisx
property float x_axisy
property float x_axisz
property float y_axisx
property float y_axisy
property float y_axisz
property float z_axisx
property float z_axisy
property float z_axisz
property float focal
property float scalex
property float scaley
property float centerx
property float centery
property int viewportx
property int viewporty
property float k1
property float k2
end_header
1.8233697 2.0244267 2.9339459
1.86597 2.0246623 2.9326422
1.9210503 2.0190656 2.9341409
1.9790258 2.0303729 2.9327729
2.0337021 2.0303082 2.9338627
2.0797594 2.0211165 2.9276206
2.1293077 2.033169 2.9299996
2.1764708 2.0239818 2.9309802
2.2203283 2.029772 2.9231606
2.2692261 2.0216274 2.916007
2.3276033 2.0216911 2.9131496
2.3725626 2.0269063 2.9095712
2.4259419 2.0207605 2.9121499
2.4808891 2.0248458 2.9093595
2.5256274 2.0279667 2.911859
2.5648649 2.0263143 2.9070976
2.6157043 2.0251114 2.9042299
2.6726503 2.0190067 2.9046271
2.7584109 2.0370448 2.9014831
1.2372985 2.0557723 2.9485843
1.332086 2.0905957 2.9459198
1.3606259 2.0669997 2.9478207
1.4294215 2.0515537 2.9472253
1.4830909 2.0745997 2.9443231
1.5250734 2.075382 2.9480009
1.5719454 2.0660334 2.9417603
1.624145 2.0817735 2.9420328
1.6731927 2.0717711 2.9404085
1.7228191 2.0695024 2.9376323
1.7738359 2.0757771 2.936306
1.826725 2.0698612 2.9345582
1.8840393 2.080718 2.9390001
1.9223167 2.0645435 2.9326279
1.9693829 2.0853367 2.9382453
2.0256429 2.0776253 2.9373956
2.0808327 2.0682054 2.9334459
2.12451 2.0838659 2.9297802
2.1655211 2.068778 2.9224834
2.2295127 2.0753932 2.9283307
2.2801533 2.0688612 2.9149144
2.3263252 2.0804553 2.9124076
2.3606036 2.0712142 2.9083307
2.4210165 2.0712094 2.9196467
2.47648 2.0850413 2.9196274
2.5218775 2.0710826 2.9103382
2.5814517 2.0688419 2.9079332
2.6109324 2.0767484 2.9038258
2.6700268 2.0823679 2.9006071
2.7345638 2.0540619 2.9014075
-1.2275915 2.1138682 2.9133873
1.2373254 2.1133118 2.9469175
1.3339075 2.1316051 2.9475479
1.3818455 2.110671 2.9468765
1.4263966 2.133893 2.9475644
1.4734442 2.1209111 2.946377
1.5221753 2.1128361 2.9455674
1.5716695 2.1182141 2.9464293
1.6228248 2.1310351 2.9449313
1.6770664 2.1216309 2.9448776
1.7222739 2.1332529 2.9431286
1.7728895 2.1238353 2.9410729
1.8261662 2.1245103 2.9408309
1.8726376 2.1247795 2.9371033
1.9366243 2.126435 2.9425802
1.9734099 2.1248834 2.9322472
2.0312929 2.1301904 2.9414454
2.0747528 2.1197929 2.9282343
2.1280458 2.1247187 2.9275544
2.1805642 2.120729 2.9273045
2.2335296 2.1259212 2.9284875
2.2833257 2.1275098 2.9240491
2.3225369 2.1373224 2.9176908
2.3789778 2.1252034 2.9214587
2.4273281 2.1261497 2.9104168
2.4870236 2.1264699 2.9115791
2.5259778 2.1309118 2.9112384
2.578527 2.121784 2.9173093
2.6266687 2.1282663 2.9048913
2.6838696 2.1410046 2.9095559
2.7283669 2.1230977 2.9117825
2.7811351 2.1118133 2.9135454
2.828073 2.1345541 2.9000161
1.298694 2.1872189 2.9465132
1.312875 2.1642654 2.9434597
1.3802291 2.1671076 2.947911
1.4101022 2.1621826 2.9411325
1.4804679 2.1677902 2.9475515
1.5684795 2.1816735 2.9454107
1.6206818 2.1829071 2.9440107
1.6656719 2.1659427 2.9426744
1.7462977 2.1692472 2.9440088
1.7804022 2.1776733 2.941134
1.8334041 2.1683378 2.9406955
1.8779837 2.173033 2.9360301
1.922592 2.1743243 2.9322603
1.9805584 2.1816025 2.9354486
2.030201 2.1762004 2.9350095
2.0740395 2.1737206 2.9273944
2.1268272 2.180109 2.9310849
2.1699445 2.1666334 2.9264095
2.2207656 2.1793613 2.9269826
2.2718921 2.1729686 2.9222555
2.3204069 2.1730342 2.9150844
2.3738012 2.1769493 2.9210522
2.4274445 2.1716321 2.9071712
2.4641075 2.1779578 2.9030404
2.5206804 2.1825285 2.9173272
2.5724635 2.1733057 2.9143851
2.6280715 2.1855476 2.9185402
2.6760514 2.1721554 2.9090774
2.7085569 2.1728544 2.9047828
2.7743721 2.1728196 2.9125013
2.8233864 2.168437 2.9032824
3.0165951 2.1981587 2.9006469
-1.2306268 2.2186708 2.9246535
1.3024334 2.2110758 2.9439428
1.3736665 2.2182362 2.9470091
1.4136198 2.2166276 2.9481184
1.4724879 2.2074594 2.9487228
1.5428804 2.2012825 2.9484656
1.575346 2.2181964 2.9409544
1.6274266 2.213012 2.9426801
1.6785396 2.2270219 2.9442904
1.7282802 2.2264738 2.9441772
1.7707298 2.2248669 2.9412551
1.8218687 2.223146 2.9419849
1.8729973 2.2303221 2.9402089
1.9277487 2.2212255 2.9308603
1.9729743 2.2214549 2.9359379
2.0199199 2.2227831 2.9339004
2.079318 2.220557 2.9332807
2.1303773 2.2314539 2.9300146
2.1701541 2.2191429 2.9175127
2.2258387 2.2273512 2.9220152
2.2685616 2.2268384 2.9219742
2.3256299 2.216022 2.9213676
2.365067 2.2258904 2.91394
2.4245186 2.2254088 2.9239337
2.4779665 2.2284472 2.9187422
2.5215051 2.2219048 2.909261
2.5799701 2.2184799 2.9139538
2.6293855 2.2256312 2.9110141
2.6647167 2.2099957 2.9065576
2.7895989 2.225667 2.9027255
2.8050113 2.2297966 2.9000676
2.8644974 2.2032554 2.9119344
1.2730844 2.2562904 2.9475462
1.3237163 2.267622 2.9458072
1.5732386 2.265965 2.9477847
1.6387464 2.2526717 2.9473615
1.6745851 2.2734723 2.9430811
1.7374434 2.2658424 2.9415836
1.7697133 2.2719572 2.935158
1.8244289 2.2794602 2.9408054
1.8735949 2.2793374 2.9359221
1.9173132 2.2685044 2.9375761
1.9735678 2.2738426 2.9375651
2.0273297 2.2768168 2.9295669
2.0814295 2.2677712 2.9321604
2.127825 2.277081 2.9284503
2.1850383 2.2776802 2.9254532
2.228786 2.2736497 2.9222
2.279345 2.2761314 2.9182122
2.3304801 2.2688808 2.9203095
2.3811102 2.2605238 2.9205596
2.4270058 2.2761455 2.9195442
2.4716232 2.2772276 2.9163444
2.5234056 2.2813931 2.9142475
2.5719211 2.2691817 2.90765
2.6294487 2.2639325 2.9185922
2.6672771 2.2896976 2.9073527
2.7317994 2.2800181 2.9132063
2.8222125 2.2640686 2.9047501
2.8805428 2.2859294 2.9078898
2.9176922 2.2698953 2.9020863
-1.2351818 2.3385761 2.9311993
-0.71365368 2.3256261 2.9172125
-0.67887515 2.3235724 2.9213879
-0.6279164 2.3245573 2.9321277
-0.57321429 2.3106973 2.9232996
-0.52355975 2.3251672 2.9331446
1.0771861 2.3398314 2.9489145
1.1157919 2.3471558 2.9470932
1.1918448 2.3403163 2.9491799
1.2290406 2.3348079 2.9469514
1.2673426 2.3310938 2.946712
1.4317205 2.3364999 2.9444706
1.481524 2.3281004 2.9477093
1.5175539 2.3371904 2.9458675
1.5730331 2.3229136 2.9419522
1.6229112 2.3326588 2.9380207
1.6601206 2.3164825 2.9430106
1.7287278 2.3154049 2.9424
1.7733611 2.3255901 2.9360425
1.8214713 2.3203673 2.9382172
1.8697355 2.3261104 2.9332473
1.9235607 2.3257773 2.9292858
1.9778761 2.3333244 2.9244909
2.0239348 2.3239641 2.9270387
2.0742853 2.3285084 2.9279699
2.1164851 2.3237624 2.9249313
2.1675484 2.3180938 2.9223547
2.2193003 2.322437 2.9213386
2.2720077 2.3271987 2.9201434
2.3224564 2.3192677 2.9129658
2.3826501 2.3203371 2.9251096
2.4218311 2.3295307 2.9243546
2.4773028 2.3279321 2.925823
2.5213096 2.3380105 2.9140236
2.5739496 2.3294079 2.9121904
2.6322975 2.3253362 2.9155433
2.6792314 2.3300822 2.9086406
2.7229893 2.3112862 2.9110618
2.7563276 2.3325033 2.9020224
2.8107743 2.3127303 2.9039278
2.8768446 2.322536 2.9030247
2.9199409 2.3111479 2.9032822
-1.2106349 2.3779521 2.9210508
-1.177159 2.3908732 2.9322519
-1.1320289 2.3982828 2.9391489
-0.7373414 2.3724983 2.9225342
-0.51034498 2.3682501 2.9405322
0.41412076 2.3572764 2.939194
0.57242006 2.3763914 2.9414694
0.60767549 2.3797212 2.9398651
0.68004167 2.3830905 2.9478948
0.72432846 2.3862734 2.9431973
0.76890129 2.3813212 2.9444892
0.82642233 2.3799062 2.9434006
0.88315308 2.3923526 2.9407077
0.92790508 2.3691199 2.9457376
0.97311467 2.3805697 2.9417348
1.0218058 2.3842068 2.9398479
1.0779469 2.3739808 2.9451003
1.1251864 2.3781333 2.9382102
1.173466 2.3744876 2.9399219
1.226971 2.3747249 2.9408653
1.2710546 2.373245 2.9410915
1.3293171 2.3869109 2.9405463
1.3747443 2.3779147 2.9417665
1.425488 2.3814116 2.9391844
1.476061 2.3779256 2.9388931
1.5300555 2.3852813 2.9395328
1.5701568 2.3724136 2.9423778
1.6210108 2.379905 2.929863
1.6786608 2.3781705 2.9409633
1.7210957 2.3660405 2.9356282
1.7788559 2.3793201 2.9298623
1.8266392 2.3732574 2.929266
1.8730896 2.3767583 2.9227009
1.9225624 2.3714032 2.917006
1.9776639 2.3822398 2.9169149
2.0336978 2.3733602 2.9142451
2.0840843 2.3778591 2.9146791
2.136596 2.3762307 2.9169099
2.1790757 2.3691278 2.9106834
2.2317533 2.3744202 2.9103684
2.2829041 2.3676958 2.9136021
2.3311241 2.3673055 2.913698
2.3774452 2.3693368 2.9155056
2.4244184 2.381525 2.9102166
2.4716065 2.368628 2.9128537
2.5299833 2.3759985 2.9118991
2.5769217 2.3718975 2.9051888
2.6172247 2.3773835 2.9045312
2.7074294 2.3564308 2.9048731
-1.12921 2.4100649 2.9194069
-1.0744922 2.4153078 2.9259176
-1.0316246 2.4144781 2.9319675
-0.98325098 2.4191337 2.9188445
-0.92588788 2.4231887 2.9259059
-0.89211029 2.4268332 2.9396048
0.77062315 2.4041369 2.93925
0.82493448 2.410099 2.9345417
0.88011432 2.4178371 2.9310462
0.92498487 2.4119687 2.9292665
0.97090727 2.4171593 2.9234393
1.0293578 2.4209697 2.9191105
1.0730761 2.4213424 2.9237518
1.1214442 2.42116 2.9188879
1.1811324 2.4166017 2.9170647
1.2264404 2.4182186 2.915678
1.2763096 2.4192758 2.9175858
1.3235354 2.4148421 2.9122205
1.3806543 2.4190824 2.9211462
1.4277961 2.4215825 2.9181628
1.4754848 2.4274287 2.9126027
1.5220686 2.4236553 2.9196689
1.5743152 2.4138362 2.9146903
1.6295954 2.4258082 2.9090676
1.6783764 2.4148071 2.9139555
1.7268595 2.4228053 2.9143653
1.7724787 2.422761 2.9132221
1.8354913 2.4132924 2.9075119
1.8768555 2.4201238 2.9103019
1.9229835 2.4110727 2.9063833
1.9703846 2.4134285 2.9052491
2.0140941 2.411438 2.9063919
2.05583 2.4168079 2.9056437
2.1157761 2.4113646 2.9060183
2.1645639 2.4131808 2.9019833
2.3206108 2.4161398 2.9107819
2.3906085 2.427283 2.900018
2.4279916 2.4149203 2.902081
2.513289 2.4094863 2.9095891
2.551888 2.4073689 2.9040608
2.6961267 2.4055891 2.902734
-1.0723854 0.37367845 2.9583304
-1.0278294 0.38292256 2.9654677
-0.98093116 0.37965995 2.9724007
-0.94771159 0.38072512 2.9529443
-0.74025774 0.3793892 2.9821093
-0.59890658 0.38744873 2.9510109
-0.51991296 0.38739729 2.9605663
-0.48827052 0.39074549 2.9902632
-0.3386189 0.38509196 2.9601305
-0.27626944 0.3985486 2.9571199
2.3407283 0.35890585 2.9527001
2.3937414 0.37898821 2.9517729
-1.1089787 0.42307991 2.9541168
-1.065227 0.43861678 2.9508717
-1.0233382 0.42531568 2.9523082
-0.99513817 0.41146567 2.9507904
-1.0848086 0.47775155 2.9532361
-1.0126512 0.4568153 2.9511116
-0.98123866 0.47059357 2.950403
-0.12501064 0.47890806 2.9692068
-1.1153315 0.52993321 2.9593325
-1.0727581 0.51918715 2.9507892
-1.047907 0.53343266 2.9517698
-0.96484059 0.53291368 2.9552407
-0.9248082 0.5381307 2.9631832
-0.88012612 0.53751719 2.9601443
-0.83695447 0.5410974 2.9548373
-0.11029269 0.54115999 2.9509084
-1.1602036 0.58972746 2.953954
-1.1198938 0.57851428 2.956392
-1.0806967 0.57639015 2.9575887
-1.00297 0.57759643 2.9551225
-0.97256017 0.57709944 2.9595253
-0.92684162 0.57958764 2.9748745
-0.8790468 0.57331896 2.9692438
-0.82636911 0.57316363 2.9683294
-0.77343524 0.57203764 2.9718676
-0.72382218 0.57087606 2.9639385
-0.67921531 0.58593661 2.9641473
-1.1512144 0.62274927 2.9545355
-1.1201465 0.6296314 2.9586403
-1.0692881 0.62616253 2.9539399
-1.0213426 0.62720442 2.9612193
-0.97622365 0.62384361 2.9643314
-0.92621535 0.62513775 2.9750702
-0.87161177 0.6241256 2.972997
-0.82618928 0.62093973 2.9741399
-0.77734357 0.6191231 2.9808917
-0.72670472 0.62668419 2.978687
-0.67270678 0.62822604 2.9758482
-0.62213403 0.62595594 2.9648862
-0.5917173 0.62457019 2.9624169
-1.1531432 0.67639464 2.9513104
-1.1220857 0.67577583 2.9567595
-1.0693991 0.67212921 2.9529777
-1.0248015 0.6745038 2.96802
-0.97557896 0.67304343 2.979974
-0.92263108 0.66893333 2.9794564
-0.8715663 0.67522746 2.9762838
-0.822164 0.67433828 2.9722304
-0.77562362 0.67391968 2.9834015
-0.7212593 0.67798626 2.9813218
-0.67195982 0.6758157 2.9792628
-0.62492359 0.6726315 2.9716666
-0.5770784 0.67260903 2.964371
-0.52726704 0.67491847 2.9559627
-0.46958202 0.68650746 2.9523187
-1.1568556 0.7238006 2.9532139
-1.125031 0.72271222 2.9569821
-1.0781914 0.72218394 2.9581499
-1.0209663 0.72045153 2.9675882
-0.97112167 0.72014451 2.9836519
-0.92086446 0.72255224 2.9803085
-0.87756652 0.72793514 2.9833531
-0.82610476 0.72630733 2.9731948
-0.77494973 0.72696036 2.9853745
-0.72002959 0.72392738 2.9818163
-0.67195225 0.72441393 2.9785061
-0.62633628 0.72541356 2.9701385
-0.58279455 0.72229809 2.9630399
-0.52347165 0.72626352 2.9553852
-0.47756344 0.72778684 2.9544876
-1.1594739 0.77076608 2.9517348
-1.1285745 0.77029252 2.9581912
-1.0811536 0.77736068 2.9583776
-1.0223256 0.77424645 2.9602308
-0.97349751 0.77324551 2.9673026
-0.92706978 0.77666914 2.9815819
-0.87929571 0.77849722 2.9862833
-0.82909638 0.77355748 2.9760981
-0.77653724 0.77305216 2.983834
-0.72260189 0.77099562 2.9848773
-0.67516804 0.77500039 2.9775791
-0.62722588 0.77783048 2.9655068
-0.58681375 0.78068137 2.9583905
-0.51991504 0.75645971 2.9555733
-0.48305136 0.75565732 2.9566202
-1.1638856 0.81921768 2.954216
-1.1255201 0.8242597 2.9584887
-1.0778567 0.82766688 2.957051
-1.0265504 0.82723713 2.9539299
-0.97172564 0.82162392 2.9568803
-0.92045552 0.82009196 2.9564474
-0.8743341 0.8241657 2.9600668
-0.82699645 0.82051307 2.9653592
-0.77903932 0.82467681 2.9782515
-0.72285008 0.82039368 2.9835525
-0.67904943 0.82664031 2.9789231
-0.63044447 0.8260659 2.972579
-0.57671613 0.82151049 2.9579828
-0.52612001 0.84419924 2.9540524
-0.47712955 0.83430183 2.9517405
-0.35952505 0.84279096 2.9523811
-1.1599932 0.87509251 2.9548111
-1.1220574 0.87852049 2.9601235
-1.0709355 0.87480223 2.9554114
-1.0195756 0.873146 2.9548929
-0.97279179 0.8716628 2.9605989
-0.92321444 0.87489223 2.9547184
-0.87549937 0.87949604 2.9531174
-0.82830215 0.87870282 2.9528065
-0.77147132 0.86879462 2.9576614
-0.72472495 0.87025279 2.9691544
-0.677396 0.87381172 2.9691846
-0.62428981 0.8719992 2.9707422
-0.57385314 0.87063569 2.9668391
-0.53013945 0.86308616 2.9521165
-0.49304831 0.87679839 2.9503415
-0.3601003 0.87325615 2.9513471
-0.32695773 0.87979263 2.9536719
-0.27299359 0.88843483 2.9568596
-0.24325469 0.88622707 2.9512491
-1.161543 0.9316144 2.9541905
-1.1239674 0.92998004 2.9589126
-1.0731664 0.92558479 2.957015
-1.0232073 0.92157567 2.955652
-0.97376269 0.92209113 2.9581685
-0.92616683 0.93020082 2.9529104
-0.87837678 0.92537236 2.9535928
-0.8308776 0.92429435 2.9528494
-0.77234191 0.92669559 2.9520538
-0.73100102 0.91567689 2.9529297
-0.66034341 0.90038753 2.955333
-0.64046699 0.90502053 2.956342
-0.47982684 0.92329389 2.9513717
-0.42936215 0.9248333 2.9515245
-0.37602901 0.92514682 2.9507949
-0.31864125 0.92077428 2.9534528
-0.27517989 0.92294741 2.9579511
-0.22462155 0.9280284 2.953841
-0.17405315 0.9384011 2.9529395
-1.1671664 0.97448522 2.9595883
-1.1280739 0.97927284 2.9590483
-1.0773429 0.97488487 2.9580164
-1.0272681 0.9707278 2.9569962
-0.97814816 0.97468615 2.9552181
-0.92633331 0.98405677 2.9594977
-0.87763619 0.97682762 2.9583299
-0.82371086 0.97039759 2.953279
-0.77405268 0.96984619 2.9562621
-0.73307502 0.99011946 2.9518864
-0.66371912 0.99400699 2.9506576
-0.61629593 0.95977426 2.950155
-0.56620687 0.96319407 2.9512367
-0.51145005 0.97167665 2.9517038
-0.47696066 0.97627974 2.9535897
-0.42381594 0.97087508 2.9526324
-0.37788349 0.96887851 2.9568012
-0.32564604 0.97364217 2.9580832
-0.27343601 0.97347587 2.9626284
-0.22547117 0.97687113 2.96117
-0.18667756 0.98146027 2.9595797
-0.14250538 0.99443644 2.9530745
-1.165104 1.0265013 2.9566896
-1.1219039 1.0288856 2.961257
-1.0736245 1.0243006 2.9596584
-1.0265301 1.0205245 2.9597621
-0.97576588 1.0216608 2.9627306
-0.92203683 1.024768 2.971895
-0.87022853 1.0249898 2.9584997
-0.82317406 1.0184804 2.9543438
-0.77312583 1.0211643 2.955982
-0.73825002 1.0354954 2.9567335
-0.642398 1.0177397 2.9530697
-0.55841118 1.0209647 2.9507117
-0.53082007 1.024958 2.9524815
-0.47318 1.0190213 2.9551866
-0.42872941 1.0125247 2.9564083
-0.30520937 1.0005523 2.9628675
-0.27173519 1.0064958 2.9592297
-0.2243135 1.0104719 2.9658251
-0.17767447 1.0100992 2.9669273
-0.13522562 1.0092962 2.9506001
-1.1619874 1.0813193 2.9574001
-1.1223447 1.0802925 2.9654398
-1.0717628 1.075964 2.9659154
-1.0207738 1.0708143 2.9634087
-0.96979624 1.0722715 2.9620554
-0.9263829 1.0728446 2.9866643
-0.87280583 1.0751494 2.9852924
-0.82262927 1.0705817 2.9646487
-0.77593201 1.0749727 2.9558017
-0.72750223 1.0807006 2.9527974
-0.68329549 1.0718977 2.9514301
-0.61931771 1.0824329 2.951983
-0.57085699 1.0726777 2.9511373
-0.52508843 1.0727468 2.9523835
-0.47784114 1.0760515 2.9523578
-0.43248227 1.0781153 2.9578357
-1.167958 1.1288358 2.9563391
-1.1254779 1.1297396 2.9672756
-1.0760143 1.1265199 2.9651825
-1.0243045 1.1205812 2.9614086
-0.97503728 1.1270338 2.9599528
-0.92461985 1.1206702 2.9851618
-0.87370533 1.1158036 2.9981868
-0.82337171 1.1287886 2.9976389
-0.77578974 1.1216521 2.9789016
-0.71940088 1.1227236 2.9613638
-0.67280358 1.1298093 2.960156
-0.62466395 1.1205841 2.9538069
-0.57687485 1.121012 2.9561315
-0.52759606 1.1198866 2.9555626
-0.47026983 1.1270458 2.9562409
-0.42641038 1.1284941 2.9589236
-1.1686718 1.1698691 2.9562397
-1.1315904 1.1747684 2.966121
-1.0811951 1.1784725 2.9663122
-1.0291668 1.1721739 2.9624722
-0.9746359 1.1745981 2.9731286
-0.88985783 1.1560087 2.9972501
-0.72588289 1.1666151 2.9932745
-0.67579341 1.1744311 2.9777617
-0.62464666 1.179818 2.9678888
-0.57370681 1.1702465 2.9558294
-0.52321362 1.1665614 2.95714
-0.47482648 1.1743281 2.9572613
-0.42961133 1.1808439 2.9575551
-0.3840144 1.1834736 2.954634
-0.11454225 1.153565 2.9503105
-1.1635597 1.2214872 2.9597607
-1.1222405 1.2224438 2.9674644
-1.0696141 1.2294831 2.9674635
-1.0179003 1.2234359 2.9648113
-0.97048163 1.2222155 2.9732149
-0.94469374 1.2288953 2.9966896
-0.77213675 1.2388691 2.99875
-0.66389853 1.2286087 2.9970508
-0.62566572 1.2244824 2.9887524
-0.57010919 1.2239872 2.9771037
-0.52404064 1.2219102 2.9659355
-0.47949865 1.2224253 2.960717
-0.42274952 1.2281032 2.9550185
-0.3723512 1.2297184 2.9549251
-0.33975041 1.2250332 2.9513655
-0.26609492 1.2447529 2.9638267
-0.20508356 1.2385066 2.9522853
-0.1600135 1.2286513 2.9506304
-0.14499632 1.2201288 2.9507532
-1.1703733 1.271332 2.9637911
-1.1250902 1.2705675 2.9683199
-1.071847 1.27703 2.9672673
-1.0232122 1.276507 2.9658253
-0.97497451 1.2745008 2.9726927
-0.94798166 1.2799798 2.9928732
-0.66959876 1.2703663 2.9974058
-0.62333637 1.2719789 2.9968555
-0.58006603 1.2734727 2.9962027
-0.52566904 1.2750657 2.9886932
-0.47033551 1.2729964 2.9778247
-0.41906705 1.276436 2.9661751
-0.37253436 1.2798181 2.9584525
-0.33154631 1.2816081 2.9529159
-0.26440129 1.2767751 2.9597154
-0.21899031 1.2790859 2.9563069
-0.18700168 1.2759813 2.9520741
-1.1725289 1.3269798 2.9625556
-1.1311171 1.3246896 2.9688532
-1.0827038 1.3228728 2.9722795
-1.0279316 1.3277394 2.9728763
-0.977678 1.3290524 2.9761791
-0.94988179 1.3138294 2.988991
-0.6774193 1.3397145 2.99913
-0.62810415 1.3259815 2.9953547
-0.58221072 1.3421721 2.998904
-0.52173293 1.3200861 2.996228
-0.47115186 1.3257537 2.9952061
-0.41961598 1.3236492 2.9680448
-0.37400776 1.3302342 2.9560268
-0.32840133 1.329196 2.9574859
-0.27549145 1.3289822 2.9608333
-0.22234099 1.3269897 2.9595792
-0.18195467 1.3308696 2.9573898
-0.13347596 1.3260998 2.956552
-1.174445 1.3715402 2.9638176
-1.1211233 1.3791056 2.972518
-1.0715945 1.3759737 2.9733641
-1.0246205 1.3712087 2.9744115
-0.96832335 1.3723948 2.9843698
-0.71753311 1.380981 2.9988508
-0.67095327 1.365577 2.9986806
-0.62327594 1.3786479 2.9953761
-0.5721997 1.3718268 2.995415
-0.5198375 1.3712631 2.9931054
-0.47490108 1.3712778 2.9935825
-0.424016 1.3755654 2.9745045
-0.37625775 1.3762774 2.9614599
-0.32630089 1.3773452 2.9653058
-0.27420989 1.375425 2.9703162
-0.22137639 1.3754082 2.9625762
-0.17795783 1.3788561 2.961293
-0.12925062 1.3780221 2.9575419
-1.1729227 1.4203743 2.9631538
-1.1271367 1.4263276 2.9743385
-1.0731468 1.4267287 2.974412
-1.0242124 1.4240756 2.9760115
-0.97431916 1.4205458 2.9804888
-0.78040743 1.4279157 2.9983335
-0.71417546 1.4131799 2.9978099
-0.69416142 1.4330454 2.9985316
-0.61642343 1.4296875 2.9954016
-0.56865305 1.4339708 2.9954934
-0.52481896 1.4238555 2.9954185
-0.47521967 1.4222294 2.9931102
-0.42647544 1.4245524 2.9779341
-0.37868786 1.4234214 2.9675984
-0.32456684 1.4209771 2.9670155
-0.27134594 1.4222372 2.9735365
-0.22689168 1.4210614 2.9690809
-0.17671804 1.4274701 2.9630506
-0.12741885 1.4303706 2.9569879
-1.1696093 1.4796436 2.9773715
-1.121959 1.4766347 2.9785485
-1.0769953 1.4737747 2.9788005
-1.0245224 1.4743333 2.9783051
-0.97534084 1.4796044 2.9848769
-0.71904248 1.477831 2.9988744
-0.66885608 1.4554898 2.9988234
-0.61721581 1.4705544 2.992367
-0.57309729 1.4741267 2.9947693
-0.53169203 1.4824882 2.9986591
-0.47800276 1.4772018 2.9942787
-0.43074641 1.4719068 2.9779322
-0.37550274 1.4769088 2.9670725
-0.32438156 1.4740868 2.9690378
-0.27269596 1.4754814 2.9722862
-0.22608116 1.4719716 2.9680052
-0.18175071 1.4720032 2.9657154
-0.12625912 1.4778533 2.965966
-1.1738313 1.5253277 2.9725761
-1.1210746 1.5259377 2.980592
-1.0711125 1.5249555 2.9807158
-1.0218527 1.5244191 2.981132
-0.97068614 1.5264387 2.9897106
-0.62309957 1.5277468 2.9980562
-0.57634038 1.5217131 2.9974108
-0.53103542 1.5114704 2.9978442
-0.48044154 1.5160105 2.9983044
-0.42717177 1.52254 2.9854736
-0.37874299 1.5258727 2.9794133
-0.32137731 1.5261207 2.978801
-0.27433261 1.5229049 2.9758847
-0.22757268 1.5280148 2.9707093
-0.17788228 1.5269724 2.9675715
-0.12471443 1.521244 2.9651995
-1.1740934 1.5747321 2.9754295
-1.1280489 1.5730973 2.9856522
-1.0775958 1.5745425 2.9827721
-1.0245275 1.5754819 2.9790061
-0.97381759 1.571463 2.9836416
-0.94201374 1.5798916 2.9890881
-0.62735879 1.562935 2.99755
-0.59565401 1.5705054 2.9986348
-0.45244756 1.5899982 2.9998465
-0.41685182 1.5797997 2.9885576
-0.37024286 1.5749965 2.9793415
-0.32278886 1.5717821 2.9772334
-0.27562711 1.5689502 2.9752855
-0.22890228 1.5758063 2.9734809
-0.17204483 1.5784241 2.9667227
-0.1198127 1.577724 2.9641137
-1.2033346 1.6240968 2.9675584
-1.1769432 1.6259878 2.988312
-1.1211882 1.6232373 2.9905996
-1.0756267 1.6241393 2.9853599
-1.0250623 1.6269544 2.9752271
-0.98016655 1.618052 2.9884691
-0.46372724 1.6279438 2.9981186
-0.41995269 1.6252851 2.9801285
-0.37115818 1.6258402 2.9682209
-0.32386169 1.6238408 2.9685831
-0.27693093 1.6232448 2.9709854
-0.22979368 1.6209099 2.9696653
-0.17776315 1.6253392 2.9688013
-0.12033379 1.6232281 2.9613113
-0.08928103 1.6471299 2.9537766
-0.027106741 1.6451436 2.9510987
-1.2071613 1.6758896 2.9706442
-1.1749443 1.6732515 2.9887478
-1.1280899 1.6661103 2.9866302
-1.085542 1.6593875 2.9743536
-1.0126728 1.6645521 2.9719486
-0.98107576 1.6741688 2.9867876
-0.47346669 1.6875429 2.9997022
-0.42307425 1.6743011 2.9872026
-0.37377405 1.6766561 2.9729598
-0.32616198 1.6746312 2.9734867
-0.27871433 1.672976 2.9741099
-0.229404 1.6771805 2.9717224
-0.17418857 1.6765132 2.972126
-0.12118647 1.6740462 2.9665797
-0.07422439 1.6810827 2.9631112
-0.027257154 1.6771368 2.9567463
0.015656263 1.6819103 2.9567242
0.074216299 1.6815187 2.958184
0.12570362 1.680042 2.9565766
0.17602855 1.6898597 2.9583604
0.21462521 1.6778877 2.9524212
0.26151663 1.6785305 2.9507704
0.33286256 1.6918789 2.9519055
0.44389549 1.6972461 2.9504755
-1.2104747 1.724973 2.978545
-1.1837476 1.7224551 2.9899964
-0.96883923 1.7193489 2.9673374
-0.87385482 1.7293072 2.995856
-0.832075 1.7377825 2.9959042
-0.45833334 1.7063792 2.9999533
-0.41763738 1.7188281 2.9913833
-0.37618312 1.7270789 2.9751735
-0.32799307 1.7235835 2.9733429
-0.28037414 1.7224193 2.9749596
-0.22498465 1.7248251 2.9757781
-0.16943364 1.7266821 2.9715669
-0.12207185 1.7257748 2.9717329
-0.07474228 1.7245173 2.9707336
-0.02751022 1.7257322 2.9734516
0.019711856 1.7233891 2.9694417
0.074686065 1.7211732 2.9649575
0.1297553 1.7219146 2.9648526
0.17687465 1.7214942 2.9623213
0.2239356 1.7208372 2.9588072
0.27133706 1.7225643 2.9588356
0.31900689 1.7251034 2.9596732
0.37331349 1.7277696 2.957083
0.44703776 1.7409265 2.9575529
0.47086126 1.7412899 2.9553895
0.5262326 1.7333189 2.9517267
0.55942857 1.7460396 2.9519713
0.95695144 1.7286099 2.9502873
-1.2189008 1.7812114 2.9729404
-1.1830416 1.7771487 2.9769351
-0.9659183 1.7762567 2.9979832
-0.91252476 1.7683605 2.9965637
-0.88454056 1.7723609 2.9978392
-0.82274067 1.7648979 2.9955111
-0.41625628 1.7777005 2.989481
-0.37961736 1.7828274 2.9847212
-0.33033147 1.7756624 2.9770031
-0.27441251 1.7744793 2.979249
-0.21850044 1.7725745 2.9795272
-0.1687616 1.7779015 2.9781899
-0.1229582 1.777971 2.9757628
-0.075214922 1.7749854 2.9719472
-0.027687261 1.7749166 2.9724348
0.019829711 1.7734421 2.9700282
0.075321451 1.7753326 2.9725039
0.13076329 1.7751247 2.9707422
0.17819196 1.7739162 2.966857
0.22567898 1.7738297 2.9642761
0.27350843 1.7760348 2.964977
0.32111487 1.776248 2.9617493
0.37082747 1.7711507 2.9615083
0.42825055 1.7722043 2.9593165
0.48125923 1.7741808 2.9589527
0.52999026 1.7775317 2.9583464
0.57856733 1.7826191 2.9543583
0.6366173 1.7860433 2.9568913
0.66642666 1.7846569 2.9553413
0.7411651 1.7631543 2.9513655
0.77720731 1.788339 2.9527104
0.82317477 1.7773802 2.9524162
0.87847221 1.7816744 2.9550219
0.92987335 1.7871192 2.9524748
1.0782087 1.787951 2.9516308
1.115752 1.7956192 2.9546449
1.1767083 1.7841986 2.9532259
1.276835 1.7806686 2.952652
-1.223 1.8192097 2.9772835
-1.1871006 1.8463652 2.9867485
-0.83292389 1.830595 2.9964159
-0.41477114 1.8288789 2.989903
-0.38144836 1.8236169 2.9845035
-0.32780877 1.8199197 2.9807858
-0.26984319 1.821732 2.9811516
-0.22014207 1.8260424 2.983866
-0.17409985 1.8274691 2.9788899
-0.12377974 1.8298635 2.9775469
-0.075787015 1.8282789 2.9761779
-0.027899966 1.8294901 2.9787982
0.019993642 1.8276776 2.9758847
0.075883269 1.8285514 2.9766183
0.13151287 1.8251945 2.9697154
0.17923164 1.8241649 2.966156
0.22744648 1.8275999 2.9692609
0.27568817 1.8300829 2.9702151
0.32404307 1.8324164 2.9703314
0.37355918 1.8241282 2.9649374
0.41987008 1.8237309 2.9637663
0.46999815 1.8216578 2.962157
0.52526432 1.8206834 2.9630258
0.57401335 1.8227922 2.9596264
0.62984091 1.832184 2.9608624
0.67884064 1.8258728 2.959296
0.7275387 1.8294086 2.9577925
0.78091902 1.8212031 2.9553788
0.82776189 1.8263978 2.9543912
0.87314212 1.8200098 2.9561939
0.92588645 1.8223729 2.954705
0.97085345 1.8356706 2.9545121
1.0269115 1.8356327 2.9542608
1.0671512 1.8381895 2.95121
1.1286854 1.8279352 2.9523642
1.1724346 1.8227341 2.9560788
1.2803059 1.8290377 2.9533031
-1.2297642 1.8686171 2.9939003
-1.1933783 1.8730071 2.9941626
-0.97763288 1.8810697 2.9945831
-0.40704215 1.888442 2.991432
-0.36963236 1.869163 2.9879818
-0.31929678 1.8760571 2.9908481
-0.27246803 1.8764203 2.9853587
-0.22142291 1.8770498 2.9824269
-0.17323045 1.8782932 2.9868639
-0.12460643 1.8744117 2.9825127
-0.07635618 1.8740025 2.9831038
-0.028049499 1.8711625 2.9792321
0.020155013 1.8736726 2.9832754
0.068316571 1.8723807 2.9806788
0.12429672 1.8731525 2.9705026
0.18063353 1.8705419 2.974185
0.22868942 1.869799 2.9704876
0.27734205 1.873258 2.9728611
0.3258267 1.8746203 2.9712923
0.3744669 1.8766737 2.9701941
0.42310026 1.87804 2.9673929
0.47444248 1.8773762 2.96755
0.5208084 1.8736736 2.9652815
0.57052761 1.8778305 2.9649994
0.61717618 1.8744861 2.9621606
0.67032307 1.8772908 2.9652567
0.72035569 1.880664 2.9616783
0.77085108 1.8765795 2.9624867
0.81872845 1.8748665 2.959727
0.87204427 1.8755549 2.9566059
0.92353791 1.8722402 2.9566574
0.97539425 1.8689581 2.9561088
1.0241944 1.8754328 2.9542122
1.0784088 1.8811384 2.9566727
1.1212335 1.8756783 2.9526148
1.1756047 1.8758444 2.9554534
1.2254157 1.8659339 2.951694
1.2612826 1.8611318 2.9502959
1.419629 1.8935651 2.9512713
-1.2290109 1.9314702 2.9894865
-0.97542357 1.9183606 2.9669318
-0.40976337 1.9284406 2.998245
-0.3701705 1.9181043 2.9915466
-0.32140419 1.9292054 2.9909143
-0.2723783 1.9277445 2.9923708
-0.22322661 1.9246212 2.9906266
-0.17410706 1.9200987 2.9860752
-0.12549466 1.9201671 2.9880514
-0.076844275 1.9266224 2.9827156
-0.028262576 1.9262071 2.9827158
0.020269573 1.9261518 2.982686
0.066757172 1.9233987 2.9820373
0.12537032 1.9250473 2.9790051
0.17877169 1.9270509 2.9767196
0.23046766 1.9247979 2.9738054
0.27682465 1.9212868 2.974828
0.33016831 1.9222285 2.9721234
0.37682369 1.9208517 2.9728916
0.42572534 1.9222007 2.9699154
0.47548151 1.9266605 2.9710963
0.52491194 1.9291263 2.9685171
0.57545418 1.9349405 2.9704459
0.62697631 1.9274743 2.9675157
0.67357606 1.919136 2.9634771
0.72424906 1.9235564 2.9612563
0.77618164 1.9306766 2.962436
0.83249313 1.9233085 2.9618664
0.87601697 1.9257249 2.9601569
0.92803413 1.9278297 2.9623516
0.9719187 1.9229227 2.9573922
1.0180722 1.9245045 2.9568641
1.069759 1.9313028 2.9592431
1.1236889 1.9335225 2.960041
1.1779495 1.9243704 2.9593463
1.2242095 1.9271071 2.9586942
1.2690771 1.9253986 2.9555488
1.3134583 1.93901 2.9541044
1.4141603 1.9147511 2.9519229
1.4691131 1.9481139 2.950062
-1.2380084 1.9747692 2.9651136
-1.1908127 1.981189 2.9917493
-1.1262007 1.9916 2.9541454
-1.0847888 1.993068 2.9691222
-0.4063741 1.9710302 2.9975443
-0.37006259 1.9798588 2.9945238
-0.32679561 1.9729325 2.9945168
-0.27381501 1.9706281 2.9917548
-0.22431616 1.9666513 2.9888704
-0.17552175 1.9766036 2.9898913
-0.12649381 1.9761429 2.9911077
-0.077582113 1.9859743 2.9908085
-0.028519342 1.9840169 2.9885123
0.020466225 1.9846913 2.9895852
0.071702197 1.9793224 2.9878983
0.11593708 1.9782321 2.9852004
0.17180051 1.9800771 2.9812181
0.2280997 1.9862279 2.9828601
0.28332198 1.9753878 2.97754
0.33036396 1.9714438 2.9774771
0.37931991 1.9662819 2.9762106
0.42862248 1.9678491 2.9734259
0.47864735 1.9722575 2.9742692
0.52894109 1.9767398 2.9745367
0.57894701 1.9795465 2.9715843
0.629794 1.9809593 2.9729536
0.67743719 1.9751625 2.9697576
0.72990602 1.9716309 2.9674044
0.77798855 1.9748919 2.9664254
0.82204348 1.977743 2.9705093
0.87300122 1.9752135 2.9688966
0.91911173 1.9718466 2.9612954
0.97514433 1.9758968 2.9612179
1.0235134 1.9722527 2.962929
1.0789014 1.9736948 2.9573891
1.1330296 1.9690632 2.9580688
1.1805608 1.9724847 2.9613314
1.2271905 1.9794807 2.9577668
1.2815936 1.9720521 2.9550052
1.3244622 1.9775665 2.9549298
1.3783853 1.9803523 2.9532218
1.454124 1.9683875 2.9521909
-1.2382703 2.0372732 2.9939547
-1.1862574 2.0135694 2.9906139
-0.37639749 2.0358074 2.9980762
-0.31440046 2.0162828 2.9966972
-0.2732628 2.0224228 2.9914908
-0.22596022 2.0176549 2.9922261
-0.17693436 2.0335813 2.9924641
-0.12741064 2.0317929 2.9917853
-0.077966601 2.0287716 2.9886453
-0.028753797 2.0326874 2.9951212
0.0205546 2.0288312 2.9894934
0.069868326 2.0296605 2.9901416
0.11906034 2.0277894 2.9861736
0.16826154 2.0276489 2.9841254
0.22206719 2.0253582 2.9803464
0.2755174 2.0317495 2.9839666
0.32481658 2.0253305 2.9829617
0.37710816 2.0244706 2.9810247
0.4274551 2.0207078 2.9796238
0.48005119 2.0242934 2.9787674
0.52866709 2.0194554 2.9756298
0.57489389 2.0271289 2.9770777
0.62563604 2.0307131 2.9744451
0.67644572 2.0312936 2.9721954
0.72007817 2.0279515 2.9661312
0.76985544 2.0229337 2.9701478
0.82222176 2.0289941 2.968354
0.8714751 2.0194819 2.9698968
0.92711002 2.0226581 2.9690781
0.98008257 2.0280857 2.963989
1.0289673 2.0221045 2.9591143
1.0715599 2.0204792 2.9589114
1.1267588 2.0250669 2.961319
1.1717451 2.0183187 2.9591286
1.2152305 2.0218625 2.9569857
1.2855921 2.04738 2.9559164
1.3236328 2.0175462 2.9537096
1.3698146 2.0360453 2.9541042
1.42749 2.031363 2.9531474
1.5349112 2.0211844 2.9512115
-1.234005 2.0797617 2.9811344
-1.1841933 2.0505376 2.9956048
-0.36051238 2.0561335 2.9963229
-0.32853612 2.0857868 2.9981124
-0.28344479 2.0804737 2.9939775
-0.21163368 2.0841188 2.9984536
-0.17810336 2.0784554 2.9952416
-0.12843598 2.0824752 2.9964576
-0.078543328 2.0766351 2.9926927
-0.028894136 2.0757627 2.9921377
0.020691724 2.074512 2.9903748
0.070261583 2.0749605 2.9904425
0.12001121 2.0771689 2.9923885
0.16966914 2.077481 2.9909828
0.21935616 2.0778801 2.9889958
0.26895592 2.0773709 2.9851017
0.31934136 2.0822101 2.9882126
0.36555061 2.0793955 2.9832559
0.42115462 2.0772004 2.9834123
0.46607634 2.0721943 2.9805496
0.51945269 2.0700247 2.9816332
0.57018942 2.0730584 2.9787791
0.62149984 2.0777133 2.977515
0.673464 2.0836596 2.9773388
0.71885979 2.0777493 2.9686298
0.77313358 2.0750375 2.9721286
0.82883078 2.0789926 2.9735916
0.87986755 2.071867 2.9684641
0.9284113 2.0648694 2.9670691
0.97250664 2.0759819 2.965723
1.0235145 2.0816557 2.9641964
1.0770001 2.069535 2.9661763
1.1222918 2.0745835 2.9604626
1.1726933 2.0803466 2.9616075
1.217852 2.0758135 2.9562709
1.2723905 2.0797212 2.9563944
1.3154088 2.0729582 2.9565787
1.3865273 2.0784621 2.9504352
1.4186511 2.0844622 2.954356
1.4551083 2.0721111 2.9518361
1.5591238 2.0856442 2.9509213
-1.2371244 2.104409 2.9515224
-0.36303425 2.1039174 2.999058
-0.31350517 2.1243401 2.9994783
-0.27625674 2.1275477 2.9936299
-0.23368442 2.1249151 2.9977293
-0.17522925 2.1288786 2.9982297
-0.12915584 2.1261189 2.9961812
-0.06787663 2.1189473 2.9931164
-0.032426946 2.1210978 2.9944386
0.024162218 2.1199541 2.9928985
0.070747666 2.1219761 2.99189
0.12072589 2.1231847 2.9923241
0.17048061 2.120702 2.9868977
0.22052133 2.1222458 2.9865201
0.27093086 2.1260841 2.9886742
0.32124645 2.1279898 2.9874094
0.37384146 2.1254663 2.9860804
0.42243257 2.1334963 2.9852378
0.47469142 2.1272202 2.982506
0.52115059 2.1248639 2.981355
0.57434839 2.1218722 2.9819086
0.62575984 2.1255767 2.9790146
0.67815608 2.1318996 2.9790077
0.72822666 2.1221278 2.9723506
0.7803055 2.1179662 2.9728994
0.82536107 2.1254501 2.974143
0.8730709 2.1320229 2.9693875
0.91932261 2.1216874 2.968127
0.97579581 2.1226761 2.9683704
1.0273719 2.1290264 2.9674478
1.0750872 2.1195281 2.9656169
1.1248335 2.1249328 2.9613314
1.1792375 2.1345973 2.9626548
1.2211218 2.115119 2.9554033
1.2778032 2.1336808 2.9613352
1.309118 2.1319661 2.9509749
1.3736525 2.1276107 2.9517021
1.4226817 2.1078897 2.952282
1.5295382 2.1378436 2.9507449
1.5962385 2.1471889 2.9573655
1.6153224 2.1487982 2.9512515
1.6540158 2.1346495 2.9505947
1.7344749 2.1094434 2.9523346
1.9202834 2.137907 2.9504418
-1.2371135 2.1768277 2.9903316
-0.59087348 2.1942728 2.9979401
-0.38234037 2.1519442 2.9989815
-0.33263999 2.1770234 2.9988501
-0.28150359 2.1799796 2.99172
-0.23153098 2.1900058 2.9980376
-0.18448228 2.1684225 2.9954844
-0.12994629 2.1757367 2.9941761
-0.079565823 2.1692128 2.9953227
-0.032617684 2.167109 2.9931355
0.017607842 2.1668906 2.9929423
0.071226105 2.1696651 2.9928598
0.12149084 2.1700919 2.9921644
0.17172237 2.1696527 2.989588
0.22219981 2.1719172 2.9900875
0.27291337 2.175334 2.9914749
0.32315812 2.1744282 2.9862354
0.3739655 2.1769941 2.9850256
0.42556903 2.1831272 2.9880447
0.47669801 2.1857264 2.9854801
0.52710545 2.1792727 2.9807978
0.57536042 2.1718879 2.9784603
0.63057095 2.1757996 2.9822967
0.68202573 2.1779788 2.9762442
0.73054403 2.1761751 2.9745996
0.76836061 2.1712954 2.9725173
0.82213801 2.1731112 2.9750512
0.87437552 2.1759393 2.9670112
0.92811728 2.1763172 2.9659443
0.978576 2.1688156 2.9689276
1.0229429 2.1791339 2.9648011
1.0741616 2.1720636 2.9670861
1.1245573 2.1686769 2.9623685
1.1725861 2.1842999 2.9634018
1.2253119 2.167928 2.9578578
1.2749057 2.1719358 2.9541688
1.3317904 2.1897635 2.9573593
1.3557849 2.1683955 2.9530141
1.4209652 2.1906347 2.9563303
1.4568814 2.1707683 2.9557269
1.5239633 2.180388 2.954916
1.5655305 2.1597002 2.9511015
1.6006342 2.1710556 2.954288
1.6921928 2.1968496 2.9545636
1.7155255 2.1715629 2.9564133
1.7889385 2.1881399 2.9554033
-1.2350286 2.2072935 2.9813218
-0.5599221 2.2405317 2.9992554
-0.40261427 2.2216046 2.9937017
-0.37806869 2.2354178 2.9983916
-0.32645291 2.2309725 2.9972296
-0.27973261 2.2219908 2.9921699
-0.23212208 2.2123904 2.9956064
-0.19842586 2.2132902 2.9988074
-0.11381684 2.2186801 2.993166
-0.079999916 2.2163689 2.9909027
-0.029486617 2.2190497 2.9952447
0.017758625 2.220134 2.9935164
0.07508342 2.2202678 2.9929881
0.12228549 2.2181704 2.9921942
0.17313738 2.2213237 2.9944441
0.22382949 2.2215555 2.9920807
0.27677378 2.2243183 2.9851816
0.32535955 2.2229331 2.9864671
0.37643525 2.2252696 2.984803
0.42819449 2.230479 2.9862802
0.47949204 2.2324975 2.9827311
0.53030318 2.2265353 2.9787588
0.58185953 2.2232649 2.9776895
0.62470001 2.2218144 2.9742568
0.67183304 2.2247357 2.9722588
0.72127289 2.2284687 2.9714298
0.7740193 2.2215436 2.9738314
0.826087 2.2178187 2.9686654
0.87682724 2.2232728 2.9680154
0.92428541 2.2266641 2.9680352
0.97551394 2.2230473 2.9707332
1.027269 2.2286665 2.9680452
1.078724 2.2248511 2.9654205
1.1226871 2.2235231 2.9645813
1.175925 2.230253 2.961076
1.2234155 2.2173035 2.9565613
1.2726991 2.2247989 2.9530659
1.3292751 2.2266998 2.9579966
1.3523332 2.2355945 2.9630871
1.4342422 2.2325323 2.9549091
1.4837998 2.2423692 2.9598281
1.5249951 2.2301946 2.9525976
1.7141597 2.2017727 2.9521108
-1.2279632 2.2775855 2.9878225
-0.63523644 2.2998259 2.9997599
-0.40674484 2.2872529 2.9983292
-0.37164393 2.2820156 2.9950352
-0.31969762 2.2771633 2.9934609
-0.27173054 2.2770693 2.993871
-0.21714601 2.2789085 2.9949777
-0.17859566 2.2718234 2.9959042
-0.13160995 2.2664063 2.9939907
-0.084915876 2.2734702 2.9931796
-0.031814247 2.2736335 2.9900899
0.021246189 2.265162 2.9913309
0.074612431 2.270813 2.9910457
0.12099647 2.2735748 2.9881842
0.17401417 2.2702684 2.9870105
0.22502454 2.2761436 2.9826033
0.27240548 2.2678761 2.9816916
0.32740152 2.2709858 2.9846413
0.37855974 2.2718771 2.9809244
0.43026033 2.2753446 2.9798441
0.47860631 2.2767549 2.9790573
0.52519226 2.2779438 2.9764493
0.56876785 2.2786405 2.9764659
0.62280196 2.2663155 2.9701598
0.67262214 2.2712605 2.9713819
0.72655159 2.2791975 2.9717858
0.78165638 2.276814 2.9698911
0.82832384 2.2658629 2.9695671
0.87193906 2.2752247 2.9652834
0.92668647 2.2793522 2.9683592
0.97422367 2.2704725 2.9635005
1.0231792 2.2735758 2.9619269
1.0710217 2.2827399 2.9609034
1.1231256 2.2733886 2.9599454
1.1734182 2.2773755 2.9573276
1.2212567 2.2788122 2.9555578
1.2704456 2.2850676 2.953691
1.3195274 2.2816527 2.9557247
1.3736064 2.272182 2.9566295
1.4218526 2.2885282 2.9584432
1.4760292 2.2748666 2.9583058
1.5241344 2.2737348 2.9516947
1.5853056 2.2904756 2.950784
1.6259239 2.2783244 2.9535687
1.7117623 2.2773905 2.9525607
-1.225975 2.324368 2.9785614
-1.1790044 2.3366594 2.9949787
-1.1168946 2.332649 2.9999702
-1.0700623 2.3453131 2.9953508
-0.71016103 2.3287191 2.9674795
-0.66883755 2.3166614 2.9764097
-0.62903279 2.317379 2.9697781
-0.5794211 2.3099301 2.971597
-0.52568001 2.31464 2.9787745
-0.47808796 2.3317168 2.9885306
-0.42589998 2.3325803 2.9889705
-0.37348792 2.3277004 2.9883626
-0.32170758 2.3258395 2.9908569
-0.26738453 2.3260314 2.9883721
-0.220498 2.3219745 2.9862118
-0.1769 2.3222134 2.9860806
-0.1301495 2.3231626 2.9920831
-0.081131779 2.3245621 2.9858644
-0.027433246 2.3297343 2.983984
0.021371834 2.3221958 2.9836891
0.070521578 2.326767 2.9848516
0.12630942 2.3288345 2.9807384
0.17514957 2.3263555 2.9808135
0.2263865 2.3326359 2.9737895
0.28044233 2.3221345 2.9823632
0.32947987 2.3282671 2.976732
0.38083041 2.3197591 2.9773085
0.42894787 2.3191836 2.97455
0.47085708 2.3265643 2.9723277
0.51914805 2.3261132 2.9684505
0.57426125 2.3271639 2.9686551
0.6220665 2.3232348 2.969409
0.67675036 2.3197589 2.9677296
0.73092335 2.3275328 2.9675038
0.77534294 2.3311114 2.9629641
0.82126784 2.3259008 2.9585776
0.87400359 2.3227494 2.9636352
0.92818063 2.3277454 2.9567182
0.97413611 2.3248076 2.95807
1.0215403 2.3245203 2.9622412
1.0756725 2.3234143 2.9536293
1.1307281 2.3151326 2.9520144
1.1712087 2.3256488 2.953752
1.2276635 2.3173704 2.9535444
1.2808853 2.3222682 2.9541082
1.3245372 2.3278799 2.9588366
1.372053 2.3269432 2.954442
1.4243184 2.310462 2.9515357
1.4648397 2.3087275 2.9517887
1.535881 2.3132381 2.9546518
1.6312026 2.3040073 2.9509442
1.6868469 2.3489246 2.9540014
1.7013518 2.3249919 2.9506311
-1.2142714 2.3611977 2.9585865
-1.1705964 2.3689389 2.9702606
-1.1229594 2.3677869 2.9788954
-1.0798392 2.3828471 2.9712431
-1.0254636 2.3803971 2.9841251
-0.99041402 2.3904052 2.9897366
-0.74792123 2.3802853 2.982161
-0.47881475 2.373522 2.9682779
-0.42692789 2.372752 2.973815
-0.37446833 2.3682282 2.9738843
-0.32261482 2.3667691 2.9770336
-0.27367562 2.362035 2.9717813
-0.21532083 2.3619316 2.9755826
-0.16371416 2.3601813 2.9760785
-0.12719207 2.3623352 2.9780853
-0.081297778 2.3635437 2.9700081
-0.029890701 2.360178 2.9665699
0.021446267 2.3646655 2.9722738
0.072697766 2.3607874 2.9667361
0.12441815 2.368783 2.9753885
0.1759233 2.3684576 2.9728491
0.22741447 2.368927 2.9705746
0.27579251 2.3649952 2.9753869
0.32984582 2.3650763 2.9578018
0.38202474 2.3614583 2.9645426
0.42804229 2.3598442 2.9628479
0.46870849 2.3656528 2.9596169
0.52099174 2.3688333 2.9564476
0.57338697 2.3631542 2.9579554
0.63322443 2.3749306 2.9573269
0.67466396 2.3577414 2.9586074
0.72362971 2.3579688 2.9578741
0.76792163 2.3609269 2.9524326
0.80436897 2.3660731 2.9511552
0.8743313 2.3661506 2.9555144
0.98701096 2.3521304 2.956459
1.0245119 2.3576639 2.953274
1.324321 2.3623574 2.9518228
1.3533554 2.3570299 2.9521117
-1.0135896 2.4088192 2.9537771
-0.96913552 2.4127367 2.9776733
-0.92959738 2.4173973 2.9670775
-0.87747228 2.4211679 2.9756799
-0.82391781 2.4204395 2.9731171
-0.77904218 2.4216552 2.977402
0.7016927 2.4065895 2.9568951
-0.9345209 0.37250033 3.0124004
-0.71594661 0.38198796 3.0073378
-0.86805898 1.1338187 3.0027988
-0.83227676 1.1279446 3.0013986
-0.77766365 1.1495925 3.0018675
-0.92681271 1.1792601 3.0061133
-0.8747648 1.1763638 3.0036623
-0.82884854 1.1723075 3.007751
-0.78291237 1.1738948 3.0077481
-0.73023152 1.1951271 3.0052354
-0.91719592 1.2330583 3.0080996
-0.87498581 1.2292536 3.0128748
-0.8270461 1.2235109 3.0077128
-0.77182454 1.2178148 3.0034962
-0.71694988 1.2265853 3.0043075
-0.68726474 1.2290044 3.0029385
-0.9158712 1.2773777 3.0061433
-0.86994523 1.2799503 3.009917
-0.82113206 1.2768369 3.0120597
-0.77504903 1.2786397 3.0129361
-0.72471875 1.2700689 3.0077074
-0.67858976 1.2881663 3.0012677
-0.6432994 1.2946861 3.0016749
-0.92442852 1.3213246 3.0075808
-0.87100726 1.3294319 3.006608
-0.82430065 1.3286645 3.0089924
-0.77554101 1.3254275 3.0106821
-0.72606194 1.3204863 3.0078595
-0.67741078 1.3297871 3.002382
-0.57431912 1.3224576 3.0050702
-0.51834369 1.313488 3.0015755
-0.927212 1.3735076 3.0085897
-0.87998927 1.3746773 3.0097072
-0.82641423 1.3803873 3.0094922
-0.77864426 1.3777061 3.0074453
-0.7337907 1.3666688 3.0040052
-0.68451744 1.3811188 3.0013824
-0.64852476 1.3829002 3.0011675
-0.58574188 1.3968958 3.0018775
-0.92320991 1.4264822 3.0105059
-0.87463677 1.4251976 3.0137174
-0.83028531 1.4196609 3.0037816
-0.77513397 1.4283521 3.0059197
-0.73537207 1.4267894 3.0040805
-0.67106777 1.4186473 3.0021577
-0.64976162 1.4011072 3.0016723
-0.57863617 1.4140086 3.0010867
-0.50891173 1.4456087 3.0006301
-0.95195991 1.4582778 3.0086532
-0.92246211 1.4709257 3.0111721
-0.86742544 1.4732246 3.0109522
-0.82145399 1.4751378 3.0081384
-0.7758069 1.4711385 3.0085139
-0.71699637 1.4737641 3.0035379
-0.671601 1.4850363 3.0026481
-0.6385842 1.4813526 3.000237
-0.51834118 1.4736441 3.0010271
-0.92576814 1.5234578 3.0139179
-0.8780427 1.5225844 3.0177746
-0.824974 1.5228777 3.0147712
-0.77620399 1.5231061 3.0101118
-0.72627819 1.5222838 3.0080011
-0.67275602 1.5294628 3.0031457
-0.6407119 1.5098749 3.0016429
-0.53022355 1.5401187 3.003273
-0.48206112 1.5329081 3.0040922
-0.44994411 1.5342288 3.0011401
-0.92531765 1.5762864 3.0107746
-0.88071483 1.5769321 3.0165315
-0.83194458 1.5759633 3.0248978
-0.779697 1.5770662 3.0264544
-0.73130596 1.5829509 3.0198889
-0.68212652 1.5794163 3.0105784
-0.62978333 1.58486 3.0030601
-0.56990021 1.5820196 3.0062931
-0.52328151 1.5807282 3.0099914
-0.4706333 1.5738469 3.0075974
-0.95820397 1.6331521 3.0077429
-0.91844702 1.6270164 3.0114338
-0.87148935 1.6255766 3.0152674
-0.82599688 1.6283799 3.0150533
-0.77702928 1.6214458 3.0113263
-0.72430223 1.6251937 3.0096645
-0.67400843 1.6224307 3.0068235
-0.6248318 1.6243166 3.0060098
-0.57246011 1.62542 3.0054004
-0.51910907 1.6252136 3.0043895
-0.47573033 1.6240743 3.0015519
-0.95765275 1.6795191 3.008399
-0.92486215 1.6791495 3.0154715
-0.87298757 1.6734419 3.0162675
-0.8226344 1.6782204 3.0172346
-0.76860297 1.6769363 3.0115054
-0.72069502 1.6754448 3.0129807
-0.67248315 1.6727202 3.0116696
-0.62130839 1.6760473 3.0124066
-0.56942016 1.6768528 3.0079374
-0.52242929 1.6755009 3.0072887
-0.47580227 1.6731553 3.0028303
-0.96076667 1.7258868 3.0004239
-0.92757726 1.7249513 3.006675
-0.8745656 1.7144252 3.0054309
-0.82185411 1.7173649 3.0080426
-0.77842873 1.7281001 3.0153956
-0.72552896 1.7272272 3.0159495
-0.67484647 1.7220278 3.015394
-0.62507653 1.7265663 3.0135703
-0.57796848 1.728139 3.0132129
-0.52611679 1.7275053 3.0116065
-0.47995883 1.7248596 3.0091269
-0.43992364 1.7323785 3.0040524
-1.2018688 1.7930044 3.0007336
-0.95877731 1.7700429 3.0071716
-0.92919087 1.7714249 3.0042686
-0.87556005 1.781764 3.0045364
-0.8466205 1.7838182 3.0023458
-0.78164172 1.7766658 3.021307
-0.72943014 1.7691426 3.0178688
-0.68049568 1.7772138 3.0227065
-0.6304186 1.7819642 3.0213821
-0.57995623 1.7769108 3.0202093
-0.52966475 1.7715068 3.0177622
-0.48023 1.7762505 3.0145569
-0.44099811 1.7753124 3.005892
-1.2088094 1.828657 3.0059471
-0.96603799 1.8249531 3.0106647
-0.9241969 1.832408 3.0155296
-0.87258911 1.8232238 3.0076134
-0.81965315 1.8218812 3.0073128
-0.7744329 1.8186058 3.0192661
-0.71850884 1.8236048 3.025007
-0.66884089 1.8306543 3.0279763
-0.61731201 1.8293591 3.0222695
-0.57466072 1.8265388 3.01793
-0.52753079 1.8232398 3.018899
-0.47505546 1.8277901 3.0157707
-0.43788543 1.8168105 3.0074155
-1.2136227 1.8697864 3.001297
-0.9701485 1.8825083 3.011399
-0.9297834 1.8768638 3.0177555
-0.87296343 1.8730853 3.0107188
-0.82353157 1.8794376 3.0097592
-0.77266222 1.8753318 3.0267265
-0.7265299 1.8757814 3.03056
-0.67210513 1.8725775 3.027235
-0.62153804 1.8776489 3.0262783
-0.57089478 1.8817549 3.023205
-0.52092361 1.8792299 3.025974
-0.46930957 1.8697268 3.016803
-0.43144068 1.8729359 3.0091572
-1.2094018 1.921335 3.0071583
-0.96096283 1.9226078 3.014493
-0.92138499 1.9222647 3.0199475
-0.87865496 1.9268709 3.0157757
-0.82725626 1.9212321 3.006995
-0.78055739 1.9291358 3.0297968
-0.72897476 1.9251304 3.0331917
-0.67760569 1.921198 3.0359781
-0.62881488 1.9304245 3.0313926
-0.57505751 1.9285769 3.0292044
-0.52487421 1.9265438 3.0329592
-0.4727217 1.9161315 3.0228107
-0.43547282 1.9403354 3.0257061
-0.37253901 1.9494019 3.0011301
-1.2247856 1.9862347 3.0084934
-0.97309649 1.9722919 3.0172276
-0.91977537 1.9665629 3.0168374
-0.87508357 1.9816654 3.0199311
-0.8211506 1.9672371 3.0145934
-0.76907128 1.9759105 3.0368738
-0.72074997 1.9741665 3.0397758
-0.67673606 1.9708773 3.0400021
-0.6304037 1.9795662 3.0323839
-0.57931477 1.9761547 3.034909
-0.52694851 1.9673623 3.0284512
-0.47487596 1.9728036 3.0307214
-0.42850199 1.9788033 3.0138669
-0.38973168 1.961713 3.0016651
-0.30822453 1.9898745 3.0018826
-1.2225559 2.03122 3.0083106
-1.1203349 2.0439973 3.0048525
-1.0697937 2.0291576 3.0103745
-1.0201353 2.0239389 3.0194767
-0.97261399 2.0262384 3.0320938
-0.92917734 2.011745 3.0232325
-0.87774825 2.0276363 3.0246418
-0.82473284 2.0224247 3.0281489
-0.77466106 2.0241544 3.0413742
-0.7207644 2.0154636 3.0381367
-0.67217493 2.0274603 3.0379851
-0.62165731 2.0297165 3.0389838
-0.57901299 2.018455 3.0350904
-0.53109854 2.0199604 3.0333803
-0.48295355 2.0280659 3.0324519
-0.42824554 2.0267837 3.0183504
-0.37666437 2.0272644 3.0053172
-0.33762288 2.0293095 3.0030968
-0.27660981 2.0320742 3.0009971
-1.2157811 2.070998 3.0061626
-1.1682485 2.0692451 3.0084951
-1.129245 2.0775623 3.0190978
-1.0782778 2.0763574 3.0172501
-1.0270607 2.0720813 3.0211792
-0.97471625 2.0704794 3.0325928
-0.92332435 2.076442 3.0427313
-0.87324172 2.0848947 3.0400157
-0.82903063 2.0737469 3.0397809
-0.77905732 2.0696933 3.0404489
-0.72709656 2.0757384 3.0422008
-0.67444068 2.0791578 3.0395353
-0.62132484 2.0717967 3.0373232
-0.56899852 2.0659044 3.0365012
-0.52070338 2.0779257 3.0327265
-0.47971496 2.0741971 3.0302291
-0.43358096 2.0770545 3.019537
-0.38228366 2.0762713 3.0036902
-0.32361722 2.0629005 3.0011847
-0.26172999 2.0781121 3.0032532
-0.23144524 2.0714231 3.0019963
