ply
format ascii 1.0
comment PCL generated
element vertex 1512
property float x
property float y
property float z
element camera 0
property float view_px
property float view_py
property float view_pz
property float x_axisx
property float x_axisy
property float x_axisz
property float y_axisx
property float y_axisy
property float y_axisz
property float z_axisx
property float z_axisy
property float z_axisz
property float focal
property float scalex
property float scaley
property float centerx
property float centery
property int viewportx
property int viewporty
property float k1
property float k2
end_header
0.68893611 -0.49627981 2.2337379
0.72949302 -0.49724737 2.2295704
0.78259063 -0.49705231 2.2441795
0.82738316 -0.49680868 2.2317855
0.86181325 -0.49171254 2.2361948
0.91906077 -0.49748915 2.2099662
0.19449128 -0.50385571 2.2546616
0.23311748 -0.50445992 2.2549536
0.28218985 -0.50346327 2.2640238
0.31827915 -0.50616831 2.2557456
0.37883827 -0.50487953 2.2610121
0.4189302 -0.50291896 2.2647755
0.48823014 -0.50382233 2.2596416
0.52784264 -0.50254911 2.2654834
0.57778889 -0.50226784 2.2559471
0.046393745 -0.49067548 2.2512393
0.075022213 -0.48794204 2.2589421
0.10857437 -0.48513976 2.2590039
0.18517989 -0.49175331 2.2777722
0.2233761 -0.49395582 2.2827938
0.27008486 -0.49542609 2.289289
0.3266561 -0.49674544 2.2791126
0.37256366 -0.49655175 2.2797134
0.43339822 -0.4948048 2.2831898
0.47216073 -0.49637651 2.2835715
0.52602726 -0.49492174 2.2843575
0.57666677 -0.49309152 2.2833292
0.62719434 -0.49102837 2.2796271
0.67342198 -0.49103865 2.2715812
0.72078758 -0.48769966 2.2763774
0.77299851 -0.48697317 2.2740734
0.82739276 -0.48445937 2.2716823
0.87480146 -0.48191434 2.2780957
0.90387863 -0.49649009 2.2685544
0.17788205 0.17521366 2.2850094
0.14632295 0.29811388 2.2983661
0.16691458 0.27359542 2.2788851
0.18778682 -0.48182875 2.3119228
0.22905846 -0.4840757 2.3110328
0.28320682 -0.48321122 2.3203638
0.32385942 -0.48693457 2.3188157
0.37551337 -0.48673341 2.3207738
0.42361507 -0.48296934 2.3195193
0.47549027 -0.48384222 2.322896
0.52494442 -0.48519129 2.3192003
0.57555485 -0.48279756 2.3149207
0.62770879 -0.47670847 2.3217652
0.67411846 -0.48177862 2.3086224
0.72497851 -0.47796723 2.3293393
0.77368253 -0.47502235 2.3136497
0.82489228 -0.47196949 2.3169816
0.87549675 -0.46831793 2.3165917
0.91236573 -0.47801587 2.3157113
0.19344221 -0.40917048 2.321722
0.22150773 -0.4035928 2.3209643
0.27224559 -0.40402484 2.319916
0.32340881 -0.40482497 2.3202581
0.37599763 -0.40693355 2.3272882
0.4303112 -0.41023567 2.3403428
0.47058207 -0.41058159 2.3372312
0.63606107 -0.4027954 2.3343003
0.66729939 -0.40428638 2.3375282
0.87142915 -0.40156019 2.3492167
0.19275017 -0.37417755 2.3170953
0.22699729 -0.37535417 2.3223903
0.27781188 -0.37588632 2.3221202
0.32338247 -0.37666875 2.3231618
0.37477651 -0.37745425 2.3229756
0.42709461 -0.37318757 2.3264349
0.47493124 -0.37521654 2.3334696
0.52184772 -0.37624049 2.3332999
0.57289606 -0.37885675 2.3323481
0.62488031 -0.3733919 2.3336241
0.67651111 -0.37404463 2.3303337
0.72647595 -0.37605956 2.3334289
0.77742821 -0.37327594 2.3347573
0.82625425 -0.37349957 2.3332138
0.87613344 -0.36897799 2.3305035
0.91443646 -0.37026727 2.3291831
0.19288631 -0.3241443 2.3236473
0.22708687 -0.32507265 2.3282666
0.27802396 -0.32565755 2.3288589
0.32359681 -0.32629967 2.3297179
0.37497658 -0.32693496 2.3292689
0.42778242 -0.32282427 2.3351333
0.4771229 -0.33700222 2.3481779
0.5210557 -0.3415187 2.3493979
0.5750457 -0.33062193 2.3489428
0.61776096 -0.33805549 2.3479433
0.68218839 -0.32869682 2.3476343
0.72794878 -0.33332363 2.3473024
0.7746489 -0.33058855 2.3485441
0.82472068 -0.32691652 2.3481815
0.88673973 -0.33143732 2.3455832
0.91596019 -0.32515058 2.3434134
0.19278327 -0.27370253 2.3266129
0.22679596 -0.27427885 2.3295567
0.27763608 -0.27472228 2.3298242
0.32311112 -0.27524787 2.3304918
0.37469992 -0.27599472 2.3318672
0.42489594 -0.27720794 2.3367646
0.45884213 -0.27919698 2.349685
0.54138923 -0.28634271 2.3499331
0.57098234 -0.28680089 2.3492079
0.68580556 -0.28924292 2.3496299
0.70947713 -0.25470698 2.3494132
0.81408715 -0.28843567 2.3490441
0.91862392 -0.27748552 2.3488576
0.19237188 -0.22295117 2.3250973
0.22650012 -0.22360052 2.3299284
0.27740026 -0.22407417 2.3313515
0.32296667 -0.22458816 2.332926
0.37433174 -0.22507687 2.3330913
0.42261571 -0.22604811 2.3380368
0.7644251 -0.21495707 2.3497238
0.88451344 -0.23492631 2.3477113
0.91901135 -0.24359065 2.3468959
0.19227442 -0.17269027 2.3266788
0.22624743 -0.17308667 2.3300917
0.27723622 -0.17354929 2.3327937
0.322644 -0.17387079 2.3334041
0.37403417 -0.17428467 2.3340907
0.42019919 -0.17476362 2.3355629
0.75773269 -0.1972895 2.3493233
0.19197731 -0.12235852 2.3251042
0.22612758 -0.12276409 2.3308728
0.27696064 -0.1230289 2.3325238
0.32231286 -0.12325849 2.3330722
0.37379593 -0.12359051 2.3346088
0.42039591 -0.12407012 2.3387487
0.19195899 -0.072274834 2.3262258
0.22592206 -0.072465159 2.3301528
0.27689445 -0.072665535 2.333307
0.32228717 -0.072808579 2.3342593
0.37370676 -0.072997451 2.3354468
0.42021644 -0.073256463 2.3391488
0.19193965 -0.027779965 2.3265843
0.22583027 -0.027835425 2.3297775
0.27670488 -0.027903363 2.3322423
0.3222723 -0.02797541 2.3347626
0.37333781 -0.028033266 2.3338187
0.42025816 -0.028149039 2.3399887
0.19195472 0.022291796 2.3267605
0.22602238 0.022360317 2.3317575
0.27683169 0.022409968 2.3333814
0.3224535 0.022471284 2.33605
0.37362054 0.022529298 2.3355103
0.418419 0.022615764 2.3396015
0.84379238 0.02348626 2.349185
0.19223881 0.072460502 2.3295231
0.22618826 0.072623789 2.3328226
0.27723736 0.07283707 2.336062
0.32263336 0.072984137 2.3367062
0.37409535 0.073167786 2.3377442
0.41809097 0.071124487 2.3400896
0.19246642 0.12274474 2.3308704
0.22641014 0.12299307 2.3336701
0.27743143 0.12332223 2.3362594
0.32286951 0.12355568 2.3369541
0.37437639 0.12388965 2.3380959
0.41479048 0.12420736 2.3395245
0.19282232 0.17327046 2.3330843
0.22679439 0.17359337 2.3355289
0.27774256 0.17395 2.3367794
0.32325116 0.17430077 2.3375962
0.37503183 0.17485106 2.3400042
0.41541097 0.17524634 2.3408697
0.18734258 0.22539075 2.3237026
0.22699185 0.22417711 2.3347456
0.27825505 0.22486763 2.3382566
0.32389516 0.22533317 2.3393638
0.375655 0.2259822 2.3410125
0.41623038 0.22657065 2.3425491
0.18579091 0.27631789 2.3321271
0.22184354 0.27519056 2.3364344
0.2731922 0.27600229 2.3398271
0.32475358 0.27676153 2.3419425
0.37641239 0.27737856 2.3421206
0.41934538 0.27643639 2.3456755
0.91109526 0.28909248 2.3449097
0.075665429 0.33607516 2.331207
0.12735504 0.33166641 2.332099
0.1772584 0.32634827 2.3389585
0.22156453 0.32280263 2.3400564
0.27462375 0.32012877 2.3430107
0.32684076 0.31879905 2.3439829
0.37343106 0.31578752 2.3443713
0.41198343 0.31825089 2.3442824
0.21761417 0.35041797 2.3453794
0.78348905 -0.47287512 2.3637369
0.47399616 -0.41354367 2.3541095
0.4775666 -0.32208061 2.3518574
0.52630317 -0.31999633 2.351783
0.55800992 -0.31382728 2.3509481
0.62950486 -0.31475878 2.3516576
0.66551101 -0.31526658 2.3510795
0.73268354 -0.31071383 2.3515584
0.78286481 -0.31387302 2.3507512
0.83887082 -0.31503025 2.3509674
0.87433434 -0.31682751 2.3527784
0.44736052 -0.26966128 2.3513789
0.47897398 -0.27350405 2.3531191
0.52338248 -0.27432308 2.3538857
0.57141054 -0.27427423 2.3519952
0.62000364 -0.27293739 2.3532248
0.6749078 -0.27189258 2.353153
0.73048329 -0.27416131 2.3520443
0.77908599 -0.27413967 2.352128
0.83199114 -0.27163923 2.3531606
0.87670738 -0.27563438 2.3536775
0.90989703 -0.28343433 2.3511517
0.44687462 -0.22002393 2.3522108
0.47687072 -0.22263829 2.3559258
0.52382255 -0.2231735 2.3551955
0.57118249 -0.22377774 2.3545876
0.62236148 -0.22450767 2.3540525
0.67634338 -0.22543676 2.3543382
0.72864735 -0.22630636 2.3535242
0.77999312 -0.22890271 2.3527114
0.82946706 -0.22845776 2.3550968
0.88022542 -0.22303624 2.3551016
0.91715425 -0.21573129 2.351948
0.446935 -0.17641929 2.3549292
0.47646511 -0.17680477 2.3564584
0.52383953 -0.17738263 2.3578377
0.57120728 -0.1778671 2.3572686
0.6247353 -0.17839311 2.3554997
0.68027186 -0.17455573 2.3557036
0.728392 -0.17399423 2.3556447
0.77880096 -0.17344926 2.3546734
0.82880479 -0.17558154 2.3562753
0.87980217 -0.17050937 2.3560433
0.91795105 -0.17103513 2.3541105
0.44607216 -0.12494662 2.3524919
0.47637719 -0.12543733 2.3581393
0.52318704 -0.12571974 2.3570459
0.57068533 -0.12609616 2.3572509
0.62464809 -0.12656528 2.3573742
0.67813694 -0.12297894 2.3575337
0.72805154 -0.12171779 2.3567266
0.77755952 -0.12218677 2.3560829
0.82821709 -0.12277885 2.3568377
0.87994957 -0.12346022 2.3584177
0.91786075 -0.1237962 2.3558857
0.44641697 -0.073860146 2.3557134
0.47629744 -0.074083082 2.3591654
0.52310365 -0.074248157 2.3580887
0.57038498 -0.074440695 2.3574793
0.62447512 -0.074727453 2.3581729
0.67893839 -0.075016893 2.357899
0.72793221 -0.07529483 2.3576255
0.77779585 -0.075614803 2.3580937
0.82837766 -0.075970456 2.3586357
0.87897706 -0.076292485 2.3571055
0.9174341 -0.076554045 2.3561392
0.4466086 -0.028390409 2.3573442
0.47577235 -0.028427705 2.3571696
0.52310568 -0.028512001 2.3587422
0.57073128 -0.028602116 2.3595119
0.62481183 -0.028708389 2.3601041
0.67906648 -0.028798526 2.3589962
0.72848547 -0.028911345 2.3600695
0.77762538 -0.029008128 2.3582442
0.82779294 -0.029131407 2.3576384
0.8795113 -0.029276773 2.3592453
0.91631448 -0.029310813 2.353955
0.44283062 0.02278161 2.3548882
0.47613946 0.022870883 2.3589845
0.52333683 0.022942878 2.3597434
0.5710023 0.023031179 2.3606277
0.62498665 0.023126915 2.3607404
0.67954022 0.023225453 2.3606381
0.72812766 0.02330724 2.3589008
0.77807981 0.023428159 2.3596249
0.82691169 0.023530429 2.3579996
0.88007021 0.023688544 2.3607185
0.91678965 0.02374135 2.3551607
0.44258118 0.077756695 2.3557289
0.4765642 0.074248835 2.3603544
0.52376825 0.074475929 2.3609645
0.57115078 0.074691005 2.3605158
0.62525421 0.074992858 2.3609891
0.67975491 0.075299643 2.3606567
0.72891712 0.075603977 2.3607047
0.77834547 0.075909249 2.3596442
0.82960337 0.076349162 2.3620133
0.88020152 0.076676726 2.3603079
0.91978109 0.077058189 2.3620286
0.44116193 0.12527201 2.3570957
0.47698039 0.12572156 2.3609464
0.52421129 0.12610468 2.3614905
0.57155782 0.12643783 2.3606815
0.62142247 0.12285664 2.3611183
0.67742622 0.12302229 2.3629484
0.72994721 0.12223873 2.3626676
0.77998817 0.12280969 2.3632646
0.8304745 0.1233729 2.3631091
0.87571412 0.12397736 2.3642266
0.91609526 0.12463898 2.3678489
0.44148487 0.17663096 2.3566206
0.47768542 0.17738843 2.362226
0.52519751 0.17799447 2.3637111
0.57253057 0.17844401 2.3624878
0.62180036 0.17580348 2.3620958
0.67316204 0.17243694 2.3628454
0.72659647 0.17520696 2.3619442
0.77475303 0.17758638 2.3640327
0.81912404 0.17289679 2.3659301
0.8703987 0.1712635 2.3651977
0.91606325 0.17067692 2.3688443
0.44189969 0.22240661 2.3562984
0.47843948 0.2235066 2.3633475
0.52595651 0.22423045 2.3644893
0.57344306 0.22483391 2.363595
0.62153363 0.22556034 2.3633602
0.67044473 0.2264653 2.3642802
0.71932614 0.22724126 2.363107
0.76979339 0.22841308 2.3650651
0.82172376 0.2262121 2.3651776
0.87221831 0.22485296 2.3670444
0.90988553 0.22539887 2.3635793
0.44149768 0.27085832 2.3612273
0.47591376 0.27728257 2.3661063
0.52666765 0.27245203 2.3658874
0.57465959 0.27150655 2.3653097
0.6228922 0.27241448 2.3652427
0.67198849 0.27353978 2.3663642
0.72081113 0.27441654 2.3646026
0.77126575 0.27576756 2.3661377
0.82244784 0.27721554 2.3676279
0.87484038 0.27889463 2.370203
0.90929413 0.27523476 2.3641031
0.26965106 0.34060019 2.3532507
0.32110575 0.34100375 2.351778
0.37436774 0.33963069 2.3530679
0.42901674 0.33435217 2.3648911
0.47449282 0.32783499 2.371278
0.52787322 0.32392791 2.3714154
0.57652688 0.31874669 2.3691373
0.62468684 0.31968787 2.3681018
0.67367429 0.3208822 2.3683259
0.72286767 0.32202414 2.3673007
0.77363378 0.32368779 2.3693299
0.82566518 0.32566988 2.3727515
0.87698871 0.32715687 2.3717957
0.91601735 0.32838944 2.3712206
0.13980743 0.39936355 2.3667119
0.15667072 0.39871711 2.3621688
0.23879987 0.35669327 2.3862746
0.28574666 0.3578929 2.3909483
0.32073134 0.35829043 2.3906708
0.35654229 0.35946488 2.395261
0.42659256 0.35987279 2.3903899
0.51676369 0.35039839 2.3946457
0.57569349 0.35074672 2.3880057
0.61082804 0.35078534 2.382417
0.72425014 0.35482454 2.3895895
0.77483714 0.35634303 2.3895173
0.9279691 0.36287451 2.3991265
-0.02009299 0.42603576 2.3882487
0.0029236174 0.42542362 2.3849792
0.14002457 0.41141194 2.3690963
0.17791769 0.40450367 2.3781872
-0.020218477 0.49789512 2.3928347
0.019307163 0.48985478 2.3786638
0.072346352 0.4972316 2.3889797
0.037469428 0.5144763 2.3771918
0.060496762 0.50667608 2.3776453
0.02614818 0.55730689 2.3907909
0.072731651 0.55830765 2.3944712
2.2135611 2.4809191 2.3698218
2.2748883 2.4908142 2.3858531
2.3345239 2.4976304 2.3986659
0.98478591 -0.51839626 2.4217243
0.7047596 -0.41616383 2.4027226
0.95045429 0.19449322 2.4190264
0.25846395 0.36009407 2.4078383
0.34591621 0.37844867 2.443475
0.3749705 0.37211496 2.4302506
0.42210653 0.37209731 2.4271605
0.46547341 0.37291688 2.4251187
0.63605499 0.35508201 2.4084649
0.6726408 0.35565802 2.4057863
0.70245618 0.35576516 2.4007661
0.78277355 0.3599979 2.4141073
0.82581067 0.36046624 2.4075875
0.87997198 0.36385596 2.4188192
0.90834141 0.36227506 2.4000163
0.12649965 0.49390441 2.4296441
-0.05617344 0.50903881 2.4460309
-0.043809842 0.50298798 2.4171157
0.0029702601 0.51409632 2.4129803
0.12722889 0.51338089 2.4185452
-0.014660003 0.56349993 2.4174566
0.038071193 0.57352114 2.4082201
0.077479988 0.57232517 2.4196579
0.1338511 0.55906558 2.4488971
-1.5863063 2.2442579 2.4250889
-1.5718096 2.2549798 2.4304447
2.1106763 2.4759178 2.4302154
2.1692684 2.483366 2.4343333
2.2283363 2.4867048 2.4247706
2.2684348 2.4854052 2.4239433
2.3237624 2.4918895 2.4290063
2.3758771 2.4846783 2.4213064
2.426676 2.48052 2.4378102
2.2004244 2.5067918 2.4185905
1.0185035 -0.52625221 2.4529693
0.39508942 0.38025856 2.4503763
0.49371368 0.38304594 2.4567611
0.15746382 0.49903756 2.4537766
0.19630583 0.50731236 2.4927459
0.20829546 0.50710005 2.4910517
-0.057263453 0.56718397 2.486481
-0.038740035 0.57280457 2.4572003
0.12846564 0.56745028 2.4587235
1.8972963 1.0807313 2.4696214
1.9019828 1.1139145 2.4858096
-1.5873805 2.2443228 2.4809585
-1.561535 2.2567432 2.4636958
-1.5283732 2.2650855 2.4785128
-1.4756192 2.2576439 2.4865217
2.045547 2.483757 2.4849334
2.0815125 2.4945467 2.4780734
2.1228988 2.482691 2.4746172
2.1761258 2.4839821 2.4838531
2.2323918 2.4867578 2.4719996
2.2829118 2.4835608 2.475987
2.3294396 2.4847012 2.4678178
2.3711498 2.485425 2.4734333
2.4175704 2.4841707 2.4800456
2.4743195 2.4910643 2.4820495
2.5111241 2.4900451 2.484772
2.1041749 2.5000496 2.471704
1.010787 -0.50994867 2.5069232
1.073943 -0.52206963 2.5310962
0.19692068 0.49678448 2.5021703
0.20896184 0.49660972 2.5006382
0.21064128 0.5250209 2.5174346
0.12513104 0.5858174 2.5111656
1.9157333 1.1223812 2.5144091
-1.5828702 2.244767 2.5221407
-1.5615048 2.2529905 2.5208969
-1.5244539 2.265996 2.5249157
-1.4724898 2.2712739 2.5324032
-1.4310886 2.2777994 2.5380652
1.8691897 2.4526095 2.5495241
1.9736736 2.4835875 2.5309668
2.0221314 2.490067 2.5308928
2.0759437 2.4913819 2.5191171
2.1272442 2.4907999 2.5272827
2.1732826 2.4833126 2.5280333
2.2311192 2.4939485 2.5207851
2.2724714 2.4838428 2.5277131
2.3252003 2.481343 2.5095561
2.3729386 2.4787025 2.528384
2.4250758 2.479533 2.5274799
2.4708738 2.4813032 2.5290277
2.5222719 2.4817266 2.5321002
2.568084 2.4890163 2.5199156
2.6319158 2.4935555 2.5454044
1.0396779 -0.51471657 2.5614657
1.0573195 -0.50042832 2.5895524
1.1363686 -0.52674884 2.5620072
0.21509886 0.54859984 2.5689588
0.16705793 0.59247494 2.5942426
0.21033645 0.56777859 2.5588763
-1.5718142 2.2437305 2.5744507
-1.5500942 2.2574937 2.5590911
-1.5266991 2.259892 2.5750432
-1.4779739 2.2632403 2.5736678
-1.4240456 2.2735898 2.5783253
-1.3941714 2.2818165 2.5983238
1.82555 2.4655449 2.5955465
1.8546749 2.4568799 2.5648794
1.932525 2.4901402 2.5809953
1.9713 2.4841201 2.5648556
2.0258741 2.4896922 2.5920153
2.0715854 2.4909077 2.5787151
2.1249299 2.4911623 2.5729654
2.1738827 2.4865501 2.5769527
2.2211628 2.4840655 2.5744088
2.2804339 2.4842427 2.575469
2.3343041 2.4827557 2.5736749
2.3751802 2.4770169 2.5815339
2.426409 2.4715853 2.5708883
2.4878016 2.4758849 2.5699716
2.526401 2.475734 2.5897381
2.5719614 2.4825187 2.5689836
2.6196501 2.4856822 2.5764709
2.6644726 2.4792843 2.5770724
2.7267752 2.4870062 2.5868354
2.100662 2.5026345 2.563576
1.0819577 -0.51672739 2.6241982
1.1089566 -0.52557784 2.6402495
1.1554998 -0.51480079 2.6437869
1.2622005 -0.53331494 2.6354506
0.18341388 0.60484797 2.6478467
-0.23350938 0.94755208 2.6400371
-1.3278891 1.0144229 2.6310978
-1.4081427 1.3976249 2.6219957
-1.3568932 1.3907712 2.6278887
-1.3396021 1.3808043 2.6320968
-1.4102913 1.4296776 2.6402314
-1.3868269 1.4211493 2.6442726
-1.3487149 1.4124846 2.6405995
-1.4081892 1.4576596 2.6367724
-1.3806199 1.4726506 2.6416788
-1.3695768 1.5302795 2.6455462
-1.5489075 1.5846256 2.6463161
-1.4319198 1.5977161 2.648138
-1.390448 1.5622503 2.6451442
-1.5545843 1.6138356 2.644177
-1.5353832 1.6336876 2.647686
-1.4224862 1.6271785 2.6472061
-1.7196141 1.6818405 2.6390724
-1.5544238 1.6851251 2.6495872
-1.5336988 1.679656 2.6486952
-1.4256183 1.6944317 2.6499896
-1.7219557 1.710875 2.6349955
-1.6961577 1.7171445 2.6412351
-1.5603878 1.7153267 2.6468613
-1.5345031 1.7286527 2.6460781
-1.4124842 1.7206905 2.6488683
-1.7153692 1.7689047 2.6382921
-1.420254 1.7614764 2.6461921
-1.5669764 1.8203943 2.6476877
-1.55566 1.8500448 2.6495409
-1.7486532 1.9026976 2.6445773
-1.557783 1.9370428 2.64902
-1.7518299 1.9829394 2.6467123
-1.7152501 1.9867296 2.6400831
-1.7346486 2.0074985 2.6390879
-1.7297045 2.0724845 2.641907
-1.751395 2.1489809 2.629504
-1.7383403 2.1172531 2.637774
-1.5703102 2.1451588 2.6432354
-1.7566229 2.1725137 2.6249845
-1.7312872 2.1741645 2.634232
-1.5652624 2.176048 2.6433384
-1.5444126 2.1894474 2.6494691
-1.7341297 2.2107077 2.6195216
-1.5671691 2.2255967 2.6165874
-1.5324333 2.2315032 2.6326737
-1.4763864 2.2400289 2.6356621
-1.4261777 2.2429023 2.6374445
-1.515785 2.251821 2.6065311
-1.4666216 2.2575591 2.6021342
-1.4218619 2.2588069 2.618238
-1.3987777 2.2726326 2.6197212
-1.4185691 2.3387079 2.6306303
1.778787 2.4749143 2.6371434
1.8331268 2.4788632 2.6317413
1.8707323 2.4819798 2.6207407
1.9246831 2.4861016 2.629148
1.9756988 2.4839942 2.6152103
2.0184438 2.484695 2.6323833
2.0651515 2.4874818 2.6285536
2.1236839 2.4881318 2.6243303
2.170763 2.4808908 2.6258979
2.2229397 2.4834831 2.6288643
2.2726099 2.4826293 2.6278472
2.3286641 2.478056 2.6237714
2.3823531 2.4754074 2.6284826
2.433919 2.4794383 2.6146922
2.4805293 2.478101 2.6269753
2.5303397 2.4791141 2.6415663
2.568645 2.4785581 2.6127691
2.6171665 2.4773362 2.6244657
2.7181282 2.4963899 2.6356304
2.7676568 2.4941168 2.6457391
1.1326697 -0.51303387 2.6812224
1.1726168 -0.51546109 2.6836133
1.2239172 -0.51685601 2.6754942
1.2719133 -0.5244199 2.6834564
1.3009422 -0.51588756 2.6863134
1.3640759 -0.5213331 2.6970458
1.4641024 -0.52429891 2.6769986
1.5448087 -0.51813966 2.6972909
0.15996574 0.62667418 2.6853514
0.23887785 0.60204905 2.6921077
-0.25213662 0.98201382 2.6943753
-0.24398305 0.95629716 2.6843209
-1.3344562 1.0275207 2.6852522
-1.3543735 1.0664372 2.6993191
-1.3587956 1.426993 2.6692247
-1.3590838 1.4716033 2.6682701
-1.3572335 1.521422 2.6776681
-1.5184329 1.5813144 2.6640916
-1.4775623 1.5907463 2.6727064
-1.4207399 1.5784665 2.6525342
-1.3673028 1.5773633 2.673172
-1.5165029 1.6145825 2.657366
-1.4731007 1.6266806 2.6573057
-1.4289753 1.6183984 2.652523
-1.3747137 1.6247075 2.6549125
-1.5501531 1.6647854 2.6506679
-1.5167147 1.6782348 2.6539369
-1.477743 1.6695805 2.6550117
-1.4227785 1.6729393 2.6541851
-1.3783232 1.6771365 2.6643856
-1.5201458 1.7193986 2.6546891
-1.4784422 1.7328688 2.6679831
-1.4299104 1.7276356 2.6542425
-1.3800296 1.7190157 2.6598952
-1.5587814 1.7789516 2.6523464
-1.520452 1.7714167 2.6567099
-1.4737281 1.7793617 2.6614816
-1.4214245 1.7772566 2.6560009
-1.3815882 1.7742215 2.6679103
-1.5522068 1.8298802 2.6532009
-1.5287836 1.8152771 2.6610167
-1.4774265 1.8247505 2.6604049
-1.4250851 1.8285053 2.661375
-1.3791567 1.8238941 2.6766658
-1.7361658 1.8815769 2.6531067
-1.562366 1.8741829 2.6512151
-1.5282294 1.8719386 2.6640372
-1.4740028 1.8778619 2.6685617
-1.4247402 1.8766043 2.6637301
-1.3830196 1.8741709 2.6780565
-1.7299331 1.9401709 2.6563976
-1.5653611 1.9119376 2.6591744
-1.5228814 1.9258858 2.6661074
-1.4711784 1.9290766 2.6696687
-1.4229989 1.9196762 2.6681073
-1.3827963 1.9238274 2.6782222
-1.7309766 1.9698446 2.6554556
-1.5677201 1.9843471 2.6682596
-1.5274953 1.9748502 2.6719441
-1.4795374 1.9763919 2.6721361
-1.4204701 1.9677739 2.6723917
-1.3803059 1.9855303 2.6889946
-1.7265648 2.0343959 2.6507154
-1.5606564 2.0286846 2.6633222
-1.5223275 2.0143204 2.668488
-1.4771464 2.0307438 2.6719661
-1.422534 2.0220761 2.673403
-1.3937958 2.0189092 2.6884413
-1.5634514 2.0672476 2.6618159
-1.5233074 2.0764384 2.6713634
-1.4734013 2.0728793 2.6707246
-1.4287069 2.0774348 2.6694715
-1.3944496 2.0741904 2.6905448
-1.5636035 2.1268895 2.6560066
-1.5279268 2.1274812 2.6639807
-1.4743546 2.1191254 2.6688068
-1.415868 2.1261089 2.6734309
-1.3871493 2.1293879 2.6878767
-1.7218682 2.1546574 2.6562071
-1.5199273 2.1731861 2.6593835
-1.4716204 2.1696496 2.6699286
-1.4257553 2.170975 2.6710639
-1.391667 2.1810668 2.684737
-1.5198126 2.2072027 2.6510863
-1.4719595 2.2103615 2.6642597
-1.4179643 2.2253387 2.6630695
-1.3867699 2.2216263 2.6798706
-1.3897758 2.2600594 2.6610341
-1.4084396 2.3245127 2.6710796
-1.4091734 2.3656278 2.672965
1.6019903 2.451015 2.6998844
1.6713915 2.4618425 2.6785455
1.7259184 2.4716372 2.6728628
1.7784765 2.4706726 2.6827424
1.8258827 2.4754007 2.6726844
1.8805695 2.4806616 2.6833639
1.9230227 2.4787281 2.672312
1.9824953 2.4833593 2.6678135
2.0250795 2.4810255 2.6772904
2.0738094 2.4811072 2.6793129
2.123404 2.4815307 2.6813288
2.1632848 2.4796653 2.6629772
2.2201457 2.477777 2.6789267
2.2683296 2.4748802 2.6759083
2.3303921 2.4810479 2.6749275
2.3831341 2.476896 2.6784251
2.4304376 2.4761844 2.6595154
2.473722 2.4809043 2.6857605
2.519706 2.4779248 2.6801388
2.571424 2.4804411 2.6635945
2.6233273 2.4726863 2.6614189
2.6868894 2.4914677 2.6665468
2.7291682 2.4857938 2.6758032
2.7836246 2.4882746 2.6745028
2.8202114 2.4862838 2.6782796
2.8502624 2.4821842 2.6653078
2.900749 2.4877369 2.6912799
1.1271042 -0.50223553 2.7449615
1.1723365 -0.51261663 2.7298658
1.212612 -0.51395714 2.7039986
1.2780408 -0.51700556 2.7302172
1.3427101 -0.52018952 2.7274675
1.3728676 -0.51314551 2.7329967
1.413291 -0.51750833 2.7456825
1.4804389 -0.51835471 2.7250743
1.5858083 -0.51232785 2.7390487
1.6071974 -0.50979972 2.7128069
1.821048 -0.5143683 2.7476544
1.8724887 -0.51599604 2.7324746
1.9149845 -0.5039708 2.7354722
1.9514685 -0.52081072 2.7242975
2.1004279 -0.50372958 2.7486825
-1.1606629 0.56489778 2.7222486
0.61214161 0.59530008 2.7488036
0.17703019 0.64120084 2.7470472
0.21483566 0.62112218 2.7177675
0.5014658 0.61930192 2.7460279
0.71870267 0.64045596 2.7454309
0.79655188 0.60180193 2.74775
0.82634884 0.62417293 2.7471967
0.95563549 0.60734963 2.7395053
-1.3360071 0.99060178 2.718188
-0.32328561 0.98381674 2.7405248
-0.27654082 0.97225815 2.7258306
-0.21608484 0.97727954 2.7201457
-0.1819088 0.98428029 2.7372971
-1.3513608 1.0461879 2.7369466
-1.3049937 1.0182481 2.7167749
-0.32415304 1.0276212 2.7373075
-0.27780724 1.023579 2.7213306
-0.22112478 1.0211221 2.7219541
-0.17616843 1.0285605 2.7391121
-1.3489326 1.0663691 2.7255392
-1.2904017 1.059221 2.7496963
-0.32043546 1.0615413 2.7423882
-0.27877226 1.0625689 2.7312236
-0.21612142 1.0675768 2.7354436
-0.18581276 1.0706341 2.7449529
-1.3647255 1.4845192 2.7345967
-1.3713114 1.5225956 2.7341902
-1.370963 1.6333076 2.7271302
-1.3673345 1.6680187 2.7005808
-1.3768822 1.7625252 2.7242575
-1.3826721 1.8712796 2.7296367
-1.3949789 1.9925711 2.7443931
-1.3903921 2.084475 2.7276397
-1.3848313 2.1009898 2.7002566
-1.3934833 2.1902246 2.7228098
-1.4040604 2.285414 2.7479744
-1.3908675 2.2809732 2.7097161
-1.4053468 2.3305626 2.7187028
-1.4091667 2.3860226 2.720448
-1.3811483 2.3853703 2.7258914
-1.3392398 2.3936315 2.7432265
1.5354799 2.4581285 2.7437797
1.5747377 2.463902 2.7323723
1.6413338 2.47019 2.7068768
1.6693084 2.467226 2.7281191
1.7230762 2.4824758 2.7351007
1.7786908 2.4780154 2.7355092
1.8258047 2.4726186 2.7319069
1.8694276 2.4727268 2.7278466
1.9249806 2.4713678 2.7246504
1.9796391 2.4781868 2.7200291
2.0227349 2.4729185 2.7326398
2.0771909 2.4775796 2.7165003
2.1210091 2.477143 2.7328045
2.1791959 2.4801803 2.7224522
2.2263558 2.4717581 2.7309361
2.274245 2.4725718 2.7152119
2.3243084 2.4757512 2.7178862
2.3713775 2.4850504 2.7172878
2.4246066 2.4755497 2.7238522
2.4674983 2.4746165 2.7285619
2.5275805 2.4723785 2.7142811
2.5985408 2.4962063 2.7233291
2.6236758 2.4861412 2.7245934
2.680269 2.4894717 2.7365229
2.7337039 2.4880369 2.7288523
2.779541 2.4823654 2.7187927
2.8274326 2.4773109 2.726239
2.8805201 2.4800732 2.7275658
2.9295969 2.4916875 2.7314293
2.9671457 2.4861705 2.7284558
3.0167625 2.4707093 2.7331772
1.1853327 -0.50623125 2.7523186
1.2860276 -0.50836492 2.7791088
1.3273042 -0.51486832 2.7599144
1.4279616 -0.51228577 2.7825191
1.4723091 -0.51709795 2.768019
1.5171062 -0.51390177 2.7780209
1.5731564 -0.51036656 2.7819118
1.616447 -0.50495756 2.7779412
1.6521214 -0.50677449 2.7748296
1.7210286 -0.51543254 2.7770848
1.769399 -0.51744968 2.7679825
1.8250091 -0.50996435 2.770016
1.8689976 -0.50603616 2.7753983
1.9167159 -0.51055455 2.7837987
1.9811605 -0.50409132 2.7797935
2.0306046 -0.50210255 2.7773235
2.0732203 -0.50288069 2.7583935
1.1363122 -0.49226934 2.7691917
1.1775324 -0.49478236 2.7729721
1.2259903 -0.49720061 2.7735012
1.8704014 -0.49309555 2.7951901
1.9509107 -0.49785265 2.7890046
2.0770743 -0.48992074 2.7810795
2.1322017 -0.4916482 2.7618783
2.1727843 -0.48122597 2.7857542
-1.1780409 0.58393031 2.7808046
0.2442944 0.58893019 2.7570481
0.27821428 0.58989334 2.7594156
0.32578754 0.59111118 2.7616971
0.37301832 0.59145015 2.7592902
0.42699277 0.59174591 2.755446
0.47513819 0.59310037 2.7565851
0.52343822 0.59439719 2.7568383
0.57910717 0.59610313 2.7574406
0.63375294 0.59654164 2.7514057
0.67358685 0.59726483 2.7710974
0.73623067 0.59461987 2.7932265
0.76582366 0.59612972 2.7952414
0.87498599 0.59498686 2.7674036
0.92667365 0.59709972 2.7662432
-1.1771827 0.60855126 2.7944536
0.19093144 0.64303613 2.7543125
0.23203726 0.63665849 2.7645435
0.27499208 0.62513965 2.7693179
0.32424042 0.6261692 2.7704332
0.3750093 0.6216597 2.7700417
0.42722484 0.62049347 2.7653582
0.474893 0.62466401 2.7670035
0.5288223 0.62557775 2.7709434
0.5787853 0.62592244 2.7721293
0.62724835 0.63015944 2.7719305
0.67497873 0.62780583 2.7723994
0.7302683 0.62112308 2.7713161
0.77439404 0.62654537 2.7684357
0.82373977 0.61997569 2.7612321
0.8744911 0.62231851 2.7615368
0.92455775 0.62347823 2.7619102
0.97983932 0.62391406 2.7675173
1.0257801 0.62336677 2.7647736
1.0724599 0.6261121 2.7656105
1.1228538 0.6195122 2.7612891
1.1763186 0.62446946 2.7635236
1.2241744 0.62719589 2.7622683
1.2754331 0.63141799 2.7668376
1.3262326 0.62222224 2.7716627
1.3730392 0.6234321 2.7682955
1.4127508 0.62822306 2.7787256
-1.180089 0.67463481 2.7906873
0.22039863 0.66450816 2.7847142
0.29020405 0.66914266 2.7999647
0.32213032 0.6577819 2.7793291
0.37196767 0.65570909 2.7763622
0.42546079 0.65352434 2.7820213
0.47239944 0.65255058 2.7726848
0.52871448 0.65495187 2.7762403
0.57763129 0.65629703 2.7755013
0.62713552 0.65804744 2.7758179
0.67661089 0.65951198 2.7743101
0.72413427 0.66781282 2.7815771
0.77676648 0.66294122 2.7713706
0.82463062 0.65705854 2.7720692
0.87754673 0.6631695 2.7789307
0.92667913 0.6645816 2.7788327
0.97294652 0.66139907 2.7731028
1.0303674 0.66129136 2.7713823
1.0777196 0.66448528 2.7733727
1.1249417 0.66027266 2.7745793
1.1759074 0.66503114 2.7818613
1.2231041 0.66740251 2.7784355
1.2784197 0.66288465 2.7744739
1.3283612 0.65903556 2.7750626
1.3773843 0.66626441 2.774508
1.4026862 0.68039531 2.7667027
-1.1751543 0.7046687 2.7931404
1.3982635 0.72698629 2.7846236
1.4056077 0.73611748 2.7711601
1.3980131 0.78556532 2.7722745
1.4139463 0.7772913 2.7800918
1.3978744 0.82438278 2.7727647
1.3959558 0.87418902 2.7849355
1.4023917 0.87134552 2.7715874
-1.1909401 0.9327144 2.7841744
1.3909055 0.92599469 2.7739866
1.4181727 0.92354327 2.7831032
-1.2216879 0.96313012 2.7712808
-1.1821828 0.95196164 2.7988524
-0.35681811 0.98411375 2.7757676
-0.32302013 0.95611191 2.7655964
-0.23158865 0.96837205 2.7826569
-0.1660831 0.98097402 2.7649262
-0.14843516 0.9877696 2.7777662
1.3934646 0.97054768 2.7782178
1.4002365 0.99578077 2.7633641
-1.3179682 1.0389203 2.7936466
-0.36224455 1.0277967 2.7808492
-0.34124511 1.0275214 2.7509439
-0.1612899 1.0094113 2.7540107
-0.14191417 1.0252453 2.7772853
1.3866081 1.0244504 2.7830069
1.4059834 1.0222573 2.7685037
-1.3529682 1.0664126 2.7737556
-1.3396171 1.075114 2.7802737
-1.2852992 1.0820105 2.7712588
-0.36094865 1.0656661 2.7900264
-0.32359162 1.0858415 2.7654233
-0.27351353 1.0909996 2.7528644
-0.23856394 1.0860577 2.7523112
-0.16771062 1.0784642 2.7692058
-0.14892563 1.0603497 2.7692993
1.3908682 1.0801449 2.7765315
1.4198606 1.0625044 2.7872219
-1.2211496 1.1219662 2.7669976
-0.31725264 1.1020427 2.7678764
-0.27633187 1.1195546 2.7759125
-0.2323821 1.1102575 2.7555335
-0.17883646 1.1085975 2.7930684
1.3849965 1.1256529 2.7805145
1.4034481 1.1367428 2.7675905
-1.2365956 1.1511073 2.7974133
-1.1858866 1.1602908 2.7934661
1.3881041 1.1762202 2.776125
1.416013 1.1773155 2.7826214
1.3843229 1.2206603 2.7814744
1.4156568 1.229032 2.7844996
1.3811853 1.2672105 2.7844391
1.4135191 1.2799392 2.7823932
1.3866966 1.3280281 2.7858272
1.4260855 1.3222524 2.7958622
1.3741449 1.3800799 2.7960048
1.415346 1.3733168 2.7830334
-1.2366345 1.4247801 2.7909651
1.3749775 1.4260104 2.7952456
1.4330876 1.423481 2.7898402
-1.3623027 1.4910029 2.7703216
1.3733492 1.4741205 2.7974536
1.424738 1.4709164 2.7836883
1.4505569 1.4786512 2.7908542
-1.3682528 1.5331271 2.7783189
1.2654554 1.5424272 2.7968514
1.3252616 1.5329784 2.7948103
1.3793846 1.5196295 2.7856503
1.4240299 1.5245864 2.7869182
-1.3713056 1.5773164 2.7823188
1.3215476 1.5534648 2.7996371
1.358137 1.5594734 2.7984552
-1.375049 1.6247087 2.776989
-1.0644109 1.6417242 2.7950168
-1.0313996 1.638464 2.7985377
-1.3740706 1.6815068 2.7828054
-1.0719966 1.6724659 2.7776911
-1.0278263 1.6701653 2.7829719
-0.99005145 1.6742948 2.7930477
-1.3837594 1.7234744 2.762933
-1.0635159 1.727909 2.7649093
-1.0247245 1.7196816 2.7738798
-0.98463613 1.7290058 2.7917213
-1.3883119 1.7897916 2.7899389
-1.066329 1.7739745 2.7657413
-1.0272245 1.7739393 2.7775152
-0.98912275 1.7756108 2.7914131
-1.396492 1.8329407 2.7888579
-1.0675666 1.8206733 2.775382
-1.0232476 1.8168848 2.7848182
-1.3908172 1.8679682 2.7711296
-1.078432 1.8577427 2.793689
-1.4030386 1.9378073 2.7999406
-1.4006031 1.9509834 2.7853961
-1.3986982 1.9731033 2.7668104
-2.5766814 2.0286953 2.7866721
-2.5882277 2.0570204 2.7871437
-1.3949105 2.0662663 2.7527447
-1.4070895 2.1860676 2.7670074
-1.4007449 2.2199814 2.7839346
-1.412272 2.2728179 2.7826519
-0.65505946 2.2750692 2.7968323
-1.4040971 2.3311362 2.7770324
-1.395341 2.3311405 2.7808838
-1.4038074 2.3655019 2.750669
-1.3766097 2.3792222 2.7713177
-1.319563 2.3877039 2.7805996
-1.2880005 2.3946102 2.7783206
-1.2093709 2.3938475 2.7957439
-1.319232 2.4045334 2.7667737
-1.2614746 2.4105778 2.7984719
-1.2299161 2.4001143 2.7964637
1.4664282 2.461689 2.7817714
1.5168784 2.4623144 2.7785141
1.5767498 2.4655576 2.7837155
1.6245553 2.465723 2.765744
1.6720442 2.4664652 2.7664344
1.7201868 2.4699411 2.7768431
1.7736011 2.467113 2.7745886
1.8253597 2.4635947 2.7781153
1.8786176 2.4693172 2.7820084
1.9291945 2.4662297 2.7762496
1.9749756 2.4770033 2.7654946
2.016012 2.4641669 2.7789772
2.0761585 2.4704113 2.7739465
2.1270475 2.4666681 2.7809367
2.1767483 2.4703569 2.7778583
2.2258632 2.4732397 2.7815294
2.2771106 2.4675665 2.7767477
2.3261874 2.4789112 2.7708371
2.3807542 2.4823477 2.7715042
2.4103465 2.4762712 2.7726631
2.4657731 2.4728787 2.7770786
2.5262859 2.4837115 2.7702086
2.5851688 2.4821556 2.7757623
2.6318157 2.4781933 2.7685194
2.6736631 2.4781837 2.7902241
2.7255893 2.4783955 2.7784488
2.7785435 2.46928 2.7654963
2.826483 2.4738371 2.7743711
2.8757889 2.4690163 2.7822964
2.9313474 2.4706697 2.7708149
2.9801941 2.474962 2.7700119
3.0222435 2.4725492 2.7704117
3.0686598 2.4620643 2.788954
1.2801996 -0.50744271 2.8215041
1.333488 -0.50748473 2.8282118
1.3801596 -0.50851119 2.8188367
1.4222194 -0.50205708 2.8351946
1.4704536 -0.50336701 2.826164
1.5192004 -0.50480253 2.8170397
1.559376 -0.50575918 2.8074298
1.6904564 -0.50604868 2.8243732
1.7257175 -0.50239694 2.8190224
1.7798934 -0.50477129 2.8106835
1.8261874 -0.50697446 2.8041124
1.1447532 -0.47049919 2.8126657
1.1677552 -0.4827323 2.8385034
1.2418053 -0.49499577 2.8488231
1.2710396 -0.49502581 2.8399208
1.3535476 -0.49856219 2.8361139
1.4147767 -0.49943617 2.8204391
1.4898703 -0.49253339 2.8482871
1.5319483 -0.49404833 2.8425279
1.5689813 -0.49389589 2.8266585
1.6232172 -0.49904087 2.8403509
1.6688051 -0.49370271 2.8380518
1.7203979 -0.48999378 2.8444462
1.7789619 -0.48641768 2.8374581
1.8314993 -0.48973912 2.8372738
1.8799819 -0.4808192 2.8380487
1.9253738 -0.48871061 2.8200886
1.9794748 -0.48142558 2.8330557
2.0206597 -0.47678071 2.8217745
2.0813897 -0.47473532 2.8205247
2.1340783 -0.47934657 2.8288703
2.1658692 -0.47430402 2.8152821
2.2405074 -0.45968699 2.8454242
1.1585145 -0.44728729 2.8497331
1.1272351 0.29177356 2.8247221
1.1280464 0.31333208 2.8251567
0.35974225 0.4385438 2.8351438
2.9056332 0.439226 2.8446941
2.7847743 0.46608269 2.8372219
2.829813 0.48214266 2.8417571
2.8709068 0.49112821 2.836694
2.9273262 0.48163304 2.8342323
2.8485005 0.50848407 2.8455615
2.9336667 0.51556551 2.8439631
-1.1705693 0.58734334 2.8011611
0.4930858 0.59312993 2.8220096
0.68297827 0.59642744 2.8112862
0.70925188 0.59516937 2.8007014
2.9692314 0.59434658 2.8483667
-1.1730607 0.60294557 2.8049512
0.7863183 0.60120517 2.8163924
0.82296717 0.60245651 2.8153515
0.85614109 0.6011731 2.8021972
1.283331 0.61103147 2.8129921
2.9691887 0.61287338 2.8448606
-1.1796557 0.69293457 2.8064244
0.24967024 0.67028898 2.807404
0.27836034 0.67352176 2.8192189
1.438729 0.6734699 2.8062019
2.9836349 0.69035977 2.8436706
1.4070635 0.70939326 2.8063667
1.4575539 0.71227801 2.8374631
3.0113657 0.71117353 2.8310335
3.0716829 0.73992479 2.8480499
3.1280608 0.7466554 2.8466477
3.0757241 0.75986433 2.8474252
3.1187079 0.7753675 2.8492622
3.1668801 0.76097667 2.8439379
3.217381 0.78790367 2.8486135
3.2735481 0.78476954 2.8462577
1.4276031 0.83672047 2.811018
3.1211622 0.80466318 2.8445871
3.2407837 0.8010481 2.8490047
3.2792637 0.80575794 2.8465514
1.4572719 0.87095618 2.8406951
-1.2730263 0.99506569 2.8066802
-1.2126318 0.98080409 2.8060369
-1.1885457 0.97722656 2.8174007
-0.37353984 0.98342401 2.8267872
-0.20569402 0.97658616 2.8077724
-0.17190877 0.98328459 2.828618
-0.12940519 0.99403036 2.8174517
1.4371796 0.9736203 2.8107758
-1.3096607 1.0302392 2.8033853
-1.2799958 1.0303881 2.8139756
-1.2285116 1.0247784 2.8133619
-1.190747 1.0242063 2.8236473
-0.37643641 1.0276759 2.8105755
-0.12615034 1.0205271 2.8168457
1.4584395 1.0263268 2.8420746
-1.2765381 1.0785732 2.8128166
-1.2230668 1.0732353 2.8145404
-1.1903192 1.0679923 2.821425
-0.13697112 1.0682635 2.810698
1.4359243 1.0973619 2.8120432
1.4626852 1.060001 2.8418083
-1.2206914 1.1166084 2.810236
-1.1908511 1.1203436 2.8187168
-0.35306045 1.1130397 2.8328941
-0.33600172 1.1180207 2.8068485
-0.20914204 1.1348104 2.8180573
-0.16660459 1.1206961 2.824157
1.3834611 1.1223379 2.8065901
1.4458654 1.1203055 2.826895
1.4689058 1.1404675 2.8445003
-1.2157516 1.1525869 2.8083673
-1.1914715 1.1731379 2.8380487
-0.26717713 1.1546353 2.8244913
1.4624879 1.1727505 2.8369982
1.4376166 1.2338113 2.812254
1.4618672 1.2258049 2.8284042
2.1151888 1.2406635 2.8121655
1.3685415 1.2808292 2.8021505
1.4448158 1.2554905 2.8210242
1.4585146 1.2784572 2.8300698
2.139688 1.2719914 2.8383582
1.3711601 1.3267088 2.806098
1.4571615 1.3287522 2.8227632
1.3637062 1.3603255 2.8042955
1.4370977 1.3714379 2.8026967
1.4641039 1.374392 2.8214331
-1.1907914 1.4341333 2.8272593
1.3599849 1.4345204 2.8102789
1.4808602 1.4218848 2.8413277
-1.273319 1.4776497 2.8311102
-1.2238547 1.4769564 2.8302839
-1.1970632 1.4900652 2.8476586
1.3647722 1.4865351 2.8009295
-1.3544979 1.5283887 2.814363
-1.3218849 1.5237354 2.8369968
-1.2728275 1.5264486 2.8342254
-1.2272799 1.5222517 2.8353021
-1.1993804 1.5163947 2.8435762
-0.05568397 1.5310874 2.8441358
-0.022994494 1.5380492 2.8439667
0.021135159 1.5437407 2.8455737
0.078108087 1.539314 2.8422649
0.11511779 1.536948 2.8369851
0.17631863 1.538449 2.8407836
0.23461781 1.5418142 2.8406043
0.27180555 1.5415217 2.8376057
0.32890582 1.5392532 2.8345563
0.37301189 1.5406573 2.8359766
0.41749272 1.5396399 2.8294971
0.47470117 1.5400921 2.8321576
0.52939683 1.547123 2.8382156
0.57334119 1.5442032 2.8263581
0.62375927 1.5384778 2.8272913
0.67440259 1.5412214 2.8300729
0.72851008 1.5403194 2.8270772
0.77512294 1.5430082 2.822937
0.81439823 1.5457752 2.8199568
0.86881286 1.5406948 2.8156397
0.91832227 1.5397712 2.8200409
0.96739322 1.5451587 2.8181932
1.0317802 1.538502 2.8151696
1.0789388 1.5362812 2.8064096
1.1298107 1.5428305 2.8042405
1.1707617 1.5391036 2.8091605
1.2179446 1.5413789 2.8111782
1.2702508 1.5482689 2.8073964
1.3020399 1.5332602 2.8040624
1.3644464 1.5340915 2.8025908
1.4720228 1.5164993 2.8253384
-1.3616453 1.5885534 2.8179483
-1.3290135 1.5716478 2.8351033
-1.276547 1.5735641 2.8381214
-1.2249714 1.576141 2.841445
-0.063309453 1.5507329 2.8468966
-0.040955741 1.5509981 2.8476925
0.093224779 1.5508027 2.8464382
0.13791138 1.5503719 2.8443184
0.17533034 1.5517218 2.8452263
0.21248081 1.5507303 2.8416102
0.30954802 1.5515702 2.8365936
0.38462794 1.55361 2.8335853
0.42929178 1.5530927 2.8278832
0.47558805 1.5579488 2.8313706
0.53057438 1.5655446 2.8382518
0.57541186 1.5648872 2.8305109
0.60788804 1.570967 2.8368132
0.6823473 1.5534978 2.8258584
0.72871715 1.5558714 2.8216679
0.77895755 1.5658113 2.8305247
0.82879168 1.5689112 2.8375788
0.9202742 1.558354 2.8196898
0.97200173 1.5678238 2.8249791
1.0218472 1.5645176 2.8269982
1.0755188 1.5577924 2.8132524
1.1168059 1.5616626 2.8085258
1.180252 1.5604445 2.8112183
1.2290647 1.5612036 2.8094382
1.2701335 1.5734193 2.8204026
1.3175919 1.5665468 2.8151944
1.3870054 1.5743773 2.8189876
1.4268448 1.5749297 2.8144517
1.4566939 1.565064 2.8121552
-1.3592008 1.6269432 2.8178568
-1.3213278 1.6293862 2.8372307
-1.2774249 1.6243118 2.8428726
-1.2236563 1.6242596 2.8419402
-1.022426 1.6405805 2.8050411
-0.9735741 1.645193 2.8272412
1.4761755 1.6021823 2.8424473
-1.3614895 1.6747154 2.8257802
-1.3322159 1.6777139 2.8443425
-1.2729055 1.6738393 2.845274
-1.2229291 1.6704746 2.8444293
-1.0841174 1.6522386 2.8275776
-1.0006018 1.6540909 2.8004835
-0.9696101 1.674876 2.8166027
-0.94748169 1.669398 2.8431251
-1.3710822 1.7291039 2.8248243
-1.327083 1.726963 2.8468871
-1.268332 1.7240067 2.847225
-1.2491308 1.7197387 2.8458805
-1.0998586 1.7351931 2.8118668
-0.96239567 1.7301236 2.8186045
-0.94966513 1.7045219 2.8352561
-1.3809357 1.7716321 2.8172846
-1.2203063 1.7566392 2.8490217
-1.1072001 1.7626593 2.8227792
-0.96491069 1.7808282 2.8246891
-1.3812864 1.8261135 2.8331432
-0.97569233 1.8265556 2.8198168
-1.3895769 1.8728789 2.8256636
-1.0291229 1.8748746 2.825527
-1.4026252 1.9206733 2.8086679
-1.3919466 1.9205068 2.8321381
-1.4041576 1.9792985 2.8327816
-1.3898739 1.9828122 2.8448415
-1.4105289 2.0304079 2.8204608
-1.3944077 2.014585 2.8391461
-1.4075511 2.0695386 2.8213637
-1.4062023 2.1295643 2.8311446
-1.409011 2.1680954 2.8144302
-2.3027713 2.2328873 2.8413358
-2.2587867 2.2461195 2.8474729
-1.4062023 2.2250729 2.8276038
-1.3910574 2.2197955 2.8451834
-2.2198069 2.2638338 2.8088703
-1.4038184 2.2697821 2.8200626
-1.3880159 2.2848442 2.8430264
-0.67757463 2.2955191 2.8186641
-0.62386411 2.2815173 2.8110399
-0.57709414 2.2927625 2.8337507
-0.53521508 2.2911334 2.8385277
-1.4088793 2.304179 2.8117833
-1.3802739 2.3235233 2.8334262
-1.328005 2.3415339 2.8432698
-1.2917702 2.3481684 2.8484538
-1.3727076 2.3606181 2.8142719
-1.3297595 2.3692725 2.8208508
-1.2688149 2.3749237 2.8251181
-1.2296124 2.3816872 2.8374848
-1.1758471 2.3961797 2.8112943
-1.2051196 2.4113352 2.8394289
-1.1627909 2.4050643 2.8279819
1.2751627 2.4367328 2.8290961
1.3551104 2.4447966 2.8266513
1.4709131 2.4482598 2.8390665
2.1710138 2.4471574 2.8368311
2.2135065 2.4429359 2.8494968
2.953073 2.4450989 2.8433661
3.2078657 2.4481411 2.8273928
1.3196707 2.4538827 2.8347576
1.3819991 2.4534566 2.8208816
1.4216534 2.4598145 2.822741
1.4748636 2.4578764 2.8116066
1.5194596 2.4540491 2.8248646
1.5775627 2.4636767 2.8242819
1.6273714 2.4629087 2.8254158
1.6760384 2.4645891 2.8277116
1.7292007 2.4577823 2.8227551
1.7762876 2.4559441 2.8196623
1.8408122 2.4621387 2.8363199
1.8831736 2.459456 2.8295925
1.927043 2.4583621 2.8241863
1.9746301 2.4616208 2.8231945
2.0281267 2.4613111 2.8276072
2.0676997 2.4644864 2.8233938
2.1178048 2.4594488 2.8294706
2.1624904 2.4567595 2.8113427
2.2280881 2.4576871 2.8333387
2.267931 2.4594262 2.8256283
2.3163819 2.4597356 2.8091149
2.3703537 2.4708838 2.8289738
2.4286132 2.4719336 2.819128
2.4699252 2.4669831 2.831583
2.5190639 2.4761183 2.821665
2.5690005 2.4721987 2.8212903
2.628062 2.4730301 2.8277354
2.6839716 2.4636152 2.8259223
2.7430897 2.4727249 2.8356202
2.7781215 2.466156 2.8234823
2.8319519 2.4629743 2.8222272
2.8794336 2.4591658 2.8342683
2.9288011 2.4546509 2.8246334
2.9728873 2.4546485 2.8191409
3.0212905 2.4678257 2.8186467
3.064362 2.4543004 2.8342576
3.1303866 2.4628799 2.8205526
3.1924586 2.4528675 2.8499293
1.2697432 -0.50025928 2.8745649
1.3288945 -0.50033927 2.856113
1.3793209 -0.50260168 2.8540132
1.1911399 -0.46887234 2.8880742
1.2229451 -0.47458479 2.8811445
1.2761639 -0.47502097 2.8845875
1.3236669 -0.47721106 2.8847976
1.3767973 -0.47724628 2.8883958
1.4271035 -0.48032671 2.8792343
1.4723061 -0.47134009 2.8818164
1.526175 -0.47177994 2.8804367
1.5761201 -0.47127759 2.8824632
1.6283406 -0.47317636 2.875294
1.6754521 -0.47057945 2.8692327
1.7289112 -0.47167987 2.8677514
1.7774005 -0.46292886 2.8716152
1.8272326 -0.4611848 2.8763494
1.8675877 -0.46068048 2.865468
1.9367378 -0.45887846 2.8685379
1.9685621 -0.46376717 2.8591397
2.0715716 -0.45881557 2.8645253
2.1230075 -0.45397139 2.8647957
2.1752098 -0.45637417 2.8554442
2.2211523 -0.45909989 2.8521991
1.1738125 -0.42474395 2.8740125
1.2255982 -0.43088457 2.8958783
1.2760319 -0.43616271 2.8963315
1.3281702 -0.44615051 2.8983023
1.3714473 -0.44065732 2.8996437
1.5331219 -0.43514284 2.8980026
1.5763077 -0.43472815 2.8985054
1.6306237 -0.43698856 2.8949387
1.6757661 -0.43102872 2.8911989
1.7241974 -0.42575452 2.8916416
1.7711895 -0.42464277 2.8901525
1.8242536 -0.42320529 2.8923154
1.8732437 -0.42539752 2.8882091
1.9227191 -0.4276087 2.8832076
1.9768213 -0.4258996 2.8817012
2.0182412 -0.42838404 2.8823733
2.0724957 -0.42526355 2.8814495
2.1278582 -0.42355642 2.8858175
2.1787193 -0.42435652 2.8869841
2.2285736 -0.43093106 2.8745387
2.2592618 -0.42207062 2.8744106
1.1685735 -0.37835932 2.8817368
1.2422733 -0.39786524 2.8994615
1.3419124 -0.35657501 2.8997755
1.6480263 -0.3760798 2.8985083
1.686748 -0.37013349 2.8998451
1.7127829 -0.38163388 2.8990285
1.7854255 -0.39022487 2.8985085
1.8302727 -0.37869138 2.8972969
1.874771 -0.37839904 2.8955526
1.9195447 -0.37780896 2.8944416
1.9716241 -0.38654432 2.8966358
2.0218258 -0.37273189 2.8945422
2.0665526 -0.37145129 2.8913777
2.1275239 -0.37503746 2.8959944
2.1807277 -0.38010135 2.8945928
2.2312157 -0.38013789 2.8906353
2.2641897 -0.38148627 2.8853419
1.165216 -0.32647869 2.8777363
1.6839938 -0.33099955 2.8985384
1.7426107 -0.32558098 2.8993616
1.7773147 -0.33084711 2.8988757
1.8191051 -0.32860994 2.898711
1.8733019 -0.33078921 2.8976853
1.9253074 -0.32895926 2.8969526
1.9909453 -0.31991613 2.8994031
2.0226941 -0.3211287 2.8973932
2.0608315 -0.32672077 2.8954711
2.1130958 -0.32914928 2.8965328
2.1778576 -0.32796931 2.895802
2.2306783 -0.33036599 2.8948326
2.2640855 -0.33161357 2.890168
1.162607 -0.27504817 2.8749578
1.7409807 -0.2942605 2.8991094
1.7801285 -0.28001812 2.8993092
1.823899 -0.28459355 2.8979688
1.8638878 -0.27016312 2.8974328
1.9200016 -0.27961099 2.8982782
1.9652158 -0.26255131 2.8979065
2.0209816 -0.28067747 2.8981733
2.0768104 -0.27236924 2.8983514
2.1293263 -0.27316794 2.8947268
2.1785064 -0.28181297 2.8969131
2.2287412 -0.28048345 2.8964884
2.2612736 -0.28142285 2.8908165
1.1609751 -0.22403455 2.8739238
1.6409497 -0.21382882 2.8980129
1.6977865 -0.21519224 2.8970928
1.7979658 -0.22577652 2.8991828
1.8587828 -0.21959376 2.8991575
1.9420784 -0.2139454 2.8984818
1.9738507 -0.22676423 2.896935
2.0309243 -0.24072485 2.8993368
2.0740647 -0.23227458 2.8972836
2.1306024 -0.22750629 2.8963726
2.1822243 -0.22494555 2.8946588
2.2248209 -0.23870902 2.8943589
2.2568676 -0.23117913 2.8887074
1.1620634 -0.17355935 2.8790264
1.8155682 -0.16353387 2.8982058
1.8670254 -0.17245495 2.8982553
1.9417036 -0.18213759 2.8995667
1.9597397 -0.1743772 2.8948402
2.0268903 -0.15998088 2.8978376
2.0788643 -0.17960927 2.8978043
2.1286552 -0.17845558 2.8963892
2.1768742 -0.18285771 2.8946192
2.2243094 -0.17263672 2.8974068
2.256942 -0.18150176 2.8916252
1.1575887 -0.12243507 2.8696885
1.6209868 -0.12169179 2.8998346
1.7682642 -0.11341212 2.8990755
1.8752733 -0.12533177 2.8967669
1.9393322 -0.12639157 2.8982248
1.9689606 -0.13223325 2.8995092
2.0050936 -0.12752055 2.8994198
2.0862722 -0.12886873 2.8981717
2.1253605 -0.1295239 2.8970678
2.1783948 -0.12501226 2.8969128
2.2273738 -0.1339623 2.8924153
2.2517185 -0.13150811 2.8870411
1.1567173 -0.071867473 2.8686903
1.5456921 -0.075258411 2.8985047
1.564193 -0.060266085 2.8991258
1.6962936 -0.061154727 2.899858
1.7351578 -0.061425224 2.8998337
1.7673522 -0.077143587 2.898385
1.8216244 -0.080760099 2.8974595
1.8703749 -0.074923441 2.8967979
1.9279759 -0.070758216 2.8985388
1.9675665 -0.079037085 2.8967583
2.0169556 -0.06886325 2.8968456
2.0920064 -0.080324501 2.8969374
2.1106026 -0.088510394 2.8907824
2.1723566 -0.084514484 2.898458
2.2232106 -0.078464754 2.8959765
2.2559631 -0.082077898 2.8939278
1.1612637 -0.028744826 2.88046
1.7347462 -0.030503267 2.8994842
1.7522155 -0.046001624 2.8957253
1.8291605 -0.034714859 2.8987832
1.8804106 -0.033224292 2.8973634
1.9266608 -0.031157784 2.8970437
1.9533682 -0.047027156 2.8890779
2.0203066 -0.036840852 2.8966849
2.0769486 -0.020945227 2.8978417
2.1310539 -0.021090141 2.8985264
2.1707456 -0.03536281 2.8970637
2.2197134 -0.032257728 2.8952465
2.2517254 -0.032352876 2.8892307
1.1599158 0.021879129 2.8771064
1.386168 0.00026257409 2.8994346
1.491304 0.03035167 2.8986263
1.5819459 0.015511339 2.8982673
1.6684631 0.015703363 2.8984764
1.7282108 0.041575417 2.8992538
1.7761136 0.020382082 2.8978469
1.8227757 0.0082496479 2.896842
1.8867633 0.022510353 2.8970895
1.9271032 0.024233297 2.8976603
1.9707778 0.032388784 2.8988962
2.0218351 0.026778931 2.8965096
2.0821519 0.023679281 2.8974407
2.1261952 0.033138718 2.8970194
2.1718395 0.025192998 2.8953516
2.220336 0.017153157 2.896102
2.2525711 0.0089733722 2.8904204
1.1659698 0.072817743 2.8915234
1.3861618 0.074585594 2.8986814
1.658177 0.069299623 2.8999214
1.7297029 0.073765114 2.89851
1.7731857 0.085780933 2.8966889
1.8200769 0.083703838 2.8969421
1.867148 0.072717883 2.8981636
1.9255148 0.076474465 2.8977706
1.9723228 0.08333087 2.8971546
2.0239911 0.080710791 2.8958941
2.0803845 0.081381567 2.8963845
2.1259391 0.090049498 2.895659
2.169353 0.079129711 2.8943958
2.2312844 0.099673353 2.8931451
2.2578409 0.066983104 2.8964853
1.1656474 0.11641002 2.8897021
1.5096898 0.10572098 2.898129
1.6212223 0.13005039 2.8997684
1.7222772 0.1341715 2.8980434
1.7703117 0.12076969 2.8992054
1.827369 0.12867951 2.8986259
1.8785155 0.12440723 2.8975272
1.9245001 0.13023131 2.8947096
1.965679 0.13183981 2.897069
