ply
format ascii 1.0
comment PCL generated
element vertex 1443
property float x
property float y
property float z
element camera 0
property float view_px
property float view_py
property float view_pz
property float x_axisx
property float x_axisy
property float x_axisz
property float y_axisx
property float y_axisy
property float y_axisz
property float z_axisx
property float z_axisy
property float z_axisz
property float focal
property float scalex
property float scaley
property float centerx
property float centery
property int viewportx
property int viewporty
property float k1
property float k2
end_header
-0.3254033 -0.027031763 0.93358904
-0.28819272 -0.021718841 0.94453323
-1.112317 0.022932405 0.90768522
-1.0773319 0.025612101 0.91166562
-1.0106478 0.026209641 0.93863475
-0.99935693 0.015811758 0.94770235
-0.41821045 0.022896606 0.90572894
-0.3750785 0.023372041 0.91792917
-0.33172384 0.027821017 0.92851043
-0.28259769 0.027592674 0.94386268
-1.1151985 0.074045412 0.90768558
-1.081071 0.073941186 0.91370624
-1.014817 0.07758072 0.93834186
-0.41694176 0.07379508 0.90586156
-0.37405792 0.074200951 0.91922551
-0.32413957 0.074209712 0.93503433
-0.28919953 0.073781967 0.94641161
-1.1198643 0.12564164 0.90674907
-1.0826925 0.12519315 0.91334939
-1.0148184 0.12674688 0.93544829
-0.9955548 0.12665875 0.94811732
-0.46758384 0.13647841 0.91006219
-0.42152148 0.12689382 0.91113877
-0.37603602 0.11451286 0.91994011
-0.32548988 0.11441149 0.93671662
-0.29187891 0.1137062 0.94767243
-1.1225905 0.17308226 0.90664625
-1.0806943 0.16790594 0.91187334
-1.0103055 0.1774011 0.93175572
-0.99900705 0.1577221 0.93203515
-0.46480578 0.16557036 0.9304831
-0.43064857 0.16891049 0.91844404
1.1471678 0.19821285 0.92533994
1.167182 0.19105758 0.93713295
-1.1101534 0.24629934 0.91398525
-1.0733292 0.24286659 0.92872304
-1.0180552 0.2289571 0.92986697
-0.99350876 0.23547937 0.94685072
0.99783307 0.22875905 0.93366683
1.0274354 0.23134376 0.92675185
1.0719796 0.2291737 0.92491293
1.1283092 0.21785319 0.92683989
1.1515319 0.20441924 0.91578555
-1.1069769 0.27466798 0.90430433
-1.0747429 0.27875021 0.91438258
-1.0225101 0.27705327 0.930884
-0.99149805 0.26731709 0.94515151
-1.1125906 0.32839784 0.90509456
-1.0734844 0.32518885 0.91977823
-1.024477 0.32461181 0.93922311
-0.9964692 0.32526648 0.94809264
-1.1194366 0.37570629 0.90575129
-1.0761999 0.37566495 0.92133892
-1.0245104 0.37479594 0.94042683
-0.99364471 0.37668374 0.94850177
-1.1160856 0.42361462 0.90703768
-1.074 0.42489478 0.92169398
-1.0242745 0.42448577 0.93870366
-0.98966902 0.42797261 0.94841617
-1.1185212 0.47399223 0.90600485
-1.0745414 0.4750455 0.92050529
-1.0250061 0.47557741 0.93628782
-0.98742068 0.47693741 0.94730669
-1.1175734 0.52444351 0.90531754
-1.0742822 0.52477801 0.919034
-1.0239301 0.52634335 0.93457055
-0.98513097 0.52415919 0.94600052
-1.1182574 0.57564253 0.90501457
-1.0764648 0.57468599 0.91626531
-1.0253003 0.57458341 0.93153387
-0.9837274 0.57334197 0.94481951
-1.1138142 0.62208432 0.90602213
-1.074062 0.62502074 0.91678852
-1.0233847 0.62476528 0.93115908
-0.97919393 0.62422538 0.94372994
-1.1056478 0.66341871 0.90820467
-1.0736907 0.67478311 0.9163025
-1.0243442 0.67415875 0.92982781
-0.97797763 0.67475271 0.94323641
-0.9489128 0.66539711 0.94972384
-1.0672299 0.72348124 0.91924214
-1.0256701 0.72390515 0.93038875
-0.97856605 0.72537106 0.94285619
-0.94809526 0.74020243 0.94880348
-1.0590607 0.77022105 0.92238528
-1.0254158 0.77403843 0.93123388
-0.97438014 0.77606744 0.94460636
-0.94899279 0.76678097 0.94895041
-1.0186373 0.82333052 0.93626732
-0.9761278 0.82393724 0.94439358
-0.94888824 0.83961403 0.94926721
-1.0097547 0.87108487 0.94110012
-0.98144227 0.87546134 0.9465912
-0.98368341 0.91184825 0.94770831
-0.81200451 -0.50173432 0.95451194
-0.77258682 -0.50418878 0.95857245
-0.72404879 -0.50524521 0.96136558
-0.67822593 -0.50331837 0.98019969
-0.6263476 -0.50531971 0.98168576
-0.57416826 -0.50414616 0.97997153
-0.5468654 -0.50233775 0.9618113
-0.0086595342 -0.50061285 0.95359135
0.028514313 -0.50083345 0.96326953
0.069938898 -0.50072235 0.96570778
0.12259375 -0.50207752 0.96601856
0.17877948 -0.51116949 0.96946132
0.22271536 -0.51884931 0.97705901
0.28628978 -0.50117993 0.99714833
-0.95538867 -0.4589414 0.95229113
-0.9238897 -0.46703234 0.96001315
-0.87526721 -0.46791899 0.97382027
-0.82316822 -0.47413388 0.98017913
-0.78044558 -0.48447579 0.98085934
-0.72642076 -0.48853764 0.98155719
-0.67309642 -0.49526945 0.95880198
-0.63141316 -0.49813923 0.95212787
-0.53439403 -0.49267119 0.97157705
-0.26261923 -0.46046022 0.95424646
-0.22410718 -0.46926171 0.96397746
-0.17401828 -0.47410372 0.97467077
-0.12797546 -0.48038331 0.98139608
-0.078479826 -0.48890644 0.98027104
-0.025795726 -0.49316823 0.97210354
0.02199081 -0.49323881 0.97625005
0.077237502 -0.49555746 0.98000836
0.12915251 -0.49347931 0.98596811
0.17733759 -0.49198055 0.9754737
0.22485343 -0.49232367 0.97580856
0.27558005 -0.49111724 0.96542156
0.31397787 -0.48898795 0.95964557
-0.96210188 -0.4234077 0.95481128
-0.92498976 -0.42579544 0.96928114
-0.8756063 -0.42386445 0.98382121
-0.83413529 -0.42655823 0.99504125
-0.30349329 -0.40812445 0.95124966
-0.27443135 -0.4232538 0.95891678
-0.22441973 -0.42568356 0.97607493
-0.17511 -0.42633125 0.99188107
-0.14324763 -0.44544923 0.9980275
-0.97008353 -0.3736181 0.95776492
-0.92404425 -0.37526727 0.9731304
-0.87369329 -0.37442857 0.98896855
-0.84022748 -0.37858531 0.99700618
-0.30792296 -0.37223706 0.95244843
-0.2744717 -0.37481889 0.96422625
-0.22599474 -0.37461865 0.98056948
-0.18346208 -0.37762493 0.99467343
-0.97169316 -0.32414818 0.96015382
-0.92498213 -0.32438743 0.97578204
-0.87533104 -0.32548839 0.99055201
-0.84583467 -0.32171738 0.99836802
-0.31026167 -0.32339665 0.95363027
-0.2751753 -0.32575122 0.96576935
-0.2243478 -0.32415748 0.98345017
-0.18720959 -0.32626817 0.99568057
-0.97304934 -0.27548903 0.96081525
-0.92427617 -0.27415892 0.97823721
-0.87471324 -0.27516493 0.99236304
-0.84535974 -0.28195983 0.99999207
-0.31031969 -0.27491635 0.95334303
-0.27475473 -0.27437213 0.96564341
-0.22527392 -0.27565268 0.98267734
-0.18686368 -0.27366111 0.99599057
-1.0081975 -0.21095982 0.95512629
-0.97256261 -0.22530258 0.96242714
-0.92318612 -0.22488701 0.97912633
-0.87563461 -0.22531345 0.9923749
-0.84251601 -0.20772058 0.99998987
-0.30820814 -0.22665872 0.95313674
-0.27568445 -0.22356392 0.96390826
-0.22589777 -0.22482717 0.9814859
-0.18607491 -0.2256256 0.99484205
-1.0094945 -0.18069284 0.95652157
-0.97446603 -0.17421106 0.96372449
-0.92421526 -0.17324822 0.97943777
-0.87577313 -0.17634092 0.99291259
-0.84842318 -0.18196438 0.9998824
-0.3053633 -0.17524895 0.95179933
-0.27500564 -0.17382763 0.96254587
-0.2246438 -0.17542902 0.9805631
-0.1806846 -0.17599216 0.99518859
-1.0071856 -0.14274649 0.95793086
-0.97528267 -0.12447455 0.96192884
-0.92562646 -0.12450402 0.97884679
-0.8758769 -0.1239121 0.99269789
-0.30262858 -0.1300648 0.95159978
-0.27406165 -0.12506844 0.96063888
-0.22355694 -0.12600714 0.97841042
-0.18071221 -0.1235125 0.99288201
-0.97518486 -0.076120012 0.96189278
-0.92466182 -0.075060412 0.97851324
-0.87582785 -0.074035443 0.99244732
-0.84732121 -0.073397852 0.99869823
-0.2731798 -0.075726189 0.9579882
-0.22679572 -0.075241402 0.97460318
-0.17911783 -0.073872015 0.99166268
-0.97341561 -0.027091792 0.96234888
-0.92285472 -0.026735127 0.97868061
-0.87372184 -0.026375972 0.99202639
-0.84467971 -0.021035612 0.99896729
-0.26507375 -0.028189017 0.95629495
-0.22535208 -0.025948312 0.97227395
-0.17564251 -0.026054917 0.99055648
-0.14768822 -0.01439101 0.99977428
-0.97299397 0.024863001 0.96188283
-0.92257553 0.024446694 0.97833776
-0.8732788 0.024038894 0.99149066
-0.8442089 0.022060599 0.99912775
-0.26020369 0.024053955 0.95478445
-0.22492827 0.02359602 0.97044736
-0.17523247 0.023876091 0.98950613
-0.14654621 0.026074756 0.99885845
-0.97440881 0.076921396 0.96082067
-0.92399693 0.075740434 0.97753453
-0.87410712 0.074530058 0.99025446
-0.84076452 0.078524128 0.99801993
-0.30995494 0.09905161 0.95193726
-0.26505491 0.07559742 0.95601547
-0.22550376 0.075625002 0.97108084
-0.17558773 0.074127257 0.98985982
-0.14787097 0.074577436 0.99913752
-0.97249776 0.12603113 0.96011621
-0.92635423 0.12430035 0.97567326
-0.87484711 0.12556322 0.98856336
-0.83959442 0.12436847 0.99707967
-0.26768309 0.11620827 0.95794201
-0.22562134 0.11558487 0.97355086
-0.18258746 0.11498338 0.99079144
-0.13846432 0.12875642 0.99299854
-0.97534448 0.17656113 0.95907092
-0.92609698 0.17404707 0.97349811
-0.87557656 0.17534991 0.98659366
-0.83346504 0.17441261 0.99673456
-0.42930117 0.18600634 0.95010811
1.1385559 0.19482383 0.98533326
1.1776001 0.18437047 0.97202408
1.2010294 0.17303717 0.97428781
-1.0125811 0.22970812 0.95370901
-0.97231674 0.22315721 0.95727199
-0.9253816 0.2254087 0.97121507
-0.87544203 0.22502585 0.98499411
-0.8323077 0.22540021 0.99548501
0.99626452 0.23065649 0.98565269
1.0207368 0.23284334 0.97440732
1.0810343 0.22624412 0.97188771
1.1241817 0.21160696 0.97380155
-0.96798611 0.2770603 0.95832223
-0.92305738 0.2745961 0.97106892
-0.87456155 0.27399313 0.9841221
-0.83205694 0.27677229 0.99556351
1.0267812 0.2519598 0.98781437
-0.97286272 0.32523808 0.95750695
-0.92675269 0.32470641 0.97071391
-0.87565893 0.32438791 0.9832651
-0.82962716 0.32645047 0.99502182
-0.97044188 0.37432778 0.95693713
-0.92424411 0.37439063 0.97021502
-0.8743962 0.37449029 0.98293918
-0.82783365 0.37472007 0.99497968
1.2312177 0.38378075 0.97397465
-0.96737176 0.42277607 0.95555741
-0.92488718 0.42470419 0.96789896
-0.87564784 0.42460984 0.9814499
-0.82883775 0.42571643 0.99369144
1.24588 0.40591511 0.98447084
1.2668732 0.4057548 0.96324956
-0.96431834 0.4727582 0.95464373
-0.92626774 0.47471061 0.96530378
-0.87567514 0.47535986 0.97995734
-0.82708442 0.47502846 0.99330693
-0.79788506 0.47024643 0.99893069
-0.96127152 0.52268285 0.9536171
-0.92426425 0.52417707 0.96407628
-0.87539357 0.52531314 0.97860056
-0.82485545 0.52448738 0.99225461
-0.79678798 0.54401714 0.99902368
-0.95812106 0.57488877 0.95281053
-0.92582774 0.57436776 0.96260136
-0.87655491 0.57530975 0.97628915
-0.82578933 0.57450801 0.99088097
-0.79662752 0.57716399 0.9992047
-0.95603639 0.62718332 0.95189029
-0.92497748 0.62365478 0.9607482
-0.8738057 0.62574673 0.97554338
-0.82393855 0.62474221 0.99066526
-0.79530096 0.62487584 0.99904794
-0.95393562 0.68065292 0.95080584
-0.92407823 0.67550224 0.95970857
-0.87518537 0.67424709 0.9739244
-0.82583004 0.6759544 0.9885152
-0.79298729 0.67915106 0.997518
-0.95360494 0.71718639 0.95060724
-0.92441642 0.72485608 0.95793629
-0.87409687 0.7246595 0.97270179
-0.8240214 0.72386336 0.98734862
-0.78856939 0.7258808 0.997576
-0.95485348 0.75232244 0.95125169
-0.9250617 0.77478111 0.95772797
-0.87520665 0.775913 0.97136378
-0.82457596 0.77460444 0.98602349
-0.78802925 0.7770198 0.99676239
-0.96731007 0.84305358 0.95144278
-0.92509323 0.82512724 0.95822382
-0.87433469 0.82373929 0.97055954
-0.82541668 0.8257376 0.98458791
-0.78492725 0.82442498 0.99604106
-0.95697856 0.87452656 0.95317054
-0.92354012 0.87794387 0.95930189
-0.87374723 0.87379444 0.97096491
-0.82230353 0.87421769 0.9837088
-0.78253311 0.87536722 0.99485832
-0.9614923 0.9245742 0.95376009
-0.92403311 0.92978495 0.96187472
-0.87494576 0.92335355 0.97026253
-0.82549912 0.92427319 0.98237646
-0.77987254 0.92343289 0.99383456
-0.9563933 0.95917004 0.9557122
-0.92346609 0.97445112 0.96136761
-0.87580007 0.97475427 0.97156811
-0.82486075 0.97178817 0.98229963
-0.77603656 0.96452397 0.99410194
-0.91624105 1.0108428 0.96413779
-0.88255411 1.0074248 0.97286308
-0.66592991 -0.50134057 1.0037217
-0.61866581 -0.50238562 1.0060709
-0.58248687 -0.50160092 1.0082555
0.23974328 -0.50158828 1.0200285
0.27759326 -0.50233972 1.0245128
0.32045212 -0.50248796 1.0244502
-0.80268556 -0.45049307 1.0018983
-0.76859409 -0.46351272 1.0061843
-0.72219312 -0.46923494 1.0139774
-0.67409903 -0.47626999 1.0197588
-0.62489414 -0.47629753 1.0311892
-0.57980072 -0.47744051 1.0312896
-0.54996377 -0.49490169 1.0004284
-0.11110507 -0.46174526 1.0039593
-0.072077557 -0.46908182 1.0136472
-0.024153249 -0.47477835 1.0256733
0.021715526 -0.48145258 1.0343429
0.0733665 -0.48824206 1.0282919
0.12035166 -0.48942184 1.0187535
0.17342061 -0.49193597 1.0255407
0.22602651 -0.49289328 1.0220784
0.27353811 -0.49531189 1.0348089
0.31569231 -0.4987289 1.039806
-0.81094503 -0.41985059 1.0021639
-0.77479434 -0.42474392 1.011905
-0.72403646 -0.42508835 1.0243907
-0.67491978 -0.4257457 1.0357234
-0.63184273 -0.42654485 1.0454721
-0.57258153 -0.42956617 1.0411897
-0.15381859 -0.40799063 1.0018643
-0.12329397 -0.42398947 1.0089091
-0.073945671 -0.42500934 1.0247761
-0.026796218 -0.42683947 1.0404395
0.0026661472 -0.44451234 1.0482575
-0.81720597 -0.37326518 1.0051714
-0.77454996 -0.37491906 1.0167012
-0.72434419 -0.37561399 1.028897
-0.67438304 -0.37479958 1.0405279
-0.63938433 -0.37913835 1.0480894
-0.57014579 -0.37601164 1.043296
-0.15912917 -0.37255856 1.0026442
-0.12402492 -0.37449884 1.0139564
-0.073344171 -0.37506849 1.0302037
-0.03220446 -0.37456894 1.0443442
-0.81999665 -0.32552493 1.0063089
-0.77347559 -0.32407403 1.0187203
-0.72437388 -0.32584497 1.0308934
-0.67463338 -0.32431856 1.0425054
-0.64434606 -0.33012751 1.0485828
-0.57100308 -0.32640082 1.0447021
-0.16328475 -0.32342994 1.003569
-0.1262989 -0.32550302 1.0147635
-0.076092906 -0.32547748 1.0316068
-0.036102582 -0.32421756 1.044466
-0.85195994 -0.26112211 1.0011747
-0.82427847 -0.27631587 1.006345
-0.77519727 -0.27382243 1.0190855
-0.72580457 -0.27557933 1.0310954
-0.67439336 -0.27394813 1.0427665
-0.64688802 -0.28042796 1.0493234
-0.56945747 -0.27369717 1.0429707
-0.16229495 -0.27463096 1.0042204
-0.12583783 -0.27499497 1.0138382
-0.076108187 -0.27496499 1.0272454
-0.033533618 -0.27343404 1.0441295
-0.8526457 -0.210739 1.0002891
-0.82362884 -0.22604172 1.0068473
-0.77376115 -0.22549282 1.0194484
-0.72350258 -0.22412717 1.0320288
-0.675102 -0.22558771 1.0424687
-0.64553171 -0.22404091 1.0491034
-0.56791943 -0.223793 1.0415779
-0.15960608 -0.224498 1.0034984
-0.12465641 -0.22473258 1.0142069
-0.076170228 -0.22539942 1.0273724
-0.034523174 -0.2243776 1.0437512
-0.85062641 -0.1963298 1.0003116
-0.82330537 -0.17379722 1.0067848
-0.77413118 -0.17435735 1.0193061
-0.72481352 -0.17560276 1.0313609
-0.67358774 -0.17581004 1.0419449
-0.64282787 -0.16629472 1.0490322
-0.57318461 -0.1678431 1.0465933
-0.15678103 -0.17534268 1.0030962
-0.12531675 -0.1735775 1.0135541
-0.075963408 -0.17578074 1.0277929
-0.032614797 -0.17375848 1.0424452
-0.852346 -0.12325362 1.0005791
-0.82468033 -0.12604678 1.006289
-0.77626276 -0.12466492 1.0187938
-0.72514492 -0.12631693 1.0304798
-0.67515534 -0.12382121 1.0409145
-0.64330912 -0.12193064 1.0477931
-0.56789613 -0.12582719 1.0410548
-0.15695688 -0.1237433 1.0036368
-0.12551831 -0.12436929 1.0121831
-0.075302608 -0.1259419 1.0263455
-0.031112585 -0.12450095 1.0427842
-0.82130897 -0.075447462 1.0065631
-0.77369213 -0.074972719 1.0178335
-0.72478372 -0.07413999 1.0294276
-0.67400008 -0.073310949 1.0396833
-0.63862824 -0.072847314 1.0476333
-0.56928861 -0.074633069 1.0410218
-0.15890761 -0.077049404 1.0030167
-0.12472607 -0.075108916 1.0089127
-0.07434582 -0.075571097 1.0187144
-0.02698596 -0.074569643 1.0380378
-0.82047224 -0.027683351 1.0055352
-0.77291727 -0.025150068 1.0171969
-0.72275442 -0.025462899 1.0283599
-0.674142 -0.025925085 1.0382112
-0.63677937 -0.021927303 1.0466044
-0.57555544 -0.027357277 1.0480602
-0.15290095 -0.048143525 1.0013152
-0.12412158 -0.026673719 1.0074254
-0.07449916 -0.026863405 1.0226371
-0.02833017 -0.026847469 1.0379817
-0.8196764 0.023410374 1.0052516
-0.77304298 0.023594381 1.016391
-0.72297966 0.023166627 1.0272528
-0.6745165 0.022701737 1.0364598
-0.635445 0.022518286 1.0454789
-0.56999481 0.029290305 1.0412436
-0.12135829 0.023917297 1.0080364
-0.074533567 0.024469268 1.0232648
-0.026609272 0.025030551 1.0397888
0.0056122351 0.035036672 1.0479654
-0.81618559 0.074471578 1.0044475
-0.77248794 0.075569719 1.0155122
-0.72290492 0.074044988 1.0258892
-0.67483854 0.073436186 1.035104
-0.62798882 0.0735645 1.0449998
-0.57245278 0.079713725 1.0408988
-0.12215161 0.07505285 1.0077866
-0.074619383 0.075955912 1.023028
-0.026333025 0.076149255 1.0404394
0.0072915265 0.070219994 1.0491933
-0.81390733 0.12500636 1.0034665
-0.77288687 0.12499271 1.0131767
-0.72390604 0.12586723 1.0240046
-0.67411333 0.12491212 1.0335158
-0.62562639 0.12279989 1.0438122
-0.58079642 0.12650569 1.0442277
-0.22366789 0.14224172 1.0348694
-0.16815507 0.13299552 1.0121176
-0.12492118 0.11427203 1.0079542
-0.075280979 0.11540633 1.024734
-0.025532655 0.11370467 1.0413454
0.0012779767 0.10802872 1.0493548
-0.81165755 0.17556015 1.0027611
-0.7758674 0.17474362 1.011233
-0.72557592 0.17563544 1.0227684
-0.67437375 0.17508109 1.0317923
-0.62351984 0.17415416 1.0422151
-0.58169681 0.17020608 1.0466278
-0.53822935 0.17794453 1.0377134
-0.21944265 0.158718 1.0431087
-0.17122276 0.15674044 1.0199609
1.1259153 0.19435586 1.0317523
1.1731966 0.17833737 1.0214655
1.2189449 0.17054224 1.0155078
-0.80785739 0.22339098 1.0030041
-0.77410817 0.22513098 1.0101532
-0.72423255 0.22407387 1.0211024
-0.67402548 0.22551771 1.0307596
-0.62496805 0.22447903 1.0404676
-0.58704972 0.22581801 1.0474393
-0.51378691 0.21816972 1.0449524
-0.49235022 0.21712883 1.0466322
0.99335873 0.23429839 1.029866
1.0078142 0.23875643 1.0196183
1.0818905 0.22047678 1.0299128
1.1095744 0.20874901 1.0147839
-0.80783749 0.27403265 1.0023314
-0.77417618 0.27407104 1.0094329
-0.72592181 0.27494621 1.0210037
-0.67442805 0.27398464 1.031214
-0.6248067 0.27505553 1.04074
-0.59157431 0.27050775 1.0478252
1.0225409 0.25500971 1.0220774
-0.80625522 0.32320416 1.0022014
-0.77441257 0.32444173 1.0094707
-0.72460634 0.32459211 1.0216415
-0.67551804 0.32555646 1.0318184
-0.62503457 0.32410565 1.042981
-0.59495234 0.31959966 1.0487238
-0.80263358 0.37541544 1.0014553
-0.7759949 0.37480941 1.0086656
-0.72538835 0.37441793 1.0212736
-0.67383116 0.37616321 1.0331504
-0.62361288 0.37407038 1.0430444
-0.57163405 0.377406 1.0316677
-0.52472007 0.37784228 1.0369962
-0.47939241 0.37573394 1.0453811
-0.44404259 0.36856857 1.0484797
1.207163 0.39284292 1.0349004
-0.80426794 0.41841152 1.0018568
-0.77399284 0.42443621 1.008814
-0.72314084 0.42477423 1.021547
-0.67418557 0.42535251 1.0332271
-0.62666124 0.42384303 1.0402206
-0.57185787 0.424164 1.0302407
-0.52514142 0.42401549 1.0429851
-0.48793125 0.4093565 1.0477579
1.2182556 0.42328107 1.0217555
-0.80528647 0.46733221 1.0010884
-0.77455527 0.47460759 1.0071627
-0.72543931 0.47511265 1.0202127
-0.67486495 0.47471258 1.0324134
-0.62482715 0.47462061 1.0397602
-0.57043153 0.47463104 1.0303462
-0.527358 0.47403142 1.0431722
-0.49900219 0.47025028 1.0492755
-0.80061662 0.50635928 1.0013059
-0.77340692 0.52536166 1.0071093
-0.72461319 0.52449006 1.0195206
-0.67571729 0.52580893 1.032082
-0.62668854 0.52408177 1.039806
-0.57132745 0.52457833 1.0312744
-0.52479148 0.5247066 1.0436738
-0.49962097 0.50702441 1.0484098
-0.77294099 0.57544863 1.0057182
-0.72496408 0.57490885 1.0185344
-0.67424721 0.57484061 1.0315411
-0.62621242 0.57510251 1.0400468
-0.57215345 0.57378858 1.0317869
-0.52477038 0.57517368 1.0433114
-0.7704677 0.62574399 1.0054088
-0.72350448 0.6244328 1.0177972
-0.67386228 0.62534499 1.0314143
-0.62671942 0.6246171 1.0398723
-0.57150286 0.62447244 1.0317824
-0.52535415 0.62519193 1.0427326
-0.49673462 0.62979114 1.049212
-0.768848 0.67327422 1.0044595
-0.72442031 0.67437822 1.0177853
-0.67506218 0.67500162 1.0298169
-0.6264466 0.6747821 1.0389748
-0.57219768 0.67526203 1.0307527
-0.52606112 0.67467397 1.0417807
-0.49596411 0.66358286 1.0490669
-0.76485026 0.72279561 1.0050747
-0.72442913 0.72452641 1.0157233
-0.67403907 0.72530246 1.0295008
-0.62570155 0.72568095 1.0389081
-0.57199246 0.72606438 1.0304625
-0.52549636 0.72513533 1.0408144
-0.49385419 0.72255659 1.0486444
-0.76332808 0.77528197 1.0038232
-0.72527671 0.77437097 1.0139441
-0.67444396 0.77426749 1.027667
-0.62560177 0.774046 1.0373145
-0.57209313 0.77642059 1.0292567
-0.52388197 0.77514488 1.0410564
-0.49192992 0.77349246 1.0484548
-0.76049513 0.82704496 1.0030509
-0.72584456 0.82353097 1.0122051
-0.67643678 0.82421815 1.0253023
-0.62574208 0.82581854 1.0365704
-0.57059151 0.82480687 1.0280155
-0.52602184 0.82365328 1.039513
-0.49147397 0.83075815 1.0482638
-0.75737369 0.87077987 1.0020643
-0.72581869 0.87484813 1.010968
-0.67423999 0.87412637 1.0242395
-0.62522566 0.87656951 1.0351163
-0.57180941 0.87378961 1.0260284
-0.52429211 0.87469226 1.0378448
-0.48818928 0.88028324 1.0470914
-0.75693345 0.93055224 1.001349
-0.72472864 0.92550516 1.0087579
-0.67482197 0.92296475 1.022205
-0.62667674 0.92426312 1.0330716
-0.57117695 0.90987557 1.0237926
-0.52878773 0.90666276 1.0338231
-0.4879947 0.90739614 1.0481242
-0.75972015 0.97371191 1.0009984
-0.73066843 0.96136057 1.0068107
-0.67862636 0.95376563 1.0200468
0.24059422 -0.50050741 1.0723277
0.2725409 -0.50084281 1.0602639
0.33454669 -0.50377333 1.0723987
0.037265271 -0.46270448 1.0541071
0.079531237 -0.46812448 1.065353
0.12681523 -0.47478935 1.0741714
0.17105313 -0.47920671 1.0841271
0.22188306 -0.49406779 1.0787023
0.27540347 -0.49346387 1.0790113
0.31226462 -0.49601594 1.0728602
-0.61086297 -0.41859105 1.0517489
-0.59099227 -0.42217284 1.0529518
-0.0078871865 -0.40997511 1.0537295
0.026340088 -0.42481923 1.0587734
0.076589838 -0.42485645 1.0741351
0.12433034 -0.42551816 1.0895487
0.1536154 -0.43441978 1.0973637
-0.61616284 -0.37233171 1.054188
-0.59034556 -0.37384212 1.0574927
-0.01218895 -0.37510782 1.0523924
0.024944926 -0.37530586 1.0624939
0.07641618 -0.37493202 1.0787895
0.12198568 -0.37498701 1.0931021
-0.62228286 -0.32523352 1.0547183
-0.59114301 -0.32416931 1.0584131
-0.0557409 -0.33711359 1.0514034
-0.01185412 -0.32495439 1.0542588
0.024693014 -0.3247765 1.0648097
0.076038577 -0.32513228 1.0809362
0.11798701 -0.32489386 1.0945877
-0.62300217 -0.27391407 1.0549221
-0.58874559 -0.27792591 1.0572408
-0.0098467702 -0.2780619 1.052085
0.024743989 -0.2749784 1.064335
0.074781261 -0.27481416 1.0809497
0.11539767 -0.27328861 1.0942868
-0.65105677 -0.2316331 1.051023
-0.62290901 -0.22349603 1.0546768
-0.59048867 -0.22537419 1.0580491
-0.0095906164 -0.22567278 1.0519341
0.025224019 -0.22505927 1.0630689
0.074683607 -0.22509448 1.0804763
0.11583922 -0.22511284 1.0941745
-0.62176234 -0.17685221 1.0543101
-0.59033287 -0.17355616 1.0571965
-0.06438034 -0.1515132 1.0505437
-0.0082776658 -0.17487475 1.0525745
0.023715043 -0.17522858 1.0625105
0.074755453 -0.17508529 1.0796186
0.11769994 -0.17405371 1.0936276
-0.61885303 -0.1242267 1.0537682
-0.59004879 -0.12345259 1.0565745
-0.074645802 -0.12143834 1.0546451
-0.011217419 -0.12441033 1.0518637
0.024262225 -0.12468189 1.061705
0.073267549 -0.12510194 1.0782975
0.11911622 -0.12447868 1.0929067
-0.61488211 -0.074364275 1.0532568
-0.59012789 -0.076452345 1.05595
-0.014819957 -0.092488706 1.051101
0.024172265 -0.073484346 1.0604328
0.074384555 -0.074168168 1.0773075
0.12259643 -0.074980333 1.0927913
-0.61231649 -0.029740497 1.052516
-0.59239954 -0.025568491 1.0555475
-0.0042950804 -0.028954556 1.0506657
0.024102913 -0.025269382 1.0592999
0.075941458 -0.025699671 1.0757732
0.12590364 -0.025813842 1.0920111
-0.6109814 0.022426238 1.0512816
-0.59279621 0.022339437 1.0547336
-0.0037391493 0.0025237082 1.051276
0.027325293 0.020540982 1.0589015
0.07587865 0.023133021 1.0749164
0.12692992 0.023556743 1.0913198
0.15444276 0.023784842 1.0993626
-0.60518193 0.058568478 1.0513171
-0.59180808 0.071149796 1.0523099
0.024944101 0.07335908 1.0562738
0.075951613 0.074594289 1.0744007
0.1265275 0.075132892 1.0910126
0.15536678 0.076296046 1.0988796
-0.58998036 0.11906676 1.0512949
-0.23837467 0.14436971 1.0565317
-0.054207448 0.13117898 1.0511428
-0.0037573914 0.12600009 1.0513483
0.025407655 0.11430347 1.0588894
0.0740548 0.11311566 1.0740541
0.12504543 0.11327216 1.0911049
0.1550618 0.12193619 1.0995247
-0.57015169 0.18401781 1.0520611
-0.54304391 0.19448797 1.053962
-0.46022218 0.18407993 1.0723948
-0.42649814 0.1786553 1.0834792
-0.38258627 0.17618643 1.0919648
-0.34102902 0.15767415 1.0972849
-0.25376612 0.15417314 1.0876477
-0.2273187 0.1644634 1.0792718
-0.1713959 0.18341932 1.0954044
1.0897545 0.19479671 1.076755
1.1243972 0.18392037 1.0771198
1.16092 0.17591797 1.0664121
-0.56431669 0.22257763 1.052543
-0.52883792 0.23135112 1.0595202
-0.47027567 0.22956862 1.074025
-0.42423162 0.22592807 1.0872066
-0.38828096 0.22757474 1.0967171
0.97925299 0.23514713 1.0780414
1.0292372 0.22624725 1.0714214
1.0778254 0.21404955 1.0737007
-0.56768787 0.27647614 1.0538708
-0.52468663 0.27446097 1.0635866
-0.47597831 0.27382314 1.0750936
-0.42589438 0.27526236 1.0875633
-0.38884524 0.27417222 1.0971024
0.9862653 0.25320798 1.0825839
1.0016346 0.25373921 1.0571944
-0.57196254 0.32708028 1.0551816
-0.52436244 0.32500768 1.0662622
-0.47507808 0.32273427 1.0778327
-0.42485684 0.32312468 1.0903726
-0.39205897 0.3178041 1.0983022
-0.5698055 0.359422 1.0579176
-0.52514577 0.35831138 1.0664299
-0.4702222 0.36549819 1.069182
-0.42438057 0.37097633 1.0691442
-0.37576807 0.3762176 1.0750345
-0.32620856 0.37728736 1.0890454
-0.28298631 0.37105045 1.0953895
1.1898113 0.3819966 1.0777758
-0.50432879 0.44342241 1.0500824
-0.47159666 0.42886436 1.0557311
-0.42450517 0.42434862 1.0675848
-0.37507299 0.42452213 1.081404
-0.32900974 0.42575127 1.0943348
1.190155 0.44909054 1.0997387
1.2179469 0.4409166 1.0724084
-0.50280952 0.47578764 1.051329
-0.47288182 0.47600734 1.0571135
-0.42454246 0.4752835 1.0694164
-0.3747969 0.47618124 1.0835042
-0.33009988 0.47699445 1.0949626
-0.5014509 0.53514719 1.0503566
-0.4752343 0.525509 1.0572464
-0.42426115 0.52506977 1.0702746
-0.37502256 0.52623934 1.0836431
-0.33028293 0.52642369 1.0954409
-0.47466025 0.57542348 1.056778
-0.42501187 0.57355559 1.0702418
-0.37501132 0.57387978 1.0836972
-0.33196542 0.57265085 1.0951467
-0.50172567 0.61665356 1.0506011
-0.47372469 0.62549806 1.0566707
-0.42495796 0.62366527 1.069939
-0.37491691 0.62362307 1.0831815
-0.33170298 0.62449569 1.0955085
-0.47297448 0.6762014 1.0562949
-0.42443997 0.67321783 1.0695961
-0.37471154 0.67668831 1.0831498
-0.33062074 0.67595649 1.0946108
-0.46919066 0.72460222 1.0564948
-0.42557392 0.72477484 1.0689914
-0.37479398 0.72806495 1.0827209
-0.32936475 0.72853833 1.0949742
-0.46962121 0.77515912 1.0561646
-0.42376518 0.7763384 1.0695367
-0.37488219 0.77699172 1.0825176
-0.32826203 0.77853805 1.0947715
-0.46772856 0.82409453 1.0558581
-0.4251214 0.82452208 1.0681173
-0.37479839 0.82476944 1.0817591
-0.32912612 0.82556581 1.0935593
-0.46623665 0.87334734 1.0544751
-0.42460951 0.87462956 1.0662881
-0.37482366 0.87134141 1.0800376
-0.32742566 0.87482494 1.0924864
-0.29967847 0.8528918 1.0996718
-0.46048817 0.90498811 1.0556533
-0.42334589 0.90264177 1.0658364
-0.37385201 0.90153766 1.0801759
-0.32322595 0.90148163 1.0939612
0.34048069 -0.50736809 1.116035
0.37137508 -0.53507781 1.1391096
0.19063421 -0.46499628 1.1034912
0.22719187 -0.47032931 1.1128075
0.273103 -0.47506621 1.1205645
0.3158893 -0.49148485 1.1248146
0.17788236 -0.42346293 1.107077
0.22307646 -0.42787489 1.1212541
0.25651538 -0.4433822 1.1285591
0.14748128 -0.37321132 1.1019599
0.17549697 -0.37473622 1.1104003
0.21456903 -0.37143698 1.1195841
0.14206339 -0.32479885 1.1022704
0.17481942 -0.32462239 1.1126741
0.22503071 -0.32385013 1.1263045
0.26016724 -0.3118853 1.1318079
0.13998343 -0.27805278 1.1030589
0.17555845 -0.27477396 1.1137851
0.22607653 -0.27524909 1.1298075
0.27294454 -0.27377719 1.1414329
0.30342799 -0.25329274 1.1410912
0.14070573 -0.2234199 1.1029165
0.17505482 -0.22510989 1.1134936
0.22506756 -0.22530636 1.1297826
0.27095768 -0.2239223 1.143338
0.31717366 -0.22931933 1.1413887
0.14249671 -0.1781396 1.1024064
0.17385936 -0.17456503 1.1121165
0.22362152 -0.17542298 1.1279969
0.26957461 -0.17392224 1.1424056
0.34699139 -0.18687925 1.1433556
0.35745555 -0.16947395 1.1400106
0.14357518 -0.12729435 1.1010764
0.17288025 -0.1245651 1.1101925
0.22482827 -0.12512031 1.1271532
0.2744137 -0.12513606 1.1428161
0.14827335 -0.082719743 1.1013929
0.17511736 -0.074813686 1.1096752
0.2247165 -0.076215513 1.1250818
0.27650276 -0.075333193 1.1413623
0.30432525 -0.067276023 1.1483234
0.14927223 -0.033005089 1.1005098
0.1751963 -0.026259869 1.1074072
0.22458395 -0.027462428 1.1230711
0.27510136 -0.026699077 1.1394101
0.30476931 -0.024881011 1.1486385
0.17782755 0.023550618 1.1073712
0.22423695 0.024793677 1.1216214
0.27480385 0.023954095 1.1378788
0.30700526 0.021793133 1.1477977
0.17696854 0.074279599 1.1068221
0.22426789 0.076162718 1.1213419
0.27561185 0.075155005 1.1375823
0.3071987 0.069827095 1.1478448
0.13222057 0.12817864 1.1093152
0.17554915 0.11197012 1.1071935
0.22351865 0.11340657 1.1238341
0.27664113 0.11173301 1.138299
0.30904093 0.10847808 1.14802
-0.35993978 0.18232578 1.1026871
-0.32361045 0.17906684 1.1111515
-0.27751324 0.17986535 1.1198092
-0.2290848 0.19083385 1.1276466
-0.16959414 0.18198808 1.1330217
-0.14408988 0.15649307 1.1377926
1.0829129 0.19031188 1.1302074
1.1165632 0.1756378 1.1167786
-0.3636128 0.22558621 1.10267
-0.32450727 0.22657111 1.1117333
-0.27597797 0.2261644 1.1230983
-0.22525096 0.225168 1.134962
-0.1892885 0.22244243 1.1461958
0.94268095 0.23928551 1.1340441
0.9664942 0.23560667 1.1208334
1.0317786 0.22506969 1.1266901
1.066204 0.21194293 1.1229925
-0.36451235 0.27559155 1.1030114
-0.32612866 0.27598968 1.1126156
-0.27479485 0.27538565 1.1252011
-0.22452448 0.27425614 1.1394801
-0.19101934 0.27700427 1.1481509
0.94476944 0.25047565 1.1438129
0.9668566 0.2568545 1.1239026
-0.36913383 0.32434243 1.1052252
-0.32446167 0.32321149 1.1161716
-0.27460825 0.3240515 1.1284757
-0.22549801 0.32497072 1.1414032
-0.19537023 0.31996462 1.1488144
-0.40008155 0.35072041 1.1011528
-0.37361667 0.35597724 1.1059506
-0.32435942 0.36031228 1.1157641
-0.27311382 0.37311688 1.115338
-0.22627652 0.37200961 1.123713
-0.17453568 0.3774617 1.1312943
-0.12612785 0.3774673 1.1425538
-0.090828583 0.37056246 1.1487592
1.1742446 0.37667653 1.1065962
-0.30536848 0.42740476 1.1014476
-0.27535358 0.42685369 1.1090983
-0.22564247 0.42378539 1.1218227
-0.17547755 0.42537153 1.1352806
-0.13429306 0.42573741 1.1453098
1.1882595 0.41238186 1.1175151
-0.30521849 0.47384015 1.1016368
-0.27425468 0.47502521 1.1097746
-0.22405852 0.47452939 1.1233227
-0.17605448 0.47539547 1.1356562
-0.13570613 0.47476903 1.1461024
-0.30551174 0.5217036 1.1020948
-0.27541485 0.52351606 1.1099643
-0.22597581 0.52430546 1.1229002
-0.17360154 0.52594626 1.1367847
-0.13625303 0.5242238 1.1461868
-0.30832085 0.57563061 1.1021554
-0.27448487 0.57564515 1.1103655
-0.22434506 0.57576829 1.1237837
-0.17565359 0.57401651 1.1364347
-0.13607645 0.57742733 1.1465725
-0.30740297 0.62168276 1.1015872
-0.2745384 0.62620115 1.110038
-0.22513255 0.6260733 1.1234393
-0.17508256 0.62485677 1.136488
-0.13716139 0.62544215 1.1464384
-0.30631095 0.67395622 1.1015486
-0.27496222 0.6741218 1.1097817
-0.22445586 0.67608559 1.1232802
-0.1753179 0.67460424 1.136232
-0.13628332 0.67382807 1.1460472
-0.30760795 0.72133708 1.1017081
-0.27451593 0.72443932 1.1095278
-0.22442316 0.72373748 1.1232761
-0.17432059 0.7256639 1.1363221
-0.13545994 0.7235564 1.1460352
-0.30476657 0.76736701 1.1016067
-0.2761963 0.77475411 1.1094463
-0.22500248 0.77451712 1.122987
-0.17548433 0.77629763 1.1361581
-0.1350424 0.77465975 1.1459801
-0.30430022 0.82453251 1.1013285
-0.27469149 0.82420909 1.1092188
-0.22573632 0.82472074 1.1216851
-0.17314544 0.8240605 1.135146
-0.13441044 0.82509017 1.1451685
-0.30364889 0.87093437 1.1005577
-0.27406713 0.87463701 1.107879
-0.22333974 0.87528747 1.1211824
-0.17695238 0.87354028 1.1340821
-0.13118038 0.87603629 1.1455189
-0.27624321 0.90264177 1.106241
-0.22482759 0.90631527 1.1206415
-0.16915058 0.90718782 1.1347444
-0.12890975 0.91083807 1.144646
0.28453159 -0.45881504 1.1573262
0.30650786 -0.47918531 1.1542124
0.24373399 -0.42312986 1.1566832
0.25689343 -0.43586317 1.1590656
0.28879926 -0.25030875 1.1516502
0.29594982 -0.22563949 1.1510035
0.31641853 -0.21706106 1.1545596
0.29282188 -0.17554748 1.1512483
0.32342026 -0.1752146 1.1586689
0.36002144 -0.16342269 1.1645414
0.29622471 -0.12389308 1.1517315
0.32406592 -0.12544388 1.1584294
0.37318364 -0.123459 1.1708688
0.40422493 -0.10791219 1.1750859
0.32564205 -0.07398548 1.1575586
0.3749311 -0.075212374 1.1728101
0.42487124 -0.073317267 1.1857524
0.45849404 -0.0764011 1.1960424
0.3290675 -0.025282547 1.1568364
0.37562779 -0.026144275 1.1718937
0.42684212 -0.026916049 1.1888713
0.45880511 -0.027121551 1.1987131
0.33195636 0.023672745 1.1565492
0.37607649 0.022528933 1.1705672
0.42641601 0.023482291 1.1875671
0.45748195 0.024585955 1.1989703
0.33176798 0.074155994 1.1557169
0.3763659 0.075614087 1.1699032
0.42600712 0.074674353 1.186605
0.45754823 0.075807869 1.1976568
-0.06515801 0.14980225 1.1552545
0.047003884 0.1480765 1.1869736
0.058828872 0.14913689 1.1951321
0.29391396 0.12378677 1.1502284
0.32747811 0.1130275 1.1569998
0.3748911 0.11293492 1.1705439
0.42547971 0.11066851 1.1879807
0.4559353 0.10956593 1.1975518
-0.15638988 0.1865346 1.15266
-0.12514307 0.17805459 1.1621361
-0.07611382 0.17729497 1.1757882
-0.027601833 0.17499538 1.1887327
0.005061904 0.17197864 1.1982397
1.0476389 0.19670716 1.1829411
1.0737882 0.18169257 1.172752
1.1126082 0.16816445 1.1564139
-0.16407329 0.22621033 1.1542526
-0.12339734 0.22539349 1.165087
-0.073579319 0.22576116 1.1787262
-0.025159467 0.22422808 1.191608
0.0014709707 0.22493464 1.1986486
0.82051069 0.23324099 1.1958244
0.89596164 0.23579594 1.1954837
0.92477369 0.23755954 1.1768485
0.9600355 0.22790363 1.1659849
1.0338498 0.21718282 1.1818218
1.0533139 0.21190651 1.1622416
-0.16690984 0.27424434 1.1545386
-0.12330136 0.27549052 1.1662153
-0.073565535 0.27477989 1.1796191
-0.024873022 0.27481613 1.1929033
0.0034159087 0.26650622 1.1992317
0.93838191 0.25238395 1.1618742
0.96351928 0.26141146 1.1586913
-0.2071806 0.34873343 1.1513777
-0.17183137 0.32541806 1.1559266
-0.12480214 0.32445776 1.1694704
-0.074055709 0.32551086 1.1834739
-0.031000497 0.32119891 1.194755
-0.20442349 0.35462603 1.1511036
-0.1738721 0.35730368 1.1587254
-0.12248109 0.36373791 1.1688429
-0.072106473 0.37333429 1.1683296
-0.027598837 0.37547356 1.1752657
0.024299517 0.37902266 1.1850803
0.069036543 0.37788868 1.19522
1.1646191 0.38562942 1.1669998
-0.10923275 0.42349774 1.1527333
-0.07436727 0.42524317 1.161437
-0.024465846 0.42431375 1.1751081
0.025257373 0.42504665 1.1880568
0.062757216 0.42496344 1.1975124
1.1856037 0.40026858 1.1857685
-0.11079878 0.47483525 1.1526959
-0.074859358 0.47511193 1.1620744
-0.02561494 0.47491869 1.1748718
0.025611773 0.47495714 1.1886889
0.061945915 0.47569889 1.1973534
-0.1126487 0.5239861 1.1524888
-0.075219981 0.52511716 1.1624092
-0.024726853 0.52527446 1.1755843
0.024018293 0.52399808 1.1882885
0.058194105 0.52686155 1.1973798
-0.11264219 0.57406104 1.1528722
-0.075179704 0.57371205 1.1620257
-0.025656637 0.57501155 1.1758188
0.023337483 0.57426071 1.1881514
0.057704784 0.57420379 1.1968056
-0.11030502 0.62439275 1.1539704
-0.074476264 0.62520665 1.162984
-0.026669968 0.62457842 1.1752454
0.022562329 0.62403715 1.1883131
0.060298163 0.62178653 1.1976272
-0.11304996 0.67598778 1.1529324
-0.075197957 0.67505682 1.1620547
-0.026539275 0.67491192 1.1749721
0.023470113 0.67539459 1.1885861
0.060467228 0.67570329 1.1974368
-0.11129561 0.72667915 1.1524867
-0.076949827 0.72436297 1.1616468
-0.0268167 0.72506976 1.1743863
0.023857528 0.72616291 1.1878579
0.060596265 0.72472125 1.1966951
-0.1123484 0.77485305 1.1520742
-0.075950816 0.77279723 1.1616945
-0.027119905 0.7751683 1.17452
0.024486218 0.77475935 1.1870438
0.062601358 0.77750593 1.197162
-0.10974375 0.82457399 1.152275
-0.074339397 0.82431966 1.1618688
-0.024704393 0.82422942 1.1744745
0.024651794 0.82352316 1.1867274
0.065647162 0.82522207 1.1963674
-0.10781708 0.87076664 1.1519915
-0.072811611 0.87384814 1.160957
-0.024805419 0.87475699 1.1739371
0.024846368 0.87463319 1.1857951
0.064888209 0.87634742 1.1963593
-0.10624512 0.91015756 1.1526662
-0.074964426 0.91393286 1.1593962
-0.024430312 0.91847694 1.1726449
0.026887096 0.92476487 1.1856853
0.06864319 0.92211646 1.1961583
0.070859745 0.95389903 1.197296
0.47441679 -0.072865278 1.2070063
0.47457665 -0.025973048 1.2077451
0.47322977 0.024494689 1.2068535
0.47431183 0.075758912 1.2065587
0.17066617 0.14835261 1.2300516
0.2417326 0.14414863 1.2378215
0.25536758 0.14508452 1.2442499
0.44612122 0.12023543 1.201423
0.47292557 0.11370337 1.2086012
0.030259922 0.17774951 1.2053207
0.074772313 0.17588282 1.2162004
0.12292486 0.17469887 1.2287743
0.17297746 0.17670119 1.2420535
0.20169662 0.16697283 1.24867
1.0321935 0.18542553 1.2300416
1.0621642 0.17121772 1.2191545
1.5098982 0.17854714 1.2300681
0.026993547 0.22453877 1.2053769
0.075602233 0.22572045 1.2177151
0.12298047 0.22395086 1.229558
0.17232542 0.22534378 1.2421969
0.20164184 0.21226859 1.2486075
0.79779077 0.20588432 1.2060089
0.83645356 0.22948125 1.2092949
0.87660873 0.23455989 1.2204026
0.92087817 0.23828219 1.2187184
0.98184586 0.22774699 1.2246433
1.0268388 0.21331419 1.225632
1.5328875 0.20267931 1.2380114
-0.0043579796 0.29804248 1.2006077
0.026565785 0.27521279 1.2066784
0.075562611 0.27540129 1.2191645
0.12423047 0.27449906 1.2313792
0.17200336 0.27513209 1.2440785
0.20275041 0.25916696 1.2497237
0.89744759 0.2512188 1.2294266
0.90697062 0.26194057 1.2481771
-0.011146555 0.33246735 1.2018896
0.025714403 0.3240594 1.2100229
0.075714305 0.32524738 1.2232853
0.12639786 0.32490706 1.2363323
0.16491258 0.32184395 1.2460228
-0.015374698 0.36108896 1.203638
0.025430085 0.35853195 1.215198
0.081790604 0.36953515 1.2186912
0.1244223 0.37361613 1.2198076
0.17367385 0.37920201 1.2254059
0.22516999 0.37939793 1.2376982
0.26352286 0.38218284 1.2462273
0.087361515 0.42416933 1.204147
0.12464923 0.42468536 1.2136434
0.17576879 0.42509982 1.2274107
0.22489347 0.42495885 1.2389022
0.25708982 0.42348957 1.2474375
0.085734703 0.47388947 1.2041585
0.1272102 0.47432497 1.2144939
0.17542438 0.47429338 1.2274526
0.22464071 0.47518077 1.2396145
0.25744948 0.47391462 1.2477362
0.084257923 0.52400643 1.203508
0.12507614 0.52463454 1.214239
0.17411524 0.52486098 1.2267146
0.22448172 0.52399588 1.239697
0.25700486 0.52793074 1.2476383
0.082134664 0.57603472 1.2035608
0.1231719 0.57493472 1.2142252
0.17601851 0.57456237 1.2275507
0.22471625 0.57461125 1.2400236
0.26125604 0.57578731 1.2481413
0.084064461 0.62778407 1.2034019
0.12478498 0.62443012 1.2145592
0.17364424 0.62462246 1.2268358
0.22455768 0.62363261 1.2391465
0.25734028 0.62581313 1.2478757
0.086487584 0.67513782 1.2039886
0.12553997 0.67344737 1.2134759
0.17473069 0.67512798 1.2264811
0.22434479 0.67469788 1.2394457
0.26056132 0.67437619 1.2484655
0.086017683 0.72485965 1.2037313
0.12451344 0.72559988 1.2130725
0.17525524 0.72294748 1.2266417
0.22579315 0.72494417 1.2388138
0.26044253 0.72864681 1.2472049
0.086266257 0.77141595 1.2037398
0.12495217 0.77658778 1.2125622
0.17436576 0.77390051 1.2255002
0.22370371 0.77483857 1.2380565
0.2592074 0.77525437 1.246284
0.087940276 0.82515299 1.2024143
0.12515372 0.82382232 1.2128243
0.17684042 0.82551992 1.2256024
0.22685997 0.82379085 1.2381587
0.26452625 0.82539755 1.2470778
0.088602893 0.87437284 1.2024946
0.12450068 0.8736757 1.2116821
0.17328411 0.8750264 1.2241818
0.22362271 0.87376565 1.2366364
0.26390064 0.87567812 1.2464906
0.089999348 0.92789227 1.2025423
0.12569517 0.92440116 1.2114221
0.17622846 0.92480183 1.2243993
0.22607549 0.92345506 1.2371087
0.2639119 0.92731941 1.2474719
0.096749038 0.95727777 1.2045201
0.12995249 0.96117836 1.2115843
0.17683792 0.96852732 1.2242345
0.22380193 0.97465402 1.2366456
0.26670283 0.97577792 1.2466903
0.24140127 1.0021968 1.2405084
0.26690155 1.0075409 1.2465645
0.2814078 0.14761718 1.2628435
0.32386756 0.14689744 1.271806
0.3749831 0.14557089 1.2850964
0.41896096 0.14560348 1.296338
0.22693893 0.17447078 1.2559012
0.27337334 0.17608115 1.2673346
0.32465193 0.17398867 1.281081
0.37455177 0.17506297 1.2940633
0.4002037 0.17363587 1.2997841
0.84175009 0.1784112 1.2628843
0.88277256 0.18081917 1.2905495
0.92864525 0.18093802 1.29096
0.98016995 0.18002069 1.2827709
1.0160087 0.17391673 1.2619696
1.0782998 0.164276 1.2505679
1.4864353 0.17953056 1.2743046
1.5155447 0.16446851 1.268574
0.19634227 0.24353869 1.2504364
0.2264452 0.22469023 1.2564776
0.27440375 0.22623274 1.268491
0.32341751 0.22420745 1.2815363
0.36866286 0.22405063 1.2935054
0.82972139 0.22977656 1.2834755
0.88305348 0.22341874 1.2880739
0.92930132 0.22941674 1.2825247
0.97655934 0.2252146 1.2775601
1.0095116 0.21525343 1.2712325
1.5208058 0.20394334 1.2682166
0.19725926 0.2813825 1.2511028
0.2259306 0.27396941 1.2575774
0.27475861 0.27613521 1.2706602
0.32449841 0.27513343 1.2831346
0.37067297 0.27338096 1.2951518
0.89654666 0.26198661 1.2545466
0.91267812 0.2594955 1.2782898
0.1892048 0.32701623 1.2530161
0.22406051 0.324963 1.2615435
0.27438313 0.32368129 1.2744668
0.3260065 0.32542238 1.2872978
0.36387902 0.32174692 1.2962794
0.14658722 0.36414441 1.2533141
0.17788176 0.35943121 1.2545594
0.22490765 0.35896933 1.2650888
0.28037003 0.36949784 1.2644272
0.32349122 0.37337211 1.2703046
0.37234104 0.37538075 1.277218
0.42414343 0.37693954 1.288455
0.46081182 0.3777386 1.2956511
0.2827462 0.42571896 1.2541314
0.32674515 0.42527649 1.2652358
0.37515137 0.42460099 1.2771835
0.42429069 0.42570975 1.2893283
0.45882946 0.42796519 1.2973324
0.28135186 0.47536755 1.2536376
0.3236239 0.47476014 1.2639691
0.37446344 0.47424152 1.2769312
0.42530009 0.47354421 1.2896515
0.45896038 0.4793852 1.298225
0.2832596 0.52493316 1.2547514
0.32663167 0.52433264 1.2655864
0.37527034 0.52468735 1.2770085
0.4258447 0.52595115 1.2900015
0.46017238 0.52299041 1.2974058
0.28126255 0.57546622 1.2543291
0.32396194 0.57485688 1.2648257
0.37454212 0.57511121 1.2771813
0.42480382 0.57496035 1.2897803
0.45722628 0.58363754 1.2978464
0.28290245 0.62536383 1.254254
0.32513517 0.62397838 1.2645506
0.3746393 0.62648964 1.2771053
0.42464894 0.62337285 1.2892411
0.45678711 0.62950468 1.2962215
0.28418797 0.67726845 1.2546194
0.3246277 0.67480153 1.2640973
0.37492895 0.67487645 1.2768952
0.42497522 0.67537314 1.2892902
0.46024993 0.67776692 1.2982781
0.28538913 0.72396421 1.2542568
0.32452112 0.72601032 1.2638974
0.37427974 0.72538233 1.2762828
0.42536461 0.72498268 1.288896
0.45920134 0.72667801 1.2963889
0.28484899 0.77501953 1.2532363
0.32538691 0.77354109 1.2631024
0.37546274 0.77639735 1.2762674
0.42442814 0.77447152 1.2885265
0.46124414 0.77352244 1.297318
0.28632838 0.8238157 1.2530466
0.32461578 0.82487702 1.2624962
0.37468746 0.82423288 1.2754185
0.42331955 0.82535499 1.2873944
0.46015093 0.82188028 1.2981479
1.5726944 0.82337743 1.2725084
0.28704971 0.87391979 1.253279
0.32508501 0.87415266 1.2625389
0.37395936 0.873519 1.2750599
0.42404151 0.87535322 1.2888625
0.45889139 0.87556475 1.2976182
1.5733763 0.87277055 1.2825725
0.28641608 0.92565435 1.2530642
0.32521984 0.92473209 1.261982
0.37580234 0.923935 1.2764735
0.42480654 0.92579144 1.2897794
0.4546946 0.92846173 1.2984363
1.5722212 0.92445517 1.2909048
0.28807077 0.97104788 1.2532412
0.3259396 0.97732699 1.2638421
0.37530169 0.97567511 1.2763655
0.42367762 0.9742443 1.2901502
0.45730442 0.9741208 1.2981423
1.5705783 0.96598566 1.2942555
0.28936765 1.0139818 1.2542825
0.32659239 1.0190716 1.2644053
0.37381637 1.0264041 1.2760285
0.4251188 1.022509 1.2900511
0.45660204 1.0234659 1.298099
0.3837733 1.0543019 1.278088
0.42658782 1.0643723 1.2908612
0.45848498 1.0682909 1.2976911
0.54926896 -0.10467933 1.3410503
0.56513941 -0.10713356 1.34714
0.55084956 -0.074484177 1.3462557
0.54933673 -0.028074265 1.3437411
0.55044287 -0.02023072 1.3465923
0.54884267 0.023730829 1.3425429
0.54916632 0.074446864 1.3420244
0.55979973 0.085171312 1.3490322
0.43403646 0.14744046 1.305321
0.47902986 0.14491011 1.3179085
0.53304255 0.13745299 1.3338257
0.55520833 0.12696137 1.3457397
0.39438647 0.19966084 1.3006088
0.42525893 0.17546172 1.3076619
0.47415552 0.17519437 1.3218067
0.52375609 0.17522079 1.3372569
0.55675811 0.17374289 1.347375
0.86551887 0.19784951 1.3415262
0.92151594 0.18595865 1.3113124
0.98195803 0.17915943 1.3135381
1.4491205 0.18157715 1.3389974
1.467464 0.18170926 1.3227848
1.5102469 0.16189793 1.3220983
0.39317584 0.23499286 1.3011016
0.42506677 0.22456329 1.308625
0.47619125 0.22570983 1.3222563
0.52483732 0.22431184 1.3366569
0.56316769 0.22656047 1.3465459
0.7939322 0.22601563 1.335354
0.82137781 0.22719713 1.3198408
0.86577243 0.2155304 1.3189633
0.92765057 0.2169776 1.3133796
0.97828466 0.21504542 1.312467
1.4190198 0.20183578 1.3409159
1.4743408 0.20594861 1.3427594
0.39367566 0.28019607 1.3014793
0.42479968 0.2746436 1.3092831
0.47327626 0.27328527 1.3220028
0.52522331 0.27493808 1.3363659
0.5644778 0.27607885 1.3466797
0.38423938 0.32842654 1.3024068
0.42422795 0.32510093 1.312039
0.4748002 0.32470506 1.325671
0.52402753 0.32503155 1.3381169
0.5596348 0.32380912 1.3477035
0.38210073 0.35865667 1.3060946
0.42687729 0.35714313 1.3153638
0.48136494 0.37215757 1.3118154
0.52570796 0.37133548 1.3193854
0.57262295 0.3764981 1.3270477
0.62297314 0.37910628 1.3399503
0.65471733 0.38342428 1.347531
0.48233032 0.42404768 1.3042084
0.52321374 0.42405367 1.3140213
0.57462841 0.42578131 1.3268865
0.62510079 0.42409822 1.3405827
0.65527225 0.42631158 1.3482871
1.7054005 0.4342081 1.327898
0.48534793 0.47505236 1.3053957
0.52633673 0.47463146 1.3148832
0.57424432 0.4760156 1.3272749
0.62354052 0.47538796 1.3394684
0.65924269 0.4811103 1.3479779
0.48254007 0.52591771 1.3043967
0.52501106 0.52430451 1.3145647
0.57435638 0.52402091 1.3267208
0.62470859 0.52574652 1.3405409
0.6554727 0.52340204 1.3481342
0.48065659 0.57283813 1.3041579
0.52518278 0.57520032 1.3154293
0.57434255 0.57575881 1.3272549
0.62462389 0.57342899 1.3399082
0.65784287 0.5789234 1.3482925
0.48226532 0.62423664 1.3044202
0.52525198 0.62511873 1.3154668
0.57506418 0.62713081 1.3279643
0.62410456 0.6227082 1.3407378
0.65559989 0.6269179 1.3477602
0.48374745 0.67437953 1.3048135
0.52521223 0.67424107 1.3144778
0.57369995 0.67548293 1.3273658
0.62399834 0.67230564 1.3411939
0.65548497 0.68002534 1.3483086
0.48421088 0.72455525 1.3043263
0.52413535 0.72416973 1.315026
0.57427669 0.72432816 1.3285935
0.62261957 0.72491509 1.3407258
0.484916 0.77619737 1.3043848
0.52347296 0.77306002 1.3151748
0.57523739 0.7755968 1.3293736
0.6252355 0.77459055 1.3428187
0.65277994 0.79282141 1.3479602
0.48552614 0.82368523 1.3059194
0.52616274 0.82489961 1.3166804
0.57463521 0.82642388 1.3288641
0.62362969 0.82528043 1.343389
1.5609882 0.82648194 1.3248419
0.48243567 0.87353444 1.3051175
0.52406085 0.87564182 1.3164512
0.57455379 0.87584955 1.3302191
0.62454569 0.87336767 1.3430898
0.65911508 0.89359868 1.3498526
1.5603586 0.87440258 1.325356
0.48150662 0.92409009 1.3043391
0.52570885 0.92670721 1.3165728
0.573093 0.92559451 1.32965
0.62218714 0.92227298 1.3430047
0.65444863 0.93928659 1.3493623
1.5606951 0.92461354 1.3265249
0.4442564 0.99181843 1.3006284
0.4822695 0.97515249 1.3060569
0.52501929 0.974998 1.3154672
0.57442081 0.97650528 1.3304002
0.62357223 0.97309607 1.3432916
0.66265452 0.95733762 1.3492349
1.563429 0.97374243 1.3260098
0.47712591 1.0250403 1.3044926
0.52444845 1.0246987 1.3156716
0.57600105 1.0235213 1.3288703
0.62527281 1.0265137 1.3417846
0.66064805 1.0291688 1.3486099
1.5647483 1.0224689 1.3323382
0.48253089 1.0723583 1.3043529
0.52547598 1.074885 1.3153107
0.57571059 1.0746549 1.3274983
0.62588161 1.0746254 1.3412714
0.66286641 1.0765427 1.3479248
1.5636417 1.077365 1.3407918
0.49769965 1.1037894 1.3102621
0.52956778 1.1109682 1.3153332
0.57605416 1.1202693 1.3270901
0.62450784 1.1233891 1.3384022
0.65727603 1.1153715 1.3459866
1.5590845 1.1250106 1.346759
0.63188255 1.1590648 1.3414279
0.67332405 1.1657579 1.3489281
0.58553761 -0.10540909 1.357442
0.62565774 -0.10839283 1.3632244
0.67496037 -0.10653687 1.3805799
0.71696043 -0.10437618 1.3955896
1.4057877 -0.10564667 1.3958213
1.6884604 -0.11915467 1.3838395
