ply
format ascii 1.0
comment PCL generated
element vertex 1440
property float x
property float y
property float z
element camera 0
property float view_px
property float view_py
property float view_pz
property float x_axisx
property float x_axisy
property float x_axisz
property float y_axisx
property float y_axisy
property float y_axisz
property float z_axisx
property float z_axisy
property float z_axisz
property float focal
property float scalex
property float scaley
property float centerx
property float centery
property int viewportx
property int viewporty
property float k1
property float k2
end_header
-0.99592674 -0.12575331 0.94909704
-0.4723531 -0.12896031 0.90216404
-0.42460793 -0.12593795 0.90910596
-0.37440994 -0.12450983 0.9258222
-0.32731578 -0.12345691 0.94210649
-1.1139871 -0.064209655 0.90301228
-1.0812739 -0.070876524 0.90829784
-1.016916 -0.076683581 0.93857992
-0.4236677 -0.074514471 0.907426
-0.37554544 -0.074377574 0.92300773
-0.32549101 -0.074651696 0.93952739
-0.29584906 -0.064705655 0.94845176
-1.1144341 -0.023530351 0.90487951
-1.0870785 -0.029551214 0.91144085
-1.0119286 -0.029212086 0.93442309
-0.99983346 -0.008749852 0.94834524
-0.41917309 -0.025767637 0.90658313
-0.3739306 -0.025598995 0.92024678
-0.32490334 -0.027397454 0.9336772
-0.28802434 -0.02169193 0.94491243
-1.1140664 0.023582425 0.90676707
-1.0853277 0.023477882 0.91277957
-1.0100944 0.027025798 0.93657243
-0.99899977 0.01029861 0.93841439
-0.41711122 0.022936201 0.90620965
-0.37484047 0.023496935 0.91795588
-0.33155593 0.027827477 0.92869604
-0.28220797 0.02787235 0.94415838
-1.1153697 0.074073218 0.90782601
-1.0813338 0.073022336 0.91449434
-1.0107852 0.077428408 0.93839002
-0.99381793 0.095698059 0.94975221
-0.41627589 0.073657811 0.90604192
-0.3741374 0.074215524 0.91941494
-0.32405692 0.074188799 0.93478554
-0.28899485 0.074093305 0.94648039
-1.1188962 0.12648799 0.90678442
-1.0812857 0.12486596 0.91348243
-1.0128175 0.12727118 0.93352157
-0.99614567 0.13288163 0.9479751
-0.46620792 0.13981782 0.91112053
-0.42180696 0.12732093 0.91126752
-0.3760547 0.11451928 0.9199909
-0.32548302 0.11440532 0.93668228
-0.29180962 0.11243753 0.94785756
-1.1226144 0.17360036 0.90606505
-1.0834631 0.16970813 0.91204059
-1.0143638 0.17725861 0.93201786
-0.99692249 0.1744099 0.94774342
-0.45771 0.17005281 0.92855722
-0.4310011 0.16907242 0.91862404
1.1483986 0.1984275 0.92635286
1.1604965 0.19360706 0.93477327
-1.1101382 0.24558513 0.90809095
-1.0757546 0.24138033 0.92419481
-1.0174766 0.22909366 0.92825329
-0.99435794 0.23675685 0.94473314
1.0262924 0.23295699 0.9276852
1.0784972 0.22674817 0.9231689
1.1330993 0.21519901 0.92401081
1.1526026 0.20460929 0.916637
-1.1073265 0.27476215 0.90458113
-1.0752655 0.27809045 0.91338158
-1.0238063 0.27722794 0.92960691
-0.99329662 0.26678279 0.94384158
-1.1134464 0.32723802 0.90414852
-1.0731623 0.32526165 0.91949844
-1.0242119 0.32312512 0.93931264
-0.99565315 0.32458019 0.94867653
-1.1162708 0.37450221 0.90578902
-1.0752552 0.37560633 0.92052478
-1.0247777 0.37300634 0.93974018
-0.99664295 0.37903184 0.94839919
1.2271357 0.37911415 0.93720913
-1.1157455 0.42401206 0.90657181
-1.0736047 0.42416877 0.92182207
-1.0246378 0.42395684 0.9389568
-0.99078298 0.4233523 0.94808239
-1.1203529 0.47573218 0.90538526
-1.0761721 0.47447312 0.91986018
-1.0244274 0.4732801 0.9364897
-0.98849529 0.47287557 0.94815171
-1.1162324 0.52608997 0.90544689
-1.0744604 0.52633595 0.91892928
-1.0243242 0.52381241 0.93464041
-0.98676533 0.52649766 0.94530708
-1.1177099 0.57476121 0.90581447
-1.0748256 0.57514977 0.91673118
-1.0255914 0.57392311 0.93195808
-0.98350769 0.57451254 0.94450492
-1.1103967 0.62318879 0.90637743
-1.0725628 0.62521362 0.91683799
-1.0244672 0.62324625 0.93102264
-0.98022193 0.62518948 0.9439109
-1.110042 0.65965801 0.90775746
-1.0753791 0.67591804 0.91545981
-1.0267158 0.67417485 0.93001252
-0.97684222 0.67474091 0.94361299
-1.0673914 0.72351885 0.91862082
-1.024241 0.72535557 0.93009901
-0.97658849 0.7240833 0.94364917
-1.0587404 0.76995677 0.92209542
-1.0261728 0.77551544 0.93083423
-0.97472936 0.77468807 0.9437657
-0.94533479 0.77000356 0.9492045
-1.0182043 0.82394081 0.93596739
-0.97563696 0.82313728 0.94453192
-1.0107352 0.86834717 0.94030756
-0.98544401 0.87697643 0.94543868
-0.97977656 0.91041011 0.94798523
-0.81431705 -0.50161445 0.955266
-0.77089757 -0.50402844 0.95902508
-0.72315043 -0.50521636 0.96291584
-0.67622727 -0.50415492 0.98006797
-0.62292331 -0.50505263 0.98358542
-0.57491624 -0.50415093 0.98041093
-0.5448429 -0.5020448 0.96621096
-0.0086572012 -0.50047797 0.95333445
0.025153454 -0.50098366 0.96556908
0.072468124 -0.50104982 0.96697003
0.12338768 -0.5020721 0.96577257
0.17472006 -0.50921518 0.96766835
0.22157054 -0.51918167 0.97996056
-0.95972842 -0.45632207 0.95199531
-0.9245916 -0.46702799 0.95970917
-0.87446064 -0.4686873 0.97306919
-0.82255644 -0.474332 0.98045057
-0.77851915 -0.4848927 0.98014259
-0.72404629 -0.48809618 0.98193038
-0.67443568 -0.49623838 0.96461362
-0.62817496 -0.49891639 0.9731074
-0.53137845 -0.49498367 0.968018
-0.2624616 -0.46097291 0.95433974
-0.22382408 -0.46906656 0.9643622
-0.1738341 -0.47399378 0.97534627
-0.128112 -0.48029751 0.98160708
-0.078675337 -0.48864424 0.98133272
-0.025406431 -0.49328056 0.9714514
0.023987554 -0.49337047 0.97452062
0.072380438 -0.49562338 0.97720617
0.1270384 -0.4939197 0.98456085
0.17793375 -0.49159169 0.97608918
0.22244473 -0.4917458 0.97487915
0.27746633 -0.49190661 0.96991438
0.31487349 -0.4898257 0.96265316
-0.96402133 -0.42322925 0.95477122
-0.92592794 -0.42501304 0.9683637
-0.87550938 -0.42432335 0.98354942
-0.83463186 -0.42660958 0.99502122
-0.30460909 -0.40751705 0.95171446
-0.27430236 -0.42328706 0.95886743
-0.22463225 -0.42581528 0.9758721
-0.17562728 -0.42623034 0.99172956
-0.14281791 -0.44374076 0.99857283
-0.96844655 -0.37414378 0.95850384
-0.92290938 -0.37484905 0.9739005
-0.87423617 -0.37494546 0.98895532
-0.84211642 -0.37454578 0.99804151
-0.30823335 -0.37413344 0.95246035
-0.27423191 -0.37479132 0.96438938
-0.22601672 -0.37465671 0.98067063
-0.18246219 -0.37686756 0.99465472
-0.97222519 -0.32515529 0.95959651
-0.92508972 -0.32426214 0.97594672
-0.87392807 -0.32465431 0.99109799
-0.84674674 -0.32509205 0.99860233
-0.31046706 -0.32417807 0.95342571
-0.27545014 -0.32554701 0.96579438
-0.22434346 -0.32414669 0.98341
-0.18647611 -0.3258673 0.99575162
-0.97425139 -0.27622166 0.96082401
-0.92554808 -0.27415392 0.97737312
-0.87512583 -0.27472138 0.9921025
-0.8466112 -0.27372906 0.9994778
-0.31146434 -0.27482972 0.95311528
-0.27511832 -0.27393517 0.96551138
-0.22532913 -0.27562678 0.98294324
-0.18671092 -0.2728698 0.99593675
-1.0059248 -0.21544445 0.95335484
-0.97315896 -0.22582866 0.96231532
-0.92390126 -0.22492553 0.97887844
-0.87500864 -0.22496404 0.99302197
-0.84770429 -0.24487108 0.99935532
-0.3087121 -0.22814921 0.95287788
-0.27532858 -0.22317019 0.96405244
-0.22571358 -0.22475506 0.98173279
-0.18637373 -0.2255667 0.99473965
-1.0077358 -0.18003972 0.95688123
-0.97359908 -0.17445691 0.96351999
-0.92400956 -0.17377998 0.97946757
-0.87634683 -0.17644925 0.99295431
-0.84848142 -0.18692058 0.99921095
-0.30645549 -0.17567872 0.95174563
-0.27505326 -0.17385457 0.96271443
-0.22459432 -0.1753875 0.98033434
-0.1819043 -0.17508733 0.99490201
-1.007635 -0.1428066 0.95835876
-0.97386187 -0.1246625 0.96273649
-0.92490363 -0.12440614 0.97945267
-0.87551665 -0.12425527 0.99288833
-0.30245659 -0.1309351 0.95147365
-0.27364269 -0.12500374 0.96088994
-0.22311942 -0.12590204 0.97884411
-0.18049771 -0.12376409 0.99327892
-0.97499108 -0.076102033 0.96169597
-0.92439562 -0.075033687 0.97822863
-0.87583977 -0.074032515 0.99245697
-0.84661359 -0.073395029 0.99924833
-0.27352783 -0.07640586 0.95777249
-0.22689764 -0.075042121 0.97467965
-0.17920002 -0.073328182 0.99143445
-0.97336859 -0.027082356 0.96231109
-0.92321658 -0.026748113 0.97906661
-0.87393779 -0.026391109 0.99227339
-0.84623754 -0.037976757 0.99906456
-0.26507699 -0.028188709 0.95631474
-0.22533689 -0.025946211 0.97219396
-0.17566271 -0.026056355 0.9906801
-0.14766368 -0.014389141 0.99959296
-0.9729405 0.024866663 0.96183133
-0.92348665 0.024343817 0.97823119
-0.87406427 0.024148995 0.99096394
-0.84390318 0.0255783 0.99873197
-0.25998637 0.023636814 0.95498723
-0.22495919 0.023598462 0.97057897
-0.1752611 0.023878627 0.98966616
-0.14626183 0.025930256 0.99866331
-0.97304022 0.076068647 0.96078497
-0.92351341 0.075699396 0.97701401
-0.87388253 0.074505292 0.98999912
-0.83952266 0.076005735 0.99831635
-0.30949458 0.098904498 0.95052338
-0.264916 0.075429931 0.95632148
-0.22555368 0.075640798 0.97130883
-0.17557861 0.074126363 0.98980045
-0.14675298 0.073283605 0.99923575
-0.97365868 0.12518951 0.95971227
-0.92631131 0.12429716 0.97563177
-0.87525135 0.12524937 0.98837918
-0.83907139 0.12539196 0.99705994
-0.2682142 0.11671796 0.95751911
-0.22544453 0.11533808 0.97323304
-0.18216346 0.11422072 0.99033082
-0.14108895 0.12519431 0.99208367
-0.97178525 0.17489681 0.960334
-0.92228395 0.17512088 0.97446609
-0.87455809 0.17520636 0.98682004
-0.83330536 0.17572345 0.99640179
-0.4342429 0.18315113 0.96172905
1.1421779 0.19453306 0.97852629
1.1798807 0.1834978 0.97476304
1.2050037 0.17263737 0.96502906
-1.0129929 0.22780462 0.9532488
-0.97060186 0.22470078 0.95794749
-0.92476255 0.22358041 0.97127801
-0.87544048 0.22512323 0.98434198
-0.83214802 0.22438708 0.9957391
0.99804014 0.23123328 0.97129077
1.0182371 0.23169293 0.97232825
1.0748068 0.226973 0.9844017
1.1200665 0.21377563 0.97185856
-0.97047871 0.27599108 0.95799679
-0.92523521 0.27450731 0.97035986
-0.87469977 0.27438197 0.98354357
-0.83088046 0.27601019 0.99541062
1.0440401 0.25149441 0.96802902
1.0520781 0.25991818 0.97398651
-1.0094488 0.34391192 0.95111394
-0.9719165 0.32394058 0.9573853
-0.92501348 0.32441181 0.97116089
-0.87441784 0.32478952 0.98407745
-0.82931197 0.32547823 0.99538821
-0.97103637 0.37399483 0.95667046
-0.92414594 0.3748931 0.96994328
-0.87361622 0.37593576 0.98348236
-0.82929808 0.37390086 0.99430341
1.2272894 0.38604885 0.98736185
-0.96927351 0.42566851 0.95515019
-0.92561477 0.42467684 0.96786934
-0.87454468 0.42522618 0.98177117
-0.82640773 0.42456436 0.99417382
1.2333845 0.4225904 0.97687668
-0.96477622 0.47376242 0.95485628
-0.92501175 0.47581077 0.96643543
-0.87414151 0.47500294 0.97989291
-0.82719648 0.47287241 0.99370211
-0.79655904 0.46336883 0.99972206
-0.96270984 0.52097684 0.95285285
-0.92411923 0.52477622 0.96423006
-0.87481153 0.52544087 0.97877902
-0.82493353 0.52448046 0.99266815
-0.95784289 0.57502639 0.9535529
-0.92323869 0.57526869 0.96295989
-0.87388039 0.57521319 0.97696131
-0.82530004 0.5745399 0.9917962
-0.79429621 0.58400089 0.99922222
-0.95643765 0.62149721 0.95142126
-0.92501634 0.62352526 0.95988756
-0.87517464 0.62498325 0.97523785
-0.82413191 0.62476486 0.98997694
-0.79227853 0.62725204 0.99852085
-0.95302457 0.65930367 0.95159101
-0.92490017 0.67455864 0.95961696
-0.87504435 0.67414469 0.97376758
-0.82473511 0.67590058 0.98823291
-0.79055566 0.67793679 0.99791932
-0.95487148 0.72670412 0.9517144
-0.92501861 0.72407514 0.95830429
-0.87436849 0.72488201 0.97300929
-0.82412994 0.72465372 0.9873637
-0.78955871 0.72605902 0.99696577
-0.92397296 0.7736569 0.95770174
-0.87429583 0.77522975 0.97188008
-0.82442796 0.77375519 0.98573226
-0.78800154 0.77543813 0.99578983
-0.95692855 0.84025842 0.95063668
-0.92451978 0.82265347 0.95740706
-0.8733626 0.82571238 0.9704898
-0.82413685 0.82400322 0.98456216
-0.78421211 0.82556438 0.9955247
-0.96219164 0.87507629 0.95264244
-0.92359102 0.87315315 0.95939726
-0.87463915 0.87580752 0.9704349
-0.82550746 0.87445599 0.98370469
-0.78287572 0.87444168 0.99388248
-0.96049178 0.92652202 0.95307946
-0.92519373 0.92446005 0.96025848
-0.87587458 0.92540133 0.97045189
-0.82486469 0.92369026 0.98292762
-0.77916425 0.92591745 0.99401778
-0.74911594 0.94619089 0.9981761
-0.95621639 0.95899725 0.95553768
-0.92467737 0.97345924 0.96142894
-0.87514585 0.97463757 0.97136903
-0.82673705 0.97234881 0.98135561
-0.77917165 0.96693236 0.99345428
-0.74828869 0.96803451 0.99955291
-0.9133504 1.0085319 0.96415722
-0.88419783 1.0049117 0.97123593
-0.65161169 -0.50119776 1.0019325
-0.62376213 -0.5019415 1.0075631
-0.58085394 -0.5027855 1.0064198
0.24141724 -0.5013538 1.019255
0.27862996 -0.50221235 1.0258346
0.31754977 -0.50213903 1.0272356
-0.80197042 -0.45009172 1.0010058
-0.76648772 -0.46445832 1.0062577
-0.72069883 -0.47105932 1.0143425
-0.6745913 -0.47603843 1.0195988
-0.62486005 -0.47693455 1.0306926
-0.57936305 -0.47918996 1.0298821
-0.11157425 -0.46216729 1.0042744
-0.071622558 -0.46928731 1.0139097
-0.024222547 -0.47450268 1.0257642
0.021553459 -0.48171455 1.0338824
0.073838793 -0.48819917 1.0273361
0.12056676 -0.48888022 1.0185448
0.17369476 -0.49185348 1.0253863
0.22617444 -0.49295875 1.0230151
0.27103323 -0.49391875 1.0392483
0.3132568 -0.49777117 1.0382507
-0.81109905 -0.421175 1.0022597
-0.7747044 -0.42498448 1.011934
-0.72424841 -0.42546502 1.0240453
-0.67481226 -0.42532143 1.0357586
-0.63029355 -0.4257617 1.0457958
-0.57190764 -0.4241758 1.041638
-0.1542604 -0.40796134 1.0015122
-0.12273334 -0.42322814 1.0089406
-0.074014671 -0.42520025 1.0245099
-0.026046354 -0.42651328 1.0407795
0.003107778 -0.44338027 1.0479041
-0.81687903 -0.37544402 1.0053217
-0.77426386 -0.37446135 1.0167938
-0.72421694 -0.37555131 1.0287166
-0.67474693 -0.37458044 1.0403346
-0.64013475 -0.37834594 1.0479596
-0.56933504 -0.37499359 1.0426005
-0.15781026 -0.37236151 1.0028445
-0.12395211 -0.37478995 1.0140365
-0.073089093 -0.3747775 1.030264
-0.03255352 -0.37566754 1.0439533
-0.82212579 -0.32527575 1.0061388
-0.77420813 -0.32368657 1.0185577
-0.72494948 -0.32588881 1.0309807
-0.67430639 -0.32348976 1.042004
-0.64585018 -0.32896149 1.0486425
-0.57032949 -0.32542449 1.0441538
-0.16239722 -0.3235513 1.0034533
-0.12619452 -0.32653701 1.0146985
-0.076439992 -0.32513782 1.0314956
-0.036683578 -0.32206714 1.0441796
-0.82398343 -0.27545956 1.0062093
-0.77515054 -0.27413991 1.0190238
-0.72588658 -0.27545264 1.0311816
-0.67469239 -0.2739701 1.0424863
-0.64493072 -0.2751404 1.0486906
-0.57113487 -0.27252781 1.0445708
-0.16235606 -0.2750566 1.0038928
-0.12571044 -0.2757256 1.0137469
-0.076112106 -0.2749837 1.0273179
-0.032816947 -0.27396539 1.0443622
-0.85176247 -0.20255734 1.0006539
-0.82352847 -0.22537366 1.0068506
-0.77387053 -0.22552383 1.0195962
-0.72337675 -0.22408691 1.031849
-0.67523652 -0.22541244 1.0425084
-0.64689445 -0.2238166 1.048767
-0.56816095 -0.22585236 1.0417111
-0.15992703 -0.22356206 1.0033835
-0.12464704 -0.22471638 1.0141238
-0.076322474 -0.22558255 1.0269481
-0.033246987 -0.22471979 1.0440043
-0.85500705 -0.18470684 1.0016444
-0.82349157 -0.17350395 1.0069499
-0.77369964 -0.17462254 1.0194103
-0.72543931 -0.17521913 1.0317159
-0.67434359 -0.17628957 1.0420365
-0.64500183 -0.17290503 1.0484805
-0.57243985 -0.17733002 1.0455451
-0.15803732 -0.17684367 1.0029678
-0.12507814 -0.17355618 1.0136136
-0.075799935 -0.17604923 1.0279928
-0.032877482 -0.17334676 1.0423156
-0.85231096 -0.11948067 1.0009531
-0.82340509 -0.12700346 1.0067025
-0.77479905 -0.12444232 1.0189523
-0.72448194 -0.12576506 1.0306283
-0.67514509 -0.1238196 1.0408967
-0.64247978 -0.11996826 1.0483644
-0.56741989 -0.1257266 1.0401813
-0.15682603 -0.12319965 1.0037531
-0.12528679 -0.12438279 1.0121161
-0.07524962 -0.12630962 1.0259082
-0.030404711 -0.1244778 1.0431833
-0.82187891 -0.075909361 1.0064875
-0.77393425 -0.074998356 1.0181538
-0.72464633 -0.074130394 1.0292313
-0.67442894 -0.073644742 1.0397667
-0.6385411 -0.071832672 1.0475197
-0.56938303 -0.076770633 1.0410653
-0.16071646 -0.079479828 1.0027173
-0.12473377 -0.075116351 1.0089916
-0.07435026 -0.075588018 1.0188529
-0.027296707 -0.074999265 1.0377177
-0.82325602 -0.025998726 1.0054574
-0.77268982 -0.025398368 1.0176574
-0.72275549 -0.025468651 1.0283619
-0.67419696 -0.025929948 1.0382932
-0.63679802 -0.021929948 1.0466356
-0.57495451 -0.027332408 1.0469658
-0.15278259 -0.048106257 1.0005401
-0.12322097 -0.027141692 1.0076787
-0.074484542 -0.026859181 1.0224411
-0.028061666 -0.026996419 1.0381128
-0.81980878 0.023296071 1.0054138
-0.77395469 0.023793397 1.0158007
-0.7238993 0.022574821 1.0266358
-0.67457598 0.022704519 1.036551
-0.63296402 0.023333024 1.0459543
-0.56948721 0.029267596 1.0403177
-0.12114355 0.023908511 1.0079912
-0.074547216 0.024477387 1.0234544
-0.026602248 0.025022473 1.0394238
0.005610174 0.033698503 1.0478559
-0.81610608 0.075622059 1.0047612
-0.772668 0.075183213 1.0150565
-0.7230742 0.0742414 1.0261159
-0.67471212 0.073422909 1.0349137
-0.62888336 0.073872589 1.044827
-0.57192272 0.077631317 1.0393229
-0.12149844 0.075237006 1.0079784
-0.074601136 0.075937435 1.0228001
-0.026330728 0.076147847 1.0404531
0.0052844989 0.057169311 1.0497442
-0.81284863 0.12470233 1.0036613
-0.77367109 0.12461483 1.0136672
-0.72401547 0.12588386 1.0241674
-0.67404628 0.1246497 1.0334239
-0.62596768 0.12347489 1.0437634
-0.57977641 0.12665802 1.0442051
-0.22371382 0.14084642 1.0362817
-0.16825753 0.13321489 1.011413
-0.12421306 0.11435936 1.0077534
-0.075275607 0.1153869 1.0245744
-0.025864713 0.11349028 1.0413787
0.0037894843 0.10802192 1.0493299
-0.80958575 0.17431559 1.003028
-0.77457643 0.17410269 1.0113955
-0.72522175 0.17503402 1.0222186
-0.67469227 0.17533526 1.0316538
-0.62312913 0.1738071 1.0421822
-0.58062184 0.1704817 1.0457025
-0.53740668 0.17724136 1.0373085
-0.22291121 0.15693361 1.0418111
-0.17381346 0.15837963 1.021842
1.1254723 0.19453314 1.0253175
1.1753137 0.17758422 1.0259354
1.2126747 0.16966498 1.0102841
-0.80654246 0.22655815 1.0023997
-0.77407116 0.22504468 1.0107718
-0.7245118 0.22474249 1.0215752
-0.67487258 0.22527242 1.0305637
-0.62585276 0.22499411 1.039971
-0.5876773 0.2276179 1.0473753
-0.51946354 0.21626952 1.0449078
-0.48939633 0.21702266 1.047049
0.99148804 0.23459294 1.0331342
1.0173217 0.23945127 1.0179646
1.0849349 0.21919814 1.0316889
1.1082562 0.20971994 1.0133418
-0.80551612 0.27628902 1.0018408
-0.77353579 0.27438432 1.0094401
-0.7246381 0.2753129 1.0212142
-0.67436123 0.27512735 1.0314375
-0.62429267 0.27474266 1.040621
-0.59009176 0.27037409 1.0478313
1.0216374 0.25682324 1.0245472
-0.80586064 0.3274565 1.001709
-0.77511215 0.32507437 1.0094891
-0.72542489 0.32452491 1.0213478
-0.67517024 0.32606286 1.0317572
-0.62418348 0.32353655 1.0430499
-0.59555799 0.32719728 1.0490746
-0.80549425 0.37437803 1.0012174
-0.77550507 0.3752487 1.0086355
-0.72477555 0.37402502 1.0211407
-0.67365468 0.37629196 1.0329304
-0.62448621 0.3741827 1.042408
-0.57229131 0.37868318 1.031657
-0.5242734 0.37841061 1.0371871
-0.48015758 0.37637597 1.0449929
-0.44760576 0.36665428 1.0475769
1.1984692 0.38279909 1.0297031
1.2155298 0.39813092 1.0134493
-0.802338 0.42046508 1.0009208
-0.77570415 0.42537266 1.0075701
-0.72529721 0.42522198 1.020684
-0.67497414 0.42450285 1.0327829
-0.6262905 0.42423666 1.0398992
-0.57063007 0.42399651 1.0296226
-0.52515924 0.42469195 1.0430621
-0.48785815 0.40866509 1.0472726
1.2233036 0.41896883 1.0140314
-0.80329138 0.48574081 1.0006071
-0.77428156 0.47537124 1.0074259
-0.72527272 0.47500503 1.0199854
-0.67509431 0.47448048 1.0326637
-0.62659401 0.47485712 1.0397389
-0.57108843 0.47456363 1.0311877
-0.52585745 0.47336966 1.0430951
-0.4982807 0.49417123 1.0498488
-0.8004545 0.52065855 1.0015292
-0.77363449 0.52513945 1.0066692
-0.72484815 0.5246467 1.0190356
-0.67501354 0.5250954 1.0320333
-0.62442648 0.52391398 1.039781
-0.57147956 0.52458757 1.0309319
-0.52507508 0.52413094 1.0436407
-0.49918029 0.52415597 1.0488768
-0.77331769 0.57313299 1.0059077
-0.72517604 0.57484913 1.0179054
-0.67468882 0.57470393 1.0313351
-0.62714052 0.57477003 1.0395466
-0.57217836 0.57406867 1.0310122
-0.52538598 0.57540929 1.0431356
-0.49600327 0.56601053 1.0493191
-0.76817828 0.62411594 1.0058966
-0.7244665 0.62464035 1.0173546
-0.67471141 0.62493521 1.0305115
-0.62647641 0.62449038 1.0395343
-0.57100672 0.62458205 1.0316037
-0.52534795 0.62370324 1.0426433
-0.49661484 0.61845529 1.0487876
-0.76846349 0.67330605 1.005046
-0.72549641 0.67536801 1.0164348
-0.67584628 0.67583859 1.030138
-0.62615806 0.67420197 1.0392809
-0.57182038 0.67350793 1.0308377
-0.52574825 0.6738655 1.0420563
-0.49435493 0.67425966 1.0486035
-0.7648775 0.72364181 1.0046268
-0.72382325 0.72506094 1.0156792
-0.67379302 0.72503215 1.0291262
-0.62636995 0.72421795 1.0387508
-0.57243454 0.72410977 1.0306978
-0.52516389 0.72580779 1.0410492
-0.49469361 0.72167987 1.0485295
-0.76153892 0.77417231 1.0037494
-0.72390705 0.77481276 1.0142478
-0.67506588 0.77514654 1.0284256
-0.62627953 0.77391952 1.0373877
-0.57161832 0.77460164 1.0285999
-0.52448803 0.77524692 1.0403003
-0.49508953 0.78123695 1.0481201
-0.76014072 0.8220821 1.0028032
-0.72541571 0.82385689 1.0128924
-0.67526317 0.82464951 1.0261521
-0.62660515 0.82412314 1.0360509
-0.57059473 0.82462209 1.0288731
-0.52451396 0.82475662 1.0396769
-0.49311641 0.82747823 1.0477233
-0.75747037 0.87111455 1.0026006
-0.72385454 0.87396616 1.0107033
-0.67459917 0.87459213 1.0247866
-0.6249789 0.87442714 1.0346415
-0.57164329 0.87383813 1.0257688
-0.52437443 0.87330449 1.0376499
-0.49104798 0.87754184 1.0470159
-0.7553879 0.92390442 1.0016717
-0.72366023 0.9252829 1.0094696
-0.67345244 0.92398995 1.02294
-0.62791121 0.92394221 1.0333771
-0.57466042 0.91007328 1.0240897
-0.5274502 0.90660262 1.0360047
-0.48663175 0.90488404 1.0452273
-0.75538719 0.96113515 1.0009251
-0.7233901 0.95798302 1.0070353
-0.67520177 0.95381296 1.0221056
0.24036878 -0.50003844 1.0713229
0.32555053 -0.5018428 1.0613568
0.037693739 -0.46360958 1.0540335
0.079521604 -0.46806642 1.0652337
0.12681282 -0.47477844 1.0741553
0.17209952 -0.47895056 1.0854423
0.22232175 -0.49361211 1.0783014
0.27606535 -0.49334595 1.0798154
0.31434408 -0.496178 1.0753353
-0.61015356 -0.41900614 1.0518858
-0.59295529 -0.42674035 1.0533254
-0.0074653048 -0.40939406 1.0559989
0.026672134 -0.42406809 1.0587851
0.076588608 -0.42481458 1.0740321
0.12454204 -0.4251852 1.0897077
0.15289436 -0.43275729 1.0981561
-0.61617672 -0.37243006 1.0545454
-0.58963245 -0.37417752 1.0569719
-0.013172857 -0.37418297 1.0526172
0.025077725 -0.37497377 1.0623993
0.076132312 -0.37458187 1.0786111
0.12099171 -0.37531903 1.0930289
-0.62057692 -0.3252506 1.0548265
-0.58916146 -0.32472524 1.0578163
-0.050588343 -0.34253338 1.051167
-0.013010807 -0.32785076 1.0542307
0.024489947 -0.32493299 1.0643582
0.076101005 -0.32450289 1.0809394
0.11872028 -0.32399553 1.0946949
0.23739614 -0.34021753 1.0997256
-0.62172085 -0.27466041 1.0549051
-0.5901773 -0.27748847 1.0586175
-0.0089607676 -0.2772041 1.0523385
0.025001481 -0.27467585 1.0643095
0.074964143 -0.27449274 1.0809597
0.11643234 -0.2737354 1.0945166
-0.62211591 -0.22519934 1.0546447
-0.5901323 -0.22460884 1.0580627
-0.0082545215 -0.22482727 1.0525641
0.024974866 -0.22477648 1.0628792
0.074669898 -0.22504872 1.0802475
0.11482218 -0.22407971 1.0936525
-0.62074226 -0.1755105 1.0544251
-0.59073848 -0.17272602 1.0579236
-0.069479652 -0.15414038 1.0507698
-0.0084765805 -0.1758368 1.0522634
0.023719229 -0.17524371 1.0626042
0.074750371 -0.17507349 1.0795586
0.1169833 -0.17422646 1.0931798
-0.61910462 -0.12497468 1.0534209
-0.58993429 -0.12342764 1.0563672
-0.079515785 -0.12118083 1.0521783
-0.012573842 -0.1244892 1.0513557
0.024261128 -0.12467036 1.0616378
0.073254228 -0.12507936 1.0781306
0.11793208 -0.12481973 1.0926467
-0.61390913 -0.072685815 1.0531689
-0.58973074 -0.07715825 1.0564479
-0.01168321 -0.078297175 1.0517977
0.024170747 -0.073478498 1.0603446
0.074108884 -0.074356988 1.0772623
0.12137798 -0.075151779 1.0919875
-0.61209381 -0.027763659 1.0525585
-0.59202635 -0.026154252 1.0561227
-0.0037366708 -0.024332333 1.0503479
0.024102062 -0.025266489 1.0591279
0.075680859 -0.025814118 1.0757898
0.12619115 -0.025636708 1.0923759
0.15449774 -0.021103747 1.0998785
-0.60844505 0.019927986 1.0513263
-0.59270084 0.022336109 1.054564
-0.0037398539 0.002522873 1.0514741
0.027336037 0.020783294 1.0592698
0.075884819 0.023137869 1.0749989
0.12695083 0.02355805 1.0914731
0.15438472 0.028172841 1.0988898
-0.60714781 0.062187735 1.0510689
-0.59157628 0.070640408 1.0524803
0.025047598 0.074042045 1.056211
0.075942285 0.074581102 1.0742462
0.12644702 0.075086169 1.0903451
0.15590492 0.066741891 1.0990809
-0.60600299 0.1004467 1.0503761
-0.59073007 0.1194308 1.0512676
-0.23839162 0.14693502 1.056273
-0.05415386 0.13104929 1.0501037
-0.0062768701 0.12602015 1.0515057
0.02563693 0.11457781 1.0592684
0.07403677 0.11309383 1.0738255
0.12493548 0.11350076 1.0907004
0.15496378 0.11126563 1.0995681
-0.57007134 0.18354139 1.0519189
-0.54234213 0.19333754 1.0540277
-0.46009833 0.18402159 1.0721171
-0.42642671 0.17862362 1.0832214
-0.38375574 0.17551465 1.0915645
-0.34042218 0.15739627 1.0953523
-0.22737826 0.16669987 1.0823531
-0.17596598 0.18399334 1.0901414
1.0927451 0.19459267 1.0785363
1.1285776 0.18341298 1.0740752
1.1592636 0.17509957 1.0627635
-0.5644142 0.22193424 1.0529569
-0.52760661 0.23169388 1.0602901
-0.47061354 0.23062262 1.0742524
-0.42424038 0.2259312 1.0872217
-0.38679546 0.22607848 1.0968797
0.97962415 0.23596677 1.0757883
1.0284495 0.22647491 1.068144
1.0772027 0.21387631 1.0765935
-0.56649655 0.27637175 1.0541006
-0.52473688 0.27448487 1.0636821
-0.47548643 0.2746954 1.0750898
-0.42572713 0.2746377 1.0870641
-0.38958585 0.27554169 1.0969626
0.98539144 0.25242013 1.0774344
1.0033296 0.25750604 1.066837
-0.5715974 0.325306 1.0553935
-0.52472323 0.32523891 1.0661608
-0.47503993 0.32270563 1.0777471
-0.42490044 0.32269123 1.090115
-0.39184484 0.31676206 1.0976226
-0.57113564 0.36036927 1.0566256
-0.52451861 0.35835007 1.067661
-0.47028938 0.36488572 1.0695703
-0.42415377 0.37075979 1.0692134
-0.37523997 0.37561956 1.0746087
-0.32650405 0.37794179 1.0885824
-0.28059351 0.37087965 1.0953013
1.1828636 0.38028923 1.0741906
-0.50246024 0.42762226 1.0506579
-0.47196856 0.42934743 1.0560235
-0.42475572 0.42438713 1.0672342
-0.37509525 0.42454186 1.0814571
-0.32941782 0.42498031 1.0939893
1.1984893 0.41690469 1.0899451
1.2054881 0.42101613 1.0763174
-0.50554472 0.49566391 1.0508873
-0.47418624 0.47458038 1.0566952
-0.42533112 0.47556758 1.0693828
-0.37507257 0.47640169 1.0831959
-0.33068159 0.47613919 1.0944922
-0.506706 0.52586675 1.0504283
-0.47537613 0.52484131 1.056954
-0.42510867 0.52522624 1.0700738
-0.37474114 0.52629006 1.0841199
-0.33188465 0.5262866 1.0949994
-0.50258482 0.5628897 1.0503761
-0.47390667 0.57585454 1.0570971
-0.42534217 0.57356042 1.069892
-0.37504494 0.57393742 1.0837972
-0.33181569 0.57304358 1.0949994
-0.47307482 0.62604344 1.0562887
-0.42572415 0.62379497 1.0694726
-0.37575331 0.62311095 1.0829197
-0.33255756 0.62513101 1.0945907
-0.47127372 0.67420161 1.0562956
-0.42463407 0.67554098 1.0694792
-0.37452137 0.67635691 1.0833249
-0.33243072 0.67485529 1.0948091
-0.47007585 0.72335553 1.0559462
-0.42476046 0.72707373 1.068776
-0.37504491 0.72682571 1.0826498
-0.32981354 0.72654009 1.0949686
-0.47176576 0.77238953 1.055468
-0.42399937 0.77416557 1.0686337
-0.37522843 0.77788067 1.082615
-0.32981911 0.77791125 1.0948598
-0.46866202 0.82398093 1.0547333
-0.42551848 0.82330918 1.0674332
-0.37568778 0.82559663 1.0813447
-0.32890436 0.82515174 1.0937552
-0.46750927 0.87439924 1.0539676
-0.42454574 0.8745169 1.0661482
-0.37466994 0.87354511 1.0800732
-0.32697266 0.87319595 1.093143
-0.29731029 0.89066154 1.0990924
-0.46331796 0.90414315 1.0534372
-0.42712921 0.90276092 1.0646627
-0.3747896 0.90219879 1.0807595
-0.32277891 0.90174937 1.094418
-0.29834101 0.90027606 1.0984279
0.34439108 -0.51128697 1.1217359
0.35707322 -0.51988769 1.1270889
0.18938203 -0.46206605 1.103368
0.22771357 -0.47059733 1.1133918
0.27240255 -0.4745928 1.1207596
0.31255519 -0.48810658 1.1198673
0.17798457 -0.42358881 1.1071507
0.22354372 -0.42727384 1.1218613
0.26314601 -0.44385949 1.1372182
0.14549187 -0.3696112 1.1014907
0.17480496 -0.37535813 1.1100068
0.21468614 -0.37164268 1.1201979
0.14321233 -0.32570782 1.1024313
0.17507188 -0.32490063 1.1124662
0.22486895 -0.32415086 1.1265838
0.25936788 -0.31280619 1.129849
0.14147307 -0.27657899 1.1027609
0.17520811 -0.27409539 1.1135403
0.22551244 -0.27587608 1.1295156
0.27243879 -0.27405739 1.1408495
0.30219254 -0.25528234 1.1451777
0.13991034 -0.22534327 1.102265
0.17507258 -0.22513986 1.1136199
0.22503334 -0.22527193 1.1296133
0.26992473 -0.22501478 1.1431865
0.31556684 -0.23200268 1.1392924
0.14213765 -0.17694414 1.1017975
0.17387451 -0.17487575 1.1121613
0.22364752 -0.17544261 1.1281278
0.27099624 -0.17278376 1.1429125
0.32420954 -0.16984761 1.1485702
0.3649739 -0.15898497 1.1457543
0.14308695 -0.1247994 1.101552
0.17320785 -0.12482233 1.1105734
0.22423393 -0.12532778 1.1272727
0.27109721 -0.12400785 1.1416326
0.37574059 -0.14171952 1.1429576
0.14809062 -0.077447742 1.1011556
0.17505772 -0.074784465 1.1092891
0.22473072 -0.076220468 1.1251425
0.27534977 -0.074783608 1.141162
0.30467117 -0.06173012 1.1498784
0.14930251 -0.042255908 1.1006044
0.17544937 -0.026551262 1.1076458
0.22426946 -0.027320694 1.1228945
0.27507427 -0.026692132 1.1392837
0.30414203 -0.021449631 1.1487834
0.17513536 0.023806907 1.1065425
0.22371493 0.024421522 1.1215194
0.27479735 0.023954742 1.1378733
0.30772182 0.022791477 1.147885
0.17694739 0.075625703 1.1072313
0.223956 0.07601431 1.1211801
0.2756235 0.075490676 1.1374371
0.30817792 0.070190459 1.1478237
0.13486387 0.12817895 1.1091126
0.17669922 0.11231826 1.1077925
0.22375266 0.11373023 1.124154
0.27709299 0.11244466 1.1387353
0.30885956 0.11002176 1.1483068
-0.36075979 0.18335071 1.1028064
-0.32324493 0.17911482 1.1112492
-0.27744988 0.17982569 1.1195623
-0.22834142 0.1922455 1.1297299
-0.17002653 0.18485767 1.1261342
-0.14401233 0.15640895 1.1371899
1.0822403 0.19158547 1.1285729
1.1150756 0.17634322 1.1172167
-0.36272821 0.22679487 1.1033877
-0.32453319 0.22658795 1.1118277
-0.27608803 0.22589107 1.1232592
-0.22550943 0.22547822 1.1347394
-0.18862805 0.21989337 1.1456286
0.94325185 0.24161492 1.1391373
0.96588933 0.23593317 1.1209352
1.0236578 0.22527072 1.1272979
1.0644668 0.21297839 1.1237432
-0.364952 0.27502048 1.1034269
-0.32566452 0.27600649 1.1123201
-0.27382284 0.27485618 1.1255143
-0.22382516 0.27421957 1.1392038
-0.18993346 0.27391279 1.1480812
0.94212067 0.25066674 1.1470385
0.96043408 0.25546807 1.1257617
-0.36948156 0.32441422 1.1049271
-0.32441318 0.32315892 1.1160052
-0.27461377 0.32405961 1.128504
-0.22544907 0.32489818 1.1411543
-0.19393754 0.31968996 1.1487889
-0.37471619 0.35575724 1.1057463
-0.3243109 0.35931382 1.1157916
-0.27389857 0.37319183 1.115418
-0.22623418 0.37193567 1.1234986
-0.17452109 0.37742963 1.1312002
-0.12575077 0.37809259 1.1428466
-0.089333631 0.36978912 1.1479945
-0.30546966 0.42895749 1.1013647
-0.27562353 0.42705604 1.1087642
-0.2251824 0.42312527 1.1221657
-0.17539424 0.4251821 1.1347594
-0.13402829 0.42628479 1.1455878
1.1753643 0.41547275 1.1250727
-0.30598199 0.47539911 1.1023227
-0.27428329 0.47507787 1.1098945
-0.22500007 0.47399935 1.1233504
-0.1768748 0.47427458 1.1356363
-0.13385008 0.47454715 1.1461091
-0.30893311 0.523296 1.1014535
-0.27569661 0.52353525 1.1096071
-0.22602527 0.52546823 1.1229832
-0.17332748 0.52482969 1.1369663
-0.13385557 0.52543801 1.1467187
-0.30844209 0.57418621 1.1016771
-0.27494475 0.5761053 1.1105365
-0.22590213 0.57536167 1.1237649
-0.1760387 0.57430428 1.1362914
-0.13544017 0.57987022 1.1466758
-0.30790594 0.62170768 1.1023217
-0.27589467 0.62526476 1.1099398
-0.22467938 0.62343591 1.1236842
-0.17556782 0.62456715 1.1366252
-0.13628396 0.62533343 1.1463226
-0.30766159 0.67413521 1.1022556
-0.27404606 0.67308664 1.1099933
-0.2251135 0.67405397 1.1232408
-0.17569904 0.67473608 1.1358907
-0.13414505 0.67554808 1.1468244
-0.30521548 0.72274303 1.1023694
-0.27530253 0.72369367 1.109123
-0.22431147 0.72336888 1.1227047
-0.17456049 0.72511941 1.1361636
-0.13437076 0.72255731 1.1460534
-0.31023592 0.77531296 1.1019775
-0.27484816 0.77545744 1.1090498
-0.22554187 0.77445525 1.1229286
-0.17612538 0.77516425 1.1352669
-0.1340656 0.77272922 1.1461041
-0.30517882 0.82355064 1.1015494
-0.27481627 0.82536435 1.1093727
-0.22532192 0.82530558 1.1225637
-0.17327194 0.82466435 1.1359789
-0.13375328 0.82593781 1.1454821
-0.30568254 0.87219036 1.1015583
-0.27339152 0.87402105 1.1078653
-0.2239444 0.87524313 1.1210214
-0.17655291 0.87237322 1.1335028
-0.13008592 0.87622619 1.145425
-0.27283615 0.90218151 1.1063802
-0.224585 0.90535647 1.1194569
-0.1705438 0.90657026 1.134342
-0.13316883 0.91029155 1.1441419
0.28903946 -0.4633342 1.1590883
0.30725855 -0.47781521 1.1534094
0.24777296 -0.42504388 1.1615067
0.25940824 -0.43694016 1.1659921
0.29769439 -0.25061321 1.1515856
0.29399073 -0.22439495 1.15131
0.31619945 -0.21742222 1.1555738
0.29319644 -0.18504991 1.1507717
0.32381245 -0.17583084 1.1581016
0.35949418 -0.16355787 1.1647804
0.2961891 -0.12431216 1.1508628
0.32456547 -0.12602374 1.1589903
0.37305096 -0.12342001 1.1704853
0.40305689 -0.10612968 1.1657325
0.29769617 -0.078596741 1.1505477
0.32494223 -0.073862217 1.1572143
0.3748669 -0.07519526 1.1725955
0.42480016 -0.073295601 1.1855559
0.46295446 -0.086817309 1.1956935
0.32787144 -0.025333209 1.1566793
0.37567168 -0.02643474 1.1720489
0.42693534 -0.026526941 1.1881468
0.45838675 -0.022674784 1.1978242
0.33132118 0.023571076 1.1562037
0.37555999 0.022354057 1.17009
0.42671332 0.023685165 1.1875302
0.45873496 0.023037568 1.1981202
0.3318806 0.075066432 1.1553581
0.37591398 0.074889518 1.1696891
0.42648616 0.074359767 1.1863761
0.45957637 0.074434377 1.1976898
0.047019001 0.14812413 1.1873554
0.055773973 0.14868188 1.1915805
0.3288624 0.11273684 1.1568111
0.37505576 0.1129821 1.1710517
0.4260833 0.11001153 1.1873244
0.454844 0.11160709 1.1971385
-0.15581925 0.18611802 1.1534582
-0.12516673 0.17809184 1.1623626
-0.076123483 0.1773157 1.1759329
-0.027362967 0.17459376 1.1883719
0.0048496351 0.17439772 1.1980046
1.0469093 0.1936602 1.189337
1.074466 0.18218011 1.1741517
1.111941 0.16920705 1.162378
-0.16443789 0.22779106 1.1542333
-0.12336928 0.22534373 1.1648445
-0.072890356 0.22536817 1.1785167
-0.024746414 0.22419854 1.1918776
0.0032502438 0.22210112 1.1990749
0.8153041 0.23176095 1.1882362
0.89794838 0.23114027 1.1854789
0.92512858 0.23849335 1.1737065
0.97548538 0.22820061 1.1719804
1.0387913 0.21660523 1.1801863
1.0533222 0.21299669 1.1611867
-0.1656976 0.2751112 1.1546861
-0.12330835 0.27551395 1.1663104
-0.073708966 0.27442318 1.1794324
-0.024873706 0.27482361 1.1929317
0.0026396743 0.26512012 1.1992655
0.94056898 0.25297165 1.1645784
-0.20715703 0.34869519 1.1512516
-0.17174968 0.324992 1.1554179
-0.12476023 0.32434404 1.169067
-0.073874436 0.32510087 1.1832836
-0.029630484 0.32135192 1.1949097
-0.20440198 0.35458875 1.1509825
-0.17391518 0.35740018 1.1590351
-0.12302665 0.36307076 1.1698444
-0.071429342 0.37324685 1.1681516
-0.0269379 0.37499914 1.1761855
0.024605041 0.37934539 1.185101
0.070744984 0.37736422 1.1952953
-0.10920407 0.4224318 1.1521134
-0.074099414 0.42546859 1.1611862
-0.024781527 0.42382804 1.1747372
0.025433429 0.42470226 1.1881472
0.061343044 0.42607987 1.1981002
1.1641909 0.42324775 1.1550092
-0.10983091 0.4737747 1.1526979
-0.075030081 0.47503591 1.1618328
-0.025617188 0.47493654 1.1749017
0.025698733 0.47497261 1.1887398
0.064227112 0.47481978 1.1979426
-0.11174036 0.52401423 1.152733
-0.075007141 0.52480507 1.161777
-0.024722608 0.52523506 1.1754968
0.023232136 0.5243175 1.1875176
0.059054427 0.52634531 1.1971205
-0.11203535 0.57311958 1.15351
-0.073993951 0.57520682 1.1625061
-0.025664145 0.57503927 1.1758684
0.02333821 0.57426953 1.1881716
0.058210306 0.57389772 1.197075
-0.11030639 0.6250248 1.1538944
-0.075116664 0.62581277 1.1621827
-0.026386777 0.62513041 1.1754904
0.022865584 0.62456846 1.1885157
0.059131511 0.62545359 1.1973947
-0.11086817 0.67428678 1.1531736
-0.075214453 0.67526156 1.162408
-0.026346574 0.67428672 1.1747909
0.023272248 0.67491537 1.1885914
0.05768539 0.67428017 1.1967775
-0.11168642 0.72793841 1.1518836
-0.076861717 0.72461432 1.1611885
-0.027249763 0.72379756 1.1746552
0.02371644 0.72487289 1.1873348
0.06206359 0.72575355 1.1969597
-0.1082306 0.77947402 1.15321
-0.076644532 0.77424216 1.1611205
-0.027172029 0.77430004 1.1739874
0.024274739 0.77625233 1.1868094
0.062333971 0.77554983 1.1964457
-0.11089873 0.82400644 1.1528621
-0.073260456 0.82540917 1.16128
-0.024207206 0.82436037 1.1738652
0.024899952 0.82730305 1.1865007
0.06613899 0.82309234 1.1964163
-0.10634742 0.87093723 1.1523321
-0.073586203 0.8748827 1.1605171
-0.025343936 0.87489134 1.1730396
0.025095791 0.87685692 1.1864665
0.066358864 0.87546206 1.1958345
-0.11251244 0.91492552 1.151853
-0.073974632 0.91439855 1.1594875
-0.024428835 0.91854984 1.1727412
0.025960157 0.92354554 1.1855539
0.070366807 0.92362207 1.1962615
0.049986761 0.95154846 1.1952344
0.06736929 0.9535116 1.196986
0.47186261 -0.069209896 1.2061191
0.47378844 -0.029069185 1.2074753
0.47410202 0.02478566 1.2076224
0.47370186 0.07601352 1.2065368
0.064887494 0.1499263 1.2012695
0.17372949 0.14841273 1.2302619
0.24484003 0.14421895 1.2380373
0.25503612 0.14489622 1.242635
0.41831163 0.12600064 1.2053943
0.4743349 0.11315154 1.2088034
0.030780734 0.17706642 1.2052505
0.074767239 0.17586873 1.216099
0.1229489 0.17473304 1.2289798
0.17270701 0.1763327 1.2418437
0.20361896 0.16758831 1.2489662
1.0314593 0.18395966 1.2324194
1.0613818 0.17370212 1.2156365
1.4967903 0.17824088 1.2256324
1.5058457 0.17804727 1.226747
0.028454425 0.22549982 1.205705
0.075609647 0.22573508 1.2178053
0.12300052 0.22399439 1.2297847
0.17346054 0.22544938 1.2427661
0.20279074 0.21140438 1.2494653
0.82993603 0.22443596 1.219026
0.8772108 0.236127 1.2185125
0.91230625 0.23679401 1.219445
0.97264129 0.22882339 1.2193449
1.0268331 0.21373294 1.2245657
1.5234747 0.20199983 1.2383085
-0.0043578018 0.29803029 1.2005585
0.026494103 0.27510741 1.2062553
0.075553194 0.27536461 1.2189959
0.124223 0.27448991 1.2313499
0.17132717 0.27493027 1.243939
0.89532584 0.2606039 1.245905
0.90211427 0.25702015 1.2420812
-0.01026989 0.33444515 1.2017733
0.025446761 0.32410717 1.2100874
0.075736985 0.32533959 1.2236351
0.12634419 0.32477596 1.2358172
0.16707684 0.32113796 1.2464303
-0.014409195 0.36076543 1.2040621
0.025405599 0.35888183 1.2140243
0.081090324 0.37021151 1.218991
0.12445644 0.37370715 1.2201202
0.17323452 0.3782506 1.2264673
0.22554296 0.37883458 1.2379335
0.2654101 0.38146079 1.2466676
0.085193597 0.4251737 1.2037425
0.12461925 0.42457962 1.213331
0.17575231 0.42504641 1.2272613
0.22471122 0.424649 1.2393131
0.25660226 0.42409205 1.2471968
0.087881751 0.47484595 1.2043655
0.1272148 0.47435269 1.2145574
0.17540918 0.47424555 1.2273059
0.22460328 0.47510329 1.2394103
0.25991699 0.47369045 1.2479506
0.085994467 0.52435094 1.2044173
0.12548412 0.52408397 1.2138207
0.17422877 0.52571434 1.2266613
0.22494206 0.5239222 1.2397289
0.25958627 0.52565527 1.2484924
0.082548395 0.57649219 1.2039723
0.12354548 0.57511389 1.2137697
0.17490406 0.57530797 1.2269548
0.22488032 0.5750742 1.2399026
0.25856525 0.57386142 1.2477655
0.083163396 0.62368321 1.2037053
0.12437025 0.62498021 1.2145827
0.17425719 0.62526673 1.2271599
0.22378254 0.62487686 1.2393212
0.25915402 0.6234982 1.2476044
0.083397411 0.67434198 1.2041599
0.12576738 0.67442375 1.2139688
0.17555067 0.67569637 1.2271075
0.2244515 0.67545301 1.238788
0.26137289 0.67738813 1.2479897
0.087117441 0.72434294 1.2047932
0.1248465 0.7262553 1.2132529
0.17541921 0.72444725 1.2260396
0.22665706 0.72538537 1.2391311
0.26192611 0.72727686 1.2474465
0.087119922 0.77251709 1.2035892
0.12463852 0.77660191 1.2133219
0.17446698 0.77537704 1.2258734
0.22343448 0.77452898 1.2375621
0.26001066 0.77825528 1.2470909
0.085035667 0.8268857 1.2026669
0.12548044 0.82379782 1.2128787
0.1768011 0.82535154 1.2253696
0.22656599 0.82289743 1.2377833
0.26391926 0.82506239 1.2459049
0.090911321 0.87593526 1.2028538
0.12409726 0.87334162 1.2111729
0.17320476 0.87411356 1.223873
0.22403282 0.87556058 1.2372757
0.26170805 0.87270838 1.2459919
0.093652934 0.92950541 1.2032233
0.12583868 0.9229455 1.2114534
0.17607825 0.92354423 1.2237004
0.22588082 0.92501408 1.2370813
0.26520973 0.92729616 1.2469205
0.092000842 0.95831805 1.2017064
0.130272 0.96091193 1.2122574
0.17787305 0.96785647 1.2243122
0.22459683 0.97516423 1.2367438
0.26350826 0.97522384 1.2468382
0.24156089 1.0028634 1.2413337
0.27125633 1.0076842 1.2481031
0.28110173 0.14746116 1.2615101
0.32009172 0.14767271 1.2709539
0.37478873 0.14548787 1.2843596
0.42689982 0.14325221 1.2926339
0.22665441 0.17463396 1.2555163
0.27385038 0.17572707 1.2674875
0.32504967 0.17429619 1.2810948
0.37392968 0.17541893 1.29353
0.40339011 0.16720146 1.2995541
0.84122455 0.18407717 1.261467
0.88256353 0.18077384 1.2902476
0.92854512 0.18089136 1.2908807
0.97943926 0.1816076 1.2820961
1.0139939 0.17368323 1.2621182
1.0723759 0.16450113 1.2577157
1.4848688 0.18254726 1.278023
1.5131282 0.16436635 1.2735449
0.19647177 0.24978772 1.2504652
0.22668415 0.22492807 1.2561743
0.2740747 0.2257493 1.268158
0.32337046 0.22417192 1.2813509
0.3694441 0.22616453 1.2932657
0.40252686 0.24577695 1.2994611
0.82859403 0.22893669 1.2866788
0.87769669 0.22453468 1.2732029
0.92943889 0.22983769 1.282933
0.97804403 0.22435376 1.2773246
1.0105851 0.2143493 1.2720363
1.5161655 0.20390473 1.2724671
0.19559355 0.28149968 1.2518003
0.22553499 0.27353573 1.2573036
0.27519411 0.27596775 1.270445
0.3243489 0.27500334 1.2825392
0.37160516 0.27428716 1.2946951
0.91529894 0.25922307 1.274892
0.19015397 0.32902732 1.2537467
0.22403596 0.32434592 1.2609223
0.27448052 0.32400352 1.2741308
0.32585511 0.32527792 1.2867101
0.36391851 0.32166192 1.2964698
0.14646463 0.3638382 1.2522602
0.17863673 0.35997763 1.256018
0.22462091 0.35886827 1.2661569
0.2801598 0.36937213 1.2648033
0.32357478 0.37292197 1.2704681
0.37265101 0.37644973 1.2783256
0.42345318 0.37647206 1.2873267
0.46409577 0.37586397 1.2965395
0.2813307 0.42479676 1.2533867
0.32547495 0.42502341 1.264485
0.3755222 0.42499194 1.2764047
0.42477959 0.42557421 1.2895489
0.45919025 0.42517567 1.2971807
0.28161526 0.47556973 1.2538995
0.32345393 0.47426757 1.2639956
0.37438405 0.47528434 1.2769321
0.4256064 0.47450203 1.2892106
0.45830673 0.47948802 1.2961617
0.28477982 0.52497262 1.2545974
0.32658321 0.52352303 1.2649387
0.37519979 0.52452332 1.2766707
0.42522338 0.5257864 1.2894081
0.46200573 0.52404368 1.2980525
0.2830697 0.57466346 1.2537533
0.32439622 0.57522213 1.2646704
0.37536639 0.57417756 1.2768888
0.42515066 0.57390612 1.2891294
0.46074176 0.57766652 1.2978244
0.28489688 0.62666106 1.2544205
0.3263863 0.62370908 1.2649459
0.37496537 0.62519032 1.2772398
0.42458192 0.62327856 1.289026
0.4578934 0.62875336 1.2974733
0.28329095 0.67421943 1.2540215
0.32432848 0.67439717 1.2643496
0.37525198 0.67401767 1.2766206
0.42584249 0.67570823 1.2888862
0.46272734 0.67495549 1.297729
0.28567162 0.72374839 1.2537631
0.32472065 0.72453541 1.2629426
0.37554049 0.72606599 1.27645
0.42561296 0.72525501 1.2889553
0.46004367 0.72507566 1.2974145
0.28332773 0.77332783 1.2527155
0.32559919 0.77455336 1.2636262
0.37486339 0.77541417 1.2757226
0.42448369 0.7745719 1.2886982
0.46252736 0.77260393 1.2970883
0.28761989 0.82191259 1.2535796
0.32391909 0.82584679 1.2616396
0.3751705 0.82348537 1.2755256
0.42368177 0.82404011 1.2868123
0.4612568 0.82717144 1.297815
1.5737602 0.82394725 1.273396
0.28586593 0.87406188 1.2530903
0.32477275 0.87578386 1.2626395
0.37300596 0.87345165 1.2745385
0.42318782 0.8740294 1.287948
0.45654261 0.87565327 1.296128
1.5713507 0.87163937 1.2809157
0.28962865 0.92220062 1.2538832
0.32408267 0.92489773 1.2628126
0.3742258 0.92468321 1.2761761
0.42523429 0.92355436 1.2891707
0.46254951 0.92637551 1.2989453
1.5724541 0.92214203 1.2895612
0.28894821 0.97336477 1.2534058
0.32468563 0.9755637 1.2628136
0.37277171 0.97474027 1.2755307
0.42347607 0.97444105 1.289331
0.45463529 0.97416329 1.2982857
1.5765395 0.96165586 1.2934953
0.2895838 1.015475 1.2547188
0.3271749 1.0168781 1.2621813
0.37536484 1.0257484 1.2757739
0.42623496 1.0245281 1.2898639
0.45744461 1.0176495 1.2985106
0.38409832 1.0551649 1.2791314
0.42775953 1.063324 1.2888126
0.46274349 1.0707313 1.2978842
0.54916751 -0.10804356 1.3406216
0.56668931 -0.10653707 1.3461808
0.54974395 -0.057415567 1.3441615
0.55077201 -0.081255183 1.3458223
0.54956019 -0.021890443 1.3443545
0.550915 -0.033803776 1.3475609
0.54864275 0.023734439 1.3420537
0.54834336 0.074328132 1.3400135
0.42489082 0.14868131 1.3037364
0.47448525 0.14453061 1.315297
0.53194183 0.1349019 1.3343154
0.5568828 0.13036664 1.3455044
0.39708745 0.17690846 1.300415
0.42542773 0.17568211 1.3071158
0.47404215 0.1751471 1.3214927
0.52364832 0.17518377 1.3369807
0.55843025 0.17715017 1.3474227
0.92348832 0.18099871 1.3117228
0.99174285 0.16466346 1.3138034
1.4662988 0.18183671 1.3258573
1.5121855 0.16210547 1.3237903
0.39141694 0.22583134 1.3008006
0.4253346 0.22409633 1.3083277
0.4764421 0.22582701 1.3229508
0.52462506 0.22482122 1.3362287
0.56451017 0.22728728 1.3470353
0.7896983 0.22531061 1.3411055
0.81964153 0.22705425 1.3220859
0.87224042 0.21743302 1.3161418
0.92677027 0.21807446 1.3137335
0.97722197 0.21590321 1.3120056
0.39550686 0.27997997 1.3018962
0.42518699 0.27413371 1.3088571
0.47471195 0.27548829 1.3217191
0.52701056 0.27435517 1.3364536
0.56451571 0.27603111 1.346578
0.38674405 0.32833397 1.3034718
0.42474607 0.32548782 1.3122171
0.47524172 0.32585818 1.3258036
0.52408201 0.3250685 1.3382598
0.55806637 0.32161888 1.3470304
0.38218454 0.35762635 1.306511
0.4260762 0.35693017 1.314694
0.48163539 0.37105122 1.3128484
0.52639735 0.37273362 1.3202664
0.57518625 0.37567297 1.328974
0.62360764 0.3782891 1.3403084
0.65684533 0.37855113 1.3471875
0.48271289 0.42354888 1.3041555
0.52318257 0.42447063 1.3135569
0.57456082 0.42572913 1.3267291
0.6254788 0.42377883 1.3400953
0.6547516 0.42596444 1.3472067
1.7112958 0.43571109 1.3324881
0.48352084 0.47330219 1.304462
0.52676892 0.47616711 1.31513
0.57445133 0.47459254 1.327069
0.6237458 0.47487724 1.3398585
0.65887028 0.47093952 1.347688
0.4848313 0.52605349 1.3034621
0.52423328 0.52535582 1.313765
0.5749833 0.52422029 1.3265944
0.62603855 0.52440172 1.3398489
0.65656775 0.52649432 1.3474478
0.48316669 0.57356286 1.3037698
0.52344763 0.57562345 1.3141237
0.57354665 0.57483715 1.3263854
0.62383318 0.57435286 1.3401941
0.66029447 0.58766919 1.3489279
0.4818745 0.62379974 1.3035088
0.52421629 0.62493724 1.3144569
0.57503808 0.6255126 1.3277973
0.62432218 0.62341172 1.3404566
0.652493 0.63117284 1.3490323
0.48404849 0.67344046 1.3037888
0.52486056 0.67340165 1.3142722
0.57457161 0.67558092 1.3278941
0.62417442 0.67347932 1.3411829
0.65752387 0.67535627 1.3487644
0.48502526 0.72542959 1.3037043
0.52499038 0.7223742 1.3146658
0.57417178 0.72505301 1.3273026
0.62534744 0.72399122 1.3413098
0.65758884 0.71625787 1.3495731
0.486213 0.77847546 1.3045611
0.52450114 0.77359337 1.3150766
0.5752275 0.77548736 1.3285439
0.62481153 0.77468425 1.342168
0.65642768 0.77231717 1.3486588
0.48403081 0.82283306 1.3045329
0.5250147 0.82523584 1.3163211
0.57464594 0.82546878 1.3293935
0.62511218 0.82561576 1.3418574
0.65715742 0.81742811 1.3476605
1.5596362 0.82576966 1.3237031
0.48359203 0.87359035 1.3045962
0.5238865 0.87665731 1.3159448
0.57446146 0.87322205 1.3291379
0.62475675 0.87632382 1.343207
0.65451002 0.87174928 1.3488925
1.5600476 0.8742218 1.3250983
0.48205152 0.92221367 1.3037584
0.52419895 0.92705077 1.31665
0.57413036 0.92643982 1.3297683
0.62369245 0.92231435 1.3417153
0.65655625 0.92867255 1.3484983
1.5634952 0.9270376 1.324771
0.44789699 0.96037239 1.3011271
0.47697377 0.97517556 1.3044881
0.52464187 0.97342384 1.315351
0.57452524 0.974733 1.3291112
0.62679809 0.97433323 1.3424338
0.65904218 0.96197653 1.3492907
1.564813 0.97626054 1.3270527
0.48090759 1.0237904 1.3042638
0.52401996 1.0248103 1.3153025
0.57488722 1.0247458 1.3282375
0.62364441 1.0256596 1.3401594
0.65758204 1.0224683 1.3483896
1.5653681 1.0242755 1.330788
0.4833301 1.0705758 1.3038296
0.52407342 1.075186 1.313805
0.57442725 1.0757257 1.3269751
0.62577689 1.0770701 1.339343
0.65550196 1.07033 1.3462204
