ply
format ascii 1.0
comment PCL generated
element vertex 1511
property float x
property float y
property float z
element camera 0
property float view_px
property float view_py
property float view_pz
property float x_axisx
property float x_axisy
property float x_axisz
property float y_axisx
property float y_axisy
property float y_axisz
property float z_axisx
property float z_axisy
property float z_axisz
property float focal
property float scalex
property float scaley
property float centerx
property float centery
property int viewportx
property int viewporty
property float k1
property float k2
end_header
-1.1770566 0.77867734 3.1282096
-3.3051515 0.83439207 3.1138706
-3.2687426 0.83546644 3.1296246
-3.2426794 0.81863475 3.1333132
-1.9231747 0.8193174 3.1148148
-1.8930198 0.82101983 3.1374397
-1.2021999 0.82559204 3.1023219
-1.1777884 0.83077222 3.1304486
-3.3089857 0.87654305 3.1075411
-3.2712634 0.87465191 3.1293867
-1.928993 0.87297547 3.1209447
-1.8992238 0.88372964 3.1351371
-1.2068117 0.87656641 3.1048689
-1.1762447 0.87470472 3.1323009
-3.3142037 0.91918516 3.1019824
-3.2752411 0.92890882 3.1316552
-1.9503896 0.91793579 3.1023326
-1.9242446 0.92726016 3.1261482
-1.211033 0.92761439 3.1057453
-1.1771802 0.92441773 3.1346884
-3.3049357 0.99475455 3.1123304
-3.2773206 0.97541285 3.1294196
-1.9597664 0.96543354 3.106997
-1.9263175 0.972094 3.1293705
-1.8983518 0.98652524 3.1483657
-1.3142394 0.99317992 3.1271305
-1.2086501 0.9801383 3.1118572
-1.1764733 0.9711116 3.1392486
-3.3093634 1.0271826 3.1076412
-3.2748666 1.0260514 3.1328893
-1.9614452 1.000759 3.1010509
-1.9263381 1.0222617 3.1306868
-1.320406 1.0223947 3.1360378
-1.2211839 1.0294527 3.1104486
-1.1858684 1.0203084 3.138006
-3.3113792 1.0589159 3.1004188
-3.2835016 1.0702858 3.128974
-1.9556454 1.0760592 3.1095448
-1.9254771 1.0785743 3.1338594
-1.2218709 1.0733343 3.1180646
-1.1923212 1.0614189 3.1381273
-3.3185875 1.1236343 3.1125066
-3.2675831 1.1238202 3.1365643
-1.9614134 1.1227307 3.1065278
-1.9307842 1.1251436 3.1304293
-1.3085003 1.1161253 3.1292236
-1.2217349 1.1242175 3.1197364
-3.3189642 1.1830616 3.1102433
-3.2823853 1.1811161 3.1339931
-1.9604896 1.1708862 3.110409
-1.9308873 1.1741067 3.1363182
-1.3089998 1.1740198 3.1148837
-1.25072 1.1737294 3.105032
-1.2259079 1.178117 3.1251826
-3.3180006 1.2283926 3.1146727
-3.2815514 1.2264657 3.1387062
-1.9604679 1.2287555 3.1124756
-1.9353714 1.2284387 3.1346123
-1.2658914 1.2294775 3.1058967
-1.2295662 1.2259108 3.1322138
-3.3187647 1.2746615 3.1202981
-3.2933314 1.2729263 3.1353598
-1.9624133 1.2796185 3.1197958
-1.9384006 1.2723907 3.1397841
-1.2725821 1.2799166 3.1091254
-1.2287174 1.2681836 3.134608
-3.3125696 1.3184586 3.1188314
-3.2760053 1.3164001 3.1428628
-1.9692744 1.3274194 3.1229753
-1.9483366 1.3144088 3.1442151
-1.3121223 1.325152 3.1274502
-1.2699163 1.3241975 3.1133103
-1.2332582 1.3292589 3.1376102
-3.3222213 1.3718226 3.1136582
-3.2933681 1.3762941 3.1397648
-2.0060425 1.3796697 3.1021874
-1.9713132 1.3751398 3.1289961
-1.3165569 1.3713822 3.1244814
-1.2755843 1.3752229 3.1125484
-1.2354015 1.3678921 3.1401951
-3.3161936 1.4365302 3.1131916
-3.2872531 1.4291195 3.1410463
-2.0019817 1.4339917 3.1164773
-1.9898609 1.4219435 3.126894
-1.2744826 1.4236732 3.1215594
-3.330164 1.4832311 3.1171372
-3.2961216 1.4822284 3.1442018
-2.0171089 1.4721061 3.1126032
-1.9866626 1.4694196 3.1384921
-1.2756679 1.4749459 3.1234193
-1.2459241 1.4871854 3.1484861
-3.3507469 1.5197395 3.1034257
-3.31552 1.5289183 3.1251528
-2.060148 1.538833 3.1103003
-2.0234399 1.5207102 3.1328242
-1.2796413 1.5255892 3.1307218
-1.2470592 1.505457 3.1452713
-3.321584 1.5797383 3.1235688
-3.2928967 1.5653878 3.1495056
-2.0289752 1.5510938 3.1417525
-1.3025448 1.5874106 3.112133
-1.2833053 1.5701606 3.1287117
-3.3545299 1.6389737 3.1000459
-3.3247712 1.6240813 3.1254768
-1.286633 1.6249412 3.1334264
-3.3270183 1.6736728 3.1191897
-3.2938471 1.6731925 3.1474285
-1.3060857 1.6903484 3.1358585
-1.2884719 1.6709675 3.1295173
-3.3615053 1.7399299 3.1064994
-3.3261027 1.7220144 3.1272151
-1.3102028 1.7216389 3.1347201
-1.2785995 1.722724 3.1427982
-3.3717937 1.7854605 3.1120527
-3.3362386 1.7746795 3.1355438
-3.3649597 1.83733 3.1244357
-3.3284769 1.8166584 3.1440222
-3.3721018 1.8836019 3.1178064
-3.3431489 1.8968321 3.1453681
-3.3650761 1.9378033 3.1204822
-3.3371758 1.9328065 3.1430252
-3.3691947 1.9813901 3.1186657
-3.3389912 1.9735212 3.1477959
-3.4125874 2.0354502 3.1125813
-3.3650129 2.026911 3.1288176
-3.3487687 2.0015423 3.1454177
-3.4119902 2.0574617 3.1002858
-3.3782208 2.0684195 3.1232696
-3.3458357 2.0802112 3.1474028
-3.4038675 2.1109619 3.1088445
-3.3709376 2.1225863 3.1324742
-3.3873029 2.1780565 3.1229661
-3.3451333 2.1725268 3.144032
-3.4187529 2.2250507 3.112946
-3.3715241 2.2276053 3.1232646
-3.3693013 2.2789593 3.1155782
-3.3397036 2.283077 3.1393783
-3.3231275 2.3145831 3.1153409
-3.276094 2.3284781 3.1289096
-3.1051548 2.3408089 3.1087708
-3.0902689 2.3462126 3.1339796
-2.5927675 2.3483279 3.1469092
-2.5342336 2.344207 3.1222382
-2.3578801 2.3441586 3.1319296
-2.2588832 2.3462665 3.1467135
-2.221607 2.3383577 3.1287174
-2.1985023 2.345175 3.1302009
-2.1199167 2.3337865 3.1055927
-2.0786383 2.3317881 3.1262751
-2.0467815 2.3292296 3.1399255
-1.9775244 2.3255119 3.1232765
-1.9252733 2.334295 3.1356299
-1.8858829 2.3379993 3.1238468
-1.8005714 2.3251257 3.1219931
-1.7261807 2.3238935 3.1261218
-1.690415 2.34392 3.1174278
-1.5730524 2.3441181 3.1269679
-1.5241865 2.339092 3.128845
-1.4683406 2.3345261 3.1233401
-1.4204243 2.3388879 3.118098
-1.3834897 2.3372953 3.1228116
-1.2104156 2.3481252 3.1265979
-1.1729922 2.3468003 3.1364753
-1.1326714 2.3488271 3.1324575
-1.090502 2.3461714 3.12186
-1.0144631 2.348284 3.1271987
-0.97237587 2.3465345 3.1108236
-0.36644232 2.3497131 3.1027346
-3.2131205 2.3658128 3.1487353
-3.1736166 2.3672485 3.1164665
-2.8233285 2.3682032 3.1388483
-2.7516284 2.3559237 3.1050372
-2.7232227 2.3588219 3.1329379
-2.6612632 2.3534088 3.1076427
-2.6189892 2.3537862 3.1200411
-2.5724618 2.3507509 3.1086268
-2.4732358 2.3561437 3.1331704
-2.4260011 2.3609276 3.1198034
-2.3874693 2.3532701 3.1304793
-2.3180037 2.3652365 3.1281874
-2.2865591 2.353971 3.14416
-2.2486045 2.3557351 3.1191151
-1.9194623 2.3532286 3.1092923
-1.6152459 2.3614266 3.1223333
-1.5554669 2.3507442 3.1026428
-1.3610549 2.3770258 3.1382141
-1.310624 2.3797092 3.1402068
-1.2679439 2.3709288 3.102016
-1.2328769 2.355875 3.1308746
-1.1808856 2.3535542 3.1245689
-1.1231029 2.353838 3.1170413
-1.0620012 2.3528347 3.120681
-1.0229197 2.3558321 3.117012
-0.98544401 2.3533263 3.1234245
-0.92091483 2.3598921 3.1303446
-0.87930584 2.3739345 3.1354227
-0.82393789 2.3600972 3.1162107
-0.77064574 2.3668828 3.1277809
-0.72233754 2.3608155 3.1198442
-0.67706084 2.3610225 3.1248362
-0.62616098 2.3577857 3.1237013
-0.58390629 2.3543463 3.1168506
-1.298623 2.4027829 3.1190321
-1.0619502 -0.41522241 3.1517191
-1.0281328 -0.42529604 3.1765487
-0.98163366 -0.44140601 3.1876698
-1.0595213 -0.37656409 3.1604116
-1.0317969 -0.38017306 3.1830342
-0.87050045 -0.37741712 3.188942
-1.0638808 -0.32962397 3.1643701
-1.0317029 -0.32535729 3.1889772
-0.8662408 -0.34482443 3.198565
-1.0728545 -0.27164584 3.1611986
-1.0380137 -0.27529296 3.1816311
-1.0726842 -0.22143526 3.1609652
-1.0354257 -0.2203324 3.186938
-1.0726391 -0.16995634 3.1629889
-1.0348116 -0.17298903 3.1869764
-1.0727804 -0.12528044 3.1671991
-1.0380502 -0.13107702 3.1896069
-1.0679593 -0.07654155 3.1706455
-1.0394255 -0.078593761 3.1906261
-1.0709651 -0.031227926 3.1717205
-1.0375663 -0.031410675 3.1984022
-1.071051 0.023703143 3.1719639
-1.1066958 0.078383833 3.151804
-1.0728185 0.078770943 3.1765375
-1.0734962 0.12600636 3.1775129
-1.038096 0.12646855 3.1983542
-1.1088352 0.18041858 3.1549835
-1.0743104 0.17332816 3.1783428
-1.1087533 0.21958645 3.1530142
-1.0749922 0.2207018 3.1783531
-1.0395046 0.20569757 3.199857
-1.1102471 0.27481866 3.1542623
-1.0780512 0.27069023 3.1789272
-1.7005996 0.34795117 3.1567748
-1.6905981 0.34929711 3.1755567
-1.1114392 0.3301042 3.1540143
-1.0768362 0.32570496 3.1826246
-1.7240329 0.37430876 3.1607022
-1.109538 0.37793124 3.157099
-1.0820103 0.37976193 3.1803834
-3.209203 0.42596573 3.1678584
-3.174705 0.43911785 3.1694639
-3.129741 0.44342592 3.1988587
-1.7269083 0.41649711 3.1621046
-1.108603 0.42885393 3.1572709
-1.0765685 0.42643014 3.1838369
-3.1641765 0.47426754 3.173331
-3.1300209 0.47361985 3.1953211
-1.1092299 0.47392109 3.1595509
-1.0756333 0.47651869 3.1863432
-3.2054758 0.5264554 3.1507115
-3.1639497 0.5245412 3.1660864
-3.1348832 0.52468473 3.1933355
-1.7408038 0.53734595 3.1744363
-1.1109849 0.52211767 3.1593554
-1.0812448 0.52241457 3.1835082
-3.1707311 0.57609832 3.1651504
-3.1376648 0.57553107 3.1885459
-1.806457 0.58429754 3.1748981
-1.7952021 0.57207996 3.1845608
-1.1128302 0.57051235 3.1588974
-1.0870775 0.57364601 3.1838691
-3.1738417 0.62845463 3.1723852
-3.1492109 0.61809814 3.193619
-1.8133594 0.63474691 3.1895607
-1.7991165 0.62143433 3.1942539
-1.1152227 0.62344444 3.1638951
-1.0898113 0.62300521 3.1856225
-3.2005613 0.6913085 3.1561818
-3.1812468 0.67458439 3.1781757
-1.8267107 0.68178147 3.177798
-1.1219257 0.67120802 3.1647928
-1.0893177 0.66908592 3.1906333
-3.2157788 0.72519594 3.1651249
-3.1870797 0.72819567 3.1868649
-1.8563364 0.73450983 3.1648939
-1.823629 0.72084022 3.184787
-1.1187326 0.72158772 3.1697466
-1.0876077 0.72265863 3.1903651
-3.213799 0.78202754 3.160913
-3.1864161 0.7728402 3.1873555
-1.864777 0.76592028 3.1589961
-1.8361217 0.77001476 3.1877227
-1.1258056 0.76955003 3.1673191
-1.091369 0.77352208 3.1934788
-3.2180471 0.83035481 3.1643312
-3.1862745 0.83002317 3.1903586
-1.8714113 0.82276446 3.1559744
-1.8437303 0.82570815 3.1826642
-1.1501133 0.83382976 3.1504612
-1.1269226 0.81858045 3.1689494
-1.0893668 0.8351559 3.1942294
-3.2229252 0.87262297 3.1593876
-3.1814463 0.8749035 3.1878519
-1.8720989 0.87852532 3.164887
-1.834729 0.88120139 3.1938934
-1.1534414 0.88448215 3.1502564
-1.1258063 0.87191844 3.1743784
-1.0974505 0.86692649 3.1952338
-3.2257881 0.92764968 3.1685257
-3.1827586 0.91135621 3.1935577
-1.8753778 0.92436707 3.1718247
-1.8440005 0.92471957 3.194988
-1.1220824 0.92395872 3.179075
-3.2264223 0.98242289 3.1748383
-3.1944118 0.99237293 3.1983459
-1.8735529 0.9698261 3.1664066
-1.8385204 0.96752429 3.1916766
-1.1617973 0.97191161 3.1560607
-1.134439 0.9762246 3.1785746
-3.2322812 1.0256026 3.1690714
-3.1967657 1.0241078 3.1920738
-1.8725554 1.0259714 3.170656
-1.8437907 1.0292755 3.1966822
-1.157962 1.024242 3.1588564
-1.1253886 1.0277243 3.186306
-3.2533259 1.0705342 3.1581585
-3.2192752 1.0695126 3.1830254
-1.8779757 1.078119 3.1721511
-1.8481164 1.0666373 3.1953592
-1.1708601 1.0813354 3.1634645
-1.13658 1.0753996 3.1888282
-3.2277844 1.1243535 3.1756446
-3.1975369 1.1454291 3.1976609
-1.9040248 1.1386766 3.1581304
-1.8733511 1.1216792 3.1790957
-1.1753483 1.1285936 3.164762
-1.143029 1.1090978 3.1910846
-3.2267449 1.1797727 3.1775198
-1.9083272 1.1763726 3.1550934
-1.8801198 1.1771021 3.179116
-1.1730092 1.1730763 3.1732969
-1.1395048 1.1937642 3.1948051
-3.2602868 1.2262974 3.1573246
-3.2266054 1.2253765 3.1830816
-1.9071543 1.2251471 3.1587136
-1.8787163 1.2217637 3.182184
-1.3314235 1.2275498 3.1587749
-1.2013395 1.2306613 3.1537654
-1.1748278 1.224143 3.1734588
-3.263649 1.2757206 3.1578672
-3.2345874 1.2682453 3.184304
-1.9153409 1.2746702 3.158324
-1.8842076 1.2775328 3.1822884
-1.3361411 1.2570214 3.1626456
-1.2078555 1.2871671 3.1562586
-1.1806933 1.278107 3.1785984
-3.252461 1.3153504 3.1593623
-3.2254608 1.3192285 3.1840427
-1.9166692 1.3259368 3.1649101
-1.8912411 1.3420001 3.1960297
-1.2125368 1.3255048 3.1583009
-1.1813695 1.3240356 3.1815424
-3.2636592 1.3804414 3.1647365
-3.2317669 1.3694482 3.1904361
-1.9278789 1.378448 3.1680722
-1.8939223 1.3707783 3.1914692
-1.2178011 1.3806331 3.1640909
-1.183301 1.3763758 3.1863475
-3.2609143 1.4334459 3.1669204
-3.2243989 1.4312918 3.1904655
-1.9649737 1.430679 3.1552696
-1.9262387 1.4352971 3.1877861
-1.898159 1.4007818 3.189285
-1.2286999 1.4284879 3.1649616
-1.1866591 1.4248257 3.1921947
-3.2638922 1.4839855 3.1645317
-3.2316926 1.4750838 3.1887996
-1.9648554 1.4733073 3.1606684
-1.9394205 1.4745662 3.1769052
-1.220729 1.4757994 3.1697934
-1.1894728 1.4657946 3.1909454
-3.2710016 1.5279984 3.16186
-3.2367947 1.5269045 3.1881399
-1.9767795 1.5186468 3.1658003
-1.9412944 1.5192831 3.1854792
-1.2519708 1.5283698 3.1514568
-1.2233472 1.5265592 3.1784599
-1.1907351 1.5113461 3.1982398
-3.2674634 1.5811385 3.1718605
-3.2318354 1.570515 3.1932373
-2.0048237 1.5535564 3.1612108
-1.9728044 1.5570875 3.1871529
-1.931846 1.5535818 3.198235
-1.2580358 1.5699221 3.1539266
-1.2284794 1.5757974 3.1759479
-1.1994756 1.5826488 3.1997895
-3.2730346 1.6250107 3.1666913
-3.2371001 1.6231041 3.1915641
-1.2592618 1.6251901 3.1645944
-1.2242874 1.6260655 3.1902215
-3.2664735 1.6774439 3.1726749
-3.2278407 1.6650835 3.1914732
-1.2645417 1.6751838 3.1604931
-1.2360013 1.6774826 3.1828022
-3.2774773 1.724696 3.1717107
-3.2390671 1.7215092 3.1944752
-1.2602286 1.7155722 3.159677
-1.2301171 1.7219273 3.1818748
-1.1973921 1.7248499 3.1975706
-3.3088992 1.7900804 3.1560996
-3.2738228 1.7721246 3.1767941
-3.3006477 1.8412548 3.1671178
-3.2824795 1.824645 3.1836398
-3.3299038 1.8735074 3.1639624
-3.2850544 1.8855343 3.1876953
-3.3115501 1.930701 3.1590087
-3.286597 1.9274315 3.1840804
-3.3131855 1.9904985 3.16941
-3.2940323 1.9730334 3.1857915
-3.3217859 2.0275791 3.1687343
-3.3220632 2.0680938 3.1713541
-3.2963228 2.0547361 3.1933773
-3.3236346 2.1209362 3.168788
-3.2912297 2.1328642 3.1925986
-3.3185792 2.1698227 3.1593676
-3.2882273 2.173243 3.1823761
-3.3229992 2.2320867 3.1693332
-3.2734432 2.2033148 3.1782727
-3.3128068 2.2777269 3.1723111
-3.2809689 2.28034 3.193922
-3.2658966 2.3219337 3.1821091
-3.2397189 2.3431139 3.1749177
-3.1977069 2.3484342 3.1879435
-2.8641036 2.3497643 3.1915731
-2.7256231 2.3487611 3.1697814
-2.6552277 2.3455691 3.1545725
-2.5790768 2.3443689 3.1776261
-2.5438557 2.3418181 3.1679556
-2.4868646 2.3483262 3.1640952
-2.3602436 2.3463404 3.1892867
-2.2672966 2.3346932 3.1716471
-2.2273886 2.3348198 3.1704307
-2.1862659 2.3442087 3.1875129
-2.1251237 2.3414655 3.1673865
-2.0942063 2.3404524 3.1834967
-2.0308685 2.3345573 3.1751959
-1.9724727 2.3229711 3.1697335
-1.9286337 2.3266919 3.1678731
-1.8826144 2.3288021 3.1797607
-1.800635 2.3308306 3.1777277
-1.7615169 2.3176529 3.1737206
-1.7303292 2.3339491 3.1711602
-1.6276001 2.3412094 3.1707199
-1.576557 2.3301477 3.17799
-1.5306257 2.3325284 3.1686981
-1.4855318 2.3374534 3.1807201
-1.4383647 2.3401699 3.1753275
-1.3175491 2.3453617 3.1862462
-1.2716168 2.3418336 3.1829174
-1.2273707 2.3393724 3.1769478
-1.1712267 2.3433735 3.1710148
-1.132887 2.337363 3.1670485
-1.0631016 2.3479877 3.170639
-1.0443476 2.3472033 3.1746311
-0.99028128 2.340718 3.1983526
-0.91275489 2.3492799 3.1918302
-0.71743131 2.3471925 3.1559019
-3.2247078 2.3517203 3.1737552
-3.1695733 2.3584495 3.1665957
-3.1338031 2.3568077 3.1919372
-3.0715857 2.3572764 3.1757953
-2.8518085 2.3613522 3.1640792
-2.8203139 2.3621182 3.190053
-2.7581675 2.3583782 3.166676
-2.7101233 2.3537972 3.1924775
-2.6191809 2.351059 3.192697
-2.5096281 2.3502233 3.1522193
-2.4718752 2.3538022 3.1857567
-2.4333012 2.3571305 3.1812677
-2.3699615 2.356024 3.1750665
-2.3190451 2.35638 3.1815896
-2.1758184 2.3531089 3.1591907
-1.668159 2.3567173 3.171108
-1.6402621 2.3539109 3.1569028
-1.3606788 2.3731475 3.186816
-1.3284601 2.3730898 3.1709118
-1.2718718 2.3582969 3.1612294
-1.1071559 2.3542104 3.1867211
-1.0844139 2.3543081 3.1739857
-1.0151572 2.3527558 3.1714025
-0.96901369 2.3568692 3.1797755
-0.9291023 2.3579831 3.1723261
-0.8707577 2.3578367 3.1670046
-0.8236981 2.3582892 3.1686871
-0.77461737 2.3564203 3.157809
-0.72252083 2.3637476 3.1781092
-0.68264735 2.3698115 3.1575136
-0.97902113 -0.42000926 3.2087338
-0.9481073 -0.41244361 3.2185833
-0.85432786 -0.41315609 3.2419312
-1.0094259 -0.37196776 3.2018738
-0.97402561 -0.37565291 3.2260401
-0.92740345 -0.38282698 3.2238712
-0.8747108 -0.37994766 3.2276926
-1.0091829 -0.3243798 3.2045462
-0.97743642 -0.32375351 3.2238767
-0.9266668 -0.32244357 3.2285163
-0.88048351 -0.32621446 3.2132792
-1.0132442 -0.26504585 3.2076778
-0.97979426 -0.26961401 3.2220912
-0.93271816 -0.27118123 3.2260633
-0.88571751 -0.29118091 3.2130501
-1.0076747 -0.22115856 3.2056217
-0.9781726 -0.22396652 3.2303269
-1.0082229 -0.17382593 3.2093086
-0.98216736 -0.17483836 3.2343569
-1.014274 -0.12318311 3.2086537
-0.98205513 -0.12710425 3.2354116
-1.0162514 -0.078947172 3.2104957
-0.9823935 -0.079413801 3.2375224
-1.0164676 -0.031494092 3.2116811
-0.98418427 -0.033665359 3.2369778
-1.0251651 0.023901686 3.212466
-0.98984671 0.023988474 3.2347403
-1.0251577 0.079313718 3.2118168
-0.99089408 0.079740815 3.2375536
-1.0237231 0.12690118 3.2129028
-0.99195546 0.12763613 3.2399366
-1.0245889 0.17635861 3.2180417
-0.99145734 0.17245232 3.2424321
-1.0192139 0.22417735 3.2224009
-0.98714602 0.21597029 3.2487707
-1.022456 0.27072117 3.222929
-0.98824006 0.27223378 3.24948
-1.0262203 0.32152045 3.2254419
-1.7191235 0.38054523 3.2270439
-1.6782564 0.35369119 3.2285068
-1.6047401 0.35229322 3.2406063
-1.3709737 0.37526616 3.2122819
-1.060612 0.38154858 3.2013183
-1.0254549 0.37525824 3.2252166
-3.1084805 0.43318343 3.2158377
-3.08323 0.42809904 3.237128
-1.7265354 0.42344397 3.2260823
-1.3684506 0.40876505 3.217994
-1.026606 0.42761937 3.2243879
-3.1099138 0.4735845 3.2123351
-3.0788221 0.47340319 3.2364044
-1.7365006 0.47595158 3.2312043
-1.381281 0.46208331 3.2434392
-1.0267938 0.47805631 3.2264905
-3.1144962 0.52460283 3.2101715
-3.0787284 0.52363199 3.2294991
-1.7510538 0.53724223 3.2321167
-1.7397953 0.52492434 3.2415786
-1.0572879 0.53086191 3.2079964
-1.0228282 0.52968025 3.2292089
-0.99337399 0.54716551 3.2427802
-3.115041 0.57963997 3.2152188
-3.086261 0.57252699 3.2367594
-1.7683853 0.57998139 3.2203035
-1.740999 0.5736258 3.2475843
-1.0602038 0.57635033 3.2062969
-1.0239505 0.57848012 3.2270422
-0.99455088 0.57199162 3.243752
-3.120224 0.62845212 3.2190721
-3.076519 0.63134211 3.2448273
-1.7751789 0.62778151 3.2207339
-1.7392327 0.6272577 3.2447116
-1.0623231 0.6256122 3.2064612
-1.0280004 0.62914306 3.2336061
-3.1271954 0.68054557 3.2172074
-3.0816371 0.67526728 3.2401044
-1.8080084 0.67580307 3.2022209
-1.7708863 0.66906875 3.216851
-1.7330233 0.67256451 3.2313652
-1.0658492 0.67596751 3.2103281
-1.0311025 0.67956662 3.2365429
-3.1618724 0.72442472 3.2067232
-3.1265912 0.72329372 3.2278669
-3.0973151 0.71103519 3.2376077
-1.8070483 0.73875779 3.2093749
-1.7748387 0.72131371 3.2240663
-1.749246 0.72249943 3.241272
-1.0650275 0.72836483 3.2114048
-1.0285102 0.72648853 3.2397904
-3.1597023 0.78753448 3.2109859
-3.1286943 0.77320105 3.2311687
-1.8107328 0.77887142 3.2128901
-1.7767646 0.77400905 3.2336257
-1.0685045 0.77928716 3.2138999
-1.0369893 0.77362156 3.2316358
-3.1649902 0.82977426 3.2072864
-3.133327 0.82946748 3.2324591
-3.0916438 0.82648993 3.2465954
-1.8164959 0.82893521 3.2101793
-1.780103 0.82890403 3.2361512
-1.0678233 0.82358235 3.2136054
-1.0326055 0.82831609 3.2399623
-3.1584823 0.87171364 3.2103238
-3.1366081 0.86881524 3.2335918
-1.8134 0.8747806 3.2150388
-1.777661 0.87125951 3.2416155
-1.1015028 0.89450926 3.2023103
-1.070146 0.87923366 3.2166967
-1.0363269 0.86638993 3.241401
-3.1629684 0.9308725 3.2104833
-3.1275256 0.92932785 3.2380893
-1.8140097 0.92087036 3.2177603
-1.7770895 0.92165446 3.236737
-1.0763433 0.92961717 3.2194514
-1.0395991 0.92256194 3.2451668
-3.1717751 0.98140103 3.2169826
-3.1334813 0.97669059 3.2432346
-1.8136412 0.97479939 3.2135861
-1.7838014 0.97749692 3.2373154
-1.1069664 0.98067492 3.2012403
-1.0754647 0.97216922 3.2227139
-1.0430645 0.95976901 3.2451668
-3.1649656 1.0237963 3.2181525
-3.1369286 1.0247157 3.2476308
-1.8192717 1.0301721 3.2110288
-1.7879508 1.0234805 3.23457
-1.0788498 1.0207841 3.2261879
-3.176013 1.0688465 3.217521
-3.1316667 1.0815886 3.2417481
-1.8177861 1.078114 3.2166183
-1.7900082 1.0584966 3.2369149
-1.1087878 1.0737703 3.2076504
-1.0754255 1.0707713 3.2302301
-3.1748614 1.1239415 3.2202296
-3.1315808 1.1440275 3.2476113
-1.8253282 1.1265994 3.2183216
-1.7970506 1.130916 3.2459774
-1.1193976 1.1280836 3.2121372
-1.0839685 1.130037 3.2338421
-3.1730883 1.1791017 3.2216299
-3.1371729 1.1668926 3.2468965
-1.8501806 1.1840278 3.208436
-1.8223706 1.1755323 3.2290654
-1.1229973 1.177384 3.2106917
-1.0926691 1.1751767 3.2408953
-3.1700687 1.2236526 3.2244294
-1.8536286 1.221664 3.2040031
-1.8242518 1.2257063 3.230402
-1.7919307 1.2456204 3.2462981
-1.119992 1.2247885 3.2191942
-1.087798 1.2435924 3.2458251
-3.2069962 1.2718616 3.2081432
-3.1752117 1.2737875 3.2273493
-3.1361253 1.2622782 3.2421694
-1.861728 1.2714351 3.2044659
-1.8316374 1.2752205 3.2300198
-1.7967918 1.2668406 3.2497518
-1.1508309 1.2809885 3.2053585
-1.1242247 1.2750016 3.2262082
-1.090394 1.2634062 3.2488708
-3.206212 1.3178723 3.2121792
-3.1770172 1.3123804 3.2300107
-3.1435351 1.3135729 3.2471168
-1.8710026 1.3260792 3.2172568
-1.8331615 1.3273554 3.2383492
-1.1555229 1.3282627 3.2058802
-1.1257688 1.3243991 3.2282598
-3.2061696 1.3750169 3.2124214
-3.1766865 1.3739684 3.233578
-1.8721842 1.3745342 3.21279
-1.8384713 1.3761698 3.2329662
-1.1609557 1.3767155 3.2078724
-1.1328245 1.3704596 3.2295783
-3.1797976 1.4302101 3.2251191
-3.1489131 1.4411362 3.2490876
-1.8770893 1.426066 3.2210934
-1.1605465 1.4301795 3.2125041
-1.1327136 1.4200203 3.2328269
-3.2045529 1.4897616 3.2091184
-3.174665 1.4749324 3.2318146
-1.9139171 1.4834944 3.2047145
-1.8733184 1.476589 3.2264385
-1.8465973 1.4616615 3.242116
-1.1648175 1.4768144 3.2163317
-1.1364496 1.4735458 3.2393386
-3.2131021 1.5257423 3.2045007
-3.1780703 1.5242152 3.2290695
-3.1440148 1.5337809 3.2497776
-1.9199775 1.5240042 3.2087505
-1.8791215 1.5230501 3.2311759
-1.1724615 1.5278929 3.2187419
-1.13872 1.5130639 3.2393918
-3.2033174 1.5847305 3.2120564
-3.1843901 1.5681467 3.225745
-1.9128712 1.5604441 3.2257025
-1.8900386 1.5643053 3.2467828
-1.1699002 1.5712943 3.2225082
-1.1384755 1.5762271 3.2470715
-3.2127481 1.6216178 3.2074561
-3.1811399 1.6218468 3.235817
-1.2083762 1.6377237 3.2069876
-1.177428 1.6258061 3.2246077
-1.1432369 1.6262941 3.244549
-3.2012553 1.6804804 3.2120352
-3.1871471 1.666245 3.2311287
-1.211182 1.6762812 3.2007113
-1.173993 1.6743122 3.2240305
-1.1461402 1.6565791 3.2428026
-3.2130146 1.7265617 3.220664
-3.1957181 1.7105387 3.2368994
-1.1724979 1.7222267 3.2238109
-1.1356165 1.7369014 3.2394075
-3.2241082 1.7743679 3.2197154
-3.2533708 1.8391974 3.2020125
-3.2190609 1.8214518 3.2230365
-3.2690787 1.8700784 3.2065644
-3.2266488 1.8755283 3.2201004
-3.1911259 1.873913 3.2455201
-3.2666144 1.9476749 3.2112925
-3.22383 1.9246715 3.2246654
-3.2639472 1.9859792 3.2117748
-3.2315829 1.978248 3.2293661
-3.2822075 2.0208447 3.2091599
-3.2286687 2.0248342 3.2411268
-3.269218 2.0698738 3.2222867
-3.2335265 2.0684361 3.2486334
-3.2688332 2.1216307 3.2179284
-3.2420435 2.1075029 3.2388177
-3.2592881 2.1663542 3.2129667
-3.238328 2.1760993 3.2450881
-3.2641902 2.2312031 3.2243247
-3.2301178 2.2423663 3.2460628
-3.2572193 2.2795386 3.2117953
-3.229089 2.2847366 3.2367904
-3.2238808 2.3242238 3.2229738
-3.1757026 2.3303051 3.2309847
-3.1253357 2.34478 3.2383215
-2.9190748 2.332823 3.2389419
-2.8845437 2.3446109 3.2281644
-2.8290794 2.3349047 3.2481747
-2.7820692 2.3446274 3.2423418
-2.6224694 2.3422484 3.2308855
-2.566206 2.34129 3.2093756
-2.4442718 2.3463778 3.2456822
-2.360672 2.3465972 3.2445762
-2.3271582 2.3406324 3.2173235
-2.2778399 2.3356783 3.233829
-2.2309725 2.3391113 3.2028425
-2.1550856 2.3431954 3.2041683
-2.1183548 2.3360634 3.2119846
-2.0978284 2.346839 3.2441034
-2.0289004 2.3352425 3.2271359
-1.9259193 2.3380485 3.2217426
-1.874404 2.3338816 3.2246106
-1.8272222 2.3286378 3.2353663
-1.7819703 2.3250244 3.2227488
-1.7281321 2.3426173 3.220979
-1.6815878 2.3417277 3.2179346
-1.6041603 2.3187115 3.2018032
-1.5689863 2.3233683 3.2242544
-1.5252603 2.3325403 3.2310843
-1.4706017 2.332953 3.2146385
-1.3241227 2.3310816 3.2299404
-1.2772039 2.3386047 3.2300465
-1.2251112 2.3384485 3.2263758
-1.1948545 2.3437817 3.223846
-1.1248583 2.3439317 3.2250347
-1.0803933 2.3432441 3.2266243
-1.0279166 2.3442357 3.2195079
-0.91869116 2.3460798 3.2236218
-0.82595766 2.3449228 3.2422547
-3.1571431 2.351737 3.229516
-3.1069343 2.3533986 3.2055421
-3.0639155 2.3546722 3.2434475
-2.8367841 2.3540964 3.2225208
-2.7557502 2.3531232 3.2186337
-2.7208843 2.3509088 3.2395139
-2.6831143 2.358192 3.2220006
-2.5255687 2.3539367 3.2063205
-2.4925513 2.3524756 3.2259505
-2.4189706 2.3529043 3.2194567
-2.3950033 2.3599999 3.2496727
-2.2296903 2.3592424 3.2428505
-1.4087996 2.3792353 3.2273583
-1.3789877 2.3685772 3.228327
-1.1709157 2.3521481 3.2438641
-1.0090482 2.3538234 3.2321835
-0.97063935 2.3601427 3.2318382
-0.92138737 2.3529398 3.2329967
-0.88280904 2.362766 3.2276402
-0.82933575 2.3551986 3.2282381
-0.77790838 2.3667691 3.2272367
-0.73874825 2.3685055 3.218565
-0.85881639 -0.36736476 3.2627761
-0.86972362 -0.32059813 3.275785
-0.91496879 -0.26168582 3.2702415
-0.89147741 -0.27334878 3.2864141
-0.95520544 -0.21569747 3.25563
-0.92676246 -0.22454895 3.2739999
-0.89919096 -0.22569866 3.2965143
-0.95589751 -0.17585675 3.2595673
-0.92803067 -0.17665367 3.2804217
-0.89882571 -0.19335847 3.2965429
-0.95452851 -0.12767662 3.2563667
-0.92813802 -0.1284544 3.2823007
-0.95514804 -0.079804033 3.259474
-0.93270463 -0.082535848 3.2822788
-0.95896024 -0.02784506 3.2586184
-0.9283458 -0.0320337 3.2845559
-0.96311128 0.024117304 3.2583258
-0.92867345 0.024260389 3.285682
-0.9639039 0.080134399 3.2603767
-0.93435818 0.07833986 3.2880452
-0.96462393 0.12823564 3.2617636
-0.93859857 0.12904759 3.2890413
-0.96670812 0.17665815 3.2672694
-0.93974358 0.17762031 3.2914851
-0.97090489 0.22725222 3.2670233
-0.94018584 0.22611682 3.2910092
-0.96781921 0.2732375 3.2664745
-0.94018054 0.27454564 3.2884867
-0.97595936 0.32148632 3.2622766
-0.94115192 0.32331848 3.288871
-1.6692796 0.3800585 3.2700808
-1.6212364 0.36724576 3.2730885
-1.5705872 0.37086868 3.2700434
-1.4052179 0.38163403 3.2633431
-0.97486269 0.37211233 3.266433
-0.94522029 0.36153558 3.2904871
-3.0685186 0.42311236 3.2504888
-3.0407414 0.43345153 3.2761693
-1.7141891 0.42574489 3.2523346
-1.6770316 0.42711589 3.278964
-0.97185063 0.41959962 3.2697227
-0.9365797 0.41373074 3.2959952
-3.0514627 0.46373132 3.265244
-3.0260925 0.47557372 3.2815998
-1.7119201 0.47855011 3.2622902
-1.6823498 0.47983858 3.2841377
-1.3873048 0.49723321 3.2541134
-0.97522157 0.47119871 3.2696764
-0.93890047 0.47166654 3.2989702
-3.0528715 0.54443473 3.2558975
-3.0274167 0.52128297 3.274147
-1.7141804 0.52759278 3.2650809
-1.6860806 0.52381241 3.2866361
-1.391387 0.53196335 3.2599351
-0.97380453 0.52218652 3.271138
-3.0586698 0.57571101 3.2575302
-3.0240803 0.57484394 3.27706
-2.9919968 0.58450025 3.2972283
-1.7216098 0.56998497 3.2662635
-1.6902035 0.56810254 3.2894151
-1.4287627 0.57350063 3.2988591
-0.97136915 0.5754208 3.269336
-0.94058836 0.56210554 3.2953191
-3.0653424 0.60727429 3.2598491
-3.0289147 0.62618583 3.2742443
-2.9935093 0.61499459 3.2941265
-1.7151252 0.6180582 3.2763042
-1.6877857 0.62200493 3.2978666
-1.0008295 0.6242215 3.2580831
-0.97471476 0.626194 3.2744861
-0.94289744 0.6043157 3.2984812
-3.0706053 0.6892792 3.2513661
-3.0397336 0.67901421 3.2772219
-1.7155563 0.66769069 3.2784007
-1.691932 0.66680431 3.2997649
-1.0020386 0.68179423 3.2541568
-0.97396576 0.67400008 3.2772615
-3.0683124 0.72147423 3.2621672
-3.0394516 0.72180057 3.2884455
-1.7197999 0.73055035 3.2690377
-1.6931194 0.72792619 3.2926013
-1.412112 0.72530699 3.2830925
-1.3830363 0.71900308 3.2594643
-1.0049813 0.74076796 3.2551231
-0.97469264 0.72157186 3.2802968
-0.94650882 0.7049886 3.2977378
-3.0766437 0.77429891 3.2607868
-3.0355802 0.77770329 3.2886112
-1.7604439 0.78769898 3.2514787
-1.7287502 0.78036016 3.2722898
-1.6984551 0.77364671 3.2956724
-1.0139494 0.77875203 3.2596378
-0.9791978 0.77053112 3.2807813
-3.0657604 0.83018827 3.2695141
-3.0367947 0.82287174 3.2909698
-1.7246329 0.82587469 3.2764425
-1.6925164 0.81844258 3.2965324
-1.0132174 0.81329554 3.2561853
-0.98194283 0.82200569 3.2816634
-3.1088948 0.87208462 3.2553291
-3.0745533 0.87101793 3.2767563
-3.0430703 0.88097525 3.2983494
-1.7513411 0.87832916 3.2570863
-1.7230396 0.8694188 3.2772698
-1.0170437 0.87636232 3.2625692
-0.98570257 0.86993849 3.2862439
-3.1136632 0.90420395 3.2529709
-3.0794961 0.92792976 3.2772231
-3.0445895 0.91213149 3.2926979
-1.7551273 0.92380697 3.2550328
-1.7268214 0.92731559 3.2813611
-1.012735 0.92067438 3.266309
-0.99000961 0.92815495 3.2901516
-3.1026187 0.97901243 3.261776
-3.072638 0.97925317 3.2880611
-1.7622747 0.98005933 3.2566936
-1.7343986 0.97763407 3.2796209
-1.0537983 0.99212486 3.2543502
-1.0202637 0.97920638 3.2703781
-0.9937306 0.98155779 3.2923934
-3.1043839 1.0207762 3.2525339
-3.0754478 1.0213839 3.2800865
-1.7587395 1.0268251 3.2597301
-1.7298719 1.02171 3.2877226
-1.0554528 1.0268211 3.252162
-1.0269814 1.0273306 3.2678447
-0.99659181 1.026094 3.2929645
-3.1117797 1.0541821 3.2516248
-3.0875638 1.077163 3.2784746
-1.7693523 1.0774013 3.2593689
-1.7348093 1.0776254 3.2842982
-1.0245342 1.0749834 3.2790122
-0.99304104 1.0644088 3.292743
-3.1141307 1.1288533 3.2596798
-3.0756202 1.1320817 3.2895224
-1.7716939 1.1227815 3.2615397
-1.735512 1.1238902 3.2870002
-1.4113328 1.1053205 3.2994075
-1.063561 1.1181507 3.2576377
-1.026588 1.1233557 3.282299
-3.1288893 1.1828798 3.2599401
-3.0842631 1.1768943 3.2859397
-1.7710134 1.1723915 3.2683291
-1.7411776 1.1762004 3.2935684
-1.3956939 1.1757619 3.2910717
-1.0657176 1.1782525 3.2668207
-1.0266162 1.1753523 3.2826798
-3.1137195 1.2219363 3.2644167
-3.0808649 1.2212913 3.2886581
-1.778766 1.2221162 3.2701104
-1.7473294 1.225055 3.2927599
-1.4029645 1.2166466 3.2989154
-1.0732995 1.2246368 3.262733
-1.0318267 1.2217414 3.2753839
-3.1061625 1.2648649 3.2621934
-3.07708 1.2762071 3.2868433
-1.80244 1.2887203 3.2545023
-1.7687731 1.2723502 3.2789237
-1.7359846 1.2745372 3.2994087
-1.4059676 1.2540854 3.2963235
-1.071846 1.273679 3.2645712
-1.0408845 1.2694899 3.2877071
-3.1175079 1.3296864 3.2700844
-3.0818853 1.335058 3.2935438
-1.8096976 1.3298738 3.2562969
-1.7748169 1.321642 3.2763999
-1.407584 1.3078401 3.2849808
-1.0757734 1.3271285 3.2728055
-1.0376662 1.3241887 3.2991557
-3.1267452 1.3830378 3.2660465
-3.0902638 1.380828 3.287219
-1.81171 1.3838844 3.257678
-1.7809501 1.370803 3.27911
-1.1038305 1.3813089 3.2586212
-1.0724057 1.376205 3.2777078
-1.0397635 1.3696703 3.2931402
-3.1207812 1.4271506 3.2724724
-1.8270264 1.4242207 3.260371
-1.7833302 1.4255285 3.283077
-1.112862 1.419714 3.2562599
-1.0811838 1.4216615 3.2757993
-3.1230023 1.4756279 3.2694278
-3.0943527 1.4770993 3.2992034
-1.8205806 1.4748737 3.2618461
-1.7881318 1.4652385 3.2872746
-1.1186529 1.4805577 3.2608149
-1.0803068 1.4721199 3.2837403
-3.1191669 1.5213779 3.268292
-3.09937 1.5114011 3.2918537
-1.8606458 1.5443897 3.263382
-1.8256102 1.5279671 3.2817609
-1.7929989 1.5047925 3.2992058
-1.1188091 1.5340466 3.2586865
-1.0844257 1.5163783 3.2739921
-3.1597729 1.5735924 3.2525742
-3.125694 1.5725279 3.2774756
-1.8631752 1.5649054 3.2608078
-1.8433845 1.5715461 3.2872148
-1.1168146 1.5763981 3.2621613
-1.0792602 1.5751143 3.2898664
-3.1265163 1.6211754 3.2711422
-3.0957031 1.6056212 3.2926826
-1.1178976 1.6246939 3.2610009
-1.0858794 1.62429 3.284584
-3.1637876 1.6726052 3.2594838
-3.1265144 1.6699194 3.281467
-1.1173793 1.6744685 3.2664328
-1.0856363 1.6707788 3.2886546
-3.1697004 1.7248142 3.2661338
-3.1349449 1.7235219 3.2910995
-1.1536652 1.7025646 3.2503109
-1.1213379 1.7156049 3.2641976
-1.0823464 1.723497 3.2904913
-3.1843095 1.7763557 3.2607601
-3.1328855 1.771822 3.289103
-3.1701379 1.8242705 3.2660668
-3.1323099 1.82126 3.2881703
-3.1663601 1.8801441 3.2729304
-3.1394744 1.8756495 3.2947512
-3.1697662 1.9308746 3.2741265
-3.1396406 1.91532 3.2990389
-3.2046609 1.9834652 3.2551355
-3.1689067 1.9818163 3.2803938
-3.1808555 2.0323932 3.278101
-3.1467164 2.0331528 3.2960529
-3.2031264 2.06319 3.2592807
-3.1696444 2.0742497 3.2811246
-3.22034 2.1277897 3.2639439
-3.1847706 2.1165059 3.287286
-3.2159905 2.1761823 3.2641406
-3.1766047 2.1722889 3.2863946
-3.2095785 2.2234607 3.2617683
-3.1810203 2.2282739 3.2861128
-3.2085662 2.2657404 3.2527411
-3.1745715 2.2769771 3.2739797
-3.1376872 2.2861133 3.2919419
-3.1607635 2.3091369 3.2605271
-3.1249084 2.3189712 3.2792509
-3.0634348 2.3490088 3.2986681
-3.0129137 2.3497648 3.2723124
-2.9547946 2.3390822 3.2923484
-2.9114609 2.3443625 3.2720881
-2.8190739 2.3446851 3.2782977
-2.7691107 2.3302264 3.2823637
-2.735343 2.3417053 3.2703891
-2.6731391 2.3467612 3.2650473
-2.6227059 2.3401024 3.2862511
-2.5090032 2.3468502 3.2607057
-2.2768066 2.3456323 3.294862
-2.2243905 2.3439198 3.2691851
-2.1551762 2.3450325 3.2593827
-2.1203485 2.3403296 3.2702537
-2.075757 2.3388214 3.2752361
-2.0195355 2.3380642 3.2706745
-1.9736372 2.3414311 3.2763546
-1.9184971 2.3306365 3.2766712
-1.8803301 2.3245647 3.2846458
-1.8406097 2.3229864 3.2850919
-1.7743666 2.3287482 3.2793477
-1.729654 2.3334279 3.2616014
-1.6737007 2.3237641 3.2696486
-1.6267568 2.3319275 3.2587004
-1.5725834 2.3235996 3.2671096
-1.5457363 2.3268864 3.2833822
-1.4748559 2.3454046 3.2545369
-1.3737761 2.3368022 3.2774405
-1.3153752 2.3301675 3.2728062
-1.2783992 2.3295789 3.2770581
-1.2236522 2.3391118 3.2784841
-1.1762505 2.3344789 3.2754149
-1.133117 2.3379536 3.2831254
-1.0711939 2.3407626 3.2785618
-1.0284156 2.348865 3.2782526
-0.97356033 2.3435934 3.2710178
-0.92606765 2.3444986 3.280951
-0.89340842 2.3396225 3.2964442
-3.0903139 2.3523307 3.2852623
-2.9779606 2.3621261 3.2622242
-2.8869536 2.3533821 3.2794099
-2.6039472 2.35431 3.2701926
-2.5739622 2.3570971 3.2673483
-2.5357158 2.352056 3.2535162
-2.4832158 2.3524122 3.2897096
-2.4264264 2.3595171 3.2845402
-2.3893063 2.3540332 3.2971904
-2.3027101 2.3509192 3.2896235
-2.2145362 2.3649344 3.2629716
-2.1824548 2.352488 3.2578578
-2.0057013 2.3538108 3.2574177
-1.464927 2.3603597 3.2825816
-1.4315794 2.362812 3.2774658
-1.3929896 2.356143 3.2595077
-1.0292658 2.3508074 3.2810147
-0.98386025 2.3509579 3.2536011
-0.94842559 2.3555901 3.2690282
-0.87165427 2.3547854 3.275537
-0.82294339 2.3533139 3.274086
-0.85572803 -0.41358057 3.3123236
-0.83031017 -0.41844928 3.3345754
-0.85906953 -0.37445995 3.3284581
-0.83726412 -0.37565777 3.343116
-0.46745867 -0.35154456 3.3170104
-0.86277485 -0.32131699 3.3202019
-0.83643419 -0.32632762 3.3432112
-0.46231169 -0.32158396 3.3406487
-0.44350159 -0.31961998 3.3216579
-0.87001181 -0.2736854 3.3198786
-0.83748341 -0.28043076 3.3433499
-0.87219113 -0.22708875 3.3224201
-0.84370208 -0.22815783 3.3436289
-0.90135783 -0.1615663 3.3069711
-0.87459862 -0.1782213 3.3206654
-0.90129024 -0.1373059 3.3074336
-0.87524778 -0.12807702 3.3246341
-0.84435695 -0.14674319 3.3492334
-0.90747768 -0.07745529 3.3064961
-0.87255597 -0.081056967 3.3282349
-0.8439424 -0.097744219 3.3487453
-0.9017458 -0.032229472 3.3108246
-0.87368107 -0.032390807 3.3330445
-0.90134716 0.024380652 3.3093522
-0.87559378 0.022295363 3.3344376
-0.90816563 0.084244527 3.3087821
-0.88390779 0.078188382 3.3324897
-0.91082591 0.12967245 3.3112795
-0.88262194 0.13028845 3.3329322
-0.91078901 0.17824881 3.3095887
-0.88330841 0.1792388 3.3339968
-0.44587511 0.18486625 3.3458695
-0.91147345 0.22700717 3.3100548
-0.88110203 0.22610271 3.3375392
-0.9127323 0.27600721 3.3121316
-0.88484043 0.27743316 3.3352034
-0.91360706 0.32501253 3.3122985
-0.88599998 0.32679141 3.3365824
-1.6234568 0.39443433 3.3162544
-1.5936763 0.39553073 3.3375163
-1.4763973 0.39173186 3.3391268
-0.92139697 0.37646538 3.3136473
-0.88322067 0.37845358 3.3362579
-3.0144315 0.43396807 3.3042293
-2.977747 0.43298939 3.3202806
-2.9432495 0.43231171 3.3381653
-1.6233377 0.43131274 3.3209713
-1.5975649 0.41372249 3.3441541
-1.4512672 0.4318651 3.3220873
-0.92057973 0.42641187 3.3165638
-0.8889277 0.42621103 3.3400829
-2.9782777 0.47325221 3.3161585
-2.9476008 0.47313803 3.3384233
-1.6607233 0.48100147 3.3016651
-1.6328758 0.48012051 3.3223171
-1.4239105 0.45392516 3.3006825
-0.9243412 0.47359058 3.3158972
-0.88968515 0.47577643 3.338414
-2.973999 0.52657664 3.3186698
-2.9492667 0.5035494 3.3365364
-1.6593064 0.52815408 3.3072579
-1.6302205 0.52124673 3.331486
-1.4379699 0.54325628 3.3241944
-0.92753291 0.52321154 3.3145981
-0.89171535 0.52618092 3.3410356
-0.44890159 0.52590889 3.3446796
-2.9711909 0.57304275 3.321322
-2.9322977 0.57449049 3.3453875
-1.6604114 0.56967431 3.3113401
-1.6340715 0.57252336 3.3404112
-1.4434328 0.57944882 3.332691
-0.91841656 0.57703477 3.31721
-0.88941067 0.5725745 3.3435168
-3.0089083 0.6485039 3.3060553
-2.9712231 0.62670928 3.3245866
-2.9399555 0.62646151 3.3463399
-1.6642032 0.62286282 3.3120573
-1.6347221 0.62479311 3.3349535
-1.4440931 0.61373919 3.3299015
-0.92178935 0.62597191 3.3216627
-0.88730031 0.61099434 3.3473444
-3.0168972 0.68066025 3.3095224
-2.9833663 0.67991561 3.3296123
-2.9479191 0.67871368 3.3469708
-1.6729861 0.67927581 3.3129075
-1.6406989 0.67931366 3.3396833
-1.4443426 0.68202764 3.3209815
-0.92507571 0.67452329 3.3185894
-0.88912076 0.67015451 3.3466535
-3.0190926 0.72176051 3.3044648
-2.9804611 0.7191788 3.3307965
-1.6657658 0.73110348 3.3200526
-1.6371046 0.72509682 3.346561
-1.4475166 0.71769291 3.3231208
-0.92534524 0.7273609 3.3206954
-0.89128017 0.72984791 3.346472
-3.0072682 0.76829529 3.3111892
-2.9737704 0.77387595 3.3399267
-1.6674351 0.77537888 3.3161163
-1.6404444 0.77033401 3.3462155
-1.462775 0.7856822 3.3483624
-0.95235366 0.77533811 3.3079069
-0.92446983 0.77964026 3.3327332
-0.89335686 0.76478159 3.3492105
-3.0091829 0.82610494 3.3112304
-2.9931247 0.82727921 3.3318684
-1.6692778 0.81873369 3.3175683
-1.6420225 0.823623 3.3402369
-0.95419979 0.82642025 3.3060305
-0.92582768 0.83061326 3.3293822
-3.0222998 0.8706311 3.3165333
-2.9865799 0.86670536 3.3420112
-1.67732 0.8763575 3.3180287
-1.6421422 0.87420076 3.3419442
-1.4303908 0.86801481 3.3258426
-0.96317053 0.88458389 3.3122177
-0.92972368 0.87580758 3.3359833
-0.89492738 0.85771298 3.3398256
-3.0179937 0.92359978 3.3190584
-2.9869061 0.93368775 3.3401589
-1.6794925 0.92695004 3.3177607
-1.6490136 0.91509873 3.3375943
-1.4527028 0.91972047 3.3464904
-1.4258142 0.93941969 3.3244238
-0.96940702 0.93225265 3.3098118
-0.93612993 0.92152035 3.3326879
-3.0305948 0.97892094 3.320107
-2.99793 0.97829187 3.3422847
-1.7004356 0.97592831 3.3021779
-1.6705741 0.97021675 3.3279293
-1.4595724 0.99378413 3.3478842
-1.430799 0.96866518 3.3306606
-0.96533102 0.97821373 3.3178551
-0.93058836 0.97107923 3.3399847
-3.0263255 1.022123 3.3239982
-1.7074785 1.0241311 3.3058131
-1.6773657 1.0272917 3.3295832
-1.4601275 1.0116013 3.345351
-0.96798015 1.0228015 3.3180616
-0.93415356 1.022835 3.3403063
-3.0583012 1.077732 3.3056414
-3.0244586 1.0767078 3.3272521
-2.9889035 1.0853508 3.3435471
-1.7123208 1.080129 3.3024557
-1.6832443 1.0774915 3.3238397
-1.4411898 1.0976475 3.3272574
-0.96946585 1.0770983 3.3195806
-0.94236457 1.0736947 3.3435287
-3.0278966 1.1340925 3.3272033
-2.9975047 1.1195452 3.3442845
-1.7093003 1.1371033 3.3037105
-1.6750824 1.1222044 3.3315299
-1.4157419 1.1260968 3.3054249
-0.97764999 1.1269928 3.3204644
-0.94115573 1.1195655 3.3453467
-3.0509336 1.1864277 3.305773
-3.0270548 1.1743476 3.3306656
-1.7168137 1.1778063 3.3087265
-1.6802216 1.1732763 3.3293324
-1.4279175 1.1619834 3.3272021
-1.0091813 1.1826645 3.3005588
-0.97792536 1.1734881 3.327744
-0.94938219 1.1668541 3.3483653
-3.0628324 1.2223837 3.3086596
-3.0310655 1.2221513 3.3331461
-1.7233503 1.2270594 3.3089533
-1.6824019 1.2259966 3.3350034
-1.4402585 1.2160915 3.3443928
-1.0119377 1.2197943 3.300751
-0.9837206 1.2220746 3.320127
-3.0520394 1.2997326 3.3120422
-3.0253661 1.276351 3.3294814
-1.7209696 1.2741563 3.3129222
-1.6793388 1.270202 3.3389027
-1.4353547 1.2812202 3.3391457
-1.0159699 1.284948 3.3083737
-0.98059374 1.2670747 3.3272212
-3.0614681 1.335281 3.3112564
-3.0282707 1.3344938 3.3345661
-1.7232658 1.3281617 3.3272798
-1.6845295 1.3012168 3.3412499
-1.0141964 1.3270048 3.3119249
-0.98097616 1.3247998 3.3384976
-3.0651443 1.3856488 3.3120315
-3.0351365 1.3777112 3.3350403
-1.7557881 1.3889382 3.3059416
-1.7244444 1.3693091 3.3243811
-1.6863451 1.3733065 3.3469296
-1.4611092 1.3856766 3.3488357
-1.4316432 1.3656662 3.3304274
-1.0181605 1.3751903 3.3121898
-0.99015331 1.3781911 3.3360076
-3.0716894 1.4289758 3.3112698
-3.026139 1.4273849 3.3415718
-1.7630883 1.4311843 3.3075838
-1.7270831 1.4224191 3.3263211
-1.6915772 1.4140704 3.3456295
-1.0660781 1.4333991 3.3017793
-1.0277363 1.4276367 3.3169513
-0.98436975 1.426298 3.3411789
-3.0630476 1.4791638 3.3176355
-3.0301857 1.4698094 3.3379891
-1.7620143 1.4743642 3.3139958
-1.7318243 1.479827 3.3413355
-1.0529642 1.4737753 3.3077004
-1.024231 1.477043 3.3281169
-0.98993814 1.474467 3.3473885
-3.072413 1.5244501 3.3189325
-3.0352645 1.5218022 3.3389041
-1.8017476 1.5305755 3.3086197
-1.7704601 1.5182447 3.3168268
-1.7398071 1.5235895 3.3438058
-1.0568256 1.5226653 3.3053598
-1.0229294 1.5239924 3.3262317
-0.99368793 1.5238541 3.345721
-3.0745587 1.5735729 3.3149352
-3.0303981 1.5656037 3.3446043
-1.8137897 1.5717779 3.3192656
-1.7748995 1.5577769 3.3362339
-1.7344466 1.5547425 3.3450525
-1.0599377 1.5620539 3.3030519
-1.031991 1.5726267 3.323684
-0.99756169 1.5737488 3.3438401
-3.0689507 1.619096 3.3200233
-3.0361066 1.6186662 3.3450565
-1.056512 1.6241676 3.3139241
-1.0282339 1.6245457 3.3363469
-0.97363973 1.6129951 3.3456581
-3.1039202 1.6858795 3.3137631
-3.0788043 1.6656681 3.3203208
-3.0447431 1.6662724 3.3359952
-1.0649043 1.6733634 3.3080776
-1.0354027 1.6785011 3.3319547
-3.1111584 1.7223102 3.3067775
-3.0762341 1.7208815 3.3305945
-1.0597502 1.7209965 3.3126481
-1.0296544 1.7240843 3.3315871
-0.96980691 1.7204415 3.337569
-0.94008148 1.7470579 3.3496799
-3.1014771 1.7833015 3.3121805
-3.0815852 1.7656994 3.3249359
-3.0463872 1.7547867 3.3447144
-0.95387042 1.7752832 3.3176551
-3.1090674 1.8203733 3.3046453
-3.0858924 1.8274466 3.3329449
-3.1106956 1.8700355 3.3142519
-3.0868003 1.8768549 3.341948
-3.1161184 1.9335691 3.3218718
-3.0809488 1.9225475 3.3431895
-3.1268525 1.9831311 3.31935
-3.0962386 1.9958165 3.3434432
-3.1207366 2.0306489 3.310307
-3.0981677 2.030355 3.3279459
-3.128334 2.0763209 3.3212714
-3.0943065 2.0758846 3.3478148
-3.15309 2.1189852 3.3080337
-3.1181433 2.1192245 3.3249512
-3.0982275 2.1008692 3.3398821
-3.1276166 2.1694248 3.3190126
-3.0918102 2.1678815 3.3439665
-3.1598043 2.2292113 3.3061016
-3.1242373 2.2290773 3.3226633
-3.0900047 2.2196052 3.3375359
-3.1222506 2.2707212 3.3126442
-3.0923336 2.2746301 3.3349066
-3.0825276 2.321007 3.3185821
-3.0380211 2.3129091 3.3338833
-2.988837 2.343488 3.344063
-2.931561 2.3471618 3.3295724
-2.870225 2.337918 3.3323557
-2.826493 2.3379216 3.3215637
-2.7886634 2.3338981 3.3402667
-2.7227991 2.3371079 3.3317754
-2.677525 2.3479097 3.3259892
-2.5969133 2.3458371 3.3167558
-2.5199184 2.3456707 3.3092399
-2.4249718 2.3472087 3.3168781
-2.3706956 2.3458359 3.3203123
-2.3211124 2.3487267 3.3289464
-2.2587163 2.3483725 3.3111832
-2.174896 2.3459024 3.3020294
-2.102 2.3334191 3.3189096
-2.0631144 2.3347435 3.3254149
-2.013226 2.3339334 3.3164749
-1.969377 2.3401074 3.3256488
-1.8680723 2.3249931 3.3235137
-1.8297898 2.3344872 3.3108363
-1.7659358 2.3291578 3.330724
-1.7200909 2.3273792 3.3014266
-1.6847978 2.3219252 3.3226745
-1.638521 2.3235383 3.3296411
-1.5678056 2.3258326 3.3171427
-1.4608712 2.3461874 3.3476102
-1.4243422 2.3354969 3.3286459
-1.3689395 2.3182909 3.3197467
-1.3245556 2.3138301 3.3244491
-1.2733282 2.3225536 3.3193057
-1.2283429 2.3237364 3.3247113
-1.180968 2.3341484 3.3345478
-1.1231495 2.3329151 3.3325889
-1.0775927 2.331677 3.3287392
-1.027451 2.3398135 3.3241756
-0.97388047 2.3343837 3.3091309
-0.92620891 2.3344376 3.3333056
-0.87139446 2.3295093 3.3092194
-0.83715224 2.3392644 3.3077812
-3.0272069 2.3583391 3.3158114
-2.5812001 2.3510873 3.3389289
-2.4928799 2.3502877 3.3370209
-2.3246379 2.3522863 3.3338954
-2.2246437 2.3558056 3.3280408
-2.1407824 2.3535829 3.3361783
-1.5048637 2.3538783 3.3441205
-1.4656727 2.3577347 3.3212614
-0.80624807 -0.42969531 3.3583126
-0.77519941 -0.42841959 3.3799112
-0.74051136 -0.43016863 3.3991871
-0.81083697 -0.38076925 3.3564794
-0.78374118 -0.37639022 3.3775017
-0.49931431 -0.35720462 3.3681333
-0.80779785 -0.32795089 3.3652618
-0.77519864 -0.33191267 3.3870685
-0.50201309 -0.31831902 3.3889861
-0.484097 -0.31727386 3.3794622
-0.81086701 -0.27625856 3.3659084
-0.77777225 -0.27975416 3.3854039
-0.50258178 -0.28600091 3.3947153
-0.48331115 -0.28428149 3.3758523
-0.81628251 -0.22961634 3.370527
-0.7808423 -0.23408835 3.3936234
-0.82394797 -0.18028407 3.3690357
-0.7870779 -0.18123615 3.3931344
-0.82146531 -0.1295556 3.3698738
-0.78682852 -0.13173582 3.3935387
-0.82176036 -0.080402106 3.3720436
-0.7865181 -0.082256258 3.3932011
-0.82428432 -0.032700274 3.3733969
-0.78710228 -0.032868721 3.3962626
-0.86148679 0.049112659 3.3513973
-0.82427156 0.024728516 3.373369
-0.50009763 0.032597642 3.3854814
-0.49915153 0.016301032 3.379164
-0.86606133 0.085915305 3.3520446
-0.82497483 0.082206011 3.3755677
-0.5019536 0.098023422 3.3971817
-0.86276323 0.1309685 3.3548276
-0.83142072 0.13006447 3.379916
-0.47672191 0.13513951 3.3737555
-0.86307025 0.18011165 3.3544703
-0.82852691 0.17951065 3.3780198
-0.502258 0.19610091 3.3964
-0.4778226 0.18228102 3.3703253
-0.857373 0.23807648 3.3632421
-0.82589358 0.23101681 3.3863275
-0.50275189 0.23717715 3.3979986
-0.47905529 0.22340682 3.3773336
-0.44755697 0.21783265 3.3572016
-0.85793167 0.27928546 3.3632743
-0.82898045 0.28060499 3.384675
-0.48390746 0.27664337 3.38008
-0.85902238 0.32896009 3.3645451
-0.82216704 0.33067143 3.3889313
-0.48422113 0.32564762 3.379385
-0.44873667 0.32353577 3.360441
-0.85811597 0.37534148 3.3644779
-0.83056074 0.3803207 3.3845756
-0.47477898 0.37473655 3.3789608
-0.44957885 0.35655209 3.3645763
-2.9144199 0.43247223 3.361834
-2.896745 0.44437099 3.3971164
-1.6013935 0.43433309 3.371819
-1.5965276 0.40925115 3.3850715
-1.5137342 0.43157265 3.3761051
-0.85976005 0.42800221 3.3599403
-0.83245921 0.4309009 3.3883171
-0.46781585 0.4252066 3.3723679
-2.9189939 0.47334519 3.3625019
-2.8967819 0.47460881 3.3936744
-1.6048384 0.48082098 3.3674335
-1.5985487 0.46203917 3.3845096
-1.4855947 0.47980919 3.3519788
-0.86169535 0.47845504 3.3629873
-0.83362573 0.48126826 3.3885365
-0.47081152 0.47094411 3.3750784
-2.9236443 0.52442533 3.3614473
-2.8820448 0.52414578 3.3890562
-1.6074129 0.52310812 3.3755052
-1.5223204 0.53812647 3.3845806
-1.4702563 0.54040694 3.3548913
-0.86355162 0.52906978 3.3651943
-0.8340649 0.53134477 3.3852766
-0.50571549 0.54288894 3.3948505
-0.48309419 0.52009499 3.384243
-0.44956696 0.5023821 3.352123
-2.9109209 0.57422161 3.3587971
-2.8838432 0.57480896 3.3842854
-1.6117887 0.57101363 3.3684051
-1.521443 0.57249659 3.3785286
-1.4901705 0.56935984 3.3674119
-0.86583948 0.58019632 3.3685596
-0.83325052 0.5769673 3.3887758
-0.48870605 0.5669353 3.3898573
-2.9158723 0.62559485 3.3567994
-2.8880289 0.62605959 3.381568
-1.6136054 0.63007742 3.3754985
-1.502593 0.6325618 3.3729177
-1.4809356 0.61594182 3.3590305
-0.87315202 0.63278866 3.3654141
-0.8373878 0.62510949 3.3881533
-2.9146791 0.67800701 3.3661134
-2.8850789 0.67814147 3.3889794
-2.7095759 0.69443524 3.3992217
-1.6160896 0.67936814 3.3695049
-1.5114833 0.6972881 3.3842669
-1.4819779 0.67436421 3.3648629
-0.87313288 0.68101662 3.3617287
-0.83867049 0.66781545 3.3879445
-2.9611883 0.7325722 3.3528574
-2.9230406 0.72048819 3.3685706
-2.8923173 0.72037864 3.3903725
-1.6153409 0.72260159 3.3701034
-1.5072536 0.73009968 3.3694868
-1.4803239 0.73186755 3.3638422
-0.86780012 0.72689384 3.3719099
-0.84371942 0.70866758 3.3912125
-2.9242346 0.77603483 3.3741715
-2.8993676 0.75260019 3.3930213
-1.6209782 0.77357394 3.369611
-1.5127087 0.77637398 3.3746686
-1.4809662 0.76900774 3.3632734
