ply
format ascii 1.0
comment PCL generated
element vertex 1428
property float x
property float y
property float z
element camera 0
property float view_px
property float view_py
property float view_pz
property float x_axisx
property float x_axisy
property float x_axisz
property float y_axisx
property float y_axisy
property float y_axisz
property float z_axisx
property float z_axisy
property float z_axisz
property float focal
property float scalex
property float scaley
property float centerx
property float centery
property int viewportx
property int viewporty
property float k1
property float k2
end_header
0.55332083 0.022636974 0.70602769
0.49510559 0.075678639 0.7420525
0.5168972 0.07469061 0.71558458
0.5540266 0.078368261 0.70830232
0.49365008 0.11054245 0.74260461
0.51372451 0.11161661 0.71761429
0.55593652 0.11155955 0.70872182
0.74099052 0.18984298 0.74088788
0.76065224 0.18922962 0.71637273
0.49701056 0.23552683 0.74833453
0.52163285 0.23402067 0.72540671
0.5514496 0.24622522 0.70461184
0.64660597 0.249403 0.73722982
0.68520218 0.24230713 0.73661155
0.72551 0.22664467 0.72647995
0.75818563 0.21308532 0.71220517
0.12297478 0.28499129 0.74830449
0.62341183 0.29008025 0.72014886
0.67814797 0.25189626 0.72456783
0.70394933 0.25216979 0.70412219
0.1201514 0.3133826 0.74907488
0.64398509 0.30361971 0.72062045
0.79252636 0.34886232 0.71333843
-0.15971091 0.39375499 0.72469127
-0.12653124 0.39100158 0.72377712
-0.081211418 0.39505222 0.73093468
0.11433186 0.35907331 0.74859047
0.79425645 0.37062684 0.7406773
0.81322008 0.37968054 0.719558
-0.20063762 0.42762944 0.74721676
-0.18336152 0.41699067 0.71870458
-0.060054924 0.40687823 0.72024393
-0.030599134 0.42954105 0.72431076
0.79889089 0.41841558 0.74872786
0.81922305 0.42463291 0.72392243
-0.17859454 0.46732971 0.70084834
-0.020988176 0.47074911 0.72498232
0.79784232 0.49441329 0.74598169
0.81953067 0.47464108 0.72418356
-0.061868161 0.50694776 0.70113045
0.74707836 0.53264803 0.71018463
0.77582628 0.50995106 0.72523755
0.81356966 0.50726408 0.71417063
0.63932383 0.59297186 0.73456085
0.68210441 0.58218455 0.72453892
0.72880787 0.58193451 0.72643375
0.75591159 0.57118046 0.71863806
0.64463407 0.60301208 0.7371428
-1.0071468 -0.50347948 0.79204905
-0.97221714 -0.50515664 0.7861073
-0.92633283 -0.50563616 0.77293307
-0.87402362 -0.50542122 0.7778576
-0.82108861 -0.50382882 0.77430654
-0.77242374 -0.50392151 0.77576584
-0.72314173 -0.50277656 0.77833551
-0.67515916 -0.50183004 0.77363819
-0.62692899 -0.50128949 0.76990998
-0.5846445 -0.50087947 0.77832824
-0.54335141 -0.50092733 0.78403854
-0.1948145 -0.50014228 0.77044243
0.092894129 -0.5120514 0.76806611
0.12446498 -0.52111977 0.77518684
0.17433612 -0.52324033 0.77517104
0.22562172 -0.52340078 0.77391696
0.27445856 -0.52238399 0.77481282
0.32399443 -0.51950079 0.77511358
0.37489426 -0.51230663 0.77488852
0.42223445 -0.50526118 0.77208978
0.4529528 -0.50151157 0.75495571
-0.76505858 -0.49977839 0.77661592
-0.73135203 -0.49997845 0.7528851
-0.6700843 -0.4993023 0.76685846
-0.61854547 -0.49899396 0.78193927
-0.56931102 -0.49852377 0.7742852
-0.52409041 -0.49781737 0.7741611
-0.47486153 -0.49659234 0.77489626
-0.42498517 -0.496263 0.77510649
-0.37391177 -0.49587169 0.77467692
-0.32478184 -0.49621999 0.77513969
-0.27554777 -0.49551609 0.77377784
-0.22496924 -0.49641976 0.77394694
-0.174381 -0.49584267 0.77618468
-0.12353908 -0.48893112 0.77591377
-0.0901125 -0.47921118 0.77044034
0.44069552 -0.49552456 0.7870068
0.4738884 -0.47590089 0.77327448
0.5017401 -0.45721319 0.75250661
-0.11101256 -0.42071369 0.78581864
-0.092634402 -0.42345029 0.76275152
0.078078873 -0.41260284 0.76833987
0.48685417 -0.42603722 0.78239703
0.50641555 -0.4224827 0.75813544
-0.11285008 -0.37323919 0.78331298
-0.092255808 -0.36933026 0.75917292
0.046899717 -0.35489213 0.77065235
0.063140698 -0.37644219 0.77304369
0.48967499 -0.37476802 0.78585887
0.50870413 -0.37521017 0.76087135
-0.10584584 -0.34386125 0.79408431
-0.073906325 -0.32844162 0.77610868
-0.024699802 -0.3126325 0.76541501
0.019644218 -0.32832974 0.77826065
0.49017599 -0.32462645 0.78740495
0.50857085 -0.32513338 0.76220155
-0.053570103 -0.29565534 0.79328173
-0.023618974 -0.28383157 0.78797644
0.0038894764 -0.29332125 0.79386538
0.48984003 -0.27461079 0.78624398
0.50816739 -0.27512395 0.7611931
0.48840687 -0.22499892 0.78356677
0.50632483 -0.22554971 0.75874245
0.48666048 -0.17407045 0.77981627
0.50429821 -0.17788714 0.75600779
0.48399991 -0.124483 0.7772243
0.50185972 -0.13067494 0.75208938
0.096307345 -0.068861529 0.78932124
0.12400538 -0.056280177 0.79443467
0.4813664 -0.074459724 0.7753222
0.50006539 -0.094720609 0.7516225
0.093875565 -0.020910591 0.78106892
0.1219424 -0.024103211 0.78074425
0.47849655 -0.026395511 0.77431965
0.097142614 0.0030325532 0.78374296
0.11588662 0.021721171 0.7841047
0.47574684 0.024243305 0.77433234
0.12286127 0.077075534 0.79112357
0.47137481 0.075271845 0.77525783
0.12530039 0.13034758 0.7758916
0.15493901 0.13359788 0.79087442
0.46968815 0.11130541 0.7757833
0.13070692 0.17258392 0.7786808
0.15548341 0.16613913 0.7865572
0.69671321 0.18741859 0.7981016
0.71735215 0.18727788 0.77452165
0.75057048 0.1792203 0.75990528
0.099602446 0.24654001 0.79772878
0.12326274 0.22260047 0.77094501
0.15743996 0.2268087 0.78355175
0.48775363 0.23423252 0.77505183
0.50612855 0.23068689 0.75818831
0.63520867 0.23973329 0.78612733
0.67428857 0.23016025 0.77205074
0.71439499 0.21179405 0.76934743
1.0108306 0.20252632 0.79949462
-0.0029340782 0.25176001 0.79846895
0.016789239 0.27039111 0.7971518
0.098206893 0.28105408 0.78810203
0.12191955 0.27368599 0.75921196
0.15834956 0.27475786 0.77978027
0.64040744 0.26080623 0.76728451
0.032273665 0.33934739 0.7862457
0.078537062 0.33290276 0.78111774
0.12222971 0.32658961 0.75709081
0.15441038 0.31414258 0.77442622
0.63326591 0.30448306 0.7859211
-0.16576964 0.39215434 0.77612543
-0.12146528 0.3775349 0.77791679
-0.075284712 0.37818122 0.77397054
-0.042622641 0.39182067 0.78525418
0.028041294 0.37246582 0.78229803
0.074593849 0.37348527 0.77673286
0.12266634 0.35801721 0.75627661
0.15004846 0.35048974 0.78341746
0.74893713 0.35372412 0.79485232
0.77347934 0.37541544 0.77420658
-0.20398596 0.42256492 0.77487683
-0.1894128 0.4065949 0.76865554
-0.11143714 0.40091348 0.78488702
-0.06420067 0.4046396 0.76556915
-0.031443994 0.41913483 0.77249748
0.035057079 0.40426075 0.79661596
0.062249471 0.40442833 0.78616554
0.78293157 0.42432934 0.7755149
0.8016147 0.44807044 0.75226718
0.78171432 0.47556299 0.77604461
0.80258942 0.46334702 0.75130451
0.7446121 0.52648968 0.79535681
0.7657128 0.51995248 0.77478868
0.68017989 0.58420002 0.77678728
0.7264747 0.57501435 0.77593321
0.760162 0.55868793 0.76926446
0.66685003 0.61365139 0.75628519
-1.0705415 -0.50803232 0.8434341
-1.0215541 -0.50452 0.82493377
-0.97634274 -0.5053795 0.8291887
-0.92439491 -0.50404799 0.82234454
-0.87753093 -0.50305414 0.82503736
-0.82667941 -0.50262052 0.82213318
-0.7743125 -0.5028702 0.82409859
-0.7255007 -0.50181711 0.82850313
-0.68215245 -0.50162899 0.82531607
-0.62511522 -0.50072646 0.81425881
-0.57215178 -0.50110745 0.80813968
-0.54859418 -0.50002223 0.81951642
-0.49972212 -0.50072885 0.8467983
0.12718162 -0.52199602 0.82517928
0.1753573 -0.52295762 0.82518858
0.22284611 -0.52250803 0.82302529
0.27520719 -0.52114856 0.82489443
0.32516056 -0.5144816 0.82633996
0.37409452 -0.5073095 0.82346219
0.40661138 -0.50237465 0.81087625
-1.0178783 -0.49972072 0.80444527
-0.86381376 -0.49886528 0.84689021
-0.81233013 -0.49895528 0.82900047
-0.71742487 -0.49886107 0.81800741
-0.66505939 -0.49899161 0.82253766
-0.62654412 -0.49860746 0.82956803
-0.57479542 -0.49831983 0.82579535
-0.52499366 -0.49759728 0.82415736
-0.47384229 -0.49536806 0.82263064
-0.42474464 -0.49545544 0.82575953
-0.37452295 -0.4946678 0.82412612
-0.32451436 -0.49449643 0.82508922
-0.27355322 -0.49474084 0.82486063
-0.2240945 -0.49434766 0.82415581
-0.17337166 -0.48919535 0.82708526
-0.12965743 -0.47899368 0.8221789
0.39538208 -0.49872357 0.8404476
0.42971763 -0.48041567 0.82805568
0.45681015 -0.46244836 0.80895025
-0.16195253 -0.42056435 0.83916402
-0.13504113 -0.42492944 0.8143456
0.090773381 -0.41808119 0.82726598
0.44303125 -0.42795521 0.84118032
0.46219057 -0.42405879 0.81623244
-0.16225658 -0.37497896 0.83608282
-0.13689606 -0.37151793 0.81209964
0.049963329 -0.35059658 0.80404562
0.065659411 -0.36786947 0.82439399
0.44602057 -0.37709966 0.84448183
0.46467304 -0.37488812 0.81940591
-0.15492013 -0.34530511 0.84718281
-0.12068295 -0.33184862 0.82872027
-0.086054958 -0.31276947 0.81679881
0.037477888 -0.31815866 0.8205198
0.053875688 -0.34048069 0.83457267
0.44695547 -0.32487714 0.84520215
0.46514967 -0.32523179 0.82119447
-0.067110606 -0.28007546 0.82852918
-0.029866261 -0.2615951 0.80653411
0.017117638 -0.27591351 0.82070071
0.44655359 -0.27482459 0.84489357
0.4649756 -0.27497444 0.82063186
-0.055282958 -0.22734194 0.84120965
-0.027987119 -0.22322549 0.82115686
0.01237285 -0.22603524 0.83299905
0.44519475 -0.22399415 0.84364808
0.46365955 -0.22456671 0.81828809
-0.055215448 -0.17164555 0.84406328
-0.024904534 -0.17576665 0.82724667
0.012071766 -0.17460871 0.83433694
0.44353536 -0.17419088 0.84157628
0.46163166 -0.1752027 0.81588984
-0.056253225 -0.1376674 0.84377968
-0.023435021 -0.12638034 0.82827443
0.020171653 -0.12308911 0.83332515
0.088292569 -0.10310609 0.82422256
0.10899242 -0.10449075 0.83846194
0.44191554 -0.12352996 0.83806098
0.4595615 -0.12544945 0.81265026
-0.015982276 -0.081145026 0.84020442
0.02329178 -0.075158931 0.8351115
0.07969822 -0.077527978 0.82169157
0.12055794 -0.073954962 0.81844401
0.15607345 -0.053017389 0.84481627
0.4397662 -0.073407657 0.83515257
0.4566958 -0.076778188 0.81093407
-0.0046407343 -0.045347117 0.84818137
0.028589565 -0.029998248 0.84408849
0.067594595 -0.030090043 0.83289373
0.1463102 -0.018466219 0.80621481
0.15716651 -0.027080638 0.82614297
0.43764424 -0.025132529 0.83312303
0.45491445 -0.026382986 0.80859768
0.136584 0.022446694 0.80520779
0.15249413 0.020123519 0.82069248
0.4371748 0.023831153 0.82950521
0.4543522 0.02144561 0.80515051
0.12809411 0.074679479 0.80545396
0.15603489 0.082430691 0.82062888
0.43462777 0.075293735 0.82739121
0.45148531 0.070320256 0.80341858
0.10640775 0.11715532 0.8082512
0.16040462 0.11944684 0.81175637
0.43303373 0.11131012 0.82724959
0.45280543 0.11269491 0.80144137
0.11706768 0.18711124 0.80979216
0.16145055 0.18877411 0.81099045
0.67923164 0.18689896 0.82479858
0.70508689 0.17623512 0.81221861
-0.056387793 0.22749022 0.84144986
-0.024918988 0.22979075 0.83100951
0.010795011 0.2374382 0.83006221
0.098307639 0.24479397 0.81307238
0.1050506 0.21526323 0.81724358
0.16767648 0.22005774 0.80626589
0.44452694 0.23644692 0.84517986
0.46663901 0.23478198 0.82607865
0.50512099 0.23004848 0.80039293
0.58680642 0.23897572 0.8334828
0.62084752 0.23077473 0.8194918
0.67049187 0.21297152 0.82198071
1.0482967 0.22150694 0.8488462
1.0598028 0.22204509 0.84176195
-0.060691889 0.27613103 0.84577394
-0.025845483 0.27473882 0.82755136
0.026225332 0.27446929 0.83173364
0.065524742 0.27800381 0.83385956
0.16951863 0.25279891 0.80321741
0.48377898 0.25293696 0.84814316
-0.061965402 0.32195842 0.84610224
-0.023440531 0.31958205 0.83285761
0.021210045 0.31657061 0.81738192
0.075353198 0.31495094 0.82090133
0.71801639 0.34723148 0.81600285
-0.16267975 0.3834751 0.81990862
-0.13092254 0.36791798 0.81501716
-0.072083965 0.36461636 0.81863683
-0.024803186 0.37526876 0.8269915
0.0050390963 0.36775646 0.82132393
0.73154879 0.37583771 0.82363176
0.75590128 0.38664165 0.8055172
-0.18399441 0.40323395 0.81940663
-0.095345497 0.41086483 0.80615628
-0.018748965 0.41541627 0.81740779
0.016491877 0.40982375 0.81256896
0.73612136 0.42382413 0.83199549
0.75935018 0.42937022 0.80948991
-0.011780945 0.45471752 0.81565142
0.73458278 0.47516805 0.82834131
0.75836998 0.47136432 0.80799216
0.72501409 0.52144009 0.82111126
0.75357455 0.50465333 0.80384099
0.68587232 0.57964915 0.82183886
0.7188611 0.56220025 0.81777519
-1.1537228 -0.50204563 0.8998189
-1.1203223 -0.50526971 0.87900633
-1.0729396 -0.50313324 0.87361783
-1.0242522 -0.50373465 0.87289286
-0.97514713 -0.50418848 0.87523735
-0.92515767 -0.50269139 0.87304378
-0.87727994 -0.50292236 0.87569553
-0.82556081 -0.50184208 0.87601012
-0.78127551 -0.50186414 0.87460315
-0.7304607 -0.50142092 0.87770361
-0.67960477 -0.5014506 0.87209088
-0.61771685 -0.50082439 0.87765288
-0.57424277 -0.50002533 0.86930847
0.13159633 -0.52021909 0.87487578
0.17534147 -0.52160192 0.87475479
0.22698896 -0.52117825 0.87436885
0.27549478 -0.51659328 0.87470394
0.32550019 -0.50973159 0.87556368
0.36277571 -0.50360596 0.86794072
-1.1545839 -0.49945676 0.88911897
-0.92112386 -0.49870896 0.88665402
-0.85884917 -0.49789718 0.89125848
-0.8178339 -0.49915713 0.87039363
-0.76792175 -0.49874252 0.87858117
-0.72463423 -0.49867409 0.87323976
-0.66936833 -0.49803647 0.87504631
-0.62630099 -0.49831054 0.87718666
-0.57359755 -0.49762252 0.8742705
-0.52428818 -0.49737513 0.87221867
-0.47462243 -0.49619174 0.87498814
-0.42464837 -0.49441266 0.87479579
-0.3744134 -0.49294996 0.87358373
-0.32458317 -0.49248073 0.87484109
-0.27477652 -0.49172196 0.87412834
-0.2235862 -0.48055309 0.87819529
-0.17865735 -0.47558868 0.86439878
0.3857775 -0.48525706 0.88218457
0.41208127 -0.46813729 0.86647725
-0.22034329 -0.42415917 0.88170552
-0.18605694 -0.42800233 0.86128581
0.093803279 -0.40691128 0.89138335
0.10396999 -0.44479764 0.85803401
0.39814654 -0.44330275 0.89792728
0.4187277 -0.42424896 0.87476981
-0.2165696 -0.37559474 0.88349837
-0.18639186 -0.3700929 0.86143678
0.077171139 -0.37249377 0.8720237
0.42448145 -0.37434432 0.87410438
-0.20424885 -0.34488401 0.8929553
-0.17093475 -0.33293247 0.87618303
-0.1326236 -0.31356078 0.86600989
0.046599332 -0.30854177 0.85754025
0.060647737 -0.32640287 0.87760085
0.42564574 -0.32462031 0.87424266
-0.11366244 -0.28294048 0.87844515
-0.086712971 -0.26798293 0.86231124
0.040080912 -0.27535599 0.86556053
0.053940777 -0.288257 0.89149332
0.42499366 -0.27517107 0.87507927
-0.10413826 -0.24407804 0.8938089
-0.080198459 -0.22624084 0.87434918
0.036403213 -0.22315666 0.87473094
0.42300418 -0.22497723 0.8744036
-0.074749656 -0.17653814 0.8733831
-0.048489556 -0.18162258 0.85200351
0.035333928 -0.17431818 0.87251741
0.052834515 -0.15304329 0.89436066
0.41942614 -0.17468241 0.87516004
-0.072135262 -0.12525289 0.87278926
-0.042732704 -0.11350342 0.85453027
0.040751047 -0.13747166 0.86277544
0.059253506 -0.11831272 0.87796724
0.10847457 -0.11583306 0.87820023
0.39921382 -0.11355544 0.89637589
0.41713315 -0.12564038 0.87389696
-0.060609285 -0.080014303 0.88301039
-0.036946028 -0.068391934 0.86292106
0.070820011 -0.07390523 0.871925
0.13682209 -0.094272561 0.87106377
0.16044354 -0.064556837 0.87279189
0.39813471 -0.072948799 0.89683211
0.41494909 -0.075876921 0.87167621
-0.051916402 -0.03845064 0.89452231
-0.024179766 -0.026771547 0.87399268
0.012061762 -0.013174463 0.8543725
0.074576542 -0.01697422 0.86074531
0.3962197 -0.023477983 0.89394218
0.41341838 -0.027443949 0.86941618
-0.012086882 0.018406998 0.88513362
0.024730379 0.022911865 0.86442482
0.073980302 0.024615487 0.86765862
0.10506243 0.030374419 0.8884272
0.39386526 0.02616013 0.89227152
0.41201186 0.024503099 0.86697716
-0.0031902213 0.053502217 0.89585865
0.0280944 0.068206638 0.88665628
0.075173609 0.074663326 0.88425261
0.1072765 0.071411848 0.89250845
0.39229316 0.077990778 0.88837034
0.40984598 0.074054733 0.8633548
0.04852521 0.10349619 0.89903265
0.070833534 0.10422525 0.89746243
0.39114362 0.11201782 0.88603908
0.40867203 0.11083732 0.86045587
0.030121606 0.19466244 0.89560145
0.059097588 0.19268732 0.89397931
0.11543533 0.18203333 0.87031996
0.63844317 0.18649064 0.88031209
0.65691078 0.18444048 0.85809857
-0.1115799 0.23098297 0.8871153
-0.080109611 0.22913259 0.86852032
-0.023130037 0.21365935 0.87044364
0.029534461 0.22414993 0.8684932
0.065613806 0.2278752 0.87421972
0.1121949 0.20924401 0.88667423
0.18529609 0.2058953 0.87996614
0.42754346 0.23331045 0.8749513
0.46942997 0.2386869 0.8699854
0.53298646 0.23810656 0.88845539
0.57158738 0.23118559 0.87286925
0.62651658 0.2143715 0.87434804
0.65287805 0.20617117 0.85676163
0.99021828 0.21261987 0.88340992
1.0238787 0.22059456 0.87185931
-0.11424673 0.27348188 0.8893286
-0.078549862 0.2723093 0.86449373
-0.047914889 0.26745275 0.85164928
0.02572586 0.2532061 0.85309112
0.084496215 0.26968646 0.86604452
-0.10916488 0.31971839 0.87939322
-0.076873757 0.32234034 0.86447108
-0.030930253 0.34326774 0.85787928
0.092462391 0.30182207 0.85266578
-0.10865145 0.37029067 0.87746125
-0.067530937 0.36944842 0.87289274
-0.039130054 0.35688189 0.86203623
0.72269344 0.38090852 0.85309625
0.73075694 0.43619594 0.85877162
0.73226106 0.47310898 0.86276788
0.72383815 0.52007043 0.86388683
0.69868684 0.57044113 0.85234547
0.71082938 0.57104546 0.86576498
-1.2219652 -0.50463873 0.93914247
-1.1800649 -0.50534064 0.92739785
-1.125955 -0.50294954 0.92362475
-1.073616 -0.50227505 0.91646099
-1.0164093 -0.50183278 0.91972601
-0.97221172 -0.50329912 0.92162424
-0.9235782 -0.501607 0.92900711
-0.87232429 -0.50118744 0.92327052
-0.82261759 -0.50122172 0.91888726
-0.7846722 -0.50126922 0.92473197
-0.72827959 -0.50074375 0.917678
-0.6718353 -0.5007624 0.91376078
-0.64042139 -0.50038821 0.92752844
-0.55162847 -0.50004208 0.90351391
0.1350705 -0.51065177 0.92501104
0.17342348 -0.51765871 0.92605978
0.22501427 -0.51716089 0.92375255
0.27568036 -0.51299763 0.92531425
0.32015359 -0.50534058 0.92297626
0.35351473 -0.50094199 0.90414554
-1.0756037 -0.49863881 0.9358148
-1.0283087 -0.49891916 0.92525297
-0.96471316 -0.49747333 0.94237345
-0.92401761 -0.49897748 0.92787778
-0.87425321 -0.49850747 0.92248696
-0.82504541 -0.49830669 0.93054801
-0.7664656 -0.49728382 0.92936832
-0.72129518 -0.49814391 0.92779523
-0.67418379 -0.49800608 0.92505676
-0.62170321 -0.4971801 0.92417979
-0.57582676 -0.49695048 0.92206699
-0.52495414 -0.49592525 0.92316055
-0.47424674 -0.49485976 0.92412877
-0.42538345 -0.4939082 0.92437726
-0.37400809 -0.49245551 0.92663252
-0.32401919 -0.49062005 0.92321223
-0.27511191 -0.48635229 0.92072934
-0.24029446 -0.47250476 0.90620518
0.34220079 -0.49304274 0.93505377
0.36814168 -0.47292799 0.92199981
-0.25559172 -0.43043885 0.91525292
-0.24571545 -0.42087594 0.90317547
0.10483787 -0.41040501 0.94044209
0.38060471 -0.42584553 0.92535645
0.40100074 -0.40937889 0.90312093
-0.25421667 -0.38779929 0.92161828
-0.23799275 -0.37078699 0.91130173
0.085089333 -0.37223163 0.90704852
0.38350418 -0.37571788 0.92870474
0.40284443 -0.37163404 0.90315211
-0.21232982 -0.34150118 0.9169116
-0.17931062 -0.32379991 0.91204768
0.068102345 -0.32111186 0.90973997
0.38448501 -0.32431328 0.92878371
0.40363249 -0.32539192 0.90467501
-0.12325576 -0.27553013 0.90384173
0.059864402 -0.27992973 0.92096072
0.38361171 -0.27431154 0.92948741
0.40308756 -0.27760804 0.90464103
-0.10701652 -0.22064528 0.9153077
0.049812004 -0.22346234 0.9091441
0.38317612 -0.22407307 0.92729241
0.40203759 -0.23077755 0.90258992
-0.10670592 -0.18188934 0.92420107
-0.094469428 -0.17903145 0.90579563
0.048613202 -0.17943902 0.90950698
0.05652786 -0.16093507 0.91149378
0.38208517 -0.17408802 0.92567259
0.40058893 -0.19033524 0.90244025
-0.10275305 -0.14030015 0.91609836
-0.090347528 -0.11649374 0.92131442
0.077167451 -0.12186122 0.91800076
0.13657779 -0.11609749 0.91039574
0.15763877 -0.11192637 0.94500291
0.38109094 -0.12520747 0.92458016
-0.074550383 -0.075987399 0.9125132
0.093460642 -0.079643711 0.91418523
0.1043276 -0.067848079 0.92372167
0.16746822 -0.085166931 0.92779142
0.37841815 -0.074506395 0.92405868
-0.057991602 -0.027598191 0.9198153
-0.043844394 -0.0068943538 0.9048937
0.096687421 -0.04559049 0.90666485
0.10520181 -0.048696555 0.92360008
0.37528521 -0.025333097 0.92453921
-0.052505255 0.0045086108 0.93607116
-0.03247663 0.025481232 0.91410851
0.37110764 0.022978842 0.92519784
-0.014467525 0.072306022 0.92456293
0.015992947 0.088883661 0.90836132
0.10599239 0.09624555 0.90112847
0.34749281 0.091551088 0.94764423
0.36718401 0.07364735 0.92400199
-0.0058878842 0.13266376 0.94140476
0.024373302 0.12484229 0.92302698
0.075048991 0.12746757 0.91358399
0.10643966 0.12502241 0.91531014
0.34598789 0.11201251 0.94593769
0.36614463 0.11090029 0.92063433
-0.017568095 0.1777155 0.92528522
0.023797045 0.17017876 0.91223329
0.069570214 0.17304711 0.93052262
0.10668705 0.15376504 0.94126874
0.59721845 0.18476202 0.94447762
0.61462456 0.18551502 0.91993213
-0.13746849 0.22945449 0.91016906
-0.023986239 0.20657595 0.92199028
0.0081903543 0.21068206 0.91162765
0.088584729 0.22112878 0.92289132
0.10403202 0.23804154 0.93270326
0.38032594 0.23316093 0.93004626
0.40528578 0.23272288 0.90775055
0.48970431 0.23610286 0.93701875
0.52123886 0.22855441 0.92232841
0.57973194 0.21689031 0.92722511
0.61003476 0.20908259 0.91454917
0.94055194 0.20923521 0.93606472
0.97172683 0.2152788 0.92723387
-0.13685924 0.26745921 0.90942842
0.097432971 0.25188401 0.90527415
-1.3047947 -0.50212067 0.98635811
-1.2696166 -0.50444669 0.98084056
-1.223915 -0.50369346 0.97516108
-1.1805942 -0.50406516 0.97436661
-1.126536 -0.50249219 0.97508419
-1.0774059 -0.50259787 0.96632099
-1.0309893 -0.50069356 0.96276879
-0.99013996 -0.50016332 0.95607018
-0.91446781 -0.50158572 0.95769149
-0.87927514 -0.5001871 0.9969697
-0.84085107 -0.50010735 0.95686507
-0.77400494 -0.50071716 0.9644838
-0.73246896 -0.50074911 0.97201645
-0.67235029 -0.50009406 0.97793162
-0.63402057 -0.50019628 0.95605963
0.13884924 -0.50277948 0.95618474
0.17938806 -0.50893128 0.97026569
0.22482473 -0.51221669 0.97475654
0.27368256 -0.5076918 0.97279394
0.30780831 -0.50217301 0.95774788
-1.2909967 -0.49971065 0.98842907
-1.2418921 -0.49953738 0.99790144
-1.1580846 -0.49980444 0.97738326
-1.1230319 -0.4968434 0.99742502
-1.0662533 -0.49880478 0.98313206
-1.0206298 -0.49808204 0.98119408
-0.96842182 -0.49673912 0.97762531
-0.92238384 -0.49744517 0.97625774
-0.87649137 -0.49809653 0.97452855
-0.82378131 -0.49689946 0.97582513
-0.772439 -0.49664932 0.97849888
-0.72393084 -0.49715945 0.97652638
-0.67638558 -0.49723327 0.97540033
-0.62359017 -0.49660087 0.9736535
-0.5739035 -0.49592817 0.97224385
-0.526223 -0.49575365 0.97446364
-0.47586372 -0.49485502 0.97354668
-0.42428473 -0.49400079 0.97303522
-0.3750897 -0.49232489 0.9764877
-0.3252756 -0.49113095 0.97408074
-0.28691751 -0.48553672 0.96832836
0.1367878 -0.48444086 0.97801507
0.16424994 -0.49371076 0.98458219
0.29322681 -0.4986302 0.9902879
0.32633519 -0.47677562 0.97431982
0.35395065 -0.45692965 0.95305765
0.12964007 -0.42123577 0.97835606
0.15346028 -0.42093408 0.9979195
0.33677837 -0.42636546 0.98266202
0.35637012 -0.42143416 0.95851374
0.096628137 -0.37024298 0.97132999
0.11935186 -0.38484257 0.98322338
0.33875033 -0.37483403 0.98654401
0.35830727 -0.37452015 0.9616369
0.090549298 -0.34222347 0.99921352
0.33953857 -0.32626531 0.98676038
0.35947585 -0.32402074 0.96178341
0.064208508 -0.26135379 0.95392245
0.33881783 -0.27476594 0.98620558
0.35856774 -0.27461499 0.96144658
0.33797172 -0.22402823 0.98472679
0.35841402 -0.22673312 0.95963126
0.066181295 -0.19205737 0.98810923
0.33744836 -0.17445442 0.98365211
0.35672605 -0.17638487 0.96018916
-0.10503043 -0.13215601 0.98017907
-0.097341001 -0.11223752 0.95290959
0.097524136 -0.13961253 0.99999416
0.16700253 -0.10131646 0.95266408
0.33772212 -0.124664 0.98173618
0.35659593 -0.12524371 0.95812184
-0.11605429 -0.071333356 0.99136764
-0.095038071 -0.086675838 0.98350132
0.18806665 -0.080905356 0.96223223
0.33729878 -0.075471848 0.9814899
0.35497758 -0.074056745 0.95737213
-0.10854684 -0.010920629 0.9816215
-0.0916785 -0.023182686 0.97007287
0.33559695 -0.026418259 0.97987807
0.35382077 -0.028914757 0.95588684
-0.11526656 0.0084985094 0.99447644
-0.061910529 0.023470776 0.99180752
-0.045697629 0.046904378 0.98146904
0.33430398 0.024758 0.97682947
0.35259736 0.020612484 0.952649
-0.051146463 0.054750212 0.99587178
-0.036861569 0.078820653 0.98815626
0.32936728 0.075742036 0.97496891
-0.014566607 0.12507619 0.97377145
0.0011607015 0.12550099 0.95106089
0.32352889 0.11032379 0.97504276
-0.031947978 0.17120342 0.96314561
0.090298325 0.17548747 0.96029127
0.11048342 0.18288413 0.98356164
0.20903365 0.19842698 0.96192151
0.57640845 0.18585294 0.97474295
0.90155572 0.19970365 0.98400164
-0.050121281 0.20059077 0.96318036
-0.025514221 0.21581806 0.97324485
0.0011859688 0.21694881 0.96184474
0.099104553 0.20749858 0.95937061
0.10780887 0.22188899 0.96751541
0.2298156 0.20812047 0.97941732
0.27937451 0.21962062 0.98465401
0.32751915 0.22573981 0.96729451
0.36555019 0.230905 0.95646286
0.44162166 0.23558076 0.98816866
0.47132614 0.22885643 0.97013545
0.52845252 0.2188828 0.97713131
0.56714082 0.20927818 0.97199821
0.88403618 0.2119095 0.99651355
0.92900902 0.21067876 0.98059922
-1.3730679 -0.50798494 1.0355101
-1.3221055 -0.50508362 1.0246016
-1.2749636 -0.50149655 1.0287043
-1.2146211 -0.50220585 1.0208517
-1.1739875 -0.50366265 1.0273098
-1.1409613 -0.50398231 1.0423388
-1.0894365 -0.50107265 1.029436
0.19461451 -0.50023174 1.0176618
0.22677335 -0.50483572 1.0150923
0.26402366 -0.50315279 1.0108366
-1.3204784 -0.49876374 1.0293864
-1.2314732 -0.49941501 1.0301663
-1.1919165 -0.4987669 1.0406709
-1.1195467 -0.49590942 1.0341674
-1.0784149 -0.49680144 1.0220826
-1.0268853 -0.49572018 1.0243205
-0.9769187 -0.4948436 1.0222346
-0.92676431 -0.49431729 1.0272939
-0.87400949 -0.49401617 1.0217806
-0.82628286 -0.49469033 1.0269669
-0.77531546 -0.49566689 1.0232841
-0.72476333 -0.49618995 1.0257484
-0.67208934 -0.49571887 1.0257311
-0.62690455 -0.49645093 1.0244526
-0.57797927 -0.49596161 1.0241673
-0.52538723 -0.49608177 1.0221361
-0.4753184 -0.49551427 1.0271419
-0.42581102 -0.49506834 1.0235997
-0.37570894 -0.49459201 1.0259744
-0.32747173 -0.49227673 1.0252908
-0.29809242 -0.48647469 1.0164115
0.1443326 -0.47393513 1.0026603
0.17457809 -0.4775562 1.0204222
0.22652854 -0.49781701 1.0341874
0.27802238 -0.47777566 1.0273337
0.30707547 -0.4654558 1.0062058
0.14978553 -0.44537485 1.0016271
0.16875112 -0.42522153 1.0201972
0.28672019 -0.42719409 1.0374236
0.31265405 -0.42270455 1.0127274
0.096374184 -0.35281447 1.0061684
0.12738292 -0.36689866 1.0205199
0.1607606 -0.38575736 1.0328419
0.28911972 -0.37712479 1.0414143
0.31382436 -0.37408537 1.0174196
0.093655251 -0.32439345 1.0303681
0.11080015 -0.32151416 1.0358526
0.2903963 -0.32585663 1.0423287
0.31481221 -0.32486582 1.0165136
0.076175705 -0.25714645 1.0241332
0.29074007 -0.27674103 1.0420727
0.31291726 -0.27458242 1.0163738
0.072572663 -0.2286527 1.0126443
0.29130241 -0.22452268 1.0397959
0.31320292 -0.22465165 1.0144682
0.084033452 -0.17329855 1.0177386
0.29016617 -0.17633544 1.0397227
0.31227711 -0.17480177 1.0145882
0.094976477 -0.14384484 1.0069724
0.29105183 -0.12394822 1.0385386
0.31247133 -0.12526394 1.0135317
-0.11511561 -0.065214187 1.0158108
-0.094856314 -0.066997431 1.0214213
0.29114914 -0.073710121 1.037805
0.31307569 -0.075210795 1.0124463
-0.1268841 -0.029845361 1.0161712
-0.089808196 -0.026070114 1.0398808
0.29074219 -0.025359664 1.0378757
0.31178364 -0.026227036 1.011929
-0.12246145 0.029365996 1.0094165
-0.088428505 0.022708578 1.0136361
0.28723714 0.024384698 1.0366328
0.30895621 0.023840126 1.0113658
-0.11513858 0.073686667 1.0172466
-0.084882945 0.076495618 1.0222943
0.28252843 0.076315425 1.0311459
0.30584925 0.070351474 1.0072634
-0.1155816 0.1247105 1.0181723
-0.081280917 0.12625714 1.0191406
-0.023049459 0.14572862 1.0110352
0.27845138 0.1101635 1.0271477
0.30221802 0.10612395 1.0008074
-0.11620965 0.17426138 1.0211296
-0.079075314 0.17648198 1.0260565
-0.037735641 0.16605036 1.020602
0.11322691 0.18296765 1.0055625
0.53211397 0.18481417 1.0276784
0.55530679 0.18491104 1.0075622
0.84972823 0.19556582 1.0397543
-0.11105868 0.20882586 1.0237681
-0.075979002 0.21043457 1.0295643
0.24906251 0.2106722 1.0042677
0.27415511 0.2151005 1.0089624
0.3935923 0.23203468 1.0394449
0.42325103 0.22787455 1.0198392
0.47437066 0.21958372 1.0264013
0.52121675 0.210078 1.0247958
0.5510819 0.20294715 1.0064365
0.88438445 0.20812669 1.0274693
0.90413231 0.20888369 1.0067284
-1.4665066 -0.50787026 1.0973487
-1.4236819 -0.50674945 1.0790745
-1.3749168 -0.50491828 1.0750121
-1.3290622 -0.50239354 1.069764
-1.2772863 -0.50309956 1.0889333
-1.231529 -0.50223994 1.0757933
-1.1767191 -0.50015968 1.0606104
-1.0896908 -0.50257689 1.0506458
-1.3145695 -0.49638391 1.0878631
-1.2754501 -0.49730581 1.07002
-1.2220964 -0.49790058 1.0796462
-1.1754752 -0.49658316 1.0710996
-1.1279846 -0.49658123 1.078442
-1.0734373 -0.49579588 1.0742351
-1.0255498 -0.49404225 1.0786663
-0.9760946 -0.49243686 1.071298
-0.92254347 -0.49091721 1.0803349
-0.87330949 -0.49178138 1.0758679
-0.82305205 -0.49188843 1.0759282
-0.778566 -0.49400342 1.0757647
-0.72792983 -0.49408293 1.0770578
-0.67589146 -0.49517131 1.0736421
-0.62468308 -0.49523485 1.0754267
-0.57285458 -0.49532479 1.073263
-0.52362216 -0.49568987 1.0741684
-0.47671252 -0.49587974 1.076219
-0.42563277 -0.49558848 1.0741169
-0.37475315 -0.49577329 1.0741296
-0.33330759 -0.49360231 1.0740931
0.19777806 -0.48220426 1.0601091
0.22955093 -0.4792093 1.0693038
0.25770617 -0.46313861 1.0566577
0.19046558 -0.42426252 1.0606977
0.24051531 -0.42459583 1.0806301
0.262225 -0.42299432 1.0634743
0.1141791 -0.35360277 1.0646207
0.16507378 -0.38021809 1.0542115
0.24064276 -0.37665957 1.0880655
0.26427701 -0.37400246 1.0656492
0.1253283 -0.3303476 1.0654528
0.24082911 -0.32554913 1.0880983
0.26659158 -0.32352278 1.0638173
0.2388635 -0.27347484 1.0910794
0.26674095 -0.27387035 1.066383
0.23745055 -0.22534521 1.0929916
0.26584518 -0.22487344 1.0674653
0.23721407 -0.17525148 1.0931575
0.26557717 -0.17442615 1.0662606
0.23775981 -0.1250819 1.0927209
0.2668781 -0.12548865 1.0655828
0.23927894 -0.075740792 1.0907511
0.26632404 -0.075340606 1.0661216
-0.084134012 -0.01003309 1.0509669
0.2393536 -0.025021998 1.0866256
0.26555154 -0.025885783 1.0645355
0.23540065 0.024354711 1.0836482
0.26233315 0.021671183 1.0625554
0.23502581 0.075643122 1.0712593
0.25852025 0.069087908 1.0569748
0.23629162 0.10849541 1.0618819
0.25333241 0.11064133 1.0545242
0.48808163 0.1843393 1.0824205
0.50790828 0.18357418 1.059401
0.76350194 0.19529073 1.0910319
0.83783627 0.19777256 1.0658678
0.85381079 0.19863671 1.0623691
-0.11262535 0.22257438 1.0657179
-0.084459953 0.22052142 1.0525162
0.33779103 0.22877052 1.0916687
0.3732934 0.22614221 1.0710548
0.42331609 0.21879633 1.0686144
0.47750252 0.21048912 1.0762924
0.50517648 0.20409106 1.055812
0.76586598 0.20200665 1.0934905
0.82856959 0.20700708 1.0702531
0.86271036 0.20859306 1.0600154
-1.4583993 -0.50400954 1.1293943
-1.4250193 -0.50313598 1.1250651
-1.3802239 -0.5031417 1.1122588
-1.3053572 -0.50138843 1.1329904
-1.2754258 -0.5019955 1.1178323
-1.2319076 -0.50050503 1.1192133
-1.3643852 -0.49724266 1.1301515
-1.3240076 -0.49616954 1.1249619
-1.2743715 -0.49716449 1.1289725
-1.2300164 -0.49458143 1.127875
-1.1779131 -0.49364921 1.1242536
-1.1214449 -0.49297285 1.1242185
-1.0740811 -0.49368337 1.1263558
-1.0239366 -0.49117965 1.1273276
-0.97320354 -0.49044651 1.1198858
-0.92431474 -0.48955399 1.1280859
-0.87295103 -0.48981094 1.1284257
-0.82287955 -0.49080673 1.1280861
-0.77297682 -0.48999429 1.1246226
-0.72451133 -0.49271628 1.1260127
-0.68005383 -0.49442664 1.1286516
-0.62856442 -0.49438041 1.1210706
-0.57442892 -0.4945769 1.1265473
-0.52437437 -0.49526143 1.1241367
-0.47323745 -0.4948847 1.1253275
-0.4228723 -0.49585161 1.1246017
-0.37335518 -0.49527675 1.1234896
-0.33844936 -0.4935247 1.1195414
0.22604059 -0.48079082 1.1203882
0.1687655 -0.35716748 1.1378921
0.23327982 -0.36571595 1.1018209
0.16479976 -0.34921443 1.1384728
0.23141758 -0.30937064 1.1042342
0.22983372 -0.28279719 1.1011256
0.23105064 -0.10680094 1.1006798
0.43842056 0.1818749 1.1380483
0.46336883 0.18403426 1.1122264
0.6950053 0.19830328 1.1487083
0.70979542 0.1942841 1.1430849
0.76012415 0.19757004 1.1105447
0.28274614 0.22331299 1.134962
0.32466936 0.2231337 1.1232983
0.37574109 0.21808727 1.1234784
0.42881504 0.21190463 1.1277411
0.45954984 0.20683801 1.1092279
0.7537961 0.20204231 1.1004257
-1.3254846 -0.50149429 1.1735725
-1.3774595 -0.49575961 1.1642729
-1.3272172 -0.49686658 1.1843035
-1.2673557 -0.49582225 1.1822455
-1.2202719 -0.49289751 1.1715785
-1.1731658 -0.49060327 1.1739316
-1.125163 -0.49120817 1.1670303
-1.0730348 -0.48797548 1.172724
-1.0257928 -0.48664588 1.1750276
-0.9763189 -0.48754624 1.1744215
-0.92516875 -0.48578179 1.1738048
-0.87538761 -0.48675233 1.1763222
-0.82495451 -0.48873633 1.1766045
-0.77612865 -0.48948249 1.1755161
-0.72484112 -0.48976797 1.1750023
-0.67063636 -0.49160534 1.174866
-0.62411636 -0.49343684 1.1738994
-0.57598025 -0.49448177 1.1758182
-0.52511412 -0.49417552 1.1743468
-0.47358012 -0.49493083 1.1725836
-0.42633998 -0.49570006 1.17708
-0.3759453 -0.49572721 1.1751893
-0.34483856 -0.49381843 1.1730998
0.18093257 -0.37044066 1.1663067
0.39572632 0.18315396 1.1931672
0.41750136 0.18305564 1.1684402
0.69624031 0.19772631 1.1917293
0.70565718 0.19598509 1.1580757
0.28074384 0.21746926 1.1664943
0.32043067 0.21745069 1.1624228
0.38309032 0.21408036 1.1811515
0.41275027 0.20630926 1.168671
0.72311592 0.20096441 1.1552505
-1.4299982 -0.50375623 1.2233131
-1.3106844 -0.50032568 1.2270726
-1.3681855 -0.49825382 1.2300038
-1.3312099 -0.49627906 1.2188418
-1.2760026 -0.49390569 1.2302831
-1.2210138 -0.49094638 1.2207173
-1.1690248 -0.49023354 1.2164227
-1.124597 -0.48896396 1.2211474
-1.0739387 -0.48516056 1.2282103
-1.0259191 -0.48520771 1.2264066
-0.97405159 -0.48420906 1.2301428
-0.92533624 -0.484101 1.2250715
-0.87526309 -0.48517373 1.2246447
-0.82464343 -0.4878715 1.22474
-0.77221406 -0.48818403 1.2245516
-0.72679454 -0.49074507 1.2256097
-0.67475367 -0.49041432 1.2178376
-0.62169284 -0.49090841 1.2257652
-0.57737583 -0.49376956 1.2278498
-0.52394074 -0.49447131 1.2240849
-0.47597182 -0.49407518 1.2240367
-0.42605063 -0.49523079 1.2251968
-0.3746534 -0.49446306 1.2278427
-0.34547386 -0.49077398 1.2142454
0.2410897 -0.48098683 1.2275676
0.25164038 -0.47500968 1.234352
0.37457612 0.18302025 1.226254
0.64821571 0.19666775 1.2039695
0.66109705 0.19442134 1.2110801
0.28237084 0.21468784 1.2281384
0.31472436 0.21810898 1.2263031
0.37056133 0.20942193 1.2223207
-1.3634665 -0.49739182 1.2757832
-1.3150346 -0.49424869 1.2585557
-1.2783672 -0.49308294 1.2851888
-1.2239052 -0.49254322 1.2746112
-1.1703149 -0.48758173 1.2706946
-1.1247902 -0.4829317 1.272307
-1.0796424 -0.48270449 1.2773234
-1.0266844 -0.47829467 1.2717084
-0.9738037 -0.48054954 1.2726418
-0.92261505 -0.48032057 1.2721375
-0.87106973 -0.48415247 1.2707011
-0.8229605 -0.48571146 1.2738367
-0.77424282 -0.48766842 1.2750443
-0.72201079 -0.48922551 1.2725546
-0.67690146 -0.49141961 1.2715538
-0.62590837 -0.49142668 1.276585
-0.56973213 -0.49172828 1.2732584
-0.52567947 -0.49362329 1.2732744
-0.47386345 -0.49319398 1.2737907
-0.42296624 -0.49390808 1.274719
-0.37525877 -0.49323633 1.2781898
-0.34701276 -0.49019369 1.2787175
0.24221778 -0.48106647 1.2822423
0.25623357 -0.48010689 1.275749
0.28998476 0.16714771 1.2896843
0.33070281 0.18125226 1.2763669
0.35587835 0.18339872 1.2536739
0.29098052 0.21343823 1.2759323
0.32969645 0.21136208 1.2751563
0.35656062 0.20851295 1.2534602
1.045306 0.52602303 1.2838881
1.0477641 0.58234143 1.2830849
1.0582137 0.58020246 1.2989661
1.0545077 0.62641257 1.2921464
1.0569255 0.67291415 1.2930925
1.0485744 0.72388673 1.2833319
1.0569692 0.72153318 1.297595
1.0395271 0.76247787 1.2773091
1.0532343 0.76431167 1.2984176
1.0400376 0.82772624 1.2910254
1.0308005 0.85511762 1.2895087
1.0295217 0.91016364 1.2954776
1.0345439 1.0274317 1.2863373
1.0354168 1.1135424 1.2808788
1.0434867 1.1776174 1.2902532
1.0446575 1.221653 1.2926934
-1.3018485 -0.49693188 1.3277178
-1.276037 -0.49534482 1.315414
-1.2255058 -0.49047226 1.3165853
-1.1740626 -0.48431224 1.320191
-1.1214355 -0.48075485 1.3198464
-1.0811497 -0.47987288 1.3219821
-1.0072936 -0.47698334 1.3253433
-0.97689968 -0.48194766 1.3249435
-0.92026651 -0.48195738 1.3226498
-0.87478626 -0.48258021 1.3212458
-0.8270793 -0.48609132 1.3301342
-0.77586383 -0.48653063 1.3249757
-0.72531444 -0.48934063 1.3267349
-0.67461503 -0.49114954 1.3241773
-0.62578577 -0.49090743 1.3252089
-0.57693011 -0.49094892 1.3229008
-0.5241217 -0.49181131 1.3218311
-0.47374743 -0.49267495 1.3245286
-0.42402524 -0.4926216 1.3290999
-0.37691143 -0.49235383 1.3242513
-0.33874997 -0.48764843 1.3299432
0.23361978 -0.4790431 1.3255157
0.26190057 -0.48237678 1.3290191
0.29126227 0.18585515 1.3028711
0.30798256 0.19153574 1.3049899
0.29342699 0.20665176 1.3072281
0.31031457 0.20833422 1.3085529
0.99734956 0.46278229 1.3491904
1.038043 0.484438 1.3363971
1.0398999 0.52680308 1.3398064
1.0534948 0.54009652 1.3153641
1.0403543 0.57433558 1.33618
1.0550441 0.57415462 1.3136681
1.0407709 0.62459809 1.336211
1.05583 0.62402916 1.3138523
1.0385065 0.67456794 1.3361751
1.0561712 0.67625833 1.3099942
1.0393604 0.72588903 1.3328333
1.0545521 0.72340065 1.3114055
1.0384103 0.77427584 1.3312478
1.0519813 0.77392215 1.3072976
1.0371213 0.82265568 1.3286686
1.0341953 0.87295842 1.3299785
1.0328354 0.92494804 1.3312702
1.0328883 0.97529936 1.329857
1.0345743 1.0230135 1.3284023
1.0358883 1.0753958 1.3273164
1.0337358 1.124594 1.326543
1.0332985 1.1751986 1.3280866
1.0503304 1.1856767 1.3068963
1.033267 1.2260005 1.3273941
1.0331599 1.2741548 1.3301818
1.0544677 1.2785937 1.3220198
1.0326236 1.3054299 1.3333693
-1.2918335 -0.50140798 1.3578143
-1.2591859 -0.49539706 1.3554604
-1.2258238 -0.49059427 1.3589482
-1.1785823 -0.48785302 1.3757509
-1.1222559 -0.48454919 1.3797359
-1.0957681 -0.47935024 1.3619158
-1.0234699 -0.4797357 1.3732862
-0.96769214 -0.48184803 1.3686671
-0.92540187 -0.48073196 1.3776217
-0.87656045 -0.48221019 1.3732649
-0.8255471 -0.48459575 1.3727771
-0.77632904 -0.48619476 1.3733618
-0.72453839 -0.48964295 1.3806102
-0.67413735 -0.49119684 1.3715957
-0.62360203 -0.4914653 1.3762676
-0.57403547 -0.49186262 1.3761592
-0.52370352 -0.49174491 1.3791708
-0.47719792 -0.49257144 1.376717
-0.42703956 -0.49133536 1.3802148
-0.37717608 -0.49077114 1.3763595
-0.33214214 -0.48686373 1.3763045
0.23850901 -0.48029009 1.370549
0.26452398 -0.47792205 1.3694228
0.9965809 0.4837732 1.3837872
1.0166401 0.48774368 1.3706399
0.99727482 0.53036064 1.3964858
1.0168722 0.524804 1.3706787
0.99669123 0.56995624 1.3958342
1.0160371 0.57537264 1.3697207
0.99610025 0.62523133 1.3951766
1.0151706 0.62607127 1.3704137
0.99362081 0.67390114 1.3932358
1.014001 0.67500138 1.3687583
0.99495983 0.7263779 1.3923459
1.0146528 0.72428894 1.366466
0.99310958 0.77512562 1.3923587
1.0131919 0.77471721 1.367635
0.9930926 0.82418513 1.3902457
1.0127341 0.82514018 1.365743
0.9922834 0.87902242 1.3885016
1.0107837 0.87369698 1.3645165
0.99009043 0.92619777 1.3890476
1.0100968 0.92343557 1.363156
0.9896279 0.97492635 1.388868
1.009698 0.97262585 1.3646294
0.99073839 1.0246922 1.383215
1.0101062 1.0238763 1.3596636
0.98957539 1.0733529 1.3849117
1.0097793 1.0761389 1.3599602
0.98903066 1.1239771 1.3864409
1.0084436 1.1293701 1.3609936
0.98935515 1.1742942 1.3860381
1.0097867 1.1770543 1.3611634
0.99098438 1.2250233 1.385952
1.0094091 1.2207611 1.3616624
0.99011636 1.2752192 1.3878319
1.0099963 1.2746717 1.3609526
0.99172431 1.3152854 1.3848503
1.0096455 1.3109994 1.3651072
-1.3394958 -0.50028104 1.4051139
-1.2618605 -0.49634084 1.4018028
-1.1696569 -0.48987445 1.4248468
-1.0751544 -0.48114586 1.4266946
-1.0173689 -0.48444217 1.4214404
-0.9667539 -0.4823204 1.4265085
-0.92312545 -0.4822852 1.4325159
-0.87842351 -0.48292845 1.4241383
-0.82178009 -0.4862887 1.4263242
-0.77258688 -0.48655605 1.428973
-0.72428042 -0.4885664 1.4306893
-0.67802715 -0.4906525 1.4240693
-0.62241948 -0.48926455 1.4208099
-0.5726037 -0.49053702 1.4250208
-0.52807903 -0.49150243 1.4333515
-0.47278684 -0.48995 1.4276338
-0.42510563 -0.49252543 1.4338311
-0.37504724 -0.48906827 1.4251232
-0.3282125 -0.48780042 1.4252213
0.23343119 -0.47738379 1.4251908
0.27433854 -0.47990525 1.4304631
0.97111815 0.48895958 1.4195164
0.97724098 0.52420139 1.4234123
0.97342533 0.57560551 1.4270012
0.97350198 0.62350118 1.424912
0.96940005 0.67435199 1.4277014
0.97068995 0.72489291 1.4234794
0.94929445 0.77691674 1.4481
0.96838635 0.77521211 1.4239751
0.94850647 0.82205045 1.4467649
0.96708119 0.82472062 1.4226947
0.94662589 0.87536728 1.4471403
0.96655756 0.87439781 1.420853
0.94623357 0.92262381 1.4461551
0.96725333 0.92399287 1.4196831
0.94540107 0.97751397 1.4438515
0.96396589 0.97415823 1.421836
0.94512606 1.0256287 1.4435941
0.96689034 1.0240597 1.4166453
0.94387907 1.0787143 1.4451669
0.96368355 1.0735875 1.418974
0.94620395 1.128767 1.4434189
0.96438056 1.1243402 1.4220452
0.94706368 1.1754342 1.4447283
0.96597815 1.1745496 1.4201025
0.94475156 1.2299914 1.4466352
0.96405131 1.2250897 1.4207227
0.94489074 1.2712981 1.445192
0.96508765 1.274562 1.4205803
0.94795156 1.3246936 1.446945
0.96479994 1.3214256 1.4227462
-1.1122044 -0.48407045 1.4636558
-1.0755633 -0.48716164 1.4859794
-1.0259739 -0.48470277 1.473088
-0.96909046 -0.481801 1.4720913
-0.92361468 -0.48139235 1.4697791
-0.87189984 -0.48363972 1.4743209
-0.82103676 -0.48626661 1.4780657
-0.76997435 -0.48520976 1.4717594
-0.72331178 -0.48906144 1.4745872
-0.67480969 -0.48900974 1.478681
-0.6239841 -0.48896679 1.4745911
-0.57529885 -0.49009639 1.4774574
-0.52666599 -0.49187088 1.4742336
-0.47592545 -0.49047074 1.4794171
-0.42901325 -0.4913387 1.4757671
-0.37460506 -0.49141523 1.4814066
-0.32755771 -0.48951691 1.4713097
-0.27971536 -0.48569798 1.4778579
-0.24883091 -0.4792012 1.4818709
0.22047278 -0.48471621 1.4810512
0.27239197 -0.47691298 1.4657137
0.9302386 0.4875192 1.4821322
0.95134246 0.49950492 1.4548786
0.93397206 0.52537 1.4790096
0.95340538 0.52872247 1.4530388
0.93379211 0.57687461 1.4788176
0.95244503 0.56850612 1.4545913
0.93153363 0.62551993 1.4777442
0.95285517 0.63420981 1.4521006
0.93081212 0.67540669 1.476804
0.95165169 0.67682123 1.4536037
0.93148011 0.72492999 1.4745144
0.95032203 0.7284779 1.4504668
0.93001252 0.77464455 1.4736882
0.92776591 0.82514584 1.474295
0.92528808 0.87345189 1.475214
0.92228031 0.92504752 1.4760898
0.92275137 0.97586536 1.4742121
0.92162675 1.0255228 1.4759296
0.92111611 1.0736724 1.4741966
0.9236306 1.1254238 1.4753314
0.92470217 1.1740098 1.4740374
0.92497301 1.2227609 1.4753777
0.9253875 1.2747968 1.4776614
0.925713 1.3251261 1.4762639
0.9298656 1.3552032 1.469083
-1.115338 -0.49044824 1.5172685
-1.0788203 -0.48779675 1.526792
-1.0200131 -0.48434508 1.5180173
-0.9743101 -0.4836373 1.5259498
-0.93512648 -0.48729727 1.5292326
-0.87039971 -0.48304465 1.5225534
-0.82941175 -0.48602104 1.5244955
-0.77166516 -0.48484862 1.5263094
-0.73059583 -0.4884814 1.5263429
-0.67432094 -0.48762876 1.5229131
-0.63129663 -0.48766181 1.5231079
-0.57650638 -0.48742422 1.5269008
-0.52446663 -0.48879272 1.5217595
-0.47237444 -0.48961279 1.518653
-0.42538491 -0.49188784 1.5211712
-0.37049255 -0.48951998 1.5185415
-0.32753026 -0.49022847 1.5263766
-0.28248692 -0.48808104 1.5263991
0.21244091 -0.48865339 1.5154504
0.28738236 -0.47764614 1.523241
0.30378953 -0.46781701 1.5153996
0.88787037 0.48079228 1.5333372
0.90854502 0.48384315 1.5114275
0.89037883 0.52483189 1.5365717
0.90861952 0.52355373 1.5125827
0.88887203 0.57661742 1.5365113
0.90833318 0.57367694 1.5098296
0.88940257 0.6250295 1.5327131
0.90637463 0.62461412 1.5094591
0.88739586 0.67585516 1.5325762
0.90732938 0.67309195 1.5067769
0.88657415 0.726412 1.5319643
0.90698802 0.719284 1.5066774
0.88497972 0.77587724 1.5310758
0.90589935 0.77169389 1.5057334
0.88454598 0.82523113 1.5301529
0.90404063 0.82187736 1.5066431
0.88416517 0.87469035 1.5277351
0.90278184 0.87284172 1.5030458
0.88328397 0.92430758 1.5274554
0.90302491 0.92353702 1.5066338
0.88337451 0.97498661 1.5264976
0.90274882 0.9775275 1.501703
0.88368607 1.0263164 1.5264806
0.90300918 1.0195173 1.503895
0.88429952 1.0753051 1.5260874
0.90566027 1.0790466 1.5007422
0.88418359 1.1261173 1.5259851
0.90319252 1.1104176 1.5021996
0.8868953 1.1743793 1.5250301
0.90312314 1.1786307 1.5040995
0.88496214 1.2245256 1.5300097
0.90261972 1.2313077 1.505517
0.88676131 1.2788583 1.5312436
0.90478516 1.2710559 1.5070055
0.88391757 1.3225605 1.5323153
0.90342027 1.3300999 1.5131485
0.88267696 1.3680017 1.534932
0.90874892 1.3681998 1.5083779
-1.0800576 -0.49396348 1.573776
-1.007027 -0.48027265 1.5724502
-0.96549702 -0.48576009 1.5768089
-0.92187464 -0.48566094 1.5749834
-0.87481135 -0.48504826 1.5771261
-0.83105004 -0.48613691 1.5814331
-0.77354449 -0.48711076 1.5818554
-0.71942252 -0.48578042 1.5728856
-0.6765064 -0.48725694 1.5691323
-0.62324363 -0.48633575 1.5727302
-0.57803786 -0.48757249 1.5803878
-0.5257532 -0.48625124 1.5721191
-0.47664392 -0.49051347 1.5757655
-0.42737392 -0.49145246 1.5724748
-0.37567475 -0.49040163 1.5672576
-0.32131866 -0.48906943 1.5711769
-0.27491435 -0.4865737 1.5704176
-0.24529493 -0.48665389 1.5849279
0.27237466 -0.49481669 1.573616
0.3039895 -0.49260154 1.5978007
0.84140545 0.47705588 1.5875821
0.8665598 0.4844867 1.5669402
0.84649092 0.5247463 1.5937895
0.86390954 0.52479607 1.5703285
0.8449533 0.57556903 1.5933484
0.86490351 0.57433885 1.566745
0.84327251 0.62442654 1.5919852
0.86414719 0.62527728 1.566571
0.84284204 0.67550749 1.591796
0.86245233 0.6725077 1.5659459
0.84087694 0.72595888 1.5893726
0.86025721 0.72237176 1.565609
0.84043181 0.774454 1.5882729
0.85977185 0.7745766 1.5640631
0.84004223 0.82414329 1.5872689
0.85982645 0.82455647 1.5622286
0.84016961 0.87373763 1.585615
0.85973543 0.87391275 1.5619303
0.83900106 0.92504978 1.5883629
0.858051 0.92373079 1.5618718
0.8389492 0.97218382 1.5858449
0.85747427 0.97618294 1.5616642
0.84036326 1.0228573 1.5839207
0.8590278 1.02548 1.5594809
0.83999014 1.0737675 1.5854776
0.8590852 1.07303 1.5602489
0.83935815 1.1238139 1.5880076
0.85870081 1.1243116 1.5639019
0.84204918 1.1694795 1.5845751
0.86212105 1.1764717 1.5638129
0.84183693 1.2228864 1.5900072
0.86067957 1.2237344 1.5658925
0.84459043 1.2712207 1.5861573
0.86241347 1.2728299 1.5659986
0.84326762 1.3183699 1.5884191
0.86056215 1.3258345 1.5647763
0.84218502 1.3732214 1.5918027
0.85985112 1.37925 1.5698488
0.84497142 1.4098991 1.5908674
0.86508155 1.4011317 1.5689088
-0.96026772 -0.48538494 1.6165684
-0.93075812 -0.48826665 1.6260808
-0.87824249 -0.48502868 1.6121556
-0.82963449 -0.48701823 1.6271907
-0.78081256 -0.48538867 1.6235659
-0.72233075 -0.48526648 1.6225384
-0.67039424 -0.48738286 1.6241962
-0.62711453 -0.48818028 1.6283808
-0.57917291 -0.4869903 1.6221079
-0.52215695 -0.48705083 1.6228813
-0.47487181 -0.48577681 1.6161597
-0.42721787 -0.49078691 1.6280487
-0.37551692 -0.48905894 1.6207501
-0.32413176 -0.4871037 1.6195275
-0.27446228 -0.48829353 1.6309282
-0.24024723 -0.48446298 1.6156812
0.14247046 -0.45574883 1.6212026
0.16596983 -0.45810965 1.6327643
0.21612065 -0.48042685 1.6378837
0.27522051 -0.49401864 1.6202475
0.31460914 -0.48660809 1.6254467
0.14237599 -0.43696779 1.6393067
0.15854594 -0.43714944 1.6485523
0.78101903 0.46002153 1.6432695
0.82158095 0.48086825 1.6231856
0.82246792 0.52450466 1.6255318
0.82092112 0.57621074 1.6241727
0.79948139 0.64247251 1.6471186
0.81981891 0.62463802 1.6237961
0.79841357 0.67642617 1.6461844
0.81766593 0.67446738 1.6240243
0.79683465 0.72321206 1.6475086
0.81613529 0.72432286 1.6231842
0.79686916 0.77684295 1.6453285
0.81647038 0.77409589 1.6204877
0.79622936 0.82888544 1.6444731
0.81511581 0.82579398 1.6200844
0.79464746 0.87181383 1.6447746
0.81540567 0.87588656 1.6177766
0.79494292 0.92399299 1.6447119
0.81402141 0.92402691 1.6198618
0.79673833 0.97741622 1.6452633
0.81572145 0.97321647 1.6189427
0.79747152 1.0321537 1.6442679
0.81489837 1.0208563 1.6193594
0.79697615 1.0718778 1.6445148
0.81504875 1.0723244 1.6197548
0.79551601 1.127267 1.648512
0.81473911 1.1249025 1.6227371
0.79733384 1.192826 1.6476575
0.81809753 1.1755415 1.6211572
0.79968148 1.2111082 1.6433914
0.81878954 1.2242674 1.6212069
0.79703856 1.2979653 1.6483082
0.81807649 1.2737926 1.6241314
0.79988682 1.3127091 1.6473076
