ply
format ascii 1.0
comment PCL generated
element vertex 1492
property float x
property float y
property float z
element camera 0
property float view_px
property float view_py
property float view_pz
property float x_axisx
property float x_axisy
property float x_axisz
property float y_axisx
property float y_axisy
property float y_axisz
property float z_axisx
property float z_axisy
property float z_axisz
property float focal
property float scalex
property float scaley
property float centerx
property float centery
property int viewportx
property int viewporty
property float k1
property float k2
end_header
0.34149897 1.3541111 2.2484632
0.36333555 1.3753639 2.2271857
0.34540939 1.4247415 2.2481854
0.36711937 1.4263842 2.2228522
0.34797549 1.466072 2.249778
0.36950848 1.4743885 2.2177608
0.33925393 1.5316081 2.2495344
0.36506596 1.5250597 2.2264402
0.34121603 1.5655301 2.2489946
0.36788875 1.5751719 2.2253072
0.36941278 1.6277602 2.2255721
0.37225378 1.6718137 2.2224636
0.37276849 1.7233671 2.2258065
0.37678811 1.7778169 2.2262161
0.3568072 1.8074563 2.2487822
-2.1247933 2.3350832 2.2282219
-2.0742953 2.3251319 2.2302747
-1.8088135 -0.61140335 2.2783089
-1.7768644 -0.62867737 2.2769144
-1.726614 -0.6068697 2.2893884
-1.9534287 -0.55639261 2.2510903
-1.9208313 -0.56162345 2.2629459
-1.872143 -0.56464219 2.2717569
-1.835294 -0.58345652 2.2783203
-1.7400122 -0.59598798 2.2971101
-2.1025982 -0.51863354 2.2725945
-2.0816824 -0.51869398 2.2893376
-2.0200434 -0.51201248 2.2862091
-1.9603434 -0.5216887 2.2730165
-1.9230083 -0.52237833 2.271322
-1.8805342 -0.52874851 2.2908845
-2.1386089 -0.45864782 2.2832437
0.40075451 -0.49734482 2.2587588
-2.1536589 -0.41068438 2.2940595
-2.1382337 -0.42635012 2.2908432
0.34336179 -0.4139131 2.2920957
0.36664131 -0.42445922 2.266504
-2.141315 -0.37397486 2.2805762
0.34783968 -0.38946059 2.2946
0.36756647 -0.37759855 2.2718756
-2.1309268 -0.31916925 2.2883158
0.37101156 -0.33668974 2.2735307
-2.115869 -0.27316582 2.2809474
0.41759139 -0.26192594 2.2534173
-2.1277874 -0.22281483 2.2748661
-2.216393 -0.17582855 2.2523093
-2.1918361 -0.16794491 2.2541287
-2.1290221 -0.17335328 2.2666075
-2.2138729 -0.14029802 2.2519362
-2.1916189 -0.1398003 2.2555535
-2.127394 -0.12453276 2.2675793
-2.167836 -0.060827982 2.2652898
-2.1291234 -0.075299695 2.2856886
-2.0676239 -0.095866986 2.2817936
-2.2090707 -0.013163228 2.2506123
-2.1753998 -0.027222641 2.2684255
-2.1481266 -0.027269399 2.2923677
-2.2098737 0.036177859 2.2511275
-2.1722937 0.022010202 2.2782707
-2.2114253 0.078530535 2.251668
-2.1741953 0.078417145 2.2790899
-2.2082736 0.11857671 2.2557058
-2.1753743 0.12920585 2.2818964
-2.2096584 0.18773255 2.2599969
-2.1751704 0.17592996 2.2844834
-2.2135854 0.2276129 2.2581289
-2.1756904 0.22730023 2.2851601
-2.2151632 0.25613388 2.2570701
-2.1747451 0.26149818 2.2863095
0.35803619 1.1482089 2.2716191
0.33578089 1.1788037 2.274574
0.32610771 1.226907 2.2757802
0.32519171 1.2759019 2.2764938
0.32514176 1.325276 2.2793729
0.29989347 1.3976265 2.2997944
0.32722154 1.3786207 2.2738874
0.32619131 1.4287331 2.2768967
0.32846114 1.4747025 2.2747891
0.32663304 1.517952 2.273896
0.35037899 1.5010219 2.2526348
0.32573071 1.5765451 2.2773695
0.32836619 1.6266266 2.2752824
0.33588323 1.6739271 2.2715809
0.32848445 1.7221534 2.2845559
0.33229983 1.7717271 2.2756038
0.3557179 1.782337 2.2547781
0.33879662 1.8237575 2.2802849
-2.1618273 2.3315997 2.2705255
-2.1209831 2.3330872 2.2804463
-2.0738089 2.3356535 2.2764044
-2.0279627 2.3391068 2.2729304
-1.9666817 2.3265805 2.2940416
-1.7729717 -0.60346079 2.318867
-1.7145635 -0.61201882 2.3249335
-1.6811743 -0.6071763 2.3181603
-1.8208538 -0.56991237 2.316884
-1.7835677 -0.5795927 2.3358073
-1.6501224 -0.58998233 2.3166652
-1.6373024 -0.58289456 2.3349535
-2.0154779 -0.5039838 2.3362615
-1.9830081 -0.50111365 2.3379221
-1.904192 -0.50346684 2.3066609
-1.8620642 -0.5159995 2.3112373
-1.8294343 -0.52799982 2.3327241
-2.1198151 -0.46075499 2.316123
-2.0818303 -0.46024176 2.3406997
-1.9691643 -0.49125528 2.3450356
-1.9172121 -0.49497065 2.3379221
-2.115715 -0.42443109 2.3174026
-2.0887411 -0.42474675 2.340827
0.32822207 -0.41510811 2.3129656
-2.120836 -0.37447807 2.3169053
-2.084866 -0.37442017 2.3435946
-2.1155882 -0.32614902 2.3206191
-2.0827231 -0.32713538 2.3444278
-2.0017595 -0.31260416 2.3476996
-1.9380715 -0.33668679 2.347239
-2.1131048 -0.26727623 2.3208864
-2.0921009 -0.27940449 2.3406317
-2.0006654 -0.29155907 2.3486505
-2.1169794 -0.22366869 2.3237154
-2.123044 -0.17580284 2.3258247
-2.12345 -0.1275564 2.3209763
-2.0953588 -0.11896262 2.338002
-2.0383821 -0.10999993 2.313504
-1.9765128 -0.10853977 2.3068941
-1.9278274 -0.1081503 2.3263571
-1.899781 -0.10812949 2.3437705
-2.1079619 -0.062325984 2.3141711
-2.084038 -0.071407005 2.3344195
-2.0258472 -0.096234933 2.3256469
-2.1208906 -0.027318932 2.3156297
-2.0855525 -0.02736312 2.3425086
-2.1233866 0.021940758 2.3183045
-2.0876873 0.020882452 2.3429813
-2.1237941 0.078311406 2.3176386
-2.0884938 0.078263827 2.3446746
-2.1259251 0.12774207 2.3180447
-2.0982504 0.12773931 2.3404977
-2.1245296 0.17887495 2.3240995
-2.0915332 0.15596995 2.3447452
-2.1253595 0.22695003 2.3204062
-2.090719 0.22197945 2.3436553
-2.1245384 0.26241922 2.3198781
0.30581921 1.199158 2.3218427
0.35605377 1.1687051 2.3420699
0.28769806 1.234844 2.33618
0.30741197 1.2225759 2.3052089
0.28641516 1.2771933 2.3294578
0.30704403 1.2708694 2.304944
0.28715801 1.327983 2.3281868
0.28223339 1.3710886 2.3324802
0.30382589 1.3761953 2.3073761
0.28047699 1.4235114 2.3349612
0.30232894 1.4276874 2.3097711
0.28305945 1.4720188 2.3326051
0.30368173 1.4716786 2.3020675
0.28652295 1.5221057 2.3305337
0.30659798 1.5237952 2.3051007
0.28700784 1.5750526 2.3263884
0.30832776 1.5641683 2.3016045
0.2858696 1.6263748 2.3333163
0.30090302 1.6374998 2.3194351
0.28630105 1.6749592 2.3405614
0.30627108 1.6816782 2.3169608
0.28820744 1.7204301 2.3362815
0.30430987 1.7215438 2.3078022
0.28947395 1.7705489 2.3366694
0.30826744 1.7771255 2.3175035
0.29447588 1.823482 2.3365009
0.31548432 1.8311847 2.3138897
0.30744421 1.8656399 2.3284707
-2.1702783 2.3376281 2.3254349
-2.1190579 2.3326163 2.3214438
-2.0745192 2.334228 2.32376
-2.0255826 2.3388593 2.3136215
-1.9745048 2.3378282 2.3326428
-1.9306178 2.3338211 2.3288078
-2.0063915 2.3534307 2.3093147
-1.730715 -0.60670245 2.3627849
-1.6958952 -0.60155326 2.3544466
-1.7757356 -0.57428545 2.3757024
-1.7253631 -0.58699828 2.3864229
-1.672682 -0.57510108 2.3747318
-1.6265831 -0.58256239 2.3642402
-1.8023362 -0.53568739 2.3546159
-1.7846437 -0.51841146 2.3739603
-2.0271099 -0.46322435 2.3606124
-1.9775257 -0.4721435 2.3605106
-1.9271562 -0.47779402 2.3722923
-1.8715484 -0.49086872 2.3794389
-1.8237504 -0.48525143 2.3789234
-2.0616531 -0.42190567 2.3613296
-2.0292075 -0.42560181 2.3734136
-1.9703865 -0.42846847 2.3693523
-1.9411731 -0.42037717 2.3845851
-2.0590978 -0.37920853 2.3625829
-2.028265 -0.37269333 2.3749523
-1.9745548 -0.37955275 2.3666434
-1.9373682 -0.37225968 2.371865
-2.0620816 -0.32055265 2.357635
-2.0285926 -0.32568672 2.3580213
-1.9855717 -0.33160594 2.3615208
-1.921927 -0.32909474 2.3766007
-2.0667419 -0.27480707 2.3611217
-2.0237939 -0.26789922 2.3723955
-1.9800801 -0.27738163 2.3606846
-1.9218295 -0.27008292 2.3763604
-2.0743632 -0.2254048 2.3608654
-2.0249619 -0.22466999 2.3834231
-1.9729615 -0.22896278 2.3739836
-1.9326472 -0.22929327 2.3686278
-2.0741327 -0.17592289 2.3640726
-2.0274427 -0.17559053 2.3897221
-1.97174 -0.17074168 2.3877804
-1.9420437 -0.17695807 2.3873715
-2.0696933 -0.13323551 2.3613122
-2.0227377 -0.13419339 2.3810704
-1.9711713 -0.13144214 2.3778012
-1.9205644 -0.12993629 2.3685207
-1.878418 -0.12022424 2.3684895
-1.8268309 -0.11508131 2.3936744
-2.0588882 -0.066005215 2.357919
-2.0246336 -0.070808999 2.3811324
-1.9877119 -0.096793093 2.3727705
-2.0583417 -0.027407298 2.3644941
-2.0285046 -0.029469145 2.3884723
-2.0619452 0.022650149 2.364162
-2.0283804 0.024158452 2.3870285
-2.0593967 0.078188457 2.3645923
-2.0290875 0.075825207 2.386893
-2.068541 0.12761901 2.3599095
-2.0343542 0.12764359 2.3867941
-2.0713925 0.17924398 2.3626852
-2.0375834 0.17729084 2.3878524
-2.072958 0.22924675 2.3660011
-2.04059 0.22706823 2.3878222
-2.075536 0.26394078 2.3658488
-2.0309932 0.26209155 2.386797
-1.9963367 0.28236511 2.3970118
0.27546307 1.238122 2.3719754
0.24084112 1.2825007 2.3878398
0.26015118 1.2704654 2.3694885
0.23975484 1.3291605 2.3865521
0.25887042 1.3226172 2.3621438
0.23787753 1.3766774 2.3906124
0.26049724 1.3707129 2.3600943
0.23606832 1.4246385 2.3873551
0.25615227 1.4168962 2.3625968
0.24211016 1.474664 2.3837895
0.26190522 1.4758084 2.3652618
0.24278258 1.5216709 2.3866053
0.26479477 1.5289816 2.3607471
0.23808205 1.5656724 2.3887546
0.25945333 1.5802168 2.3675206
0.24061666 1.6219511 2.3937528
0.26031163 1.6233319 2.3634052
0.24249387 1.6744976 2.3909388
0.26200464 1.6740463 2.3676202
0.24475257 1.7236283 2.394434
0.26600167 1.7287503 2.3676813
0.24659581 1.7704312 2.3927772
0.2656551 1.7759256 2.3722386
0.24936935 1.8245381 2.3990917
0.27229199 1.8191668 2.3691814
0.2771146 1.8754605 2.37024
0.26738128 1.9172753 2.3977983
-2.2232859 2.3321531 2.3741131
-2.1723149 2.3367841 2.3747513
-2.1192937 2.3345642 2.3656518
-2.0639439 2.3384795 2.3682699
-2.028734 2.3421605 2.3733029
-1.9827995 2.3416581 2.3867228
-1.9249007 2.3463745 2.3783886
-1.8769842 2.3405764 2.3738577
-1.8363484 2.331979 2.3866754
-1.9707314 2.3547344 2.3747315
-1.9336252 2.3513229 2.3937027
-1.6131701 -0.60574365 2.4224832
-1.5736231 -0.61014599 2.4292712
-1.7647309 -0.56825799 2.4053409
-1.7347177 -0.5651685 2.4125099
-1.671839 -0.5675751 2.4238439
-1.6358612 -0.59221596 2.4323351
-1.4815564 -0.5763216 2.440068
-1.8275012 -0.50259471 2.4497173
-1.7670583 -0.53106594 2.4062173
-1.7333792 -0.52818954 2.4270189
-1.6929137 -0.54670137 2.4434152
-1.9266112 -0.46292236 2.4265532
-1.8763223 -0.46756536 2.4249086
-1.8253227 -0.4830921 2.413121
-1.9538364 -0.41776568 2.4373586
-1.9412812 -0.4279772 2.4404159
-1.8812785 -0.44949204 2.448138
-1.9523866 -0.39620072 2.438457
-1.9412264 -0.37134641 2.4429796
-1.8619702 -0.36833173 2.4333262
-1.9258276 -0.32290989 2.4359541
-1.8574291 -0.34659922 2.429857
-1.8416036 -0.32301259 2.411432
-1.926371 -0.27303311 2.4325809
-1.8578653 -0.25637895 2.4393542
-1.9387795 -0.2237426 2.4255285
-1.9518152 -0.16817054 2.432035
-1.9401605 -0.17092352 2.4239595
-1.8603755 -0.15243745 2.4495661
-1.8580164 -0.13680135 2.4072404
-1.8248999 -0.1257401 2.4250882
-1.9740267 -0.073087484 2.4163907
-1.9410467 -0.079626031 2.4373975
-2.0112338 -0.020445399 2.4023094
-1.9758254 -0.027520703 2.4259868
-2.0108569 0.014774012 2.4018364
-1.9778435 0.021805901 2.4284394
-2.0075707 0.088131174 2.4071651
-1.9753683 0.076226652 2.4301798
-2.0080059 0.12773404 2.4088259
-1.9740281 0.1277827 2.4343996
-2.0114202 0.18039219 2.4081399
-1.9773152 0.175706 2.4317844
-2.0142014 0.2272529 2.410074
-1.9788442 0.22722438 2.4342604
-2.0077889 0.26933545 2.4053688
-1.9871792 0.27473181 2.4350655
-1.9919955 0.31826702 2.433037
0.23333041 1.2848538 2.4187243
0.2548013 1.2583438 2.4127486
0.19577773 1.3351578 2.4458275
0.21679778 1.3239802 2.4210744
0.19689752 1.3815669 2.4439557
0.21438564 1.376021 2.4189408
0.19500965 1.4334886 2.4431233
0.21478088 1.4243251 2.4220085
0.19925547 1.4765569 2.4389908
0.21680646 1.4692712 2.4120781
0.21285434 1.5241259 2.4241877
0.21456142 1.5762147 2.4246001
0.21783376 1.6267149 2.4226646
0.21665601 1.6766448 2.4293611
0.22150479 1.7223278 2.4228344
0.22409749 1.7687976 2.4242549
0.23092951 1.8273312 2.4309866
0.23429807 1.8749212 2.4318821
0.25237167 1.881126 2.4062839
0.23464799 1.9197639 2.4305239
0.25459328 1.925598 2.4094536
-2.2639136 2.3332853 2.4342427
-2.2440109 2.3397977 2.415616
-2.1746242 2.3404894 2.4219632
-2.1257358 2.3389297 2.4211011
-2.0893829 2.3471823 2.4207506
-2.0270982 2.3377895 2.4230537
-1.9757673 2.3363404 2.4239583
-1.9229969 2.3420484 2.4265847
-1.8772612 2.3451052 2.4204495
-1.8290119 2.3457539 2.4254751
-1.7719311 2.3360033 2.4330127
-2.2403364 2.354656 2.4435477
-1.8035799 2.3552666 2.4425564
-1.607601 -0.60026085 2.4717593
-1.5705957 -0.60752702 2.4535947
-1.5323188 -0.60577375 2.4628828
-1.6752537 -0.56759721 2.4815538
-1.6247318 -0.59127074 2.4720001
-1.5783881 -0.59271002 2.4835904
-1.5239639 -0.58529133 2.4816494
-1.4741056 -0.56779325 2.4722714
-1.4306183 -0.58931088 2.4953609
-1.8144522 -0.50481749 2.4730089
-1.7858529 -0.5046863 2.4885516
-1.7115301 -0.52526343 2.4580514
-1.6899807 -0.52195585 2.4794583
-1.9107784 -0.45313954 2.4591393
-1.8689471 -0.46694073 2.4798124
-1.822111 -0.49348903 2.4902029
-1.7285751 -0.4983224 2.4765084
-1.9201339 -0.42527643 2.4616079
-1.8840705 -0.42630467 2.4750006
-1.9169705 -0.37499371 2.4640412
-1.883383 -0.37905282 2.4825692
-1.9149256 -0.33406392 2.461586
-1.8863617 -0.32147896 2.4765015
-1.8250686 -0.32297793 2.497937
-1.9131019 -0.26940247 2.4632561
-1.8853388 -0.29145226 2.4817712
-1.9200728 -0.22570613 2.4689932
-1.8731369 -0.22348 2.4621162
-1.9251837 -0.17905891 2.4650149
-1.887398 -0.17547354 2.4771936
-1.8552788 -0.11125115 2.4714811
-1.8142704 -0.13287802 2.4748187
-1.7947212 -0.13888507 2.4965644
-1.915508 -0.074446447 2.4613647
-1.8867364 -0.082110427 2.4801276
-1.9233989 -0.027630454 2.4677103
-1.8920637 -0.027717764 2.494879
-1.9242688 0.02179515 2.4687991
-1.8918618 0.021800518 2.4945869
-1.9244412 0.078292668 2.4680409
-1.8958899 0.076184981 2.4989736
-1.9275584 0.12793921 2.4703143
-1.896814 0.12821823 2.4984543
-1.9508015 0.1847394 2.4563272
-1.923704 0.17674355 2.4764316
-1.8973249 0.17080998 2.4970541
-1.952327 0.2274183 2.4552689
-1.9244456 0.22653572 2.4786139
-1.9697934 0.27545702 2.4664884
-1.9310988 0.26379487 2.4796917
-2.0168407 0.33500499 2.4990094
-1.9895515 0.30898762 2.4675074
0.17770799 1.3299247 2.4697111
0.17253283 1.3740988 2.4748716
0.17372023 1.4228015 2.4752347
0.17483513 1.4781407 2.4709377
0.17468975 1.52765 2.4758191
0.17775111 1.5766851 2.4777904
0.18526806 1.6238365 2.4678442
0.18541446 1.6736681 2.468956
0.18618959 1.7230688 2.4738162
0.19171485 1.7777151 2.4766145
0.20961468 1.7734463 2.4530892
0.18757017 1.8272945 2.4835124
0.21573122 1.8185061 2.4516323
0.1872969 1.8732619 2.495472
0.20823102 1.8767121 2.4631772
0.18913926 1.9274046 2.4981177
0.20672052 1.9236654 2.4738314
0.19056091 1.9706939 2.4986243
0.21461442 1.9629471 2.4706817
-2.305223 2.3391166 2.4822202
-2.2618732 2.3316252 2.4773469
-2.2276247 2.3376145 2.4785271
-2.1830437 2.3384874 2.4707804
-2.1270599 2.337647 2.4717698
-2.0722706 2.3436217 2.4761357
-2.0204611 2.3334506 2.4729655
-1.9727491 2.3421202 2.4767272
-1.9220167 2.344573 2.4721777
-1.8752999 2.3411007 2.4694262
-1.8277731 2.3432367 2.4757717
-1.7709935 2.344399 2.4759052
-1.6961738 2.3481066 2.4966564
-1.6466341 2.3261263 2.4928
-2.2185838 2.3506012 2.4518888
-1.8779269 2.3501794 2.4683545
-1.8138912 2.3515489 2.4703541
-1.7651343 2.372292 2.4917281
-1.7264782 2.3546901 2.4885535
-1.6653832 -0.55928695 2.5129879
-1.62692 -0.57119 2.5226083
-1.5757835 -0.5719853 2.5333209
-1.5330814 -0.56651169 2.524097
-1.4679857 -0.5786438 2.53439
-1.4216558 -0.59681791 2.5386219
-1.3772736 -0.59525102 2.5485694
-1.2950613 -0.57529402 2.5484488
-1.2425532 -0.5829013 2.5356777
-1.7213535 -0.50434291 2.521616
-1.6704962 -0.52349335 2.5172706
-1.6447634 -0.52578181 2.5325427
-1.8585968 -0.4697161 2.5073063
-1.8306293 -0.47022206 2.5151887
-1.7745928 -0.47220907 2.5196831
-1.7376668 -0.48139122 2.528121
-1.8671405 -0.42132425 2.522193
-1.8276516 -0.4269565 2.5313101
-1.7730591 -0.4224838 2.5244057
-1.8713859 -0.37414566 2.525455
-1.8235557 -0.37910801 2.5294797
-1.7696793 -0.37606651 2.5195918
-1.8688246 -0.32694212 2.5159428
-1.8253897 -0.32784024 2.5117092
-1.7697194 -0.34070027 2.5067527
-1.7364031 -0.32630402 2.521395
-1.87151 -0.27273855 2.5247343
-1.8278475 -0.27358353 2.5294876
-1.7719315 -0.26712668 2.5147495
-1.7382797 -0.27179509 2.5249591
-1.8740506 -0.22790049 2.5316966
-1.8118443 -0.22952668 2.5360541
-1.7669648 -0.22179785 2.5274951
-1.747546 -0.23065633 2.5346856
-1.8739575 -0.17969014 2.5286388
-1.8248346 -0.17173013 2.5408299
-1.7788384 -0.17354436 2.5344908
-1.740351 -0.1529862 2.5287077
-1.8612021 -0.1128998 2.520366
-1.823305 -0.12218712 2.5369766
-1.7690681 -0.13908114 2.5153008
-1.7498376 -0.1397939 2.5431087
-1.8684253 -0.076028354 2.5279746
-1.8490845 -0.099226356 2.5457768
-1.8742883 -0.027937302 2.5315337
-1.8767843 0.021912431 2.5293574
-1.8798523 0.073218144 2.5271702
-1.8813552 0.12194743 2.5331511
-1.9014843 0.17829226 2.5020471
-1.8828616 0.17205559 2.5328324
-1.9057629 0.24282062 2.5033357
-1.8882118 0.21952519 2.5315015
-1.9676846 0.29053354 2.5246966
-1.9074664 0.2644369 2.5037928
-1.8909509 0.26426506 2.5317557
-2.012809 0.32218611 2.523314
-1.9994315 0.31999332 2.5065842
0.14195663 1.3469393 2.5292077
0.16055109 1.3367645 2.5092475
0.13553661 1.3710288 2.5246358
0.13638045 1.4239546 2.5222709
0.13502257 1.4709001 2.5221407
0.15050754 1.4916508 2.5090604
0.1333774 1.5275309 2.5326197
0.15101406 1.5235631 2.5053818
0.13311256 1.5769066 2.5363915
0.15240939 1.5715348 2.5127342
0.13406906 1.6225741 2.5380163
0.15896524 1.6266673 2.5095692
0.13675648 1.6829748 2.5406685
0.16284688 1.6739914 2.509201
0.14282367 1.7209145 2.5327096
0.15935832 1.7185767 2.5145826
0.14430311 1.76691 2.5438752
0.16542701 1.7703898 2.5116596
0.14546397 1.8166475 2.5446813
0.16419294 1.8213183 2.5169303
0.16741157 1.8811015 2.5209169
0.17085211 1.9242982 2.5180752
0.17696713 1.9778135 2.5123498
0.15754917 2.0155213 2.5434685
-2.3678536 2.3374903 2.549789
-2.3153605 2.3311617 2.5295203
-2.2751122 2.3317928 2.5250125
-2.218365 2.3335185 2.5266387
-2.1747885 2.3342454 2.5210366
-2.123466 2.3375542 2.5222993
-2.0604837 2.342623 2.5256562
-2.0199773 2.3457973 2.5363925
-1.9647118 2.3400571 2.5207276
-1.9194895 2.3452911 2.5165131
-1.8708432 2.3395009 2.5217383
-1.8172125 2.3418732 2.5207138
-1.7658978 2.3388858 2.5204406
-1.7259022 2.3440945 2.522387
-1.6801248 2.3442616 2.5394578
-1.6097509 2.3459668 2.5427511
-2.0943692 2.3518174 2.5399387
-1.9432298 2.352885 2.5133262
-1.6885748 2.361238 2.5205779
-1.6472572 2.3510387 2.5291941
-1.6154155 -0.55780637 2.5505002
-1.5750941 -0.55590045 2.5583334
-1.5130689 -0.55362648 2.5730636
-1.4752846 -0.57295704 2.5836759
-1.4311688 -0.58997434 2.573102
-1.3749514 -0.58845848 2.5875895
-1.3361069 -0.58744913 2.5971906
-1.269052 -0.57198048 2.5769067
-1.1525066 -0.58432412 2.5732303
-1.7221317 -0.50872529 2.5510068
-1.6725318 -0.50658387 2.5619755
-1.6223587 -0.5304231 2.5717065
-1.5740063 -0.54173279 2.5813742
-1.5374568 -0.54347908 2.5867567
-1.7598743 -0.46183419 2.5762796
-1.7429956 -0.47804338 2.5800631
-1.772311 -0.42693615 2.5858824
-1.7451391 -0.44386491 2.5953805
-1.7756552 -0.37258425 2.5916004
-1.7570745 -0.34028149 2.5675385
-1.7447209 -0.31933355 2.5798872
-1.7626036 -0.27085879 2.5915868
-1.7442195 -0.28967386 2.5675707
-1.837447 -0.22068161 2.5516667
-1.7722869 -0.24298647 2.5984905
-1.8385355 -0.19225121 2.5549743
-1.7620789 -0.17491892 2.5649493
-1.7489377 -0.15499303 2.5692372
-1.821407 -0.11355001 2.5626094
-1.7888283 -0.1220294 2.5778356
-1.7380199 -0.14113289 2.5820444
-1.8524443 -0.056576185 2.5513945
-1.8222721 -0.076069832 2.5728657
-1.7943588 -0.094893329 2.5904627
-1.8530703 -0.028025974 2.5525694
-1.8215168 -0.028092325 2.5747201
-1.7931232 -0.020985324 2.5946198
-1.8521791 0.021949738 2.5513289
-1.8211249 0.021985818 2.5779798
-1.8546261 0.072009169 2.5539374
-1.8222555 0.072110116 2.5788262
-1.8566219 0.12217252 2.5551078
-1.8231988 0.12231374 2.5786195
-1.859732 0.1725487 2.5570629
-1.8270155 0.17281705 2.5817256
-1.8633322 0.22893041 2.5615575
-1.8273931 0.21996778 2.5864859
-1.9543167 0.29504177 2.591639
-1.9284725 0.2926043 2.5760837
-1.867835 0.27516982 2.5752518
-1.8257962 0.27060461 2.5875041
-2.0522449 0.34584349 2.5997479
-2.031739 0.31840172 2.5858757
-2.0583186 0.43719399 2.5961771
-2.0494945 0.42032954 2.5871022
0.091263771 1.3857971 2.5886228
0.11040032 1.3781053 2.5585203
0.092581831 1.428915 2.5834
0.1111464 1.4278768 2.5595717
0.091046996 1.4813719 2.5895908
0.11206353 1.4735973 2.5665419
0.094117239 1.522344 2.5832324
0.11525482 1.5194288 2.5600836
0.095517874 1.5700116 2.5791152
0.11331385 1.5793953 2.5553734
0.087513879 1.6309381 2.5957627
0.11002466 1.6263405 2.5733979
0.087910451 1.6594454 2.5973866
0.11270303 1.6693007 2.5774667
0.11662946 1.7290937 2.5801392
0.11704089 1.7668589 2.5730329
0.12013636 1.8258913 2.5798547
0.12642528 1.8774328 2.577246
0.13427113 1.9240611 2.5660727
0.12885892 1.9813076 2.5854506
0.15026185 1.9866501 2.5631623
0.13353728 2.0333421 2.5812597
0.15154608 2.0406404 2.561403
0.12344035 2.0650477 2.5933475
-2.3603015 2.3297257 2.588588
-2.3294299 2.3360968 2.575125
-2.2707133 2.3323977 2.5794334
-2.22807 2.3351679 2.5760229
-2.1758361 2.3366485 2.5694926
-2.1155732 2.3386538 2.5770934
-2.0772119 2.3448067 2.5839272
-2.0402329 2.3410897 2.5584655
-1.9776195 2.3397665 2.5832202
-1.9315852 2.3442464 2.5703709
-1.8601912 2.3410933 2.5892136
-1.8325408 2.3458118 2.5721438
-1.7691623 2.3488038 2.5741885
-1.7330934 2.3449326 2.5761225
-1.6836886 2.3439949 2.5765159
-1.5721788 2.3447375 2.5806746
-1.5389392 2.3287218 2.5559509
-1.4862005 2.3385744 2.5973618
-2.0223167 2.351361 2.5876002
-1.9889091 2.3510132 2.5655785
-1.905128 2.3531899 2.5804319
-1.8712802 2.3527188 2.5799656
-1.8110312 2.3539751 2.5843546
-1.7935178 2.3579862 2.5737896
-1.659457 2.3512716 2.5617228
-1.6322415 2.3595943 2.5794616
-1.5980189 2.3536928 2.5604885
-1.4710238 -0.56201297 2.6232891
-1.4276146 -0.57324606 2.6166527
-1.3801689 -0.57386309 2.621805
-1.3333865 -0.56907475 2.6209831
-1.266233 -0.57124335 2.6299746
-1.2249454 -0.58398265 2.6187131
-1.1793641 -0.58097422 2.6181216
-1.1262048 -0.56794643 2.6391163
-1.6738743 -0.5134927 2.6075559
-1.6284782 -0.5181796 2.6283998
-1.582708 -0.53145564 2.610343
-1.5239055 -0.54165828 2.63153
-1.4908514 -0.54946047 2.64271
-1.723013 -0.46715674 2.6171906
-1.6902738 -0.46499535 2.6357229
-1.5613499 -0.49528205 2.6353948
-0.65860796 -0.46061993 2.6412652
-0.64681876 -0.45497504 2.6490474
-1.7657481 -0.41837487 2.6151631
-1.7319618 -0.42834002 2.6302218
-1.6998725 -0.44707683 2.6433399
-0.6463483 -0.44165272 2.6485898
-1.7634684 -0.37457415 2.6168611
-1.7401534 -0.37578845 2.640157
-1.7561455 -0.33996964 2.6143446
-1.7403762 -0.32151133 2.6371231
-1.5480804 -0.32406738 2.6475616
-1.7595146 -0.27034047 2.623683
-1.7437805 -0.27391887 2.6405265
-1.765738 -0.22070637 2.6217599
-1.7452883 -0.22357911 2.6464067
-1.7643434 -0.17921211 2.6194794
-1.7291903 -0.16472885 2.6348159
-1.6827054 -0.15677673 2.6412883
-1.7655951 -0.12129509 2.6094327
-1.7311012 -0.12165389 2.6370614
-1.7691683 -0.075399004 2.615967
-1.7324419 -0.074409023 2.6448359
-1.7742442 -0.030022979 2.6133654
-1.7436055 -0.028312361 2.6362329
-1.769981 0.022013923 2.6178298
-1.7389545 0.022062458 2.6437156
-1.7715014 0.072342865 2.6193507
-1.7400991 0.07250642 2.6447337
-1.7730976 0.12276599 2.6201916
-1.7418154 0.12307029 2.6458445
-1.7760334 0.17340966 2.6222756
-1.7451515 0.17389561 2.6487021
-1.8067636 0.23852129 2.6056595
-1.7787424 0.22390099 2.6261685
-1.7464347 0.21017882 2.6486125
-1.899103 0.29330057 2.6027198
-1.802014 0.27495992 2.6103048
-1.7770672 0.27508926 2.6257019
-2.0192857 0.33252132 2.6199777
-1.9855917 0.32768455 2.6420496
-1.7833254 0.30922675 2.6379056
-2.0621164 0.3776792 2.6087625
-2.0240958 0.37857434 2.6281347
-1.9983642 0.36191511 2.6439035
-2.0546169 0.42344674 2.6127663
-2.0285842 0.42377272 2.6324673
-2.0572689 0.48179683 2.6276085
-2.0323119 0.45987236 2.6324489
0.044729728 1.3889513 2.6419635
0.067168452 1.3839794 2.6217458
0.065112151 1.4187593 2.619808
0.045068674 1.4827149 2.628957
0.064640209 1.4741232 2.6220014
0.045539483 1.5262624 2.6446085
0.067510463 1.5281775 2.6234982
0.071724392 1.5749652 2.6221232
0.074131601 1.6280514 2.6279504
0.072288774 1.6759138 2.628329
0.10269233 1.6995553 2.6014063
0.077227369 1.7297268 2.6274378
0.075680189 1.773532 2.6269169
0.10421539 1.7967077 2.6026664
0.076470718 1.8232708 2.6370308
0.087973848 1.8730123 2.6330256
0.10578101 1.8821317 2.6094224
0.085028596 1.926481 2.6351576
0.1061378 1.9177992 2.6012747
0.085618064 1.9732565 2.6334989
0.10723842 1.9673228 2.610564
0.087827481 2.0240936 2.6340606
0.11318026 2.0251248 2.6096754
0.087150633 2.0764446 2.6376987
0.10910451 2.0693922 2.6136556
0.080192097 2.1078782 2.6485941
-2.4430926 2.3360381 2.6370518
-2.36092 2.3300247 2.6369963
-2.3311422 2.3330886 2.6280642
-2.2726541 2.3442562 2.6307859
-2.2087574 2.334584 2.6116972
-2.1722414 2.343715 2.6225607
-2.1313739 2.3385086 2.6263115
-2.05111 2.3458381 2.6032343
-2.0252638 2.3471849 2.6226633
-1.9674841 2.3310096 2.6186593
-1.9208984 2.3414137 2.6259971
-1.8783388 2.346154 2.6282613
-1.8395951 2.3484468 2.6136231
-1.7957973 2.3488131 2.6406193
-1.7205151 2.3404322 2.6202054
-1.6744263 2.3425937 2.6195607
-1.6452035 2.3454659 2.640064
-1.5585252 2.3455229 2.6276908
-1.5268486 2.3450451 2.624033
-1.4896502 2.3403466 2.6360083
-1.411515 2.3410683 2.6372824
-2.8313818 2.3595223 2.6474991
-1.8143501 2.3500044 2.6314151
-1.7775357 2.3539653 2.6181316
-1.6327014 2.3573484 2.6250544
-1.5909172 2.3554168 2.6251273
-1.5233555 2.3567739 2.6045363
-1.4648705 2.3587682 2.6367056
-1.4658208 -0.55066228 2.6601355
-1.4217248 -0.55704898 2.6728342
-1.3714364 -0.55881256 2.6812677
-1.3189623 -0.56000173 2.6665175
-1.280861 -0.56305289 2.677037
-1.2251663 -0.5734809 2.6803148
-1.1633506 -0.56257683 2.67381
-1.1499475 -0.56274039 2.6787875
-1.6159986 -0.51409209 2.6667001
-1.5714134 -0.52302533 2.6853008
-1.5106883 -0.52820504 2.6821654
-1.4741269 -0.53202623 2.6692772
-1.4385968 -0.53959227 2.6916301
-1.3641958 -0.54961407 2.6932812
-1.3152864 -0.54688066 2.6950357
-1.6597236 -0.46932086 2.6819947
-1.6287702 -0.48882744 2.6948452
-1.5681494 -0.46997628 2.6786559
-1.5462472 -0.48305225 2.6572983
-1.7147163 -0.41751996 2.658464
-1.6806297 -0.42786232 2.6753871
-1.6129465 -0.41821155 2.6873293
-1.5855037 -0.41969386 2.6920145
-0.66774917 -0.44291335 2.652905
-0.62591314 -0.42700708 2.6638968
-0.59365571 -0.42634144 2.6859932
-1.7164425 -0.37696061 2.6627929
-1.6766874 -0.37607118 2.6859376
-1.6111728 -0.37333313 2.6789396
-1.579571 -0.36938348 2.6754739
-1.7141681 -0.32572496 2.66433
-1.6753777 -0.32431912 2.6750214
-1.6280484 -0.3244932 2.666054
-1.5662433 -0.33293977 2.6720235
-1.7197795 -0.27473095 2.6625681
-1.6803262 -0.2754069 2.6899512
-1.6338801 -0.27371255 2.6901119
-1.5764236 -0.27714613 2.6695268
-1.7195488 -0.22401465 2.6657622
-1.6787896 -0.22440451 2.6910021
-1.6087903 -0.22944844 2.6894782
-1.5837537 -0.22671948 2.6958084
-1.7168366 -0.18029118 2.6640487
-1.6691041 -0.17267746 2.6782904
-1.6178529 -0.18010226 2.6785524
-1.5816398 -0.18108539 2.6947525
-1.7068275 -0.1120474 2.6630919
-1.6758035 -0.12439239 2.6824672
-1.7125267 -0.071685411 2.661166
-1.6863761 -0.0700837 2.6831625
-1.7143806 -0.030219192 2.6609268
-1.6805711 -0.026701868 2.6856616
-1.7180389 0.024489306 2.6604271
-1.6861461 0.020135086 2.6823106
-1.7151203 0.072648495 2.665036
-1.6834788 0.072822459 2.6895812
-1.715861 0.12327019 2.6646976
-1.6838727 0.12354785 2.6887503
-1.7187986 0.17413574 2.6670754
-1.6871767 0.17458272 2.6918671
-1.7500784 0.24685462 2.6517067
-1.7227336 0.22740008 2.6700687
-1.6899693 0.21539596 2.6910446
-1.7593381 0.28158495 2.6706102
-1.7247442 0.27084905 2.6786156
-1.6989927 0.26237839 2.6901963
-1.9640862 0.3365328 2.6638463
-1.9231377 0.3324565 2.674211
-1.8721122 0.32806823 2.6781566
-1.8223271 0.32816389 2.6646013
-1.7791884 0.32331258 2.6748104
-1.9722998 0.37772202 2.6657183
-1.9326763 0.3727901 2.6904831
-1.8145338 0.35528502 2.6801341
-2.007865 0.41658613 2.6501184
-1.9762384 0.42640361 2.6760471
-1.9492077 0.40935835 2.6896162
-2.0541222 0.49213162 2.6717403
-2.0156658 0.48077324 2.6667223
-1.9773836 0.47082877 2.6847343
-2.0229259 0.5198881 2.693316
-1.9870483 0.50600564 2.6991639
-2.0365298 0.5571419 2.6983335
0.041677844 1.4304433 2.6572642
0.031571098 1.4693339 2.6754091
0.031749591 1.5222813 2.668251
0.037647165 1.579221 2.6687493
0.039346203 1.6299205 2.6686337
0.060493041 1.6219325 2.6553442
0.037248846 1.679944 2.674696
0.061054762 1.6801296 2.6598144
0.035111628 1.7260976 2.6777813
0.061209615 1.7132249 2.6525779
0.042740073 1.7779336 2.6828403
0.039174866 1.8203764 2.6910336
0.042369563 1.8692634 2.68543
0.066523008 1.8807788 2.6589921
0.045013748 1.9269686 2.6875834
0.068301827 1.9321796 2.660352
0.041634984 1.982677 2.6907547
0.063741758 1.971854 2.661118
0.041841809 2.0231647 2.6862528
0.064351022 2.0210505 2.6684108
0.04986538 2.0784233 2.6849489
0.064879037 2.0758896 2.6666393
0.049974911 2.106122 2.676281
0.057752136 2.1261792 2.672071
-2.404222 2.335073 2.6639228
-2.3615048 2.3302884 2.6861386
-2.3251362 2.3317289 2.6661761
-2.2659802 2.3379076 2.6716599
-2.2317798 2.3453865 2.6736627
-2.1677659 2.340497 2.674135
-2.1204348 2.338335 2.6793747
-1.9737469 2.3416665 2.6764259
-1.9248111 2.3346415 2.6664131
-1.8866619 2.3400545 2.6702678
-1.7829144 2.3490109 2.6902323
-1.7165723 2.3489916 2.6866765
-1.6690887 2.3395288 2.6713679
-1.6203265 2.3471279 2.6560388
-1.5337987 2.3430324 2.6754365
-1.4890077 2.3491423 2.6872602
-1.3982899 2.3445203 2.6856158
-2.980031 2.3539875 2.6854475
-2.8681445 2.3615704 2.6775622
-2.775166 2.3625386 2.6970489
-2.4406242 2.3519087 2.6690736
-2.0167153 2.3506634 2.6786795
-1.8627878 2.3535454 2.6925108
-1.8332701 2.3521471 2.6760604
-1.7726319 2.3531747 2.6611109
-1.7437745 2.3500004 2.6728373
-1.6115649 2.3684874 2.6728549
-1.574666 2.3567529 2.6944213
-1.5186915 2.3550391 2.6812272
-1.4649372 2.3554964 2.669914
-1.4287188 2.3523903 2.6827018
-1.3820982 2.3632314 2.6819885
-1.3360938 2.357481 2.6944232
-1.4023399 -0.55352491 2.7018843
-1.2553368 -0.55530709 2.7226777
-1.233331 -0.55840421 2.7268567
-1.1788802 -0.55617541 2.7115107
-1.1049855 -0.56787902 2.7195566
-1.0964284 -0.5706414 2.7367234
-1.606599 -0.52659833 2.7253094
-1.5775881 -0.52426589 2.7227416
-1.5240799 -0.52661008 2.7284915
-1.4614104 -0.5166918 2.7221422
-1.4199578 -0.52525276 2.7113855
-1.3788329 -0.52900356 2.7259984
-1.3320318 -0.53252411 2.7324314
-1.2765425 -0.54200363 2.7278881
-1.2019178 -0.54641432 2.7299416
-1.1871691 -0.54608279 2.732621
-1.6519535 -0.46110979 2.7167678
-1.6224775 -0.47017592 2.7105126
-1.5628915 -0.45138538 2.7385352
-1.65651 -0.42378005 2.7133539
-1.6101323 -0.43576437 2.7117047
-1.5819695 -0.43094715 2.7330508
-1.6557933 -0.39261451 2.7001741
-1.642598 -0.38568738 2.7099037
-1.5873739 -0.37913939 2.7418225
-1.5675294 -0.3214446 2.7315145
-1.3786088 -0.32745591 2.7482808
-1.582444 -0.2833688 2.7417402
-1.6383035 -0.22046179 2.704879
-1.5776505 -0.20807201 2.7070813
-1.6191415 -0.16383995 2.7181752
-1.5974936 -0.15975155 2.7436483
-1.6293391 -0.12299227 2.7213826
-1.5991992 -0.12348915 2.7479048
-1.6627251 -0.07205271 2.701483
-1.6310958 -0.072273478 2.7256539
-1.656585 -0.024973858 2.7072318
-1.6270539 -0.030141994 2.7286785
-1.6565689 0.022149159 2.7071574
-1.6263729 0.022214785 2.7336962
-1.657763 0.072949849 2.7084091
-1.6259936 0.073137879 2.7323687
-1.6600733 0.1239235 2.7107329
-1.6284004 0.1242561 2.7349806
-1.6622467 0.17500184 2.7121389
-1.6333334 0.17376556 2.7373557
-1.6706879 0.22940996 2.7136362
-1.6367515 0.22701719 2.737802
-1.7561475 0.29623544 2.7170727
-1.7215366 0.29535779 2.7235603
-1.6772505 0.2789923 2.7249508
-1.6447334 0.27147937 2.7388248
-1.8852925 0.34674305 2.7104161
-1.8034132 0.34399962 2.7248523
-1.7252569 0.31210011 2.7434106
-1.6990685 0.31137195 2.7476575
-1.9196827 0.39056718 2.710114
-1.8793714 0.37871313 2.7286518
-1.8099812 0.35729471 2.7031479
-1.9236848 0.42553633 2.7116377
-1.8888453 0.42621234 2.7370818
-1.9266878 0.47408909 2.7155995
-1.8875409 0.46768937 2.7400444
-2.0107305 0.53513354 2.7072113
-1.9694055 0.52513117 2.7223139
-1.9308655 0.51653254 2.7401333
-2.0205731 0.57493603 2.7077565
-1.9730773 0.57210308 2.7302759
-1.9409066 0.55624503 2.7486715
-2.0196474 0.61833161 2.7134798
-1.9853414 0.61200297 2.7346606
0.018213231 1.686834 2.7008796
0.018338656 1.7352132 2.7020228
-0.011130614 1.7876399 2.7378452
0.011120677 1.7766962 2.7210572
-0.011183171 1.8184114 2.7391503
0.011194006 1.8248924 2.7187634
0.0087813186 1.8750706 2.7277925
0.017024819 1.9272162 2.7215412
0.011460433 1.9786103 2.7299066
0.011552913 2.0229969 2.7307415
0.017406398 2.0760643 2.7228868
0.022526702 2.1219194 2.7144635
0.019527776 2.1525517 2.7156286
-2.4003098 2.3306577 2.7083094
-2.3788905 2.3377128 2.7374778
-2.3387685 2.3454225 2.7311356
-2.2728918 2.335866 2.7112503
-2.2302427 2.339951 2.7247143
-2.1823473 2.3382785 2.730768
-2.1304348 2.3409903 2.7237644
-2.0795336 2.3451083 2.741749
-2.0294049 2.3479841 2.7260354
-1.9699539 2.3405333 2.7213326
-1.9293734 2.3415959 2.7335823
-1.8726509 2.3479338 2.7204196
-1.8171126 2.3443046 2.7332687
-1.7713171 2.3392839 2.723459
-1.7427973 2.3458757 2.7291808
-1.6198703 2.349452 2.7397277
-1.5679935 2.3451827 2.7332478
-1.5132374 2.3354769 2.7198079
-1.4764403 2.3418045 2.7307081
-1.3590155 2.3481605 2.7456965
-1.280938 2.348798 2.7423351
-1.2108665 2.3463409 2.7305233
-1.1688613 2.3473063 2.7477283
-3.0362372 2.3613651 2.7140133
-2.9717584 2.3636181 2.7124684
-2.8154128 2.3595126 2.7142189
-2.7709596 2.3760376 2.7279494
-2.3320265 2.3576586 2.7094944
-2.0923376 2.3584266 2.7334423
-1.9286448 2.354183 2.7404115
-1.8785899 2.3553782 2.72911
-1.824764 2.3507807 2.7107742
-1.7151929 2.3536463 2.735918
-1.6732875 2.3930583 2.7372603
-1.6305873 2.3698649 2.7248135
-1.5937917 2.3546698 2.7210886
-1.4657156 2.3533032 2.7045364
-1.433045 2.3564322 2.7243373
-1.3772153 2.3552859 2.7197227
-1.3222852 2.3569441 2.7242281
-1.2765213 2.3578069 2.7200377
-1.2402095 2.3536859 2.7290792
-1.1881107 2.3517647 2.7465961
-1.2282795 -0.55195659 2.7531822
-1.1525261 -0.55665565 2.7620044
-1.1315166 -0.56027597 2.7747428
-1.5672063 -0.52655458 2.7744045
-1.4096457 -0.51885051 2.7553706
-1.3767757 -0.5029726 2.7598362
-1.3203956 -0.51858866 2.7625911
-1.2817475 -0.52959567 2.7758846
-1.2289604 -0.54122353 2.7749491
-1.1990743 -0.54383433 2.7993574
-1.5231609 -0.45259404 2.7639403
-1.4238634 -0.45851284 2.791436
-1.3865341 -0.47392637 2.7835398
-1.5670878 -0.42115116 2.7657306
-1.5319978 -0.43180245 2.7803562
-1.49709 -0.44107658 2.7998188
-1.4047426 -0.4280411 2.7911277
-1.3921592 -0.43590277 2.7995088
-1.5693746 -0.37455502 2.7747536
-1.5459552 -0.37355208 2.7979643
-1.4003139 -0.39050135 2.7861776
-1.3897829 -0.37518883 2.7836804
-1.5606403 -0.32279405 2.7801313
-1.3863217 -0.31969631 2.7644179
-1.5685421 -0.27458319 2.778929
-1.4017419 -0.26051298 2.7998745
-1.3959002 -0.2810491 2.7867079
-1.5735761 -0.22539666 2.7746851
-1.4000847 -0.23849869 2.7979317
-1.6022325 -0.17643908 2.7827661
-1.5724797 -0.17552568 2.7767618
-1.5384362 -0.16122538 2.798986
-1.5711769 -0.12602779 2.7713244
-1.5435629 -0.11700747 2.793541
-1.6013979 -0.072593622 2.7530053
-1.5716473 -0.074183315 2.770751
-1.5429572 -0.069308937 2.7935901
-1.600925 -0.036107033 2.7527068
-1.5737151 -0.02647165 2.773941
-1.5499659 -0.04363576 2.7904084
-1.6011091 0.029544977 2.7530124
-1.5730574 0.019561116 2.7754278
-1.5499381 0.044307407 2.7902761
-1.6015049 0.07333295 2.7530479
-1.5703306 0.073558681 2.7778969
-1.6042337 0.12463181 2.7563133
-1.5727838 0.12501968 2.7808197
-1.6113465 0.17982534 2.7583694
-1.5745 0.17653298 2.7817733
-1.6132493 0.22754408 2.7563155
-1.5767593 0.22089267 2.7834132
-1.6508621 0.29586071 2.7629137
-1.6203667 0.2809546 2.775481
-1.5841345 0.26363215 2.7867987
-1.8062983 0.33684197 2.7684186
-1.7787164 0.33105373 2.7847102
-1.6721402 0.31185707 2.7657433
-1.6393392 0.31265348 2.789619
-1.8248703 0.3817136 2.7734895
-1.7923635 0.37341559 2.7977252
-1.8604435 0.42664576 2.7562859
-1.8279387 0.42792633 2.784385
-1.7985704 0.44344965 2.7996621
-1.8634083 0.47651377 2.7574458
-1.8305781 0.47441992 2.7825975
-2.1165917 0.52685243 2.7812157
-1.9135094 0.52771366 2.7627621
-1.8825312 0.52381206 2.7883794
-1.8439124 0.50865847 2.798676
-2.1117637 0.58929724 2.7643704
-1.9240625 0.57666355 2.7675142
-1.8899527 0.56303382 2.7870827
-2.1252263 0.6090675 2.7791498
-2.0812168 0.64286274 2.760005
-2.0132451 0.64426726 2.7591972
-1.9666065 0.62799662 2.768666
-1.9385263 0.61511403 2.7878764
-3.6732886 1.1103616 2.7924068
-3.6938064 1.1586367 2.7955718
-0.011346177 1.8826075 2.7589159
-0.015282035 1.9286518 2.7649255
-0.019257631 1.9743118 2.7690401
-0.022769755 2.0266705 2.7722285
-0.024273304 2.0800221 2.7679915
-0.027678637 2.131217 2.773591
-0.024603713 2.1726942 2.7671878
-0.028130835 2.2212667 2.7919936
-2.8321443 2.3496976 2.7924151
-2.7841239 2.3468297 2.7675307
-2.4772978 2.3473144 2.7863925
-2.3176732 2.3433123 2.7672305
-2.2731869 2.3367474 2.7781236
-2.2214899 2.3414056 2.7737253
-2.1857984 2.3432589 2.7853897
-2.1274319 2.3347788 2.7735424
-2.0772562 2.3444793 2.780858
-2.0211854 2.3418388 2.7738633
-1.9775758 2.343257 2.781004
-1.9333135 2.3428268 2.7776661
-1.881222 2.3426936 2.7720568
-1.8284985 2.342593 2.7810414
-1.7670375 2.3394666 2.7682745
-1.6063098 2.3377182 2.7690706
-1.5708807 2.3420258 2.7834249
-1.524582 2.3386002 2.7710791
-1.4758683 2.3414907 2.7854557
-1.4239345 2.3467517 2.7654402
-1.3644783 2.3402524 2.7696078
-1.3228701 2.3444395 2.7707076
-1.2837949 2.3415241 2.7801201
-1.1949514 2.3481545 2.7750769
-1.1261621 2.3468754 2.7625604
-1.0979456 2.3410697 2.7645953
-3.1062057 2.3573568 2.7667272
-3.0135763 2.3551607 2.7764523
-2.9885173 2.3621707 2.7824416
-2.9008546 2.3559058 2.7516603
-2.8819773 2.357157 2.769172
-1.7279005 2.3744922 2.7823317
-1.6567228 2.3770113 2.7625077
-1.4858599 2.3505387 2.768173
-1.4384594 2.3534708 2.775084
-1.375728 2.3554108 2.7738392
-1.2333359 2.3560674 2.7713187
-1.1683407 2.3577404 2.7859793
-1.0914983 2.3638215 2.7972848
-1.1283383 -0.55859619 2.8204474
-1.2123191 -0.5281055 2.8331857
-1.176843 -0.5420109 2.8239136
-1.1428819 -0.54436737 2.8188784
-1.4830004 -0.4559845 2.8049734
-1.3614054 -0.46375474 2.8132949
-1.3289509 -0.46771333 2.8371866
-1.5162405 -0.41956568 2.8114598
-1.472738 -0.42782876 2.8225021
-1.437644 -0.42619416 2.8227031
-1.3737854 -0.42172593 2.8207986
-1.3382502 -0.42458764 2.8446972
-1.5221941 -0.3774572 2.8150661
-1.4776263 -0.37742963 2.8371792
-1.436125 -0.37438527 2.82494
-1.3701864 -0.37840536 2.818764
-1.3310841 -0.37173995 2.8381498
-1.525575 -0.32473767 2.8145764
-1.4755617 -0.32513848 2.8378322
-1.4303478 -0.32163963 2.8181212
-1.3725526 -0.32558674 2.8189361
-1.3323368 -0.33253044 2.8382282
-1.5253582 -0.27298781 2.8181355
-1.4767489 -0.2742514 2.8439715
-1.4345909 -0.27117336 2.8303208
-1.3737646 -0.27667823 2.8287029
-1.3247725 -0.29171604 2.8493071
-1.52384 -0.22212011 2.8140285
-1.4759166 -0.21973625 2.8389719
-1.4146336 -0.21837495 2.8166425
-1.3830062 -0.24057238 2.8325145
-1.5754588 -0.17759123 2.8161685
-1.5272235 -0.17838509 2.8145785
-1.4769469 -0.17648087 2.8329136
-1.4178991 -0.19023864 2.8362286
-1.5209028 -0.12270963 2.8129456
-1.4913744 -0.13074738 2.8369458
-1.5170535 -0.073364198 2.8214889
-1.4850721 -0.069894589 2.8433161
-1.5199655 -0.029120043 2.8175037
-1.4888864 -0.029255105 2.8426323
-1.5192027 0.022401657 2.8160839
-1.4897339 0.022497803 2.8442366
-1.5203977 0.073951297 2.8176363
-1.4922348 0.074371867 2.8483467
-1.5233552 0.12575287 2.8217134
-1.491452 0.1261526 2.8454721
-1.5249814 0.17757034 2.8226631
-1.4932127 0.17816468 2.8467953
-1.5257007 0.2219997 2.8216627
-1.4930449 0.21520305 2.8445983
-1.6009489 0.29753664 2.8047323
-1.5668259 0.28019294 2.8151479
-1.5312998 0.26387227 2.8275492
-1.7646939 0.34960264 2.8033841
-1.7272394 0.33756173 2.8151336
-1.6811873 0.33437169 2.8432159
-1.6118069 0.31306538 2.806313
-1.5795684 0.31404302 2.8308804
-1.7686882 0.3833487 2.8159184
-1.7263306 0.37193519 2.8398592
-1.6858933 0.35053244 2.8498251
-3.564831 0.42812362 2.8463507
-1.775227 0.42717505 2.8164008
-1.7367758 0.42641178 2.8428056
-1.8055164 0.4758679 2.8065491
-1.7756059 0.47604391 2.8227084
-1.7479483 0.47683847 2.8422
-3.5745122 0.53101492 2.8401089
-2.2132142 0.53877127 2.812974
-2.1835697 0.53747118 2.8218791
-2.1421831 0.5493632 2.8123007
-1.8580998 0.53695256 2.8059375
-1.8232585 0.52699316 2.8277159
-1.7951127 0.52003312 2.8485038
-3.5717189 0.55093074 2.8347542
-2.2256906 0.57672912 2.8391778
-2.1862018 0.56772053 2.8285296
-2.1453052 0.57441866 2.8124175
-1.8758706 0.57898968 2.8146989
-1.8270031 0.56935215 2.8365848
-2.2137649 0.62111193 2.8426504
-2.1793113 0.63858241 2.8309846
-1.965582 0.64662075 2.8010967
-1.9239321 0.61971134 2.8078718
-2.1766109 0.66480601 2.8386865
-1.9682367 0.65271491 2.8363693
-3.6116121 0.84970838 2.8466921
-3.6135278 0.88121152 2.8407936
-3.6180711 1.0227746 2.8459663
-3.7071934 1.0783862 2.8302698
-3.6888478 1.0940568 2.8102973
-3.6221399 1.1557028 2.8490601
-3.6318243 1.3136427 2.8451416
-3.689038 1.6016475 2.8309197
-3.6933312 1.6673732 2.8486662
-3.6597331 1.7162071 2.8364446
-0.043168224 2.0428989 2.8030336
-0.064768665 2.073396 2.8238049
-0.043280639 2.0639443 2.8010862
-0.063921876 2.1263521 2.8229146
-0.043673653 2.1144202 2.8074446
-0.068512738 2.1762438 2.8264875
-0.064998507 2.2270699 2.8297012
-0.044238184 2.2060242 2.8033345
-0.094424427 2.2676072 2.8490727
-3.1672876 2.3449421 2.8107109
-3.1254206 2.3453739 2.8454328
-2.5307064 2.3402162 2.8117571
-2.4746203 2.3436799 2.8337948
-2.417479 2.3366399 2.8094559
-2.3920412 2.3402603 2.8350091
-2.330369 2.3369544 2.8215148
-2.2262678 2.3327878 2.82376
-2.1780834 2.3410339 2.8228049
-2.1156931 2.3387263 2.8239584
-2.0806684 2.3404882 2.8263278
-2.0230262 2.3368068 2.8214197
-1.9728887 2.341105 2.8256092
-1.9281181 2.3391221 2.8043408
-1.8764049 2.3418739 2.8249359
-1.8341383 2.3316016 2.8030887
-1.7928468 2.3434126 2.8027809
-1.6341885 2.3396397 2.8257267
-1.5889935 2.3466754 2.8319926
-1.5353703 2.3420615 2.8307364
-1.4746367 2.3481231 2.8285031
-1.3862214 2.3422999 2.8393555
-1.305676 2.3417041 2.8336952
-1.2762378 2.3420599 2.8209274
-1.2281066 2.3444455 2.8303959
-1.1955528 2.3486834 2.8483617
-1.0409839 2.3485794 2.8286531
-0.98242128 2.3485913 2.8116503
-0.93058771 2.3465743 2.8240819
-0.89432681 2.340631 2.8262584
-3.0867774 2.3534331 2.8336079
-2.5076776 2.3562837 2.8344009
-1.9265021 2.3596678 2.8401172
-1.8344963 2.3554175 2.8422346
-1.7723494 2.3613477 2.8218913
-1.7180187 2.3789206 2.8297634
-1.6787024 2.372297 2.8261621
-1.6111182 2.3528531 2.8305511
-1.5760227 2.3540301 2.8496346
-1.5109618 2.3545494 2.8411336
-1.423177 2.3581119 2.831079
-1.3785902 2.3618875 2.8327181
-1.3389623 2.3541811 2.8381226
-1.2615197 2.3594091 2.8017104
-1.2240971 2.3541286 2.8087044
-1.1726283 2.3549745 2.8288031
-1.1288586 2.357893 2.821094
-1.073472 2.3589923 2.818058
-1.0272645 2.3547468 2.8177936
-0.98972523 2.3660667 2.8326254
-0.91844195 2.3590293 2.8438232
-1.1394253 -0.55314809 2.8704696
-1.1846118 -0.53724015 2.8738723
-1.3064407 -0.46947926 2.8569751
-1.2762506 -0.47053993 2.8739727
-1.2428591 -0.47423226 2.8890119
-1.3127695 -0.42529821 2.8585498
-1.2736226 -0.42866755 2.8865111
-1.3116987 -0.38361028 2.8621404
-1.2891752 -0.37444019 2.8752136
-1.3137652 -0.32181069 2.8597124
-1.2926915 -0.31926566 2.8783617
-1.4799329 -0.26675373 2.8507586
-1.3218443 -0.27487496 2.868552
-1.2946266 -0.27271348 2.8954492
-1.420939 -0.21415929 2.8644974
-1.3750175 -0.2237014 2.8761194
-1.3286736 -0.24104197 2.8715775
-1.4267877 -0.1701887 2.8725603
-1.389716 -0.18351921 2.8849416
-1.4688489 -0.1224037 2.8558102
-1.4303476 -0.12604298 2.8813276
-1.4620701 -0.075687692 2.8627806
-1.4244704 -0.07411278 2.8883412
-1.464011 -0.029356781 2.8628497
-1.4290085 -0.027351778 2.8879724
-1.4643121 0.022540329 2.8634138
-1.4330169 0.022613619 2.8884766
-1.4663317 0.074545808 2.8666899
-1.433987 0.074780144 2.8897855
-1.4672871 0.12661125 2.8672135
-1.4359601 0.12710841 2.8923836
-1.4698534 0.17892177 2.8701923
-1.4365354 0.17939566 2.8915358
-1.4733808 0.22516441 2.8677862
-1.4428046 0.22084242 2.8932035
-1.5193005 0.28403881 2.8560841
-1.4776118 0.26243001 2.8730087
-1.4491339 0.25493085 2.895051
-0.10751513 0.2915436 2.8986878
-1.6319841 0.33515996 2.8731339
-1.571435 0.30328295 2.884089
-0.11171299 0.32033363 2.8850384
-0.093283273 0.3319293 2.8851731
-1.7103246 0.38307309 2.8554084
-1.6743072 0.37207365 2.8773034
-1.6369257 0.35307381 2.8971543
-0.12159445 0.3615422 2.8979104
-3.5538943 0.44954261 2.8717923
-3.5295022 0.43880448 2.8902445
-1.7131834 0.43299368 2.8642514
-1.6781845 0.42094094 2.8890471
-3.6047473 0.49446985 2.8701148
-3.5709929 0.48102731 2.8630204
-3.5235679 0.47864687 2.8799884
-1.7201679 0.48005754 2.867631
-1.6879884 0.47168234 2.890214
-3.5559165 0.52104616 2.8634748
-3.5337839 0.52073205 2.8824706
-1.8002912 0.54486209 2.8533654
-1.7698556 0.53088766 2.8671894
-1.7377716 0.52299452 2.8852096
-3.604717 0.59705889 2.854274
-3.5754409 0.57427281 2.8619387
-3.5438135 0.57322615 2.8826113
-1.8655522 0.59751785 2.8513634
-1.8217502 0.58694613 2.8569179
-1.7776253 0.57873422 2.8771555
-1.7477241 0.5713203 2.8951826
-3.617331 0.64033139 2.8571126
-3.565913 0.6291669 2.8665121
-3.5341866 0.62149215 2.8913527
-2.2031674 0.61022145 2.8521132
-1.8520808 0.61921275 2.8925738
-1.8212044 0.61679924 2.8929629
-3.624182 0.66217542 2.858773
-3.5717499 0.67492646 2.8729663
-2.2157152 0.68542027 2.8631308
-2.1618669 0.68618387 2.8579705
-2.1300874 0.69288182 2.8837886
-3.5664468 0.74327493 2.8889117
-2.255017 0.74263549 2.896286
-2.2189713 0.72329503 2.8736656
-2.1877031 0.72582734 2.8913465
-3.6023862 0.78565645 2.853426
-3.5713048 0.77184743 2.8755527
-2.2199438 0.77294034 2.8922825
-3.6116996 0.81870735 2.8538909
-3.5780652 0.82836956 2.8800774
-2.2280269 0.82572663 2.88796
-3.584353 0.8815701 2.8728456
-2.2513361 0.89967871 2.8882
-2.2359066 0.8772524 2.8931351
-3.6105645 0.92707801 2.8649178
-3.5779836 0.9291988 2.8873317
-2.226079 0.92683476 2.8918419
-3.6149721 0.96984172 2.8576148
-3.5764101 0.96777242 2.8822668
-2.2352164 0.95091784 2.8866184
-3.6105742 1.0131507 2.8612914
-3.5850873 1.0227959 2.8786743
-2.2369382 1.044492 2.8972433
-3.6419914 1.0505141 2.858918
-3.5853417 1.0669932 2.8818166
-2.2394593 1.0628048 2.8952692
-3.6167607 1.1330317 2.8512452
-3.5765352 1.1229633 2.8962376
-3.6180856 1.172878 2.8659923
-3.585701 1.1678827 2.8905792
-3.6122444 1.2294017 2.8713038
-3.5972383 1.2032564 2.8897848
-2.2551827 1.2350063 2.8969491
-3.6319883 1.2808913 2.8694956
-3.588882 1.2815441 2.8956277
-2.257555 1.2537144 2.8936265
-3.6128733 1.32498 2.8631778
-3.5881481 1.323602 2.8803484
-3.6235294 1.37538 2.8750215
-3.6175547 1.4197798 2.8732023
-3.5935783 1.4186739 2.8910236
-3.6193149 1.4730146 2.8709338
-3.6182809 1.5142918 2.878212
-3.5951352 1.5135157 2.8966999
-3.6223249 1.5635668 2.8829465
-3.6781094 1.6239151 2.8652165
-3.6243088 1.6177421 2.8833418
-3.6743226 1.6685399 2.8704247
-3.6350791 1.67382 2.8809481
-3.6633687 1.7120943 2.862015
-3.6368666 1.7258101 2.8916137
-3.6693428 1.7709188 2.8770077
-3.6338661 1.7751008 2.8948691
-3.6602321 1.8138356 2.8767633
-3.6413798 1.8263123 2.8938043
-3.6546669 1.8771397 2.8845193
-3.6472633 1.8512994 2.8886151
-0.11040416 2.1930394 2.8786781
-0.085231021 2.176414 2.8575177
-0.11082949 2.2261419 2.8743715
-0.089901209 2.2242522 2.8567677
-0.11182784 2.2793045 2.8790684
-3.3029997 2.3472362 2.8955133
-3.0623765 2.3458722 2.8975124
-2.581351 2.347739 2.8701699
-2.5202386 2.3481719 2.8624136
-2.4576087 2.3461936 2.8513074
-2.3192692 2.3453782 2.896539
-2.2315593 2.3343956 2.8851759
-2.1766081 2.3360918 2.8755929
-2.126277 2.3418651 2.8705952
-2.076966 2.338671 2.8726704
-2.0301325 2.3377805 2.8768358
-1.9812632 2.343394 2.8702447
-1.9251747 2.3414104 2.8776155
-1.8731447 2.3423777 2.8720567
-1.8486298 2.336453 2.8908134
-1.6598698 2.3313997 2.8826845
-1.6197355 2.3417256 2.8746648
-1.5842013 2.3481719 2.8773918
-1.5270681 2.3403194 2.8787739
-1.4937979 2.3377283 2.8633914
-1.3729836 2.3399882 2.8735816
-1.3318707 2.3439419 2.8769732
-1.2835 2.3475542 2.8884113
-1.1079476 2.3472543 2.8766475
-1.074427 2.3499496 2.8911974
-1.0472453 2.3454506 2.8578441
-3.2356763 2.3519895 2.8971467
