ply
format ascii 1.0
comment PCL generated
element vertex 1538
property float x
property float y
property float z
element camera 0
property float view_px
property float view_py
property float view_pz
property float x_axisx
property float x_axisy
property float x_axisz
property float y_axisx
property float y_axisy
property float y_axisz
property float z_axisx
property float z_axisy
property float z_axisz
property float focal
property float scalex
property float scaley
property float centerx
property float centery
property int viewportx
property int viewporty
property float k1
property float k2
end_header
-0.31868854 -0.48930845 2.6582284
0.093525857 -0.48985094 2.6726279
0.1276626 -0.48455527 2.6668692
0.17145333 -0.47855571 2.6805923
0.28841519 -0.47944874 2.6790459
0.37838262 -0.4784748 2.6661623
0.45760769 -0.48018187 2.6676497
0.94554996 -0.27384654 2.6840138
0.9561922 -0.26599616 2.6695392
0.94987589 -0.21314296 2.6793647
0.95531464 -0.22397362 2.6737614
0.95613033 -0.17672125 2.6755219
0.9571383 -0.1265756 2.6831639
0.96584541 -0.069557868 2.6793158
1.0070441 -0.053014454 2.6622036
1.0824637 -0.05343698 2.6662436
1.1231995 -0.053447716 2.6557679
1.1770035 -0.053748023 2.6571856
1.2702461 -0.054243762 2.6565371
0.9736324 -0.026607146 2.6903851
1.025176 -0.027791055 2.6767805
1.0741645 -0.025297526 2.6718009
1.1243644 -0.028073614 2.6695697
1.1746895 -0.026860291 2.6695564
1.2241733 -0.025579477 2.6658785
1.2776936 -0.028457642 2.6657703
1.3245219 -0.022554934 2.6534145
0.98226142 0.013567657 2.6940703
1.0274751 0.011942556 2.6920364
1.0773622 0.015774395 2.6894915
1.1270529 0.022101091 2.6887574
1.1727263 0.020636439 2.682621
1.223251 0.0187821 2.6814415
1.2763919 0.022823492 2.679208
1.3245507 0.020373633 2.6647174
1.3773168 0.027906541 2.6610069
1.4007175 0.041790642 2.6582251
1.1395746 0.061433237 2.6944137
1.1637191 0.054803763 2.6971095
1.2293724 0.064277247 2.6927061
1.2756627 0.074101932 2.6913588
1.3263532 0.073203459 2.6845415
1.3765702 0.078316242 2.6797256
1.4183789 0.08364293 2.6627629
1.3736665 0.11778162 2.6911356
1.4281087 0.12782484 2.6832967
1.4644209 0.12613659 2.6650941
1.4360844 0.15479274 2.6902039
1.4751416 0.16920242 2.679754
2.0466924 2.2968528 2.6566243
-2.8225608 2.3404503 2.6690812
-2.7561369 2.3264377 2.6915627
-2.0755804 2.3475862 2.6797943
-2.0306826 2.3471017 2.6860094
-1.9813949 2.3485954 2.6536691
-1.8223953 2.3442566 2.6734927
-1.7840126 2.3388064 2.6734018
-1.720153 2.3418829 2.6735744
-1.6082445 2.3461509 2.6808558
-1.5314882 2.3481569 2.6646717
-1.4891729 2.3494067 2.6875644
-1.3888516 2.3457057 2.6543763
-1.3207457 2.3453908 2.684303
1.8480003 2.3461936 2.6899438
1.8699188 2.3221431 2.6802337
1.9242831 2.3160648 2.6797581
1.9777497 2.3176978 2.6780672
2.0230846 2.3102598 2.6805267
-2.0549588 2.3528025 2.6572044
-2.0363758 2.3523645 2.66872
-1.9616063 2.3573256 2.6808934
-1.9300903 2.359067 2.6599622
-1.8821944 2.3553822 2.6836433
-1.7645066 2.35412 2.6673365
-1.6746958 2.3555608 2.6692317
-1.6361876 2.3541744 2.6847427
-1.5798441 2.3558378 2.6805749
-1.5335679 2.3513274 2.6683271
-1.4728042 2.3543212 2.6643877
-1.4290253 2.3614771 2.6766691
-1.3687396 2.3549159 2.6764097
-1.3454236 2.3588867 2.6923161
1.8418156 2.397275 2.690197
1.8532763 2.3692739 2.6670628
1.5699992 2.4289999 2.6846805
1.6178104 2.4332886 2.6791744
1.6712334 2.435195 2.6698322
1.7278962 2.4393191 2.6749585
1.7696255 2.4286029 2.6693165
1.8173193 2.4186692 2.6790121
1.8500789 2.4026845 2.6513708
-0.45732161 -0.50006372 2.7041175
-0.44420034 -0.50011098 2.7058237
-0.46193892 -0.49181947 2.7330232
-0.43462509 -0.49100438 2.73137
0.94180137 -0.26758188 2.7197442
0.93978566 -0.22313663 2.7251372
0.94179726 -0.17539512 2.7205617
0.94254386 -0.12823208 2.7244592
0.94181204 -0.074122943 2.7236991
0.9444291 -0.026936745 2.7318494
0.94311291 0.01757328 2.7310443
0.96328384 0.029022826 2.7109578
1.0219934 0.03799323 2.7056956
1.0680132 0.040859301 2.7050686
0.94300097 0.074675702 2.7340429
0.97357082 0.074578099 2.7214942
1.0235428 0.073266178 2.7189212
1.0730428 0.076400183 2.7133753
1.1197189 0.077992536 2.7087159
1.1773661 0.077557653 2.7086198
1.2203113 0.088132292 2.7098718
1.3340129 0.097782657 2.7040696
0.94236958 0.11581589 2.7454162
0.97481441 0.12243646 2.7326069
1.0271481 0.12302588 2.7334092
1.0747722 0.1219903 2.7256405
1.1283965 0.12534167 2.7284021
1.1749994 0.12426239 2.7215908
1.2186085 0.12450748 2.7137995
1.2684802 0.1237006 2.7116978
1.3252927 0.1272431 2.7141187
1.3793355 0.14066277 2.7107849
1.4095052 0.14088511 2.7044201
0.94381076 0.15005517 2.7484741
0.97564971 0.15601967 2.7427349
1.029941 0.16311997 2.7438369
1.0753624 0.16510019 2.7396002
1.1208179 0.16850862 2.7383485
1.1729982 0.1716882 2.7410274
1.2230024 0.16551396 2.7353482
1.2738423 0.17603149 2.7413344
1.3208668 0.17736182 2.729635
1.3759767 0.17849405 2.7303746
1.4187287 0.17703393 2.7172809
0.9666965 0.20509362 2.7481165
1.1712941 0.20873824 2.7457902
1.2678878 0.21096011 2.7483063
1.330115 0.21194281 2.7418354
1.3636186 0.21277778 2.7425275
2.0364003 2.2976875 2.7101951
-2.9005365 2.3391936 2.7162249
-2.8923821 2.349025 2.7436237
-2.7606664 2.3471336 2.7310328
-2.0648255 2.3482177 2.7337692
-1.7317578 2.3399217 2.7051716
-1.5548207 2.3488293 2.7321336
-1.4734129 2.3482585 2.7319126
-1.4381503 2.3474255 2.7471929
-1.2709103 2.346113 2.742702
-1.149256 2.3419917 2.7477188
1.8442602 2.3326514 2.7272274
1.8754071 2.3130946 2.7266655
1.9330235 2.3102508 2.7304695
1.9751035 2.317673 2.7242115
2.0103197 2.3081923 2.7228374
-2.1222706 2.3524764 2.7496626
-2.0906291 2.3565006 2.7312102
-2.0290346 2.3572278 2.7270298
-1.973906 2.354665 2.7240858
-1.9328798 2.3641102 2.7249117
-1.8802882 2.3575015 2.7315233
-1.8267192 2.3649039 2.7323475
-1.7783484 2.3565996 2.7189732
-1.7182431 2.3578148 2.740757
-1.6797771 2.3532948 2.7273257
-1.6313424 2.3532879 2.7395735
-1.5882589 2.3594842 2.7311525
-1.5316033 2.3531995 2.7207241
-1.4647671 2.3517802 2.7027862
-1.4251195 2.3547704 2.7161443
-1.3790795 2.3573873 2.727488
-1.3185275 2.3590388 2.731776
-1.2780718 2.3606787 2.7233527
-1.2269721 2.3609464 2.7441504
1.8331215 2.3794832 2.7266736
1.4812295 2.4419975 2.7471077
1.5200123 2.4333954 2.7161391
1.5728071 2.4405682 2.7295816
1.6220076 2.4365983 2.7083328
1.6818603 2.441287 2.7237942
1.71253 2.4331729 2.7256727
1.7753365 2.4318495 2.7195718
1.8171524 2.4123633 2.7284794
0.9310869 -0.2715562 2.7658966
0.92927378 -0.22672223 2.7750108
0.92810947 -0.17420626 2.76983
0.92895985 -0.12702422 2.7677674
0.92897981 -0.075267367 2.7722352
0.9300167 -0.027304381 2.7759142
0.93021524 0.020730907 2.7764986
0.92788923 0.075461224 2.7688785
0.93256605 0.12556626 2.7721667
-0.43859863 0.17421426 2.7815325
0.93612838 0.17368683 2.7723601
0.9753539 0.18494786 2.752568
1.017996 0.18712762 2.7547169
1.0742911 0.19360688 2.7550139
1.1266121 0.19430666 2.7513323
1.2258624 0.19284943 2.7539001
0.93475103 0.205577 2.7627585
0.99300385 0.20630725 2.7592976
1.028742 0.21074383 2.7642195
1.0740871 0.21041796 2.7576072
1.1294873 0.20870464 2.757658
1.1740499 0.20922424 2.752142
1.227511 0.2112488 2.7657197
1.2727189 0.21175614 2.7586262
1.3143147 0.21280587 2.7603867
1.3559551 0.21379754 2.7607875
1.9044305 2.2994423 2.7517302
1.9523435 2.2951503 2.7593791
2.0123715 2.2935321 2.7640247
-2.7605712 2.3439493 2.7798529
-2.7446079 2.3475206 2.799809
-2.6752579 2.342375 2.7873311
-2.1166799 2.3482616 2.7929716
-2.0588379 2.3439081 2.7762876
-2.0398633 2.3434429 2.7876885
-1.9019575 2.3479609 2.7904637
-1.8804407 2.348567 2.7749755
-1.6985127 2.349664 2.7802513
-1.567136 2.3408933 2.7735953
-1.5288383 2.3451562 2.7788556
-1.4191886 2.344799 2.7520239
-1.351982 2.3486326 2.7869449
-1.2780704 2.3420506 2.7708421
-1.1436173 2.3482552 2.793885
1.829011 2.3254776 2.7789304
1.8784323 2.3105204 2.7715123
1.9322455 2.3037186 2.7865105
1.9869825 2.3143177 2.7709696
2.0005422 2.3088086 2.7528114
-2.8520019 2.3697314 2.7627263
-2.7491674 2.3544059 2.7550628
-2.1068163 2.3560326 2.7662227
-2.0850279 2.3525066 2.7743425
-2.0298231 2.35043 2.7603102
-1.9778594 2.3527927 2.7745802
-1.9269309 2.3547137 2.7719285
-1.854512 2.3526013 2.7823675
-1.827708 2.3552084 2.7697597
-1.7766721 2.3612015 2.7765651
-1.7320595 2.3587198 2.7762733
-1.6696191 2.3545074 2.7757337
-1.6232942 2.3596945 2.7806177
-1.5932534 2.3534017 2.7795434
-1.5147583 2.3546133 2.7604117
-1.4707222 2.354352 2.7808216
-1.4212899 2.3538566 2.7833905
-1.3746809 2.3535719 2.7717397
-1.3322744 2.3575816 2.7797811
-1.257601 2.360713 2.7866526
-1.2212083 2.3618631 2.7748532
-1.1778207 2.3567405 2.775135
-1.1256039 2.363528 2.7851441
-1.0895301 2.3595593 2.7922409
1.8184875 2.3716481 2.7740607
1.3699958 2.4328156 2.7846127
1.428519 2.4425874 2.7723651
1.4698302 2.4455204 2.7834253
1.519545 2.4433234 2.769767
1.5592306 2.4457645 2.7937264
1.6404767 2.4463949 2.753442
1.6740164 2.4400237 2.7773924
1.7218941 2.4256935 2.7713542
1.7770067 2.4267001 2.7739143
1.8087314 2.4070468 2.7676632
1.5890652 2.4502254 2.78544
1.6224389 2.4599018 2.7826741
1.6629862 2.4530997 2.7514856
0.91753888 -0.26499331 2.8200452
0.91647339 -0.222901 2.8191643
0.91568482 -0.17360787 2.8267689
0.91688383 -0.12518671 2.8198781
0.91485661 -0.075814933 2.8270628
0.88608181 -0.020887543 2.8466668
0.91382658 -0.026079569 2.8340888
0.88692468 0.00012631585 2.849417
0.91714978 0.021074571 2.8269799
0.91650039 0.076800905 2.8243256
0.91169369 0.12739626 2.8255527
-0.4622699 0.19184496 2.8427589
0.9128269 0.17286302 2.8289778
-0.46751684 0.22186553 2.8391399
0.91823679 0.20962143 2.8251088
1.8210849 2.2901723 2.8288138
1.9424248 2.2974567 2.8144388
2.0043478 2.2974534 2.8219588
-2.8666017 2.3407633 2.803365
-2.8209708 2.3368597 2.8309605
-2.7228279 2.3461332 2.8138378
-2.6964059 2.3406982 2.8229249
-2.1537986 2.3494992 2.8182521
-2.1188378 2.3422065 2.8281631
-2.0382152 2.3442893 2.8365948
-1.963892 2.3460412 2.8282609
-1.8978497 2.3471768 2.8360245
-1.8295841 2.3491106 2.8346241
-1.5561658 2.3421254 2.8008134
-1.4776487 2.3477774 2.806921
-1.364265 2.3436046 2.8313971
-1.3346524 2.3466134 2.8290017
-1.2829267 2.3495071 2.8164508
-1.2107682 2.3444815 2.83693
-1.1781714 2.3487611 2.8182583
-1.1003917 2.348525 2.844893
-1.0757033 2.3495729 2.81882
1.7988101 2.3448377 2.8452859
1.8159987 2.322088 2.815383
1.8697237 2.3099523 2.8233027
1.9126422 2.3038843 2.8210888
1.9837432 2.3042765 2.8238091
-2.6183381 2.3650825 2.8228099
-2.101423 2.3521736 2.8099568
-2.0727351 2.3515871 2.8274767
-1.9295483 2.3520775 2.825429
-1.8688717 2.3524261 2.8174806
-1.8218215 2.3541491 2.8255281
-1.7708567 2.3604286 2.828331
-1.7267213 2.3579807 2.8200703
-1.6757517 2.3590634 2.8278396
-1.6294532 2.3664644 2.8423877
-1.5769844 2.3643703 2.8446984
-1.5363646 2.3662279 2.8468285
-1.4328083 2.3572075 2.8281977
-1.3904212 2.3521485 2.8135493
-1.3100649 2.3507855 2.8199015
-1.2610497 2.3573709 2.8360763
-1.2267407 2.3548329 2.8178983
-1.1545706 2.3534317 2.8331161
-1.1261134 2.3568044 2.8295841
-1.0684917 2.3667126 2.8229091
-1.0205028 2.3555477 2.8303096
-0.96890211 2.3571098 2.826926
-0.92699808 2.3589988 2.8414032
1.7937884 2.3961973 2.8232541
1.8022414 2.376863 2.8305759
1.2391884 2.4353786 2.8411422
1.2774411 2.4410255 2.8340271
1.329075 2.4385164 2.8097579
1.3625718 2.4493349 2.8489528
1.4268926 2.4413188 2.8229249
1.4764913 2.4425621 2.8283687
1.5254955 2.4402316 2.8219893
1.5719528 2.436013 2.8234286
1.6266153 2.4453583 2.8243432
1.6769476 2.4316125 2.8190103
1.7381792 2.4321139 2.8249416
1.7704093 2.4170477 2.8220634
1.3919551 2.4539204 2.8429136
1.4105197 2.4574139 2.8011389
0.90530163 -0.26967525 2.8758762
0.89930546 -0.24156024 2.8825331
0.90988368 -0.22729059 2.8807955
0.89810663 -0.18445359 2.8814716
0.90568084 -0.17843275 2.8577311
0.89917231 -0.12779728 2.8869224
0.90909421 -0.12719461 2.8704784
0.89058334 -0.077326447 2.8604908
0.90289325 -0.079491667 2.8518703
-0.64080477 -0.020921841 2.8901267
-0.47162306 -0.020587755 2.8615699
0.88914764 -0.042043481 2.8563795
0.90275526 -0.042019539 2.8519835
-0.62505627 0.022092877 2.8935997
-0.47252423 0.020753497 2.8669553
0.89128804 0.035355505 2.8632581
0.90363848 0.0212228 2.854857
-0.61143136 0.069954395 2.8871515
-0.59790707 0.083980836 2.8910177
-0.47253171 0.075949147 2.866365
0.89182913 0.077671021 2.8643813
0.90444905 0.077548891 2.8567212
-0.5847922 0.12565108 2.8844061
0.89063734 0.12686343 2.8593438
0.90270597 0.11252332 2.8504303
-0.56288356 0.1737963 2.8743184
-0.47247943 0.16921155 2.8572662
0.89232153 0.16939501 2.8632433
0.90545017 0.197419 2.8559322
-0.55132234 0.21507598 2.8678613
-0.53257889 0.23344152 2.8678062
-0.4784705 0.22727306 2.8544717
0.9066872 0.21180043 2.8591404
-0.52325428 0.26346415 2.8668089
1.8417482 2.2977607 2.8738949
1.9115885 2.297122 2.8774381
1.969532 2.2922049 2.8800855
-2.7562726 2.3339734 2.8755953
-2.7031231 2.3437703 2.8806193
-2.5794132 2.3459764 2.8680153
-2.1709881 2.349138 2.8545206
-2.0861061 2.3450294 2.8703232
-2.0402601 2.3494375 2.8912275
-1.9829129 2.3453186 2.8726373
-1.9151057 2.3498559 2.8752954
-1.8409759 2.345258 2.8656445
-1.719559 2.345608 2.8677154
-1.4675015 2.3472855 2.8698735
-1.3568075 2.3346231 2.878752
-1.3336416 2.3426793 2.8616412
-1.2741959 2.3473182 2.8728306
-1.2401096 2.3498194 2.8705626
-1.0550501 2.3455472 2.8912313
-1.0218368 2.3464785 2.8670635
-0.98428357 2.3477082 2.8623369
1.7912973 2.3264942 2.8770497
1.8157929 2.3081105 2.8765891
1.8813607 2.3026302 2.8745308
1.9202819 2.3056808 2.864604
1.9526945 2.3019741 2.8615546
-2.6616335 2.3544273 2.8784785
-2.1599939 2.3579459 2.8778658
-2.1284933 2.3548465 2.8927355
-2.0610623 2.3515902 2.8820486
-2.0165558 2.351783 2.8632536
-1.9687264 2.3507483 2.8906205
-1.9346219 2.3509421 2.8656247
-1.8826958 2.3527634 2.8692029
-1.8212588 2.3555365 2.8937345
-1.7713244 2.3553886 2.8664317
-1.7252557 2.3535051 2.8773506
-1.6662166 2.3563209 2.8743439
-1.6209831 2.3623297 2.8814561
-1.5693038 2.357429 2.8580742
-1.5207014 2.3562341 2.8690972
-1.4858333 2.3571014 2.8565001
-1.4208391 2.3573084 2.8756988
-1.3949432 2.3570373 2.8572202
-1.2949119 2.3538792 2.8553813
-1.2115096 2.3568335 2.8786001
-1.1801256 2.3583157 2.8796012
-1.1317322 2.360636 2.8871987
-1.0748037 2.3535354 2.87444
-0.97590065 2.3587322 2.87954
-0.92043769 2.3622179 2.8734598
-0.87117726 2.3612425 2.8765213
-0.8227998 2.3620811 2.8862083
-0.77441299 2.3626342 2.8845849
-0.73109692 2.3609755 2.8919251
1.7795115 2.3791857 2.8756564
1.0575888 2.4233389 2.8879004
1.1184088 2.4412324 2.8920166
1.175648 2.4380639 2.8926601
1.2193059 2.4396844 2.8730307
1.2860762 2.4450769 2.8865383
1.3231398 2.4419131 2.8700707
1.3737062 2.4376743 2.8818746
1.4177289 2.4405487 2.8712635
1.4694709 2.4337275 2.8780434
1.5278578 2.4313076 2.8678055
1.5772475 2.4309316 2.8742077
1.6345198 2.4324644 2.8689961
1.6796106 2.4310043 2.8751633
1.7254804 2.4201288 2.8767631
1.7586887 2.4108999 2.8658979
1.1774472 2.4537516 2.8885403
1.2562449 2.4509923 2.8934832
-0.47282749 -0.46918517 2.9322484
0.90469599 -0.21440451 2.9013159
0.90520442 -0.157285 2.9053824
1.7891703 2.2943225 2.940958
1.8852669 2.2915542 2.9281309
1.9297593 2.2955499 2.9210174
1.9563941 2.2908497 2.9317288
-2.7807381 2.3340211 2.9147284
-2.7125759 2.3491588 2.942241
-2.6254628 2.3470128 2.9469643
-2.477278 2.3439536 2.9396646
-2.307267 2.3334074 2.9332185
-2.2556579 2.3400915 2.9300206
-2.2160048 2.3387625 2.9288592
-2.1675863 2.3410466 2.9235134
-2.1272686 2.3448653 2.9238489
-2.0009782 2.3477397 2.9123085
-1.9409394 2.3487051 2.9189157
-1.8519368 2.3455417 2.9489429
-1.8198839 2.3471491 2.9246387
-1.7689135 2.3475268 2.9090128
-1.7308614 2.346 2.926537
-1.6449476 2.3472097 2.9292712
-1.3541391 2.3428867 2.9306281
-1.3370675 2.3457656 2.9158833
-1.0639657 2.3478379 2.9276741
-1.042432 2.3388126 2.9217482
-0.84086752 2.3467441 2.9167819
1.774332 2.3219256 2.9221389
1.8268965 2.3053052 2.924588
1.8706948 2.3037183 2.9123235
-2.669663 2.350091 2.9197848
-2.4394734 2.3564544 2.9381042
-2.0688455 2.352232 2.9258451
-2.0337307 2.3542638 2.9274473
-1.9776379 2.3537064 2.9367161
-1.9126791 2.3511031 2.9241695
-1.8797638 2.3545353 2.9261694
-1.7774512 2.352639 2.9273844
-1.7134984 2.3567059 2.9314165
-1.6776218 2.3544996 2.9246693
-1.6290575 2.3541181 2.9200757
-1.5784866 2.3575151 2.9150941
-1.5242026 2.3554692 2.9268608
-1.4668837 2.3571262 2.9247072
-1.4175453 2.3592162 2.9289703
-1.3843644 2.3576708 2.9208302
-1.3157911 2.3561144 2.9265158
-1.2830592 2.3622839 2.9288189
-1.2240388 2.3519025 2.9167547
-1.1740649 2.3544133 2.9229867
-1.1267246 2.3556294 2.9276738
-1.086048 2.3577623 2.9345703
-1.02619 2.3546898 2.9215195
-0.97404414 2.3596327 2.9343822
-0.92565018 2.3564022 2.9255669
-0.879731 2.3585148 2.9227874
-0.81318253 2.3555024 2.9234722
-0.77333182 2.3598053 2.9324341
-0.71929866 2.3613703 2.9288597
-0.67874026 2.3623545 2.9178898
-0.63075125 2.362709 2.9273136
-0.58181792 2.3580735 2.9248121
-0.5270018 2.365869 2.9350293
-0.47597519 2.3678522 2.9447758
-0.42342037 2.3617718 2.9436917
-0.38000488 2.3578176 2.9436116
-0.33742106 2.3586557 2.9489608
0.69951934 2.3991356 2.9477367
0.76920652 2.3996987 2.9338548
1.7496402 2.3960476 2.9116495
1.7578269 2.3667288 2.924886
0.77274895 2.4106519 2.9471908
0.8657912 2.4024529 2.9146247
0.9282093 2.4211423 2.9298098
0.97497958 2.4167879 2.9253993
1.0240976 2.4222705 2.9207561
1.0730152 2.4256518 2.9368935
1.1238624 2.426378 2.9252117
1.1810802 2.4255385 2.9232247
1.22517 2.42452 2.9286685
1.2751113 2.4309783 2.9192388
1.330796 2.4280794 2.9282222
1.3682525 2.4214177 2.9231534
1.4212655 2.4258997 2.9272258
1.4682162 2.4193897 2.9173651
1.519209 2.4282618 2.9076183
1.5737799 2.4262879 2.9304354
1.6246315 2.4257329 2.9197507
1.6812459 2.426487 2.9236858
1.7228266 2.4179468 2.9281197
-0.49806207 -0.45861545 2.9546642
1.9273174 2.2914438 2.9727645
-2.6748924 2.3431411 2.9583166
-2.6341186 2.3433518 2.9897423
-2.5712814 2.3347797 2.9620237
-2.4195857 2.3461566 2.9854703
-2.3804219 2.3471756 2.9793756
-2.2119699 2.345381 2.9690485
-2.1692879 2.3414025 2.9891925
-2.1214821 2.3404267 2.9682128
-2.0754552 2.3465359 2.9715757
-2.0215309 2.3473418 2.977787
-1.9891946 2.3483624 2.9672542
-1.9165044 2.3396566 2.9785585
-1.8774896 2.3469934 2.9824736
-1.8428625 2.3484368 2.9813442
-1.7793584 2.3486929 2.9931264
-1.6915501 2.3498051 2.9957073
-1.6109403 2.3460422 2.9857526
-1.5347396 2.3467662 2.9801605
-1.4330565 2.3485718 2.9860201
-1.3215585 2.3485045 2.9516714
-1.169096 2.3480825 2.9678319
-1.0681409 2.3464072 2.9730184
-0.90620291 2.3474319 2.9715583
-0.83081496 2.3498297 2.9580765
1.7426815 2.3372381 2.9932606
1.758407 2.3251064 2.9649601
1.8223672 2.3061171 2.9878128
1.8780006 2.3068416 2.9739773
1.9101992 2.3029683 2.9797196
-2.4679196 2.3540916 2.9669118
-2.4265661 2.3531535 2.9677114
-2.3461866 2.3528161 2.9964578
-2.2803264 2.3560975 2.9952023
-1.9620576 2.3501101 2.9861946
-1.9285628 2.3516512 2.9617682
-1.8232192 2.3568707 2.9836652
-1.7737837 2.3537605 2.9750421
-1.7245393 2.3566809 2.9904952
-1.6807395 2.3533285 2.9637711
-1.6261702 2.3505237 2.9647231
-1.5745465 2.3515117 2.969507
-1.5193926 2.3541307 2.9711154
-1.4730555 2.3543231 2.9779558
-1.4289709 2.3600717 2.9651394
-1.3731753 2.3576653 2.9841564
-1.3070539 2.3546469 2.9662364
-1.2738543 2.3641815 2.9828832
-1.2280859 2.3589628 2.9630954
-1.1755979 2.3611009 2.9842229
-1.123341 2.3541949 2.9729152
-1.0946411 2.3586743 2.9698076
-1.0204499 2.3569186 2.9774697
-0.98059833 2.3534925 2.9689615
-0.93566537 2.355444 2.9748359
-0.87529278 2.3560643 2.9768755
-0.82638329 2.3576696 2.9783595
-0.77095014 2.3529503 2.9757314
-0.72761863 2.3624344 2.9800704
-0.67916179 2.3648701 2.98417
-0.62444097 2.3642251 2.9761343
-0.57023275 2.3615284 2.9765625
-0.5322867 2.3680742 2.9790068
-0.47794458 2.3605502 2.968528
-0.4278228 2.3734975 2.9830441
-0.37074196 2.367507 2.9817214
-0.32020134 2.3725345 2.9879439
-0.27131271 2.3695021 2.9847488
-0.21497548 2.3696351 2.9804332
-0.17889227 2.365427 2.9798596
-0.13314706 2.3720419 2.9791594
-0.081502341 2.3678532 2.9754219
-0.030047057 2.3714261 2.9807074
0.021528021 2.3772385 2.9880641
0.073158897 2.3763049 2.9862366
0.12504466 2.3808281 2.9905186
0.17650393 2.3767097 2.9832358
0.24610551 2.3838255 2.9881587
0.28147072 2.3907461 2.9942822
0.32429069 2.3873134 2.9864135
0.36726937 2.3856735 2.9802208
0.40409294 2.3991179 2.9933434
0.49064589 2.397464 2.9805279
0.51602626 2.3943768 2.9730344
0.59849405 2.3946934 2.9946146
0.62019569 2.3942904 2.9790523
0.73486298 2.3967109 2.9834175
1.7360363 2.3795607 2.9700456
0.42241892 2.4045115 2.9980896
0.45649436 2.4005187 2.9888921
0.54566091 2.4103498 2.9890079
0.58866692 2.4077201 2.978847
0.63252318 2.4087038 2.9726186
0.66561711 2.4078624 2.9791999
0.72135633 2.4082656 2.9665482
0.78267443 2.4058728 2.9823139
0.82628024 2.4135008 2.9807017
0.86793548 2.4171443 2.9785447
0.9223882 2.4179478 2.9770279
0.98014379 2.4090674 2.9728746
1.0292288 2.4156682 2.9768827
1.0686201 2.4096851 2.9659836
1.1267148 2.4125156 2.9731572
1.1690557 2.4163036 2.974417
1.2309362 2.4132476 2.9733164
1.2762873 2.4176996 2.976604
1.3189472 2.4238431 2.9720078
1.3740444 2.4204035 2.9781311
1.4285588 2.4264712 2.9846978
1.4734926 2.424777 2.9631453
1.5329717 2.4353917 2.9663799
1.5685338 2.4242954 2.9746473
1.6264764 2.424597 2.9757664
1.6713676 2.4216347 2.9813132
1.7160572 2.4121859 2.9691439
1.8822845 2.2960298 3.0289023
1.9218054 2.292793 3.0324733
-2.4362171 2.3420804 3.019722
-2.3747933 2.341279 3.0249689
-2.3380086 2.344619 3.0388324
-2.2561684 2.3420048 3.0357881
-2.2329428 2.3478513 3.0107436
-2.1758945 2.3394401 3.0314274
-2.1212394 2.3421223 3.0206985
-2.0642257 2.341198 3.0050011
-2.0287437 2.3448422 3.0327063
-1.9757648 2.3424506 3.0234921
-1.9312633 2.3399184 3.0325086
-1.8804271 2.3435192 3.0205035
-1.8199348 2.345896 3.011723
-1.7680808 2.3445044 3.0251513
-1.7195734 2.3461812 3.0339277
-1.6690097 2.3480954 3.0254641
-1.616155 2.3485365 3.0296121
-1.5868492 2.3464971 3.0396988
-1.527769 2.345849 3.0230215
-1.4617918 2.3472881 3.0124497
-1.4147472 2.3452106 3.028461
-1.378387 2.3484106 3.0077953
-1.0652897 2.3454614 3.0154915
-0.89154661 2.3428981 3.040493
-0.76054966 2.3485751 3.0245225
-0.73576766 2.3447797 3.041966
-0.63438529 2.3459442 3.0274963
-0.52980947 2.3478038 3.0464187
1.7373861 2.3344002 3.020402
1.769333 2.3149219 3.0193675
1.818449 2.3061736 3.0349884
1.8626826 2.302484 3.0050855
-2.5546982 2.3568475 3.0202377
-2.5214663 2.3544548 3.0394387
-2.4254522 2.3511748 3.0456333
-2.3044009 2.3507895 3.0208402
-2.286706 2.3530426 3.0369956
-1.8879218 2.352838 3.032582
-1.7428988 2.3501453 3.014215
-1.6720649 2.3522758 3.0308411
-1.6374707 2.3524072 3.0259211
-1.5780156 2.3519659 3.0103552
-1.5038518 2.3557701 3.0077276
-1.4761666 2.3543198 3.0308971
-1.4213409 2.3593214 3.0071743
-1.3808464 2.3526306 3.013145
-1.3282236 2.3570619 3.0242376
-1.284521 2.3567317 3.0261195
-1.2292006 2.359895 3.0251658
-1.1822137 2.3564267 3.0130861
-1.1212118 2.3554573 3.0219767
-1.0893909 2.3500986 3.0334496
-1.0294027 2.358351 3.0164559
-0.97109318 2.357847 3.0264986
-0.9293623 2.3576398 3.0334873
-0.87986559 2.3531458 3.0215595
-0.82223064 2.3571565 3.0263164
-0.77134591 2.3575432 3.0284908
-0.72487718 2.3556166 3.0236993
-0.676256 2.3584819 3.0229287
-0.62034547 2.3556564 3.0169623
-0.57711422 2.3573418 3.0262487
-0.51816219 2.3566189 3.0169678
-0.47537553 2.3648939 3.0250721
-0.42729506 2.3610561 3.0225625
-0.38279247 2.3628416 3.0247171
-0.33059204 2.3628993 3.0298104
-0.27751809 2.360172 3.0356669
-0.22437172 2.3645866 3.0181994
-0.16530026 2.3619645 3.0179601
-0.12590903 2.3720555 3.0290942
-0.078762412 2.3668981 3.0204906
-0.034580719 2.3657551 3.0147333
0.021737451 2.3842402 3.0217352
0.073865414 2.3804233 3.0245075
0.12627895 2.3865898 3.0309365
0.17424664 2.391634 3.0270686
0.22745855 2.3883886 3.0284231
0.27505583 2.3931324 3.0312386
0.32321414 2.3897915 3.0314779
0.37043241 2.3843303 3.0200553
0.42460755 2.3905971 3.0307033
0.47800496 2.3950078 3.0298882
0.5302 2.3931286 3.020261
0.57558668 2.3909357 3.0277138
0.61803705 2.3852232 3.0133069
0.67166466 2.3907609 3.0319114
0.72522992 2.3927932 3.0243659
0.77191693 2.3976145 3.0235317
0.82111377 2.3975608 3.0243948
0.89956212 2.3996444 3.0445297
0.93466896 2.3978758 3.033252
0.97088188 2.3989716 3.0251942
1.0316085 2.3974385 3.0429888
1.0506182 2.3997102 3.040678
1.7204889 2.3769333 3.0259137
0.19571622 2.4011922 3.0130808
0.2138318 2.4093211 3.0223105
0.282848 2.4025655 3.0091276
0.44095594 2.4106319 3.0036461
0.47708052 2.4167173 3.0068064
0.57373017 2.4007487 3.0064301
0.69236851 2.4085987 3.0131679
0.78120381 2.4017766 3.0035498
0.87667209 2.4038398 3.0197744
0.92818415 2.4061084 3.0189412
0.97057456 2.4041626 3.0202122
1.0236624 2.4124005 3.0142567
1.0789058 2.411478 3.0301077
1.1219168 2.4128704 3.0225213
1.1828336 2.4120233 3.0166416
1.222581 2.4188707 3.0128636
1.2750385 2.4139926 3.0259249
1.3315707 2.4208188 3.0247331
1.3649861 2.4184608 3.0184407
1.432445 2.4302497 3.0289104
1.4863081 2.4312551 3.0215747
1.5254662 2.4362447 3.0190461
1.5788269 2.4310734 3.0220077
1.6236373 2.4296539 3.0272915
1.6741457 2.4178255 3.0383487
1.7048564 2.4097333 3.021378
1.8378789 2.2925503 3.0923207
1.8760058 2.292527 3.0722647
-2.4159524 2.34129 3.0869286
-2.3809321 2.3471673 3.0682967
-2.3153448 2.3420162 3.075407
-2.2795174 2.3461869 3.0806742
-2.2383864 2.3441305 3.0514324
-2.160697 2.3351994 3.0834479
-2.1169331 2.3394029 3.0678895
-2.071312 2.3419976 3.075367
-2.0228789 2.341094 3.0775979
-1.9655288 2.33988 3.0761425
-1.9199104 2.3444338 3.0779219
-1.8781643 2.3453834 3.0710201
-1.8197844 2.3415155 3.0722451
-1.7755325 2.3432102 3.0749602
-1.7134402 2.342412 3.0599072
-1.6869609 2.3449516 3.0768137
-1.6276499 2.3464558 3.0636063
-1.5735664 2.3466063 3.0740337
-1.5136094 2.3483505 3.0746093
-1.471718 2.34834 3.0645068
-1.061222 2.3491752 3.077873
-0.76774222 2.3440785 3.0699153
-0.74272609 2.3491518 3.0819554
-0.67157477 2.3491759 3.0953398
-0.63442391 2.3433738 3.0938125
-0.51947856 2.3472195 3.0729437
1.7219397 2.3296278 3.0714304
1.7719128 2.3084025 3.0739005
1.8304466 2.3023152 3.0674458
-2.5700095 2.3503435 3.0521703
-2.5295157 2.3509414 3.0827551
-2.4724507 2.3564115 3.0783401
-2.3690174 2.3553989 3.092792
-2.2194357 2.3556004 3.0854692
-1.8513125 2.3548751 3.0557642
-1.8298224 2.3518324 3.0618529
-1.6622959 2.3501463 3.0969634
-1.5468292 2.3564012 3.0731847
-1.4691055 2.3516316 3.0981917
-1.4224086 2.3547726 3.0806081
-1.3817427 2.3624644 3.0778339
-1.3297992 2.3569136 3.0788221
-1.2782423 2.3558207 3.0759406
-1.2264568 2.3577237 3.0867205
-1.1749016 2.359865 3.0739317
-1.1305125 2.3619609 3.0756738
-1.0796285 2.3558588 3.0696108
-1.0249758 2.3579402 3.0819428
-0.97757155 2.3615048 3.0812659
-0.93804371 2.3527403 3.0791047
-0.86472362 2.3524187 3.0722091
-0.82903719 2.367013 3.0884571
-0.79630053 2.3586414 3.0661356
-0.71568573 2.3568566 3.0800257
-0.68183678 2.3554649 3.0785267
-0.63172299 2.3510816 3.0696087
-0.57470548 2.3561935 3.071754
-0.47117892 2.3613441 3.072216
-0.42700678 2.3604231 3.0762732
-0.37860718 2.3621976 3.0701115
-0.32887232 2.3598447 3.068285
-0.25861251 2.3591938 3.0729351
-0.22730339 2.3634906 3.0771275
-0.17535225 2.3640535 3.0755298
-0.11430013 2.3787284 3.0800443
-0.074686535 2.3740292 3.0833702
-0.0271801 2.3784769 3.0762835
0.018441273 2.3799615 3.0715079
0.078202069 2.3823695 3.0738556
0.12734957 2.3802154 3.073118
0.18062629 2.3877974 3.0807562
0.23315328 2.3850572 3.0743532
0.27200171 2.3841696 3.0739808
0.31811237 2.3867753 3.0737653
0.37523133 2.3913684 3.0744781
0.42019653 2.3891163 3.0805144
0.47413048 2.3934057 3.0797377
0.5131768 2.3852961 3.0725942
0.57295364 2.3901029 3.0790045
0.62724799 2.3940198 3.0754974
0.67213476 2.3865879 3.0753341
0.71703863 2.3879223 3.0687358
0.76846623 2.3910136 3.0715151
0.80927736 2.3973017 3.0623951
1.0240194 2.3957393 3.0675271
1.6905603 2.3833582 3.0859301
1.7077332 2.3664479 3.0588245
0.44884753 2.4003832 3.0919869
0.83896387 2.4055328 3.066885
0.87708473 2.411582 3.066205
0.92665672 2.4055834 3.0823324
0.97380149 2.4104218 3.0768831
1.0003322 2.4088874 3.0676303
1.0817121 2.4108083 3.084585
1.1278501 2.4118383 3.0721173
1.1797619 2.4246871 3.0738659
1.23427 2.4294512 3.0755398
1.2745705 2.4254053 3.0719438
1.327816 2.4253249 3.062402
1.382894 2.4284608 3.0728157
1.426047 2.4323401 3.0752039
1.4809127 2.4363377 3.0795188
1.5299745 2.4302433 3.0702248
1.5754713 2.4281826 3.0787692
1.6293985 2.4238417 3.0797117
1.6670456 2.4121287 3.0795946
1.8394866 2.2992938 3.1496315
1.8720865 2.2871389 3.1229117
-2.3669887 2.3431153 3.1237602
-2.2881312 2.3451972 3.1259341
-2.234833 2.341594 3.1178942
-2.1223741 2.3364735 3.1091585
-2.0921719 2.3358929 3.1260204
-2.018687 2.3393023 3.1253006
-1.9798269 2.3397422 3.1478081
-1.9254056 2.3409882 3.1316414
-1.8729149 2.3436325 3.1171284
-1.8191988 2.3463442 3.1264539
-1.773957 2.3472342 3.1276507
-1.6617634 2.3437989 3.1304486
-1.6411691 2.3470113 3.1015222
-1.5681931 2.3478265 3.120867
-1.5282968 2.3445055 3.13239
-1.4776192 2.346488 3.1281784
-1.4235988 2.3441091 3.1250448
-1.3642948 2.3477979 3.1326673
-1.3451333 2.3492193 3.1015034
-1.2149128 2.3476348 3.1440029
-1.1718173 2.3475235 3.1314542
-1.1222596 2.346226 3.1317198
-1.0733725 2.3484378 3.1301005
-1.0213379 2.3431797 3.1179371
-0.97753745 2.3470271 3.1350586
-0.92764968 2.3448405 3.1258416
-0.76578373 2.3474987 3.1108706
-0.71599257 2.3424857 3.1495733
-0.61753762 2.3466413 3.1010559
-0.54798603 2.3442798 3.12606
1.6913798 2.3357003 3.1255903
1.7182187 2.30948 3.1242166
1.7739153 2.305747 3.1247456
1.8166065 2.3018532 3.1194954
-2.3506927 2.3573458 3.1089299
-2.2056262 2.3527741 3.1403437
-1.7545782 2.3533792 3.1025436
-1.7342161 2.3539217 3.1282828
-1.6962143 2.3519614 3.1281228
-1.6203625 2.3580329 3.1289105
-1.536507 2.3504844 3.1103084
-1.4505424 2.3517718 3.1058598
-1.3800989 2.3522255 3.1133738
-1.3282073 2.356724 3.1325445
-1.2743742 2.3597019 3.1325531
-1.2229309 2.351635 3.1212304
-1.1894602 2.3523271 3.1200342
-1.127195 2.3557084 3.1057434
-1.0835977 2.3601718 3.1251879
-0.97333449 2.3550808 3.1103373
-0.9182381 2.359082 3.1175022
-0.87861925 2.365052 3.1292114
-0.83050466 2.3615031 3.125895
-0.78743881 2.3587098 3.1220508
-0.7323944 2.3553021 3.1282425
-0.67179966 2.3520494 3.125927
-0.61650366 2.3532186 3.1338413
-0.57510906 2.3547738 3.1187515
-0.52147645 2.3542743 3.1257234
-0.47622168 2.359853 3.1216419
-0.42229286 2.3567336 3.123744
-0.37304452 2.3589957 3.1231551
-0.31931126 2.3603349 3.1211228
-0.28299132 2.3679802 3.1203182
-0.22155949 2.362973 3.1228471
-0.16968785 2.3714271 3.1315196
-0.1233876 2.3731194 3.1286433
-0.078381352 2.3735754 3.1281385
-0.030945733 2.3694353 3.1204934
0.026615601 2.3796418 3.1168156
0.070926674 2.3802745 3.1170938
0.12435564 2.37571 3.1268659
0.18212928 2.3814867 3.1236055
0.22672284 2.3833637 3.1237364
0.26781622 2.3779349 3.127737
0.32547012 2.3812993 3.1312406
0.37933305 2.3835104 3.1292689
0.42656007 2.384455 3.119807
0.46948305 2.3882632 3.1256588
0.52801615 2.3924251 3.1271355
0.57843876 2.3861387 3.1255147
0.63302886 2.389116 3.1208818
0.66044426 2.3908782 3.1185997
0.73555791 2.392324 3.1247549
0.77372277 2.3988814 3.1261206
0.95628411 2.3983631 3.1389604
1.6687204 2.3823128 3.125123
0.58194703 2.4006157 3.144433
0.61861831 2.4028878 3.1418226
0.69024169 2.4007516 3.1266901
0.7083196 2.4008698 3.1235297
0.79900688 2.4022818 3.1073775
0.82731545 2.4108059 3.1347995
0.87808537 2.4120395 3.1213951
0.92453516 2.4055309 3.1196766
0.97160667 2.4046769 3.1158853
1.0211918 2.4136982 3.1310508
1.07441 2.4171255 3.1336567
1.1180062 2.4117103 3.1131268
1.1690378 2.4221613 3.1123159
1.2263905 2.431957 3.1209221
1.2773525 2.4339573 3.132865
1.3213193 2.4288752 3.1098599
1.3739575 2.429893 3.1121106
1.4283825 2.4334779 3.1169543
1.4726763 2.4370396 3.1323879
1.529362 2.4267287 3.1239209
1.5831119 2.4194832 3.1293068
1.6204572 2.4213731 3.1302125
1.6503013 2.4120114 3.1161842
1.7623292 2.2993462 3.1874645
1.8318173 2.2928753 3.1731021
1.863049 2.2851913 3.159193
-2.3203096 2.3473186 3.1628208
-2.2772934 2.3449872 3.1856315
-2.2272024 2.344799 3.1636567
-2.1793067 2.3469925 3.179878
-2.1288109 2.3455637 3.1729493
-2.0793421 2.3449302 3.1753218
-2.0280497 2.3424759 3.1872222
-1.9368864 2.3471994 3.1843607
-1.8318511 2.3459594 3.188735
-1.7989571 2.348073 3.1624134
-1.7217528 2.3450127 3.1714778
-1.6820306 2.343354 3.1869526
-1.6257486 2.3435359 3.1724277
-1.5766541 2.344631 3.1692541
-1.51732 2.3378031 3.1685264
-1.4787598 2.3443837 3.1663382
-1.4263059 2.3358166 3.1729672
-1.3914876 2.342591 3.1691411
-1.3284156 2.3480277 3.1865664
-1.2735857 2.3454242 3.1878145
-1.2129385 2.3431644 3.1773975
-1.1756945 2.3430712 3.1757486
-1.1420302 2.3497257 3.1698043
-1.0765136 2.3479867 3.186132
-1.0244827 2.3437848 3.174902
-0.97606295 2.3471308 3.1732926
-0.93661892 2.3491769 3.1672359
1.6815929 2.3306818 3.1734102
1.7248046 2.3072793 3.1733403
1.787644 2.3071082 3.1889739
1.8019904 2.3006999 3.1707456
-2.3467724 2.3534236 3.157763
-2.187551 2.3549294 3.1555531
-1.8790708 2.3562031 3.1828315
-1.7724538 2.3514869 3.1811471
-1.6908904 2.3519974 3.1750987
-1.3685235 2.3524141 3.1791971
-1.320103 2.3568382 3.1760476
-1.2827498 2.3519053 3.167825
-1.2451875 2.3514266 3.1796002
-1.1611232 2.3509433 3.1658595
-1.1147451 2.3506782 3.1792541
-1.0720522 2.3566709 3.1616449
-1.0420401 2.3512435 3.1619952
-0.9182592 2.3537452 3.1845045
-0.87119317 2.3544598 3.1713631
-0.81959647 2.3603415 3.1761746
-0.77644587 2.3620222 3.1653185
-0.72077048 2.3582373 3.1707125
-0.6747148 2.355618 3.1753097
-0.62981665 2.3615525 3.1820402
-0.57684696 2.3552752 3.1760688
-0.52619064 2.3574266 3.1647158
-0.48137414 2.3583443 3.1717107
-0.4278774 2.3610346 3.1815617
-0.36941147 2.3628812 3.1759236
-0.3191697 2.3637214 3.1814139
-0.27654657 2.3625879 3.173768
-0.228579 2.3675821 3.171859
-0.1786879 2.3647149 3.1845474
-0.11650765 2.3712883 3.1730509
-0.073157415 2.3725994 3.1729765
-0.031429868 2.3815563 3.1831801
0.022432322 2.3753724 3.1714904
0.072687849 2.3798976 3.1734719
0.13385893 2.3793681 3.1781514
0.17157613 2.3755839 3.1623409
0.22352675 2.380795 3.1690209
0.29279551 2.38785 3.1773641
0.32918495 2.38149 3.1835308
0.3749339 2.3856702 3.1851172
0.42725053 2.3978353 3.1844699
0.47435573 2.3858197 3.174588
0.52087367 2.3920684 3.1771801
0.58488262 2.3945658 3.1715407
0.62196767 2.3977485 3.1700916
0.67841786 2.3955333 3.1757476
1.6405526 2.3902614 3.1875019
1.6647643 2.3724689 3.1621361
0.55979574 2.4036479 3.1875496
0.62332821 2.4029641 3.1770313
0.72408289 2.4030197 3.1839533
0.78013402 2.4099739 3.18576
0.81091845 2.4014056 3.1767633
0.86865711 2.4091666 3.1750214
0.92924905 2.423274 3.180661
1.0162733 2.4229803 3.1772602
1.0809407 2.4341116 3.1946259
1.1235867 2.4454694 3.198715
1.1753923 2.4360471 3.1693587
1.2251576 2.432436 3.1680722
1.2734264 2.4436071 3.188494
1.3216164 2.4452219 3.1743059
1.3801464 2.442441 3.1796932
1.4809021 2.4420149 3.1786587
1.527229 2.4253767 3.1765039
1.5756783 2.4182949 3.1736069
1.6226791 2.4086065 3.1666651
1.3642528 2.453793 3.1717868
1.4438154 2.4569488 3.1880901
1.7372646 2.2979209 3.2424662
1.774773 2.2961099 3.2218473
1.8234364 2.2872574 3.2138824
1.8558466 2.2807331 3.2018461
-2.2049766 2.3330927 3.2069068
-2.1591072 2.3475683 3.2101479
-2.0893817 2.3373897 3.2310414
-2.0224485 2.3383403 3.2198091
-1.9647093 2.3389552 3.2274549
-1.9179194 2.3453152 3.2269402
-1.8766211 2.3432691 3.224334
-1.8213654 2.342911 3.2235427
-1.7751099 2.3434803 3.2234974
-1.7154458 2.333719 3.2228813
-1.6761208 2.3414953 3.2237389
-1.6312569 2.3438752 3.2323949
-1.5832411 2.3397896 3.2238598
-1.5208279 2.3396282 3.2164345
-1.4787012 2.3439505 3.2222433
-1.4213949 2.3398707 3.2231324
-1.3755666 2.3437042 3.2319896
-1.3274405 2.3440814 3.2217584
-1.2724093 2.3430965 3.2284763
-1.2369208 2.343066 3.2297604
-1.1657066 2.3416569 3.2293916
-1.1325586 2.3452339 3.2148943
-1.0734743 2.3430414 3.218426
-1.0220433 2.3448877 3.2220314
-0.9818368 2.3436503 3.2175772
-0.93700331 2.3456974 3.2187605
-0.87632084 2.3499701 3.2011569
1.6685406 2.3224645 3.2248862
1.7289788 2.3063605 3.2152016
-2.2618971 2.3501422 3.2053778
-2.1438537 2.3530061 3.2294352
-1.3612252 2.3534844 3.2247794
-1.2099711 2.3549738 3.2363272
-0.97607332 2.3508677 3.2168658
-0.91233456 2.3535266 3.2359827
-0.88069695 2.3554819 3.2207458
-0.82210571 2.3523452 3.2162306
-0.77608132 2.3612404 3.2196894
-0.73297918 2.3603847 3.2229023
-0.67189664 2.359472 3.2176294
-0.62534022 2.3561487 3.2205315
-0.59011626 2.361423 3.233295
-0.52788514 2.362591 3.2164063
-0.47527936 2.3636792 3.2274952
-0.43143931 2.362684 3.2190588
-0.37791848 2.3686564 3.232686
-0.32209495 2.3596828 3.2251556
-0.26804143 2.3681831 3.231895
-0.22698371 2.3630524 3.2149823
-0.1724202 2.3656516 3.2336059
-0.11876984 2.3697443 3.2287765
-0.077053733 2.3675647 3.2303627
-0.035367824 2.3718598 3.2332397
0.02267918 2.3720577 3.2194636
0.081657998 2.3812168 3.2223179
0.13138629 2.374294 3.2204311
0.18166465 2.3799286 3.2261791
0.21807899 2.3852677 3.2227421
0.26839042 2.3930233 3.2213993
0.33214185 2.3848236 3.2232139
0.37790585 2.3862166 3.2210884
0.41792479 2.3955214 3.2178814
0.47433251 2.3859057 3.2193778
0.5179705 2.390177 3.234935
0.57681608 2.395858 3.2250316
0.61944747 2.3957515 3.2221701
1.6292664 2.3754916 3.2329152
1.6594148 2.3619776 3.2062287
0.2976881 2.4002309 3.2469189
0.42609638 2.4013226 3.2369125
0.53632528 2.4025915 3.2254269
0.6456697 2.4001532 3.2058008
0.66935509 2.4010789 3.23979
0.73478234 2.4036992 3.2319574
0.77577233 2.4162889 3.2418334
0.82773143 2.4234476 3.2320256
0.87963104 2.4209576 3.2266617
0.92587864 2.4201388 3.2148712
0.9762693 2.4296482 3.2160795
1.020274 2.4315743 3.2365155
1.0738118 2.4356542 3.2280767
1.1311132 2.4429231 3.2321758
1.174608 2.4352787 3.2239094
1.2211196 2.4383454 3.2280102
1.274839 2.4330368 3.2263048
1.3172753 2.4398103 3.2186842
1.3700032 2.4429588 3.2358801
1.4254063 2.4436009 3.2305984
1.4721614 2.4368768 3.2235088
1.5161833 2.4191656 3.2139461
1.5680732 2.4186602 3.2280049
1.6086774 2.411689 3.2215505
1.4280699 2.4628711 3.2031331
1.7298623 2.2944207 3.2857456
1.7524594 2.2983644 3.2825737
1.8177897 2.2917562 3.2756948
-2.0377374 2.335851 3.2567301
-1.9733357 2.3410852 3.275836
-1.9250847 2.3413196 3.2765231
-1.8656007 2.3493438 3.2724016
-1.818463 2.3399057 3.2783337
-1.7645875 2.3363383 3.2816486
-1.7194694 2.3329279 3.26529
-1.6714205 2.3438993 3.282609
-1.6204081 2.3367901 3.2696228
-1.5736216 2.336329 3.2733681
-1.5229777 2.341053 3.272049
-1.4680892 2.3402722 3.2702625
-1.4257843 2.3436952 3.2700186
-1.3663039 2.3404422 3.2858763
-1.3423769 2.3417799 3.2752638
-1.2191699 2.3443706 3.2778797
-1.1875607 2.3476515 3.2722228
-1.1358116 2.3478189 3.2675467
-1.0740855 2.3460782 3.2620907
-1.0252721 2.3416259 3.2681422
1.6395917 2.3390853 3.2806442
1.6696787 2.3095417 3.2774904
1.7143044 2.3063028 3.2674749
1.7855501 2.3030853 3.275775
-2.3335888 2.3611465 3.2910342
-1.6788679 2.3505244 3.2679193
-1.4035406 2.3546813 3.2957592
-1.3231392 2.3510866 3.2756386
-1.2771991 2.3544066 3.2959061
-1.1711723 2.3527417 3.2849276
-1.1213923 2.357182 3.2858944
-1.0335917 2.3606877 3.2948046
-0.9772737 2.3588712 3.279953
-0.93038529 2.3572361 3.2756426
-0.86804402 2.3578384 3.275079
-0.82778472 2.3614738 3.2786381
-0.77905995 2.3707533 3.2890594
-0.71855384 2.3604839 3.2759459
-0.67999315 2.3646321 3.2698522
-0.62339073 2.3652427 3.2704487
-0.5729838 2.366493 3.2673626
-0.52688611 2.3705108 3.2767882
-0.47492066 2.3688893 3.2808251
-0.42718473 2.3619041 3.2726321
-0.3812232 2.3664336 3.2743919
-0.32615533 2.3713315 3.2768774
-0.27119491 2.3726196 3.2826545
-0.23334529 2.3619974 3.2702277
-0.179039 2.3693869 3.283185
-0.12817845 2.3685732 3.2749867
-0.068552606 2.3596227 3.2729454
-0.019834096 2.3740416 3.2815101
0.022917913 2.3727555 3.2737529
0.078007959 2.3755188 3.276886
0.12322862 2.373054 3.254488
0.16097739 2.3917155 3.278811
0.22467293 2.3848989 3.2664421
0.28077433 2.3890903 3.2777982
0.33036855 2.3913434 3.280257
0.37656254 2.3867898 3.2724006
0.42579317 2.3906701 3.2802272
0.48579174 2.3970766 3.2788541
0.52257562 2.3960323 3.2728934
1.5939825 2.3846109 3.2939091
1.6134571 2.3715513 3.2715874
0.44810581 2.4027364 3.2727029
0.55858672 2.4011226 3.2567854
0.68795097 2.4154897 3.2941198
0.71422559 2.428097 3.2698443
0.78463662 2.4250817 3.290195
0.82328182 2.4282141 3.2869675
0.8680234 2.4218495 3.2684698
0.9245283 2.4222164 3.2562973
0.9758085 2.4332411 3.2598681
1.0164371 2.4213231 3.2713318
1.0708684 2.4376631 3.2809057
1.1290913 2.4352496 3.2711506
1.1747613 2.4366827 3.2900915
1.2234766 2.4382131 3.2776275
1.2550925 2.443747 3.2759898
1.3306192 2.4401181 3.2730598
1.3772193 2.4364507 3.2651007
1.4247414 2.4419427 3.2776885
1.4716082 2.4325633 3.2774742
1.5243083 2.4164946 3.2639325
1.5753058 2.4155371 3.2857263
1.6091832 2.4074731 3.2586267
1.2793267 2.4533448 3.2826247
1.6933309 2.2980187 3.308111
1.7487354 2.2996192 3.3332162
1.7727772 2.2922935 3.3093035
1.8065585 2.2903504 3.3378186
-2.290019 2.3383572 3.3268917
-2.0087359 2.3405066 3.3311391
-1.9618492 2.3413076 3.3068576
-1.9161316 2.3454783 3.3211682
-1.8871739 2.3462546 3.3286612
-1.8258843 2.3422914 3.3265967
-1.7787688 2.332912 3.331614
-1.7203916 2.3413048 3.3255234
-1.6697766 2.3416913 3.3327205
-1.6287483 2.3433249 3.3221886
-1.5696459 2.3399079 3.3253853
-1.5302427 2.3477042 3.324182
-1.4763845 2.3398275 3.3313723
-1.4295045 2.3463316 3.3157396
-1.3778613 2.3408771 3.3250058
-1.3222511 2.3425798 3.3294265
-1.2868781 2.3433144 3.3378196
-1.224713 2.3446739 3.3383
-1.1305169 2.3477886 3.3293388
-1.0739235 2.3474326 3.3038881
1.6248878 2.3279107 3.320282
1.6788956 2.30514 3.326787
1.7155231 2.301466 3.3045247
-2.2758687 2.3553677 3.3147812
-2.2330747 2.3541563 3.3377376
-1.867373 2.3567636 3.3328586
-1.7293915 2.353457 3.3428235
-1.2586547 2.3542869 3.3431597
-1.2021565 2.3573334 3.3236668
-1.1721818 2.354836 3.3285227
-1.1106232 2.3556423 3.326735
-1.0803274 2.3551044 3.3272972
-1.0181228 2.365334 3.3354645
-0.96770006 2.3560801 3.3303766
-0.92859125 2.3576398 3.3155179
-0.88014299 2.3541586 3.3209591
-0.82048476 2.3633184 3.3313835
-0.77580523 2.3611634 3.3329389
-0.72551966 2.3600023 3.3211825
-0.67004412 2.3670959 3.3313849
-0.62610257 2.363519 3.3198299
-0.5735724 2.3698962 3.3215458
-0.52707171 2.3703928 3.3284078
-0.47873566 2.3618402 3.321965
-0.41902938 2.3705466 3.3315334
-0.37296411 2.3654559 3.3256176
-0.32949629 2.3676858 3.3262584
-0.26836419 2.3656504 3.3185439
-0.2241375 2.3816965 3.3223696
-0.18068118 2.3733613 3.324935
-0.115831 2.3733974 3.327291
-0.069696583 2.3796751 3.3370988
-0.023075968 2.3681688 3.3214922
0.023234207 2.3755 3.3317866
0.088118345 2.3733735 3.3279419
0.12811135 2.3826878 3.3157189
0.17154855 2.3849809 3.3197455
0.22785187 2.390487 3.3284302
0.26364049 2.3869627 3.3031559
0.31138885 2.3891251 3.3211896
0.37728214 2.3942974 3.3229437
1.5808636 2.3944173 3.3154912
1.6080374 2.3614259 3.3165464
0.4703151 2.4033163 3.3076916
0.53431284 2.4054875 3.3153331
0.57763481 2.4143505 3.3282411
0.62519354 2.4166567 3.3245785
0.66998911 2.4169314 3.3242671
0.72604436 2.4252453 3.3240638
0.76671475 2.4251382 3.3190753
0.81990308 2.4272065 3.3244839
0.87396526 2.4223583 3.3217857
0.91981721 2.4313154 3.3286126
0.97511214 2.4380679 3.3216922
1.0203755 2.434309 3.3287485
1.0785867 2.4360588 3.3162479
1.132148 2.4383626 3.3252349
1.1889073 2.4465835 3.3415558
1.2249241 2.4410527 3.3223617
1.2732577 2.4403589 3.3311114
1.3145294 2.4386699 3.3179455
1.3704115 2.4393804 3.3141506
1.4190896 2.4413486 3.3321633
1.477635 2.4260361 3.3188851
1.5271009 2.41432 3.3293545
1.5647161 2.4097564 3.3248885
1.7223562 2.2974281 3.387785
1.7816091 2.2918603 3.3837414
-2.2056215 2.3372896 3.3741295
-2.1119769 2.3467431 3.391206
-2.0131402 2.3370752 3.3730154
-1.9881841 2.3438494 3.3984208
-1.9267575 2.3345842 3.3739235
-1.8648387 2.3367875 3.3789263
-1.8232892 2.3446264 3.3799748
-1.7624762 2.3409672 3.3769414
-1.7295015 2.3471918 3.3786249
-1.6948413 2.3408306 3.3822694
-1.6226058 2.3431692 3.369899
-1.5872812 2.3495879 3.3949487
-1.5290369 2.341253 3.358165
-1.4779865 2.3382604 3.3721273
-1.4230832 2.3483334 3.3645473
-1.3812823 2.3437543 3.3714621
-1.3253417 2.348392 3.3974118
-1.2736963 2.3449037 3.3655026
-1.2371517 2.3490667 3.3832808
-0.92098033 2.3486362 3.3824244
1.5925179 2.3425713 3.3811541
1.6226448 2.3147061 3.3667488
1.6745305 2.3115077 3.3744626
1.723045 2.304966 3.3539681
1.7650962 2.3011141 3.3759565
-2.2051513 2.3576634 3.3607807
-2.175267 2.3591464 3.3805342
-2.1387722 2.3534045 3.38956
-1.9882679 2.3523655 3.3637488
-1.4291334 2.3582978 3.378881
-1.3655071 2.3501978 3.3872795
-1.3468256 2.3517544 3.3959587
-1.2585307 2.3527613 3.3827469
-1.2154429 2.3542662 3.3771164
-1.1713742 2.3532746 3.3673859
-1.1249284 2.3569775 3.3860531
-1.0623641 2.3563788 3.3810856
-1.0300273 2.3579428 3.3713007
-0.97257453 2.358099 3.3852727
-0.92617458 2.3566055 3.3537438
-0.87013417 2.3593044 3.3698432
-0.82169163 2.3566775 3.3756449
-0.77047974 2.3645582 3.3872981
-0.72507954 2.3609016 3.3801708
-0.67716926 2.3686035 3.380126
-0.62981772 2.3685884 3.3873901
-0.57941109 2.3656044 3.371109
-0.52224928 2.3720591 3.3689239
-0.47803971 2.3642278 3.3754082
-0.42754781 2.3689613 3.3750029
-0.3710984 2.3685529 3.3796825
-0.32323405 2.3621213 3.3743191
-0.28014746 2.369642 3.37326
-0.22366989 2.3705187 3.3704276
-0.17297107 2.3761106 3.3658912
-0.12639087 2.3787947 3.3713162
-0.07968697 2.3827798 3.3781121
-0.020314261 2.3751514 3.3926725
0.023483409 2.3793211 3.373872
0.079813607 2.3843737 3.3803906
0.13606729 2.3834243 3.3776333
0.15468431 2.3811963 3.3738413
0.27354932 2.3951073 3.3629084
0.34471342 2.3992138 3.3883972
0.57144481 2.3996692 3.3646562
1.5802701 2.3798592 3.3765976
0.28846711 2.4026356 3.3974073
0.33478069 2.4053621 3.3792453
0.37235823 2.4041586 3.3744202
0.42419443 2.407742 3.3784032
0.47737041 2.4108541 3.3734181
0.52513903 2.4133177 3.3712564
0.57288295 2.405704 3.3730729
0.6224395 2.4143591 3.3785391
0.68132913 2.4209447 3.3789339
0.73072261 2.4267941 3.3790815
0.7786057 2.4176488 3.3766713
0.82472461 2.4223783 3.3552063
0.86919671 2.4210432 3.3833416
0.93048763 2.4370439 3.380542
0.97057635 2.4344559 3.3808343
1.0293859 2.4364805 3.369662
1.0773237 2.4368649 3.3782368
1.1237895 2.442925 3.37501
1.1751139 2.4436584 3.3719869
1.2177583 2.436367 3.379528
1.2803334 2.4339874 3.3776925
1.3318059 2.4384313 3.3681293
1.3799458 2.4416416 3.3713553
1.4297196 2.434927 3.3721821
1.4738905 2.4276452 3.3774533
1.5290135 2.4115353 3.3861399
1.5663505 2.4076812 3.3654435
1.5302492 0.29673541 3.4235115
1.572924 0.29656437 3.4073296
1.6262363 0.2999897 3.4348719
1.5421603 0.32357123 3.4260855
1.5719293 0.32431173 3.42535
1.6189337 0.32673374 3.4392548
1.651131 0.3101781 3.443469
1.5423062 0.36833337 3.4343834
1.5744892 0.36869457 3.4277575
1.6207527 0.3712728 3.4398661
1.6552042 0.35531855 3.4488783
1.5484834 0.4214032 3.4326229
1.5750297 0.42248541 3.4339983
1.6219734 0.42150053 3.4427152
1.657041 0.40902525 3.4484391
1.5741719 0.47652367 3.4397702
1.6157101 0.4695406 3.4424324
1.5665306 0.53395593 3.4437759
1.7259654 0.53831619 3.4484367
1.5683073 0.57461047 3.4385643
1.6027375 0.56860471 3.4479496
1.5451248 0.62011421 3.4490452
1.5714401 0.6200273 3.439872
1.5472178 0.67416233 3.4465303
1.5715936 0.67320544 3.4330323
1.6165574 0.68153751 3.4454372
1.6501825 0.66219765 3.4494305
1.5475765 0.72754335 3.4395382
1.5725631 0.72682881 3.4273052
1.6188886 0.71387833 3.4412699
1.5497868 0.76410389 3.4389234
1.5753403 0.77685249 3.4394119
1.6164935 0.77948457 3.4484611
1.5628732 0.80927473 3.4459355
1.5516492 0.98980457 3.4489748
1.6989772 2.299835 3.4492967
1.7240179 2.2929449 3.4264507
1.759686 2.2900224 3.4300299
-2.0524018 2.3289781 3.4404707
-2.0383573 2.3337002 3.4048872
-1.9710586 2.3375883 3.4205527
-1.9232192 2.3329051 3.4265254
-1.8818593 2.3393345 3.4412549
-1.8251363 2.33974 3.4187272
-1.7586884 2.3425729 3.4290943
-1.7229354 2.3454664 3.4255991
-1.6698356 2.3458159 3.4169722
-1.6353089 2.34429 3.4282236
-1.5973253 2.3444111 3.4279041
-1.5198693 2.3430264 3.4319386
-1.4764695 2.3474193 3.4324892
-1.4342886 2.3446405 3.4277709
