ply
format ascii 1.0
comment PCL generated
element vertex 1555
property float x
property float y
property float z
element camera 0
property float view_px
property float view_py
property float view_pz
property float x_axisx
property float x_axisy
property float x_axisz
property float y_axisx
property float y_axisy
property float y_axisz
property float z_axisx
property float z_axisy
property float z_axisz
property float focal
property float scalex
property float scaley
property float centerx
property float centery
property int viewportx
property int viewporty
property float k1
property float k2
end_header
1.5379109 0.98189294 3.4788256
1.5681152 0.9714877 3.456913
1.6207553 0.9779548 3.4676173
1.6801332 0.97351599 3.4787297
1.7251329 0.97741556 3.4950664
1.5362341 1.0245161 3.4782038
1.5692599 1.0224135 3.4592204
1.6260645 1.0206678 3.4706378
1.671566 1.0216314 3.4777637
1.7123818 1.0343046 3.494236
1.5416832 1.0736411 3.4805346
1.574523 1.0712281 3.4607136
1.6207449 1.0754054 3.475101
1.6710449 1.0708885 3.4845996
1.711439 1.0602514 3.4942188
1.5412104 1.1255721 3.4723523
1.5764889 1.1273274 3.4669499
1.6290767 1.1225129 3.4735343
1.6726246 1.1222649 3.4856906
1.7351907 1.1355278 3.4968939
1.5328574 1.1763539 3.48507
1.575403 1.1693474 3.4639521
1.6217703 1.1787488 3.4802656
1.6640583 1.1786906 3.4879475
1.5392369 1.2281339 3.4747999
1.570049 1.2249142 3.4669766
1.6177213 1.2263861 3.4750485
1.6632923 1.2249402 3.487278
1.7039964 1.2329329 3.4993172
1.5406606 1.2749497 3.4838891
1.5867715 1.2794486 3.482615
1.6247402 1.2780257 3.4776897
1.6724799 1.2769384 3.4894512
1.5378075 1.3211732 3.4847865
1.5733672 1.3261774 3.4749303
1.6326419 1.3307571 3.4815216
1.6774691 1.3237191 3.4961557
1.541252 1.370429 3.4792309
1.5727826 1.3758204 3.4724178
1.6166308 1.3701577 3.4827449
1.6720164 1.3786194 3.4942284
1.534916 1.4280586 3.4992042
1.5649254 1.4229523 3.4806237
1.6231813 1.4287405 3.4919212
1.6825997 1.4144444 3.4980876
1.5399283 1.4795498 3.4959862
1.5740435 1.4762794 3.482702
1.6187824 1.4644285 3.4849892
1.6663072 1.454389 3.4985485
1.5468566 1.5332378 3.4964328
1.5767176 1.5348547 3.4905214
1.6181244 1.5269929 3.4946542
1.6548797 1.5273793 3.4996347
1.5718188 1.5770206 3.4909172
1.6243559 1.575863 3.4971702
1.6680959 1.5749979 3.4977901
1.5499102 1.6022359 3.4808114
1.5682516 1.6208544 3.4940934
1.6252518 1.6305525 3.4981756
1.5450648 1.6739496 3.4985781
1.5721134 1.6706043 3.4917557
1.6223514 1.6851163 3.4985409
1.5481665 1.7154366 3.4913914
1.5750751 1.7236741 3.4909692
1.6250705 1.7071245 3.4972062
1.659768 1.7132777 3.499305
1.5675821 1.7743052 3.4916761
1.6043329 1.7928264 3.4951763
1.5754753 1.8121374 3.4977193
1.6091856 1.8175888 3.4979515
1.5713041 1.9368018 3.4934921
1.5655992 1.9710739 3.4930515
1.5729496 2.0195532 3.4916632
1.5699124 2.1203678 3.4984508
1.5909663 2.2492537 3.4945486
1.6119844 2.2304797 3.4996057
1.5728898 2.282274 3.4903557
1.6260238 2.2762644 3.4830596
1.6671467 2.2842336 3.4719651
1.7251902 2.2849317 3.4784844
1.7608155 2.2844219 3.4675608
-2.0195141 2.3390014 3.4762473
-1.9803942 2.3297873 3.4777746
-1.9237636 2.3448968 3.4822016
-1.8854625 2.3359449 3.4831879
-1.839648 2.3377974 3.4576621
-1.7852725 2.3449438 3.4782734
-1.7035158 2.3401811 3.4718471
-1.6551975 2.3294125 3.4721539
-1.6367139 2.3420429 3.4781835
-1.5721682 2.3465903 3.4873846
-1.526996 2.3424609 3.4662266
-1.4790109 2.3473189 3.4763966
-1.4226849 2.3469849 3.4727538
-1.3777224 2.3485274 3.4678526
-1.2781698 2.349967 3.4576457
-1.2360902 2.3450239 3.4619734
-1.1784995 2.3480079 3.4829249
-1.0509511 2.3471591 3.4722688
-1.0216093 2.3471365 3.4792099
1.5692451 2.3211248 3.472054
-2.5711448 2.3579392 3.4818428
-2.546272 2.3552794 3.4920542
-1.8288053 2.3501928 3.4851546
-1.7570498 2.3574476 3.4804287
-1.6163696 2.3520799 3.4802079
-1.5998708 2.3576245 3.4961634
-1.4311347 2.3545847 3.4602721
-1.3505421 2.3531477 3.4842505
-1.3252258 2.3535151 3.4708996
-1.2594166 2.351804 3.4662213
-1.2231461 2.3580396 3.4868548
-1.1663991 2.3532302 3.4734793
-1.1293157 2.3545203 3.478307
-1.0841079 2.3554637 3.4773002
-1.0276654 2.3581538 3.4537797
-0.97628772 2.3585873 3.4766276
-0.92186189 2.3615656 3.482836
-0.87367868 2.3604374 3.4747109
-0.82952219 2.363327 3.4735856
-0.78186435 2.3543832 3.472008
-0.72998637 2.3599927 3.4760907
-0.67029226 2.3589437 3.474081
-0.63131666 2.3623755 3.475174
-0.57519943 2.3552914 3.4682186
-0.5237785 2.3651843 3.4737751
-0.47662893 2.3695486 3.4855864
-0.42654836 2.3589308 3.4748511
-0.3787787 2.369509 3.475564
-0.30181357 2.3771999 3.4735248
-0.27262831 2.3733649 3.4697666
-0.22612202 2.3875997 3.4932539
-0.17705956 2.3746572 3.476495
-0.13894786 2.3786335 3.4836776
-0.0766344 2.383007 3.4820211
-0.033489548 2.3864963 3.4781284
0.023961917 2.3880889 3.4613936
0.07194677 2.3869267 3.4782872
0.29212904 2.3947875 3.4615834
1.5372702 2.3835723 3.4871128
1.5543051 2.3650556 3.4569304
0.12002778 2.4002795 3.4775436
0.19734889 2.4067872 3.4842334
0.44849205 2.4116893 3.473093
0.47648937 2.4069099 3.4631686
0.52564055 2.4116418 3.464463
0.57991076 2.4170189 3.4785843
0.62544662 2.4181185 3.4739609
0.67449218 2.4267912 3.4663062
0.72320265 2.4273798 3.4593372
0.77514535 2.4382122 3.4663935
0.82039905 2.427485 3.4721127
0.87662524 2.4297481 3.4745874
0.92628193 2.4265723 3.4696307
0.97376108 2.430156 3.4748306
1.0200224 2.4349105 3.4714203
1.0757967 2.4398172 3.4860308
1.1240582 2.437036 3.4694033
1.1630403 2.4357014 3.4568763
1.2341692 2.4391937 3.4848032
1.2748287 2.4404824 3.4748621
1.3265496 2.438658 3.466912
1.3637842 2.4365292 3.484462
1.4204481 2.4324839 3.4769471
1.4711986 2.4152966 3.473114
1.5193352 2.4035819 3.4665153
1.3800477 0.32859811 3.5346458
1.4199669 0.32074568 3.536499
1.4815997 0.3078568 3.5370705
1.5127594 0.33048573 3.5189524
1.3809618 0.37679249 3.5444915
1.4354826 0.35798779 3.5479865
1.5163571 0.37600052 3.524127
1.3823557 0.42557165 3.544229
1.425936 0.43348438 3.5480151
1.5172373 0.42994848 3.5218108
1.3795706 0.47347862 3.5474267
1.5157392 0.47422159 3.5142422
1.3805604 0.51849943 3.5455828
1.4017463 0.51972872 3.5491207
1.5151772 0.51481324 3.5247872
1.3833853 0.55537325 3.5490596
1.4035202 0.55626166 3.549794
1.5128736 0.57353342 3.5269136
1.5127755 0.63062245 3.5257308
1.50894 0.67131841 3.5282073
1.5102768 0.72161341 3.5194368
1.512669 0.77696544 3.5167687
1.5166541 0.82429004 3.5186305
1.5186809 0.87334514 3.5274086
1.5191994 0.93276834 3.5176663
1.5219665 0.97425669 3.5188527
1.7305734 0.96952242 3.5006812
1.5147241 1.0254276 3.5258834
1.7354907 1.0093074 3.5028749
1.7531985 1.0235107 3.5144527
1.4963517 1.0869157 3.5439246
1.5173101 1.0730152 3.5219879
1.7276782 1.0912561 3.5067835
1.4986762 1.1070538 3.5452819
1.5212058 1.1217475 3.5205743
1.7218064 1.1224761 3.5024252
1.5169089 1.1714857 3.5239422
1.6979021 1.1633828 3.5034668
1.7225351 1.1768193 3.5066147
1.7518885 1.1840394 3.5212412
1.530732 1.2249873 3.5322065
1.6828277 1.2310989 3.5008743
1.7223759 1.224708 3.5100353
1.5210521 1.2749274 3.5344033
1.7197447 1.2726815 3.5043442
1.5239598 1.323985 3.5284557
1.6856632 1.333966 3.5038002
1.7317661 1.3240697 3.5071228
1.5270556 1.3773096 3.5158226
1.7143328 1.3748028 3.5075216
1.5211471 1.423293 3.5194032
1.6747621 1.4310488 3.5086031
1.7262614 1.4294122 3.5132248
1.5307384 1.4793648 3.5270848
1.6398318 1.4843805 3.5035725
1.678022 1.4840479 3.5064392
1.7284876 1.4761902 3.5171661
1.5285608 1.5280994 3.5280552
1.6813425 1.5342355 3.5083833
1.7159909 1.5205489 3.5165563
1.532151 1.5753313 3.5274763
1.6416677 1.5803388 3.5026305
1.687722 1.56874 3.5119796
1.7253861 1.576982 3.519537
1.5355909 1.6227577 3.5259547
1.5834787 1.6363131 3.5002182
1.633849 1.6232306 3.504144
1.6833996 1.6216094 3.5096083
1.7313746 1.6304947 3.5236921
1.53625 1.6771936 3.5197976
1.6201506 1.6637055 3.5008612
1.6698606 1.6752498 3.5111485
1.7186756 1.6756976 3.5214784
1.5342507 1.7266089 3.5221841
1.6317787 1.7334312 3.5042915
1.6846553 1.7288439 3.5138783
1.7249265 1.7206503 3.5287507
1.5342284 1.7765656 3.5236001
1.6149609 1.7649815 3.5052543
1.6699804 1.7744062 3.5122871
1.7150828 1.7758676 3.5200036
1.5435355 1.8296365 3.5222716
1.5806435 1.8374281 3.5013251
1.6303058 1.8298851 3.5049181
1.6706382 1.8222626 3.5117416
1.723774 1.8293976 3.5236003
1.535952 1.8820759 3.5302041
1.5711954 1.8693672 3.503943
1.6275886 1.8846819 3.5069129
1.6809345 1.8727176 3.5171309
1.7187797 1.8820136 3.5232754
1.5403552 1.9273289 3.5337923
1.5693653 1.9052405 3.501811
1.6182137 1.9268737 3.5052896
1.6640515 1.9248906 3.5092831
1.7173743 1.9308829 3.5274496
1.5432653 1.9711186 3.533515
1.5672908 1.9879451 3.5106964
1.6271217 1.9768307 3.5072267
1.6756036 1.977834 3.5161757
1.7233067 1.9777626 3.5315921
1.5453033 2.0248718 3.5363424
1.5765948 2.011142 3.5057228
1.6165949 2.0267937 3.5065949
1.6692104 2.0276361 3.5215945
1.7197757 2.0358174 3.5357132
1.5454807 2.0811801 3.5269356
1.5747046 2.0726516 3.5094726
1.6203846 2.0720394 3.5061493
1.674414 2.0800149 3.5262952
1.7204309 2.0773387 3.5279491
1.5358505 2.1181021 3.5299947
1.5676632 2.1262803 3.5104988
1.6271702 2.1303377 3.5157943
1.6823699 2.1301184 3.5236797
1.7255807 2.1245937 3.5288837
1.5446777 2.1702964 3.5308061
1.5738316 2.1804056 3.5060563
1.6230824 2.1715779 3.5094371
1.6748251 2.1735132 3.5127976
1.7150681 2.1762872 3.5268335
1.5459367 2.2020996 3.5186958
1.5707415 2.2289784 3.5120554
1.6280535 2.2207341 3.5072052
1.6728537 2.2245727 3.5131669
1.7220966 2.2156656 3.5257139
1.5357108 2.279948 3.5385885
1.5633404 2.2528348 3.5111723
1.6883068 2.2620926 3.5044382
1.724872 2.2600031 3.5101585
-2.4509487 2.3481672 3.5359418
-2.4273047 2.3464921 3.5465336
-2.0240414 2.3475575 3.542732
-1.9988288 2.3427684 3.5456326
-1.9162318 2.3402586 3.5277777
-1.899796 2.3457401 3.5455303
-1.8369453 2.3399391 3.5123081
-1.7624799 2.3441639 3.5027506
-1.7205272 2.3430054 3.5179484
-1.623737 2.3424251 3.507385
-1.5718375 2.3408942 3.5241127
-1.5195388 2.3454189 3.5352869
-1.4190602 2.3441362 3.5365369
-1.3279941 2.3461862 3.5238562
-1.2998315 2.3496161 3.5380704
-1.2483463 2.3483675 3.5071194
-1.1882046 2.3474433 3.5223687
-1.0803466 2.3489988 3.5099931
-0.71932924 2.3496547 3.5424106
1.5395216 2.3262119 3.5258167
-2.5147972 2.3566761 3.5149562
-2.4754906 2.350666 3.5263739
-2.4114504 2.3529599 3.5107732
-2.3765392 2.3615015 3.5492427
-1.8663472 2.3509145 3.5195961
-1.8306071 2.358427 3.5491261
-1.6889451 2.3522019 3.5231073
-1.6108125 2.3532789 3.5313916
-1.5544901 2.3504255 3.5005524
-1.4845341 2.3518753 3.5278525
-1.4027015 2.3538389 3.5132027
-1.3760885 2.3598695 3.5318763
-1.3134066 2.3580415 3.503866
-1.2814289 2.3537729 3.5210416
-1.2222183 2.3555181 3.5262508
-1.170849 2.3525233 3.5353301
-1.1177928 2.3519411 3.5195868
-1.0641538 2.3568344 3.5265145
-1.0322464 2.3517823 3.5259547
-0.96677017 2.3564305 3.5063353
-0.92930377 2.360992 3.5215449
-0.87764722 2.3542757 3.5214567
-0.82306069 2.3542383 3.5181942
-0.77676547 2.3554044 3.521524
-0.72235703 2.3533881 3.5274627
-0.67622334 2.3555377 3.5177643
-0.62934166 2.3620458 3.5345683
-0.57948494 2.3642356 3.5312231
-0.52531534 2.3608034 3.5194428
-0.48072666 2.3656974 3.5284934
-0.43253338 2.3725083 3.5337415
-0.37302744 2.3651099 3.5278847
-0.32439128 2.3733819 3.524478
-0.2760064 2.3835752 3.5233057
-0.22734718 2.3810015 3.5221729
-0.17003845 2.3919437 3.5409145
-0.11765162 2.3864253 3.5214863
-0.072555065 2.3822937 3.5292113
-0.024191242 2.3934233 3.5268071
0.037125308 2.391825 3.5179298
0.062992185 2.3924541 3.5250874
0.12075584 2.395067 3.5082989
0.16617428 2.3941739 3.5184834
0.21897714 2.3942606 3.5423164
0.25818709 2.3969505 3.5442591
1.4978504 2.3933184 3.5483143
1.5312811 2.3716044 3.52249
0.0048933574 2.4039912 3.5230119
0.19852933 2.4017951 3.5154462
0.39608443 2.4062147 3.5481358
0.53289169 2.4253838 3.5230088
0.56926739 2.4138062 3.5013878
0.63219929 2.4184256 3.5262356
0.67613536 2.4224203 3.5231183
0.72315991 2.4307745 3.5242422
0.77296042 2.4327099 3.5187511
0.83913934 2.443558 3.5434556
0.87642616 2.4368918 3.5261109
0.91480112 2.4335289 3.5132396
0.98035765 2.4390833 3.528363
1.0679998 2.4475815 3.5420196
1.1247501 2.4401941 3.5162742
1.1802483 2.4415874 3.5251439
1.2193999 2.4428666 3.5235469
1.2689592 2.4344471 3.524904
1.3215199 2.4412663 3.5274017
1.3769555 2.4397426 3.5297377
1.4218978 2.4231238 3.5214772
1.4787426 2.4116285 3.5247324
1.5100627 2.4007022 3.510617
1.0901437 2.4522867 3.5439048
1.3563986 0.33148056 3.5754228
1.43636 0.34030759 3.5513933
1.4740008 0.33380595 3.5704463
1.5024065 0.34314579 3.5652483
1.3471357 0.38508725 3.5731173
1.3569065 0.36363384 3.5658951
1.4271691 0.38009772 3.5553741
1.4774714 0.37977147 3.5756791
1.502574 0.37930298 3.563035
1.3478246 0.43009543 3.571368
1.3615806 0.43770915 3.5550637
1.4389435 0.41264519 3.5524361
1.480584 0.4258725 3.5796258
1.5047156 0.425015 3.5645227
1.3433475 0.45846421 3.58337
1.3602701 0.47805151 3.5653934
1.4249603 0.47670627 3.5616667
1.4832754 0.47200131 3.5821352
1.5040636 0.46998969 3.5589504
1.3608227 0.52121872 3.5713911
1.4243963 0.51889229 3.5561256
1.4797031 0.52910942 3.5783365
1.5034287 0.53301579 3.551146
1.3663175 0.5679599 3.565218
1.4247113 0.57192463 3.5681629
1.4746495 0.57197946 3.5755739
1.4857543 0.61722189 3.5833342
1.5090439 0.61657834 3.555057
1.489573 0.67447072 3.5747252
1.4974911 0.71942699 3.5627956
1.5024109 0.74920386 3.5704899
1.4953712 0.7823348 3.5818501
1.5019693 0.76724702 3.5666738
1.4907824 0.82596344 3.5803502
1.5044051 0.82337481 3.5636885
1.4943686 0.87393463 3.5811758
1.5043187 0.87820768 3.5540848
1.4987173 0.92258078 3.583297
1.5086787 0.9266125 3.5560374
1.5065783 0.97828323 3.5716972
1.492105 1.0322483 3.5974751
1.501646 1.0260613 3.5703716
1.4930513 1.0701199 3.5918984
1.5042322 1.0648553 3.5686748
1.4977491 1.1201483 3.5929077
1.5036108 1.1362313 3.5776668
1.5055859 1.1703351 3.5746455
1.5088763 1.2201889 3.5762596
1.5126344 1.2734544 3.5804253
1.4958133 1.3027236 3.597482
1.5079321 1.3251352 3.5680294
1.5064657 1.3738772 3.5727298
1.5081353 1.4243218 3.5736229
1.5164809 1.474178 3.5750785
1.4918492 1.5256521 3.578393
1.5141079 1.519339 3.5687008
1.4984651 1.5515745 3.5881
1.5191135 1.581894 3.5761111
1.5137765 1.6210918 3.5833945
1.5174357 1.6672953 3.571449
1.4998876 1.70911 3.597527
1.5155823 1.7243578 3.5755124
1.5170798 1.7723631 3.5817883
1.5182825 1.8229101 3.5820899
1.5222175 1.8703421 3.5681505
1.5230306 1.9229052 3.5800881
1.5246435 1.9762535 3.5833931
1.5290513 2.0211904 3.5710952
1.5241214 2.0795064 3.5793324
1.5196176 2.1272252 3.5770524
1.5291255 2.1739659 3.5764542
1.5298753 2.2223675 3.5616317
1.5267773 2.2765625 3.5826464
-2.3710997 2.3342741 3.5535901
-2.3200932 2.3485677 3.5546391
-2.2995422 2.3497581 3.5685897
-2.0752459 2.3381987 3.5883782
-2.0291929 2.3445492 3.5873122
-1.968774 2.3360302 3.5991273
-1.9324313 2.3389645 3.5692663
-1.8667631 2.3436601 3.556303
-1.8269324 2.3462272 3.5782938
-1.7749579 2.3433051 3.5697453
-1.7337871 2.342684 3.577142
-1.6769867 2.347728 3.5922236
-1.6217949 2.3487153 3.5666304
-1.5305884 2.3454223 3.5702794
-1.4782286 2.3435035 3.5848408
-1.3478171 2.3431637 3.5573971
-1.2502825 2.3495722 3.596657
-1.227141 2.3440387 3.5937459
-1.1873463 2.3455148 3.5628688
-1.0630047 2.3464849 3.5740676
-0.87974966 2.3468482 3.5924976
-0.80224508 2.3435688 3.5599115
1.5256199 2.3259172 3.5769768
-2.4097581 2.3507361 3.5658946
-2.1476564 2.3695557 3.5776994
-1.9853884 2.3518233 3.5693445
-1.9217628 2.3516705 3.5981958
-1.8114202 2.3605981 3.5613217
-1.6843299 2.3538041 3.5760725
-1.5748923 2.3555293 3.5959024
-1.4873205 2.3520207 3.5733058
-1.4385701 2.3558693 3.5960963
-1.3876114 2.359349 3.5725045
-1.2626425 2.3551259 3.5580661
-1.2312205 2.3527579 3.5629501
-1.1578469 2.3566298 3.5671597
-1.109889 2.361258 3.5868201
-1.0777299 2.3600895 3.5854855
-1.0189055 2.3610423 3.5721757
-0.97511274 2.3593771 3.5762875
-0.92605728 2.3580713 3.5592248
-0.87583089 2.3561697 3.5662341
-0.83801395 2.3611078 3.5811806
-0.77372283 2.3632059 3.58202
-0.67358267 2.3608618 3.566829
-0.62553573 2.3651311 3.580245
-0.57243609 2.3691807 3.5799749
-0.52535743 2.3653436 3.5769677
-0.46627975 2.3568232 3.5862768
-0.43086511 2.3657007 3.5732384
-0.37657779 2.3680677 3.5716181
-0.32844207 2.3737719 3.5839479
-0.27840436 2.3747144 3.5688589
-0.22969291 2.3784776 3.5732353
-0.17518149 2.3813968 3.5800328
-0.13165507 2.3810675 3.5651882
-0.073201239 2.3839915 3.5708435
-0.021113232 2.3902998 3.5677364
0.024394423 2.3962281 3.5504043
0.083623014 2.3996601 3.594182
0.12737858 2.3962262 3.5781636
1.4864638 2.3873959 3.588352
1.5137444 2.3715267 3.5749698
0.004969697 2.4012945 3.5973747
0.083256312 2.408752 3.5682764
0.10259932 2.4032452 3.5597248
0.17158832 2.402801 3.5767481
0.2258835 2.4016685 3.5825565
0.27970928 2.404711 3.5742862
0.32033855 2.415288 3.5873604
0.37691331 2.4086804 3.5534322
0.53689146 2.4238696 3.5600345
0.73297119 2.4339137 3.5883329
0.77303624 2.4343503 3.582366
0.82300544 2.4396951 3.571404
0.87362933 2.4367929 3.5677671
0.92455512 2.4394009 3.5615408
0.97846508 2.4391983 3.570775
1.0185665 2.4437869 3.576005
1.0646727 2.4429059 3.5780249
1.1274314 2.4375703 3.5756788
1.1755235 2.4433682 3.5941596
1.2261113 2.4427912 3.57956
1.2806894 2.4396033 3.5811045
1.3172752 2.4347551 3.5698135
1.3809865 2.4290378 3.5737376
1.4343872 2.4147892 3.5753324
1.4680909 2.4071863 3.566623
1.0394205 2.4511147 3.5543051
1.1002535 2.4547312 3.5879879
1.1606668 2.4538503 3.5712504
1.3332644 0.33465603 3.6190305
1.3361067 0.38066265 3.6236455
1.3344536 0.42541733 3.6156421
1.3360065 0.47546893 3.6210017
1.3337826 0.52966785 3.6247118
1.3414713 0.5640986 3.6217346
1.3552212 0.5842855 3.6297657
1.4184351 0.60227925 3.6089654
1.4652255 0.6294291 3.6266937
1.4764988 0.67181468 3.6187372
1.4815706 0.725577 3.6242242
1.4796418 0.77014214 3.6214724
1.4795979 0.83257663 3.6158848
1.4803613 0.87753391 3.6286087
1.4857314 0.9269048 3.6229558
1.4765226 0.97301573 3.6293511
1.479829 1.0133426 3.6232567
1.4830217 1.0750549 3.6321771
1.4834014 1.1253459 3.6303973
1.5044422 1.1064028 3.6131647
1.4859372 1.1755137 3.6365428
1.491228 1.2258674 3.6272798
1.488591 1.2722424 3.6197839
1.4903483 1.3240719 3.633348
1.5022352 1.3367634 3.6052499
1.4889081 1.3795743 3.6285558
1.4872131 1.4192277 3.6174736
1.4938669 1.4741541 3.6231236
1.490414 1.524639 3.6332238
1.5037439 1.5185921 3.613008
1.487281 1.5796136 3.6268785
1.5068777 1.5795498 3.6019456
1.4900026 1.6147799 3.6228216
1.4912772 1.6818283 3.6286821
1.5022691 1.6631749 3.6204553
1.4955249 1.7362866 3.6366982
1.4909874 1.7603662 3.6149104
1.5083921 1.7890203 3.6228967
1.4923348 1.8448858 3.649895
1.5008895 1.821285 3.6202717
1.4939586 1.8667558 3.6461122
1.5045342 1.875084 3.6096132
1.4992881 1.9132836 3.6431942
1.5105687 1.9373385 3.6233063
1.4989717 1.9527407 3.6260085
1.5093656 1.9732773 3.6154871
1.515792 2.0261586 3.6225529
1.5083823 2.0678084 3.6265323
1.5099281 2.119674 3.6302793
1.5145749 2.1731195 3.6424377
1.5126375 2.2245331 3.6351233
1.5121526 2.2664289 3.6246572
-2.1061189 2.3281143 3.625675
-2.0523612 2.3375008 3.615998
-2.0204051 2.3376708 3.6314163
-1.9635996 2.3324997 3.629781
-1.9104327 2.3425393 3.6377501
-1.8822771 2.3445866 3.6280208
-1.8358519 2.3366244 3.6071591
-1.7843782 2.3380713 3.6311908
-1.7194684 2.3423538 3.6150157
-1.6906319 2.3458796 3.632622
-1.6255217 2.3483651 3.6127086
-1.5716952 2.3454986 3.6269336
-1.5193094 2.3494225 3.6046338
-1.4360887 2.3480558 3.6297708
-1.3020155 2.349602 3.6270728
-1.2265775 2.3420601 3.6351995
-1.1179211 2.3479495 3.6284397
-1.0393124 2.3405092 3.6128497
-0.97426957 2.3390622 3.6032274
-0.88727546 2.3467903 3.633312
-0.81327903 2.3458197 3.6241424
-0.55194205 2.347841 3.6445241
1.49322 2.3155141 3.6481693
1.507197 2.3259046 3.6145353
-2.2653906 2.3594496 3.6071582
-2.2378855 2.3534696 3.6096423
-1.9019132 2.3532996 3.6100836
-1.6634916 2.3580277 3.6159258
-1.5754125 2.3510616 3.6356034
-1.4720054 2.356091 3.6321516
-1.4153779 2.3581257 3.630579
-1.3699223 2.3610818 3.6265717
-1.3288407 2.3624954 3.6109047
-1.2809305 2.3586166 3.6257601
-1.2102208 2.3504033 3.6089704
-1.1728401 2.3566878 3.6292229
-1.1352103 2.3620749 3.6036553
-1.0111133 2.3550956 3.6213901
-0.96031612 2.3538439 3.6302238
-0.9374162 2.3568621 3.6184564
-0.85636556 2.3545313 3.6304216
-0.83422792 2.3586345 3.6198447
-0.76879394 2.3620324 3.6260686
-0.72386295 2.3670604 3.6308074
-0.67099291 2.3666537 3.6172569
-0.62179995 2.3686886 3.6272869
-0.57069427 2.3629448 3.6247962
-0.52104449 2.3629432 3.6305928
-0.4833492 2.3632958 3.6215897
-0.41771781 2.3718486 3.6275699
-0.36968267 2.3670752 3.6107101
-0.32047704 2.3677001 3.615315
-0.2720139 2.3749242 3.6294463
-0.23265092 2.3771527 3.6350005
-0.17263411 2.3749225 3.6207609
-0.1340359 2.3844006 3.6499352
-0.060885828 2.3858855 3.6268806
-0.024534008 2.3823631 3.6085315
0.014892696 2.3936625 3.625689
0.12386317 2.3973467 3.6296546
1.4744505 2.384099 3.6254771
-0.094301485 2.4041412 3.6406479
0.084342927 2.4004495 3.6352539
0.18326433 2.4071269 3.6225448
0.2137793 2.4061909 3.6398654
0.27261931 2.4087968 3.6207087
0.32317272 2.4167457 3.6294754
0.37330687 2.4292731 3.6244373
0.40076482 2.4148414 3.6004479
0.4750073 2.4204357 3.6424184
0.50571871 2.4238658 3.6444526
0.7701481 2.4370091 3.6283169
0.8172859 2.427392 3.6053672
0.87490696 2.4483252 3.627099
0.92917389 2.4423416 3.6212857
0.96622449 2.4440527 3.630451
1.0246137 2.4475231 3.6374598
1.1198473 2.4448252 3.6325731
1.1785976 2.4348018 3.6344807
1.2281199 2.4329793 3.6221218
1.268443 2.4349108 3.6214738
1.3272709 2.4384391 3.6327438
1.3760285 2.4256046 3.6271527
1.42223 2.4212646 3.6206822
0.97712976 2.4510722 3.6106563
1.0792909 2.4559453 3.6382151
1.3126565 0.33865216 3.6715083
1.3135465 0.37550473 3.6715631
1.3163495 0.4221817 3.6759472
1.3182671 0.47790286 3.6766129
1.3160028 0.52112395 3.6755888
1.3212692 0.56624591 3.6858804
1.3986349 0.61358303 3.6892843
1.4189091 0.61958039 3.6610303
1.4511027 0.63075799 3.6637082
1.445402 0.65511942 3.6993997
1.4623245 0.6733219 3.6660724
1.4652665 0.72361338 3.6748953
1.4639056 0.77665949 3.6770473
1.4704984 0.81921035 3.6661084
1.4633149 0.87043995 3.6786814
1.4668993 0.92362022 3.6824787
1.4627436 0.96598095 3.6968331
1.4661647 1.033398 3.6743972
1.4718862 1.0699492 3.6728077
1.4683107 1.121748 3.6800334
1.4712322 1.1716015 3.6766605
1.4717029 1.2196155 3.6665838
1.4732109 1.2809092 3.6784585
1.4719127 1.3292291 3.6739764
1.4747479 1.3742666 3.6637678
1.4779278 1.4284739 3.6669643
1.4760138 1.4715782 3.6688364
1.4720629 1.5221298 3.6786556
1.4779211 1.5710685 3.6738026
1.473477 1.6207862 3.6756904
1.48198 1.6744523 3.6819589
1.476495 1.7288533 3.6787043
1.4791864 1.7716222 3.6711624
1.486172 1.8197534 3.6736784
1.4888058 1.8769407 3.6701458
1.4836174 1.9207872 3.681284
1.4902989 1.9691941 3.6759291
1.4875315 2.015444 3.6763182
1.5029531 2.0450461 3.6651375
1.491356 2.0773323 3.684
1.5029894 2.0653493 3.6563301
1.4919508 2.1291146 3.6626048
1.4912622 2.173584 3.6752615
1.5030705 2.1963103 3.6659777
1.4849625 2.2281666 3.6831286
1.5045022 2.218955 3.6596262
1.4852047 2.2724221 3.6683605
-1.9866918 2.3269768 3.6795216
-1.8817732 2.3358698 3.6634431
-1.8005164 2.3379571 3.675231
-1.7641346 2.3425622 3.6729443
-1.7158549 2.3450928 3.6711864
-1.6813055 2.3410859 3.6768756
-1.6170304 2.3453724 3.6589634
-1.5753343 2.3456159 3.674144
-1.5312513 2.3422391 3.6831326
-1.4705714 2.3496594 3.6685133
-1.3592623 2.3472376 3.6752861
-1.3332824 2.348269 3.6614783
-1.2792729 2.3435898 3.6687546
-1.1783863 2.3473964 3.6568
-1.1311563 2.3449597 3.6868839
-0.99487549 2.3476939 3.6999619
-0.90475637 2.3460956 3.6717737
1.4770304 2.3265369 3.6890175
1.5001181 2.3469889 3.6543396
-1.6634402 2.3518138 3.6536565
-1.5134422 2.3516941 3.6580169
-1.4735436 2.3543973 3.675848
-1.4005493 2.3575342 3.6573734
-1.3785577 2.3552735 3.6601601
-1.3138512 2.3503382 3.6706414
-1.2539153 2.3538747 3.6933315
-1.2110875 2.350863 3.6994882
-1.1395599 2.3514924 3.6734352
-1.0867473 2.3579872 3.6746757
-1.0197024 2.3547683 3.6624269
-0.97956884 2.3558254 3.6727459
-0.93715405 2.3512821 3.6739321
-0.88857383 2.3567982 3.6923766
-0.80044812 2.356847 3.6652341
-0.76968014 2.3551393 3.667587
-0.73078179 2.3595085 3.6807766
-0.67806548 2.3614824 3.6706562
-0.62937844 2.3671675 3.6864252
-0.58429956 2.3579292 3.6565719
-0.53402209 2.35654 3.660316
-0.47021496 2.3669581 3.6730947
-0.42879832 2.3701842 3.6786518
-0.37420774 2.3760271 3.6648571
-0.32332081 2.3685908 3.6570477
-0.27513182 2.3826072 3.6818116
-0.23461299 2.3772249 3.6756444
-0.18462849 2.3765459 3.6767688
-0.1148537 2.3886487 3.6772852
-0.081448473 2.3894701 3.6724722
-0.034750693 2.3871107 3.6558552
0.024980834 2.3924932 3.6641359
0.065152332 2.394232 3.6868315
0.16489503 2.3983262 3.6703265
1.4716572 2.3738689 3.6823907
0.085178532 2.404166 3.6813536
0.11506899 2.4009328 3.6757669
0.185479 2.4061508 3.6815684
0.23061579 2.4115605 3.6776731
0.27274755 2.4161301 3.6790936
0.34542689 2.4232788 3.658036
0.37987551 2.4233844 3.6692181
0.4318808 2.4284632 3.6752269
0.47968987 2.4239988 3.6885328
0.52022362 2.424715 3.6853838
0.56168205 2.429323 3.6877847
0.62409425 2.4359026 3.6901731
0.7138232 2.4305573 3.6691806
0.78027439 2.4484723 3.686506
0.81746256 2.4377236 3.6633995
0.87038386 2.4437666 3.6632502
0.92399406 2.4406528 3.6694641
0.97921085 2.4409811 3.6802373
1.0242862 2.4355953 3.6764863
1.0751489 2.4390078 3.6777236
1.1240104 2.4374428 3.6709478
1.171399 2.4260428 3.6776459
1.226501 2.4278166 3.6774387
1.2784507 2.4230795 3.6667171
1.3255293 2.4335189 3.6706641
1.3671666 2.4258049 3.6761658
1.4297107 2.4152875 3.6731944
1.3032815 0.334126 3.7304075
1.2934901 0.3710992 3.7287772
1.2986147 0.40687335 3.7119586
1.3018676 0.43569449 3.7190695
1.2997212 0.48122728 3.7089643
1.3023074 0.48218536 3.716377
1.294319 0.52352548 3.7478933
1.3040106 0.52922177 3.7168593
1.2917238 0.55978382 3.7366447
1.3180257 0.57637042 3.7134688
1.3637944 0.59600312 3.7073724
1.4190195 0.63195527 3.7418964
1.4433266 0.67946666 3.7318094
1.4569089 0.69805771 3.7240145
1.4409077 0.72778016 3.7327304
1.4537841 0.72478372 3.7122157
1.4431182 0.77623528 3.7317266
1.4533042 0.77160025 3.7042782
1.4435527 0.82380933 3.7256997
1.4568847 0.82065147 3.7062604
1.4427137 0.87824833 3.7286744
1.4596968 0.86946905 3.7057567
1.4491352 0.91251397 3.7260127
1.4592419 0.93192434 3.7216368
1.4373112 0.97438097 3.7396348
1.4560632 0.97574282 3.7191119
1.4409487 1.0247507 3.7400064
1.4565172 1.0236737 3.7111466
1.4453704 1.0663275 3.7438226
1.4553208 1.0786717 3.7109404
1.4494944 1.1175206 3.7444668
1.4568306 1.1312861 3.7181771
1.4492648 1.1943977 3.7267387
1.4563215 1.1730603 3.7219412
1.4599593 1.228363 3.7131779
1.4551808 1.2766536 3.7233696
1.4446489 1.3331249 3.7393422
1.4583459 1.3278915 3.7191639
1.449477 1.3668654 3.7441618
1.460296 1.377862 3.7314274
1.4585625 1.4248185 3.7237113
1.4624273 1.4775201 3.7195652
1.4605523 1.5248921 3.7308831
1.4481679 1.5721396 3.7433052
1.4605621 1.5740772 3.7157309
1.4469016 1.600407 3.7307153
1.4566461 1.6369066 3.7262936
1.4633522 1.6771401 3.7219117
1.467309 1.7220912 3.7289369
1.4649858 1.7704711 3.7265592
1.465323 1.8108879 3.7128406
1.469157 1.8720357 3.7280045
1.4678119 1.914947 3.7252378
1.4742004 1.9780443 3.7251115
1.4698694 2.0248566 3.7095051
1.4796572 2.0793304 3.7166042
1.4789732 2.1237817 3.7303972
1.4724243 2.1757798 3.7221603
1.4644661 2.2233763 3.7292526
1.4702779 2.2851241 3.7123833
-2.0678043 2.336251 3.715266
-2.0227714 2.3346257 3.7326419
-1.9448272 2.3413434 3.7261205
-1.8322315 2.3436651 3.7248275
-1.7521143 2.3371196 3.7438779
-1.7285099 2.341114 3.7093253
-1.6977792 2.3427207 3.7238734
-1.6311402 2.3446975 3.7018008
-1.5239708 2.342227 3.7340097
-1.4793667 2.3427889 3.7011571
-1.3729986 2.3396013 3.7280931
-1.3222843 2.3437076 3.7217102
-1.2742927 2.3413215 3.7354481
-1.1975379 2.3440604 3.7370532
-1.1164049 2.3468211 3.7160048
-1.0448389 2.3478355 3.7339842
-0.9650808 2.3496804 3.7094042
-0.67297626 2.3486423 3.7142696
1.4495591 2.3242075 3.7254937
1.4591258 2.3332758 3.714716
-1.6822202 2.3507185 3.744437
-1.6038519 2.3511293 3.7231805
-1.5821936 2.3503995 3.7293336
-1.4633981 2.3507195 3.720356
-1.4297681 2.3576088 3.7191648
-1.3896768 2.3534381 3.7003412
-1.2329117 2.3525336 3.7272503
-1.1831801 2.3568611 3.716815
-1.076381 2.3594046 3.724117
-1.0284346 2.3544168 3.7039833
-0.92729264 2.3575113 3.7298872
-0.88583022 2.3663464 3.7303815
-0.81202394 2.3704915 3.7283778
-0.77917242 2.363817 3.7229226
-0.7268675 2.3592677 3.7236786
-0.61100876 2.3640914 3.704937
-0.5616731 2.3689833 3.7187662
-0.52474469 2.385144 3.748692
-0.48917654 2.3609943 3.7138801
-0.42008814 2.3698022 3.7343512
-0.37710685 2.3742061 3.703078
-0.28238514 2.3763151 3.7232077
-0.22657892 2.3776479 3.7178526
-0.1763213 2.3797843 3.7232528
-0.11665358 2.3956623 3.7499635
-0.055445336 2.3920941 3.7247691
-0.025095979 2.3934703 3.7064714
0.020184917 2.3955669 3.7200627
1.4368892 2.3797629 3.7322681
1.4536284 2.3727446 3.7147563
-0.13633931 2.4051719 3.7227507
0.085876875 2.4036486 3.7215576
0.11639086 2.4083433 3.7281871
0.17687652 2.4051366 3.7213974
0.22809201 2.413126 3.7316232
0.2786659 2.4118512 3.7270451
0.32535002 2.4245808 3.7189622
0.36918682 2.427824 3.7042286
0.41882148 2.4283214 3.7287006
0.47429612 2.4279542 3.7368991
0.52529669 2.4280045 3.7317317
0.5757392 2.425832 3.722564
0.63992196 2.4372945 3.7324235
0.65883625 2.431536 3.7208433
0.74204838 2.436487 3.7164302
0.75998956 2.4284153 3.7008977
0.86734998 2.4435279 3.7062998
0.98155785 2.4338112 3.7228713
1.0264902 2.4295914 3.7249553
1.0742686 2.429441 3.7288635
1.125954 2.4290483 3.7161243
1.1705728 2.4147642 3.7266934
1.224875 2.4191756 3.720211
1.2742685 2.4202173 3.7240591
1.3260294 2.4273748 3.7178278
1.3789294 2.4164979 3.7306087
1.4136147 2.4075658 3.7166336
1.2929943 0.33627051 3.7588232
1.2827916 0.38549212 3.7850697
1.2917576 0.42794314 3.7725511
1.2896528 0.47357598 3.7745519
1.2909476 0.52674854 3.7735362
1.2869039 0.56586111 3.7816823
1.3074917 0.58549881 3.7802672
1.3983407 0.63019186 3.7991102
1.4186029 0.6454888 3.7672663
1.4234433 0.67626667 3.7766321
1.4292383 0.72920817 3.7712731
1.4283769 0.77416265 3.7768698
1.4309336 0.82342553 3.7764835
1.4309272 0.87127721 3.7688873
1.434178 0.92630386 3.7743073
1.4366305 0.97738183 3.7952082
1.4345011 1.0242103 3.7805126
1.4316629 1.0720252 3.7829211
1.4511422 1.099503 3.7528088
1.4296455 1.1246573 3.7762625
1.436269 1.1785617 3.783155
1.4385641 1.2236583 3.7733083
1.4381554 1.2734894 3.7723629
1.4386452 1.3168315 3.7670586
1.4354848 1.3768735 3.7783775
1.4341847 1.4256749 3.7833302
1.4342653 1.4791614 3.772809
1.4418967 1.5326015 3.7752426
1.4355576 1.5800185 3.7676919
1.4403505 1.6252154 3.7676983
1.4415351 1.6775068 3.7760658
1.4451191 1.7005874 3.7571476
1.4546623 1.7319595 3.7750905
1.4409578 1.7700778 3.7872429
1.4530035 1.7702236 3.7566977
1.4451383 1.8259457 3.7800643
1.459476 1.8286325 3.7551842
1.4523304 1.8859942 3.7799582
1.4499069 1.9337449 3.754009
1.4521098 1.9162922 3.7676773
1.4467816 1.9879372 3.7929735
1.459825 1.9777352 3.7674241
1.4476941 2.0407414 3.7742982
1.4572433 2.0212345 3.7652035
1.462743 2.078455 3.7704458
1.459942 2.1308093 3.775058
1.4471489 2.1739845 3.7883241
1.4728217 2.1656601 3.7644553
1.435313 2.2298551 3.7995875
1.4516414 2.2331631 3.7761974
1.4373986 2.275255 3.7853901
1.4534867 2.2780037 3.761183
-2.1180615 2.3237805 3.7784836
-2.0828359 2.3312359 3.7537327
-2.0255671 2.3394814 3.7685776
-1.8676891 2.3396549 3.7552261
-1.8310184 2.3343244 3.7597575
-1.7923527 2.3402374 3.7862456
-1.7395912 2.3275847 3.782095
-1.6826484 2.344821 3.7840502
-1.6338571 2.3365326 3.7858083
-1.572812 2.3360884 3.7807283
-1.5487766 2.3426907 3.7758806
-1.4753864 2.3381982 3.7667103
-1.4312129 2.3457637 3.7695436
-1.3593028 2.3310797 3.7644835
-1.3472046 2.3465672 3.7954733
-1.2820178 2.3345358 3.7683446
-1.2479383 2.34006 3.7635407
-1.1677604 2.3468082 3.7953892
-1.1305952 2.3452122 3.7783818
-1.0109084 2.3440311 3.779844
-0.99187881 2.3480699 3.7906196
-0.94824558 2.3429062 3.7904947
1.4365216 2.3344162 3.7800589
1.4560883 2.3136361 3.752655
-1.3927788 2.3521667 3.792429
-1.2333473 2.3520606 3.7882621
-1.1707368 2.3527231 3.7586024
-1.1196854 2.3548422 3.7743573
-1.0704964 2.3604317 3.7798455
-1.032964 2.3573978 3.7752852
-0.97397113 2.3506944 3.7536685
-0.92306781 2.3523233 3.7663438
-0.88206637 2.3529737 3.7750568
-0.8299545 2.3616776 3.7765565
-0.78339654 2.3595552 3.7733734
-0.71075833 2.3529572 3.7589982
-0.67105466 2.3572412 3.771574
-0.62974966 2.3713455 3.7676332
-0.5754019 2.3635387 3.750917
-0.52789879 2.3789856 3.7811663
-0.42266005 2.3637304 3.7667484
-0.36876392 2.3801782 3.7691553
-0.33560672 2.3860388 3.7808237
-0.2711094 2.3949478 3.7847862
-0.23996004 2.3905416 3.7794127
-0.13805722 2.3945584 3.7896619
-0.086505026 2.3944709 3.7696605
-0.028763654 2.3931584 3.7612922
0.18794601 2.3974838 3.7506244
1.4164574 2.3781047 3.7738488
-0.076711372 2.4162023 3.7829196
0.04590521 2.4051723 3.7660344
0.066472121 2.4120381 3.7765536
0.12734254 2.4037845 3.7624073
0.21956764 2.4098339 3.7686677
0.27120972 2.4151907 3.7744865
0.32317674 2.4213991 3.7811246
0.37928319 2.4342911 3.780447
0.42566636 2.4208899 3.7725427
0.4778986 2.4207232 3.7781165
0.53316236 2.4209826 3.776428
0.5713222 2.4297233 3.7716727
0.62453836 2.4417925 3.7735283
0.6773324 2.4409165 3.7758441
0.78342366 2.438931 3.7784963
0.82460505 2.4172707 3.7806113
0.86383724 2.4241245 3.7775819
0.92410344 2.4230211 3.7942207
0.97421658 2.4281645 3.7706285
1.0070406 2.4216683 3.7755182
1.0627708 2.4298589 3.7770348
1.1276995 2.4278522 3.7892838
1.1786158 2.4318681 3.7991109
1.2262968 2.4217103 3.7700112
1.265564 2.416297 3.7505805
1.3197166 2.4228175 3.7819595
1.3767385 2.4113369 3.7735875
0.72175992 2.4513559 3.7860413
0.75311911 2.4520469 3.782409
1.2700679 0.33664921 3.8263721
1.2713667 0.37291095 3.8228414
1.2673693 0.4223175 3.8339829
1.2733206 0.47053206 3.8264599
1.2725372 0.52445793 3.8348484
1.2796144 0.56625789 3.8211026
1.3562165 0.61364007 3.8291135
1.3972242 0.69641918 3.8464978
1.4030299 0.67061442 3.8072569
1.3982435 0.73563647 3.8442738
1.4190381 0.72178149 3.8160286
1.3978647 0.75478655 3.8406112
1.4087149 0.77215433 3.8243165
1.4085183 0.82310027 3.8311172
1.4109942 0.87303609 3.8302858
1.4143401 0.92373317 3.8313525
1.416041 0.97349817 3.8274462
1.4183531 1.0282706 3.8178458
1.4179764 1.0808707 3.827646
1.4161527 1.1273241 3.8281422
1.416876 1.1769547 3.8195331
1.4183503 1.2296482 3.8326809
1.4225888 1.2703165 3.8145795
1.4208554 1.3292539 3.8202026
1.4193249 1.375104 3.8209198
1.4188969 1.4242227 3.8278825
1.4186002 1.4637408 3.8161342
1.4194731 1.5352426 3.8309834
1.4220818 1.5782802 3.8260136
1.4252583 1.6220995 3.8221188
1.419552 1.6675719 3.8238962
1.4364029 1.7261659 3.8223023
1.4339174 1.7762855 3.8316784
1.4381022 1.8326539 3.8247836
1.4339442 1.8816019 3.8289762
1.4393053 1.9288346 3.8163764
1.4406794 1.9743732 3.8268139
1.4319581 2.0229795 3.8278205
1.4435607 2.0747254 3.8195968
1.4403394 2.1270971 3.8241067
1.4278597 2.1801214 3.822665
1.4254655 2.2223828 3.8213539
1.4191605 2.2769945 3.8269198
-2.35533 2.3395233 3.8115995
-2.3369155 2.343807 3.830373
-2.0885386 2.3402467 3.8257298
-2.0091071 2.3256259 3.8311605
-1.8147128 2.3334229 3.8171906
-1.765219 2.3255897 3.8208642
-1.7201056 2.3341346 3.8277371
-1.6109295 2.3391485 3.823945
-1.5152168 2.3352735 3.8227711
-1.4976813 2.3413332 3.8393986
-1.4319631 2.3430843 3.8131361
-1.3774461 2.340934 3.8250828
-1.319087 2.3423672 3.8197603
-1.2855138 2.3496714 3.8177838
-1.2421901 2.3477678 3.8256562
-1.1873915 2.3439336 3.8324769
-1.1305158 2.3459382 3.8259845
-1.0169843 2.3372467 3.8125298
-0.91372395 2.3399177 3.8372135
-0.88683987 2.3449507 3.8054051
1.3933994 2.3497109 3.8365674
1.4135858 2.3177037 3.8215375
-2.4117737 2.3503156 3.8049786
-2.3919129 2.3531964 3.8218515
-1.1927067 2.3547087 3.8030596
-1.108372 2.3541269 3.8219135
-1.0873017 2.3539977 3.8263931
-1.0435663 2.3501322 3.8291702
-0.97705877 2.3519571 3.8230309
-0.91231954 2.3571851 3.8214676
-0.81779355 2.3552377 3.8345985
-0.7716527 2.3591001 3.8335049
-0.72360772 2.353826 3.8467047
-0.66939503 2.3670483 3.8318038
-0.61454988 2.3660462 3.8152361
-0.57333851 2.3770247 3.8162093
-0.51844305 2.370929 3.8268235
-0.47958368 2.3833122 3.8146572
-0.44842795 2.382189 3.8157349
-0.37620422 2.37152 3.8259354
-0.3255544 2.3848107 3.8365977
-0.28293908 2.3880482 3.8157244
-0.23165379 2.3897753 3.8211122
-0.16983056 2.3899076 3.8237929
-0.11845451 2.3914342 3.8277202
1.3868742 2.3863721 3.8228538
1.4092394 2.3618479 3.8050888
-0.082463138 2.4040642 3.8272591
-0.015401512 2.4017894 3.8243394
0.015489515 2.4172125 3.8061352
0.077281058 2.4096727 3.8149128
0.12896502 2.4050016 3.8277912
0.19002859 2.4034898 3.8021233
0.22581805 2.4131699 3.8302431
0.27382681 2.4182634 3.8216431
0.3269521 2.4288406 3.8352728
0.37944826 2.4330709 3.8382883
0.43155205 2.4336274 3.834985
0.45912662 2.4146149 3.8022749
0.51425821 2.4314194 3.8236508
0.58053702 2.4263899 3.8228352
0.62302226 2.4231822 3.8270323
0.67727709 2.4298811 3.8278515
0.72605139 2.4345989 3.8241768
0.77313101 2.4294624 3.8131206
0.83491564 2.415998 3.843349
0.87969494 2.4210098 3.8289797
0.91993451 2.4186697 3.832725
0.97188157 2.4171765 3.8202553
1.0291898 2.4284134 3.8272719
1.0700097 2.4252639 3.8132551
1.177314 2.4298534 3.842545
1.2210859 2.4321804 3.8357084
1.276688 2.4225967 3.8208103
1.3278451 2.4110916 3.8187206
1.3622766 2.4047523 3.8220892
1.253917 0.33646464 3.8866754
1.2539386 0.374892 3.8843286
1.2433635 0.43220985 3.8793745
1.250744 0.41229114 3.8717608
1.2396971 0.48254159 3.8961682
1.2605495 0.47946173 3.8650658
1.2556462 0.51975471 3.8781853
1.2703511 0.57761902 3.8701801
1.3900249 0.63954198 3.8628387
1.3910115 0.66907698 3.8621321
1.3857037 0.72235596 3.8855422
1.4000454 0.71720475 3.8517811
1.3917668 0.77181572 3.8810647
1.4083371 0.79943037 3.863884
1.3968976 0.81386238 3.8897851
1.4007697 0.84561276 3.8961794
1.3918645 0.87931144 3.8653255
1.4015081 0.86573118 3.8952069
1.3937111 0.9196167 3.8640354
1.3984618 0.97180498 3.8687811
1.3920954 1.0209606 3.878715
1.4001656 1.0417904 3.8608549
1.3920367 1.0802262 3.8923359
1.4036834 1.073972 3.8648143
1.3921726 1.1199486 3.8847787
1.4051372 1.1243893 3.8588426
1.397119 1.1736873 3.8881366
1.4071856 1.1754127 3.8540013
1.4060198 1.2220974 3.8826149
1.408576 1.27452 3.8673668
1.3905656 1.3356574 3.89623
1.4089645 1.3244826 3.8672221
1.3905416 1.3757939 3.8860998
1.4049308 1.3702683 3.8652358
1.3948314 1.4203557 3.8876247
1.407014 1.4223841 3.8578537
1.3980486 1.4639962 3.8857484
1.4076446 1.4835486 3.8651779
1.4083414 1.5250963 3.8778236
1.3886448 1.5670422 3.8955004
1.4015682 1.5689094 3.866677
1.3957844 1.6364722 3.8970571
1.4043103 1.6227144 3.8588402
1.3945165 1.6656678 3.8839283
1.4154484 1.7275851 3.8599572
1.3896049 1.7981411 3.895813
1.4097379 1.7706015 3.8696179
1.4178865 1.8257287 3.8693323
1.4203157 1.8712658 3.8727169
1.4259762 1.9272419 3.8701737
1.4159579 1.9755816 3.8804796
1.4169559 2.0203063 3.8787043
1.4242717 2.0712996 3.8697615
1.4157007 2.1205418 3.8742115
1.4158235 2.1747422 3.8746066
1.3944126 2.2445016 3.8891006
1.4089561 2.2230387 3.8691378
1.3967655 2.2804198 3.8810833
1.4101218 2.2568343 3.8579326
-2.3200088 2.3497026 3.8516505
-1.8868102 2.3249314 3.8802276
-1.8335416 2.3355384 3.867538
-1.7989391 2.3335197 3.8767343
-1.7123263 2.3314395 3.8776712
-1.6741104 2.3348715 3.8713987
-1.5566137 2.3222296 3.8864334
-1.5277095 2.332921 3.8646998
-1.4577146 2.3461123 3.8603189
-1.3859371 2.3339202 3.8589051
-1.3326108 2.3342652 3.8742247
-1.2289995 2.3417935 3.8660629
-1.1774693 2.3451085 3.8844218
-1.1141936 2.3453574 3.852037
-1.0734576 2.3415585 3.8699558
-0.88022763 2.3410251 3.8909202
-0.66416347 2.3436773 3.8825889
1.3921008 2.3310173 3.8684242
-1.0322244 2.3510861 3.8796315
-0.96297282 2.3582339 3.85935
-0.93880588 2.3504255 3.8505566
-0.85689914 2.3664329 3.8697
-0.82545757 2.3561699 3.8802075
-0.79243612 2.3518581 3.8781412
-0.70352232 2.3562996 3.8536963
-0.67200363 2.3554499 3.8565493
-0.63244271 2.3634214 3.8749762
-0.55594581 2.3701091 3.8506794
-0.47284433 2.3703129 3.8594151
-0.41012454 2.3682206 3.8614414
-0.39253566 2.3875606 3.894618
-0.30704635 2.384501 3.8735576
-0.27505416 2.388181 3.8594942
-0.24378951 2.387177 3.8594704
-0.18223596 2.3964534 3.8770766
-0.015576069 2.3979461 3.8827169
0.15108085 2.3961034 3.8775423
0.59249395 2.3913276 3.8816533
1.3443885 2.3979001 3.8876009
1.372051 2.3789194 3.870594
-0.078268796 2.4026327 3.8897302
-0.036210224 2.4046402 3.8501306
0.012196719 2.4086847 3.8711641
0.081591845 2.4080544 3.8695061
0.13033497 2.4080534 3.875761
0.17920125 2.4147122 3.8777215
0.21353599 2.416543 3.864861
0.27684334 2.416373 3.8760383
0.32994193 2.4300802 3.8803682
0.3713932 2.4274158 3.8732376
0.41393554 2.4209094 3.8813546
0.47335815 2.4176283 3.8782413
0.51968837 2.42553 3.879143
0.5672316 2.4203553 3.8700528
0.63778174 2.4250426 3.887069
0.67832953 2.4192979 3.8723691
0.73480576 2.4134748 3.8698626
0.77801055 2.4169486 3.8691113
0.82297564 2.4114082 3.8714843
0.88301599 2.411607 3.8729725
0.92845535 2.4197984 3.8784699
0.96851534 2.4156315 3.8792133
1.0241721 2.4203308 3.8606193
1.0839063 2.4246626 3.8785315
1.1255366 2.4264333 3.8800964
1.1675709 2.424866 3.8676825
1.2290792 2.426626 3.8714759
1.2756162 2.4226942 3.8768201
1.3194865 2.4135082 3.8732307
1.2362361 0.34188735 3.9172487
1.2362237 0.37831634 3.925967
1.2366207 0.43180361 3.9234066
1.2413553 0.46386579 3.9029858
1.2394046 0.52509874 3.9245253
1.242451 0.56538379 3.9305284
1.2563068 0.58677751 3.9392209
1.3653189 0.64118439 3.9234083
1.3738201 0.67976397 3.9334426
1.3715827 0.73274237 3.9202843
1.375712 0.77932328 3.9261653
1.3799133 0.82603443 3.9255047
1.3800182 0.87599641 3.9308574
1.3817117 0.92600286 3.915163
1.3818202 0.97636336 3.9196033
1.3713912 1.0217453 3.9273884
1.3819526 1.0779151 3.9268453
1.3785701 1.1338285 3.9272966
1.3807123 1.1666596 3.9051414
1.3900472 1.2247483 3.9206212
1.3860331 1.2805187 3.9288731
1.386569 1.3112637 3.9232674
1.3791838 1.3744692 3.9185085
1.3853121 1.4312973 3.9228721
1.3904209 1.477368 3.9264135
1.3840775 1.5220342 3.9172106
1.3896095 1.5690136 3.9211299
1.3895078 1.6266321 3.9329705
1.3890476 1.6838024 3.9316201
1.3962021 1.7339811 3.9385896
1.4076705 1.7226164 3.9073281
1.3965242 1.7759311 3.9257753
1.3899027 1.8304754 3.9345782
1.3958969 1.8826375 3.9236317
1.4020065 1.855901 3.9160316
1.3949833 1.9271379 3.9418211
1.4077342 1.9158456 3.9131038
1.3949404 1.9691825 3.9260111
1.4105381 1.9511288 3.9091949
1.4006555 2.0195751 3.9258389
1.3886104 2.0754688 3.940609
1.4029943 2.0759151 3.9113166
1.3907645 2.1213415 3.9293752
1.391336 2.1648779 3.9131093
1.3917536 2.2159951 3.9194353
1.3827474 2.2711117 3.9176741
-1.8600953 2.333025 3.9067252
-1.836283 2.3309813 3.9117718
-1.7796602 2.3294506 3.9297385
-1.6622392 2.3269331 3.9126782
-1.6389444 2.3250086 3.9167945
-1.5200193 2.332737 3.9175591
-1.4449627 2.3387632 3.9005556
-1.2833548 2.3419971 3.9011767
-1.2202731 2.3445873 3.9215429
-1.0579711 2.3400171 3.9019563
1.3769704 2.3226414 3.9151926
-1.0192358 2.3593988 3.9203265
-0.95041454 2.3582397 3.9080763
-0.80310696 2.3622422 3.9401453
-0.75843006 2.3556354 3.9355249
-0.72228414 2.362741 3.9070261
-0.68973207 2.3595817 3.9061551
-0.63100886 2.3763847 3.9421027
-0.56356746 2.3815224 3.9132686
-0.52243388 2.3649979 3.9349082
-0.47704098 2.3703561 3.9033806
-0.31006035 2.3764091 3.9261255
-0.29006699 2.3848917 3.9413536
-0.13125874 2.3960848 3.9218357
-0.07890366 2.3905339 3.9359174
-0.015706742 2.3971448 3.9252205
0.068381988 2.3970907 3.9247117
0.32203546 2.3864863 3.942137
0.49335328 2.3981051 3.9481311
0.53594112 2.3988008 3.9450891
0.59976679 2.3994374 3.9391828
1.3358607 2.3997567 3.9423466
1.357649 2.3725326 3.9204662
-0.24780135 2.4053617 3.9328029
-0.071820252 2.4054167 3.9235432
-0.036919892 2.4095819 3.9454775
0.031620178 2.40909 3.9226108
0.089606248 2.4025123 3.9332695
0.11061066 2.411602 3.9256997
0.17922895 2.4093308 3.9310727
0.23008983 2.4165144 3.9223955
0.26852253 2.4115591 3.9198332
0.32563239 2.4113021 3.920517
0.37375814 2.4111719 3.912657
0.42154336 2.4082875 3.9153171
0.47975585 2.4044461 3.9150569
0.52178496 2.4036555 3.909673
0.56989121 2.4068868 3.9249065
0.63162977 2.41008 3.9305351
0.67678756 2.4106209 3.9181798
0.71803862 2.4151542 3.9276626
0.77280045 2.414777 3.9304931
0.82783556 2.4146392 3.9331322
0.86673319 2.4039335 3.908637
0.92609495 2.420311 3.9258385
0.98052961 2.4117351 3.924449
1.028313 2.4183433 3.9184711
1.0659825 2.4155591 3.9215734
1.1258844 2.4139874 3.9216003
1.1823406 2.4193048 3.9178877
1.23308 2.4198091 3.9226522
1.2704686 2.415035 3.9210818
1.3167452 2.4065828 3.9103854
1.2259208 0.32662794 3.9740009
1.2206465 0.37274906 3.9765847
1.2296287 0.41934285 3.98013
1.2279398 0.47448903 3.9658065
1.2227082 0.52069032 3.9719985
1.2318534 0.57667661 3.9796131
1.2951524 0.6155054 3.9923639
1.3294393 0.62621945 3.9657271
1.3405071 0.65799332 3.9959021
1.3562288 0.67584974 3.9765933
1.3635497 0.72260636 3.9715059
1.3597461 0.77719945 3.9742897
1.3464098 0.82107145 3.9929655
1.3579338 0.82592708 3.9620199
1.3577559 0.87670171 3.9799614
1.365732 0.9307301 3.969321
1.362502 0.97658426 3.9737132
1.3622773 1.0272782 3.9817119
1.3670669 1.0798047 3.9799905
1.367331 1.1203849 3.9729209
1.3688924 1.1779453 3.9726074
1.3757744 1.2288573 3.97615
1.3672484 1.2710242 3.9743435
1.3714802 1.3259108 3.9746556
1.370038 1.3720573 3.9820108
1.3691345 1.4258635 3.9772673
1.3709304 1.4727957 3.9635758
1.3730499 1.5194761 3.9765446
1.3772818 1.5795628 3.9790802
1.3710887 1.6249847 3.9637213
1.3762038 1.6726458 3.9658604
1.3808886 1.7199928 3.9662833
1.3804941 1.7736716 3.9723921
1.3818994 1.8079619 3.9780283
1.382197 1.8691521 3.9705648
1.3747276 1.9253166 3.9816444
1.3789597 1.9831032 3.9696152
1.3807029 2.0262518 3.9722703
1.3717912 2.0715294 3.9633567
1.3752784 2.1379054 3.9758732
1.3748341 2.1787441 3.9709442
1.3704754 2.2324071 3.9740829
1.3374265 2.2933257 3.997134
1.3642685 2.2725973 3.9762051
-1.728874 2.3357246 3.9601045
-1.6388259 2.3341222 3.987288
-1.5424905 2.3228743 3.9958236
1.3446829 2.3497021 3.9990923
1.3610038 2.313097 3.9603798
-0.87379962 2.3595128 3.9706945
-0.72374415 2.3596013 3.9936914
-0.67326236 2.3609951 3.9749305
-0.63352889 2.3645687 3.967509
-0.41997129 2.3825305 3.9736419
-0.37580049 2.3722017 3.9596148
-0.16449605 2.3999212 3.97171
-0.11138616 2.3881106 3.9759531
0.026564622 2.3925688 3.9732423
0.090283446 2.3994088 3.9726644
0.13328472 2.3879023 3.9976349
0.19646493 2.399879 3.9705679
0.23932528 2.3931727 3.9801927
0.25962192 2.3948891 3.9595656
0.3251214 2.3878911 3.9893675
0.38128257 2.3977222 3.97192
0.45494166 2.3980687 3.9969437
0.57219517 2.396102 3.9822335
0.71122664 2.396127 3.965275
1.3283985 2.3884854 3.9861813
1.3574451 2.3557281 3.9564164
0.13285147 2.4014111 3.9750848
0.16510069 2.4069638 3.9833701
0.2177389 2.4003341 3.9704895
0.46303546 2.4059205 3.9639034
0.51625764 2.4059722 3.9590275
0.55842137 2.4042172 3.9517643
0.62825376 2.4059856 3.992527
0.67671996 2.4072354 3.9733286
0.73452151 2.4023666 3.9726326
0.76882619 2.409049 3.9790292
0.82524085 2.4169085 3.983763
0.87708795 2.4110632 3.9653327
0.92326134 2.4192591 3.9713027
0.97437787 2.414813 3.9779527
1.0169919 2.4138479 3.9760168
1.0707024 2.4137888 3.9809399
1.127098 2.4180751 3.9763999
1.1699555 2.4167223 3.9644232
1.2174002 2.4135542 3.972147
1.2749572 2.4083197 3.9733026
1.3181995 2.4073234 3.9605267
1.2239428 0.4797456 4.0493174
1.2181587 0.53714496 4.0250497
1.2210397 0.56834137 4.0317545
1.3268363 0.64107919 4.0216537
1.3379656 0.67671984 4.0298653
1.3418175 0.72388738 4.024961
1.3414474 0.77394152 4.0173812
1.3450642 0.80626702 4.0241647
1.3567052 0.84752589 4.0205793
1.3400254 0.86995798 4.0327487
1.344578 0.92367125 4.0386229
1.3593078 0.91990638 4.0174541
1.3380203 0.9733184 4.0270348
1.358911 0.96003771 4.0096793
1.3447168 1.0252436 4.0219183
1.3454396 1.05628 4.0185633
1.3512352 1.0812292 4.0320768
1.3481295 1.1296239 4.0129743
1.3523914 1.1025712 4.0316453
1.352693 1.1742862 4.0183048
1.3424457 1.2346947 4.0429726
1.3576359 1.2298207 4.0221448
1.3466054 1.279804 4.0464201
