ply
format ascii 1.0
comment PCL generated
element vertex 1578
property float x
property float y
property float z
element camera 0
property float view_px
property float view_py
property float view_pz
property float x_axisx
property float x_axisy
property float x_axisz
property float y_axisx
property float y_axisy
property float y_axisz
property float z_axisx
property float z_axisy
property float z_axisz
property float focal
property float scalex
property float scaley
property float centerx
property float centery
property int viewportx
property int viewporty
property float k1
property float k2
end_header
2.0806727 2.4454558 2.6167223
2.12901 2.4403706 2.6207345
2.2338777 2.4372878 2.6352818
2.2752659 2.4419701 2.6300952
2.3156385 2.4452531 2.6230857
2.3652983 2.4386556 2.6235847
2.4340022 2.4410429 2.6184888
2.4752588 2.4342327 2.6247945
2.5303838 2.4312694 2.6199324
2.6356609 2.4369345 2.635911
1.7228775 2.459002 2.6457548
1.7788036 2.4627786 2.635551
1.8185507 2.4602449 2.619303
1.8729244 2.4569185 2.6204181
1.9253491 2.4525967 2.6301215
1.980931 2.4517238 2.6259859
2.0268288 2.4541819 2.6220932
2.414376 2.4501069 2.6246824
0.58804929 -0.45470232 2.65657
0.60807252 -0.46001786 2.685668
1.8628935 -0.43822697 2.6681485
1.6703914 2.447288 2.6578631
1.7230158 2.4450104 2.6861687
1.8212259 2.4404297 2.6745553
1.890514 2.4455354 2.6798441
1.9277189 2.4444098 2.669497
2.02262 2.44365 2.673981
2.0827048 2.4463232 2.6727538
2.1284673 2.4424262 2.6697931
2.1615336 2.4400702 2.6895349
2.227354 2.4318094 2.6769311
2.2706234 2.4378908 2.6574724
2.3303835 2.4423387 2.6867845
2.3662465 2.4401686 2.6735115
2.4229097 2.4395304 2.6723032
2.5496736 2.4296453 2.6858861
2.6195922 2.4394844 2.6781654
1.6472195 2.4656172 2.69712
1.670826 2.451973 2.6846709
1.7206744 2.456666 2.6706924
1.7707921 2.4504042 2.6740334
1.8727162 2.4502552 2.6695132
1.9928546 2.4502552 2.6815717
1.0382603 2.3026354 2.7333617
1.0845993 2.3125687 2.7311149
1.1266575 2.3302586 2.7402048
1.1758984 2.3443542 2.7413349
1.3819066 2.4075639 2.7443161
1.4354024 2.4242847 2.7435668
1.4883969 2.4392824 2.7398729
1.5153153 2.4399691 2.7278211
1.5780846 2.4462848 2.7252736
1.6302823 2.4445913 2.7257724
1.676033 2.4405951 2.7259336
1.7262292 2.4443376 2.7245958
1.7749683 2.4437327 2.7380624
1.8187566 2.4447784 2.7356181
1.8890092 2.4467649 2.7402263
1.912215 2.4412084 2.717365
1.9600079 2.4482 2.743099
2.0215125 2.4368367 2.7305307
2.0626588 2.4415748 2.711853
2.1311278 2.437417 2.7054386
2.1827855 2.4345372 2.7121816
2.2273579 2.4335339 2.7271483
2.2853301 2.4417689 2.7174826
2.3229828 2.4354448 2.7281256
2.3753169 2.4303844 2.71438
2.4343939 2.4413877 2.7416987
2.482502 2.4406595 2.7221878
2.5265565 2.435596 2.714129
2.5997953 2.4387255 2.7170677
2.6172221 2.4350891 2.749157
2.689733 2.4467688 2.7173541
1.5528412 2.4574487 2.7342007
1.6152017 2.4576085 2.702477
1.7829537 2.4514046 2.7241838
1.8004295 2.4505143 2.7127602
1.8619275 2.4536705 2.7240686
1.9385749 2.4513724 2.7173829
1.9781961 2.4563162 2.7153428
2.0083017 2.4506595 2.7167873
0.73943758 2.2811556 2.7870865
0.7715292 2.2782488 2.7759728
0.81739193 2.2911656 2.7816675
0.88011903 2.2923431 2.780349
0.92521399 2.2950544 2.791795
0.96323162 2.2980883 2.7735426
0.87356198 2.3080616 2.7893064
0.92942142 2.3015051 2.7652423
0.9874143 2.3080881 2.7681494
1.0210068 2.3118122 2.7683997
1.0681547 2.3097384 2.7776408
1.1239737 2.3166957 2.7757225
1.1719105 2.3277597 2.7737617
1.2303535 2.3369215 2.7917321
1.1622699 2.3511226 2.7555373
1.2221478 2.3644347 2.7728105
1.2724992 2.3814197 2.7788916
1.3176403 2.3951991 2.7797031
1.3265738 2.4020491 2.7605295
1.3697982 2.4125419 2.7792375
1.4184397 2.4185498 2.7687881
1.4747984 2.4282393 2.7694964
1.5243473 2.4345143 2.7784734
1.577172 2.437355 2.7725952
1.624121 2.4352612 2.7759264
1.6835436 2.441381 2.7778447
1.7209136 2.4352493 2.776068
1.7787169 2.4431717 2.7773018
1.8264223 2.4367628 2.7613983
1.8785721 2.4487391 2.7786872
1.9277663 2.4449637 2.7798262
1.9787016 2.4426639 2.7820938
2.0175419 2.4348757 2.7636604
2.0884414 2.4453449 2.7932549
2.2205486 2.4377418 2.7750459
2.284807 2.4360268 2.7722118
2.3159385 2.428648 2.7534308
2.369189 2.434412 2.7756891
2.4094567 2.4359069 2.7748165
2.4660277 2.4435892 2.773428
2.5367975 2.4446697 2.7751074
2.4887736 2.4660776 2.7989483
1.8395141 0.28922039 2.842509
1.8764 0.27733278 2.8453457
1.9107047 0.26620862 2.8475997
1.7904229 0.33224896 2.8250949
1.8304234 0.32413933 2.8306482
1.869792 0.31926018 2.8445258
1.780159 0.36645716 2.8306296
1.82306 0.3758488 2.8260338
1.7813808 0.42391467 2.8331299
1.825195 0.42299753 2.8282049
1.8733232 0.42589265 2.8470292
1.9005772 0.43941233 2.8472755
1.7826176 0.47787997 2.8339274
1.8163251 0.47868454 2.8233678
1.8708013 0.46918464 2.8458412
1.7361881 0.53938854 2.8468964
1.7818147 0.527031 2.8328497
1.8250173 0.52746701 2.8304656
1.8728516 0.5139215 2.8462481
2.8520741 0.51819968 2.8476751
1.731787 0.55338359 2.8374217
1.7800647 0.56422639 2.8337886
1.8303442 0.56008375 2.834094
1.8652179 0.56359845 2.8399873
2.7956007 0.57746315 2.8477325
2.8310339 0.56778103 2.8405669
0.77604961 2.2749462 2.8036058
0.82530963 2.2805614 2.8125052
0.87776637 2.2825768 2.8277204
0.92710036 2.2844996 2.8249285
0.97705883 2.2933266 2.8260932
1.0121909 2.2962818 2.8195817
1.0594729 2.2985561 2.8254268
1.1365203 2.2997062 2.8371263
1.0409524 2.303721 2.8208251
1.0887372 2.3064625 2.8268161
1.1239293 2.3085864 2.8179436
1.1710948 2.3088248 2.819772
1.2238585 2.3160272 2.8142366
1.277186 2.3258588 2.8277764
1.3270541 2.3237257 2.8307407
1.3752643 2.3297496 2.8449018
1.2914962 2.366658 2.8002162
1.3229629 2.3675747 2.80738
1.3718636 2.3740451 2.8204918
1.4255527 2.3903441 2.8346286
1.4718788 2.3991432 2.8463511
1.4271519 2.4077847 2.8105597
1.4784255 2.4130545 2.8243237
1.5216546 2.4161229 2.8284187
1.5705715 2.4261203 2.8236554
1.6264341 2.4205418 2.8241646
1.6715338 2.4334872 2.8205786
1.7206086 2.4318647 2.8270264
1.7699623 2.4396908 2.8299863
1.8310668 2.4397902 2.8283134
1.874079 2.4475198 2.815886
1.9159536 2.4357598 2.8238242
1.9698849 2.4361207 2.8218501
2.0304801 2.4439032 2.8276815
2.08568 2.4453113 2.8416831
2.1119065 2.4425621 2.8200691
2.1750727 2.4360943 2.8268063
2.2257335 2.4351571 2.8273976
2.2818303 2.4340498 2.8198404
2.3259017 2.4399731 2.8164346
2.3701725 2.4358549 2.8280241
2.4180686 2.434818 2.8258889
2.4644823 2.4417493 2.8225405
2.5262272 2.4433105 2.8325977
2.5786161 2.4350154 2.830843
2.61007 2.4254565 2.8423002
1.7722422 2.4503748 2.8133237
1.8739471 2.4502585 2.8423133
2.4936552 2.4509661 2.8187294
2.5177791 2.4551148 2.8089378
1.5018398 -0.4536097 2.8939652
1.8950251 0.29745185 2.8531659
1.9228624 0.28363264 2.8645325
1.9690862 0.27898839 2.8858628
2.0083828 0.28117651 2.8953514
2.7228832 0.28538391 2.876997
2.7749393 0.28714475 2.8647122
1.8895229 0.32864317 2.8526623
1.9259621 0.32872269 2.8716991
1.9722842 0.31930217 2.8872659
2.6811731 0.32014239 2.8957405
2.7335827 0.31593111 2.8800247
2.7564993 0.34067971 2.8738863
1.569247 0.380786 2.8788266
1.610489 0.38109243 2.8806999
1.7604223 0.37960732 2.874079
1.881765 0.37609446 2.8575251
1.9167258 0.3783389 2.8625691
1.9638929 0.37498295 2.8856397
2.6820133 0.35571083 2.8930888
2.7390206 0.35857919 2.8871396
1.5668031 0.42524067 2.8811159
1.611472 0.42705107 2.8776503
1.6513407 0.43920401 2.8971066
1.7626436 0.42298007 2.8707554
1.923815 0.42366323 2.8651071
1.9682145 0.43170586 2.8858602
1.5671048 0.47087178 2.8764429
1.6164123 0.47422099 2.8811104
1.7619442 0.47709364 2.8783369
1.9271435 0.47540024 2.8670318
1.9721456 0.47260076 2.8866963
2.8371804 0.49151281 2.8709431
2.8666737 0.48030567 2.8569145
1.5730896 0.52346647 2.8776987
1.6216985 0.52177781 2.8845518
1.6572073 0.52577966 2.8967443
1.7252846 0.5330447 2.8625112
1.7602597 0.51593858 2.8741071
1.8828726 0.54294801 2.8544054
1.9249177 0.51938856 2.8657916
1.9694649 0.53282487 2.8873847
2.7855289 0.53807926 2.8896523
2.8246872 0.53047931 2.8655524
1.5742337 0.57725477 2.8788176
1.6242189 0.57345718 2.8842533
1.6610488 0.57346678 2.8968196
1.725783 0.56754702 2.8639185
1.7599882 0.57546133 2.8649347
1.8376931 0.58040863 2.8591285
1.8924501 0.55134177 2.8518231
1.9206787 0.56525958 2.8770881
1.9861304 0.56458378 2.8946157
2.7448769 0.5780772 2.8965015
2.7752216 0.57884079 2.8774166
2.8099909 0.58045745 2.8623347
1.5732028 0.62868869 2.8780863
1.630476 0.62479907 2.8852179
1.6651881 0.61370003 2.8980627
2.9325106 0.63142526 2.8750985
1.5672797 0.67195755 2.8748879
1.6244717 0.67507142 2.8830447
1.6604049 0.68479538 2.8947375
1.5434003 0.73165536 2.8967676
1.5684592 0.72134662 2.8752837
1.6198816 0.72722727 2.8826001
1.6612409 0.70699835 2.8980601
1.5742551 0.77020383 2.8768737
1.6280531 0.77753639 2.887928
1.6619301 0.7747044 2.8979743
1.5702312 0.82220429 2.8783627
1.6237471 0.82588732 2.8875165
1.6501105 0.8470546 2.8964529
1.5700665 0.87075394 2.8835444
1.6201457 0.87493736 2.8878424
1.6540971 0.87268382 2.8980877
1.5750035 0.91822177 2.882035
1.6244997 0.9225595 2.894074
1.5742253 0.96994781 2.8815482
1.6143992 0.97854042 2.8882205
1.5822136 1.0233864 2.8843036
1.6169306 1.0219011 2.8909893
1.5816721 1.0755821 2.8915334
1.615418 1.0774398 2.8914194
1.5783771 1.1239543 2.8900089
1.6108598 1.1301117 2.8956518
1.5862455 1.1772779 2.8896751
1.6151959 1.173039 2.8910966
1.5755246 1.227084 2.895144
1.614583 1.2104626 2.8975031
1.5797621 1.3224053 2.897686
1.5803484 1.3762065 2.8936598
1.5737888 1.4239089 2.899157
0.93007541 2.2771077 2.8691988
0.97483301 2.2832928 2.8751755
1.0240909 2.2889514 2.8761358
1.0690695 2.2935686 2.8686526
1.1281359 2.2960629 2.8799639
1.1520456 2.2963006 2.8996398
1.3829467 2.2985702 2.8918011
1.1144431 2.3072524 2.8551435
1.179494 2.3048687 2.87802
1.2239546 2.3094487 2.8748093
1.2805632 2.3086183 2.8710642
1.3208094 2.3047333 2.8780789
1.3822331 2.3120716 2.863909
1.4281861 2.3216546 2.8814671
1.4684685 2.3221054 2.8908532
1.4249682 2.3627541 2.8529668
1.4779223 2.373939 2.8741438
1.5325006 2.3790159 2.8883383
1.5685556 2.3835824 2.8987689
1.5315862 2.4047432 2.8669608
1.5790384 2.4130104 2.8770998
1.6214842 2.4128556 2.8767819
1.6779127 2.4239192 2.8756633
1.7223942 2.4255974 2.8762729
1.778093 2.4247632 2.877357
1.8175268 2.428889 2.8694775
1.8774983 2.4334757 2.8752007
1.9228674 2.4290109 2.8834488
1.9642968 2.4343944 2.8753669
2.0239203 2.4398286 2.8711307
2.0723562 2.437705 2.872376
2.1355028 2.4312272 2.8802278
2.1639879 2.4307773 2.8608811
2.2268665 2.4381692 2.8810177
2.2744932 2.4376712 2.8728528
2.3193142 2.4339492 2.8601062
2.3689122 2.4351206 2.878444
2.4224427 2.4194367 2.862468
2.475035 2.4319856 2.8747356
2.5178177 2.434433 2.8746657
2.5675032 2.4328561 2.8886635
1.4949903 -0.45614302 2.915797
2.0422215 0.27556214 2.9126074
2.071039 0.28888378 2.9313021
2.0317514 0.32071313 2.9130895
2.0826962 0.33264959 2.9415016
2.6379912 0.32020861 2.931617
2.6641252 0.31967115 2.9021327
2.7184839 0.33141822 2.9016142
1.5435574 0.37568256 2.9293082
1.5574813 0.36589998 2.9041762
1.6630002 0.38622391 2.9064755
1.7313846 0.39124227 2.9236372
1.7604216 0.37681571 2.9240172
1.997064 0.37023059 2.903017
2.0270853 0.37206757 2.9063191
2.0790665 0.37379485 2.9405465
2.6324594 0.37052369 2.931406
2.6652884 0.37865913 2.9140611
2.7138882 0.36769128 2.9096465
2.7771168 0.38168705 2.9251764
2.8175159 0.3847594 2.9334974
1.5432634 0.42923298 2.9233177
1.6721255 0.41801271 2.9071333
1.7288011 0.42251605 2.9214997
1.7518845 0.4296217 2.9040847
1.9988499 0.40273985 2.9022541
2.0235009 0.42520803 2.9163845
2.0754492 0.44445559 2.9439566
2.6422095 0.41093245 2.9434891
2.6756561 0.41841719 2.934972
2.7363701 0.41720521 2.945473
2.8589396 0.44318542 2.9351504
1.5424949 0.47237483 2.920485
1.5514185 0.49066415 2.9141467
1.6734596 0.47646117 2.9075921
1.7278695 0.47578558 2.9249825
1.7521389 0.45309734 2.9018066
2.020555 0.46740493 2.913461
2.0664248 0.4771423 2.9432268
2.7731533 0.49133354 2.9238544
2.8364816 0.49452883 2.9043529
2.8662586 0.47972399 2.9202795
1.5396159 0.52769506 2.9365406
1.5516495 0.52139419 2.9106209
1.6826298 0.53012049 2.9157007
1.7259212 0.52994579 2.9231153
1.7502317 0.51173401 2.9249005
1.9861139 0.50010991 2.9039495
2.0177865 0.52030438 2.9154556
2.0651181 0.52983534 2.9374142
2.7425427 0.5360167 2.9354763
2.7690332 0.52358091 2.9179242
1.5432115 0.57521939 2.93156
1.55265 0.57542843 2.9049745
1.6821332 0.57668185 2.9081569
1.7247459 0.58303499 2.9146321
1.8955822 0.59363967 2.9162371
1.9621726 0.57269365 2.9065812
2.0360909 0.56595486 2.9358914
2.0679936 0.55974364 2.9338937
2.7328808 0.57457978 2.9299619
2.7520158 0.59766179 2.90083
1.5406063 0.6258589 2.9277968
1.5558339 0.61500752 2.9051275
1.6864712 0.62894714 2.9076962
1.7298428 0.62830293 2.9272149
1.7771161 0.61268836 2.9389348
2.7594519 0.63225025 2.9257891
2.8160071 0.64435762 2.9268138
1.5327234 0.67745328 2.9256701
1.6723504 0.66312575 2.9027364
1.7184964 0.67633492 2.9229131
1.7681592 0.67041236 2.9450989
2.7625749 0.65870816 2.9358671
2.9275119 0.65709794 2.9362969
2.9700298 0.68132764 2.9396458
1.5349476 0.72716838 2.9280791
1.6735306 0.73088008 2.9041879
1.7213815 0.72858053 2.926038
1.7663542 0.71922183 2.9424312
1.5475821 0.76707596 2.9227228
1.5532899 0.78806561 2.9175279
1.6819354 0.76676017 2.9094675
1.7276702 0.77890962 2.9273021
1.7653441 0.77707869 2.9412313
1.546665 0.83836293 2.9373777
1.5538092 0.82210594 2.9176769
1.6815519 0.81718093 2.9107931
1.7244114 0.82883614 2.9288185
1.7677714 0.82412195 2.9445214
2.9088893 0.83784378 2.9303362
1.5472254 0.87615597 2.9396839
1.5540137 0.88504893 2.9229288
1.6845784 0.87248784 2.9185734
1.7219464 0.87944084 2.9310334
1.7618338 0.85795039 2.9414816
2.8930056 0.8785122 2.9331834
2.9096425 0.86351031 2.9062998
1.5476844 0.9140473 2.9414513
1.5547175 0.93154442 2.9286695
1.646714 0.94030905 2.9045508
1.6769032 0.92019844 2.9111969
1.7296321 0.92916858 2.9368827
1.7646247 0.92120266 2.9437554
2.8891575 0.90863222 2.9208641
2.9205959 0.904405 2.9071698
1.554993 0.97674966 2.9218776
1.6309432 0.97981912 2.9013917
1.6682857 0.97424382 2.9146779
1.7199864 0.97372991 2.9349155
1.7711297 0.95700967 2.9465969
1.5451059 1.0331527 2.9451611
1.559195 1.0267583 2.9173832
1.638254 1.0318271 2.9016721
1.6753606 1.0241114 2.9186375
1.7258555 1.0271229 2.9379482
1.5480056 1.0828549 2.9376161
1.5568987 1.0716817 2.919843
1.6463426 1.060858 2.9093156
1.6766205 1.0789766 2.9182708
1.7261949 1.0849708 2.9412379
1.5560765 1.1227473 2.923125
1.6358452 1.1284159 2.9073086
1.6712332 1.1281079 2.9189367
1.7192147 1.1244648 2.9316931
1.5423583 1.1542255 2.9450555
1.5592016 1.1771539 2.9159901
1.6443276 1.1744983 2.909935
1.6768415 1.1782761 2.9182956
1.7276647 1.1796346 2.944376
1.5638218 1.2375673 2.937463
1.6308074 1.2286808 2.9046254
1.6800236 1.2357345 2.93489
1.7065179 1.2201128 2.9394794
1.5461073 1.2990779 2.9479525
1.5685121 1.2732729 2.9172795
1.6204721 1.2775198 2.9069645
1.6761848 1.2730123 2.9212244
1.7322993 1.2829367 2.9421341
1.5594188 1.3268234 2.9182673
1.6246325 1.3190949 2.9090765
1.6645141 1.3256471 2.9195206
1.7201717 1.319874 2.9401193
1.5625886 1.3755852 2.9204242
1.6324238 1.3752781 2.9171791
1.6819376 1.374558 2.933028
1.7173696 1.3895077 2.9416378
1.5624529 1.4282447 2.9227269
1.6197221 1.427586 2.9122465
1.6712492 1.4196298 2.9270842
1.7278471 1.4230906 2.9499588
1.576641 1.4725865 2.9186256
1.626866 1.4775753 2.9146912
1.6815542 1.471262 2.9366469
1.7127818 1.4579874 2.9474931
1.5736544 1.5246836 2.9291596
1.6184546 1.5238956 2.913404
1.6703796 1.5263687 2.9333215
1.7034616 1.5148655 2.9476743
1.5810456 1.5775659 2.9233756
1.6331607 1.5821851 2.9280655
1.6797255 1.5749966 2.9443266
1.5761552 1.6294453 2.9199245
1.6217383 1.62661 2.9202876
1.6653352 1.6280121 2.9339573
1.578384 1.6689148 2.9255624
1.6289717 1.6760777 2.9214134
1.6737318 1.6787421 2.9444098
1.7099327 1.6552485 2.943934
1.5797113 1.7234181 2.9270575
1.6225094 1.7206795 2.924026
1.6719636 1.7282956 2.9398644
1.5764613 1.7737509 2.9372628
1.6240234 1.7710981 2.9263859
1.5873902 1.8235128 2.9337502
1.6300598 1.8243942 2.9377992
1.6660666 1.8270118 2.9483314
1.5864311 1.8667173 2.9337428
1.6197257 1.8753959 2.935539
1.6538458 1.8673987 2.9473932
1.5849284 1.9253291 2.9408057
1.6227642 1.9248884 2.9312022
1.6650202 1.9150028 2.948483
1.5779678 1.9744262 2.9304004
1.6204666 1.9751767 2.9333029
1.6604438 1.9916903 2.9454496
1.5790499 2.0217748 2.9324875
1.6279771 2.0248446 2.9365435
1.5856305 2.0768561 2.9442039
1.6250366 2.0828965 2.9436684
1.5859762 2.1244993 2.9438238
1.6079509 2.1300874 2.9432938
1.5903215 2.1771145 2.9414546
1.6140047 2.1649487 2.9376016
1.5816922 2.2259266 2.9439373
1.6104691 2.2295938 2.9434314
1.0393058 2.2778211 2.9093235
1.0780164 2.2823892 2.9129074
1.1233439 2.2840688 2.9282069
1.1750916 2.2897143 2.933929
1.2313718 2.2966764 2.9244854
1.2837882 2.294997 2.9254498
1.3286605 2.2953553 2.9241586
1.3647126 2.2957182 2.9207714
1.4289623 2.2980504 2.9107947
1.5750359 2.2799995 2.9385958
1.6174307 2.2870429 2.9439561
1.173673 2.3046343 2.9042146
1.2735177 2.3041914 2.9175632
1.395015 2.3007796 2.929157
1.4314394 2.3020432 2.9159179
1.4916577 2.3217814 2.9200985
1.5270156 2.3209338 2.9260304
1.5783451 2.3299642 2.9341593
1.6148024 2.3223135 2.9324102
1.5454559 2.3578594 2.9109411
1.5861578 2.3717349 2.9214001
1.6308571 2.3726695 2.9263463
1.6811395 2.3909469 2.9387522
1.6165295 2.4008467 2.9021738
1.6743227 2.4102895 2.9160614
1.7281034 2.4140663 2.9300766
1.7767968 2.4186873 2.9226191
1.8348112 2.4206142 2.9198639
1.8650885 2.4189324 2.9299097
1.9215751 2.42118 2.9240603
1.9828789 2.4287157 2.9236436
2.0293827 2.4291112 2.9195836
2.0769994 2.4276788 2.9271538
2.1222878 2.4346862 2.9309309
2.1805387 2.4305677 2.9145558
2.2231908 2.4359298 2.9289911
2.2656586 2.4398859 2.9245536
2.3266315 2.4375503 2.9252269
2.383733 2.4405644 2.9299226
2.4206641 2.4375749 2.9243965
2.4750528 2.4315562 2.9269435
2.5232711 2.4291959 2.9140601
2.5667419 2.4309916 2.9400735
2.6102312 2.4335546 2.9128892
1.4730527 -0.4612065 2.9620941
1.4804869 -0.44368234 2.9854271
1.5071838 -0.44680452 2.9591892
2.1264448 0.29076254 2.9662838
2.1668408 0.28453082 2.9739413
2.637917 0.28568968 2.9514012
1.51164 0.34226769 2.9957688
2.1229844 0.32339334 2.9587092
2.1729295 0.31885368 2.9795473
2.626812 0.32207987 2.9692094
1.4954982 0.35766298 2.9988697
1.5209249 0.37184569 2.9751358
1.773988 0.38312396 2.980207
2.1287661 0.37477368 2.9701424
2.1743174 0.37076315 2.9932263
2.2004037 0.37231684 2.9960451
2.6107242 0.3701258 2.962822
1.4973531 0.42033878 2.9966936
1.5229509 0.42151427 2.9706419
2.0809729 0.42091578 2.9546685
2.1216261 0.4240849 2.9629648
2.183032 0.4212606 2.9833307
2.62603 0.4111681 2.9588776
2.6546953 0.43975067 2.9540451
2.7367582 0.42419091 2.9563611
2.7978914 0.42380816 2.9771209
2.8219757 0.43083969 2.9672337
1.4995054 0.45210427 2.9977181
1.5215801 0.47517788 2.9748008
2.0869434 0.4882468 2.9550476
2.1269469 0.47508743 2.9643128
2.1758418 0.47206721 2.9838676
2.2051916 0.4577899 2.9931364
2.647342 0.45046899 2.9784079
2.6887746 0.46201661 2.9726148
2.7200887 0.47258541 2.9631772
2.7690463 0.46642154 2.9574573
2.8321886 0.48168463 2.9714553
1.5232121 0.52677888 2.9729981
2.086025 0.51282257 2.9504063
2.1229818 0.51642424 2.9586651
2.1741278 0.53257525 2.9899638
2.2159162 0.53659058 2.9974082
2.7225034 0.54832184 2.9805293
2.7518461 0.53224844 2.9811451
1.5220958 0.57589298 2.9771042
2.0784111 0.58140612 2.9625657
2.1231558 0.55958295 2.9638355
2.1647434 0.56613982 2.9886227
2.7170815 0.57446331 2.9701974
1.5174201 0.62447023 2.9739876
1.792389 0.63573551 2.9555323
1.8280373 0.62460697 2.9627533
1.8661064 0.62983429 2.9715414
1.9144053 0.63180983 2.9913006
1.9672167 0.6109181 2.9926937
2.69485 0.60093915 2.9753544
2.7228584 0.61932272 2.9514208
2.7579236 0.64358866 2.9688063
1.4968857 0.67609578 2.9993298
1.5127944 0.67270356 2.9755926
1.8193141 0.67816752 2.9650052
1.8714309 0.66913086 2.9841247
2.7482667 0.66402698 2.9894018
2.7611742 0.67416728 2.9842701
2.9100943 0.6573658 2.9538448
2.9523499 0.68157506 2.9574308
1.5172812 0.72176886 2.9762802
1.777168 0.73059642 2.9532962
1.8258253 0.72920609 2.9667294
1.8694102 0.71477312 2.9813113
1.9157953 0.70916981 2.9975412
2.9631145 0.70303142 2.9643092
1.5287982 0.77591991 2.9707322
1.7955415 0.76712537 2.9604416
1.8303283 0.78203613 2.9758646
1.5330571 0.82315242 2.9747756
1.8198942 0.82855302 2.9755471
1.8709154 0.82693803 2.9914908
1.5266778 0.86967081 2.9807172
1.7843094 0.8879118 2.9624717
1.8312556 0.87153566 2.9785037
1.8751606 0.86450499 2.9928277
2.8783152 0.88986725 2.975482
1.5364547 0.92149097 2.9747121
1.8218222 0.91894251 2.9787948
1.8639437 0.9277072 2.9952152
2.84044 0.92761701 2.9968951
2.8695588 0.91544509 2.9588599
1.534431 0.97291225 2.9778883
1.76767 0.9839164 2.9518404
1.8224431 0.97140962 2.9791791
1.8724624 0.98737597 2.9949625
1.5344998 1.0215673 2.9770889
1.7792232 1.0289326 2.9646058
1.8282349 1.02166 2.9799974
1.8690825 1.0295951 2.9902034
2.7809527 1.0082135 2.9981952
1.5350772 1.0747148 2.9813483
1.7483867 1.0601617 2.9520202
1.7691504 1.0770497 2.9604032
1.8137178 1.0724206 2.9775207
1.856216 1.0767993 2.9920239
1.5384533 1.1254027 2.9743423
1.7792585 1.1256826 2.9674156
1.8292549 1.1196197 2.9843426
1.8611944 1.1382389 2.9828362
1.5354911 1.1738907 2.9771113
1.5538607 1.1951333 2.9571233
1.7438501 1.1658657 2.9505031
1.7846588 1.174316 2.9703591
1.831472 1.1672583 2.9874191
1.8642746 1.1715759 2.9908531
1.5374155 1.2219633 2.9795444
1.5600171 1.2241912 2.9611492
1.7358768 1.2293164 2.9540496
1.7697824 1.2252589 2.96509
1.8176495 1.2235533 2.9829288
1.5393337 1.2667735 2.9792001
1.5521693 1.2878687 2.9650609
1.7266526 1.2608296 2.9520409
1.783761 1.270528 2.9726434
1.8117914 1.2785735 2.9832704
1.5389775 1.3254862 2.9828773
1.555557 1.323356 2.9603152
1.7776301 1.3296739 2.9703169
1.8283936 1.326388 2.9938989
1.8620312 1.3471388 2.9932487
1.5415426 1.3735322 2.9760075
1.7356671 1.3646717 2.9601316
1.7699295 1.3753637 2.9691489
1.8231758 1.3776056 2.9897113
1.5389969 1.4260288 2.9906423
1.5565143 1.4290786 2.9672403
1.7137439 1.4420371 2.9557905
1.7722868 1.4239194 2.9719529
1.8240094 1.4274265 2.9930911
1.5430338 1.4763235 2.9807038
1.5615816 1.4917566 2.954246
1.7383052 1.473174 2.9619231
1.7742308 1.4652828 2.9707525
1.8284134 1.4783182 2.9955692
1.5442591 1.5239376 2.9918821
1.553284 1.5330677 2.9634225
1.7270055 1.5287769 2.9586296
1.7695924 1.518683 2.975071
1.8134592 1.5255964 2.9963961
1.8534592 1.5042461 2.9988701
1.5488276 1.5704243 2.9834561
1.5576054 1.5876013 2.9658861
1.7262766 1.5797913 2.9592366
1.7839097 1.5739942 2.9808738
1.544252 1.6252772 2.9961026
1.5609875 1.6247685 2.9654114
1.6844057 1.6129888 2.952635
1.7233536 1.6275547 2.9584777
1.7704995 1.6290897 2.9728262
1.8086734 1.622962 2.9882603
1.5572863 1.6758159 2.9763048
1.6957281 1.6665907 2.9530098
1.7416633 1.6863308 2.9678078
1.7731931 1.6742816 2.9803441
1.8108897 1.6791282 2.9970262
1.5460442 1.7480234 2.9932277
1.5558712 1.7181196 2.9701726
1.7176046 1.7209864 2.957006
1.7814593 1.7253654 2.9967499
1.5549064 1.7741175 2.9778428
1.6895509 1.7724476 2.9580879
1.7275125 1.7761625 2.9706299
1.7664843 1.7687572 2.9819603
1.802184 1.7633673 2.9996257
1.5624028 1.8257324 2.9707568
1.6893206 1.8160865 2.9594727
1.7308098 1.823668 2.977931
1.778563 1.8191363 2.9910345
1.5475497 1.8560786 2.9943223
1.5622252 1.8789707 2.9683902
1.6807731 1.8780991 2.9560146
1.7154014 1.8769958 2.9683425
1.7658371 1.8686677 2.9932625
1.5450063 1.944098 2.9939742
1.5610698 1.9228241 2.9679577
1.6967368 1.9223839 2.9698589
1.7223735 1.9313523 2.9750798
1.7578871 1.9234917 2.9869137
1.5567682 1.9742534 2.9816349
1.678676 1.9757805 2.9645634
1.7158052 1.9728985 2.9702709
1.7818213 1.9578065 2.9980347
1.5447898 2.0369749 2.9961638
1.5606333 2.0143199 2.9692361
1.6831367 2.0367854 2.9753859
1.716194 2.0358183 2.9867837
1.7592688 2.0451779 2.9979842
1.5488064 2.060039 2.9937472
1.5604502 2.0756273 2.9743083
1.6380676 2.0607417 2.954495
1.6813968 2.0717146 2.9680414
1.7380549 2.0788021 2.9972064
1.5644888 2.128608 2.973191
1.6315197 2.1286764 2.9508739
1.6703246 2.1260452 2.9703479
1.7187698 2.1234171 2.9854369
1.7525462 2.1131947 2.9942117
1.5629773 2.173568 2.9756844
1.6436167 2.1624911 2.9615409
1.6754545 2.1793847 2.966882
1.726313 2.1600583 2.9816737
1.5466056 2.2324669 2.9983079
1.5609188 2.2205887 2.9722607
1.63125 2.2152426 2.9515927
1.6735941 2.236582 2.974345
1.7243276 2.226634 2.9899969
1.1265454 2.2802429 2.9584017
1.1900126 2.2835727 2.9797184
1.2235252 2.2927628 2.9723983
1.2747265 2.2916436 2.9849966
1.3211815 2.2906852 2.9721365
1.3771391 2.2977042 2.9709182
1.413125 2.2978902 2.956696
1.5393031 2.2895925 2.9703312
1.5548201 2.2659361 2.9803095
1.6451268 2.2705848 2.9527502
1.6834425 2.2670684 2.9709077
1.7292105 2.2807996 2.9841704
1.7783024 2.2975826 2.9964056
1.4473631 2.3095944 2.9605424
1.471504 2.3056235 2.9742956
1.5189477 2.3044238 2.9619629
1.6718707 2.3224616 2.9610691
1.7183733 2.3273993 2.9747207
1.7584472 2.3240631 2.9850922
1.812071 2.3357563 2.9990785
1.6853577 2.367799 2.9566147
1.7313526 2.371897 2.968749
1.7848787 2.376061 2.9828808
1.8368869 2.3935232 2.9931154
1.7484044 2.4012368 2.9639862
1.7811571 2.407515 2.9569802
1.8270679 2.4100666 2.9661016
1.8816267 2.4117186 2.9763861
1.9288987 2.4136677 2.9759386
1.9778796 2.4172282 2.9768264
2.0223637 2.4250519 2.9718225
2.0745192 2.4209139 2.9727447
2.1265035 2.4262724 2.97405
2.1786549 2.4306793 2.9651802
2.2249281 2.4258492 2.9762039
2.2658 2.4348764 2.9827039
2.3160758 2.4326699 2.9790637
2.3630574 2.4300594 2.9766061
2.415998 2.4329388 2.9804785
2.4753311 2.4316909 2.9537165
2.5407357 2.4250822 2.974961
2.6244688 2.4357605 2.9622509
1.4493915 -0.45043167 3.0080407
1.4648683 -0.45040557 3.0024917
1.4684861 -0.43593949 3.0115454
1.484745 0.34323025 3.0154774
2.6627934 0.34691328 3.0423105
1.4858176 0.37712285 3.0194294
2.2051353 0.37311664 3.0025272
2.607604 0.3689518 3.0102232
1.4821066 0.42264923 3.0215385
1.4801146 0.47277904 3.0262771
1.5031201 0.48443076 3.0013888
2.2213845 0.48672366 3.011857
1.4827515 0.52206659 3.0268452
1.505887 0.52445078 3.0020747
2.192203 0.50949192 3.001858
2.2307069 0.51447421 3.0210569
1.4823142 0.57707322 3.0259881
2.176405 0.57994318 3.0200224
2.2250109 0.57519901 3.0213037
2.7190332 0.58798587 3.0052059
1.4866155 0.63125801 3.0236349
1.9387158 0.64539117 3.0109334
1.9781723 0.63355553 3.023519
2.0336857 0.62248236 3.0338349
2.0518229 0.64363092 3.0495887
2.7146661 0.62787557 3.0285282
1.4847264 0.68133688 3.0311651
1.8963788 0.69160479 3.0039775
1.9289017 0.67518121 3.0108559
1.9721534 0.65932435 3.0271688
2.012902 0.66265368 3.0442374
2.7345445 0.67438638 3.0072575
1.4863198 0.73130459 3.0344443
1.5034037 0.72641093 3.0042493
1.9167407 0.73742855 3.0113621
1.9731368 0.72109932 3.0352726
2.0129592 0.70954132 3.0478189
2.7480543 0.70551503 3.0166106
1.4903498 0.78337395 3.0334811
1.5095297 0.77692384 3.0077145
1.8857871 0.77631456 3.005682
1.9196138 0.77735633 3.0117912
1.974686 0.76931095 3.0320179
2.0004964 0.79570758 3.0468419
1.4913949 0.83202904 3.0375595
1.5076824 0.82779616 3.0134232
1.8913388 0.81170082 3.0077484
1.9369085 0.82313251 3.023685
1.982939 0.82307088 3.0342593
1.4885273 0.87888157 3.0377612
1.5075771 0.88178664 3.0117164
1.8775327 0.89579546 3.0018408
1.9244704 0.87493509 3.0223162
1.964807 0.87335181 3.0351117
2.8186712 0.88885885 3.0192897
1.4850807 0.91632628 3.0397072
1.5155101 0.92810178 3.0082386
1.8866296 0.94178915 3.0063858
1.9267769 0.92409277 3.0238116
1.9742129 0.92838275 3.0377402
2.7759101 0.93961352 3.0427058
2.8167324 0.92805982 3.019043
1.49145 0.97043628 3.0480473
1.5098416 0.97474331 3.0254545
1.8771591 0.96619058 3.002367
1.917551 0.97406393 3.0142581
1.9658058 0.97714531 3.0393226
2.0049264 0.97530419 3.0491507
2.7678072 0.98127949 3.0240302
1.4945341 1.0210389 3.042486
1.5126847 1.0249916 3.0191419
1.8956827 1.0216641 3.0014088
1.9239988 1.0308561 3.0227172
1.9744459 1.0240997 3.0415258
2.7419612 1.0182596 3.0298674
2.755532 1.037496 3.0155241
1.4910854 1.0730224 3.0424039
1.5169275 1.0792011 3.0182409
1.8857464 1.0841761 3.0042734
1.9265516 1.0676073 3.0232375
1.9583168 1.0758727 3.0377002
1.4904779 1.1274785 3.0474873
1.5126497 1.1254842 3.0247579
1.8842657 1.1218976 3.0096598
1.9326124 1.126925 3.0357187
1.9682513 1.1241261 3.0406277
2.0035284 1.138164 3.0391552
1.515191 1.1766864 3.024688
1.8598844 1.1983731 3.0003512
1.9185947 1.1723849 3.0204129
1.9808733 1.1769658 3.0424132
1.5152338 1.2286565 3.025116
1.8429137 1.2151715 3.0030475
1.8807499 1.2256477 3.0058913
1.9328264 1.2195896 3.0332663
1.9693855 1.2323077 3.0437846
1.5168084 1.2779137 3.0245976
1.8408802 1.2702283 3.0008194
1.8712639 1.2816809 3.0093589
1.9202322 1.2745376 3.0214114
1.9641023 1.2754108 3.0438881
1.4985578 1.3288381 3.0481384
1.5149845 1.3269622 3.0293872
1.8782921 1.3270228 3.0104985
1.9210193 1.3230325 3.019938
1.965219 1.3234452 3.0425251
1.5183372 1.3746908 3.0270114
1.8694811 1.385275 3.0066786
1.9214272 1.3799862 3.030396
1.9557805 1.3684778 3.036293
1.5225081 1.4269562 3.0319035
1.8795228 1.4265395 3.0168443
1.9283082 1.4262655 3.0297544
1.9678173 1.4207344 3.038496
1.5218047 1.4762548 3.0270138
1.8782004 1.4594597 3.0084741
1.9317517 1.4726301 3.0348072
1.9634571 1.4833009 3.0476239
1.5295289 1.5259173 3.0259652
1.838515 1.5321286 3.0006032
1.8873137 1.5254374 3.0238848
1.9257183 1.5263824 3.0331728
1.5286508 1.5758607 3.0271664
1.8327798 1.5688118 3.0023973
1.8720835 1.5798193 3.0142524
1.9191263 1.5802131 3.0299842
1.5279956 1.6298125 3.0219696
1.8428545 1.6291485 3.0109317
1.8794756 1.6293888 3.0180361
1.9193263 1.6231694 3.0334892
1.5278169 1.6782674 3.0295677
1.8402729 1.6785734 3.0055046
1.8745427 1.6821833 3.0212529
1.9246099 1.6709219 3.0445194
1.5354012 1.7296596 3.0251901
1.7993619 1.742995 3.0035
1.834101 1.7244532 3.0166383
1.8633111 1.7351582 3.026329
1.9112346 1.7196286 3.0402226
1.5287545 1.7771785 3.0293558
1.8263441 1.7754745 3.0141637
1.8751274 1.7749774 3.0268922
1.9232851 1.7813267 3.0424569
1.5322472 1.8285788 3.02706
1.8315896 1.8190863 3.0113757
1.8821888 1.8334637 3.0407081
1.9117676 1.8177695 3.0396023
1.5281811 1.8807079 3.0362327
1.7946755 1.8985224 3.0097256
1.829645 1.8799961 3.0236688
1.8696276 1.8660315 3.0290534
1.920576 1.8804778 3.0495446
1.5312204 1.922534 3.022742
1.7888806 1.9287724 3.0050402
1.8272262 1.9273896 3.0175149
1.875815 1.908563 3.0361519
1.5339773 1.9754919 3.0233383
1.7851319 1.9894342 3.0132031
1.8311449 1.9727103 3.0180256
1.8682663 1.9651852 3.0382705
1.900424 1.988869 3.0458512
1.5273784 2.0206146 3.0230217
1.7676969 2.0173049 3.0079885
1.8203857 2.02671 3.0223012
1.8767296 2.0299091 3.0459862
1.9084897 2.0158117 3.0483823
1.5287384 2.0799923 3.0306861
1.7799865 2.0804288 3.0090802
1.8274034 2.0815961 3.0325718
1.865615 2.0744884 3.0336447
1.5296236 2.126883 3.0235517
1.7863104 2.1317754 3.011235
1.825376 2.126852 3.0272865
1.8743758 2.1316893 3.0414684
1.5334046 2.1812179 3.0224433
1.7680092 2.1761887 3.0115101
1.8222113 2.1765733 3.0295417
1.8794824 2.180598 3.0411971
1.9045095 2.1831131 3.0441432
1.5264326 2.2232149 3.0263116
1.778653 2.2302289 3.0129657
1.8273441 2.2257316 3.0247898
1.8668522 2.2206943 3.0406394
1.2367603 2.28688 3.0066516
1.3287648 2.2923284 3.030436
1.4760199 2.2949762 3.0267677
1.5202965 2.2746189 3.0252309
1.7861451 2.2676158 3.0075536
1.8290179 2.2759297 3.0130382
1.8862538 2.2913375 3.0415592
1.3819103 2.3026285 3.0161564
1.429601 2.3043723 3.0240173
1.5129528 2.3047495 3.0060611
1.7888937 2.330071 3.0016191
1.819484 2.3143377 3.0034761
1.8757015 2.3288281 3.0285959
1.9243096 2.3431013 3.0423503
1.835325 2.3629723 3.0103102
1.8774017 2.3754816 3.0201299
1.9182525 2.3858986 3.026968
1.9648819 2.3934042 3.0292046
1.9253671 2.4020836 3.0043752
2.0293179 2.4268441 3.0341778
2.0746422 2.4243186 3.026895
2.1199698 2.4215336 3.0186105
2.1719985 2.4258888 3.0186667
2.232317 2.4286661 3.0355783
2.2830896 2.4302721 3.0310006
2.3270721 2.4243827 3.0252736
2.3738561 2.4209661 3.0044026
2.4210138 2.427886 3.0384946
2.4719384 2.4277461 3.0205967
2.5118697 2.4264221 3.0260062
2.0901403 0.63319886 3.0748718
2.1227436 0.62469834 3.0785611
2.1530998 0.64179802 3.0977335
2.7210608 0.63364601 3.0706177
1.9929602 0.69156396 3.0547237
2.0327566 0.68994999 3.0588787
2.0824859 0.6685819 3.0806971
2.1172428 0.67330718 3.091584
2.7207115 0.6660946 3.0762577
1.4703299 0.70957643 3.0550151
2.0336969 0.73082614 3.0587387
2.0830047 0.72211808 3.083827
2.1146147 0.72713256 3.0957448
1.4745582 0.76758379 3.0538833
2.0268281 0.77395546 3.0574169
2.0754492 0.77404618 3.0799167
1.4795275 0.82631719 3.0534239
2.039077 0.8213926 3.0670731
2.0781386 0.82673627 3.0732396
2.1262102 0.8093915 3.0972781
1.4820609 0.85182673 3.053782
1.9970516 0.88628525 3.0577769
2.0286565 0.86917245 3.0616889
2.0738945 0.87586373 3.0738878
2.1044431 0.88582379 3.0831873
2.8164806 0.88463223 3.0549903
1.4734485 0.9288432 3.0593984
1.9986563 0.9040485 3.0562837
2.0214911 0.92998898 3.0597289
2.0753899 0.92188978 3.080214
2.1154528 0.93409306 3.088995
2.7763557 0.9250493 3.0720232
1.4797506 0.97336942 3.0631225
2.0266581 0.97739673 3.0655951
2.0839796 0.9752261 3.0844743
2.7476826 0.9753958 3.0615563
1.4863234 1.0265509 3.0648515
2.0340035 1.0197783 3.0666161
2.0690925 1.0272545 3.0781333
2.107486 1.0171895 3.0925283
1.4720726 1.076918 3.0624034
1.9817432 1.0839385 3.056278
2.0250254 1.0785894 3.069643
2.0771618 1.0702564 3.0818691
1.4781033 1.130509 3.0616462
2.0272429 1.1206417 3.0650179
2.0717442 1.1220137 3.0811226
2.1063836 1.1311905 3.0967734
1.4883949 1.1786548 3.0628235
2.0297422 1.1793013 3.070874
2.065681 1.1735998 3.0786262
2.1092327 1.1504155 3.0956714
1.4822642 1.2226006 3.0664129
1.5012393 1.2014283 3.0504918
2.0295265 1.2305229 3.0698097
2.074914 1.2300916 3.078675
1.4883475 1.2773851 3.0635579
1.9919535 1.2734698 3.0538564
2.0156469 1.2811383 3.0660017
2.0685389 1.2764041 3.0855193
2.1145496 1.2882844 3.0994067
1.4838812 1.3235904 3.0697875
1.982201 1.3484565 3.0505071
2.023946 1.3259356 3.0675373
2.0734367 1.3168253 3.0866423
1.4885831 1.375893 3.0770385
1.9923764 1.381789 3.0565076
2.0276086 1.3766657 3.0638008
2.0802917 1.3787504 3.0897729
2.1066387 1.3663006 3.0988553
1.4941715 1.4231571 3.0738306
1.5066558 1.427489 3.055553
1.9970932 1.4115186 3.0538449
2.0282984 1.4254802 3.0630593
2.0715952 1.4387966 3.0932581
1.488934 1.4784732 3.083401
1.5044843 1.4755176 3.0558763
1.9947238 1.4846427 3.0626464
2.0312233 1.4731706 3.0774784
2.0717258 1.4791131 3.0915968
1.4894484 1.51977 3.0818107
1.5081068 1.5316122 3.062001
1.9478722 1.5025386 3.0530355
1.9772694 1.5292907 3.0544853
2.0228531 1.5175724 3.0725276
2.0776651 1.5360646 3.0932217
1.4856858 1.5716492 3.0804567
1.5015926 1.5744853 3.0578055
1.9742403 1.5695318 3.0533984
2.0182981 1.5741966 3.069083
2.071208 1.5678904 3.0932562
2.1254394 1.5549822 3.0992982
1.4908438 1.6279083 3.0778117
1.5089722 1.6249951 3.0551064
1.9732828 1.6285597 3.0622647
2.0229495 1.6210239 3.0791039
2.0748549 1.6205994 3.0953205
1.4851964 1.6801142 3.0840578
1.5040543 1.6813688 3.068294
1.9448606 1.6897055 3.0534885
1.9800073 1.6696601 3.0640414
2.0264978 1.6767653 3.0830154
2.0634248 1.6748452 3.0940304
1.4885285 1.7278769 3.0845089
1.5132006 1.7168766 3.0589063
1.9682662 1.7203077 3.0626745
2.0261004 1.7292886 3.0878599
2.0737391 1.7375385 3.0993512
1.4897304 1.7743485 3.0925636
1.5041201 1.7699988 3.0668342
1.9392295 1.7638533 3.0526137
1.9767696 1.7667841 3.0648279
2.0281537 1.7669168 3.0890553
2.058567 1.7773495 3.096976
1.4920775 1.8307025 3.0855517
1.5054359 1.8246645 3.0573716
1.9450406 1.8498808 3.0684652
1.9804608 1.8299927 3.0719194
2.0170977 1.8195977 3.0879316
1.4915053 1.8757623 3.0845935
1.507942 1.8823694 3.0621889
1.9346367 1.8669658 3.061913
1.9644696 1.8751011 3.0636628
2.0202208 1.867991 3.093271
1.4984562 1.9393975 3.0896554
1.5066324 1.9182961 3.0675335
1.8907423 1.9420791 3.050472
1.9220161 1.9184157 3.0566607
1.9796227 1.9296209 3.0741858
2.0233984 1.9169638 3.0981257
1.4915365 1.9696828 3.0923014
1.5109882 1.9739823 3.064065
1.9254543 1.9679853 3.0617499
1.9738874 1.988917 3.0791357
2.0168509 1.9850175 3.096956
1.4933773 2.0278544 3.0853302
1.5064516 2.0213356 3.0682068
1.8856876 2.0111895 3.0512118
1.9275577 2.02617 3.058949
1.9753318 2.0279467 3.085355
2.0099306 2.0441332 3.099514
1.4901593 2.0778763 3.0835056
1.5114887 2.0639956 3.0586364
1.9253099 2.0809569 3.0736489
1.9746982 2.0747547 3.0827205
2.013983 2.0672281 3.0949216
1.4874556 2.1292486 3.0821898
1.5048203 2.1338377 3.058027
1.9310968 2.1231606 3.0668921
1.9698224 2.1173959 3.0729403
1.4911931 2.1806941 3.0809593
1.5130346 2.1727815 3.0585427
1.9344435 2.1862993 3.0572972
1.9679214 2.1732962 3.0698254
2.0204325 2.170399 3.0996644
1.483272 2.2226903 3.0753498
1.500939 2.2272635 3.0508137
1.9142532 2.233696 3.0621252
1.9674089 2.2319164 3.0770125
2.0141642 2.2224119 3.0892041
1.3843336 2.2944055 3.0624993
1.4286181 2.2866952 3.06686
1.4735833 2.2748582 3.0639076
1.8810221 2.2565238 3.0516195
1.9247031 2.2745571 3.060427
1.9813223 2.2766342 3.0802591
2.0167894 2.2647181 3.0864127
2.0518858 2.2822578 3.0991116
1.3934759 2.3036091 3.0532346
1.9332308 2.3134713 3.0551872
1.964612 2.3279209 3.0635269
2.0191548 2.3274705 3.0876758
1.9766579 2.3610077 3.060241
2.0344682 2.3757341 3.0756111
2.0779142 2.3804059 3.0928054
1.9955312 2.4018812 3.0580056
2.0351315 2.414156 3.0565748
2.0753043 2.4070227 3.0687649
2.1148176 2.4084811 3.0722909
2.16418 2.4197803 3.0708621
2.2277682 2.4251378 3.0745354
2.2707109 2.4183445 3.0685005
2.3109672 2.4187686 3.0690799
2.3683016 2.4260738 3.0710638
2.420197 2.4168189 3.0715322
2.4675949 2.4229836 3.0781515
2.5416546 2.4239507 3.0832944
2.5775709 2.4278269 3.0936501
2.6393549 0.32448006 3.1385956
2.6613138 0.32764816 3.123539
2.7018318 0.33579782 3.123574
2.6748197 0.35326883 3.1253586
2.1826868 0.63672829 3.1070046
2.2253795 0.62395394 3.1183028
2.2664225 0.63047165 3.140753
2.1373713 0.69430232 3.1006231
2.1699641 0.67306906 3.1175652
2.2145061 0.67072344 3.1361744
2.1426694 0.7308082 3.1019189
2.1800535 0.72007865 3.1242285
2.2324281 0.73151338 3.141993
3.9572682 0.70249188 3.14712
2.1240964 0.77383339 3.1012764
2.1793542 0.77840281 3.1263442
2.1430244 0.84209353 3.1161971
2.1798418 0.82856798 3.1203897
2.1462381 0.87847549 3.1130726
2.1786385 0.87830555 3.1168058
2.2112834 0.89056122 3.1359458
2.1263607 0.91259181 3.1112213
2.1669497 0.92750812 3.1150942
2.2348726 0.92781919 3.1441493
2.1365323 0.97867429 3.1110253
2.1716456 0.97127438 3.1208744
2.2188618 0.97793216 3.145057
2.1366637 1.0314752 3.1099281
2.1690226 1.0266727 3.1244276
2.2116449 1.0235685 3.1410444
2.1242967 1.0694898 3.1051755
2.1819739 1.0787483 3.1330721
2.2144959 1.0608391 3.1354079
2.1305342 1.1192337 3.1105113
2.1842937 1.1266928 3.1462257
2.2073882 1.1292849 3.1432409
3.6679182 1.120711 3.1247053
2.1355519 1.1803352 3.10605
2.1857421 1.1725019 3.1348279
2.2158775 1.1699195 3.1444676
3.7821677 1.1644418 3.1338844
2.1182394 1.2226328 3.1073949
2.1824579 1.2207628 3.1340601
2.2032578 1.2364439 3.1428206
2.1346409 1.2692574 3.1126316
2.1818843 1.2618434 3.1396782
2.1237648 1.3275799 3.1146376
2.1559281 1.3205651 3.1170986
2.129384 1.375199 3.1138251
2.1717832 1.3907598 3.1387353
2.0974305 1.4261713 3.1017869
2.1272986 1.4296037 3.1105742
2.1781704 1.4315431 3.1342778
1.4823141 1.4615829 3.1021011
2.1276639 1.476967 3.1136806
2.1839972 1.4876847 3.1434345
2.0959764 1.5194349 3.1044378
2.1354957 1.5347725 3.1253915
2.1673484 1.525914 3.1419213
2.0925372 1.5943321 3.1099522
2.1700904 1.5786219 3.1392
1.4854937 1.6023122 3.1047986
2.0941873 1.6139311 3.1044753
2.1303983 1.6091114 3.1282923
2.0784667 1.6526741 3.1024866
2.1194258 1.6798177 3.1212211
2.1533113 1.6731598 3.1413374
2.0832694 1.7100229 3.1075287
2.1251714 1.7384231 3.1271195
2.1656604 1.7203888 3.1421669
2.0891607 1.7690858 3.1135056
2.1103406 1.7884895 3.1212468
4.0417347 1.7599727 3.1230037
1.4823859 1.8217602 3.1041954
2.0654292 1.8265492 3.1138177
2.1198852 1.8247485 3.1213825
4.0467572 1.820384 3.1477215
4.0560932 1.8485841 3.1451628
2.0485094 1.8948386 3.1121619
2.0758502 1.8781725 3.1111825
2.1370325 1.8858374 3.1469953
2.160058 1.8893439 3.1416817
1.490196 1.9428933 3.1211092
1.5038638 1.9285327 3.1099055
2.065789 1.9301726 3.112071
2.1261001 1.922222 3.1428692
2.1521111 1.9375221 3.1492333
2.044044 1.9743137 3.1094811
2.0852301 1.9676102 3.1229639
2.1180487 1.980541 3.1324441
1.4798837 2.0339377 3.1018035
2.0320795 2.0284426 3.1045604
2.0746589 2.0232925 3.1202826
2.1352837 2.0255849 3.1419492
2.0408621 2.0657957 3.1017137
2.0823627 2.0595388 3.1156731
2.1258297 2.0834317 3.1405122
2.0210621 2.1225598 3.1034493
2.0783815 2.1229613 3.1216731
2.1301003 2.1199524 3.1365235
2.1565051 2.1332903 3.1485662
1.9946265 2.1632118 3.1001492
2.0411789 2.1528366 3.1027517
2.0794265 2.1727746 3.1202419
2.1215196 2.1962724 3.1426334
2.1557975 2.1521647 3.135927
2.0322325 2.202405 3.1059427
2.0766182 2.2223196 3.1190994
2.1166015 2.2308371 3.1375232
2.0774221 2.2830133 3.1186354
2.1267085 2.2711287 3.1338971
2.0372841 2.3072979 3.1051672
2.0683889 2.3301568 3.1048155
2.1192017 2.3339808 3.131938
2.1685383 2.3452303 3.1490755
2.1233966 2.3684552 3.1184022
2.1761308 2.3836432 3.1401708
2.1446724 2.4010913 3.1156075
2.1760042 2.4136887 3.1197138
2.2186041 2.4171839 3.1254418
2.274986 2.4241471 3.1288059
2.3199618 2.4185169 3.1242726
2.3756173 2.4234767 3.1147914
2.4219627 2.4236331 3.1245923
2.4676263 2.412205 3.1396558
2.5158744 2.4186723 3.1190596
2.5671365 2.4167123 3.1355293
1.3435115 0.33913222 3.1858733
1.3452072 0.37187502 3.1873257
1.3677459 0.3718695 3.1803749
2.6363416 0.35304403 3.1500142
3.9313798 0.38371316 3.1705959
1.3451176 0.4041709 3.1843486
1.3742787 0.42103124 3.1799371
1.3399992 0.46349061 3.1807938
1.371491 0.46954215 3.1757259
1.3709025 0.5164873 3.1821404
2.289453 0.64335757 3.1537371
3.9910157 0.61734676 3.1893013
2.24757 0.67717803 3.1595473
2.2685025 0.67989063 3.1653748
2.3029919 0.67410851 3.1678438
3.9676309 0.68168038 3.1593633
2.221086 0.71000206 3.1510005
2.2864969 0.71945542 3.1723163
2.30703 0.72026062 3.1653759
1.374692 0.77175748 3.1850944
2.2295074 0.77501881 3.151155
2.2726982 0.77468741 3.1562779
2.3053105 0.75568962 3.1562421
3.9886653 0.753609 3.1636674
1.3836154 0.82469559 3.1895301
2.2382934 0.82277727 3.1544354
2.2753215 0.8235544 3.1574445
4.0300212 0.80744028 3.187458
2.2622037 0.87931556 3.1628387
2.3092422 0.86277914 3.1764197
1.3836035 0.93102938 3.1986923
2.227335 0.93288946 3.1502998
2.2899399 0.92584419 3.1708775
2.3199282 0.91233414 3.1807663
1.3843341 0.97308946 3.1913891
2.238071 0.99144191 3.1520944
2.2888918 0.97457486 3.1762538
1.3903079 1.0023441 3.199523
2.2441678 1.0212471 3.1536274
2.2847741 1.0223287 3.1768305
2.3085263 1.0247823 3.1736526
2.2318289 1.0872576 3.1549027
2.2747235 1.0766162 3.1659844
2.3150489 1.0735277 3.1701829
2.2404735 1.1096542 3.1619542
2.2734141 1.1260777 3.1692553
2.3031456 1.1409074 3.1715434
3.7742836 1.1464123 3.1744409
2.2740414 1.1768684 3.1745732
2.3075094 1.1615002 3.1720309
2.2322891 1.2242715 3.1534626
2.2792864 1.2256702 3.1675158
2.2252779 1.2697986 3.1539662
2.2783849 1.2717324 3.1710217
2.3054059 1.2811432 3.1702342
2.2200987 1.3246247 3.1605055
2.2810955 1.3295908 3.1758511
2.3027282 1.3087133 3.197129
2.1955771 1.3817112 3.1613543
2.2302802 1.3757015 3.165962
2.275409 1.3782411 3.1698895
2.3007286 1.3636075 3.1747735
2.2240362 1.4326062 3.1587629
2.2774634 1.4251515 3.1724288
2.2210848 1.4743975 3.1552231
2.2619874 1.4560554 3.1604588
2.3057888 1.4815788 3.1802282
2.2260771 1.529689 3.1699955
2.274339 1.5171663 3.1778626
2.2194955 1.5695547 3.1602368
2.2752421 1.5714383 3.1786957
2.3057506 1.5983975 3.1751962
2.1756454 1.6338186 3.1543744
2.2241268 1.6232183 3.1562631
2.2865465 1.6344719 3.1855252
4.0165534 1.6404533 3.1897926
2.1913657 1.6881078 3.1583905
2.2210934 1.6695642 3.1599693
2.2736921 1.6693796 3.1776471
2.3069949 1.6701353 3.189981
2.2173386 1.7205348 3.1599905
2.2809381 1.7209364 3.1816914
4.0262752 1.7448328 3.1808176
2.1796777 1.7776397 3.1559336
2.2250993 1.7632977 3.1689856
2.2797871 1.7747636 3.1847293
4.0309539 1.7884741 3.1752567
2.174567 1.8187311 3.1574597
2.2074187 1.8302333 3.166029
2.2828655 1.8138329 3.1945479
2.1706553 1.8616168 3.1521907
2.2223008 1.8811743 3.1679959
2.1906791 1.9269946 3.1564207
2.2304926 1.9351456 3.1792264
2.2772601 1.9405153 3.1913304
2.1777666 1.9806156 3.1596863
2.2342477 1.9860935 3.1836674
2.2763295 1.9776028 3.194164
4.0335903 1.9927686 3.197418
4.0555449 1.9917115 3.1741214
2.1850998 2.0354171 3.1604881
2.2135377 2.0241532 3.1724782
2.2661071 2.0257721 3.1897688
2.170054 2.078639 3.1565244
2.2017934 2.0804191 3.1680651
2.2595918 2.0581048 3.1926386
2.1864595 2.1336789 3.1576166
2.2205014 2.1278005 3.1778553
2.1498051 2.1855049 3.1557157
2.1889045 2.185245 3.1578071
2.2279639 2.1647539 3.1710131
2.2665727 2.1628087 3.1970546
2.1753075 2.2312052 3.1632957
2.2170868 2.2134287 3.172035
2.2504809 2.2067037 3.1910312
2.1802959 2.2764413 3.1635604
2.2284231 2.2750049 3.1838155
2.1824901 2.3191264 3.1591337
2.2227936 2.3300743 3.164387
2.2552667 2.3225884 3.1822817
2.217171 2.3754058 3.1596012
2.2694645 2.3780823 3.1758156
2.3034153 2.3716166 3.1951566
2.424047 2.3996024 3.1996253
2.2452877 2.4046247 3.162981
2.28807 2.4175961 3.1606741
2.3196321 2.408602 3.1764541
2.3735261 2.4113095 3.1737409
2.4271765 2.4132402 3.1692772
2.4707825 2.4045651 3.1780319
2.5307114 2.4219801 3.1720579
2.574651 2.422859 3.1813262
2.636194 2.4205949 3.1517973
3.9781265 0.34381658 3.2332838
3.9481015 0.38749808 3.2252018
3.9614394 0.36504978 3.2176452
3.9346721 0.42125213 3.2312922
3.9821093 0.41139334 3.2091572
1.3419958 0.53866774 3.2067795
3.9395895 0.52531475 3.2435308
3.9590132 0.59648478 3.2496212
2.7764134 0.62123442 3.2482009
3.9603324 0.63099468 3.2452936
3.9725695 0.68833518 3.2249627
3.977536 0.72669226 3.2151814
1.3353101 0.75624973 3.2042425
1.3565712 0.77545768 3.2078991
3.9664812 0.76939225 3.2258096
1.3421518 0.80968881 3.2120028
1.3705068 0.83666682 3.208281
3.9678438 0.80403507 3.2200761
1.3461878 0.89498067 3.2058394
1.3701528 0.88465858 3.2096167
2.3326564 0.89900261 3.202461
1.3677149 0.93150777 3.2055898
1.3436888 0.97143364 3.2307684
1.3690889 0.97288507 3.2117877
1.3638005 1.0242779 3.2223988
1.3769622 1.0748986 3.22773
1.3431487 1.152813 3.2347877
3.8642995 1.1668779 3.2087543
3.9116247 1.250561 3.2269909
1.3643357 1.3432075 3.2366946
1.3864179 1.3825116 3.2316954
1.3807747 1.4288139 3.2272687
4.0067687 1.6461134 3.2230499
3.9973137 1.6998385 3.2381957
4.0178633 1.7224027 3.2039936
4.0108261 1.7656132 3.225081
2.2557685 1.8445171 3.200757
2.3045642 1.8330806 3.2005367
4.0170341 1.8276972 3.2362187
2.3146324 1.8790516 3.2113106
4.0229063 1.8706833 3.224046
2.2849357 1.9273833 3.2123342
2.3190765 1.9197224 3.230557
4.0148659 1.928862 3.2294879
2.3339541 1.9918097 3.2199578
4.0170093 1.9843411 3.2305241
2.3095541 2.0078053 3.2153931
4.0075884 2.032377 3.2304783
2.2476814 2.0851789 3.2047999
2.2887096 2.085535 3.2079072
2.2580376 2.1247416 3.2024508
2.3341603 2.1186457 3.2249584
2.3545125 2.127986 3.2327771
2.3236763 2.1782095 3.2217171
2.2836781 2.2260518 3.2106018
2.3330545 2.2275715 3.2192833
1.3631791 2.2649231 3.2485683
2.2807996 2.2771173 3.2091098
2.3252969 2.2807186 3.2155895
2.3776424 2.2914329 3.2319741
2.2864573 2.3031592 3.2043176
2.3174276 2.3343155 3.2203429
2.3706775 2.3256035 3.2236509
2.4257638 2.3180208 3.2372084
2.3366995 2.3640068 3.2130122
2.3818138 2.3781552 3.2121277
2.4269135 2.3743918 3.2398827
2.4801867 2.3783839 3.2313681
2.5277448 2.3969414 3.2374711
2.342721 2.4011607 3.201062
2.5297542 2.4099865 3.2053828
2.5726652 2.4092586 3.231966
2.6111054 2.4153233 3.2175927
3.9580207 0.34495384 3.2793133
3.9399328 0.38200986 3.2746515
3.9294789 0.42308339 3.2685647
3.9162812 0.52668917 3.2866526
3.942687 0.59741592 3.2779074
2.7709918 0.61955643 3.2793345
3.9492362 0.6213448 3.2797678
3.9558206 0.64535582 3.2815149
3.9604754 0.66911769 3.2815187
2.7672138 0.70628339 3.2977314
3.9675097 0.71639401 3.2792215
3.9558365 0.77398682 3.2796826
3.9657953 0.83126128 3.2552176
3.9282229 1.1629523 3.2686381
