ply
format ascii 1.0
comment PCL generated
element vertex 1446
property float x
property float y
property float z
element camera 0
property float view_px
property float view_py
property float view_pz
property float x_axisx
property float x_axisy
property float x_axisz
property float y_axisx
property float y_axisy
property float y_axisz
property float z_axisx
property float z_axisy
property float z_axisz
property float focal
property float scalex
property float scaley
property float centerx
property float centery
property int viewportx
property int viewporty
property float k1
property float k2
end_header
-0.66897237 0.23313665 2.0197346
-0.64428997 0.23077589 2.0269179
1.0242393 0.21208222 2.0215538
-0.66493833 0.26225778 2.0315888
-0.62994361 0.27332556 2.0459352
-0.61336637 0.31056964 2.0230379
-0.59277499 0.33743536 2.003907
-0.58130985 0.36210108 2.0240765
-0.60960782 0.41826871 2.0149324
-0.59289485 0.40380922 2.0328372
-0.80561471 0.60902774 2.0361781
-0.7747736 0.62421525 2.0194128
-0.74735719 0.64602131 2.0255744
-0.74161464 0.67493886 2.0242431
-0.72636378 0.73443615 2.0087619
-0.70301318 0.77415013 2.0221915
-0.69477493 0.78220236 2.0389972
-0.7235164 0.82565194 2.0162892
-0.69416147 0.82444912 2.0373363
-0.73814112 0.86460268 2.0429473
-0.77140903 -0.50481069 2.0634856
-0.72332585 -0.51090091 2.0699914
-0.67653292 -0.51472741 2.0692549
-0.62802875 -0.51405519 2.0717523
-0.58015406 -0.51353878 2.0790668
-0.52786094 -0.51225322 2.0798967
-0.46808887 -0.51322258 2.0693409
-0.4266257 -0.513363 2.0723577
-0.36815757 -0.51792097 2.0658369
-0.32123816 -0.51504934 2.0786488
-0.27630058 -0.50964314 2.0770555
-0.22624375 -0.51446629 2.0708899
-0.17462601 -0.51496464 2.0709417
-0.12695591 -0.5168649 2.0620501
-0.079698645 -0.50957954 2.0772667
-0.02623878 -0.50713789 2.0743251
0.020509455 -0.50958759 2.0775738
0.052746337 -0.50187981 2.0646026
0.38606384 -0.50549728 2.0707269
0.41872603 -0.50794077 2.0728867
0.49581829 -0.50337869 2.0759387
0.52698654 -0.50368309 2.072001
0.57344747 -0.50380498 2.0641325
0.62212735 -0.50579727 2.063086
0.67673415 -0.50496107 2.0792487
0.72762436 -0.50645012 2.0738928
0.7710284 -0.50504726 2.0728502
0.82148051 -0.50409168 2.0799925
0.87147665 -0.50390244 2.0902448
-0.81310821 -0.47446212 2.0847902
-0.78063667 -0.49655142 2.0915508
-0.74847525 -0.4970898 2.0921018
-0.027935799 -0.49877051 2.0956111
0.062418889 -0.48897159 2.0539544
0.36901641 -0.49863386 2.073467
0.44942588 -0.49752679 2.0580728
0.46539271 -0.49832177 2.059073
0.71615505 -0.49663657 2.0979261
0.77184939 -0.49846476 2.0925694
0.83263552 -0.49456388 2.0837827
0.89060038 -0.4954212 2.0795166
0.92932117 -0.48679712 2.0742009
0.97756833 -0.48532459 2.0745499
1.016674 -0.47691745 2.0746951
1.0873652 -0.47627771 2.0745721
1.1235108 -0.47218305 2.0683966
1.2646515 -0.47074002 2.0621629
1.3302177 -0.46476316 2.0630581
-0.8143791 -0.43704027 2.0913339
2.0769162 -0.41707277 2.0556924
2.078738 -0.37727776 2.0624409
-0.073263027 -0.316652 2.0637455
-0.02728821 -0.31345838 2.0708439
0.017058274 -0.30982697 2.088043
2.0818388 -0.32794917 2.062191
-0.0714726 -0.276189 2.0551181
-0.027227191 -0.27796119 2.0690303
0.019402463 -0.27623987 2.0840766
0.052046269 -0.27736294 2.0640028
1.0333771 -0.27249107 2.0813675
-0.071415618 -0.22667198 2.0573342
-0.027173221 -0.22787477 2.0689464
0.016143857 -0.24030104 2.0823958
1.0356438 -0.22390908 2.0698018
-0.071268052 -0.17703258 2.056272
-0.02713684 -0.17807688 2.0690343
0.018409809 -0.16736719 2.0843024
0.071801387 -0.16312882 2.0685744
0.12187767 -0.1789691 2.077364
0.23681681 -0.17880121 2.0985012
1.0325511 -0.17644051 2.0710552
2.0325515 -0.16069803 2.0538347
-0.071191035 -0.1277124 2.0564489
-0.02712048 -0.1285657 2.0706289
0.023600543 -0.12405026 2.0874338
0.060952809 -0.12824146 2.0907664
1.0341341 -0.12803306 2.0690799
-0.071167633 -0.078551583 2.0572371
-0.027085159 -0.07897763 2.0690725
0.022463895 -0.079578921 2.0849776
0.058950093 -0.080922976 2.0959477
1.0349863 -0.072825409 2.0761034
-0.071157433 -0.029442195 2.0579705
-0.027086368 -0.029608758 2.0703399
0.022506796 -0.029879961 2.0895681
0.05261061 -0.020000644 2.0983419
0.31018841 -0.01004485 2.099344
1.0317103 -0.026463388 2.0668697
-0.071153991 0.024594158 2.0579588
-0.027122736 0.024762325 2.0730553
0.021458503 0.023191938 2.0912678
0.052622989 2.6851023e-05 2.0989003
0.31131744 0.02832167 2.0838268
1.0298697 0.019859321 2.0779693
-0.071273193 0.078728944 2.0604961
-0.027155034 0.079259053 2.0747666
0.018544154 0.074918255 2.0922806
0.30846655 0.060225639 2.087245
1.0289644 0.076509237 2.0712419
-0.071308851 0.12799089 2.0597072
-0.027189832 0.12897384 2.076231
0.015888862 0.12389227 2.0933175
1.024302 0.12855378 2.0743837
-0.071444452 0.17754818 2.0613022
-0.027240012 0.17887527 2.0774157
0.014109128 0.17017215 2.0932715
1.0216821 0.17186323 2.0796351
-0.70940423 0.22713679 2.0758493
-0.66941708 0.23225449 2.0716054
-0.64674568 0.22330551 2.0522895
-0.071598887 0.22735026 2.0624986
-0.027278591 0.22888938 2.0771837
0.012594461 0.22071652 2.0949171
1.0266161 0.2146485 2.0739477
-0.66281915 0.27309236 2.0646126
-0.62710136 0.26829079 2.0652528
-0.07174547 0.2773402 2.0627863
-0.028644845 0.27753982 2.078038
0.012608909 0.27120441 2.0935738
-0.589993 0.31776062 2.0632532
-0.07194028 0.3277328 2.0634673
-0.027410166 0.32587886 2.0781808
0.015017995 0.3229261 2.0947185
-0.072159804 0.37853992 2.0641332
-0.026115518 0.37365791 2.078913
0.010144533 0.37107822 2.0946672
-0.63563609 0.41525981 2.0851593
-0.072377585 0.4246299 2.0645616
-0.027577773 0.42252079 2.080121
0.011156813 0.42785379 2.0946882
-0.66394597 0.46882772 2.0793533
-0.072586671 0.47092539 2.0639014
-0.02767157 0.47443128 2.0799544
0.0099795023 0.4730221 2.0948985
-0.67359841 0.50870413 2.0861115
-0.15618023 0.54301429 2.0975199
-0.072870046 0.5231508 2.064189
-0.028643109 0.526236 2.0806112
0.0094030881 0.52390128 2.0961156
-0.78643525 0.59205163 2.0830746
-0.15576212 0.56198651 2.0882757
-0.13026972 0.56364578 2.0898786
-0.07703831 0.5650956 2.0716827
-0.027947534 0.56868857 2.0850191
0.007722693 0.5629397 2.0956376
-0.80449563 0.61811578 2.0842648
-0.78844315 0.62603647 2.0760515
-0.75648916 0.66934049 2.0876002
-0.74985504 0.67751497 2.0937283
-0.75197965 0.70100313 2.0945764
-0.72792464 0.71737045 2.0701056
-0.71801186 0.77336562 2.0845883
-0.70559692 0.82005912 2.0761309
-0.69822282 0.80900937 2.0803816
-0.73232961 0.85422707 2.0646327
-0.73162317 -0.50003958 2.1097219
-0.67338675 -0.50690806 2.1045184
-0.63018566 -0.50401109 2.1171644
-0.57564604 -0.50586015 2.1198146
-0.52248454 -0.50847042 2.1268752
-0.48015094 -0.51027763 2.1254129
-0.42145294 -0.51223665 2.1247895
-0.37116292 -0.51189083 2.1212587
-0.33072463 -0.50654346 2.1178534
-0.26486582 -0.50402886 2.1068211
-0.2222676 -0.5074876 2.107811
-0.17020495 -0.5067609 2.1192729
-0.12311785 -0.50758499 2.1223829
-0.079621024 -0.50600547 2.1162014
-0.023085352 -0.5016529 2.1190872
0.023130761 -0.50202888 2.1093268
0.053685065 -0.50059479 2.1029668
0.4276177 -0.50859106 2.1282768
0.4702172 -0.50238204 2.1220567
0.5217402 -0.50319511 2.1175067
0.57192874 -0.50587761 2.1204839
0.6242612 -0.50555855 2.1089816
0.67517304 -0.50205922 2.1219478
0.72678506 -0.50031549 2.1121216
0.79377425 -0.50226378 2.1043475
0.86860752 -0.50306422 2.1134219
-0.80858368 -0.48020071 2.1005051
-0.77594525 -0.47435459 2.1115901
-0.72481638 -0.47646445 2.1303144
-0.68505669 -0.4868167 2.1341765
-0.62464434 -0.49566516 2.1384692
-0.5908668 -0.49804497 2.1308208
-0.31539837 -0.48276344 2.1259055
-0.27521312 -0.47332755 2.1112106
-0.2254772 -0.47697037 2.1315966
-0.18556629 -0.48344725 2.1392016
-0.12211256 -0.49901575 2.1397085
-0.080821283 -0.47924563 2.1302075
-0.033652332 -0.48042211 2.1388369
0.019825986 -0.49651039 2.1312177
0.05679445 -0.48753682 2.126791
0.3743659 -0.49557003 2.1053169
0.47323895 -0.4967252 2.1287169
0.62937313 -0.49908862 2.1280463
0.67642343 -0.49703133 2.1340868
0.7387948 -0.49587762 2.1144238
0.77693582 -0.49670228 2.1347229
0.8170287 -0.49595538 2.1205354
0.87944096 -0.4957695 2.1235948
0.90794152 -0.49057522 2.1225367
0.97253656 -0.48191333 2.11516
1.0284379 -0.47912616 2.1404536
1.0803216 -0.47685847 2.1343763
1.127357 -0.47439653 2.1406569
1.1753913 -0.47051221 2.1258492
1.2041651 -0.45732591 2.1452713
-0.81008434 -0.41687772 2.1034381
-0.77575111 -0.42641091 2.1146755
-0.72673899 -0.4251928 2.1361818
-0.6950832 -0.44002399 2.1479468
-0.30679432 -0.42281193 2.1203964
-0.27333254 -0.42393443 2.1145327
-0.225173 -0.42454869 2.1359382
-0.19325168 -0.4281528 2.147259
-0.084611364 -0.42568687 2.1365445
-0.038842723 -0.43030155 2.1457336
-0.81281984 -0.3801879 2.1080966
-0.77515304 -0.38346708 2.1187124
-0.72652864 -0.37845543 2.1405182
-0.30572715 -0.37510189 2.118778
-0.27574679 -0.37780827 2.1175132
-0.22400588 -0.37312996 2.1393745
-0.19478993 -0.39480796 2.1491532
-0.084147774 -0.3719385 2.1355245
-0.038619198 -0.37111157 2.1403327
0.063847966 -0.38787162 2.1164753
-0.82264012 -0.33213666 2.1263461
-0.7198329 -0.32831433 2.146642
-0.30459997 -0.32764429 2.1159801
-0.27400193 -0.32782185 2.1199031
-0.22539118 -0.3248176 2.1399224
-0.11040016 -0.31334198 2.1370478
-0.09419515 -0.32350618 2.1186764
-0.032816313 -0.33361605 2.1023026
0.037123132 -0.31890351 2.1134636
0.056996275 -0.32294002 2.1212552
-0.71813244 -0.27732673 2.1469088
-0.30371892 -0.27564183 2.1146271
-0.27364564 -0.27622807 2.1218839
-0.22920521 -0.27817914 2.1404259
-0.11041873 -0.29795223 2.1388476
-0.09926524 -0.27497491 2.1221731
0.042968389 -0.29285607 2.1038032
1.0320169 -0.27206817 2.1286931
-0.7207424 -0.22332224 2.143687
-0.69944048 -0.21266158 2.1491735
-0.30297774 -0.22404294 2.1133916
-0.27320492 -0.22471087 2.1223872
-0.2297163 -0.22744517 2.1413968
-0.09931618 -0.22417192 2.1271393
0.0076270383 -0.21235006 2.1133339
1.0325508 -0.2286355 2.1221991
-0.71916324 -0.17505641 2.1420081
-0.6985985 -0.17522547 2.1488292
-0.30254757 -0.17286317 2.1134927
-0.27306458 -0.17354101 2.1244206
-0.23127252 -0.17645521 2.1410396
-0.09914095 -0.17291884 2.1264484
0.018698864 -0.16948931 2.1103091
0.093179032 -0.15099783 2.105824
0.12546775 -0.1633181 2.1174042
0.1754826 -0.1677219 2.1229267
0.22134614 -0.16977887 2.1164632
0.27201337 -0.17477597 2.1151135
0.30202994 -0.16514376 2.1463728
1.0327362 -0.17713329 2.1284428
-0.81159008 -0.10631341 2.1287358
-0.72061378 -0.12646985 2.1405487
-0.6953941 -0.12361389 2.1471584
-0.30784851 -0.12258933 2.1254382
-0.27282426 -0.12238618 2.1248803
-0.23021606 -0.1249471 2.1429737
-0.098963097 -0.12183791 2.1248927
0.022655422 -0.13744973 2.1055996
0.085555173 -0.1198447 2.1052697
0.1243048 -0.12164459 2.1208353
0.17287464 -0.12386966 2.1404369
0.30950898 -0.10739039 2.1281691
1.0337933 -0.125278 2.120034
-0.82339209 -0.089253612 2.1446629
-0.72195119 -0.072910391 2.1398563
-0.6912266 -0.074061386 2.1474822
-0.30892888 -0.069289975 2.1294434
-0.27266809 -0.071334615 2.1251252
-0.23338249 -0.071795195 2.1419072
-0.098699167 -0.0708756 2.120688
0.080468625 -0.066559121 2.1052227
0.12425258 -0.070906349 2.1213665
0.17292173 -0.072671779 2.1425357
1.0320753 -0.07616061 2.1233757
-0.72105366 -0.027402906 2.1386278
-0.69077307 -0.026371522 2.1468086
-0.30945006 -0.025533054 2.1296849
-0.27261752 -0.025448138 2.1253791
-0.23428245 -0.026082765 2.1422002
-0.098546453 -0.025262468 2.1180599
0.075287059 -0.025684733 2.1089013
0.12455386 -0.025364149 2.1273186
0.16572608 -0.026998339 2.1448324
0.30718851 -0.020266108 2.1138566
1.0297741 -0.027121574 2.1273625
-0.71668512 0.025046563 2.1391871
-0.69083411 0.021277037 2.1469884
-0.3088403 0.020447046 2.1255646
-0.27274403 0.020437188 2.1263669
-0.23355809 0.020565948 2.1441405
-0.098629504 0.040510178 2.1196694
0.073996991 0.021033654 2.1116343
0.12481808 0.020402092 2.1319437
0.16086368 0.018250309 2.1438856
0.30788893 0.020439275 2.1186171
1.0266862 0.021066846 2.1305354
-0.72201103 0.074166968 2.137259
-0.69086391 0.074223034 2.1462493
-0.30914837 0.071588323 2.1269169
-0.27293605 0.071485288 2.1271238
-0.23372453 0.071971416 2.1449156
-0.09864942 0.070891768 2.1195283
0.042699378 0.075311169 2.1026089
0.073277995 0.07070104 2.114347
0.125113 0.071473517 2.1360462
0.15673232 0.071953401 2.1491773
0.31123701 0.070882082 2.1056132
1.0255233 0.074686669 2.1272161
-0.72287732 0.12722091 2.1380856
-0.69218826 0.12494968 2.1467819
-0.3093465 0.12277355 2.1267436
-0.27326611 0.12266094 2.1281629
-0.23386312 0.1234264 2.1446316
-0.098895133 0.12181691 2.1232774
0.03988 0.12493514 2.1036706
0.073372409 0.1213401 2.1157939
0.12528601 0.12267628 2.1375096
0.15681258 0.10283048 2.1494839
1.0232947 0.12572688 2.1244371
-0.72261149 0.17481104 2.1349986
-0.69785792 0.1752502 2.1462941
-0.3099063 0.17421892 2.1281846
-0.27361754 0.17398471 2.1285191
-0.23484634 0.1750268 2.1444604
-0.098992132 0.17272221 2.123035
0.036759306 0.17502765 2.1031318
0.073489651 0.1721549 2.1166999
0.12550929 0.17409702 2.1390269
0.15699267 0.17499682 2.1488633
1.0196099 0.17714165 2.1273794
-0.71790576 0.21051778 2.1320233
-0.68430781 0.21582949 2.1411622
-0.31013754 0.22564077 2.1265969
-0.27391544 0.22539757 2.1276894
-0.23822485 0.22497605 2.144479
-0.098980084 0.2234921 2.1196513
0.037818395 0.22162609 2.1032872
0.073659815 0.22330089 2.1185682
0.12487824 0.22568595 2.1396644
1.0212653 0.21221571 2.1232626
-0.66488123 0.27826774 2.1419537
-0.63754016 0.29396793 2.1242375
-0.31003058 0.27500927 2.1260097
-0.27464283 0.27735168 2.1293249
-0.23873934 0.27992609 2.1448965
-0.099328674 0.27523518 2.1231704
0.037899293 0.27257553 2.1039779
0.073881201 0.27487049 2.1209948
0.12312121 0.27603704 2.139472
-0.65702653 0.3105568 2.1378458
-0.64345014 0.31258881 2.1423807
-0.31151265 0.32444057 2.1276264
-0.27639532 0.32739112 2.1276915
-0.23751552 0.32198694 2.1453896
-0.099753 0.32761225 2.1274505
0.039252236 0.32252035 2.1041133
0.074002638 0.32627648 2.119535
0.12160908 0.32548034 2.1394484
-0.31280226 0.37231264 2.1313403
-0.27447125 0.37425527 2.129277
-0.23976675 0.37548178 2.144588
-0.10015498 0.37516814 2.1309927
0.03459283 0.37786931 2.1046739
0.072892144 0.3766349 2.1207418
0.125733 0.37351751 2.1425045
-0.31205416 0.4248001 2.1287084
-0.27654466 0.42406213 2.1281796
-0.23929882 0.42413506 2.1451645
-0.10043029 0.42257985 2.131084
0.03569315 0.42520428 2.1060998
0.075880446 0.4235853 2.1223497
0.12293953 0.4235011 2.1401048
-0.67672688 0.49458277 2.1291144
-0.64672714 0.4792152 2.1323066
-0.30993268 0.47144234 2.1226804
-0.27824271 0.47633293 2.1272879
-0.24254724 0.47484064 2.1437953
-0.10096203 0.47922987 2.1347146
0.035302408 0.47723913 2.10618
0.074710809 0.47357085 2.1221218
0.11999445 0.47548613 2.1407568
-0.71624464 0.53135765 2.1270194
-0.68774837 0.52337593 2.1228483
-0.30849412 0.52383226 2.1167994
-0.27738464 0.5245266 2.1278317
-0.24209166 0.52581203 2.1448464
-0.1595445 0.54422444 2.1444206
-0.11739726 0.53603822 2.1224675
0.032677155 0.52196538 2.1052179
0.074106909 0.52596569 2.121382
0.12569571 0.52234685 2.1430991
-0.76002216 0.58664227 2.120198
-0.72224474 0.57529974 2.1405814
-0.68990004 0.55210108 2.1497438
-0.30973387 0.5728091 2.1170919
-0.27914232 0.57419235 2.1251478
-0.23759671 0.5784865 2.1420517
-0.16939527 0.5772242 2.1305144
-0.11692456 0.57125169 2.1153054
-0.090350866 0.59926063 2.1084549
-0.0076737809 0.58650184 2.1030073
0.028864641 0.57168406 2.1131871
0.07540372 0.56940669 2.126883
0.11996821 0.56558084 2.1440892
-0.77229434 0.62588406 2.1136768
-0.72660363 0.6265353 2.1376009
-0.30559745 0.62707675 2.1150177
-0.27640876 0.62236559 2.1239262
-0.22866327 0.62594575 2.1412961
-0.1836638 0.61183494 2.1486673
-0.070115797 0.60328168 2.1231246
-0.75749207 0.6579771 2.1035295
-0.7259925 0.67634803 2.1315074
-0.30807394 0.67532462 2.1186476
-0.27107286 0.67404032 2.1258936
-0.22604495 0.67366529 2.1427171
-0.19910622 0.67986399 2.149971
-0.72116184 0.72480518 2.1258512
-0.6972239 0.73588896 2.1445961
-0.30866164 0.72305238 2.1165192
-0.27218872 0.72441417 2.1239676
-0.22363906 0.72517592 2.1424417
-0.70723414 0.77093041 2.1204367
-0.69260252 0.77842999 2.1479855
-0.30989745 0.77274776 2.1180065
-0.27449179 0.77512163 2.1234491
-0.22421323 0.77425814 2.1422052
-0.7045517 0.82547796 2.1245568
-0.6958009 0.8263759 2.1460266
-0.31178549 0.82101291 2.1150537
-0.27392116 0.8265875 2.1214771
-0.2262184 0.82445735 2.1396682
-0.72865623 0.88543582 2.1260428
-0.69847137 0.85611331 2.126668
-0.31454334 0.87125063 2.1216173
-0.2764155 0.87527072 2.1203785
-0.22468227 0.87457693 2.1404138
-0.72684634 0.92109323 2.1287727
-0.3156946 0.91829455 2.1222327
-0.27795476 0.92332804 2.119225
-0.22503315 0.92647207 2.139796
-0.30598339 0.96973044 2.1098278
-0.27419159 0.97229868 2.1185813
-0.2269347 0.97712803 2.1387079
-0.19451101 0.96838903 2.1485097
-0.310866 1.0212779 2.1163485
-0.27439159 1.0234792 2.1177182
-0.22706187 1.0256785 2.1364887
-0.19375832 1.0249933 2.1484847
-0.31082422 1.0730855 2.1124001
-0.27252173 1.0740845 2.1181886
-0.22421849 1.0745232 2.1362612
-0.19717288 1.0723963 2.1470807
-0.3111608 1.121235 2.1119847
-0.27553397 1.1248431 2.1159296
-0.22482219 1.1229756 2.1377456
-0.19881806 1.1261749 2.1483483
-0.31581703 1.1706423 2.1215174
-0.27710682 1.1759766 2.11551
-0.22327787 1.1766839 2.1373255
-0.19406772 1.1592634 2.1473179
-0.31062046 1.2259322 2.1115611
-0.27344337 1.2242053 2.1163645
-0.22502577 1.2265829 2.1354194
-0.19059688 1.2294486 2.1488137
-0.30787873 1.2724408 2.1072216
-0.27696696 1.2754797 2.1155767
-0.22568858 1.2757882 2.1376259
-0.19185346 1.2719095 2.1480837
-0.3125163 1.3249688 2.1158752
-0.27467501 1.3279351 2.1189489
-0.22447157 1.3233541 2.1385455
-0.1938007 1.3311421 2.1486912
-0.31615582 1.375244 2.1235082
-0.27349967 1.3768718 2.121526
-0.22520201 1.3746871 2.1397645
-0.30894944 1.4258142 2.1125464
-0.27715102 1.422558 2.1206262
-0.22933826 1.4235971 2.1396139
-0.30940378 1.4738795 2.1186042
-0.27313179 1.4746512 2.1272497
-0.22872663 1.4726495 2.1442022
-0.31147513 1.5227562 2.1223667
-0.2773219 1.5274841 2.128041
-0.23393293 1.5251591 2.1430714
-0.31638741 1.5734282 2.128463
-0.27494338 1.576861 2.1295321
-0.2303313 1.5656643 2.1463718
-0.30717936 1.6308335 2.1239336
-0.27264383 1.6250035 2.1350803
-0.23617014 1.6215076 2.147362
-0.31021768 1.6776763 2.1253819
-0.27199009 1.674705 2.1354926
-0.24460647 1.6974663 2.1458981
-0.31317556 1.7121098 2.1332326
-0.27510625 1.7069967 2.1310661
-0.23875365 1.7124057 2.1415443
-0.56369406 -0.50217611 2.1543548
-0.52123004 -0.50245059 2.1627822
-0.46869206 -0.50505608 2.1661828
-0.41955093 -0.50417048 2.1643643
-0.38489902 -0.50429624 2.1658297
-0.12271535 -0.50141722 2.1500728
0.028818425 -0.50219995 2.1556184
0.39388156 -0.50740701 2.1543288
0.4194366 -0.50737679 2.1751738
0.53266197 -0.5030942 2.1638432
0.57757562 -0.50487947 2.1640477
0.61818081 -0.50368184 2.167938
-0.66969687 -0.46951205 2.1591058
-0.62355328 -0.47383937 2.175369
-0.5794487 -0.48362589 2.1884234
-0.52745855 -0.4976415 2.19033
-0.47751972 -0.49633649 2.1920967
-0.4326793 -0.49899745 2.160568
-0.36561352 -0.49630883 2.1814778
-0.33024582 -0.47980881 2.1770401
-0.16682281 -0.4742431 2.1553314
-0.12346156 -0.47300723 2.1681688
-0.061660845 -0.47162786 2.1845858
-0.025319882 -0.48888958 2.1686223
0.023842897 -0.49211723 2.1830041
0.055822559 -0.47803164 2.1930683
0.48936579 -0.49733233 2.1949501
0.50510001 -0.49865296 2.181843
0.57884204 -0.49756032 2.18121
0.62440014 -0.49865437 2.1777127
0.66978496 -0.49468797 2.172534
0.72525263 -0.49563101 2.1714449
0.77084607 -0.48995665 2.1754203
0.82938153 -0.4902474 2.1710799
0.86998433 -0.48937267 2.1696804
0.9225269 -0.48435864 2.1689312
0.97488731 -0.47879761 2.1642435
1.0261729 -0.47466764 2.1786616
1.0649979 -0.4727478 2.1707158
1.1256708 -0.47229293 2.1780043
1.1735264 -0.47257978 2.1772881
1.2123752 -0.46486625 2.1854548
-0.67390251 -0.42399588 2.1597562
-0.6225071 -0.42426631 2.1805887
-0.59087962 -0.42768687 2.1956599
-0.32754001 -0.42609987 2.1904924
-0.16974312 -0.42665467 2.1589978
-0.1235543 -0.42606872 2.1763523
-0.065201938 -0.42617914 2.1923244
-0.030334795 -0.42361355 2.1568778
-0.82028323 -0.35915107 2.1699178
-0.7784459 -0.36594394 2.1714358
-0.71336347 -0.36752051 2.156466
-0.6741603 -0.37594348 2.1626954
-0.62560153 -0.38158897 2.1846333
-0.59330511 -0.37920746 2.1985557
-0.32441586 -0.3745603 2.1753554
-0.1736242 -0.37428221 2.1592548
-0.12335026 -0.37808582 2.1783898
-0.067381389 -0.37492275 2.1823816
-0.034628604 -0.37403107 2.1659381
0.055221561 -0.36255983 2.1832838
-0.83261001 -0.34057039 2.1835804
-0.72537982 -0.32403928 2.1624982
-0.67272955 -0.32408422 2.168678
-0.32349145 -0.32612494 2.174159
-0.20494178 -0.33208007 2.1528983
-0.17422312 -0.32254264 2.1612008
-0.12926272 -0.32712895 2.1743326
-0.013027878 -0.34530771 2.1761262
0.0026839618 -0.34820071 2.194387
0.054576144 -0.33755285 2.1599402
-0.71916175 -0.2766003 2.1587033
-0.6777637 -0.27566358 2.1619539
-0.32192141 -0.27220207 2.1683276
-0.20425457 -0.27408281 2.1508789
-0.17404816 -0.27543801 2.163274
-0.12871346 -0.2725786 2.1756039
1.026409 -0.27388719 2.1756926
-0.70057356 -0.23964611 2.1507754
-0.67074126 -0.22440475 2.1657946
-0.32112449 -0.22452298 2.1664851
-0.20577 -0.22386593 2.1523495
-0.17378372 -0.22831261 2.163451
-0.12678346 -0.22568865 2.1760113
1.0281757 -0.22257067 2.1798379
-0.74832964 -0.15009448 2.161365
-0.67021722 -0.17671663 2.1631823
-0.64909935 -0.16018741 2.1730373
-0.31984442 -0.1768316 2.160656
-0.20771672 -0.17159525 2.1531816
-0.17354462 -0.17617165 2.1635735
-0.12762824 -0.17714068 2.1776309
0.22517315 -0.15519853 2.1582217
0.27578738 -0.15960829 2.1746848
0.30945492 -0.15862599 2.1996477
1.0295637 -0.17240724 2.1790543
-0.74756563 -0.12319715 2.1602521
-0.66962075 -0.12911087 2.160326
-0.64949012 -0.12464532 2.1758423
-0.3185862 -0.12432376 2.15446
-0.20657693 -0.11930455 2.1532271
-0.17348303 -0.12430432 2.1651499
-0.12750596 -0.12491667 2.1777673
0.19868354 -0.11863141 2.1550376
0.22580835 -0.12449723 2.1655526
0.27174029 -0.12647009 2.1879351
0.30928242 -0.14796585 2.1988971
1.02902 -0.12330779 2.1748912
-0.83179909 -0.086009271 2.1512489
-0.74421525 -0.095919676 2.1515174
-0.66470873 -0.0762389 2.16168
-0.64843339 -0.069289863 2.1739659
-0.31809044 -0.093069352 2.1521802
-0.20870881 -0.072126344 2.15364
-0.17346077 -0.07248985 2.1664
-0.12735385 -0.072757564 2.17661
0.19842502 -0.066943243 2.1536446
0.22590999 -0.072644547 2.1680367
0.27279028 -0.072003834 2.1887343
0.31146401 -0.059605058 2.1919312
1.0280539 -0.07651265 2.17116
-0.74555552 -0.010577369 2.1567736
-0.66247451 -0.026518945 2.1650138
-0.21046166 -0.025165992 2.1545553
-0.1733924 -0.025857097 2.1661792
-0.12738156 -0.02597508 2.1776755
0.19169065 -0.024028463 2.1560216
0.22600056 -0.025925813 2.1695933
0.27216721 -0.027156802 2.1912396
0.31010067 -0.038367175 2.1828477
1.0252352 -0.026539575 2.176861
-0.76528388 0.010929029 2.179955
-0.74204874 0.012585883 2.1576796
-0.66384768 0.023162756 2.1632967
-0.64901495 0.0054370514 2.1766033
-0.3354297 0.021184748 2.1981289
-0.20880289 0.020664219 2.1552801
-0.17348595 0.020757146 2.167357
-0.12738533 0.020833528 2.1776955
0.18726389 0.021975836 2.159596
0.22653565 0.020857889 2.174787
0.26729089 0.019066323 2.191365
1.0231243 0.02496977 2.1790442
-0.66448873 0.074507989 2.1609187
-0.64829123 0.069452852 2.1733904
-0.20885701 0.072250769 2.1550732
-0.17359269 0.072611243 2.1678729
-0.12743063 0.072867677 2.1776881
0.18218367 0.072341837 2.1592236
0.22686391 0.073033676 2.1771035
0.26182938 0.074639715 2.1938827
1.0218407 0.073844172 2.1735816
-0.66622138 0.12833335 2.1602225
-0.64881825 0.12826338 2.1733224
-0.20895377 0.12389139 2.154516
-0.17376882 0.12457783 2.1685205
-0.12754485 0.12500505 2.1781194
0.17633912 0.12451388 2.1586688
0.22374545 0.12576628 2.1783776
0.26187861 0.12630123 2.1927383
1.0190877 0.12487344 2.1709671
-0.67057109 0.17702514 2.1597605
-0.21060127 0.17570657 2.1545131
-0.17394547 0.17665829 2.1684067
-0.12764214 0.17720284 2.1772745
0.17509197 0.1759226 2.1593208
0.22127317 0.17681374 2.1782892
0.26085913 0.17392147 2.1942427
1.0186549 0.17258491 2.1707337
-0.66260237 0.2183226 2.1629264
-0.64981675 0.22474161 2.1713247
-0.33642772 0.22260068 2.1972625
-0.21388318 0.2291273 2.1536639
-0.17512093 0.22653326 2.1626992
-0.12610936 0.22637068 2.1682594
0.1470374 0.22697341 2.151109
0.1736801 0.22807018 2.160095
0.22370815 0.22403185 2.1808472
0.25917679 0.22335075 2.196363
1.0157797 0.21166882 2.1713102
-0.66090792 0.26270306 2.1550395
-0.64870495 0.25639644 2.1651835
-0.21408106 0.27331254 2.1543579
-0.17284733 0.2734887 2.1658068
-0.12899823 0.27377129 2.1742041
0.14737229 0.2843616 2.1515572
0.17411248 0.27540007 2.1619265
0.223179 0.27300054 2.1818256
0.25958326 0.27508715 2.1959445
-0.21407293 0.32475036 2.1562605
-0.1748547 0.32379931 2.1684959
-0.12831314 0.32485241 2.1777463
0.14765462 0.32118291 2.1522787
0.1745052 0.32288042 2.1624181
0.22352725 0.32600605 2.1805408
0.26064378 0.32337248 2.1963394
-0.32122156 0.39707729 2.1503503
-0.21542548 0.37371752 2.1560488
-0.1755397 0.37748995 2.1714413
-0.12782788 0.37483647 2.1801903
0.14797741 0.36860073 2.1520476
0.17499396 0.37601429 2.162904
0.22321761 0.37574613 2.1821973
0.25976571 0.36759982 2.196466
-0.32141912 0.40777677 2.1503668
-0.21588825 0.42767164 2.1561625
-0.17596364 0.42571187 2.1709828
-0.1300835 0.42333809 2.1828516
0.14855808 0.43257234 2.1528089
0.17449772 0.42557701 2.1623335
0.22582537 0.42421222 2.1833909
0.26011491 0.4243542 2.1957667
-0.66061568 0.496301 2.1574926
-0.324619 0.48048431 2.1622887
-0.21668975 0.47324505 2.1559646
-0.17659979 0.47471398 2.1721914
-0.12945414 0.47574949 2.1791635
0.14690536 0.47671002 2.1531994
0.1768734 0.47395742 2.1635153
0.22415398 0.47565639 2.1824262
0.26141217 0.47898751 2.1963913
-0.67025936 0.52657747 2.1596756
-0.32533312 0.52387387 2.1604321
-0.21748318 0.52458745 2.1561825
-0.17818344 0.52641648 2.1720958
-0.12869318 0.52546793 2.174206
0.14692649 0.53255898 2.1528041
0.17534822 0.52444267 2.1617837
0.22793537 0.52503443 2.1841366
0.26177087 0.52533484 2.1955454
-0.6736964 0.5782243 2.1606483
-0.62286186 0.59287333 2.1903524
-0.32797062 0.57612979 2.1696992
-0.21302703 0.573309 2.1566455
-0.19223134 0.57308322 2.1597714
-0.12447196 0.55112451 2.1732507
0.097432986 0.58968347 2.1526632
0.13148984 0.57703269 2.1615701
0.17565729 0.57052261 2.1681404
0.22396272 0.56585699 2.1854017
0.25566825 0.57052779 2.1979377
-0.67329043 0.62685084 2.1609852
-0.62411219 0.62373406 2.1834118
-0.59174895 0.62222159 2.1980848
-0.33070713 0.62936312 2.1787112
-0.20846969 0.60187203 2.15133
-0.17778945 0.62839484 2.1541233
-0.12616354 0.62482041 2.1616244
-0.070023291 0.63351518 2.1754053
-0.029384252 0.6286447 2.1830838
0.026573278 0.60799921 2.169867
0.056195363 0.60972744 2.1858141
-0.67967457 0.6735124 2.1602223
-0.62192726 0.65960538 2.1920795
-0.5867995 0.65584266 2.1944942
-0.33187068 0.67475218 2.1775632
-0.20935993 0.65746421 2.1500056
-0.17724241 0.67627698 2.1587744
-0.12433001 0.67639863 2.1725662
-0.073604144 0.67090678 2.1842327
-0.036780845 0.66122442 2.1940737
-0.6798985 0.72396553 2.158268
-0.33215979 0.70773143 2.17243
-0.20006643 0.72584021 2.1508141
-0.17747873 0.72271794 2.1590047
-0.12660885 0.7278862 2.1778605
-0.080775462 0.72527498 2.1931241
-0.70653868 0.78158808 2.1543198
-0.68209243 0.77505124 2.1622565
-0.33634183 0.76958388 2.1873996
-0.20142052 0.78986061 2.151052
-0.1748201 0.77500331 2.1601264
-0.12727454 0.77505076 2.1790168
-0.083606787 0.77760607 2.1940913
-0.68279099 0.8231951 2.1611023
-0.338503 0.8038426 2.1941991
-0.20187852 0.8132019 2.1503916
-0.1748561 0.82652754 2.1603782
-0.12890118 0.82356197 2.177913
-0.084884353 0.82761604 2.1939402
-0.68523628 0.87154275 2.1653569
-0.33948264 0.8779453 2.1812646
-0.17256598 0.87758875 2.1610916
-0.12558751 0.87211257 2.1790032
-0.085388429 0.87662286 2.1950819
-0.69210666 0.90814966 2.1505511
-0.34291714 0.91472739 2.1953239
-0.17237137 0.92535579 2.160506
-0.12422113 0.92439187 2.1785793
-0.085800461 0.92518312 2.1930063
-0.33643982 0.96850169 2.1786141
-0.16950755 0.97524416 2.1597774
-0.12461447 0.97538519 2.1771839
-0.086321056 0.97543281 2.1928089
-0.33639777 1.0234702 2.1753893
-0.16781467 1.0241368 2.1590724
-0.12498098 1.0243011 2.1760898
-0.082379289 1.026933 2.1923082
-0.33629122 1.0798726 2.1767318
-0.17011563 1.0770886 2.1581678
-0.12510239 1.0733223 2.1767404
-0.081117943 1.0766263 2.1927106
-0.34007263 1.1320311 2.186455
-0.1728489 1.1266949 2.1565199
-0.12704322 1.1243871 2.1747823
-0.083971389 1.1287831 2.190491
-0.33730525 1.1752092 2.1705987
-0.16960543 1.1754425 2.159169
-0.12718856 1.1751503 2.174932
-0.084097728 1.174958 2.1919315
-0.33671093 1.2204394 2.1700587
-0.17254727 1.2240899 2.1577046
-0.12216724 1.2241902 2.1787326
-0.079307124 1.2222743 2.1946888
-0.33736405 1.2712671 2.1772828
-0.1724208 1.274706 2.1580529
-0.12637472 1.2758754 2.1772208
-0.086273484 1.2746177 2.1948521
-0.33849019 1.3367813 2.1814475
-0.17410867 1.3230894 2.1588805
-0.12555435 1.3266878 2.1818042
-0.086293563 1.3251899 2.1981273
-0.33888927 1.3677893 2.1700323
-0.17512313 1.3798561 2.1615639
-0.12490271 1.3729842 2.1833224
-0.088695325 1.3727014 2.196523
-0.33086395 1.4372464 2.1696301
-0.20895419 1.4250388 2.1505778
-0.17517729 1.4276778 2.1637781
-0.12145647 1.4236799 2.1870172
-0.088318147 1.4099668 2.1983154
-0.33380881 1.4801525 2.1731274
-0.21191761 1.4931626 2.1561313
-0.17360578 1.475603 2.1664491
-0.12165809 1.4758208 2.1876621
-0.093384027 1.4769526 2.1988916
-0.33555523 1.5120709 2.1714282
-0.20590504 1.5230747 2.156709
-0.17174038 1.525432 2.1695485
-0.12590338 1.5272431 2.1887903
-0.09386012 1.5087061 2.1972845
-0.21185571 1.5860506 2.1601212
-0.17163073 1.5706924 2.1713758
-0.1278176 1.573784 2.1898463
-0.094958164 1.5692468 2.1993833
-0.3300181 1.635327 2.1631584
-0.21281371 1.6296543 2.1602359
-0.17513938 1.6233708 2.173595
-0.1287602 1.6286612 2.1913674
-0.3343401 1.6817691 2.1759205
-0.22448425 1.6730324 2.1590965
-0.1785455 1.6753436 2.1725564
-0.13257916 1.6745427 2.193032
-0.21875191 1.7134739 2.1589558
-0.17651527 1.7222965 2.1748819
-0.13392349 1.7227029 2.1912796
-0.34087884 1.759253 2.1895907
-0.12375338 1.7524655 2.1999707
0.42252827 -0.50962615 2.2217307
0.46586981 -0.50672257 2.2240903
0.53656977 -0.50101048 2.2043276
0.5696426 -0.50135177 2.2002919
-0.56774342 -0.4693819 2.2039354
-0.52321339 -0.47468677 2.2192085
-0.4764556 -0.47796211 2.2364495
-0.42698222 -0.49195766 2.2211912
-0.37331784 -0.487811 2.2274115
-0.34494007 -0.47253221 2.2279961
-0.013354283 -0.471715 2.2151854
0.024304004 -0.46837488 2.2254672
0.061986919 -0.46323004 2.2269411
0.48925403 -0.49727795 2.2293351
0.52689934 -0.49636921 2.2367649
0.57825071 -0.49787664 2.2352393
0.62710136 -0.49154931 2.223525
0.67491829 -0.48421052 2.2262282
0.7287221 -0.48806918 2.2222836
0.77544862 -0.48505116 2.2249396
0.82339513 -0.48312172 2.2226927
0.86788356 -0.47821912 2.2196181
0.92541665 -0.47597268 2.2251353
0.97196108 -0.47366598 2.2266302
1.029763 -0.47282642 2.2307124
1.0761824 -0.47287697 2.2152419
1.1259251 -0.4734439 2.2338076
1.1808108 -0.47084785 2.2323437
1.2218597 -0.46121439 2.2305658
-0.56635314 -0.4222222 2.2062113
-0.52197039 -0.42629048 2.2255144
-0.48219875 -0.42634574 2.2419808
-0.35725927 -0.40360272 2.2451704
-0.3435922 -0.42751426 2.2250705
-0.055704147 -0.41410047 2.2004945
-0.013330596 -0.42806 2.2168849
0.024286872 -0.42482296 2.2285414
0.058668233 -0.42812529 2.2280893
0.64538348 -0.43748713 2.2340312
0.67839259 -0.43733236 2.2265577
-0.80517799 -0.35404113 2.2059865
-0.7846365 -0.35626924 2.2071257
-0.6565432 -0.36085618 2.2348907
-0.5674817 -0.38007155 2.2083595
-0.52165002 -0.38232768 2.2295065
-0.48698243 -0.38646513 2.246217
-0.34169346 -0.37665969 2.2185516
-0.013312461 -0.3794359 2.2199025
0.025086334 -0.3762047 2.2273118
0.056026511 -0.38914418 2.2127399
-0.82305729 -0.31900835 2.2199221
-0.78649765 -0.32609513 2.2306459
-0.66270882 -0.34374514 2.2444849
-0.35642868 -0.32104129 2.2486072
-0.34067374 -0.32187241 2.2174847
-0.85334426 -0.2814973 2.2443812
-0.84979826 -0.29154551 2.2340693
-0.66443455 -0.28065008 2.2165368
-0.35601899 -0.28805497 2.2489171
-0.33980018 -0.27287844 2.2160423
1.0231323 -0.27337694 2.2250938
-0.35373455 -0.23219514 2.2385745
-0.33982533 -0.22475941 2.2197163
0.73839891 -0.23392834 2.2495487
1.0223632 -0.2249357 2.225666
-0.35444891 -0.17857537 2.2462828
-0.33918351 -0.17625156 2.2183592
0.34709945 -0.15598714 2.2348657
0.36219501 -0.16089012 2.2265048
0.73140866 -0.18898545 2.2492256
1.0248824 -0.17348681 2.2288437
-0.35414949 -0.12432359 2.2467785
-0.33878571 -0.12798432 2.2178757
0.29886225 -0.12424228 2.2018824
0.32812911 -0.12261689 2.2177849
0.36272392 -0.12352896 2.2312591
0.68890417 -0.11056096 2.2493372
0.72175729 -0.12752838 2.2486963
1.025376 -0.12709498 2.2301283
-0.65740073 -0.054018404 2.2043314
-0.35334703 -0.064692199 2.2432792
-0.33815163 -0.074548036 2.2152827
0.29877618 -0.084557198 2.2024763
0.33219686 -0.078604385 2.2192719
0.36246496 -0.075123981 2.2310078
0.6923179 -0.075286426 2.2474174
0.72956985 -0.077569142 2.2478435
1.0246969 -0.075964451 2.2210629
-0.3533327 -0.010744124 2.2437592
-0.33655417 -0.026453972 2.2055123
0.29852453 -0.021090293 2.2015734
0.3338562 -0.02313113 2.2220643
0.36268464 -0.026806725 2.2330749
0.68443942 -0.026202122 2.2422621
0.72741389 -0.027560154 2.2419486
0.75931275 -0.027699949 2.2484255
1.0223298 -0.028666737 2.2233391
-0.35288528 0.018014519 2.2408199
-0.33590451 0.021206422 2.2012823
0.29283306 0.024706354 2.203305
0.32772639 0.021357998 2.2172098
0.36269212 0.021541905 2.2330956
0.6787107 9.555462e-05 2.2368617
0.72537118 0.00010547737 2.2357974
0.75612849 0.00011228894 2.2390974
1.0199953 0.022891443 2.2241442
-0.65649712 0.086550929 2.2005053
-0.3528536 0.078180604 2.2397456
-0.33765143 0.074507661 2.2119083
0.28903958 0.073338337 2.2040255
0.32777902 0.079196148 2.2168486
0.36321968 0.075383827 2.2355809
1.020564 0.075840361 2.2254744
-0.35305786 0.12406927 2.2396712
-0.33742437 0.12760019 2.2087941
0.28665587 0.12517415 2.2049637
0.32381445 0.12807898 2.2186825
0.3638683 0.12401938 2.2381294
1.0174029 0.12487614 2.2216735
-0.66134375 0.16340211 2.2137949
-0.35362634 0.16919492 2.2413135
-0.33762586 0.17554443 2.2079399
0.28351992 0.17489821 2.2048602
0.32415694 0.17497861 2.2185264
0.36397219 0.17257996 2.2365832
1.0210116 0.17651716 2.2270708
-0.35400534 0.21627676 2.2410505
-0.33779311 0.22352862 2.206136
0.28003463 0.22191475 2.2037523
0.32379696 0.22478136 2.2201533
0.36477166 0.22699554 2.238297
1.0192208 0.21593726 2.2206533
-0.35499939 0.28193593 2.2425404
-0.33850899 0.2773059 2.2068024
0.28078222 0.27649358 2.2055914
0.32299334 0.27590442 2.2210047
0.36569956 0.27632648 2.240356
-0.35556525 0.32579929 2.2421784
-0.34020939 0.32689166 2.2135224
0.28183779 0.32499033 2.2056687
0.3267118 0.32444891 2.2223575
0.36658603 0.32587719 2.2414412
-0.35617831 0.35900861 2.2427604
-0.34055281 0.37554869 2.2106338
0.2796239 0.37520105 2.2056272
0.32320252 0.37429979 2.2199152
0.36548579 0.37728548 2.2406685
-0.35782558 0.43171331 2.244772
-0.34258986 0.42635992 2.2180004
0.28114542 0.42571568 2.2059879
0.32220063 0.42490494 2.2210023
0.36245906 0.42513484 2.238997
-0.35774332 0.46438438 2.2398708
-0.34368852 0.47642723 2.2184634
0.28371769 0.47278261 2.2068431
0.32130536 0.47530606 2.220906
0.3593767 0.47310394 2.2365737
-0.36068973 0.5287984 2.2493186
-0.34476984 0.52683675 2.2180238
0.28288272 0.52443868 2.2057822
0.32450223 0.52583295 2.2229273
0.35849157 0.52545708 2.234997
-0.62774432 0.58644211 2.209522
-0.5723142 0.59187925 2.2185197
-0.52674729 0.59311306 2.2343469
-0.49829927 0.59033239 2.2474668
-0.34450987 0.56986207 2.2090931
0.20831591 0.59514821 2.2090213
0.28239185 0.57021564 2.2103996
0.32477 0.56762069 2.2248356
0.35925013 0.56999439 2.239851
-0.56604648 0.62423372 2.2102501
-0.52356988 0.62581778 2.2296009
-0.48832852 0.62264842 2.2447879
-0.34737739 0.62381762 2.2184744
-0.013463462 0.643242 2.2043285
0.024492323 0.63699901 2.2142863
0.075280227 0.63463104 2.2295828
0.11906183 0.62027848 2.2285967
0.16751949 0.61496192 2.242276
0.22762311 0.60329306 2.238163
-0.57113153 0.65790367 2.207463
-0.52832776 0.65797466 2.2245073
-0.49481285 0.65994787 2.2450337
-0.35030976 0.67323303 2.2284741
-0.34879288 0.67762804 2.2172747
-0.051545508 0.69519591 2.204447
-0.021449288 0.68151814 2.2064822
0.024647478 0.67393422 2.2221036
0.072014794 0.67559004 2.2401316
0.10216054 0.66248173 2.2486477
-0.35205492 0.73203772 2.2275841
-0.34133634 0.72862548 2.2059772
-0.053784121 0.72005975 2.2020547
-0.024532363 0.72727257 2.2136695
0.024870472 0.72402817 2.2325981
0.065211378 0.72390097 2.2481749
-0.35591197 0.77777123 2.2276101
-0.33905861 0.78310186 2.2033181
-0.057393074 0.771474 2.204474
-0.024678007 0.77550244 2.2163818
0.024490524 0.77390581 2.2355061
0.058551282 0.77466738 2.2480602
-0.35646066 0.82546782 2.235126
-0.34059259 0.82542038 2.2034607
-0.057695817 0.82503718 2.2036994
-0.024816938 0.82408321 2.2177992
0.025161825 0.82510149 2.2369754
0.058860522 0.82359016 2.2490695
-0.35939863 0.8775329 2.2415388
-0.34148607 0.85536331 2.2018573
-0.058079921 0.88033295 2.2050049
-0.024951804 0.8730514 2.2180986
0.025288116 0.87534201 2.2365456
0.059093427 0.86622477 2.247813
-0.36203861 0.93531489 2.2434378
-0.34507242 0.93731296 2.2041111
-0.058394138 0.92965442 2.204236
-0.025083089 0.92248005 2.2174466
0.025436649 0.92529643 2.2363648
0.059473176 0.91708803 2.2498534
-0.34756681 0.99497479 2.2042074
-0.058755055 0.98018229 2.2041633
-0.025224807 0.97246146 2.2160046
0.025580881 0.97480249 2.2360046
0.059866607 0.97450238 2.2496338
-0.36620432 1.0153075 2.2479308
-0.34828025 1.0140162 2.2031865
-0.056293584 1.02555 2.2048829
-0.025406215 1.0248744 2.2177913
0.02632547 1.0241933 2.2364941
0.060196172 1.0238185 2.2483158
-0.35261291 1.0725714 2.2149653
-0.053823948 1.073723 2.2048576
-0.02555107 1.0763557 2.2152193
0.027112627 1.0744784 2.2367518
0.060643744 1.0795527 2.2490959
-0.36147797 1.1302141 2.2303765
-0.056403242 1.1201071 2.2028775
-0.027050503 1.1255106 2.2151797
0.022452386 1.1232924 2.235188
-0.36004078 1.1712475 2.2337413
-0.060296074 1.1762434 2.2018125
-0.024760567 1.1736594 2.2166255
0.023942908 1.1717315 2.2394574
-0.36375314 1.2306635 2.2380226
-0.34661472 1.2179307 2.2032557
-0.057343435 1.2266353 2.2048841
-0.02775659 1.2240764 2.2139189
0.018898111 1.2224063 2.2368917
-0.35960352 1.2784684 2.2323794
-0.065622501 1.2741261 2.204061
-0.025916586 1.2758579 2.2205489
0.021195617 1.2724891 2.2403357
0.050426245 1.2689114 2.249696
-0.35379499 1.3145266 2.2183297
-0.064748406 1.3254238 2.206485
-0.025234997 1.3259513 2.2243805
0.017933505 1.3245845 2.2393091
-0.35621953 1.3654794 2.2142811
-0.065604776 1.3752918 2.2067053
-0.026802635 1.3732262 2.2232842
0.017462362 1.3728892 2.240351
-0.3619647 1.4179662 2.2354245
-0.3457759 1.4196916 2.2023382
-0.070199214 1.4289812 2.2065535
-0.028406363 1.4226502 2.2236557
0.016281899 1.4252093 2.2406027
-0.35254714 1.4781582 2.2299223
-0.071836933 1.4734749 2.208796
-0.027305253 1.4744549 2.2269709
0.013791762 1.4780216 2.2417598
-0.35334745 1.5060916 2.2221236
-0.07259322 1.5275953 2.2107422
-0.027526205 1.5234734 2.2262571
0.0080525782 1.5278941 2.2439606
-0.35999185 1.5657598 2.2469714
-0.34646982 1.5862399 2.2281189
-0.10765054 1.5879363 2.2008789
-0.075200915 1.5760131 2.2093506
-0.026110746 1.5735068 2.2288363
0.0081033725 1.5711657 2.2425544
-0.3483375 1.6199118 2.2256629
-0.11419 1.6056908 2.2009864
-0.079606257 1.6226087 2.2091551
-0.028088799 1.626948 2.2322681
0.01360163 1.6173185 2.2436073
-0.10955909 1.6787418 2.2025983
-0.078456648 1.67392 2.2154567
-0.030870635 1.6766243 2.2309728
0.0063811364 1.6781737 2.2466807
-0.11069466 1.7340717 2.2015409
-0.077453047 1.7257028 2.2139699
-0.026091028 1.7245293 2.235214
0.0064141806 1.7242373 2.2460213
-0.11108332 1.7528576 2.2010202
-0.079615541 1.7602496 2.2113996
-0.028871244 1.767662 2.2339611
0.007538985 1.7679049 2.2467167
0.43545595 -0.50833958 2.2736092
0.46118057 -0.50668383 2.2767236
0.58233386 -0.50137889 2.2510118
-0.46037072 -0.45756918 2.2510793
-0.4263196 -0.46772087 2.2590408
-0.38028857 -0.46493712 2.2647917
0.4876467 -0.49578843 2.2670097
0.52651227 -0.49539024 2.2865217
0.58093822 -0.49123541 2.2736397
0.62771559 -0.48393321 2.270031
0.66945356 -0.47343975 2.2555659
0.72541052 -0.47965398 2.2576599
0.77926391 -0.47505859 2.2687638
0.82548088 -0.4724417 2.2699361
0.87677521 -0.47123596 2.2679329
0.91613984 -0.47085455 2.2709694
0.97220147 -0.46692681 2.2817807
1.0324773 -0.47042733 2.2824323
1.080789 -0.46803799 2.2666647
1.1151255 -0.46903196 2.2695911
1.1673216 -0.46842659 2.2761369
1.2267661 -0.46760064 2.2662642
-0.46192527 -0.42059535 2.2523124
-0.42844611 -0.42566156 2.2659311
-0.38013083 -0.4271 2.2732637
0.68482161 -0.40904096 2.292362
-0.46868429 -0.37787735 2.266324
-0.42627904 -0.37713462 2.2705128
-0.37895289 -0.37640643 2.2733822
0.67987108 -0.36097652 2.2810378
0.72446948 -0.36633235 2.2691071
0.77679777 -0.36276239 2.2718441
0.82653725 -0.35795131 2.2722042
0.87273216 -0.35984379 2.288085
0.91388774 -0.35956189 2.2956734
-0.80854678 -0.30413923 2.2546051
-0.79624188 -0.30374721 2.254432
-0.66871083 -0.33338624 2.2825532
-0.42265117 -0.32593763 2.2759559
-0.37875202 -0.32703295 2.2756984
0.67739743 -0.32330534 2.2711229
0.72472048 -0.32445502 2.2551303
0.77301234 -0.32393894 2.2593966
0.82659584 -0.3236528 2.2684424
0.87548804 -0.32706162 2.2820158
0.91775608 -0.32309926 2.292805
-0.82631254 -0.28950197 2.271229
-0.79027826 -0.28307781 2.2743444
-0.42139626 -0.27540126 2.2734959
-0.37898961 -0.27342445 2.2772927
0.64685488 -0.2597554 2.299742
0.67409867 -0.27401683 2.2695303
0.7227065 -0.27332938 2.2533855
0.77270389 -0.27521694 2.2588806
0.82417983 -0.27740487 2.2659433
0.87602431 -0.27269119 2.2804711
0.92032617 -0.27542868 2.2927659
1.0161444 -0.27087989 2.2720952
-0.45053694 -0.22108108 2.2821002
-0.42173395 -0.22417317 2.2701623
-0.37909737 -0.22389495 2.2782226
0.64603448 -0.22934727 2.2989008
0.67126423 -0.22515674 2.268723
0.72159106 -0.22462456 2.252393
0.7712189 -0.22422035 2.2583158
0.82280111 -0.22604933 2.266
0.87592983 -0.22152466 2.2785561
0.92558044 -0.22649768 2.2931325
1.0193938 -0.22634232 2.2790337
-0.42560333 -0.1756957 2.272367
-0.37769735 -0.17492801 2.275712
0.38758597 -0.16484232 2.2794058
0.64490557 -0.17450038 2.2981076
0.67227358 -0.17499329 2.2644312
0.71703434 -0.17357776 2.2515154
0.76966214 -0.17339769 2.2567809
0.82138491 -0.17485797 2.2651668
0.87603825 -0.17676505 2.2782259
0.92404115 -0.17694806 2.2903171
0.95381808 -0.16798158 2.2977052
1.0178683 -0.17707646 2.2757072
-0.45062542 -0.14371252 2.2865806
-0.42386854 -0.12522717 2.2715108
-0.37846002 -0.12624691 2.2792718
0.38749188 -0.12635538 2.2804298
0.64470595 -0.12752815 2.2994068
0.66815782 -0.12729827 2.266077
0.74881148 -0.127929 2.2505503
0.77457213 -0.12292839 2.2557046
0.82030499 -0.12390061 2.2644165
0.87381631 -0.12509242 2.2747498
0.92394507 -0.12486036 2.285495
0.95870537 -0.12147395 2.2958274
1.0168374 -0.12351167 2.2728848
-0.45141202 -0.077472612 2.2926118
-0.419135 -0.076662406 2.2713165
-0.37832808 -0.078598887 2.2765081
0.38688138 -0.076755144 2.2782359
0.64477307 -0.068981402 2.2873151
0.66537726 -0.079697058 2.2624629
0.77750027 -0.074158773 2.2555907
0.82213885 -0.071504541 2.2637668
0.87243098 -0.07374467 2.2726383
0.92700869 -0.074453548 2.282685
0.96327114 -0.07504721 2.2925825
1.0184764 -0.073337913 2.2718887
-0.45701441 -0.026902018 2.2970104
-0.41957319 -0.027352482 2.2742872
-0.37564045 -0.028369032 2.2720006
0.38611341 -0.027331477 2.2744331
0.64473641 -0.027836803 2.2807796
0.6614272 -0.029993454 2.2600462
0.78083462 -0.026537897 2.254401
0.82603699 -0.027644662 2.2609563
0.87387007 -0.029873682 2.270097
0.92575651 -0.028510399 2.2803049
0.96857983 -0.027940651 2.292608
1.0138736 -0.026815163 2.2792444
-0.45785257 0.022271056 2.297111
-0.41936553 0.02259066 2.2778912
-0.3782658 0.022610262 2.2768412
0.38686189 0.02200407 2.2788358
0.64776576 8.8831432e-05 2.2708366
0.65484113 9.0448812e-05 2.2547655
0.7851792 0.00011869531 2.2536666
0.82391661 0.00012799085 2.259758
0.87103426 0.00013984181 2.2698154
0.92581451 0.00015449403 2.2805889
0.96920294 0.00016657487 2.2919991
1.0154487 0.021206023 2.2738376
-0.45186353 0.061046045 2.2951739
-0.42299137 0.078249745 2.2721238
-0.37985033 0.076185077 2.2782891
0.38727245 0.07697133 2.2804368
1.0150881 0.075376481 2.2762132
-0.45056492 0.11063875 2.2873199
-0.42373186 0.12703073 2.2705202
-0.38210365 0.12653048 2.282028
0.38835755 0.12674552 2.2853568
1.0149379 0.12471957 2.2726359
-0.42523047 0.17565945 2.2700682
-0.37876171 0.176275 2.2752471
0.38883841 0.17654374 2.2859776
1.0142198 0.17625584 2.2718627
-0.42576346 0.22532704 2.2700267
-0.38086331 0.22701074 2.2796156
0.38989407 0.21571878 2.2900081
1.0166098 0.2145073 2.2732923
-0.42630541 0.27515033 2.2693551
-0.38036788 0.27366456 2.2786388
-0.4514966 0.32510149 2.2783508
-0.42154878 0.32523435 2.2696645
-0.38474944 0.32674211 2.284678
-0.45288405 0.35575125 2.2824166
-0.42297316 0.37612337 2.272222
-0.38028458 0.3772625 2.2803719
-0.42420861 0.42714047 2.2729478
-0.38230833 0.42608458 2.2800076
-0.42547816 0.47292826 2.27384
-0.38400584 0.47678992 2.281873
0.37695333 0.4842982 2.2520955
-0.42338923 0.52444482 2.2752872
-0.37876219 0.52226055 2.2766638
0.37893337 0.52557957 2.2580826
-0.46860451 0.58999717 2.2596848
-0.42211348 0.57619947 2.2768655
-0.37860057 0.57436198 2.2781665
0.3015027 0.59747732 2.2539306
0.38001996 0.5781728 2.2701299
-0.46265754 0.62825727 2.2551622
-0.42444944 0.62426817 2.2753391
-0.37820372 0.62561166 2.2775118
0.13376267 0.63816684 2.25772
0.17564726 0.63834488 2.2737703
0.22456929 0.63165307 2.285547
0.26522991 0.61419857 2.2761598
0.3212887 0.60342467 2.2748036
-0.46837178 0.66208625 2.2564247
-0.4239181 0.67075348 2.2697215
-0.37992302 0.67363125 2.2735105
0.091483057 0.69281638 2.2522902
0.12758632 0.67311037 2.2616034
0.17672324 0.67590642 2.2810414
0.21717386 0.66762608 2.2939069
-0.42283294 0.72564673 2.2746019
-0.3816525 0.72384483 2.273926
0.084988095 0.73252273 2.256021
0.12505569 0.72402978 2.2703383
0.17704122 0.72611117 2.2905138
0.20669256 0.70213956 2.2971938
-0.41974202 0.77187485 2.277482
-0.3836281 0.77501088 2.2750862
0.07796441 0.77756709 2.2561076
0.12548468 0.77149552 2.2734249
0.17482562 0.77877313 2.2927103
-0.419063 0.82113892 2.2791543
-0.38787374 0.8283326 2.2768397
0.081622437 0.82704264 2.2580047
0.12076003 0.82248938 2.273165
0.16529909 0.82523948 2.2905672
-0.41580874 0.87547636 2.2741449
-0.38283524 0.87342137 2.2734323
0.080326095 0.87808502 2.2581611
0.12252844 0.87442636 2.2754633
0.1694447 0.87718904 2.2929454
-0.42507243 0.94874299 2.2685323
-0.38177094 0.92337471 2.2751071
0.077963047 0.92724711 2.2576573
0.12424376 0.92265254 2.274127
0.16532348 0.92548734 2.2904494
-0.38029402 0.97381878 2.2687449
0.078540325 0.97622526 2.2567346
0.12389011 0.97348022 2.275569
0.16533028 0.97184438 2.2920804
-0.38144523 1.0247129 2.2774239
0.081578456 1.0254555 2.2587435
0.12352221 1.0248822 2.276113
0.16530907 1.0198621 2.2938516
-0.3779127 1.0726378 2.263448
0.085102871 1.0734268 2.2600393
0.12553419 1.0739433 2.2779527
0.16631965 1.0731207 2.2927394
-0.38393834 1.1274691 2.2782304
0.049461182 1.1282057 2.2516134
0.079962455 1.1270306 2.2595468
0.12769209 1.1247265 2.2811584
0.16273096 1.1242139 2.2955089
-0.37602827 1.1752952 2.2616267
0.049860477 1.1842686 2.252408
0.079341926 1.1746624 2.2603042
0.12593852 1.1737593 2.2800827
0.16566612 1.1704977 2.2945354
-0.37495661 1.2226464 2.2703826
0.074075371 1.2257018 2.2628279
0.1283959 1.223881 2.2844961
0.15894489 1.2235627 2.2960949
-0.37915587 1.2757012 2.2738595
0.038764153 1.2991713 2.2511764
0.077792339 1.2747347 2.2628164
0.12936474 1.2751453 2.284678
0.15980862 1.2603636 2.2966614
-0.37977794 1.3250614 2.2725766
0.038949657 1.3293743 2.2515852
0.073073313 1.32514 2.2632625
0.13044567 1.3253933 2.2874374
0.16111597 1.3132433 2.2978833
-0.37676671 1.3702028 2.2765832
0.039287865 1.3772441 2.2548318
0.070171349 1.3766725 2.2630961
0.11957521 1.3753507 2.2850502
