ply
format ascii 1.0
comment PCL generated
element vertex 1444
property float x
property float y
property float z
element camera 0
property float view_px
property float view_py
property float view_pz
property float x_axisx
property float x_axisy
property float x_axisz
property float y_axisx
property float y_axisy
property float y_axisz
property float z_axisx
property float z_axisy
property float z_axisz
property float focal
property float scalex
property float scaley
property float centerx
property float centery
property int viewportx
property int viewporty
property float k1
property float k2
end_header
0.92542505 -0.44709122 1.0249151
0.97462964 -0.44787738 1.021656
1.0150954 -0.44823742 1.0322341
1.0792377 -0.44857889 1.0192473
1.1227502 -0.44643325 1.0232984
1.1737975 -0.44367528 1.021742
1.2232778 -0.44137114 1.0259818
1.2751379 -0.4431363 1.017478
1.3248738 -0.44331145 1.0311286
1.3597846 -0.44127354 1.0341729
-1.0902921 -0.48026654 1.0650315
-1.0233603 -0.47856724 1.0753516
-0.97598797 -0.48148838 1.0792623
-0.9243778 -0.48266363 1.0779508
-0.87641138 -0.48381019 1.0735853
-0.8277818 -0.48676425 1.0753857
-0.7741279 -0.48929283 1.0764737
-0.72478521 -0.48998001 1.0803459
-0.67410415 -0.48944411 1.0722878
-0.62569487 -0.48769051 1.0720699
-0.57628429 -0.48721445 1.076169
-0.52520955 -0.48740819 1.0789862
-0.4725109 -0.48359832 1.0722835
-0.42125574 -0.4812178 1.0710644
-0.3742139 -0.47987673 1.0761881
-0.32522646 -0.47748083 1.074446
-0.27389202 -0.47538361 1.074578
-0.22677754 -0.47454149 1.0746251
-0.17558144 -0.47381943 1.074128
-0.12573327 -0.47329727 1.0729057
-0.075583704 -0.47238487 1.0752635
-0.026457781 -0.47257993 1.0734488
0.023471113 -0.47217426 1.0746657
0.076104544 -0.4719829 1.0750008
0.12436872 -0.47165129 1.0753306
0.17478451 -0.47188845 1.0748276
0.22398721 -0.47104779 1.0740592
0.27435362 -0.46963656 1.074118
0.32714167 -0.46911186 1.0745966
0.37550613 -0.46796614 1.073365
0.42489108 -0.466151 1.0756475
0.47685948 -0.46415141 1.0740697
0.52481735 -0.46188736 1.0730716
0.57394063 -0.46006858 1.0719271
0.62270319 -0.45813683 1.0731279
0.67342728 -0.45596322 1.0745596
0.72084332 -0.45369875 1.0719707
0.77510899 -0.45277485 1.0765567
0.81667584 -0.45183989 1.0724386
0.86087775 -0.45111391 1.0691748
0.92294198 -0.45128977 1.0735077
1.0393282 -0.45059931 1.0694134
1.1133633 -0.45162335 1.0661435
0.69168282 -0.44956726 1.0868648
0.74128985 -0.44972065 1.0606109
0.82555139 -0.44884539 1.0778372
0.87256974 -0.44760704 1.0761454
0.92418611 -0.44775736 1.0768512
0.97361493 -0.44566306 1.0746051
1.0265615 -0.44558898 1.0821173
1.0729834 -0.44735643 1.0708317
1.1335489 -0.44832572 1.0805436
1.1745141 -0.44477111 1.0705075
1.2215719 -0.44024268 1.075411
1.2796284 -0.43866786 1.0769731
1.3216609 -0.43532562 1.0711378
1.3844357 -0.43398318 1.0718467
1.403924 -0.43159699 1.0748733
-1.0235776 -0.47901163 1.1271855
-0.97200257 -0.48129061 1.1217628
-0.9258405 -0.48401964 1.1322436
-0.87129623 -0.4839699 1.1213057
-0.8223449 -0.48813456 1.1237185
-0.77346134 -0.489963 1.1232759
-0.72157317 -0.49244344 1.1298146
-0.67302239 -0.49040145 1.1216028
-0.62169999 -0.48907068 1.1212391
-0.57398254 -0.49113113 1.1221522
-0.52591521 -0.48996392 1.126915
-0.47579524 -0.4861345 1.12401
-0.42867643 -0.48425421 1.1233836
-0.3757565 -0.48193246 1.1247308
-0.32215795 -0.4788945 1.1244879
-0.27314001 -0.47681075 1.1261251
-0.22407871 -0.47495905 1.1243689
-0.17457831 -0.47465271 1.1238862
-0.12386642 -0.47364685 1.1264442
-0.074090227 -0.47273263 1.1256084
-0.02618066 -0.4728798 1.12185
0.025517557 -0.47233078 1.1251808
0.074892782 -0.4724552 1.1276027
0.12604333 -0.47217172 1.1243147
0.17601593 -0.47191069 1.1222817
0.22573766 -0.47064671 1.1246716
0.27600673 -0.47038686 1.1250058
0.32480085 -0.46919066 1.1242943
0.37829849 -0.46847904 1.1246024
0.42535853 -0.46581993 1.1271046
0.47415158 -0.46370125 1.1251897
0.524508 -0.46140712 1.1243132
0.57758075 -0.46006098 1.1241189
0.6234464 -0.456229 1.1256827
0.67605102 -0.45586836 1.1271291
0.72627169 -0.45274723 1.120592
0.77397645 -0.45238206 1.1273611
0.82337856 -0.45154905 1.1175305
0.85985333 -0.45239115 1.1479309
0.91602832 -0.45005104 1.1018355
1.1809497 -0.45251811 1.1238678
1.2078283 -0.45108163 1.1420717
0.70515078 -0.44977343 1.1252873
0.7974059 -0.44976172 1.1234915
0.82779485 -0.44845322 1.1288368
0.87661445 -0.44638258 1.1226693
0.92321348 -0.44467795 1.1250651
0.97105002 -0.44255632 1.125991
1.0244999 -0.44246152 1.1271466
1.0745883 -0.44311294 1.1235685
1.1205921 -0.44498748 1.1239996
1.1679492 -0.44554707 1.1306883
1.2305987 -0.44078264 1.1260197
1.2727799 -0.43483928 1.1214939
1.3257054 -0.43298602 1.1286235
1.3803387 -0.43079081 1.1083491
-0.58028454 -0.50114363 1.1853216
-1.0623581 -0.47326571 1.1807871
-1.030552 -0.47836083 1.1742647
-0.97580785 -0.47952679 1.1740162
-0.92611474 -0.48441797 1.1741245
-0.86898208 -0.48845577 1.168981
-0.82278001 -0.49142665 1.1745172
-0.77374262 -0.49296436 1.1735603
-0.72540325 -0.49326187 1.1750096
-0.67520225 -0.4918673 1.1735221
-0.62460476 -0.49453157 1.1729844
-0.57313699 -0.49639815 1.1792064
-0.52676511 -0.49262491 1.1748339
-0.47560734 -0.4882699 1.1728184
-0.42896688 -0.48765686 1.1764178
-0.37340102 -0.48408365 1.172832
-0.32464811 -0.48074701 1.1727107
-0.27500218 -0.47853294 1.172827
-0.22438341 -0.47692135 1.1752417
-0.17509651 -0.47557437 1.172812
-0.12460013 -0.47414863 1.1777339
-0.074525066 -0.47262412 1.1741542
-0.023043964 -0.47269616 1.1739122
0.024285829 -0.47262281 1.175764
0.074996188 -0.47240588 1.1756365
0.12289533 -0.47190785 1.1745642
0.1736479 -0.47214895 1.1759173
0.22244895 -0.47215253 1.1779673
0.27459335 -0.47102162 1.175905
0.32476696 -0.46918145 1.174953
0.37272656 -0.46882328 1.175177
0.42530003 -0.46691051 1.1787251
0.47530782 -0.46407458 1.1786647
0.52282417 -0.46026 1.1716624
0.57557309 -0.45849505 1.1741898
0.62714231 -0.45571652 1.173921
0.67467648 -0.45370546 1.1754467
0.72353846 -0.45236537 1.1733075
0.78147858 -0.45154795 1.169145
0.82315189 -0.45099673 1.175504
0.86975485 -0.45084065 1.1777751
1.1860524 -0.45011583 1.1567476
1.2036604 -0.45162416 1.1756868
0.73021752 -0.44900277 1.1854461
0.77403808 -0.44882259 1.1796372
0.82582521 -0.44868284 1.1787101
0.87231904 -0.44751802 1.1681561
0.92239982 -0.44555086 1.1794288
0.97201371 -0.44046152 1.1720775
1.0247834 -0.43990308 1.1754042
1.0784922 -0.4379015 1.1714896
1.1242114 -0.43900079 1.1775576
1.1631972 -0.44183826 1.1817611
1.2239211 -0.44562909 1.1710662
1.271474 -0.4396174 1.174282
1.3258106 -0.43597031 1.1809341
1.3602744 -0.43283537 1.1710064
-0.62362409 -0.5020802 1.2364045
-0.57515699 -0.50196981 1.2427725
-1.0701467 -0.47669435 1.2292854
-1.0260309 -0.47797287 1.2272666
-0.97529149 -0.48246449 1.224763
-0.9247368 -0.48786172 1.2223634
-0.87537831 -0.4918296 1.2228986
-0.823627 -0.49232522 1.2217684
-0.77297813 -0.49512944 1.2204744
-0.72521877 -0.49344018 1.2258185
-0.67809743 -0.4950287 1.2283186
-0.62917578 -0.49831462 1.2120781
-0.57392168 -0.49815887 1.2248641
-0.52390188 -0.49479222 1.2281059
-0.47469464 -0.49090925 1.2226392
-0.42460641 -0.49103343 1.2272714
-0.37896323 -0.48732454 1.216328
-0.32689816 -0.48411494 1.2259625
-0.27252689 -0.47978339 1.2216296
-0.22546758 -0.47792277 1.2194464
-0.17802647 -0.47633213 1.225363
-0.12318449 -0.47392637 1.2217767
-0.074172817 -0.47329363 1.2250978
-0.026834421 -0.47272432 1.2240249
0.022219589 -0.47132447 1.2251993
0.074228413 -0.47267467 1.2258699
0.12629914 -0.47244111 1.2276313
0.17685561 -0.4711993 1.2242548
0.22556061 -0.47183874 1.2271411
0.27418828 -0.47142214 1.2241762
0.32354093 -0.46952367 1.2273252
0.37497574 -0.46869764 1.225148
0.42323512 -0.46554452 1.2244928
0.47391099 -0.4637436 1.226223
0.52481675 -0.46091017 1.2229027
0.57417661 -0.45795488 1.2211066
0.62369579 -0.45589256 1.2229309
0.67141962 -0.45262721 1.2232467
0.72001839 -0.45213977 1.229378
0.77439439 -0.45016634 1.2410445
0.83720911 -0.45036423 1.2088823
0.88555771 -0.45036268 1.2094524
0.92621922 -0.4527224 1.2393084
0.95372587 -0.45014563 1.2274396
1.2565274 -0.45259652 1.2334149
0.67741978 -0.44804603 1.2265475
0.73710501 -0.44860083 1.2323641
0.77380121 -0.44724664 1.2251947
0.82342124 -0.44737259 1.2262853
0.8714385 -0.44711691 1.2262442
0.92186207 -0.44766548 1.2271731
0.97323108 -0.44394541 1.2241062
1.0238172 -0.43953505 1.2289002
1.0737877 -0.43775114 1.2244549
1.1229712 -0.43469849 1.2219213
1.1714714 -0.43351072 1.2269213
1.2222452 -0.44379094 1.2229418
1.2725465 -0.44576168 1.2209057
1.3236458 -0.44094983 1.2300066
1.3561953 -0.43389684 1.2306184
-0.70396763 -0.50085586 1.2900957
-0.67488885 -0.50281817 1.2812659
-0.62663746 -0.50345773 1.2710928
-0.57746667 -0.50233096 1.2829243
-0.54836559 -0.50237775 1.2827312
-1.1118741 -0.47518942 1.2944556
-1.0737828 -0.47651416 1.2703451
-1.022246 -0.47941828 1.2727609
-0.97530037 -0.48555756 1.2717839
-0.92429614 -0.49289691 1.2768557
-0.87335372 -0.49402699 1.277341
-0.82677728 -0.49610418 1.2708744
-0.77454096 -0.49575743 1.2738084
-0.72450137 -0.4944503 1.2731515
-0.68363947 -0.49573469 1.2585373
-0.60513246 -0.49876332 1.2529248
-0.56774575 -0.4985038 1.2651075
-0.52341896 -0.49643204 1.2827706
-0.47795507 -0.4945651 1.2776766
-0.42151928 -0.49341205 1.2768886
-0.37546754 -0.48855305 1.27125
-0.32734042 -0.48707625 1.2771914
-0.27817813 -0.48360258 1.2753552
-0.22518821 -0.48046854 1.2702668
-0.17183825 -0.47851691 1.2755545
-0.12551633 -0.47595456 1.2739717
-0.076352589 -0.47547987 1.275857
-0.026005244 -0.47372508 1.2732369
0.024757631 -0.47196648 1.2781764
0.076046892 -0.47190091 1.2774502
0.12546289 -0.47199216 1.2758375
0.17405938 -0.4722628 1.2743938
0.22352833 -0.47126254 1.2756513
0.27425379 -0.47122955 1.2754958
0.3260262 -0.46882048 1.2768718
0.37419015 -0.46815333 1.2734771
0.42488191 -0.46582061 1.2789636
0.47445732 -0.46256441 1.2752633
0.52388281 -0.45965752 1.2761565
0.57507956 -0.45741788 1.2720325
0.62508351 -0.45509031 1.2764287
0.67338377 -0.45213711 1.273629
0.71697819 -0.45174962 1.2665298
0.7863912 -0.45147786 1.2859985
0.88024235 -0.45147049 1.2616019
0.93187612 -0.45110735 1.2769092
1.0112798 -0.45076391 1.2935169
1.31745 -0.45038581 1.283991
0.68131113 -0.44889727 1.2782127
0.72514439 -0.44800135 1.2806143
0.77094454 -0.44780719 1.2751099
0.82659507 -0.44607946 1.2721505
0.86984551 -0.44640747 1.2778827
0.92101979 -0.44813749 1.2750241
0.9658643 -0.44526848 1.2731738
1.027429 -0.44137615 1.2733593
1.0772221 -0.43770409 1.2782685
1.125091 -0.43433532 1.2664757
1.1752692 -0.43220389 1.2744375
1.2351115 -0.4376874 1.2818072
1.2741162 -0.44148162 1.2769338
1.3186302 -0.44647759 1.26158
1.3613307 -0.44102728 1.2666259
-0.8346712 -0.50190091 1.3300062
-0.71197927 -0.50339556 1.3323126
-0.66869724 -0.50837868 1.3204887
-0.62530571 -0.50770909 1.3177899
-0.57409489 -0.50306946 1.3252854
-0.54716396 -0.50070661 1.3000827
-0.4728879 -0.50066602 1.3342036
-0.44408715 -0.5005632 1.3278481
-1.1258527 -0.47081077 1.3221625
-1.0756066 -0.47599944 1.3090304
-1.0245277 -0.48186731 1.3229346
-0.96940744 -0.49370357 1.3266406
-0.92233914 -0.49603501 1.3251203
-0.87129921 -0.49540523 1.3168944
-0.8176114 -0.49785954 1.3169135
-0.77601647 -0.49645722 1.3292249
-0.73213917 -0.49621734 1.3134131
-0.6997813 -0.49583927 1.3004495
-0.57118654 -0.49943578 1.3226002
-0.52564156 -0.49740833 1.3235586
-0.47305003 -0.49808654 1.3196393
-0.42102143 -0.49540773 1.3280091
-0.37355551 -0.49085623 1.3270147
-0.32571957 -0.48958907 1.32847
-0.27510107 -0.48635197 1.3295437
-0.225713 -0.48336211 1.3245225
-0.17594287 -0.4814212 1.3287247
-0.12442572 -0.47743019 1.3209279
-0.07284756 -0.47600752 1.3256415
-0.02429584 -0.47387862 1.3249327
0.024776537 -0.47269678 1.3282027
0.074847333 -0.47123176 1.3257034
0.12646794 -0.47225705 1.3270407
0.17441484 -0.47113088 1.3254379
0.2235167 -0.47079605 1.3237417
0.27388296 -0.47052568 1.3249707
0.32607919 -0.4690721 1.3262722
0.3753849 -0.46783683 1.3229456
0.42378199 -0.46497509 1.3286711
0.47381166 -0.46168765 1.3250349
0.52422756 -0.46021357 1.3275306
0.57398087 -0.45733684 1.3271282
0.62447709 -0.45428368 1.3269104
0.67398685 -0.4524357 1.3265347
0.73237938 -0.45113897 1.3392549
0.76296073 -0.45214438 1.3085661
0.81593394 -0.45039999 1.3060596
0.97265828 -0.45062476 1.3169432
1.0056146 -0.45166108 1.3010359
1.3481774 -0.45229638 1.3165681
1.3631991 -0.45298445 1.3324834
1.4025049 -0.45126656 1.3402269
0.64081848 -0.44925559 1.3205128
0.68792897 -0.44852209 1.3268193
0.72268599 -0.44829512 1.3238991
0.77569437 -0.44663593 1.3253307
0.8239547 -0.44679093 1.3242455
0.87578845 -0.44583225 1.3305991
0.92044711 -0.44760165 1.3236035
0.97651058 -0.44796485 1.3294861
1.023544 -0.44518551 1.3210595
1.0793223 -0.43761542 1.3191005
1.1181853 -0.43449584 1.3213434
1.1586554 -0.43595791 1.3444303
1.212818 -0.43898371 1.3337346
1.3126782 -0.44477364 1.3306602
1.372013 -0.44717035 1.3264967
1.4074792 -0.44397813 1.3475368
-0.90248382 -0.50305259 1.398856
-0.87693793 -0.50314176 1.370083
-0.83480442 -0.50176895 1.3673937
-0.76169878 -0.502819 1.3812921
-0.72474855 -0.50916892 1.3748788
-0.67434573 -0.51364803 1.3626455
-0.62109494 -0.51099956 1.3758552
-0.57506144 -0.50412506 1.382961
-0.52219987 -0.50243396 1.3724135
-0.47502235 -0.50392824 1.3764454
-0.44209981 -0.50314367 1.3575594
-1.060236 -0.48205996 1.3782557
-1.0206633 -0.48872393 1.3734798
-0.97346443 -0.49351051 1.3743305
-0.92487025 -0.49565753 1.3710029
-0.88177919 -0.49857759 1.3774467
-0.82765865 -0.49743521 1.3846995
-0.78350431 -0.49819952 1.3783835
-0.53639996 -0.49920854 1.3769009
-0.41830808 -0.49734175 1.3743825
-0.37356633 -0.49300715 1.3749267
-0.32399756 -0.49169052 1.373692
-0.27357981 -0.48816711 1.3771443
-0.2252191 -0.48467943 1.3739398
-0.17563149 -0.48133776 1.3714626
-0.12415088 -0.47883314 1.3685716
-0.073603511 -0.47655624 1.3738605
-0.026932025 -0.4755643 1.3792821
0.025583684 -0.47412926 1.3772523
0.078305937 -0.47231242 1.3768311
0.12603369 -0.47151414 1.3744669
0.17555326 -0.47061244 1.3730448
0.22505213 -0.47083589 1.3747813
0.27409521 -0.46990743 1.3708677
0.32307252 -0.46843839 1.372824
0.37483832 -0.46708566 1.3771451
0.4252671 -0.46395233 1.3742934
0.47700042 -0.46161193 1.3806266
0.5236519 -0.45913664 1.3754212
0.57425386 -0.45575711 1.3734386
0.62765032 -0.45473137 1.3729453
0.67495817 -0.45232138 1.3728203
0.7140559 -0.45184267 1.3777231
1.0334839 -0.45232394 1.383947
0.69200766 -0.44894823 1.3684783
0.73752922 -0.44746655 1.3704134
0.77598482 -0.44479463 1.373788
0.82395768 -0.44676653 1.3693523
0.87309182 -0.44639435 1.3776083
0.9256441 -0.44462213 1.365909
0.96938217 -0.44694737 1.3781213
1.0155123 -0.44729525 1.3742256
1.0740521 -0.44567949 1.3688145
1.122195 -0.4404839 1.3781561
1.1760163 -0.43652889 1.371528
1.220629 -0.43950009 1.3763851
1.2846177 -0.44548219 1.3579158
1.320551 -0.44386873 1.3565979
1.3870722 -0.44604236 1.3775873
1.4117216 -0.44705248 1.3803719
1.4527515 -0.44908401 1.3934643
-0.92088842 -0.50345218 1.4389905
-0.87487555 -0.50387025 1.4289116
-0.81772858 -0.50247592 1.4294018
-0.77007329 -0.50723761 1.4266109
-0.72586697 -0.52014226 1.4282554
-0.67203438 -0.51832068 1.4237573
-0.6294018 -0.51153988 1.426893
-0.57663655 -0.5047946 1.4345106
-0.53424829 -0.50633025 1.4261017
-0.47730488 -0.50829512 1.4239023
-0.43988419 -0.50155938 1.431987
-1.0679193 -0.48564413 1.4281842
-1.0254521 -0.49084693 1.4180059
-0.97346669 -0.49366081 1.426878
-0.93132555 -0.4981854 1.4137549
-0.87071288 -0.49955085 1.4328804
-0.82607079 -0.49813411 1.4174767
-0.77946496 -0.4977141 1.4069325
-0.56355226 -0.49895206 1.4135389
-0.41666791 -0.49588278 1.4201792
-0.37476715 -0.494663 1.4204317
-0.32477772 -0.49420536 1.4182791
-0.2754719 -0.49008119 1.4273055
-0.22544511 -0.48633161 1.4230381
-0.17525333 -0.48460481 1.4236289
-0.12626478 -0.48076433 1.4157799
-0.078247093 -0.47825244 1.4271312
-0.022003174 -0.47778508 1.4313089
0.023809059 -0.47467458 1.4273003
0.07429298 -0.47293377 1.423993
0.12604652 -0.4709731 1.4257408
0.17626038 -0.47075325 1.4214574
0.22492558 -0.46978173 1.4215056
0.27692384 -0.46901065 1.4210535
0.32769233 -0.46901739 1.4268684
0.37493914 -0.46733683 1.4301699
0.42500877 -0.46514598 1.4233404
0.47163859 -0.46164253 1.4331837
0.52643347 -0.45877892 1.4296049
0.57471639 -0.45610496 1.4280705
0.62497681 -0.45639536 1.4216733
0.67263407 -0.45285037 1.4224683
0.71644872 -0.45240441 1.4356772
0.75943464 -0.45122597 1.4248592
0.92681402 -0.45025557 1.4106222
1.0506532 -0.45019373 1.4154278
1.1128073 -0.45225334 1.426861
1.1557631 -0.45246267 1.4426999
1.4381589 -0.45321169 1.4308958
1.4662848 -0.451469 1.4250817
0.73309749 -0.44805855 1.4232796
0.77633423 -0.44631767 1.4270443
0.82100576 -0.44515607 1.4217417
0.8740201 -0.44671264 1.4255683
0.92398483 -0.44698292 1.4258167
0.97154421 -0.4451825 1.4240146
1.0162131 -0.44589907 1.4162836
1.0707134 -0.44795084 1.4195904
1.1288199 -0.44606891 1.4292204
1.1782732 -0.44130027 1.4239668
1.7591555 0.26355952 1.4256642
1.8070887 0.25889635 1.4472098
-0.96006614 -0.50301456 1.4907891
-0.9176206 -0.50345081 1.4760846
-0.87211305 -0.50342762 1.4784123
-0.82790267 -0.5057646 1.4786915
-0.77894163 -0.51560825 1.4752367
-0.72870803 -0.52344793 1.4731789
-0.67210472 -0.51946712 1.4771314
-0.61939228 -0.5111447 1.4752232
-0.57577664 -0.50936532 1.4769578
-0.46928883 -0.50905168 1.488163
-0.42608309 -0.50195283 1.4783993
-0.3743948 -0.50160527 1.478928
-0.33538732 -0.50211298 1.491868
-1.1086345 -0.48182026 1.4827579
-1.0712868 -0.48545536 1.4680763
-1.0301187 -0.49365914 1.4726967
-0.97948486 -0.49575719 1.4738863
-0.92534781 -0.49817222 1.4661942
-0.86468703 -0.49809369 1.4836746
-0.41146141 -0.49889177 1.4685965
-0.36227658 -0.49901113 1.4657394
-0.32045743 -0.49697101 1.4702868
-0.2701349 -0.49160069 1.4799119
-0.22379361 -0.48921937 1.4756763
-0.17373499 -0.48649594 1.4752271
-0.123569 -0.48348919 1.4703796
-0.076545067 -0.48020208 1.4800843
-0.029568687 -0.47832659 1.476404
0.022378242 -0.4743658 1.4706945
0.074266657 -0.47358555 1.4773158
0.12697057 -0.47167528 1.476369
0.17624463 -0.47056392 1.4757358
0.22517924 -0.46949354 1.470341
0.27484134 -0.46933621 1.4783159
0.32378811 -0.46896303 1.4754894
0.37706313 -0.46735504 1.4741317
0.42629632 -0.46571544 1.4707338
0.47800738 -0.46091339 1.4780964
0.52562088 -0.45822859 1.4799603
0.57449085 -0.45522186 1.4744052
0.62410134 -0.45431852 1.4713966
0.67160356 -0.45256999 1.4732212
0.72934467 -0.45342883 1.4762253
0.76478136 -0.45034921 1.4833866
1.0493551 -0.45205259 1.4645892
1.0671777 -0.45203695 1.4679432
1.1352835 -0.45109814 1.4934037
1.1726975 -0.45081782 1.4833943
0.6447804 -0.44903636 1.4881219
0.69194072 -0.44946879 1.4743152
0.7221598 -0.44818649 1.4814306
0.77950525 -0.44470114 1.4774988
0.82596451 -0.44438508 1.4827666
0.87087947 -0.44335461 1.465289
0.92895997 -0.44414926 1.4719454
0.97313476 -0.44604006 1.4726987
1.0224534 -0.44559294 1.4675795
1.0842587 -0.44717383 1.4767109
1.1193379 -0.44870409 1.4626316
1.1826892 -0.44510052 1.4632989
1.2097393 -0.4402425 1.4828616
-0.96599168 -0.15431182 1.4955642
1.688908 0.25956577 1.4902201
1.7302827 0.26155123 1.4730525
1.7794546 0.26003966 1.4904542
1.8046517 0.26147738 1.482851
-0.95399582 -0.50090939 1.5149972
-0.94014323 -0.50254017 1.5280945
-0.88080066 -0.50356454 1.5228502
-0.82320505 -0.51219726 1.5288422
-0.76716751 -0.52307415 1.5183555
-0.72484726 -0.5257628 1.5276542
-0.67738032 -0.51886761 1.5244672
-0.63632774 -0.51643389 1.5261201
-0.57867193 -0.5105601 1.5167111
-0.53524762 -0.51748914 1.5256271
-0.46873093 -0.51294935 1.5342008
-0.42128912 -0.5039084 1.5208168
-0.37608647 -0.50441408 1.5219313
-0.3414692 -0.50356126 1.5206081
-1.1511524 -0.4824121 1.5442569
-1.1261109 -0.48376724 1.522645
-1.0706517 -0.49005407 1.5211891
-1.0231227 -0.4950735 1.5295018
-0.97731799 -0.49684611 1.5277184
-0.91932833 -0.49802399 1.5167192
-0.40927082 -0.4995023 1.5221512
-0.31564105 -0.49710059 1.5106648
-0.28287458 -0.49679726 1.5259511
-0.22555812 -0.49355355 1.5270511
-0.17340872 -0.4881064 1.523443
-0.12558037 -0.48450097 1.5181744
-0.06995225 -0.48139668 1.5268801
-0.020556729 -0.47825852 1.5242478
0.024364864 -0.47589949 1.5230625
0.074471645 -0.47573453 1.5296288
0.12252203 -0.47262982 1.5296819
0.17370561 -0.47004044 1.5284972
0.22339289 -0.46873298 1.5204039
0.27659529 -0.4694356 1.5270503
0.32399052 -0.46865419 1.5299059
0.37584499 -0.4683207 1.5274782
0.42910177 -0.46524715 1.5183126
0.47480658 -0.46158504 1.5255648
0.52240419 -0.457385 1.5254266
0.57255661 -0.45567018 1.5214567
0.62129855 -0.45338789 1.5185142
0.67547244 -0.45241523 1.518719
0.72853971 -0.45237613 1.5322709
0.92085743 -0.45075178 1.5252992
0.95495498 -0.4505991 1.5474921
1.0391321 -0.45015568 1.5024242
1.0805119 -0.45183453 1.5293198
1.1350939 -0.45098579 1.5379803
1.1671929 -0.45312664 1.5287892
1.2339009 -0.45236212 1.5296696
0.54426736 -0.44920626 1.5170896
0.5848425 -0.4488019 1.5357131
0.6251061 -0.44881496 1.532395
0.68718374 -0.44858187 1.5367765
0.72081631 -0.44966123 1.5187467
0.77042556 -0.44513777 1.5281405
0.82460135 -0.44031772 1.522524
0.87561178 -0.4406268 1.5207355
0.92399704 -0.4457005 1.5292333
0.98058492 -0.4448716 1.520784
1.0198425 -0.44626236 1.5244243
1.0853019 -0.44690934 1.5469053
1.1088246 -0.44754997 1.536604
1.166962 -0.44822472 1.5163047
1.22495 -0.44710827 1.5250883
1.8878222 -0.43723068 1.5422605
-1.0149121 -0.35012594 1.5476426
-1.110481 -0.30509916 1.5488122
-1.0810901 -0.31899798 1.5387373
-1.0244834 -0.33101684 1.5330538
-1.1209522 -0.26849732 1.539978
-1.0766248 -0.26536953 1.5251056
-1.0092633 -0.27394292 1.5377415
-0.99038607 -0.27633914 1.54085
-1.1119386 -0.23717603 1.5343586
-1.0779144 -0.22453967 1.5214449
-1.025386 -0.22226185 1.5201644
-0.98246694 -0.22544712 1.5266038
-1.0119221 -0.19078863 1.5338081
-0.9830724 -0.17374617 1.5319226
-0.943941 -0.15744209 1.5454619
1.9152273 0.23066127 1.5396824
1.6407336 0.25709692 1.5280238
1.6711744 0.25796673 1.508993
1.7136079 0.25554365 1.5004212
1.9294327 0.2543965 1.5482808
-0.96035469 -0.50039601 1.5641223
-0.91909492 -0.50346291 1.5797497
-0.86782193 -0.50548649 1.5733445
-0.82189119 -0.51615131 1.576195
-0.77816176 -0.52549076 1.5686196
-0.72644317 -0.52396417 1.574971
-0.67579973 -0.51760328 1.5768167
-0.62439799 -0.5122335 1.5721034
-0.57737309 -0.51849532 1.574098
-0.53001839 -0.51887155 1.5658339
-0.4772172 -0.51366478 1.5693116
-0.42418513 -0.50981164 1.5796112
-0.38235202 -0.51064491 1.5727097
-0.32565469 -0.50529313 1.5691726
-0.27238569 -0.50274724 1.5843525
-0.22480899 -0.50042993 1.5775293
-1.1615474 -0.48339731 1.5871313
-1.1265379 -0.48998109 1.5749664
-1.0747181 -0.48805451 1.5574824
-1.0358636 -0.49021748 1.5607016
-0.97357386 -0.49303049 1.5745583
-0.93233669 -0.49697003 1.563401
-0.29361692 -0.49774796 1.561198
-0.22703488 -0.49531931 1.5757918
-0.17411633 -0.4925037 1.5698334
-0.12383099 -0.48936903 1.5695949
-0.08673127 -0.48534796 1.5763614
-0.028143445 -0.48171911 1.5705817
0.027875736 -0.47839835 1.5817337
0.07774803 -0.47548023 1.5732743
0.12569769 -0.47287712 1.5726628
0.17833737 -0.46984053 1.5764377
0.2284497 -0.4691914 1.5698068
0.27219442 -0.46835986 1.5692784
0.33056352 -0.46872616 1.5830566
0.37625802 -0.46601498 1.5776685
0.42329645 -0.46470532 1.5674924
0.47282425 -0.46151683 1.5715709
0.5249539 -0.45826817 1.5719548
0.56880647 -0.4540543 1.5756648
0.62426597 -0.4529824 1.5853475
0.66721028 -0.45271802 1.5591996
0.73299968 -0.45151371 1.5671068
0.77673578 -0.45119965 1.5682507
0.97808146 -0.45078814 1.5777751
1.0539306 -0.45040041 1.5805515
1.1369501 -0.45349011 1.5954915
1.1706696 -0.45245475 1.5704026
1.2352047 -0.46014294 1.5941979
1.8862863 -0.46559614 1.5858748
1.9394767 -0.46746549 1.5907398
1.9791017 -0.46711275 1.5936395
0.58311111 -0.44840291 1.5883852
0.62571633 -0.44879532 1.5811452
0.67442381 -0.44696769 1.5816715
0.72643828 -0.44817355 1.585085
0.76191586 -0.44405833 1.579985
0.81816339 -0.44449925 1.5795369
0.86926234 -0.44056574 1.5748736
0.92758465 -0.44388011 1.5767287
0.97511691 -0.44507697 1.57384
1.0243256 -0.4449884 1.578982
1.0746868 -0.44736543 1.5728294
1.1193157 -0.44884849 1.582503
1.1689956 -0.44833663 1.5507851
1.8445482 -0.44575328 1.5632421
1.8700223 -0.44789878 1.554785
1.9210427 -0.44755116 1.5896163
-1.0061429 -0.36600092 1.5669608
-0.99189562 -0.37172601 1.5810051
-1.1682212 -0.30225399 1.5601418
-1.13674 -0.30803356 1.5549399
-1.0063645 -0.32686946 1.5618438
-0.98659796 -0.32360759 1.5700568
-1.1687417 -0.28927442 1.5574961
-1.1357884 -0.29020765 1.5563833
-1.0231218 -0.2902095 1.5523106
-0.97654033 -0.27684823 1.5734801
-0.96823591 -0.22725065 1.573957
-0.97522038 -0.18162292 1.5672892
1.6162446 -0.067679137 1.5931792
1.614886 -0.027375702 1.5891073
1.5966474 0.024087926 1.5794817
1.6165502 0.01082207 1.5898168
1.7385857 0.23512137 1.5646722
1.7567482 0.22673798 1.5626767
1.8436825 0.24065071 1.5986294
1.875897 0.23041713 1.5771179
1.906382 0.23088561 1.5523795
1.6165816 0.25918344 1.5668427
1.7240599 0.25051993 1.5590298
1.7956651 0.25861841 1.5936929
1.8863051 0.25717506 1.5927728
1.9176939 0.26206964 1.5739019
1.9529991 0.26865205 1.5656588
-0.95494503 -0.5002504 1.6034991
-0.92168349 -0.50365698 1.6321274
-0.87748069 -0.50840336 1.6322832
-0.81845069 -0.51633281 1.623796
-0.77240217 -0.52265769 1.6216301
-0.7271654 -0.51864088 1.6256912
-0.67369556 -0.51543438 1.6222714
-0.62898582 -0.51775593 1.6350049
-0.57640362 -0.52539152 1.6318196
-0.52872378 -0.52405101 1.6189649
-0.47605324 -0.51301175 1.6215881
-0.42704159 -0.51162517 1.6172963
-0.3716408 -0.51601863 1.6264861
-0.32681999 -0.50819486 1.6261104
-0.27639553 -0.50580794 1.630724
-0.22053473 -0.50174916 1.6372621
-1.1684794 -0.48547912 1.6157937
-0.9564476 -0.49231866 1.6181228
-0.94040179 -0.49745092 1.6177305
-0.21660845 -0.49844411 1.6173967
-0.17934044 -0.49614176 1.6181765
-0.12856622 -0.49239245 1.6200986
-0.067657098 -0.48760033 1.6152694
-0.021862341 -0.484182 1.6242383
0.02241805 -0.48099428 1.6284809
0.082180522 -0.4789747 1.6339056
0.12602133 -0.47589925 1.6287999
0.1724146 -0.46978101 1.6194088
0.22527367 -0.46853197 1.6220062
0.27579081 -0.4668895 1.6167718
0.32445255 -0.46547425 1.6252595
0.37738553 -0.46445835 1.6298059
0.42425242 -0.46261576 1.6230112
0.47521177 -0.46037781 1.6293991
0.52377301 -0.45599204 1.6216403
0.57526004 -0.45295137 1.6191162
0.64574176 -0.45122141 1.6279458
0.69865608 -0.4500142 1.6434722
0.71736622 -0.45137993 1.6191026
0.7524823 -0.45171487 1.6333863
0.8088901 -0.45085219 1.6483511
1.1830244 -0.45183358 1.6184595
1.2209103 -0.4535999 1.6198268
1.2789959 -0.4583931 1.6260084
1.9631699 -0.46008044 1.6453599
0.53872299 -0.4491356 1.6468053
0.57554197 -0.44866043 1.6361551
0.62680054 -0.44629219 1.6329814
0.65985113 -0.44556466 1.6223295
0.72719955 -0.44700944 1.6282153
0.7769205 -0.44469979 1.6236466
0.82532239 -0.44630226 1.6162027
0.87225592 -0.44130313 1.6221805
0.9180184 -0.44244727 1.6083171
0.97458535 -0.44713527 1.6129453
1.0232645 -0.44492331 1.6140591
1.0694829 -0.44672713 1.617588
1.1159105 -0.44691604 1.6217003
1.1504864 -0.44970661 1.6165546
1.3097899 -0.44803351 1.6123561
1.9582964 -0.44744214 1.6438682
-0.98272753 -0.36979404 1.6079658
-0.99164677 -0.33684471 1.6034392
-0.96204823 -0.27520368 1.626222
-0.96154541 -0.22538924 1.6266432
-0.96156234 -0.18309687 1.6203046
-0.94483876 -0.17354852 1.6366955
1.7780757 0.21481025 1.6034647
1.8344159 0.22608483 1.6091436
1.8409488 0.25813717 1.6142638
1.8673459 0.26164004 1.6098202
-0.91774774 -0.50135529 1.6721572
-0.87418824 -0.50672978 1.6773887
-0.82639658 -0.51078004 1.6743336
-0.7729857 -0.50985634 1.6743729
-0.7224229 -0.5133239 1.6711372
-0.67603171 -0.51162726 1.6736488
-0.62597018 -0.52090198 1.6746652
-0.57381374 -0.52600789 1.677081
-0.52565908 -0.52339053 1.6777529
-0.47115535 -0.51309723 1.6776137
-0.42671609 -0.51519835 1.6677082
-0.37689891 -0.51924288 1.6803936
-0.32567126 -0.51127785 1.6776918
-0.27550244 -0.51017255 1.6771616
-0.21666008 -0.50351465 1.672375
-0.10625833 -0.50012666 1.69776
-0.93644315 -0.49536136 1.6690063
-0.80016965 -0.49908334 1.6978326
-0.77684736 -0.4955847 1.6919123
-0.20611237 -0.49966934 1.6900121
-0.16693494 -0.49671853 1.6644093
-0.12962168 -0.49678355 1.6742436
-0.075329252 -0.49099448 1.672052
-0.027944217 -0.48679602 1.6709601
0.021879215 -0.48039335 1.6663419
0.071923703 -0.48033398 1.6760254
0.12609701 -0.47431967 1.6746584
0.17460924 -0.47275591 1.6733665
0.22328387 -0.46644056 1.6767346
0.2760691 -0.46545589 1.6716752
0.32866395 -0.46434236 1.6759448
0.37245455 -0.46156177 1.6724266
0.42538393 -0.45849583 1.6692349
0.47253254 -0.45723474 1.6772341
0.5210498 -0.45355693 1.6780854
0.5662235 -0.45326278 1.6832192
0.69221604 -0.4513562 1.6509421
0.7270748 -0.45124215 1.6773312
0.78474861 -0.4526062 1.6840209
0.85510671 -0.45052305 1.6698283
1.0154513 -0.45201334 1.6514221
1.0703332 -0.4528026 1.6742281
1.1415699 -0.45155695 1.6798764
1.1873106 -0.45464996 1.6704884
1.2343837 -0.45077643 1.6749374
1.2835405 -0.45743105 1.680934
1.3114173 -0.45865205 1.6699243
0.58681625 -0.44681242 1.6702125
0.61834836 -0.4446435 1.6683435
0.67979062 -0.44419259 1.6727086
0.72925377 -0.44687146 1.6774561
0.77345562 -0.44846946 1.6701231
0.82156605 -0.44698891 1.6818422
0.87274218 -0.44539413 1.6746932
0.98701829 -0.44676009 1.6695304
1.0704283 -0.44723293 1.6788019
1.127018 -0.44803849 1.669673
-0.97660369 -0.35324141 1.6912563
-0.9595713 -0.30697903 1.6775603
-0.95707697 -0.27435979 1.6719987
-0.94783211 -0.29417425 1.678018
-0.95600039 -0.22165455 1.6713592
-0.94506508 -0.22344272 1.6646112
-0.9569419 -0.18275224 1.6764473
-0.94525653 -0.16438101 1.6863225
1.8887641 0.21428846 1.6625645
-0.955194 -0.50175071 1.7283841
-0.92469752 -0.50243431 1.7233515
-0.83145684 -0.5075292 1.7077919
-0.72821575 -0.50787264 1.721786
-0.67048764 -0.51004577 1.724034
-0.62448192 -0.52290422 1.727613
-0.57181007 -0.52767003 1.7301326
-0.52328217 -0.51873177 1.7256825
-0.47663936 -0.51875198 1.7318007
-0.41589686 -0.52317441 1.7292681
-0.37774995 -0.51999235 1.7266086
-0.3253074 -0.50988549 1.7169148
-0.27452171 -0.51290369 1.7211025
-0.21794732 -0.50824511 1.7286224
-0.18078245 -0.50477034 1.7299153
-0.96367037 -0.49682677 1.7457467
-0.92675507 -0.49896595 1.7282119
-0.87524903 -0.49557394 1.7118158
-0.83484453 -0.49456835 1.7269061
-0.77488506 -0.48312548 1.7240825
-0.73905694 -0.49630129 1.7346419
-0.16715726 -0.49938378 1.7224548
-0.12017915 -0.49637315 1.7198228
-0.076265015 -0.49326223 1.721036
-0.034463432 -0.49039149 1.7221847
0.028830798 -0.48524806 1.725082
0.071648329 -0.48058495 1.726976
0.12728916 -0.47584242 1.726622
0.17958301 -0.47019583 1.7234248
0.22579367 -0.46649578 1.723244
0.27538157 -0.46211004 1.7262791
0.32146814 -0.46155834 1.721571
0.37410632 -0.45877209 1.7244949
0.42342839 -0.45635986 1.7250314
0.48137063 -0.45432842 1.7189362
0.52614206 -0.45282507 1.719427
0.55819863 -0.45162359 1.7238283
0.76786005 -0.45121729 1.7034009
0.90983218 -0.45351428 1.7478755
1.0484166 -0.45734999 1.7069741
1.0704846 -0.45341325 1.7249943
1.1102961 -0.45419413 1.7093861
1.186152 -0.45563042 1.7278765
1.2282639 -0.46051097 1.7301122
1.2723882 -0.45418042 1.7254641
1.3310394 -0.45736906 1.7216822
1.3684415 -0.45928022 1.7332606
1.6314247 -0.45080841 1.7115231
1.668237 -0.4619824 1.7264429
1.700278 -0.46924227 1.7407674
-0.77209193 -0.42681542 1.7285727
0.47393581 -0.44999546 1.7344567
0.52792853 -0.44805801 1.7158581
0.57314539 -0.44898129 1.7246006
0.60942948 -0.44228068 1.7105309
0.68455875 -0.43724504 1.7078751
0.73972583 -0.44820186 1.7126803
0.77464247 -0.44562736 1.7241589
0.82321471 -0.44740447 1.7341487
0.8705439 -0.44752696 1.7242481
0.93332547 -0.44685912 1.7226945
1.008983 -0.44400516 1.72303
1.1403698 -0.44722298 1.7087016
1.5930986 -0.44914249 1.7310779
1.6100897 -0.44937938 1.7191964
1.685667 -0.44583309 1.7090745
-0.97784728 -0.37069324 1.7377508
-0.96695632 -0.33049291 1.7220213
-0.96171379 -0.2795811 1.7337552
-0.93858099 -0.26460046 1.7219348
-0.95952302 -0.22111717 1.7253954
-0.93393779 -0.2243817 1.7332023
-0.95321047 -0.17365295 1.7148175
-0.93920195 -0.17994195 1.7267194
-0.95655036 -0.13286534 1.7488971
-0.94081545 -0.1184577 1.7445078
-0.93744743 -0.07050021 1.7469978
-0.93482929 -0.029372916 1.742937
-0.93456984 0.0093083261 1.7426034
-0.93725002 0.068630122 1.7465844
-0.9391678 0.17084865 1.7449385
-0.93859321 0.22493041 1.7393087
-0.94236916 0.26923788 1.7417784
-0.93608779 0.30382153 1.7467401
-0.70798165 -0.50457388 1.7607332
-0.6816113 -0.50820291 1.7765813
-0.62648344 -0.52008122 1.7749233
-0.57593215 -0.52492869 1.7767918
-0.52691448 -0.5175243 1.7707722
-0.47461995 -0.52038455 1.7742784
-0.42643374 -0.52776462 1.77232
-0.37847468 -0.5221585 1.7796953
-0.32685959 -0.51447731 1.7743031
-0.27357849 -0.51641333 1.7726307
-0.22561324 -0.50909752 1.7677251
-0.1752432 -0.5033555 1.7783816
-0.13093556 -0.506212 1.7801243
-0.95618659 -0.49316069 1.7614627
-0.93408287 -0.49330553 1.7594839
-0.87310004 -0.49338678 1.7661786
-0.84066439 -0.48808563 1.7553945
-0.76915103 -0.49114478 1.7718391
-0.72079307 -0.49222249 1.7712332
-0.68781179 -0.49174747 1.7938993
-0.070207939 -0.49519101 1.7758327
-0.029474355 -0.49177352 1.7697922
0.028285794 -0.48774236 1.7791619
0.078267351 -0.48033488 1.7732263
0.12088853 -0.47894633 1.7758074
0.18020223 -0.47202995 1.7788001
0.22958644 -0.46625006 1.7761577
0.27740878 -0.45999572 1.771288
0.3263768 -0.45800078 1.7733054
0.3720814 -0.4583202 1.7724774
0.40196237 -0.45180672 1.7540967
0.45425498 -0.45190611 1.7831467
0.50458604 -0.45332658 1.7797711
0.88019389 -0.45260641 1.7697597
0.91864133 -0.45084727 1.7773128
1.1206024 -0.45628294 1.7753057
1.1748619 -0.45537433 1.7856036
1.2252563 -0.45563596 1.7713528
1.2793761 -0.45531106 1.765584
1.3257685 -0.45332426 1.776019
1.361011 -0.45574123 1.7681072
1.4221514 -0.463898 1.7763751
1.5890326 -0.45413417 1.7671685
1.6273035 -0.46972677 1.7657553
1.6664311 -0.48404062 1.7534835
1.7119386 -0.46025756 1.7879857
-0.96147603 -0.40658855 1.7661186
-0.92060822 -0.4120945 1.7771066
-0.89293075 -0.41917878 1.7987814
-0.77900219 -0.40864897 1.7609935
0.46863902 -0.44870359 1.7673951
0.53944331 -0.44902265 1.7548275
0.55701065 -0.44811964 1.7667017
0.77287161 -0.44403562 1.7524543
0.82270432 -0.44568351 1.7707684
0.86194754 -0.44827107 1.7859763
0.91465735 -0.44889802 1.7696853
1.028489 -0.44625902 1.7575958
1.2160084 -0.44906974 1.7855139
1.750736 -0.41349471 1.7964792
-0.9622981 -0.37356368 1.7607689
-0.92513549 -0.37455094 1.7810445
-0.9620046 -0.32434145 1.7670889
-0.93145293 -0.32614791 1.7827692
-0.80655414 -0.31047541 1.7986299
-0.7971431 -0.33522728 1.7899297
-0.95180058 -0.29767138 1.7673291
-0.93258262 -0.27396867 1.7853611
-0.80434221 -0.29317063 1.7877342
-0.7961868 -0.27659559 1.7711405
-0.92747146 -0.22528873 1.7836814
-0.93416464 -0.17505297 1.7828983
-0.975806 -0.13799216 1.773458
-0.93208283 -0.12621452 1.7795599
-0.92990857 -0.07437145 1.782519
-0.92953509 -0.027167806 1.7827359
-0.92604202 0.024159564 1.7785392
-0.8990441 0.00017861348 1.7794704
-0.93243217 0.073898494 1.7836177
-0.93711025 0.12516375 1.7753984
-0.93736142 0.17731437 1.7808658
-0.9392603 0.22368988 1.7803357
-0.9388687 0.2764827 1.7807301
-0.93723941 0.30874747 1.78057
-0.65904945 -0.50895149 1.8097278
-0.63121891 -0.51385009 1.8231544
-0.57725245 -0.52038562 1.8271017
-0.52044874 -0.51438701 1.8201659
-0.47646278 -0.52168405 1.830416
-0.42775369 -0.53122103 1.8253622
-0.36802661 -0.51872796 1.8212893
-0.31681705 -0.51381642 1.8154936
-0.27422103 -0.51883036 1.8290007
-0.22335537 -0.51038015 1.817925
-0.17439793 -0.50536776 1.8247222
-0.12689844 -0.5075177 1.8180113
-0.089571789 -0.50407588 1.8326131
-0.88976705 -0.49596381 1.8132004
-0.83214533 -0.48345903 1.8219587
-0.76865989 -0.48922855 1.8186494
-0.72517961 -0.47821999 1.8296875
-0.66405284 -0.49243835 1.821485
-0.64364249 -0.49607193 1.8461386
-0.063874006 -0.49360922 1.8035944
-0.02077337 -0.49471101 1.8151802
0.01555702 -0.49143925 1.8191214
0.082642779 -0.48256379 1.8312336
0.127808 -0.47650784 1.8198378
0.16667819 -0.47177523 1.8115665
0.21938232 -0.46545064 1.8206675
0.27667311 -0.46165261 1.8282372
0.3261956 -0.45878553 1.8299711
0.35868499 -0.45437884 1.8079095
0.89131361 -0.45369983 1.8008814
0.92604661 -0.45670709 1.8496385
1.0835272 -0.46160102 1.8092047
1.1187845 -0.46206474 1.8212179
1.1759148 -0.45287085 1.8265219
1.2158575 -0.45462361 1.8156333
1.2837564 -0.46080795 1.8124567
1.3163387 -0.45652243 1.829641
1.4268923 -0.46179688 1.8249445
1.4678943 -0.46102548 1.8265722
1.5873058 -0.45053071 1.8189999
1.6077694 -0.46317652 1.8121315
1.6931254 -0.4643963 1.8316005
1.7189165 -0.45912006 1.8287963
1.7802882 -0.45656598 1.8303796
1.8048799 -0.45257381 1.8241746
-0.87192631 -0.41324458 1.8229934
-0.83353651 -0.41165066 1.841223
0.36132368 -0.44872186 1.8226192
0.79825944 -0.44512284 1.8378289
0.84163922 -0.44300458 1.8139206
0.93528229 -0.44716591 1.8003267
0.9502008 -0.44971719 1.8069141
1.7358524 -0.41826835 1.8262559
1.7791634 -0.43113166 1.8277279
1.8065333 -0.42396975 1.8317866
-0.90408766 -0.37749282 1.8055849
-0.87763399 -0.37387776 1.8306385
-0.83575851 -0.38096467 1.8404095
1.7358322 -0.39830327 1.8269324
1.7520921 -0.39678404 1.8011894
-0.90674639 -0.32483247 1.8070416
-0.88194084 -0.32410079 1.8325442
-0.81556952 -0.32845992 1.8148347
-0.74741578 -0.30914697 1.849364
-0.90662342 -0.27089295 1.8101338
-0.88290161 -0.27567109 1.8350565
-0.81712383 -0.27110311 1.8292435
-0.73239934 -0.27045697 1.848345
-0.90842807 -0.22635041 1.8084404
-0.88549364 -0.22604597 1.8358741
-0.82701093 -0.22329135 1.8321007
-0.73262751 -0.21385491 1.8474996
-0.90819913 -0.17531216 1.8122938
-0.8864063 -0.1747617 1.8368478
-0.82954228 -0.18327872 1.8306447
-1.016192 -0.13940251 1.8046184
-0.90917879 -0.12533844 1.8157198
-0.88708061 -0.12268142 1.8383744
-0.83112437 -0.12627491 1.8375303
-0.90927124 -0.075016342 1.8206823
-0.89068526 -0.077258393 1.8420913
-0.83419633 -0.089137927 1.8458903
-0.9072116 -0.030847192 1.8191603
-0.89076841 -0.035718068 1.8377712
-0.82156831 -0.033903871 1.8268996
-0.90459657 0.031249022 1.8046869
-0.87658352 0.024183467 1.8239123
-0.91090435 0.078648917 1.8100604
-0.88219661 0.073610492 1.8356447
-0.913212 0.12300986 1.812084
-0.88670737 0.12356675 1.8373545
-0.91273499 0.17493111 1.8143497
-0.88794965 0.17542411 1.8397315
-0.91590691 0.22624961 1.813549
-0.89063901 0.2282012 1.8411819
2.1329031 0.2235181 1.8324318
2.1648843 0.21945624 1.8215537
-0.91465586 0.2744081 1.817428
-0.89132804 0.27220678 1.8402319
-0.91718876 0.30832633 1.8186114
-0.89867973 0.30695164 1.8497696
2.4452255 0.8250612 1.8461111
2.4430709 0.87659723 1.8374245
2.4459436 0.92134941 1.8397787
2.4409897 0.9670608 1.8444881
-2.4355164 -0.62372553 1.8974066
-2.3543363 -0.62538195 1.8905649
-2.3313911 -0.62292975 1.8963177
-0.62021834 -0.50927258 1.8651404
-0.57912505 -0.51363587 1.8795314
-0.52658045 -0.51313812 1.8744832
-0.46962935 -0.52471209 1.8835268
-0.42258176 -0.52760875 1.879063
-0.37868929 -0.52194697 1.8765483
-0.33008307 -0.51727939 1.8713851
-0.27416572 -0.52226144 1.872089
-0.22488931 -0.51066673 1.8774096
-0.17867132 -0.51002753 1.8738946
-0.11866961 -0.51125944 1.8734131
-0.075243898 -0.50169903 1.8678583
-0.038653396 -0.50068611 1.8648676
2.3217776 -0.50486183 1.8545561
-0.80310661 -0.46082518 1.8862289
-0.77704102 -0.46883738 1.8723102
-0.72098964 -0.46940714 1.8659261
-0.68670356 -0.49337456 1.8749748
-0.62890577 -0.49333248 1.8727826
-0.59946889 -0.4966698 1.8988955
-0.068183176 -0.49643254 1.8843175
-0.027389899 -0.49648726 1.8672429
0.028600901 -0.49546838 1.8865589
0.079047993 -0.4822107 1.8736378
0.12328383 -0.47874832 1.8758994
0.18439975 -0.47415251 1.8821557
0.22917204 -0.46743283 1.8845628
0.26817492 -0.46242726 1.8835405
0.30626684 -0.46041837 1.8779318
0.88946551 -0.45313406 1.8941439
0.94397068 -0.45563871 1.8872036
1.1213658 -0.46244544 1.8752925
1.1644553 -0.4619635 1.8691168
1.2308202 -0.45635477 1.8748646
1.2846256 -0.45781574 1.8749666
1.3182085 -0.45395458 1.875751
1.3738008 -0.45657343 1.8589935
1.4304154 -0.45877829 1.8774542
1.4821132 -0.45716968 1.885559
1.5140501 -0.45901647 1.8808311
1.5941681 -0.46332356 1.8790258
1.6165997 -0.47335002 1.871449
1.6917078 -0.4671523 1.8514497
1.7318063 -0.45180735 1.878356
1.7587028 -0.45272586 1.8635654
2.1429803 -0.4600907 1.87702
2.1857312 -0.49242067 1.884923
2.3361328 -0.49201784 1.8858286
2.3663003 -0.48524392 1.8775659
-0.81570268 -0.4113194 1.8765503
-0.7802794 -0.42234853 1.8872231
-0.71819001 -0.42415607 1.8660437
1.4915938 -0.41938767 1.8908749
1.5029657 -0.43519384 1.888469
1.5883477 -0.44760615 1.874965
1.729243 -0.42472744 1.8668673
1.8445128 -0.41233113 1.8516989
-0.81979162 -0.3755098 1.8850937
-0.76760101 -0.37719274 1.8806645
-0.73029572 -0.37619206 1.870334
1.4848294 -0.38737181 1.8946691
-0.85804057 -0.32269648 1.852263
-0.82655054 -0.32722411 1.8812499
-0.77552015 -0.32391757 1.8823708
-0.72901416 -0.32949752 1.8621154
1.4600984 -0.31258765 1.8734937
-0.85889208 -0.27388406 1.853011
-0.82083809 -0.27866629 1.8853645
-0.78228313 -0.2760193 1.8869432
-0.73061299 -0.27541637 1.8571604
-0.86440748 -0.23050365 1.8529155
-0.81426835 -0.22594918 1.8830559
-0.78466934 -0.22501357 1.8784912
-0.72864717 -0.23036912 1.8577614
-1.16289 -0.16186629 1.8847791
-0.86380845 -0.17331681 1.8560066
-0.81758744 -0.1705284 1.8858541
-0.78080183 -0.17459102 1.88738
-0.72939682 -0.17879352 1.8609639
-1.0741897 -0.1479224 1.8641169
-0.8626861 -0.12342205 1.8593421
-0.82540381 -0.1263395 1.8911017
-0.77077276 -0.12877527 1.8845857
-0.7325086 -0.12623312 1.8658901
-0.86720097 -0.074930042 1.8609196
-0.83482927 -0.075339712 1.882803
-0.76225293 -0.075616799 1.8820288
-0.73705608 -0.076152265 1.8679507
-0.90562528 -0.014169683 1.8594091
-0.87400591 -0.03080062 1.8638315
-0.82468253 -0.030107439 1.8845158
-0.76238459 -0.04262165 1.8909471
-0.73210311 -0.042250976 1.8806175
-0.85754776 0.0001582633 1.8510977
-0.82703155 0.022834493 1.8739622
-0.85814005 0.081377231 1.8589071
-0.83585703 0.07581082 1.8833555
-0.86349505 0.12387727 1.860916
-0.83913064 0.12548985 1.8876204
-0.86240667 0.17304437 1.8657942
-0.83815616 0.16962138 1.8899173
-0.86415148 0.22400454 1.8660042
-0.84154719 0.22201569 1.8908571
-0.86691666 0.27819818 1.8672851
-0.843472 0.27087516 1.890691
-0.87533325 0.31073612 1.87445
-0.84564829 0.30064258 1.8924618
2.0777359 0.37627199 1.8836855
2.3776269 0.38813639 1.8967149
2.3834515 0.42990577 1.8942258
2.3834188 0.48159492 1.8904769
2.3847139 0.52692008 1.8881749
2.3916779 0.58065134 1.8879422
2.4038367 0.57084042 1.881754
2.3902168 0.62539059 1.8846027
2.4162793 0.64277107 1.8743634
2.3924267 0.67826492 1.8948312
2.4084017 0.67699808 1.8710532
2.3915989 0.72390097 1.8912522
2.4161499 0.7206924 1.8653754
2.3969333 0.78093386 1.8939793
2.4204917 0.77392381 1.8697859
2.3907866 0.83235574 1.8976734
2.4194059 0.82569778 1.8740177
2.4553614 0.82848752 1.8537312
2.3978786 0.86286044 1.8938354
2.4207785 0.87763494 1.8707141
2.3971009 0.92398936 1.8977144
2.4203103 0.93172294 1.8694223
2.396297 0.99287927 1.8976245
2.4199533 0.97692609 1.8732913
2.398545 1.0080006 1.8939207
2.4193926 1.0231004 1.8726273
2.3990808 1.0784285 1.8929838
2.4165328 1.0696181 1.8734716
2.3938403 1.125486 1.8951049
2.4109128 1.1198262 1.8784453
2.3938639 1.1898878 1.8944235
2.4025531 1.1727246 1.8835106
2.3957307 1.2487963 1.8972871
2.4018998 1.2155838 1.8911481
-2.476747 -0.61485028 1.9299866
-2.4161234 -0.61027086 1.9223938
-2.3750114 -0.61895323 1.9230247
-0.56630915 -0.50615245 1.9172896
-0.52834022 -0.50964886 1.9218025
-0.47759286 -0.52180362 1.9230385
-0.42842829 -0.52291912 1.9302756
-0.37414086 -0.51782221 1.9233403
-0.32726189 -0.52362585 1.9321786
-0.27779251 -0.52484155 1.9233439
-0.21439888 -0.50895554 1.9247643
-0.17292824 -0.5127247 1.9269291
-0.12184739 -0.51329327 1.9186872
-0.077463418 -0.50640929 1.9219742
-0.019557927 -0.50303012 1.9289454
2.1153998 -0.50426114 1.9395268
-0.81398076 -0.45232466 1.91429
-0.76141649 -0.4699257 1.9168032
-0.71403146 -0.4936364 1.9004297
-0.65432781 -0.49982163 1.9413149
-0.61751664 -0.49231693 1.925368
-0.57316238 -0.49485183 1.9227041
-0.54194343 -0.49568656 1.9479128
-0.063297458 -0.49741092 1.9254378
-0.025904765 -0.49994496 1.9358371
0.02415595 -0.49287701 1.9148315
0.077193365 -0.4859947 1.9187435
0.12860322 -0.47692561 1.9195082
0.17262484 -0.48209938 1.9381351
0.22860309 -0.47133017 1.9303862
0.27365485 -0.46039739 1.9355726
0.86911988 -0.45805207 1.9245934
0.92135412 -0.45584401 1.9301063
0.95887011 -0.45757374 1.9427906
1.1849775 -0.46469033 1.9279244
1.2233166 -0.45822832 1.9289018
1.2651811 -0.45774838 1.9254495
1.3288935 -0.45722279 1.9314843
1.3799857 -0.45934591 1.9241155
1.414227 -0.45731276 1.9053167
1.4678979 -0.45458603 1.9253889
1.5496498 -0.45107165 1.924384
1.5951058 -0.46906328 1.9345678
1.6065968 -0.46792331 1.9194103
1.7285221 -0.45925862 1.9124745
2.1202199 -0.46182126 1.9408001
2.1799984 -0.48407272 1.9306641
2.2236958 -0.47455323 1.9232721
2.2769966 -0.48158306 1.932202
2.3272536 -0.48338231 1.9232333
2.3752437 -0.4638826 1.9258043
2.4083602 -0.45887598 1.9114733
-0.81768584 -0.4294304 1.9002655
-0.76101512 -0.43657824 1.9025017
-0.73764443 -0.41433439 1.9490582
1.4264379 -0.40788138 1.942408
1.4778118 -0.42269766 1.9178702
1.7326107 -0.44339815 1.9034795
1.7607619 -0.42398098 1.9167451
2.3830338 -0.42322272 1.9290692
2.4104955 -0.42494977 1.9193342
-0.78951436 -0.37482524 1.9018345
1.4390013 -0.38971406 1.946478
1.4749491 -0.37860972 1.9212778
1.5123045 -0.37289518 1.9158077
2.3802719 -0.37192252 1.9330015
2.4076543 -0.39008015 1.9228302
-0.80560231 -0.33276132 1.9023956
-0.78877258 -0.33321443 1.9041536
-0.72565085 -0.31121621 1.9013809
1.4894958 -0.3157261 1.9331824
2.3835845 -0.32834762 1.9339659
2.4031978 -0.30023634 1.9319098
-0.79037344 -0.29957598 1.9044396
-0.72433424 -0.28675154 1.9005178
2.3880944 -0.27591309 1.9366304
-0.72415811 -0.21300615 1.9349475
2.3858159 -0.2229958 1.940196
2.4004915 -0.23142929 1.9372168
-1.1528708 -0.16041017 1.9185354
-1.1458015 -0.15422522 1.9325082
-0.72484428 -0.18169673 1.9107449
2.3832178 -0.17589618 1.940183
-0.81185555 -0.12290837 1.9031069
-0.79085302 -0.12004574 1.9061296
-0.73746896 -0.14591964 1.9462798
2.3801804 -0.12799981 1.9406627
-0.81440997 -0.075045913 1.9122838
-0.79020262 -0.077204227 1.9190941
-0.73474902 -0.07640741 1.9138916
2.3792319 -0.074450724 1.940302
-0.81853509 -0.031180818 1.9217108
-0.78074324 -0.020135118 1.9233974
-0.7443496 -0.028601522 1.9123118
2.3792849 -0.025842978 1.9430791
-0.80498093 0.038599275 1.9034872
-0.77884293 0.023039054 1.9259582
2.3834739 0.017733285 1.9389946
-0.80927175 0.077464975 1.9127886
-0.7854917 0.076867342 1.937377
2.381675 0.080824152 1.9394058
-0.81328434 0.12547866 1.9144031
-0.78861439 0.12710553 1.9398538
2.3821337 0.12407102 1.9419752
-0.81487483 0.17588019 1.9160365
-0.79145664 0.17802732 1.9417871
2.3801789 0.17165281 1.9372768
-0.81705821 0.22495432 1.9185318
-0.79214114 0.2246998 1.9423256
2.1418545 0.231619 1.9104867
2.3773468 0.21226093 1.9316006
-0.81787676 0.27363572 1.9205384
-0.7944293 0.27564213 1.9433463
-0.82292342 0.30916387 1.9216501
-0.79635096 0.31575772 1.9438293
2.1981122 0.35602164 1.9449384
2.2146559 0.35659805 1.9350879
2.2774463 0.3747597 1.9257483
2.3338308 0.38844696 1.9296974
2.3626647 0.38787973 1.9091742
2.0981388 0.40985075 1.9161452
2.1125367 0.41019228 1.9054205
2.3371663 0.4256959 1.941098
2.3644569 0.42331278 1.9169989
2.3379292 0.47103739 1.9355332
2.3635166 0.46804947 1.9094763
2.3347661 0.52474242 1.9363335
2.3608856 0.53084028 1.9097168
2.3388705 0.57674962 1.9382533
2.3670242 0.57700735 1.9118427
2.3418279 0.62732685 1.9408636
2.365798 0.62537491 1.919811
2.3354945 0.67763489 1.9472847
2.3645349 0.67811388 1.921541
2.3466229 0.72941053 1.9422573
2.3652122 0.72306734 1.9187682
2.3443241 0.78029084 1.9417669
2.374886 0.7767849 1.9168495
2.3670337 0.82439137 1.9255871
2.3471651 0.87870353 1.9464638
2.3713832 0.87035406 1.9191592
2.3418689 0.93130434 1.9489728
2.3724928 0.92284417 1.9238017
2.3728476 0.97724396 1.9248497
2.3413172 1.0147021 1.9430766
2.3718104 1.0254495 1.920071
2.3442371 1.0792724 1.9468403
2.372108 1.0692028 1.9188213
