ply
format ascii 1.0
comment PCL generated
element vertex 1514
property float x
property float y
property float z
element camera 0
property float view_px
property float view_py
property float view_pz
property float x_axisx
property float x_axisy
property float x_axisz
property float y_axisx
property float y_axisy
property float y_axisz
property float z_axisx
property float z_axisy
property float z_axisz
property float focal
property float scalex
property float scaley
property float centerx
property float centery
property int viewportx
property int viewporty
property float k1
property float k2
end_header
1.0663657 0.67024642 3.2669332
-1.276551 0.73213214 3.2697825
-0.2058627 0.73275578 3.2623968
-0.12255241 0.72780865 3.261374
0.37101492 0.72328782 3.2780318
1.0416716 0.72480512 3.2921114
1.0669863 0.72311127 3.2679896
-1.2746469 0.77758211 3.2642987
-1.168998 0.7934081 3.2635477
-1.12203 0.78694952 3.2847357
-1.0769544 0.79250532 3.2816515
-1.048138 0.78944981 3.2745771
-0.21070053 0.77967316 3.2695787
-0.12300391 0.77816737 3.2661579
-0.090803184 0.77448201 3.2514126
0.37149277 0.77476674 3.2743752
1.0433178 0.77544957 3.2894938
1.0699726 0.77091122 3.2628951
-1.2804682 0.81783885 3.2658734
-1.240139 0.84643137 3.2506912
-1.0720259 0.82686931 3.2722185
-1.0472364 0.81341064 3.26755
-0.2109611 0.82834297 3.2653711
-0.12353325 0.82932603 3.2722082
-0.091133021 0.8248964 3.2553835
0.33797458 0.84290886 3.2502413
0.36228281 0.82847214 3.2702014
1.0462254 0.82721108 3.2902634
1.0648876 0.8225103 3.2659104
-1.3003306 0.88673937 3.2566803
-1.2835022 0.86932379 3.2707083
-1.2457581 0.87529016 3.2607083
-0.21657433 0.87735003 3.2613201
-0.12387386 0.87956536 3.2727787
-0.087403588 0.87875634 3.2550576
0.3382811 0.85959256 3.2503865
0.36656016 0.86939716 3.2728832
1.0470414 0.87754685 3.2838449
1.0661844 0.87290651 3.2609031
-1.3026557 0.92185062 3.2558086
-1.2745948 0.92579377 3.2792506
-1.2264943 0.93800205 3.2712173
-1.1800042 0.92757946 3.2884429
-1.1496342 0.92001975 3.2895439
-0.21556561 0.92902625 3.2658699
-0.12410957 0.92931259 3.2700701
-0.091650814 0.92527962 3.2565982
0.36221895 0.91350454 3.2773569
1.0418198 0.92164606 3.2874448
1.0678183 0.92920494 3.2675288
-1.3055062 0.97426653 3.2523646
-1.2761893 0.97753346 3.2727818
-1.2208397 0.95034218 3.25267
-1.1855344 0.97222048 3.2776794
-0.21830316 0.98087758 3.2689826
-0.12462758 0.98147488 3.2742581
-0.091980271 0.97663379 3.2588303
0.34093466 0.97866708 3.2544367
0.36628285 0.96696198 3.282392
1.0691371 0.97802818 3.2710485
-1.3103596 1.0284622 3.2532284
-1.277706 1.0264021 3.2734892
-1.2394775 1.0423666 3.259258
-1.1283132 1.0162274 3.2593195
-0.21956401 1.0258741 3.2690315
-0.12267025 1.0279728 3.2742746
-0.092182934 1.0269165 3.2559707
0.34240672 1.0312341 3.2583563
0.36110434 1.0224427 3.2841558
1.0422258 1.038244 3.2941971
1.0693156 1.0265577 3.2683494
-1.3092976 1.0766511 3.2642047
-1.2799464 1.0672246 3.2714272
-1.243055 1.0790933 3.2607396
-0.2221605 1.0750577 3.2674186
-0.12752937 1.0713992 3.2795434
-0.086096957 1.0822909 3.2569268
0.34312093 1.0737469 3.2562766
0.36658347 1.0711936 3.286813
1.0438977 1.0734711 3.2918556
1.0703123 1.0735487 3.269294
-1.3033818 1.1212229 3.262675
-1.2753875 1.1246257 3.2732112
-1.2489462 1.1180891 3.2679808
-0.22307698 1.1255279 3.2704129
-0.12375833 1.1204606 3.276202
-0.092805095 1.1307487 3.256037
0.32832879 1.1430275 3.2557669
1.0491263 1.1209811 3.2984138
1.0732943 1.1247079 3.2703228
-1.3187699 1.183321 3.267987
-1.2804624 1.1802627 3.273046
-1.2483101 1.1598458 3.2555921
-0.22235511 1.1777908 3.2788613
-0.12660992 1.1768454 3.2859232
-0.09327165 1.1770225 3.2625525
0.34702557 1.1839592 3.2700882
1.0497891 1.1807209 3.2858121
1.0686951 1.1753069 3.2729988
-1.3179978 1.2268332 3.2644958
-1.2742831 1.2208216 3.2705178
-0.2560114 1.2195975 3.2516024
-0.22466224 1.2261505 3.270669
-0.12489028 1.2269914 3.2826316
-0.087017752 1.2240742 3.2601256
0.3379727 1.2241179 3.2681961
1.0707253 1.2287877 3.2708888
-1.3167373 1.272423 3.2660482
-1.2778274 1.2739626 3.2819176
-1.2415761 1.2718905 3.2593918
-0.22511919 1.275667 3.2646568
-0.12977816 1.2713696 3.284698
-0.085673966 1.2738523 3.2587986
0.34101519 1.2571471 3.2743618
1.0432161 1.2776617 3.2996297
1.0700389 1.2768489 3.2763369
-1.3602568 1.3305262 3.2556019
-1.3289922 1.3263996 3.268909
-1.2746199 1.3208721 3.286227
-0.25854671 1.3384199 3.2546258
-0.22680882 1.3251139 3.2783465
-0.12802437 1.3222852 3.2880735
-0.086084753 1.3292402 3.2608559
1.0462695 1.3241208 3.2971323
1.073266 1.3243866 3.2725236
-1.3649004 1.3784065 3.253262
-1.3215247 1.3737429 3.2752759
-1.2735057 1.373951 3.2946322
-0.25981373 1.3779849 3.2609372
-0.23017269 1.3755727 3.2844057
-0.12851761 1.3770738 3.2862711
-0.086441562 1.3757191 3.261961
0.32794631 1.3863864 3.276624
1.0483603 1.3610116 3.293622
1.0726942 1.3821679 3.2766731
-1.3683846 1.4166945 3.2503533
-1.3237787 1.4234098 3.2674329
-1.2799038 1.4348154 3.2884889
-1.2436373 1.4217846 3.2756515
-0.26030806 1.4219667 3.2546217
-0.22883642 1.423795 3.2822051
-0.1293198 1.4273443 3.2942278
-0.086833559 1.42321 3.263984
0.32545459 1.4179844 3.2703412
1.0366071 1.4197164 3.2988625
1.0710943 1.4239073 3.277066
-1.3237474 1.4762685 3.2758298
-1.2932687 1.473525 3.2923918
-0.26158997 1.4788226 3.254935
-0.23020339 1.4741635 3.2887013
-0.12403696 1.4724373 3.2889583
-0.08543954 1.4742531 3.2599378
0.33062607 1.4647861 3.283134
1.0427014 1.4886504 3.298739
1.073651 1.4753259 3.272949
1.1030648 1.4939868 3.2501466
-1.3590677 1.5487611 3.2598643
-1.3313682 1.524644 3.2729378
-1.2996017 1.533628 3.2903712
-1.2383121 1.5407606 3.2772095
-0.26307786 1.5289793 3.2597537
-0.23351674 1.5255166 3.2865677
-0.11992931 1.5238345 3.2837021
-0.089268282 1.5228823 3.2657247
0.28907749 1.5333469 3.2675667
0.31231904 1.518054 3.2817717
1.0443895 1.508401 3.2982919
1.0739639 1.5238283 3.2750602
1.1051073 1.5139598 3.2502649
-1.3712126 1.5848635 3.2641575
-1.327714 1.5708933 3.2739248
-0.26403564 1.5932558 3.2514729
-0.23029767 1.5748 3.2913878
-0.12596332 1.579662 3.2873149
-0.087827086 1.5736643 3.2582633
0.30867743 1.581462 3.285378
1.0754732 1.5746328 3.2709215
-1.4092257 1.636568 3.2566826
-1.3736763 1.6277283 3.2718039
-0.23574686 1.6130421 3.2773228
-0.12309979 1.6310593 3.2940502
-0.096897908 1.6275058 3.2674026
0.29301205 1.6306865 3.2856226
1.0654955 1.6237147 3.2754607
-1.4057827 1.6786658 3.2582309
-1.3760011 1.6743749 3.277246
-1.3346789 1.6701038 3.285557
-0.11527802 1.683388 3.2981725
-0.08895842 1.678494 3.2694221
0.28260109 1.6926037 3.2758839
1.0418231 1.670809 3.2995439
1.0742532 1.6752615 3.269732
-1.4122775 1.731267 3.2550628
-1.3867507 1.7247639 3.2802823
-1.3439304 1.7086256 3.2976851
-1.2827425 1.7168924 3.2884166
-0.11541695 1.7196257 3.289319
-0.086576581 1.7267913 3.2710485
0.28276142 1.7334805 3.2627382
1.0461715 1.7131128 3.2997265
1.0750022 1.7261932 3.2708795
-1.4136639 1.77942 3.2576916
-1.3830813 1.7733333 3.2855084
-0.08473628 1.7701126 3.2723248
0.28005505 1.7837725 3.2858539
1.0483589 1.752099 3.292593
1.0694931 1.7803538 3.2756581
-1.4134125 1.8168888 3.2600005
-1.3868172 1.8285786 3.2854149
0.27459219 1.8255361 3.2726495
1.0730098 1.8254585 3.2739463
-1.4138119 1.8712418 3.2682374
-1.3856742 1.8757279 3.2911894
0.29972091 1.8592305 3.2868242
0.46791869 1.863117 3.2984159
1.0759113 1.8755605 3.2734952
-1.4222499 1.9225413 3.267184
-1.3939576 1.923756 3.294086
0.43786076 1.9215533 3.2956734
0.4605785 1.9127423 3.290796
1.0780945 1.9248627 3.2701831
-1.4180025 1.9764909 3.2694902
-1.399577 1.9592379 3.2944083
0.43886063 1.9612108 3.287678
0.46283364 1.9750346 3.2833502
1.0723127 1.9737083 3.2798173
1.1023842 1.9803364 3.2533183
-1.4194971 2.0258651 3.2688391
-1.3886579 2.016432 3.2963116
0.46717027 2.0469625 3.2893662
1.0759459 2.02542 3.278939
-1.4220705 2.0803394 3.2714958
-1.3961326 2.0646653 3.2954831
0.46804675 2.0775962 3.2826834
1.0497422 2.0908871 3.2974966
1.0832865 2.0747147 3.2727504
-1.4184924 2.1262972 3.2777576
1.0708555 2.1227193 3.2767253
1.1032581 2.1339025 3.2553439
-1.4274894 2.1775007 3.268985
-1.3958845 2.1869779 3.2965698
1.0745809 2.1744442 3.2764537
1.1113589 2.1957176 3.2546859
-1.4192791 2.2319174 3.2793884
-1.3829484 2.2345338 3.2965901
1.0472674 2.2348244 3.2946405
1.0810511 2.2277639 3.2745137
-1.4193332 2.2742043 3.269146
-1.3911147 2.2860031 3.2944665
1.0488034 2.2567625 3.2892506
1.0721409 2.2775328 3.2759624
1.1013762 2.268523 3.2540686
-1.4156413 2.3195164 3.2627962
-1.3791111 2.3317916 3.2843404
0.096308872 2.3477428 3.2918117
0.12600087 2.3378646 3.2651949
0.1689212 2.3466983 3.2700944
1.0417547 2.3387721 3.2992036
1.0703062 2.3226283 3.2735922
-1.3699096 2.3624244 3.2671046
-1.3311211 2.3723471 3.2787297
-1.2749695 2.3821678 3.2711611
-1.223739 2.3817711 3.2731543
-1.1740512 2.3869417 3.2758961
-1.105042 2.3708806 3.251492
-1.0709155 2.383353 3.2696221
-1.0277233 2.3860424 3.2712369
-0.97805047 2.3848035 3.2760172
-0.92492115 2.3859696 3.2805884
-0.88010514 2.3927648 3.2774646
-0.8218627 2.3810136 3.2702363
-0.77904588 2.3893292 3.2779939
-0.72346091 2.390728 3.2902725
-0.67850667 2.3881907 3.2719932
-0.62482721 2.3798478 3.2724702
-0.57548106 2.3764491 3.2565246
-0.53091496 2.383158 3.2719851
-0.47635272 2.3871925 3.2843513
-0.41984382 2.3816004 3.2826998
-0.37360525 2.3810551 3.2864139
-0.31354383 2.3808708 3.2670472
-0.27086562 2.3773568 3.2748303
-0.2250315 2.3799634 3.277631
-0.19835645 2.3814547 3.2990959
-0.1238962 2.3878505 3.2747498
-0.068971008 2.3844166 3.2892647
-0.022941321 2.3801229 3.2839186
0.020339625 2.3796089 3.2754905
0.077707939 2.3678548 3.2662942
0.11410341 2.3549256 3.2654579
0.18714526 2.355458 3.2635291
0.22535503 2.3827879 3.2815189
0.27147859 2.3929093 3.2746491
0.42150876 2.390574 3.295136
0.55976462 2.3506203 3.2958834
1.0296992 2.3797896 3.2850938
1.06343 2.3723073 3.2651405
-0.06883537 2.4067278 3.2660265
0.29862785 2.4078081 3.257169
0.32213756 2.4076648 3.2768154
0.37384048 2.4096231 3.2714863
0.42549673 2.4113579 3.2651551
0.47172135 2.4175627 3.2758942
0.52696514 2.4170783 3.2785163
0.57057238 2.4243488 3.2799382
0.60192859 2.4363132 3.2809472
0.77113098 2.4496338 3.2518649
0.82342041 2.4474578 3.2761192
0.88697213 2.4352028 3.2834184
0.9150207 2.4365892 3.2662761
0.97446549 2.4364429 3.2803314
1.0190574 2.4232099 3.2668569
0.63284624 2.4569826 3.2861867
0.67343599 2.4557972 3.2686837
0.72555125 2.4535606 3.2658386
0.77204847 2.4533067 3.2850416
0.86347187 2.4543524 3.2774062
0.58613127 -0.50108534 3.3313379
0.58239728 -0.48183045 3.3116789
0.9765662 -0.37107536 3.3370614
1.0058221 -0.36458734 3.3112233
0.98222166 -0.32861605 3.3414872
1.0083457 -0.32642046 3.3126774
0.98561102 -0.28320718 3.340981
1.0080851 -0.27735922 3.3148019
0.52402264 -0.22392055 3.3222528
0.57741779 -0.23882364 3.3003573
0.98911756 -0.22966915 3.3408387
1.011773 -0.22611611 3.3173378
0.44897163 -0.17474373 3.3082676
0.47554412 -0.17575723 3.3251641
0.50288558 -0.17692548 3.3453407
0.99114251 -0.1800635 3.3350782
1.00913 -0.17931847 3.3170342
0.47171038 -0.1254025 3.324023
0.50304121 -0.1447874 3.3473933
0.98880893 -0.13114379 3.3433034
1.0155898 -0.13036728 3.3170195
0.44835401 -0.079269342 3.3060522
0.47539547 -0.079819992 3.3264759
0.98899102 -0.081927054 3.3449395
1.0129654 -0.081387237 3.316545
0.44907311 -0.039665982 3.3118062
0.47227111 -0.029616864 3.3293893
0.9896214 -0.040923558 3.3475614
1.0149083 -0.032459479 3.316339
0.43574324 0.025441596 3.3081002
0.47202569 0.025700852 3.3372734
0.98883921 0.024768703 3.3449495
1.015597 0.024613654 3.3185937
0.42830127 0.083335616 3.3058555
0.46911097 0.080235273 3.3389907
0.98837489 0.082148097 3.3427393
1.0160075 0.081751347 3.3192661
0.42932194 0.13118872 3.3126366
0.46473718 0.12610306 3.3400726
0.98861271 0.13138856 3.342453
1.0157104 0.13067162 3.3172016
0.42673531 0.17485642 3.3099079
0.46453929 0.17415817 3.3371811
0.98946297 0.17256975 3.3440557
1.0168071 0.17982139 3.319232
0.42561623 0.22278255 3.311821
0.46171919 0.22486477 3.3400362
0.99095011 0.23860979 3.3463166
1.0169852 0.22886433 3.3177323
0.42659363 0.2711128 3.316973
0.45358908 0.27299353 3.3377659
0.99246621 0.28016636 3.3492379
1.0175825 0.27803952 3.317152
0.42703369 0.31928274 3.3176124
0.45802113 0.32546139 3.3372777
0.99130589 0.32919744 3.3422668
1.0174946 0.32567278 3.321008
0.4287537 0.36867788 3.3277042
0.46180105 0.37397182 3.3437123
0.99372131 0.37948626 3.346827
1.0195379 0.37683603 3.3168852
0.42813906 0.42181724 3.3277836
0.46254057 0.41977829 3.3455205
0.9951669 0.42958224 3.3476136
1.0203561 0.42632243 3.3154459
0.42775181 0.4779011 3.3264065
0.46314397 0.46558231 3.3459287
0.99499065 0.47905016 3.342438
1.0197816 0.47619465 3.3161035
0.43081799 0.53144675 3.3293021
0.46138567 0.51805776 3.3459513
0.99706608 0.52969724 3.3442938
1.0235112 0.52630639 3.3160229
-1.1862754 0.5870983 3.3436074
0.42388934 0.57651597 3.3174896
0.45776927 0.55095232 3.3460751
0.99743098 0.57955384 3.339879
1.0169801 0.57657605 3.3175652
-1.18075 0.61791468 3.344794
0.43784854 0.61057991 3.3118653
0.999515 0.63053918 3.340678
1.0188036 0.62711793 3.3173559
-1.2018123 0.68702066 3.3226187
-1.1852142 0.6847443 3.34515
0.42667487 0.67828202 3.3215306
0.99497151 0.67546558 3.3392289
1.0172378 0.68031234 3.317533
-1.1737895 0.72391355 3.3415411
-1.100799 0.73691624 3.3377037
0.42808852 0.72774148 3.3346639
0.98790681 0.71710455 3.349474
1.0160127 0.73005915 3.3230519
-1.1726671 0.77364719 3.3304422
-1.1214802 0.7741763 3.3290324
-1.0932345 0.77940404 3.3355317
0.42454186 0.77792925 3.3283501
0.46205553 0.78509367 3.3469183
0.99072838 0.7860443 3.3486979
1.0190101 0.77845299 3.3181267
0.39278027 0.82605392 3.3119793
0.42257652 0.8233583 3.3330793
1.0216613 0.82585138 3.3266578
0.39395705 0.87728375 3.3134737
0.42312974 0.87077522 3.3386078
0.99308753 0.85496795 3.3453031
1.0208045 0.87070495 3.32337
-1.1640357 0.94848078 3.3273723
-1.1250613 0.93587446 3.3224173
0.38594073 0.91807079 3.3074908
0.42237812 0.91032833 3.3389978
0.99629539 0.92499155 3.3436563
1.0197135 0.91778201 3.3205323
-1.1720474 0.9752959 3.3302348
0.37938729 0.99536467 3.3076248
0.41524285 0.97849303 3.3358269
0.99747074 0.95976627 3.3410034
1.0214303 0.97479194 3.3199477
-1.1532048 1.0045992 3.3386505
0.38892162 1.0233799 3.3133838
0.41729516 1.0163969 3.3456116
1.0218136 1.0229117 3.3195081
0.39298311 1.0679723 3.3157215
0.41275752 1.0767169 3.3414876
1.0215297 1.0779468 3.3285027
-1.1284816 1.1365393 3.3347778
-1.0900444 1.1117675 3.3470039
-0.14307602 1.1289355 3.3006134
0.38250431 1.1104963 3.3116078
0.40192464 1.1270787 3.3330061
0.99063176 1.1056222 3.3491428
1.0190489 1.120985 3.3265965
-1.1443142 1.1661196 3.3309412
0.40321139 1.1639167 3.3358643
0.99564445 1.1881547 3.3474517
1.0225558 1.1713262 3.3187375
0.37842408 1.2225053 3.3245213
0.40680048 1.2413882 3.3489094
0.99894261 1.2263986 3.3497512
1.0291398 1.2254411 3.3201122
0.37177756 1.2739584 3.3282428
1.0191092 1.2718415 3.3253353
-1.2816938 1.3386376 3.3014832
0.38419682 1.3249032 3.3368363
1.0179924 1.3232659 3.3265326
0.36658025 1.3903115 3.3283319
1.0233905 1.3770466 3.3221331
-1.2739013 1.418852 3.3098919
0.3407684 1.4472257 3.3076451
0.36746615 1.4191592 3.3290625
0.99519891 1.4257201 3.3472786
1.0164917 1.4249442 3.3309848
-1.2885697 1.4869883 3.3023801
-0.22321349 1.4916058 3.3066149
-0.13018255 1.4756809 3.3045475
0.34506249 1.4995515 3.3386455
0.99856561 1.4741604 3.3448899
1.0262928 1.4736342 3.3195329
-0.1478654 1.5218381 3.3121216
0.32782456 1.5497355 3.321202
1.0217348 1.5264423 3.3256576
-0.1482155 1.5677633 3.3059125
0.33866772 1.5861205 3.3347952
1.0262519 1.5731409 3.3233526
1.050732 1.5699003 3.3003035
-0.14881329 1.6251532 3.3015673
0.32630432 1.6201394 3.3191688
1.0223604 1.6241131 3.3240125
-0.15032251 1.684594 3.3195806
-0.13827252 1.6659435 3.3098011
0.325955 1.6655928 3.3267434
0.3512215 1.6737936 3.3482237
1.027728 1.6740303 3.3158782
-1.3583177 1.7244909 3.3043756
-1.321624 1.7237285 3.3140838
-0.15073825 1.7237374 3.3158901
-0.13337512 1.7220716 3.3132102
0.29800022 1.7362295 3.3128352
0.32443494 1.717187 3.324198
1.0213505 1.7256393 3.3259623
-1.3552177 1.7683275 3.3069239
-1.3227438 1.7734388 3.3278074
-1.2710125 1.76469 3.3249915
-1.2341456 1.7817783 3.3261743
-0.15125984 1.7642796 3.3141437
-0.12522063 1.7714826 3.3088179
0.2989541 1.7851179 3.3066297
0.31785598 1.7766176 3.3287022
1.0201137 1.7740279 3.3311331
1.0539265 1.7792007 3.3028662
-1.3616701 1.8223339 3.3033857
-1.3304199 1.8203241 3.3318205
-1.2167619 1.8234977 3.3493812
0.29971844 1.8157543 3.3046544
0.32883179 1.8326277 3.333509
0.42665824 1.8388284 3.3367271
0.46682617 1.8382273 3.3250465
1.0282483 1.8262405 3.3218269
-1.3623666 1.8784502 3.317697
-1.3289449 1.8676579 3.3381467
0.33785865 1.8780988 3.3176708
0.37428632 1.8847122 3.3265285
0.4306919 1.8856525 3.3134096
0.46673724 1.8789086 3.3074315
0.99898553 1.8718417 3.347851
1.0291079 1.8798016 3.3228781
-1.369988 1.9288839 3.31198
-1.340174 1.9308949 3.3388202
0.33143422 1.9181234 3.330884
0.37680548 1.9238877 3.3133047
0.41407833 1.9252466 3.3075407
0.47487724 1.9232816 3.307647
1.0322196 1.9256897 3.3197548
1.0515105 1.9320192 3.3019383
-1.3689532 1.9776436 3.3176472
-1.3354193 1.9736184 3.3429136
0.39384952 1.9650401 3.3111134
0.41105747 1.9626991 3.305553
0.4858914 1.9706324 3.3305533
1.0255764 1.9787973 3.3314266
-1.3688577 2.0284123 3.3251896
-1.3454021 2.0352826 3.3456163
0.47939497 2.034209 3.3237767
1.0287372 2.0215001 3.3246498
-1.3660351 2.0757244 3.3257115
0.4521482 2.0775096 3.3030159
1.0286322 2.0697677 3.3243384
-1.3721857 2.1228209 3.3215044
-1.3385894 2.1293168 3.3441093
1.0266759 2.1225257 3.3324687
-1.3742691 2.1678956 3.3181291
-1.3469592 2.180747 3.3452251
0.47889271 2.1530926 3.3453748
1.0300376 2.1746569 3.3265653
-1.3642251 2.2203319 3.3258736
-1.3360579 2.2420061 3.3462875
0.99846822 2.2225614 3.3469319
1.0278256 2.222501 3.319659
-1.3682714 2.2765696 3.3293374
-1.3408856 2.2789741 3.3424459
1.0196739 2.2749932 3.3251598
-1.3656772 2.3128622 3.3119099
-1.3294692 2.3263388 3.3346195
0.041646726 2.3396606 3.335741
0.078291975 2.3403938 3.3180134
0.48862299 2.3272393 3.345428
0.52442449 2.3209841 3.3319392
0.56642491 2.3217189 3.3151588
0.88925767 2.3249431 3.3336525
0.91899586 2.3239717 3.319155
0.98346949 2.3244021 3.3444412
1.0175108 2.3251326 3.3174207
-1.3219898 2.3614547 3.3175387
-1.2744616 2.3762605 3.3242273
-1.2264442 2.3816707 3.3233774
-1.1713375 2.3851082 3.3211486
-1.1294023 2.384249 3.3289979
-1.0741417 2.3725376 3.3120823
-1.0240973 2.3729343 3.3355255
-0.97113347 2.3789518 3.3179035
-0.92330801 2.3825669 3.3245332
-0.87058133 2.3874607 3.3205853
-0.82604188 2.3874021 3.3270957
-0.77777058 2.3860092 3.3306146
-0.72920537 2.3907754 3.3271964
-0.66991848 2.380676 3.3226318
-0.62448466 2.3860958 3.3375194
-0.57503074 2.3851616 3.3245194
-0.52252322 2.3802571 3.3244801
-0.47535872 2.3824763 3.3239264
-0.42318627 2.3820367 3.3196595
-0.37670559 2.3821921 3.3243461
-0.33312666 2.3837864 3.3155913
-0.27473173 2.3856032 3.337045
-0.21861173 2.3826666 3.3362045
-0.17158863 2.3848286 3.3231654
-0.12507686 2.3823621 3.321358
-0.069439821 2.3769164 3.3241289
-0.02309506 2.3706262 3.3249388
0.023112169 2.3609996 3.3205085
0.069076523 2.3573489 3.3058157
0.18926235 2.3636189 3.3109274
0.22968891 2.3671486 3.3242841
0.27434984 2.3810697 3.3307531
0.32087442 2.381264 3.3277237
0.37333852 2.3824332 3.3145041
0.42339042 2.3824925 3.3203568
0.47868034 2.383033 3.3398287
0.5260675 2.3749611 3.3164473
0.57388526 2.3892698 3.3119113
0.92752355 2.3770683 3.3317897
0.97291428 2.3737164 3.3293734
1.0067439 2.3639653 3.3066413
0.47029576 2.4032056 3.3075097
0.50834185 2.4070039 3.3083549
0.58350736 2.4093008 3.3016248
0.62657493 2.4345634 3.324502
0.6775049 2.445369 3.3380172
0.71877444 2.4453251 3.3214898
0.79093659 2.4445879 3.3166618
0.82518452 2.4392257 3.3252857
0.86427575 2.4339597 3.3122203
0.92913562 2.4256384 3.3117418
0.96898878 2.4184856 3.3082409
0.67622304 2.4595709 3.3203001
0.73070341 2.4520497 3.300406
0.76475859 2.4517026 3.3317308
0.92823982 -0.37421617 3.3805289
0.96009862 -0.3624422 3.352879
0.94100469 -0.3314679 3.3800726
0.96225244 -0.33022094 3.3626537
0.94157457 -0.28191322 3.3851235
0.96773243 -0.27705309 3.3606687
0.53175879 -0.21098408 3.371865
0.56568432 -0.22778495 3.3761587
0.60433531 -0.24324566 3.3595986
0.94223398 -0.23229669 3.3899715
0.96914387 -0.23078626 3.3618438
0.52741063 -0.17612688 3.3801031
0.94369948 -0.18578255 3.3908508
0.96859521 -0.18121296 3.3619516
0.51587307 -0.1262382 3.3675926
0.94369864 -0.12144028 3.3886011
0.96559781 -0.13419317 3.3659985
0.5153001 -0.081057541 3.3753366
0.94449639 -0.082851499 3.3921928
0.96596259 -0.084739007 3.3683136
0.51583338 -0.032418348 3.3793278
0.94419152 -0.021987179 3.3916798
0.96998131 -0.032907233 3.3698974
0.51402569 0.020914584 3.3752477
0.94618559 0.020024689 3.3904405
0.96927792 0.024870649 3.3673766
0.51513684 0.084710695 3.3849862
0.94895792 0.083006769 3.3871863
0.96606594 0.082657978 3.3686137
0.48759627 0.13706541 3.3534513
0.51324141 0.12632768 3.3880248
0.9638747 0.13251814 3.377274
0.48757559 0.1854036 3.351757
0.51047027 0.16339771 3.3961377
0.94890106 0.19901527 3.3836946
0.96907544 0.18208279 3.3735056
0.48795858 0.22587365 3.3527343
0.50981528 0.2284327 3.3892527
0.93432796 0.21604884 3.3933535
0.96761608 0.23025675 3.3745799
0.48137918 0.27508593 3.3613222
0.51170111 0.28659204 3.3989139
0.96845818 0.28180981 3.3748848
0.48391733 0.32104054 3.3649526
0.96628571 0.33190504 3.3763688
0.48823181 0.37029365 3.374403
0.51150984 0.36832097 3.3924084
0.97092313 0.37947333 3.3687532
0.48857975 0.42345235 3.3726988
0.97090876 0.42703295 3.3730798
0.48993653 0.477608 3.3773201
0.96866524 0.47682726 3.3729403
0.48739886 0.52251393 3.3724284
0.96989864 0.52462858 3.3725092
-1.1664544 0.58276898 3.3570051
-1.1279461 0.58726561 3.3586116
0.47929198 0.57307959 3.3652022
0.94332165 0.57869089 3.3974118
0.97086322 0.57236665 3.3705852
-1.1613035 0.62720299 3.3585553
-1.1298242 0.62325305 3.3806837
-1.0878893 0.63631982 3.3868768
0.47577047 0.61250442 3.3740075
0.94430417 0.61287796 3.3969364
0.97224456 0.62326342 3.3693018
-1.1703371 0.66901374 3.3572185
-1.1295295 0.67713535 3.3795671
-1.0875192 0.67465937 3.3758178
0.47083351 0.67961001 3.3658211
0.94623536 0.67300433 3.3962629
0.96989638 0.66946572 3.3727906
-1.1300423 0.72476721 3.3672376
-1.086587 0.72554165 3.3703563
0.47177911 0.7220059 3.3667326
0.94821745 0.70813167 3.3987086
0.97344804 0.72030562 3.368156
-1.1426349 0.75921768 3.3518026
-1.086337 0.7695986 3.3725204
0.47589985 0.77198344 3.3773975
0.50219858 0.78029442 3.396637
0.94934493 0.75961 3.395251
0.97254425 0.77265275 3.3702381
0.44726121 0.82887805 3.3534708
0.46973458 0.81990421 3.3674147
0.97262496 0.82546711 3.3725436
0.44835708 0.87206417 3.3546515
0.46744487 0.87703037 3.3721676
0.97314858 0.88006574 3.3736358
0.43268126 0.93953866 3.3501258
0.45947161 0.92721754 3.3660519
0.97101504 0.92589408 3.3717027
-1.1563008 0.97317863 3.3547158
-1.1320525 0.97964829 3.3734267
-1.092882 0.99462539 3.3822844
0.43510336 0.98623133 3.3608179
0.46078396 0.97988397 3.3790421
0.97187656 0.97348869 3.3748643
-1.1343298 1.0258586 3.3821905
-1.0971198 1.0415089 3.3862693
0.43093887 1.0309306 3.3633893
0.46487826 1.0260932 3.3884315
0.94560683 1.0356309 3.3979192
0.97218233 1.0234469 3.3739052
-1.1529675 1.0799252 3.3788376
-1.1275929 1.0718027 3.3885574
-1.0838226 1.0627129 3.367878
0.43359476 1.0756299 3.364233
0.4618631 1.0706999 3.3886178
0.9764936 1.0747948 3.370362
1.0074621 1.054413 3.3565691
-1.1533477 1.1148129 3.3719559
-1.1264753 1.1138543 3.3753231
-1.0952359 1.1287545 3.380645
0.43344069 1.1268189 3.3727367
0.45744315 1.1247813 3.3752954
0.98067665 1.1307935 3.372992
-1.1543818 1.1936785 3.3558645
-1.1264365 1.1762539 3.3781104
0.43346912 1.1699427 3.3770387
0.45962611 1.1807063 3.3795469
0.96993703 1.1724168 3.38308
-1.1550541 1.2116832 3.3533571
-1.126217 1.2063221 3.3820679
0.4290826 1.2213269 3.378598
0.46082535 1.2176328 3.380106
0.9404912 1.2484148 3.3981321
0.9697575 1.2243258 3.3769941
0.39157474 1.2884245 3.3525534
0.42110509 1.2845457 3.3891063
0.94331127 1.2869432 3.3991127
0.97444725 1.2771989 3.3722327
0.42516002 1.3195248 3.3902025
0.94752347 1.3451015 3.3998284
0.97298527 1.3231957 3.3726945
0.39786991 1.3861578 3.3851581
0.42948666 1.3716561 3.393764
0.45043203 1.3899658 3.3899434
0.94865084 1.3729438 3.3963518
0.97830516 1.3742929 3.3684475
0.39796695 1.4207643 3.3759849
0.41624635 1.4075588 3.3890884
0.94976646 1.4008224 3.3926539
0.96646327 1.4259611 3.3784659
0.37384793 1.4748532 3.3597457
0.4068549 1.472177 3.3899581
0.97248137 1.4733167 3.3783779
0.37126264 1.5251942 3.364753
0.40272734 1.5243912 3.3897555
0.97191703 1.5221514 3.3801243
1.0045992 1.5269443 3.3507504
0.37993351 1.5775715 3.3773301
0.94725657 1.5835046 3.3998311
0.9789483 1.5715407 3.3717678
0.37184954 1.6263756 3.3716617
0.40679839 1.627305 3.3950386
0.94787294 1.602342 3.3959315
0.97486669 1.6266874 3.3756466
0.38020211 1.6693707 3.3785174
0.40850183 1.6692482 3.397033
0.97417241 1.6723372 3.3734429
1.0013005 1.6914444 3.3525476
0.33565867 1.7263126 3.3513515
0.37658891 1.7202078 3.3839929
0.93829769 1.7063315 3.3973954
0.97019345 1.7234697 3.3766487
-1.2942178 1.7933342 3.3553131
0.33773533 1.7808809 3.3553712
0.37257004 1.7804801 3.3882992
0.97904193 1.7772496 3.371573
-1.3022683 1.8413215 3.3607965
-1.2794273 1.8292186 3.3700047
-1.201568 1.8463943 3.3552299
0.33918297 1.8149471 3.3594124
0.37629223 1.8239875 3.3733437
0.43018505 1.8184441 3.3784027
0.47461155 1.8366205 3.3677578
0.98058164 1.8260423 3.3696702
-1.3067636 1.8754177 3.3604822
-1.2793577 1.8859009 3.3850689
0.35746422 1.8536497 3.3501275
0.97693837 1.8725305 3.3752165
-1.3177477 1.9163185 3.3560123
-1.289535 1.928046 3.3800366
0.97143221 1.9227881 3.3816752
1.0047487 1.9190364 3.3514566
-1.3137382 1.972154 3.3615639
-1.2913629 1.9697386 3.3784897
0.97801262 1.9749428 3.3769064
1.0087214 1.9540135 3.3525941
-1.3255054 2.0226877 3.3650417
-1.2898234 2.0305579 3.3906543
0.49111825 2.0188344 3.3542495
0.98424584 2.0230606 3.3700824
-1.3253486 2.0760672 3.3611977
-1.2978821 2.067946 3.3767891
0.49297655 2.0626771 3.3502429
0.97475308 2.0746021 3.3850319
1.0028673 2.070962 3.3559458
-1.3153044 2.1212425 3.3673911
-1.2931501 2.1385512 3.3963821
0.49957803 2.1086431 3.3864605
0.97676677 2.1205862 3.3768806
1.00835 2.119483 3.3561537
-1.3193641 2.1727853 3.3617554
-1.2941804 2.1689415 3.3845034
0.97903919 2.1741841 3.3732133
-1.3150574 2.2219565 3.3689277
-1.2856319 2.22543 3.3983412
0.94864434 2.209353 3.3973975
0.97014177 2.2256579 3.3785839
-1.3142121 2.2802947 3.3660293
-1.2910974 2.2735963 3.3920789
0.4612692 2.2834542 3.3776619
0.89384842 2.2896106 3.3768339
0.92402673 2.2845509 3.3823829
0.96811664 2.2753999 3.3730683
-1.3106124 2.322293 3.3596547
-1.2846676 2.327868 3.3768177
0.013987156 2.3373499 3.3693724
0.3029187 2.3491066 3.3571346
0.47165206 2.3197534 3.3675804
0.52048719 2.3074465 3.3879094
0.57827753 2.3321719 3.3792458
0.88318509 2.3200629 3.3732708
0.93111074 2.3071415 3.3563297
0.95943218 2.3210003 3.3580697
-1.2630149 2.3620057 3.368047
-1.2228149 2.3722188 3.3684566
-1.1758364 2.3719103 3.3747065
-1.1300958 2.3738897 3.3836401
-1.0783153 2.374198 3.3739719
-1.0376129 2.3753221 3.3961849
-0.97633761 2.3693399 3.3775756
-0.92672408 2.3797326 3.3687201
-0.87902117 2.3847003 3.3765678
-0.82449579 2.3837929 3.3764417
-0.76956284 2.3807268 3.3725741
-0.72712344 2.3865976 3.3790722
-0.67359692 2.3807123 3.3754478
-0.62798321 2.3805928 3.3669724
-0.57937604 2.3749187 3.3656492
-0.52362227 2.3831351 3.3753295
-0.47869119 2.3802483 3.3733394
-0.42763874 2.3787763 3.3703797
-0.37195578 2.3833156 3.3821094
-0.32329744 2.3717217 3.3694766
-0.27702683 2.378978 3.379329
-0.21982867 2.3770175 3.3650048
-0.17357934 2.3844924 3.3777645
-0.12627964 2.3774548 3.3694184
-0.070213743 2.3700168 3.3786542
-0.02329899 2.3623829 3.3682981
0.0047069807 2.3696558 3.360254
0.24715857 2.3505759 3.3628323
0.27523071 2.3514094 3.3623075
0.4368813 2.3774681 3.3676
0.46054757 2.3672819 3.3566933
0.5903222 2.3901632 3.3673332
0.88723159 2.3793883 3.3966663
0.62515378 2.4188187 3.3718207
0.67200255 2.440676 3.3703449
0.72911519 2.4404488 3.3604577
0.77409518 2.4387591 3.3731289
0.82525158 2.4275529 3.3782527
0.8721469 2.4223275 3.3767898
0.88747084 -0.36589354 3.4327588
0.91241568 -0.35645208 3.412596
0.65145081 -0.31522545 3.4294131
0.89082229 -0.3234331 3.4383416
0.91432315 -0.31715116 3.4113762
0.63612825 -0.26597536 3.441093
0.89052916 -0.26869568 3.4402943
0.91337299 -0.27060094 3.4170642
0.48093534 -0.22186007 3.4195464
0.51463008 -0.22222216 3.421926
0.57996732 -0.2192703 3.4118044
0.62006015 -0.23293373 3.4476953
0.89012623 -0.21399054 3.4412594
0.91387802 -0.22517633 3.4145393
0.54460818 -0.19645037 3.4011154
0.57304066 -0.18128897 3.4219904
0.60192758 -0.17424704 3.4434123
0.89290506 -0.16754337 3.4367287
0.91792911 -0.17092557 3.415405
0.54445916 -0.13090965 3.4021902
0.57326221 -0.13188396 3.4247911
0.89317036 -0.11728647 3.4391053
0.91929865 -0.12615766 3.4148459
0.54477304 -0.081841938 3.4051259
0.5745554 -0.082563996 3.4334838
0.89277047 -0.066930056 3.4384298
0.9191618 -0.074895628 3.4141388
0.54548794 -0.032724831 3.4101055
0.57457918 -0.033002976 3.4341307
0.60262185 -0.049788781 3.4499695
0.89471996 -0.025080696 3.4462957
0.92106205 -0.033195682 3.4134963
0.54206979 0.029564271 3.4094768
0.57492381 0.024888705 3.4361815
0.89367598 0.016891798 3.4422681
0.91997534 0.018890817 3.4176178
0.54257262 0.078191116 3.4173002
0.56685704 0.082826845 3.4378567
0.89438874 0.067315094 3.4445693
0.92354107 0.070194215 3.4157767
0.53972495 0.13478029 3.4140306
0.56718522 0.1325303 3.4387958
0.89439374 0.11769262 3.4436531
0.92005157 0.11903208 3.4164758
0.53170538 0.18274182 3.4117761
0.56781298 0.17413935 3.4413748
0.89451855 0.16809189 3.4427059
0.92322147 0.16722657 3.4187689
0.53987724 0.23082012 3.4221208
0.56783003 0.24044491 3.4388132
0.89561576 0.21875918 3.4450035
0.92183626 0.21750535 3.4197974
0.52956355 0.272605 3.4074981
0.56197947 0.28559929 3.4419503
0.89644217 0.2694613 3.4457595
0.92433274 0.26780674 3.4185293
0.52290624 0.32943591 3.4152734
0.55038601 0.3310934 3.4301264
0.89666843 0.32003972 3.4437058
0.9251321 0.31826827 3.4185762
0.52838218 0.38388902 3.419872
0.55311644 0.38265094 3.4437017
0.8974911 0.37091389 3.4434257
0.92563045 0.3687042 3.4169776
0.52419704 0.42926621 3.4162695
0.5536437 0.42464313 3.4437551
0.89773077 0.42156243 3.4404209
0.92651051 0.41935837 3.4163005
0.52574271 0.48022524 3.4219854
0.55505371 0.47579452 3.4481783
0.89879781 0.46427137 3.4408474
0.92429304 0.47195786 3.4165852
0.52422464 0.52671635 3.4186001
0.55551535 0.52631223 3.4461994
0.92178971 0.52208209 3.4221308
0.52981853 0.56889975 3.4286866
0.88675916 0.59410709 3.4494531
0.91862601 0.57208967 3.4247622
-1.1167729 0.64567846 3.4006448
0.5223707 0.62549233 3.4274285
0.91968822 0.626782 3.4222407
0.47508255 0.65929574 3.4205043
0.52129644 0.67552578 3.4264145
0.55840451 0.67179579 3.4475837
0.91873074 0.67755735 3.4254787
0.51724708 0.72297353 3.4253261
0.9236387 0.72958231 3.4234538
0.95017815 0.74338311 3.4007952
0.51547903 0.77524292 3.4189658
0.89201701 0.77689874 3.4456434
0.92461479 0.77724111 3.4238238
0.95259064 0.77914381 3.4042282
0.48833925 0.83478326 3.4094417
0.5167051 0.82753491 3.4308805
0.89427859 0.82167155 3.4475749
0.92363316 0.82305098 3.4224968
0.48943675 0.87013608 3.4114501
0.51812255 0.87618953 3.4325848
0.89614695 0.87484521 3.44609
0.92273188 0.87174171 3.4193327
0.49090007 0.92309064 3.4127178
0.5112043 0.92952114 3.4347353
0.89871049 0.92895514 3.4466546
0.92735481 0.92328632 3.4192562
0.49404502 0.97965676 3.4250357
0.51356971 0.97624111 3.4426777
0.89976299 0.97309309 3.4424999
0.93007827 0.97742486 3.4194131
-1.1093279 1.0190037 3.4008601
0.48857844 1.0250211 3.4176667
0.51446265 1.0204798 3.4402637
0.88647741 1.0379745 3.4487102
0.91856033 1.0198885 3.4275067
-1.1072665 1.0945852 3.4079382
0.49272802 1.074616 3.4273336
0.88967305 1.0938036 3.4499578
0.92477226 1.0712193 3.4240859
0.48520815 1.119422 3.4259286
0.89059365 1.1296967 3.4457119
0.92183506 1.1254635 3.426343
0.9519496 1.1201365 3.4035017
0.48242059 1.1783228 3.4240589
0.50272954 1.1773796 3.446579
0.89453548 1.1870704 3.4486468
0.92689908 1.1789234 3.4248893
0.47909597 1.2355646 3.4289043
0.50410908 1.2409397 3.4414365
0.89594322 1.2239217 3.4454546
0.92437643 1.2236122 3.4233105
0.44270405 1.2697738 3.4061394
0.47385457 1.2712901 3.4243603
0.89766359 1.2612987 3.4431899
0.92189074 1.2760574 3.4262238
0.43250376 1.3189635 3.4044795
0.46290493 1.3308973 3.4230092
0.92193508 1.3211229 3.4269123
0.42595538 1.3682716 3.4096432
0.45112228 1.3749065 3.4000406
0.91936195 1.3727307 3.4269907
0.43119943 1.4306949 3.4125385
0.45359325 1.425667 3.4061797
0.89240968 1.4387412 3.4499087
0.92442214 1.4277488 3.4223328
0.4315986 1.4763212 3.4126353
0.46448663 1.4677511 3.4357989
0.89603114 1.4980907 3.4475353
0.9244386 1.4778954 3.4278393
0.4319354 1.5270513 3.4156132
0.45953059 1.5143721 3.4295106
0.89745772 1.5183414 3.4473844
0.93021137 1.5221452 3.4157541
0.42531565 1.5784467 3.4191003
0.46412987 1.5825729 3.4468594
0.9214341 1.5743089 3.4254348
0.4388966 1.6284735 3.4293258
0.92085284 1.6257598 3.4206204
0.43847275 1.6742766 3.4260232
0.89101189 1.6828233 3.446584
0.92246395 1.6742939 3.4221003
0.42285836 1.7270991 3.4286358
0.45094442 1.7235518 3.4401436
0.89694428 1.7486862 3.4494908
0.92159468 1.7259208 3.4269536
0.3953312 1.7680103 3.4074969
0.42239341 1.7825031 3.4209149
0.45765492 1.7814029 3.4383268
0.89859724 1.7792957 3.445452
0.93254966 1.7735032 3.4174609
0.43284136 1.8029189 3.4097803
0.47738063 1.8167744 3.4250307
0.51104271 1.8363583 3.4450405
0.92748487 1.8202232 3.4249084
0.95082474 1.8383479 3.4002509
-1.2590299 1.8683121 3.4054098
-1.2438103 1.882677 3.4159801
0.4902041 1.8530897 3.417089
0.51157141 1.8654183 3.4378712
0.92553765 1.8760041 3.4284117
0.9543879 1.8726609 3.4017034
-1.2674493 1.9369547 3.4038954
-1.2321626 1.9215878 3.4286692
0.9237439 1.9230312 3.4277461
-1.2596703 1.9661142 3.4104691
-1.2294253 1.9697005 3.4332969
0.93029827 1.9722189 3.4240386
-1.2702594 2.0123825 3.413934
-1.2373331 2.0203023 3.4382057
0.51890248 2.0391724 3.424813
0.93209428 2.0229106 3.4246655
0.95160127 2.0336623 3.4050364
-1.2703425 2.075207 3.4201047
-1.235806 2.0715604 3.4453905
0.92234129 2.0761967 3.430747
0.95405412 2.0668364 3.4008522
-1.271688 2.1218789 3.4165764
-1.2346672 2.1219373 3.4419537
0.50294977 2.1413436 3.4004858
0.92918366 2.128454 3.4230585
-1.2719251 2.1774335 3.4189599
-1.2365102 2.1659162 3.4395134
0.52864122 2.171066 3.4455273
0.89605874 2.1814048 3.4438567
0.9303475 2.1761262 3.421098
-1.2603953 2.2295213 3.4257455
-1.2366369 2.2316206 3.4449451
0.89301592 2.2212124 3.4420023
0.91888124 2.2274654 3.419688
-1.265792 2.2802856 3.4109006
-1.2320338 2.2724011 3.4376197
0.48053372 2.2852046 3.4258928
0.51483166 2.2958889 3.4287033
0.88466787 2.2672305 3.4435852
0.91477346 2.2733502 3.4167528
-1.2610033 2.3281546 3.405792
-1.2304417 2.3314128 3.4342797
-1.1306899 2.3353431 3.443645
-0.051880077 2.342051 3.4319341
-0.023493908 2.3447495 3.4173262
0.53578621 2.3142865 3.4347341
0.56271708 2.3269076 3.4117556
0.88930607 2.3176184 3.4414163
-1.2216222 2.3611073 3.4175942
-1.180037 2.357631 3.4274771
-1.122992 2.3586547 3.4202101
-1.0795052 2.3639584 3.4253674
-1.0228946 2.371455 3.4243534
-0.97199428 2.3702035 3.4242601
-0.92592394 2.3682466 3.4273632
-0.87139273 2.3791039 3.4192832
-0.82266665 2.3773792 3.4262974
-0.77607459 2.3753948 3.4254045
-0.71791214 2.3794675 3.4186594
-0.67448032 2.3734965 3.4265425
-0.6255582 2.3789225 3.4225454
-0.5775252 2.3777308 3.4274602
-0.53205216 2.3727009 3.4220204
-0.46999931 2.3746812 3.4167283
-0.42210618 2.3722782 3.418164
-0.3754847 2.3776762 3.4302826
-0.32837996 2.3805199 3.4382303
-0.27990732 2.3778069 3.4281945
-0.22243345 2.3769524 3.420826
-0.17497674 2.3751879 3.4204688
-0.12757763 2.3731587 3.4191616
-0.074644275 2.3556335 3.4288425
0.62561166 2.3785927 3.4221773
0.8736071 2.3752716 3.4330966
0.63586986 2.4101768 3.4088995
0.67803741 2.4265027 3.4213202
0.72842288 2.4415379 3.420289
0.77504522 2.4269092 3.4102726
0.8292678 2.4254119 3.4373796
0.86112666 2.408617 3.4193714
0.69469464 -0.48823079 3.4625521
0.72438145 -0.4912222 3.4803314
0.75062644 -0.47481063 3.482223
0.68679202 -0.40433323 3.4732838
0.68372774 -0.37548038 3.4819229
0.8263396 -0.37329993 3.481688
0.86011624 -0.36021531 3.459327
0.67620337 -0.31684598 3.4915297
0.8293553 -0.32310155 3.4923744
0.86416411 -0.31891236 3.463594
0.66985005 -0.27017352 3.4925475
0.83739042 -0.27190337 3.4918823
0.8645137 -0.27041954 3.4677401
0.63187951 -0.21749161 3.4665792
0.83723879 -0.22087653 3.4936068
0.86379874 -0.22162484 3.4671185
0.62881976 -0.17216562 3.4714012
0.66204453 -0.17699236 3.4918153
0.83631581 -0.1696887 3.4916136
0.8655681 -0.16876496 3.467355
0.62348938 -0.1226005 3.4701557
0.66236371 -0.1349033 3.4947176
0.83700037 -0.11885238 3.4958351
0.86587864 -0.11814982 3.4699945
0.6235435 -0.072412401 3.4713488
0.8361761 -0.067795061 3.4932613
0.86522835 -0.06740889 3.4682512
0.62401938 -0.025040602 3.4743605
0.66219127 -0.033654112 3.4953473
0.83602542 -0.025355753 3.492991
0.8657732 -0.025226315 3.4707611
0.62222081 0.018935621 3.4763236
0.83601475 0.017083481 3.4929397
0.86536497 0.017003814 3.4691319
0.58593422 0.083181731 3.4509351
0.62596154 0.067292742 3.4848371
0.83961588 0.067957826 3.4892147
0.86734658 0.067641586 3.4677842
0.58818531 0.12521642 3.4633527
0.62608123 0.11771325 3.4846778
0.83749628 0.11913399 3.4977345
0.86589932 0.11839047 3.4699142
0.58336461 0.17503577 3.4584148
0.62082326 0.17042343 3.481344
0.83652091 0.16995566 3.4922369
0.86672986 0.16922903 3.4717584
0.58420312 0.21704422 3.4618049
0.61750209 0.21849656 3.4815056
0.83772713 0.22122233 3.4953415
0.86676651 0.21997699 3.4700196
0.58769923 0.26680318 3.4551153
0.6176632 0.26630205 3.4899611
0.8379972 0.25532112 3.4949212
0.86684424 0.27074119 3.4678566
0.58231819 0.32087103 3.4604335
0.61347032 0.31939626 3.4778006
0.83887678 0.32371783 3.4947701
0.86822075 0.32199147 3.4704809
0.58253521 0.36884311 3.468643
0.61196232 0.37146807 3.4904146
0.83945227 0.37508926 3.4937248
0.87012273 0.37362847 3.4745557
0.90097278 0.37233731 3.4568136
0.58276874 0.41928592 3.4663417
0.6128754 0.42272142 3.4917843
0.84069759 0.42684659 3.4949529
0.87019676 0.4246009 3.4709489
0.58037007 0.46816418 3.469641
0.61341494 0.49077579 3.4889784
0.84133548 0.47841844 3.4931333
0.87100059 0.47598526 3.4696999
0.58163887 0.51970184 3.4724705
0.61578786 0.52664828 3.4991779
0.84284592 0.53062356 3.494405
0.87195277 0.52755159 3.4685144
0.57777941 0.57357013 3.4730415
0.83833075 0.57707769 3.4954214
0.87193573 0.57787704 3.4720135
0.5799101 0.62645495 3.4799945
0.84442168 0.61733109 3.4914246
0.87634194 0.62912905 3.4658136
0.49116033 0.6548925 3.4559846
0.57680911 0.67412406 3.4727237
0.60124403 0.68230313 3.4976947
0.84621257 0.67021435 3.4923916
0.87563437 0.67499572 3.4660721
0.54418886 0.73406315 3.4577193
0.57219756 0.72780371 3.4834473
0.6018979 0.70012063 3.4992375
0.84857249 0.70652646 3.497551
0.87263638 0.72379494 3.4714735
0.54468495 0.77695674 3.4546678
0.57610708 0.77667612 3.4900017
0.84950256 0.75905108 3.4940143
0.86924005 0.77348655 3.4747524
0.54037952 0.82398599 3.4566486
0.57871521 0.82405698 3.4881096
0.84985566 0.81976795 3.4861498
0.86982888 0.82880723 3.4718926
0.54787499 0.86642933 3.4613202
0.57639539 0.87019092 3.4879203
0.83690298 0.86736715 3.4998665
0.86919451 0.87797666 3.4729757
0.53232968 0.92842281 3.4620695
0.56262434 0.92770523 3.4901845
0.86779052 0.92300129 3.4792919
0.53374052 0.97360176 3.4632819
0.5596298 0.98152977 3.4892447
0.8421104 0.99495053 3.4993465
0.8714394 0.97132599 3.4747176
0.53635108 1.029874 3.470104
0.56293243 1.0308713 3.4916713
0.84234607 1.0214204 3.4951129
0.87115824 1.0234185 3.4727321
0.52628273 1.0783184 3.4625688
0.55786699 1.0725608 3.48843
0.84436721 1.0501244 3.498138
0.87479764 1.0745655 3.4678481
0.52796489 1.1278026 3.4716396
0.56010216 1.120265 3.4930921
0.84810597 1.1251088 3.4984493
0.87259728 1.1219003 3.4737566
0.52664548 1.1716123 3.4731338
0.84992599 1.1627462 3.4979656
0.87486964 1.1725833 3.4718897
0.52781075 1.220525 3.4726532
0.86711788 1.223865 3.4786313
0.49038893 1.2846133 3.4591885
0.51895475 1.2734675 3.4778662
0.83696204 1.2578238 3.4990582
0.86752051 1.2739198 3.4777498
0.4918814 1.323362 3.460572
0.5202986 1.3301249 3.4859638
0.84063888 1.3256353 3.4982424
0.87314069 1.3243225 3.4689164
0.48714459 1.3727903 3.4560471
0.52062589 1.3785759 3.4840758
0.84297514 1.3739496 3.4957657
0.87394166 1.3755031 3.4684694
0.48733988 1.4225591 3.4668398
0.51659244 1.4218204 3.4864767
0.84658647 1.4246266 3.4980288
0.87251097 1.4258308 3.4710634
0.48891523 1.4711227 3.4650221
0.51498806 1.4784789 3.4917452
0.84839511 1.463593 3.4949186
0.87574351 1.4771831 3.4703114
0.48246941 1.5227542 3.4696274
0.50990123 1.5270989 3.4862473
0.84944856 1.5193521 3.4827292
0.87676287 1.5222675 3.47016
0.90080851 1.5419428 3.4545069
0.47800875 1.5687199 3.4673615
0.50576603 1.5845534 3.4924574
0.86947143 1.5743766 3.4820657
0.90193659 1.5618289 3.4529879
0.4794454 1.6285492 3.4697471
0.50743228 1.6257265 3.4921682
0.87617505 1.6246645 3.4730401
0.48096961 1.6812032 3.4798229
0.50916898 1.6673427 3.4919343
0.87408566 1.6697301 3.4746647
0.48290306 1.7239857 3.4808958
0.84785837 1.7235235 3.4958255
0.87873167 1.7225897 3.4753006
0.48493078 1.7766529 3.4791839
0.52343595 1.7843745 3.4905028
0.86733335 1.771772 3.4803169
0.52690947 1.8170873 3.4690566
0.55262953 1.8271135 3.4856064
0.87370384 1.8238988 3.4794214
0.90595871 1.8398743 3.4557259
0.52708304 1.8776606 3.4590466
0.56399405 1.8710454 3.4840593
0.87296867 1.877436 3.4795153
0.90685558 1.8601177 3.4517643
-1.2008967 1.940942 3.4526446
0.53274435 1.9284252 3.4835558
0.84399104 1.9214964 3.4952848
0.87846655 1.9247059 3.4733961
-1.2071812 1.9795249 3.4582448
-1.1855537 1.9887832 3.4742231
0.51966941 1.9593567 3.4658566
0.84854162 1.9787636 3.4944353
0.88178611 1.9693255 3.4707327
0.9009136 1.9983102 3.4566529
-1.2124676 2.0262609 3.4562716
-1.177765 2.0319979 3.4762647
-1.1300347 2.0243571 3.452549
0.53239965 2.0372777 3.4599333
0.87133986 2.0235813 3.4779572
0.90303874 2.0311265 3.4522982
-1.2098242 2.0761106 3.4609184
-1.1742504 2.0808136 3.4790483
-1.1209397 2.0709045 3.4746916
-1.0867115 2.0879669 3.492321
0.53756821 2.0852463 3.4811244
0.56842434 2.0861151 3.4992008
0.8723526 2.0721254 3.4751778
-1.2120212 2.1206415 3.4605024
-1.1801376 2.1298201 3.4782646
-1.1253935 2.1174309 3.4704702
-1.0826149 2.1179941 3.4892581
0.53963274 2.1212473 3.4813898
0.57026535 2.1211808 3.4976392
0.84275502 2.133538 3.4971035
0.8763696 2.1227725 3.4722011
0.91065234 2.1143355 3.4509454
-1.2123094 2.1742568 3.4609392
-1.1791773 2.1792011 3.4742343
-1.1264986 2.1633792 3.4691017
-1.0966384 2.1747131 3.4920194
0.51191306 2.1983037 3.4519694
0.5539943 2.1689992 3.4986358
0.84454507 2.1667252 3.4909382
0.87420636 2.1741815 3.4702511
-1.2152107 2.2233989 3.4628072
-1.1695877 2.2234612 3.4710996
-1.1214907 2.223067 3.4737878
0.52409714 2.2194538 3.4646261
0.55544114 2.2031531 3.4941778
0.8474043 2.202796 3.4888597
0.86308748 2.2306933 3.4742532
-1.2056212 2.275423 3.463038
-1.1751225 2.2730432 3.4674418
-1.1232876 2.2765982 3.4657357
-1.0880632 2.274529 3.4924593
0.48874593 2.2686315 3.467391
0.51814419 2.2821455 3.4654882
0.83521128 2.2696214 3.4976878
0.86077946 2.2800376 3.4687493
-1.2087986 2.3107915 3.4565659
-1.1800356 2.3217628 3.4611437
-1.113659 2.3159666 3.4623652
-1.0738516 2.3320074 3.478986
-0.071266748 2.3384893 3.4643173
0.54096299 2.3174829 3.4779255
0.57901216 2.3356812 3.4616222
0.83851737 2.3173983 3.4915931
0.86523581 2.3304846 3.4663639
-1.1721214 2.3549292 3.4534042
-1.0272048 2.3582573 3.4705825
-0.97339314 2.3732324 3.4796002
-0.92055047 2.3678448 3.4725056
-0.87837231 2.3690665 3.4627414
-0.83028996 2.3654671 3.4767008
-0.765782 2.3757517 3.4740667
-0.72235817 2.3763494 3.4823322
-0.67093736 2.3757284 3.4696445
-0.62111104 2.36976 3.4680138
-0.57466054 2.3768771 3.4849479
-0.5216502 2.3762634 3.4775898
-0.47007507 2.3753896 3.4658499
-0.42751196 2.3833785 3.4722755
-0.37862781 2.3781846 3.4690552
-0.32083955 2.3759482 3.4703236
-0.27300012 2.3764615 3.4742928
-0.22499438 2.3752191 3.4751384
-0.1763103 2.3646674 3.4618702
-0.12886198 2.3587856 3.4739635
0.66282451 2.3905764 3.4735031
0.83274293 2.3771038 3.4840558
0.85887003 2.3782742 3.4606853
0.68209797 2.4193609 3.4541981
0.73039401 2.4268303 3.4811521
0.77428937 2.4257169 3.467963
0.81578922 2.4178128 3.4685261
0.73988271 -0.47026795 3.514915
0.7594561 -0.46323606 3.5247009
0.74178958 -0.42863426 3.527566
0.77026939 -0.425679 3.5194283
0.72467071 -0.37394863 3.5231359
0.77539307 -0.37685004 3.5234425
0.80633378 -0.36675254 3.5043969
0.72104728 -0.3241145 3.5193863
0.77425265 -0.32497227 3.521579
0.80656832 -0.32418764 3.5081711
0.68267262 -0.27125058 3.5051527
0.72106385 -0.27292421 3.522311
0.77449989 -0.27371889 3.5255501
0.81425887 -0.27270421 3.5061045
0.67336041 -0.22009905 3.5041592
0.72173679 -0.22193846 3.5279214
0.77504742 -0.22254698 3.5304179
0.81411618 -0.22152925 3.5078509
0.67839402 -0.16527312 3.5096757
0.72256649 -0.17090406 3.5339396
0.77508426 -0.17116517 3.5324378
0.81408525 -0.17036216 3.5095966
0.67534137 -0.11514197 3.5086341
0.72237253 -0.11957555 3.5342567
0.7749784 -0.11978393 3.5333519
0.81421691 -0.11925572 3.5115173
0.67461652 -0.067781165 3.5146782
0.72269017 -0.068317451 3.5367067
0.77465522 -0.068362504 3.5327401
0.81371564 -0.068053097 3.5102432
0.67713898 -0.022541881 3.5130751
0.72283691 -0.025567776 3.5378292
0.77488565 -0.025590807 3.5341671
0.81374019 -0.025458174 3.5107017
0.64581263 8.2345017e-05 3.5001628
0.67478269 0.017065689 3.515892
0.72307515 0.017208656 3.5389247
0.77476662 0.017219793 3.5336106
0.81339264 0.017140897 3.5091801
0.67493719 0.068007343 3.5162632
0.72167647 0.070762902 3.5425014
0.77483672 0.068593889 3.5334651
0.81376308 0.068268612 3.510355
0.67590791 0.11909924 3.5203788
0.72427362 0.12006953 3.5434887
0.77556962 0.12006363 3.5358908
0.81722254 0.11935484 3.5080256
0.64772677 0.16095385 3.5080001
0.67678541 0.1703369 3.5235751
0.72452426 0.17156765 3.5433226
0.77532029 0.17143713 3.5333235
0.81392461 0.17055704 3.5086677
0.64871788 0.22055024 3.5111954
0.67745799 0.22163068 3.5251443
0.72554576 0.22331677 3.5464067
0.77619272 0.2230857 3.5353229
0.81451994 0.22183965 3.5093
0.64272124 0.28257391 3.5070126
0.67441398 0.2705707 3.5264587
0.72618657 0.2726239 3.5472183
0.77601194 0.27447316 3.5320621
0.82211518 0.27556354 3.5108988
0.63828331 0.32839322 3.5117381
0.67275256 0.32255888 3.5294604
0.72068787 0.33248273 3.5456641
0.77683252 0.32627296 3.5329027
0.81615376 0.32483569 3.5109634
0.63252646 0.37363088 3.5088756
0.67063385 0.37595519 3.52636
0.72741926 0.37884697 3.5467753
0.77812934 0.37841174 3.5353553
0.81636786 0.37622523 3.5084448
0.6329543 0.42486295 3.507385
0.67287827 0.42861184 3.5342128
0.72822219 0.4309724 3.5467532
0.77906352 0.43051419 3.5356302
0.81849122 0.42862985 3.5136013
0.62714815 0.47317299 3.5095887
0.67191935 0.47873211 3.5364661
0.72939807 0.47481811 3.5487716
0.78286332 0.47806054 3.5373168
0.81906223 0.48037601 3.5115757
0.62877071 0.52899915 3.5134609
0.67246789 0.5232392 3.5368729
0.73287004 0.51264602 3.5477476
0.77882081 0.52001721 3.5366538
0.81979972 0.53231353 3.5097291
0.62514389 0.57656431 3.5076585
0.67351633 0.57158965 3.5398495
0.78191733 0.57034278 3.5354714
0.81785733 0.57303852 3.5099132
0.62942451 0.62516028 3.516531
0.66853124 0.62113971 3.5390768
0.77911866 0.62142867 3.5403059
0.81719488 0.62325239 3.5175538
0.63255602 0.67290229 3.5185115
0.66585761 0.67889905 3.5414619
0.77719706 0.67742389 3.5422394
0.81589538 0.67355216 3.5154057
0.62416506 0.7228508 3.5113797
0.67577749 0.72848004 3.5439885
0.78021556 0.72725534 3.5412953
0.82096845 0.72680676 3.5148075
0.62537545 0.7763266 3.5233374
0.67037195 0.77033424 3.545516
0.77969146 0.77107877 3.5410008
