ply
format ascii 1.0
comment PCL generated
element vertex 1536
property float x
property float y
property float z
element camera 0
property float view_px
property float view_py
property float view_pz
property float x_axisx
property float x_axisy
property float x_axisz
property float y_axisx
property float y_axisy
property float y_axisz
property float z_axisx
property float z_axisy
property float z_axisz
property float focal
property float scalex
property float scaley
property float centerx
property float centery
property int viewportx
property int viewporty
property float k1
property float k2
end_header
1.156747 -0.27197805 3.2129166
1.145234 -0.22483443 3.2320194
1.1549864 -0.22362246 3.2105255
1.1492443 -0.19336699 3.2447557
1.1683785 -0.17644949 3.2255049
1.170864 -0.1304854 3.2235398
1.1694684 -0.080195814 3.2310879
1.1701289 -0.034175254 3.2231109
1.1672893 0.024268158 3.2255764
1.1662425 0.080342822 3.2220609
1.1669434 0.12850322 3.2228918
1.1486807 0.19363073 3.2428744
1.1638119 0.1766648 3.2230461
1.1493911 0.22601335 3.2434123
1.1627873 0.22425389 3.2125275
1.1687963 0.2661798 3.2343352
1.2257285 0.27346829 3.2091134
-0.031025995 2.2286587 3.2126176
-0.013371725 2.2630739 3.2267821
0.026015287 2.2813606 3.2208285
0.07632117 2.2867172 3.2277718
0.12639721 2.2879078 3.2211545
0.17494026 2.2966599 3.2175164
0.20197776 2.2982488 3.2185075
0.22561526 2.3217747 3.2147238
0.27298698 2.3261249 3.2280121
0.3130067 2.3320584 3.2410932
0.27891123 2.3790216 3.2148409
0.32534954 2.3734698 3.2367451
0.35207233 2.396384 3.2373114
0.32323712 2.4042063 3.2146599
0.3738583 2.4143724 3.2299297
0.42706075 2.4251058 3.2331264
0.47584033 2.4179585 3.2299821
0.51936841 2.4273324 3.2252431
0.57546973 2.4406173 3.2173691
0.62326741 2.4382782 3.2251713
0.66574836 2.4371085 3.2257993
0.73343253 2.4469583 3.2273533
0.84479141 2.4464371 3.2323775
0.86262017 2.4440641 3.2251906
0.90592813 2.4415975 3.2499506
1.1328361 2.4466491 3.2371063
1.1782444 2.4377847 3.2204952
1.2197108 2.4355865 3.2243505
1.2781036 2.4335675 3.2124081
1.3220446 2.4302211 3.2230687
1.3783237 2.4406404 3.229383
1.4170611 2.4315779 3.2222023
1.4743563 2.4373312 3.2304323
1.5210193 2.4346783 3.207834
1.5761235 2.4408536 3.2383027
1.6090701 2.4464729 3.2334399
1.8190626 2.4298725 3.2233171
1.870227 2.4249451 3.2365198
1.9266068 2.4332507 3.2220285
1.9810926 2.4261491 3.221103
2.0396271 2.4186685 3.2085235
2.0710447 2.4319274 3.2147801
2.1327963 2.4349954 3.2186129
2.1736701 2.4359505 3.2134089
2.2202582 2.4329674 3.2318621
2.2659702 2.4281943 3.2478585
2.3023734 2.4229004 3.2150774
0.77615571 2.4546628 3.2204692
0.83206832 2.4551518 3.2096457
0.88444704 2.4528797 3.2326577
0.92327529 2.4565523 3.2288144
0.96896338 2.4677773 3.2207797
1.0088658 2.4596789 3.2119732
1.0757641 2.465117 3.240603
1.1185194 2.455013 3.2139359
1.1554061 2.4531741 3.2003822
1.6350955 2.4561944 3.2378566
1.6508889 2.4504998 3.2217965
-0.011691904 -0.50169253 3.2620909
0.01969639 -0.50190234 3.2634151
0.069633372 -0.5087145 3.2728217
0.1296483 -0.5143398 3.2650425
0.17790101 -0.52146786 3.2831857
0.28792813 -0.53621036 3.269948
0.33834532 -0.54116219 3.2971716
0.94363225 -0.52625573 3.2800746
0.98106849 -0.51862383 3.276762
1.021234 -0.50635266 3.2687051
-0.011797189 -0.45876232 3.2960603
1.082783 -0.48193038 3.2869716
1.109823 -0.45916551 3.2649751
-0.02748134 -0.42497286 3.2823498
1.1165988 -0.42338833 3.273432
-0.027487302 -0.37786868 3.2868221
1.1219728 -0.37514922 3.282177
-0.027503446 -0.330816 3.2920635
1.1272259 -0.3230401 3.2755618
-0.027501091 -0.27828696 3.2949073
1.1276109 -0.27818424 3.2730713
-0.027493812 -0.22833416 3.2965455
1.1272788 -0.22935124 3.2746334
-0.027417261 -0.17272988 3.2895267
1.132315 -0.17660642 3.2831497
1.1534121 -0.1697887 3.2574253
1.1272386 -0.13004652 3.2844212
1.1527218 -0.129234 3.2567031
1.1317302 -0.08353363 3.2839088
1.15334 -0.080762342 3.2594831
1.1301786 -0.034449231 3.2881527
1.1509064 -0.032129105 3.2531443
1.1304239 0.027854908 3.285049
1.1534342 0.024468869 3.2602787
1.1324304 0.079268806 3.2858977
1.1524414 0.081055366 3.2568226
1.1368548 0.13055809 3.2866223
1.1536756 0.12970221 3.2592041
1.1332151 0.18177192 3.2853601
1.1529242 0.16198377 3.2560878
1.1291147 0.23006664 3.2795939
1.1328073 0.26002413 3.2695928
-0.013521055 2.2614408 3.2778876
0.022720255 2.2771573 3.2825696
0.077310704 2.2903419 3.2828453
0.13184051 2.2911093 3.282588
0.17680797 2.2940109 3.2671337
0.2229262 2.2930036 3.2814484
0.2778531 2.2959735 3.2824266
0.14952986 2.3018491 3.2614169
0.2221912 2.3036213 3.2606494
0.2765598 2.3034861 3.2571795
0.32299259 2.3113785 3.2650554
0.36837384 2.3271956 3.2791729
0.40938562 2.3371582 3.2941833
0.37122738 2.3743904 3.259244
0.42586118 2.3763177 3.2893233
0.47805125 2.3953938 3.295711
0.50669998 2.3992295 3.2976692
0.42924365 2.4097831 3.2662325
0.47356507 2.4129808 3.2718332
0.52464467 2.422205 3.275826
0.57749033 2.4296551 3.2715957
0.6233449 2.4306054 3.2734962
0.67993087 2.4331336 3.2678654
0.72988415 2.4450738 3.2782917
0.76736426 2.4487114 3.288954
0.87614155 2.4444499 3.2990003
0.9276855 2.4494793 3.2560792
1.0739278 2.4446094 3.2902527
1.1293877 2.4407089 3.2691174
1.1700625 2.4317062 3.2740188
1.2228993 2.4370627 3.2760813
1.2723531 2.4303565 3.2706835
1.328492 2.4356055 3.2807279
1.3785101 2.438736 3.2681634
1.4358413 2.4346004 3.28336
1.4831722 2.4484739 3.2873962
1.5195465 2.4440243 3.2662582
1.5661368 2.4459081 3.2724366
1.6285868 2.441463 3.2613018
1.6593318 2.4433141 3.2510438
1.7725722 2.4241498 3.259023
1.8293629 2.4269452 3.2835608
1.8659151 2.4354577 3.2804213
1.9181288 2.432965 3.2820854
1.9596622 2.4318438 3.2749512
2.0237155 2.4378991 3.27648
2.0719655 2.4365127 3.2726955
2.1211207 2.430634 3.2725968
2.1807508 2.4317081 3.2704229
2.2283275 2.4323313 3.2784336
2.2831535 2.425683 3.2861125
2.315695 2.4165053 3.2753611
0.71681041 2.4556427 3.270304
0.7874065 2.4552023 3.2690086
0.8242203 2.4592557 3.2735481
0.87354404 2.4561083 3.2776785
0.94859409 2.4548512 3.2587459
0.98415637 2.4587281 3.2685349
1.0267868 2.4628026 3.2660739
1.0705986 2.456075 3.2682884
1.1079276 2.4544482 3.255625
1.6107882 2.4593658 3.2977667
0.13166289 -0.51022768 3.3158834
0.17975605 -0.51104116 3.3197186
0.2280674 -0.51983875 3.3224556
0.27208489 -0.52392596 3.3203175
0.32624289 -0.53148746 3.3390899
0.3740662 -0.53072882 3.3310196
0.93758619 -0.53204691 3.3191376
0.9846313 -0.51067376 3.334506
-0.011830648 -0.48385161 3.3031576
0.019978311 -0.47722027 3.3129227
0.071240604 -0.48122296 3.3291087
0.13251036 -0.49748585 3.3389626
1.0420142 -0.49112597 3.342577
1.0711988 -0.47280753 3.324857
-0.011817813 -0.42787287 3.3046141
0.020012571 -0.43004787 3.3214316
0.061342351 -0.43274328 3.3418224
1.0917425 -0.43400845 3.332689
1.1035007 -0.42643705 3.301661
-0.011832581 -0.38081947 3.3125727
0.021483835 -0.37681186 3.3286636
0.052168284 -0.36863399 3.3470118
1.0967735 -0.38056824 3.3388937
1.1079355 -0.37869653 3.3190091
-0.011830434 -0.32522023 3.3158407
0.018456383 -0.32223693 3.3346469
1.0966607 -0.33087882 3.3421128
1.1103916 -0.33291817 3.3164191
-0.015754474 -0.26914889 3.3123631
0.020042181 -0.27119756 3.3375552
1.0968226 -0.28127658 3.3456502
1.1104637 -0.27539492 3.3201959
-0.015749853 -0.21773811 3.3152122
0.015474915 -0.22556315 3.3389885
1.0963383 -0.23977265 3.3463521
1.1078966 -0.22551054 3.3150105
-0.017072227 -0.184672 3.3157017
0.020026851 -0.18328881 3.33846
1.093976 -0.16495602 3.3421452
1.1100986 -0.18360427 3.3154087
1.0924062 -0.13174696 3.3383007
1.1025094 -0.13097833 3.3154125
1.0947121 -0.082462482 3.3463886
1.1080847 -0.078463361 3.3121097
1.0937439 -0.032863837 3.3439722
1.1047616 -0.028491506 3.3105733
1.0923642 0.029712895 3.3289917
1.1074638 0.013261591 3.3108115
1.0820456 0.082427345 3.3345659
1.1071376 0.085261092 3.309032
1.0821954 0.12833542 3.3285918
1.1086156 0.13106661 3.3071301
1.0861437 0.18049508 3.3174984
1.1165938 0.1719397 3.3033648
1.0846889 0.23270464 3.3262153
1.1058487 0.21833126 3.3044491
1.0792143 0.26277882 3.3194311
1.1203054 0.27376828 3.3094985
1.1672225 0.2971316 3.3153672
1.1370491 0.31915689 3.3212588
1.1674211 0.33019838 3.3137524
1.3526568 0.41317457 3.3372724
0.032038115 2.2671118 3.3222916
0.073294371 2.2848415 3.3202877
0.123996 2.2868192 3.3311625
0.16991949 2.2959824 3.3245699
0.27995858 2.2947998 3.3170254
0.2261982 2.3081121 3.3395634
0.3296963 2.3066611 3.3184617
0.37821269 2.3113198 3.3242164
0.43177021 2.3254244 3.3163934
0.47812569 2.3306961 3.3329694
0.51348859 2.333647 3.3393428
0.44900009 2.370466 3.3006992
0.47828141 2.3686404 3.3132524
0.52857846 2.3860204 3.3319159
0.53791606 2.4141562 3.3146248
0.57774979 2.414784 3.328814
0.62629288 2.4210246 3.3305776
0.67379159 2.4224672 3.3252258
0.72346801 2.4310672 3.3289735
0.77208668 2.4353306 3.3262539
0.82169026 2.4419944 3.3260872
0.86703688 2.4416521 3.3227081
0.90265673 2.4460144 3.3342249
1.0269017 2.4432988 3.3304241
1.0757977 2.4377174 3.3328483
1.1182085 2.4388101 3.3095067
1.1718569 2.4313972 3.3236284
1.2244239 2.4351687 3.3239174
1.2823977 2.4388866 3.3426371
1.3273305 2.4319265 3.3172371
1.3813038 2.4414415 3.3135939
1.4256983 2.4406791 3.3180623
1.532647 2.4413114 3.3443923
1.5793865 2.4395823 3.3342862
1.6107314 2.4394338 3.3101454
1.6611273 2.4353738 3.3274798
1.7765423 2.4369404 3.3253751
1.8051044 2.4483929 3.3316782
1.8769659 2.4427416 3.3355141
1.9314625 2.4269984 3.3296666
1.9804624 2.4261119 3.3196328
2.0309429 2.4281111 3.3300786
2.0727286 2.426039 3.3208244
2.1302872 2.4270658 3.3251977
2.1793053 2.425458 3.3293469
2.2403555 2.424551 3.3096876
2.2578661 2.4224238 3.3489609
2.3438542 2.4243615 3.3005402
0.89965516 2.4569395 3.3116789
0.93222857 2.4579654 3.325289
0.97194445 2.4617403 3.3214102
1.0106459 2.453161 3.319186
1.4816407 2.4587975 3.3477178
1.5285717 2.4546394 3.3232186
1.5683157 2.4549198 3.3079913
0.18185705 -0.50083399 3.3599586
0.23107529 -0.5024367 3.3687708
0.28413886 -0.51105648 3.3798375
0.32926473 -0.52011102 3.3714054
0.37873662 -0.52113867 3.3747227
0.42762133 -0.53197938 3.3698244
0.47046304 -0.53982759 3.3807323
0.51113945 -0.53959489 3.375385
0.92750388 -0.5239448 3.3784852
0.97730505 -0.50713682 3.3699718
1.0048848 -0.50015932 3.3747668
0.12314633 -0.47009122 3.3653121
0.17378446 -0.47396022 3.3854771
0.22458427 -0.48978665 3.3953521
1.0218956 -0.48780456 3.3737695
1.0590721 -0.46024853 3.3816495
0.078122117 -0.41509563 3.3559806
0.11748154 -0.42089519 3.3757508
0.15889961 -0.42345548 3.395241
1.0717509 -0.42516795 3.3683248
0.076513998 -0.37003827 3.3594205
0.11749776 -0.37237081 3.3798573
0.15056629 -0.37414208 3.3951368
1.0784575 -0.37698844 3.377315
0.068422005 -0.32146418 3.3596327
0.11746587 -0.32372272 3.3822749
0.15054685 -0.32530344 3.3979263
1.0813357 -0.32544413 3.3778982
0.068453193 -0.27336237 3.3638308
0.11750264 -0.27524856 3.3862228
1.0832807 -0.2761313 3.3749709
0.03609363 -0.21609291 3.3515196
0.068425 -0.22504622 3.3649433
0.11749905 -0.22666627 3.388401
1.0820204 -0.22347425 3.3736176
0.06826432 -0.18443726 3.3590221
0.11734512 -0.18593389 3.385474
1.0842859 -0.17878161 3.3735795
1.0765003 -0.12482471 3.38097
1.0714699 -0.080972537 3.3776789
1.0727193 -0.033093717 3.3731406
1.0711449 0.025064031 3.3729935
1.0609452 0.07989236 3.3737397
1.0638988 0.12841634 3.3756423
1.058097 0.17814735 3.3717039
1.0391607 0.22544296 3.390337
1.0587989 0.23267113 3.3675978
1.1352583 0.33283758 3.3503342
1.3452404 0.4839955 3.3592277
1.3401039 0.54825491 3.3874841
0.087707497 2.2890618 3.3536904
0.12515667 2.2802343 3.3768005
0.17137241 2.2879343 3.3680513
0.22323591 2.2926447 3.3819504
0.27133712 2.2947588 3.3792477
0.32227018 2.2982032 3.3933458
0.37719607 2.297904 3.3759863
0.23661721 2.3013906 3.3661864
0.28327864 2.3036425 3.3666961
0.32057723 2.3046694 3.3655674
0.37714872 2.3033683 3.3715801
0.4244611 2.3046134 3.3752933
0.47536421 2.3088939 3.3725631
0.53210223 2.3195729 3.366555
0.5739435 2.3284543 3.3797338
0.62812382 2.33816 3.390677
0.53898716 2.3626432 3.3532853
0.57917166 2.3831153 3.3586726
0.62296367 2.3819151 3.3760531
0.66384512 2.3834162 3.3912404
0.63852799 2.4032941 3.360224
0.68393046 2.4125395 3.3792048
0.72517753 2.4134297 3.3761573
0.77421153 2.4198976 3.3845801
0.82436979 2.4249403 3.3746047
0.87454939 2.4328234 3.3837917
0.9263652 2.4421 3.3822904
0.97199094 2.4360332 3.3669007
1.0285813 2.429723 3.369885
1.0731887 2.4351704 3.3835726
1.128525 2.4425263 3.3689981
1.1754657 2.4395895 3.3759925
1.2168202 2.4295764 3.3797936
1.2741668 2.4364152 3.3728929
1.3230587 2.4404132 3.3740933
1.3660055 2.4468832 3.3699758
1.4269304 2.4470775 3.3925304
1.4766581 2.4421349 3.3777611
1.516151 2.4440906 3.3847301
1.5733179 2.4384041 3.36835
1.6166716 2.4335265 3.365546
1.677494 2.4391983 3.3727043
1.7702417 2.4358637 3.3733454
1.8320545 2.4404292 3.3769364
1.8802943 2.4399037 3.3774233
1.9212118 2.4304388 3.3736107
1.9735293 2.422225 3.3658755
2.0327413 2.4219284 3.3683827
2.0977602 2.4286001 3.3977196
2.1307132 2.4194362 3.3801441
2.1743 2.4222 3.3788157
0.93066388 2.4503438 3.3736069
1.3697214 2.4535418 3.3790841
1.4208336 2.4564686 3.3660851
1.5520161 2.4520531 3.3989182
0.32439691 -0.50899589 3.4079471
0.36784175 -0.51228768 3.4272468
0.42762026 -0.51925415 3.4245067
0.47169328 -0.52040446 3.4285843
0.518525 -0.53076351 3.425596
0.5677042 -0.53022444 3.416935
0.62373525 -0.53565216 3.4461772
0.94815183 -0.52234429 3.4220552
0.97410583 -0.50584799 3.4214015
0.1838706 -0.45739082 3.4018271
0.21737535 -0.46727955 3.4124591
0.26816627 -0.47831142 3.4299994
0.30932236 -0.49472097 3.4253635
0.36955437 -0.49810001 3.4450266
0.9937852 -0.49036875 3.4294899
1.0381597 -0.46610847 3.418288
0.18391393 -0.42481077 3.4053547
0.21761642 -0.42677256 3.419713
0.26339638 -0.43556771 3.4435358
1.0436051 -0.42300367 3.4281878
1.0574924 -0.41270721 3.4096956
0.17553316 -0.37532762 3.4051116
0.21788806 -0.37797251 3.4275784
0.25233099 -0.37212226 3.4486551
1.0415488 -0.37392291 3.449059
1.0568569 -0.36757424 3.4169388
0.17217784 -0.32661909 3.4110801
0.21796404 -0.32879487 3.4320974
0.25218356 -0.33058062 3.4493463
1.0409734 -0.33972999 3.4495058
1.058391 -0.32028309 3.4193017
0.16728434 -0.27724159 3.4093688
0.21792741 -0.27941698 3.4343593
0.25172159 -0.28046173 3.4458523
1.0593109 -0.27289909 3.4192345
0.16730495 -0.22832091 3.4119816
0.21790308 -0.23007618 3.4363842
0.25183734 -0.2475825 3.4490778
1.0435758 -0.2111221 3.4352448
1.0581701 -0.22210522 3.4179871
0.16740024 -0.18765038 3.4154015
0.21782543 -0.188923 3.4367502
1.0568745 -0.16826044 3.421629
1.0486386 -0.11776996 3.4252636
1.0588708 -0.12324777 3.4196739
1.0427536 -0.063903749 3.4304557
1.0586843 -0.050060049 3.4010148
1.0418854 -0.025157882 3.4338
1.0594611 -0.016598392 3.4037085
1.0414888 0.016983347 3.432493
1.0585172 0.00015075406 3.4006913
1.0408211 0.064080939 3.4240234
1.0588214 0.050368633 3.4013829
1.0365489 0.12358532 3.4245765
1.0308044 0.17019385 3.4164126
1.034526 0.21911705 3.4243443
1.0382192 0.25439301 3.4448779
1.0843974 0.27019086 3.4186444
1.2790604 0.31885704 3.446151
1.3703566 0.4670994 3.424509
1.3614732 0.53959703 3.4434483
1.3481026 0.56875682 3.4057117
0.19097447 2.2730992 3.4011943
0.22983813 2.2889061 3.4230301
0.27701479 2.2822006 3.4292748
0.30478317 2.2884765 3.4178765
0.38079557 2.2944896 3.4209795
0.40186295 2.2885978 3.4485559
0.68830419 2.2980232 3.4275825
0.33512625 2.3036516 3.4384809
0.43001321 2.3063264 3.4342999
0.47223395 2.3094122 3.4250321
0.52168703 2.3140547 3.4232447
0.57389766 2.3150051 3.4309771
0.62935233 2.3172715 3.4112523
0.67777693 2.32375 3.4215748
0.71842295 2.3389647 3.4329319
0.76349181 2.3438396 3.4458566
0.68514639 2.3723168 3.4101906
0.72594798 2.3826401 3.4240601
0.77511519 2.3788326 3.43735
0.77422577 2.4049838 3.4174001
0.82697463 2.4089575 3.4332328
0.87350976 2.4165983 3.4314122
0.91848105 2.4208186 3.432302
0.97481567 2.4274716 3.4257329
1.020788 2.4281292 3.4301467
1.074057 2.4324293 3.420023
1.1199349 2.4271135 3.4301803
1.1795468 2.4352663 3.4237106
1.2136024 2.4379063 3.4461136
1.2982202 2.4480588 3.4366441
1.3357095 2.4438677 3.4181738
1.3696884 2.4439628 3.4361193
1.4243535 2.4398012 3.4255497
1.4727851 2.4293499 3.42115
1.5318868 2.4479184 3.4447885
1.5691348 2.4429688 3.422586
1.6692135 2.4364154 3.4176679
1.7290812 2.4288182 3.4265347
1.7860683 2.4395559 3.4362075
1.8191433 2.4311435 3.4228718
1.8789601 2.4309044 3.4109886
1.9224696 2.4262385 3.4313974
1.9745876 2.4281778 3.4262571
2.0244551 2.4284618 3.4356222
2.0704627 2.4333565 3.4209619
2.1211276 2.4224041 3.425837
2.2132497 2.4215658 3.4270103
2.2553813 2.4212575 3.4024069
1.3192989 2.4502666 3.4334927
1.379979 2.4519675 3.4163969
1.4006944 2.4533589 3.4115961
0.38989389 -0.50291473 3.477128
0.42262292 -0.50192451 3.4677067
0.47392228 -0.50307631 3.4714167
0.52337563 -0.51562154 3.4829712
0.56703812 -0.52070194 3.4664364
0.62268806 -0.52509379 3.4899569
0.68134475 -0.52459544 3.4793196
0.76901686 -0.5266875 3.4814925
0.825378 -0.53010833 3.4963274
0.87458676 -0.52882975 3.4795914
0.92413235 -0.5221321 3.4648631
0.95620316 -0.50978357 3.4528244
0.32486138 -0.47246805 3.4656165
0.36997125 -0.47562662 3.4861441
0.40886217 -0.48878062 3.4962499
0.45998228 -0.48936 3.4962902
0.98559844 -0.48616406 3.4640379
1.0145495 -0.46642497 3.4727397
0.28076598 -0.42027625 3.4543669
0.3197566 -0.42056283 3.4732215
0.35682201 -0.4196403 3.491195
1.0203317 -0.43366393 3.4746959
0.27449104 -0.38397822 3.4578781
0.32163334 -0.36739579 3.4792969
0.35667077 -0.36910856 3.4934013
1.0309103 -0.37872404 3.4739189
0.27786818 -0.33162734 3.4589741
0.32429665 -0.31994513 3.4883862
0.35688207 -0.32735679 3.4981861
1.03277 -0.32178733 3.4738083
0.27789289 -0.28189236 3.4621246
0.32187745 -0.27294096 3.4874654
1.0305181 -0.27350801 3.4791477
1.0577757 -0.25471333 3.4502728
0.27159965 -0.22999379 3.4637158
0.31962848 -0.22548392 3.4880242
1.035677 -0.22184782 3.4744911
0.20325129 -0.1658096 3.4704189
0.27176973 -0.18448783 3.4675183
0.31596825 -0.1808347 3.488023
1.0303977 -0.16836511 3.4755239
1.0273896 -0.11923288 3.4742987
1.0240046 -0.070859358 3.4738686
1.0200599 -0.025473921 3.481245
1.0219619 0.021446789 3.4723101
1.0205356 0.07064347 3.4692159
0.99637616 0.13697024 3.4910476
1.0180494 0.11341561 3.4628582
0.99752516 0.17139183 3.4940164
1.013896 0.16629346 3.4728134
0.99940789 0.23174635 3.49826
1.0163586 0.22503877 3.4697795
1.0240828 0.26224351 3.4778507
1.0637362 0.27355984 3.46856
1.2769932 0.33995283 3.4563234
1.3300526 0.33080393 3.4700131
1.373558 0.32653239 3.4764922
1.1935416 0.36211228 3.4662466
1.2371744 0.38330719 3.4646604
1.279225 0.38179192 3.4679558
1.3233854 0.37581658 3.4845943
1.3689206 0.36502689 3.488481
1.4037325 0.38505504 3.4669056
1.2418898 0.42720428 3.4922788
1.2743511 0.42643425 3.4770052
1.3214442 0.42028219 3.4887018
1.4007703 0.40169829 3.458195
1.2457885 0.47227576 3.4993525
1.2794703 0.47181165 3.4870539
1.3248408 0.46960264 3.4933858
1.2484188 0.54336327 3.4996862
1.2718917 0.52470374 3.4872653
1.3034109 0.52683634 3.494796
1.3786367 0.52877986 3.488766
1.2495695 0.57894206 3.4990051
1.270847 0.56631863 3.4887142
0.32682717 2.2925811 3.4606991
0.37522995 2.2896743 3.4718812
0.42744881 2.2928598 3.4759533
0.46811828 2.2917149 3.4727318
0.51184213 2.296525 3.4884119
0.3283416 2.3034203 3.4771047
0.49019518 2.303827 3.4629185
0.53291512 2.3038127 3.471051
0.5749588 2.3079441 3.4747872
0.62235355 2.3095965 3.4788601
0.67369974 2.3150411 3.4857671
0.72500014 2.314739 3.4672785
0.77725643 2.3150127 3.4673507
0.82696015 2.3218083 3.4803917
0.86959332 2.3324051 3.4888587
0.79470068 2.3509645 3.4511831
0.82797158 2.3731017 3.458751
0.87153929 2.3766406 3.4757817
0.91255206 2.3840017 3.4923871
0.93338984 2.4099402 3.4733644
0.97549027 2.4139745 3.4839327
1.0206349 2.4265311 3.4790406
1.0760283 2.4241946 3.472363
1.1673391 2.4347763 3.4753923
1.2244328 2.4396226 3.4882524
1.2762978 2.4433041 3.4788814
1.3249658 2.4408033 3.4599297
1.3769796 2.4420867 3.4891672
1.4317545 2.4369876 3.4775116
1.4698702 2.4376807 3.4804227
1.5407369 2.4417229 3.4766936
1.5932386 2.4442651 3.4611533
1.6223739 2.4370558 3.4840107
1.6667194 2.4420917 3.4750357
1.7407241 2.4390662 3.486846
1.7759613 2.4332783 3.4778321
1.8088467 2.4266648 3.4842892
1.8837327 2.4379604 3.482964
1.9358003 2.4222233 3.4678049
1.9743247 2.4310925 3.4653785
2.0287888 2.4251866 3.4788015
2.0769155 2.4251778 3.4717052
2.1327939 2.4265635 3.4804068
2.1723177 2.4239933 3.4722412
2.263716 2.4102089 3.4858811
1.2411804 2.4532626 3.4620245
1.2728012 2.4565959 3.4577966
1.5794011 2.4543893 3.4832892
1.7164934 2.4546287 3.4760094
0.54730678 -0.50896007 3.5055382
0.58368951 -0.51677108 3.5161192
0.62071478 -0.51351446 3.5294254
0.67343444 -0.51458544 3.5305851
0.7262857 -0.5155316 3.5303295
0.77747357 -0.51954514 3.5208831
0.81657159 -0.51828229 3.5367036
0.92162359 -0.5146966 3.5253496
0.96908545 -0.50390923 3.5340371
0.39215359 -0.45524251 3.5018051
0.43022627 -0.47241974 3.5157285
0.47598487 -0.47497359 3.540802
0.50662565 -0.49076316 3.5440629
0.57101816 -0.49786747 3.5471973
0.60603952 -0.49842516 3.5474503
0.99623954 -0.46967575 3.5361547
1.0000728 -0.47145936 3.5497921
0.38380632 -0.42159471 3.5058234
0.42861795 -0.42418587 3.5242071
0.47186884 -0.42649388 3.5398514
0.99651837 -0.41755763 3.5415304
1.0105692 -0.41956437 3.5048778
0.38381517 -0.37100628 3.5095634
0.42905182 -0.37366581 3.5315754
0.46972477 -0.37991565 3.5467267
0.99713922 -0.38300315 3.5463786
1.0118983 -0.37605035 3.5181537
0.38057628 -0.31831342 3.5165341
0.42926884 -0.3228648 3.5366116
0.46518594 -0.32422456 3.5486794
1.0119897 -0.32767209 3.5121293
0.37523553 -0.26969305 3.5145197
0.42916405 -0.27182546 3.5384517
1.006772 -0.27636331 3.5222876
0.34030527 -0.2015603 3.5076075
0.37474465 -0.21882898 3.5122843
0.4287183 -0.22061265 3.5371454
0.46478403 -0.23868071 3.5499802
1.0121522 -0.22381113 3.5117881
0.33987823 -0.16774751 3.5043337
0.3758004 -0.17723043 3.5237122
0.42567182 -0.18002363 3.5418963
1.0083187 -0.17649046 3.516053
1.0048207 -0.12061224 3.5212233
1.0079241 -0.068783447 3.5171278
1.0028114 -0.025673831 3.5154488
1.0103878 0.013914478 3.5166078
0.99973381 0.060205191 3.5043173
1.0012474 0.086075976 3.5092523
0.99296916 0.10419545 3.5439827
1.0044225 0.11221015 3.5198669
1.000597 0.20625846 3.5035286
0.99489528 0.26079464 3.5453565
1.0255264 0.27710366 3.5233848
1.0731821 0.29558724 3.5283494
1.1124493 0.29679924 3.5354278
1.0479958 0.32193202 3.535099
1.0726116 0.33382753 3.5372508
1.1206627 0.32409626 3.545042
1.0659698 0.37378728 3.542336
1.1082201 0.35057303 3.5484455
1.2187984 0.3873753 3.5382965
1.3706295 0.38805157 3.5061793
1.0630075 0.42009398 3.5475585
1.2292536 0.41904131 3.5330346
1.3440776 0.42328405 3.5100892
1.3737416 0.42426714 3.5112302
1.4047858 0.42567107 3.5153329
1.0665208 0.46118513 3.5454795
1.2394189 0.47543991 3.5263178
1.3458035 0.48560303 3.5090315
1.3756472 0.47794917 3.5112984
1.4066595 0.46172291 3.5168982
1.0634867 0.52969182 3.5454197
1.1859407 0.54685199 3.5390422
1.2296535 0.53355396 3.5250499
1.2500319 0.50897467 3.5078647
1.33732 0.5298472 3.5077388
1.3702998 0.52623957 3.5053027
1.0395231 0.59665793 3.5451691
1.0666083 0.57954079 3.5443394
1.1921756 0.57207537 3.5264919
1.2307966 0.56947148 3.5118165
1.2953571 0.58378011 3.5193172
1.3309779 0.57484245 3.5223041
1.3663564 0.56622565 3.5033989
1.0400553 0.62330055 3.5438776
1.0771548 0.62444514 3.5431731
1.041847 0.66833878 3.5444844
1.0759848 0.66684979 3.5418074
1.0426565 0.72165078 3.5401351
1.0669466 0.72494328 3.5334473
1.0455335 0.77657962 3.5422032
1.0730819 0.77738065 3.5403054
1.1028265 0.77968818 3.5451965
1.0478702 0.82255423 3.5432529
1.0714912 0.81962305 3.53899
1.0641483 0.86720431 3.5459065
1.0496103 0.90362936 3.5357049
1.0629387 0.92726982 3.5386868
1.064204 0.98499906 3.5454204
1.0728174 1.0256453 3.5409927
1.0730026 1.0723137 3.5452969
1.1011095 1.0788441 3.548918
1.0662717 1.133963 3.548497
1.049515 1.1893616 3.5439868
1.061434 1.2197528 3.545331
1.0567648 1.2792393 3.5483356
1.0591055 1.3093476 3.5491271
0.34909549 2.2957008 3.5026429
0.43668073 2.2844517 3.5169768
0.47540346 2.2861228 3.5157099
0.50716907 2.2995572 3.5332644
0.57382482 2.2956769 3.5192897
0.63465905 2.2966835 3.5329261
0.67548072 2.294178 3.5432851
0.78342628 2.2972693 3.5309069
0.81225812 2.2962484 3.5241754
0.53695661 2.3030608 3.5353258
0.62338734 2.3006961 3.5205832
0.67211562 2.3021016 3.5158498
0.72338665 2.3065608 3.5250823
0.76991272 2.3086619 3.5241363
0.84281647 2.300019 3.5246079
0.87129056 2.3077598 3.5109656
0.92280972 2.3260424 3.5209098
0.97172654 2.3386762 3.5396988
0.92826867 2.3679445 3.5121236
0.97638518 2.3783152 3.5269244
1.0175068 2.3731763 3.5425439
1.084637 2.3998806 3.5479581
0.99231303 2.4098685 3.5013435
1.0264363 2.4105272 3.5153246
1.0692382 2.4176404 3.5161815
1.124791 2.4235635 3.5256252
1.1783965 2.4277511 3.5252466
1.2180364 2.4267826 3.5271909
1.2742239 2.4383881 3.5150349
1.3251932 2.4387693 3.5222385
1.3755076 2.4472079 3.5201249
1.4268221 2.4429133 3.5336564
1.4747405 2.4298317 3.5260143
1.5254815 2.4457779 3.5348029
1.6211814 2.4456601 3.5459523
1.7348986 2.4364188 3.5167396
1.7671847 2.426362 3.501735
1.8387136 2.4422038 3.5231819
1.8638141 2.4371371 3.5278533
1.9287988 2.4300594 3.519006
1.97822 2.4250033 3.5204298
2.0232008 2.4226122 3.528657
2.0994463 2.415817 3.5305052
2.1802433 2.4121821 3.5172651
1.4048667 2.4555771 3.5017989
1.5172007 2.4529533 3.503844
1.5640296 2.4579673 3.5412173
1.6809964 2.4574208 3.542799
1.7105327 2.455014 3.526829
0.6458022 -0.50260979 3.5732305
0.67974186 -0.50209767 3.5653458
0.73869121 -0.50686294 3.5923495
0.79166645 -0.50719464 3.5873091
0.82571262 -0.51243824 3.5776637
0.87408513 -0.51991111 3.5705705
0.92069167 -0.50759977 3.5697327
0.52599925 -0.4756664 3.5590475
0.57809091 -0.46963751 3.5801511
0.6283381 -0.47503144 3.5882595
0.66701669 -0.48811319 3.593605
0.98421794 -0.48676312 3.5801766
0.48408034 -0.42824197 3.5535445
0.52036482 -0.42988098 3.5639501
0.57314253 -0.42767316 3.5821748
0.61363822 -0.43505594 3.5978916
0.48400399 -0.3682256 3.557344
0.52097726 -0.3787258 3.5719805
0.57139826 -0.38367444 3.5903232
0.61321849 -0.3999725 3.5980687
0.99829167 -0.36601084 3.5517018
0.47693411 -0.32525676 3.5588806
0.52093512 -0.32705346 3.5750313
0.5627141 -0.333184 3.5904467
0.99944347 -0.33152285 3.5580776
1.0019476 -0.33233681 3.5669646
0.47464862 -0.27355096 3.557575
0.52044785 -0.27515289 3.57447
0.56724328 -0.27700824 3.5943282
0.99870199 -0.26150745 3.5592918
1.0016586 -0.28852993 3.568481
0.47642213 -0.21885447 3.5603709
0.52120453 -0.22386353 3.5819423
0.55872512 -0.22512256 3.5985563
0.99965715 -0.24429837 3.5635159
1.0007936 -0.21835771 3.5686822
0.44795418 -0.17055543 3.5557079
0.47540483 -0.1797878 3.5671444
0.52008766 -0.1804219 3.5759041
0.56364894 -0.18442197 3.5939558
1.00237 -0.17491466 3.575877
1.0009545 -0.12224963 3.5722516
1.0019509 -0.069872305 3.5767162
0.59263843 -0.017224522 3.5949566
0.99856126 -0.026019072 3.5649903
0.59087044 0.034575485 3.5841165
0.99728179 0.00013581313 3.5604751
1.0004742 0.026349075 3.5717831
0.99594015 0.087111786 3.5549121
1.0006325 0.06130404 3.5720372
0.99949127 0.13979487 3.5664351
1.0007241 0.12248822 3.5712762
0.99755722 0.1743594 3.5584621
0.99871892 0.22689052 3.5605938
1.0221094 0.28671512 3.5754402
1.0324304 0.3205047 3.5835304
1.1270671 0.33344817 3.5500433
1.5807471 0.34649283 3.5804851
1.6123478 0.34742337 3.5813992
1.0366712 0.37353662 3.5721762
1.0924565 0.38623315 3.5553513
1.1242778 0.37345344 3.5622559
1.1695216 0.3767446 3.5701625
1.2064275 0.38021663 3.5584748
1.5790057 0.36993685 3.5865648
1.6299675 0.37679583 3.5951953
1.0342591 0.42266271 3.5762222
1.0933858 0.42170504 3.5556269
1.1252493 0.42377913 3.5675087
1.1766566 0.4264375 3.5799849
1.2135302 0.42979333 3.5614996
1.607316 0.43740946 3.5630751
1.0347356 0.47567543 3.5733125
1.0786015 0.48016456 3.5530088
1.1283857 0.47805533 3.5728238
1.1779234 0.47890916 3.5866852
1.2193063 0.47973737 3.5657432
1.0361246 0.529239 3.573138
1.091342 0.52381074 3.5549576
1.1283138 0.52840126 3.5738213
1.172153 0.52607405 3.5864799
1.2102371 0.51991999 3.5768011
1.032432 0.57601088 3.5749493
1.0979544 0.58219934 3.5551481
1.1323761 0.57119626 3.5701797
1.1700581 0.56961769 3.5753996
1.383466 0.59508109 3.5707722
1.0276036 0.61579025 3.5828905
1.1305141 0.62086183 3.5646219
1.1756097 0.62597513 3.5861712
1.222482 0.62327588 3.5909407
1.2699723 0.61795878 3.5898504
1.3011531 0.61251324 3.5864332
1.0213321 0.67221326 3.5702612
1.1291851 0.67803657 3.5661695
1.1739365 0.67608833 3.580616
1.2082392 0.66494 3.5929363
1.0247209 0.72285414 3.5689609
1.0856047 0.70912266 3.5608199
1.1225994 0.72706443 3.5634255
1.1823132 0.72194326 3.5885704
1.2128253 0.73059499 3.598073
1.0339267 0.77227247 3.5679064
1.1365817 0.77571499 3.5632329
1.1777383 0.7703644 3.5861804
1.2208656 0.7829861 3.5951412
1.031068 0.82144278 3.5838318
1.088865 0.83570665 3.5528679
1.1260835 0.82130194 3.5632899
1.1772658 0.830791 3.5850778
1.2164373 0.81417233 3.5966427
1.0357198 0.87071925 3.5755954
1.0909457 0.88184583 3.552187
1.1227595 0.87692267 3.5640643
1.1649921 0.87954903 3.5824711
1.2071941 0.87651104 3.5979393
1.0363054 0.92927951 3.5674949
1.0944772 0.92938614 3.5557606
1.1223443 0.92815667 3.5600095
1.1700611 0.92398453 3.5785794
1.2029045 0.91714066 3.5977678
1.0379492 0.97993535 3.5697985
1.0903615 0.97271329 3.5552337
1.131151 0.97566164 3.5677071
1.1706299 0.97438174 3.5834651
1.2064319 0.98357403 3.5965219
1.0357717 1.0224844 3.5765536
1.0977226 1.0038254 3.5527351
1.1250602 1.0276231 3.5648868
1.1722271 1.0166167 3.5845776
1.2077508 1.0028824 3.5969143
1.0408558 1.0725929 3.5732555
1.0643448 1.0959796 3.5500138
1.1298929 1.0676504 3.5706425
1.1776861 1.0794811 3.5922863
1.0397428 1.1213273 3.5761209
1.0733334 1.1276635 3.5580101
1.1208655 1.1256267 3.5733757
1.16046 1.1269647 3.5822456
1.0395311 1.1804506 3.5795567
1.073702 1.173358 3.5573645
1.1217587 1.1792867 3.5708141
1.16986 1.1655107 3.5873172
1.0355371 1.231362 3.5764668
1.0797985 1.2251881 3.558162
1.1320431 1.2301687 3.5805435
1.1640438 1.2333076 3.595444
1.0363456 1.2726707 3.574157
1.0766609 1.2686017 3.5534122
1.1171377 1.2738193 3.572036
1.1608744 1.2733986 3.5968864
1.0377855 1.3169044 3.5754404
1.0740999 1.3250211 3.5528011
1.12678 1.3247817 3.578809
1.0428214 1.3723562 3.572314
1.0768423 1.3749518 3.5609496
1.1245215 1.3793032 3.590606
1.1544663 1.3541051 3.5987966
1.0368713 1.4196306 3.580637
1.071292 1.4255813 3.5620174
1.1215202 1.4133819 3.582166
1.0410861 1.4809278 3.5790253
1.0749042 1.4773989 3.5693147
1.1295382 1.4752876 3.5878682
1.0417577 1.5282025 3.5672607
1.0765442 1.5246913 3.5665612
1.1255327 1.5274442 3.5860851
1.041689 1.5558844 3.5583138
1.072017 1.5789692 3.5770195
1.1143062 1.5687815 3.5865645
1.0381178 1.6349961 3.5959482
1.0716516 1.6195092 3.5774682
1.1227417 1.6068746 3.5868464
1.1556109 1.6040463 3.5980706
1.0407461 1.6768547 3.592303
1.0721312 1.6781188 3.5813231
1.1010727 1.6826751 3.5924547
1.0453749 1.7316098 3.5917969
1.0748975 1.7334411 3.589376
1.0496457 1.7671847 3.5962343
1.0732365 1.7799101 3.589674
1.1107087 1.7737308 3.5967052
1.0484885 1.803207 3.5782492
1.077801 1.8256506 3.590606
1.0672548 1.8669214 3.5892138
1.1020849 1.8869607 3.5989583
1.0439863 1.9248415 3.5952854
1.0695752 1.9185616 3.5863419
1.1044991 1.920063 3.595283
1.0463222 1.9677171 3.5876036
1.0719078 1.9761139 3.5889912
1.0688623 2.0236328 3.5900378
1.0404874 2.0912337 3.596879
1.0692699 2.0804386 3.5928171
1.1015575 2.0861363 3.5958562
1.0460272 2.1416779 3.5982645
1.0707756 2.125737 3.5934801
1.0469587 2.1632586 3.5923815
1.0739614 2.181987 3.592792
1.034815 2.2385333 3.5948644
1.0645883 2.2287674 3.5930734
0.52920866 2.2920237 3.5590296
0.57541543 2.2891347 3.5624392
0.62387842 2.2939844 3.5774972
0.67301589 2.2995162 3.5931346
1.0379653 2.2751808 3.5911627
1.0693029 2.2784474 3.5894344
0.60931975 2.3012269 3.5637319
0.67367351 2.3017168 3.5965276
0.72548127 2.3043957 3.5724421
0.77260655 2.3035219 3.5840137
0.8233366 2.3079123 3.5823336
0.87228632 2.3069158 3.5716541
0.91884679 2.301796 3.5682824
0.97954702 2.3207402 3.5616999
1.0224873 2.3206668 3.576947
1.0653913 2.3314931 3.5920644
1.0423802 2.3746932 3.5603631
1.0765308 2.3739634 3.5725567
1.1173337 2.3762259 3.5878184
1.1588323 2.3891993 3.598511
1.1336532 2.4090757 3.5718522
1.1733114 2.4180598 3.5716643
1.238389 2.4269898 3.5507948
1.2760978 2.4309373 3.5683539
1.3240836 2.4347744 3.5677834
1.3702538 2.443686 3.583148
1.4106232 2.4415486 3.5819483
1.4685184 2.4329908 3.5791423
1.5117785 2.436229 3.5698171
1.6889915 2.448175 3.571676
1.7248533 2.4388218 3.5774579
1.783217 2.4311841 3.5768661
1.8240929 2.4307899 3.5671108
1.8776684 2.4315755 3.5786526
1.9186722 2.4299746 3.5785718
1.9642243 2.417737 3.5737891
2.0225651 2.4260709 3.5877955
2.0759385 2.4155734 3.5774066
2.117902 2.4154775 3.5740707
1.3793384 2.4621065 3.5653632
1.5413369 2.4504218 3.5833235
1.5765411 2.4567571 3.5813599
1.6101722 2.4604826 3.5752909
1.6579905 2.4591379 3.5787029
0.72302216 -0.50813937 3.6037445
0.76829797 -0.50909889 3.6045475
0.86837494 -0.51114744 3.6044476
0.6757338 -0.46686903 3.6103079
0.72660786 -0.47540152 3.6245646
0.77805054 -0.48017341 3.6349721
0.82191533 -0.49149302 3.643322
0.87211126 -0.49562323 3.6214619
0.92723447 -0.49671087 3.6206248
0.98019159 -0.47697979 3.6258228
0.62818873 -0.41864786 3.6062973
0.67069745 -0.42065465 3.6190257
0.72558427 -0.42548472 3.6349339
0.77605629 -0.44329694 3.6470757
0.99945527 -0.42625269 3.6184394
0.59592175 -0.37394428 3.6024032
0.62376773 -0.37499025 3.6095843
0.67093503 -0.36819482 3.6240687
0.71698254 -0.37379116 3.6386909
1.0026401 -0.37414733 3.633898
0.58911276 -0.32705817 3.6069615
0.62442321 -0.33172396 3.6161299
0.67170352 -0.32473406 3.6309869
0.71532202 -0.32299763 3.6395848
1.0040855 -0.32111487 3.6425257
0.59585762 -0.27823865 3.60763
0.62437624 -0.27931663 3.618737
0.67163569 -0.28081259 3.6330099
0.71363336 -0.27739772 3.641098
1.0044069 -0.2766071 3.646136
0.5862956 -0.22571439 3.605567
0.62345076 -0.22660224 3.6157351
0.67145151 -0.2280831 3.6343586
0.72331595 -0.220384 3.6468401
1.0045114 -0.24092376 3.6481881
0.59079915 -0.17367359 3.6079798
0.62414336 -0.17445762 3.6216171
0.66850615 -0.18031932 3.6340559
0.72371501 -0.18676235 3.6455276
1.0032644 -0.19604029 3.6454241
1.00333 -0.11579625 3.6478972
1.0028498 -0.071167886 3.646863
0.59463787 0.0087428652 3.6070814
0.99911708 0.017895961 3.6336911
1.0020646 0.017966339 3.6443815
1.0025412 0.089244589 3.645395
1.0015721 0.12476623 3.6411285
1.0021678 0.17829466 3.6417608
0.99536419 0.2267326 3.6321976
1.0013663 0.27606016 3.6347084
1.0107206 0.32072327 3.6322851
1.0162492 0.37152991 3.6236899
1.6532549 0.37077773 3.6238623
1.0111117 0.42773965 3.6261873
1.6597046 0.42804247 3.6335683
1.0134006 0.47786847 3.6234951
1.6510113 0.46277311 3.6113155
1.0131266 0.5223248 3.6319091
0.99233902 0.59283239 3.6450315
1.0104949 0.56737542 3.6177356
0.9929257 0.63811308 3.6420155
1.0108273 0.6282174 3.6120541
1.2300545 0.64900786 3.6022906
1.2954687 0.63657457 3.6232164
1.3298677 0.63247603 3.6274853
1.3726311 0.62705648 3.631196
1.4152313 0.63230145 3.6233013
0.99245363 0.68271023 3.6347187
1.0067004 0.68021566 3.6180069
1.2264365 0.68035269 3.6068399
1.2711333 0.66982764 3.6218393
1.3207697 0.67812973 3.6427364
1.4240254 0.66386622 3.6423585
0.99466074 0.72926331 3.636848
1.0058508 0.72435391 3.6090302
1.2285198 0.71834445 3.6031039
1.2699674 0.7285102 3.6229582
1.3108387 0.72659153 3.6363657
1.0189251 0.77221614 3.6157181
1.2289995 0.77229589 3.6016858
1.2750435 0.7771101 3.6308503
1.3179399 0.77279425 3.646173
1.3524438 0.79415935 3.6496544
1.017749 0.83244723 3.6370575
1.2333499 0.82949013 3.6060159
1.2761196 0.82352561 3.6268184
1.3119016 0.82879746 3.6432261
1.0240974 0.88439238 3.6170421
1.2350967 0.87397051 3.6079097
1.2769717 0.87657994 3.6264911
1.3123351 0.86591113 3.638448
1.0171441 0.92818046 3.6307971
1.230841 0.92719716 3.6095874
1.2869718 0.92512912 3.6357791
1.3173943 0.90623385 3.6461456
1.0213679 0.97164375 3.6268508
1.2253103 0.969504 3.6121016
1.2654157 0.97574759 3.627558
1.3011953 0.99118549 3.6419337
1.0159885 1.0055486 3.624052
1.1915148 1.0319601 3.6017497
1.2256707 1.0306447 3.6104865
1.2681041 1.0239422 3.6263475
1.3042564 1.0213752 3.6450703
1.0163971 1.075863 3.6235855
1.2286012 1.0769792 3.6162586
1.2757628 1.076535 3.6387501
1.3078562 1.0800561 3.643712
1.0194771 1.1248612 3.6249008
1.1992072 1.1213353 3.6075838
1.227872 1.1280041 3.6237867
1.2772866 1.1238991 3.6434381
1.0215094 1.1728879 3.6218901
1.1735082 1.1967512 3.6029241
1.219017 1.1775156 3.6265283
1.2677766 1.170036 3.645092
1.0234337 1.2210057 3.6181087
1.178206 1.2230021 3.60133
1.2204238 1.2253226 3.6197546
1.266644 1.2309967 3.6481507
1.0213553 1.2757721 3.6339433
1.1848912 1.2794263 3.6095655
1.2230132 1.2744288 3.615962
1.2614635 1.2758576 3.642019
1.0238688 1.3345348 3.6289082
1.1848588 1.3198717 3.6100123
1.2250533 1.3254489 3.6288533
1.2653198 1.326786 3.6410892
1.0209131 1.3692081 3.6271102
1.1691489 1.3790182 3.6082261
1.2272662 1.3730012 3.6281781
1.2688546 1.3682289 3.6411848
1.0196775 1.4250666 3.626236
1.1422658 1.4362801 3.602355
1.1775345 1.4279448 3.6163335
1.2171516 1.4195354 3.6235414
1.255165 1.4307412 3.6451905
1.0246035 1.4787277 3.6302319
1.1433724 1.4563445 3.6004264
1.1787475 1.474894 3.6136973
1.2246977 1.4756342 3.6323118
1.2609733 1.4849522 3.6482344
1.0261858 1.5278718 3.6218512
1.1765863 1.5240475 3.6145031
1.2255862 1.5247518 3.6317313
1.2614949 1.5046139 3.6440463
1.0307869 1.5723908 3.6264517
1.1343689 1.581854 3.6010258
1.1768382 1.5725745 3.6119153
1.234646 1.5743265 3.6467483
1.0328288 1.61324 3.6215878
1.132207 1.6394277 3.6108799
1.1753849 1.6265701 3.6130297
1.2169142 1.6216459 3.6362419
1.2529757 1.6230102 3.6464794
1.0307472 1.6723334 3.6337986
1.1303056 1.6728659 3.6048603
1.1773021 1.6769886 3.621959
1.2270008 1.674884 3.6460376
1.0357547 1.7282006 3.635107
1.1276033 1.7226986 3.60256
1.1795514 1.7317438 3.6255836
1.2297932 1.7346746 3.6467886
1.0375104 1.7693667 3.6277056
1.1336508 1.7702334 3.6081481
1.1695111 1.7811154 3.6234567
1.2203383 1.7694395 3.6398818
1.0439935 1.8285862 3.6326778
1.1291759 1.8262846 3.6088128
1.1746013 1.8275504 3.6248229
1.2179477 1.8239365 3.6406598
1.0360694 1.870156 3.6261761
1.1243436 1.8726773 3.6115723
1.1754616 1.8788162 3.631247
1.2212611 1.8737884 3.6384008
1.03684 1.937793 3.6458588
1.1305189 1.9315662 3.6122715
1.1712157 1.9196056 3.63024
1.2028158 1.9446146 3.6447279
1.036299 1.975724 3.6281962
1.1250165 1.9777464 3.6120584
1.169964 1.9683464 3.6293423
1.2052984 1.9781717 3.6401453
1.0350436 2.0315454 3.621618
1.0968291 2.028394 3.6017857
1.1329858 2.0310013 3.6210675
1.1787779 2.0226505 3.6401947
1.2111484 2.0174384 3.6454139
1.0316687 2.0736654 3.6261013
1.0991352 2.0522101 3.6008985
1.1336988 2.0742795 3.618988
1.1759932 2.0735862 3.6317277
1.0352789 2.1203129 3.6213405
1.088575 2.1481283 3.6000812
1.1245316 2.1277354 3.6143029
1.1671709 2.1262765 3.6314368
1.0274426 2.1762977 3.6285882
1.1254677 2.1721377 3.6119773
1.1749983 2.1805186 3.6373744
1.0242872 2.2179158 3.6199605
1.0972245 2.2248118 3.6005826
1.1304247 2.2215905 3.6089914
1.1769398 2.2171669 3.6420181
0.59428561 2.298974 3.602957
0.63487142 2.2839916 3.614805
0.67621994 2.290637 3.6197863
0.72822601 2.2990751 3.6257401
0.75808555 2.2995119 3.6217327
0.87301242 2.2952962 3.6372218
0.90461832 2.2995622 3.638308
1.0201346 2.2808805 3.6265082
1.1161349 2.2729003 3.6126192
1.1692683 2.2752078 3.640569
0.78913498 2.3033462 3.622838
0.83080024 2.3088613 3.6246209
0.87941617 2.3059053 3.6108325
0.94228625 2.3138993 3.6116142
0.97919291 2.3159239 3.6216176
1.0049406 2.3004394 3.6191885
1.0888386 2.3288341 3.6038752
1.1229343 2.3270619 3.6145155
1.1667006 2.3238683 3.6291466
1.2077236 2.3447721 3.6449687
1.1349101 2.361275 3.6025794
1.18028 2.3815632 3.6244202
1.2182053 2.3791735 3.6401474
1.2255377 2.4210377 3.6240458
1.27192 2.4212987 3.6280138
1.3260132 2.425755 3.6347733
1.3792439 2.4286828 3.6236787
1.4291182 2.4339287 3.6244271
1.4723969 2.4357395 3.628788
1.5295335 2.4439456 3.6233308
1.580765 2.4395978 3.626276
1.6302816 2.4453933 3.6214573
1.6797837 2.4337072 3.622694
1.7269166 2.4302473 3.6226773
1.7739664 2.4274967 3.6320183
1.8228314 2.424387 3.6228771
1.8742027 2.4251451 3.6277773
1.9221339 2.4211197 3.6249695
1.9697665 2.4162221 3.6204159
2.023145 2.4180698 3.6253166
2.0783465 2.4104784 3.6379857
2.1544774 2.4107244 3.6006198
1.6407903 2.4542542 3.6007648
0.82873571 -0.47083536 3.6590989
0.87307137 -0.47440404 3.6665626
0.92385972 -0.46956405 3.6743972
0.96508753 -0.46389493 3.669167
0.74877614 -0.40746686 3.6502368
0.77749854 -0.41746503 3.6558986
0.82570738 -0.42829144 3.6654875
0.87623376 -0.43120754 3.6834891
0.91849583 -0.42974102 3.6906688
0.97898036 -0.42664763 3.671989
0.74410671 -0.36748526 3.6523895
0.77762938 -0.37311399 3.6596563
0.82652229 -0.37512597 3.6729708
0.87669539 -0.37747797 3.6893208
0.92314357 -0.38127857 3.6971905
0.97704571 -0.37805587 3.6783664
0.74120218 -0.31865826 3.6545029
0.77740568 -0.31969908 3.6619046
0.82670951 -0.32158941 3.6770809
0.87667519 -0.32353735 3.6926048
0.91104245 -0.32908437 3.69908
0.98201597 -0.32139271 3.6802981
1.0066892 -0.32197139 3.6519995
0.74227399 -0.27729914 3.6560352
0.7774412 -0.27530676 3.6644583
0.8300702 -0.27333644 3.6828537
0.87442362 -0.27305952 3.6936584
0.90592861 -0.28830516 3.6996257
0.97833312 -0.27198887 3.6804903
0.73312867 -0.23688033 3.6545043
0.77714187 -0.23078375 3.6650307
0.82265311 -0.22948819 3.6738346
0.8717351 -0.22116192 3.6897821
0.97607023 -0.22476232 3.6829641
1.0053664 -0.21432228 3.6524022
0.67418003 -0.1585246 3.6517503
0.74752653 -0.1679759 3.6564114
0.77975416 -0.18123567 3.6705356
0.82437307 -0.18082267 3.6833439
0.87524015 -0.17938997 3.6929872
0.90465087 -0.16189301 3.6994226
0.97963494 -0.18206258 3.6776173
1.0049379 -0.16956851 3.6523783
0.98029929 -0.12569416 3.6816719
1.0050523 -0.14279251 3.6535504
0.94013458 -0.06284827 3.6933374
0.97428584 -0.07170628 3.6801748
1.003873 -0.07124503 3.6506128
0.94050825 -0.02686586 3.6950722
0.97526413 -0.026831135 3.684226
1.0041833 -0.026638659 3.6521039
0.97548938 0.018109921 3.6851263
0.941338 0.072183162 3.6978693
0.97486484 0.07200589 3.6822865
1.005055 0.062668018 3.6549191
0.94064188 0.13512343 3.6939082
0.97676969 0.1281167 3.6795282
0.94140446 0.16226955 3.6961675
0.97885197 0.17704248 3.6746256
1.004712 0.17874129 3.6510358
0.97682714 0.22518873 3.6854577
0.98520058 0.27002695 3.6794145
0.97602665 0.32397211 3.6774843
0.97681278 0.37824181 3.6769667
0.98021656 0.42748553 3.6760118
0.97626251 0.47136092 3.6765192
0.98166543 0.52597117 3.674119
0.97932929 0.57689118 3.6780419
0.97854394 0.62295121 3.6753662
1.3926983 0.64799696 3.6691825
1.4091281 0.64704865 3.6588595
0.97154397 0.67421216 3.6798439
1.3481019 0.6903789 3.6523485
1.3850579 0.67654616 3.6723552
1.4236907 0.68188888 3.6748798
1.4648154 0.6928829 3.6912112
0.97649413 0.72683614 3.6763132
1.3393388 0.71821469 3.6521587
1.374315 0.72207189 3.6645858
1.4204397 0.72834378 3.6872244
0.98298645 0.77129298 3.6732717
1.0009156 0.78819215 3.651983
1.3316525 0.77433425 3.650789
1.3656991 0.76871818 3.6621349
1.4228287 0.77480048 3.6887767
0.98181915 0.81697404 3.6766212
1.0035762 0.82661456 3.6561904
1.3293532 0.82587737 3.6553404
1.3757893 0.82362527 3.675993
1.4155906 0.82522082 3.6921139
0.98371094 0.87862784 3.6816645
1.0055623 0.87375695 3.6561463
1.3369751 0.87764192 3.6637497
1.3741077 0.87343568 3.6746311
1.4155945 0.86560386 3.6996341
0.98054695 0.92845154 3.6834221
1.0056374 0.91022867 3.6503248
1.3334599 0.9316411 3.6685169
1.3789449 0.92473483 3.682976
1.4169934 0.91353816 3.6952665
0.98706597 0.97348475 3.6783228
1.3196595 0.97408599 3.6598301
1.3691467 0.97331566 3.6822221
0.99172401 1.0278237 3.6787961
1.0133662 1.0364643 3.6564155
1.3255862 1.031773 3.6609983
1.3677634 1.0249059 3.6808672
1.4123087 1.029132 3.6987474
0.9903636 1.0745305 3.6793723
1.3279828 1.0738832 3.6643372
1.3715087 1.0748535 3.681361
1.4076109 1.0713964 3.6964028
0.98557675 1.1200229 3.6817536
1.0035868 1.1378877 3.6723127
1.2942605 1.1403369 3.6504853
1.3258984 1.1225466 3.6638179
1.3726053 1.1286255 3.6828496
1.4109359 1.1024368 3.6991549
0.98118174 1.1698079 3.6842408
1.0009959 1.1718639 3.6547055
1.3312284 1.1759058 3.6716564
1.3797185 1.1739528 3.6891563
1.4165545 1.1736186 3.699141
0.99107605 1.2285579 3.679287
1.0068645 1.2251556 3.6654675
1.281342 1.2112103 3.6566055
1.3208154 1.2219071 3.6705835
1.3788828 1.2221402 3.6874263
1.4009434 1.2434741 3.6978018
0.99648869 1.282078 3.6881943
1.0067303 1.2713761 3.6538692
1.2855829 1.27176 3.6549549
1.3240091 1.274061 3.671598
1.3644762 1.2647095 3.6876576
0.9970293 1.3202173 3.6808763
1.0109587 1.3139963 3.6599166
1.2912111 1.3151803 3.6613312
1.326978 1.3225307 3.6744471
1.3694271 1.3218551 3.6928408
0.99447232 1.3658913 3.6853187
1.0084188 1.388577 3.6693847
1.2968897 1.368456 3.6648576
1.3304291 1.3718125 3.6781604
1.3751692 1.3706976 3.6917458
0.99085552 1.4323291 3.6794615
1.0064083 1.4151806 3.6672742
1.279157 1.4269148 3.6575315
1.3216193 1.420491 3.6758256
1.3604459 1.4394889 3.6913083
0.98890615 1.4670649 3.688796
1.0052154 1.4821348 3.6701703
1.2754774 1.4743563 3.6539183
1.318105 1.474913 3.6751068
1.3556414 1.4766116 3.6872873
0.99302751 1.520682 3.6903954
1.0078228 1.5238571 3.6685631
1.247421 1.5488703 3.6517026
1.2831899 1.5280048 3.6626005
1.3298626 1.5183873 3.6815369
0.99754369 1.5753345 3.6928117
1.0123702 1.5782619 3.6706274
1.2759026 1.5756226 3.6576931
1.3341116 1.5721949 3.6890945
1.3671252 1.5572524 3.6979818
0.99004793 1.607322 3.6934323
1.0088422 1.6271778 3.6681967
1.281508 1.6349144 3.6682911
1.3180037 1.6240091 3.6769431
1.3628728 1.6417005 3.6904726
1.0078661 1.6695923 3.6725545
1.2743752 1.6769401 3.6650846
1.3204123 1.6764917 3.6785142
1.3568187 1.6756344 3.6935043
0.99053526 1.7301366 3.6982799
1.0147953 1.7246364 3.6661198
1.2441095 1.7140763 3.655714
1.2776772 1.7286106 3.6651893
1.3276248 1.7248851 3.6851277
1.3643724 1.7342271 3.6971171
0.99209034 1.7618886 3.6940658
1.0160341 1.7796433 3.6690841
1.2676275 1.7916739 3.6725111
1.3265797 1.7776223 3.6875331
1.3640915 1.7535765 3.6893845
0.996593 1.8282543 3.68993
1.0208451 1.8292091 3.6628976
1.2702944 1.824887 3.6693468
1.319263 1.828648 3.6899209
1.3537395 1.8252892 3.6988177
0.99958462 1.8727583 3.686563
1.0108182 1.8825368 3.6726334
1.2414258 1.8846785 3.6562374
1.2764459 1.8732057 3.6721807
1.3272046 1.8794428 3.6971123
1.0161304 1.9214453 3.6688819
1.2421194 1.9286308 3.6663392
1.2868844 1.9293034 3.6788719
1.3222126 1.9264438 3.6981258
0.989537 1.9794724 3.6915717
1.0160863 1.9757894 3.6648967
1.2304569 1.9771557 3.6554687
1.2696326 1.9821076 3.6794014
1.3165612 1.9728421 3.6969309
0.99153149 2.0130785 3.6869991
1.0170541 2.0246913 3.6733122
1.2405851 2.0332839 3.668931
1.2763132 2.0326118 3.6820858
1.3113658 2.0203519 3.6966791
0.99683452 2.073473 3.685945
1.0137414 2.077404 3.6669662
1.2326552 2.0759301 3.6684768
1.2784454 2.0782402 3.6830208
1.3145529 2.0554829 3.692872
1.0088897 2.127629 3.6701813
1.2139949 2.1312675 3.6595678
1.2603468 2.1218388 3.6764975
1.3024958 2.1291714 3.6948602
0.98780292 2.1766627 3.6956353
1.0033226 2.1668746 3.6748786
1.1873921 2.1649239 3.6515868
1.2275923 2.1702595 3.666352
1.275648 2.1763752 3.6866493
0.99187326 2.225955 3.6924267
1.0063608 2.213515 3.6676362
1.1971369 2.2433438 3.6530478
1.2308021 2.2190831 3.6696053
1.2772199 2.2319238 3.6881199
1.3120874 2.2061517 3.6940656
0.73228979 2.2919614 3.6556482
0.76361191 2.2962985 3.6578619
0.98802441 2.2790675 3.6740992
1.0123765 2.2670548 3.6705365
1.2210375 2.2738504 3.6641059
1.2745 2.2732008 3.6853974
1.3014584 2.284637 3.698318
0.78874564 2.3114579 3.6787314
0.82720041 2.3067081 3.6643298
0.87497085 2.3067899 3.6992128
0.92791802 2.3110774 3.6818259
0.96370268 2.3114204 3.6679645
1.2232183 2.3211865 3.6607893
1.2690308 2.322948 3.6819112
1.3045685 2.3210652 3.6918974
1.2325491 2.3532627 3.6527388
1.2757857 2.3769228 3.6719024
1.3190408 2.3794563 3.6884854
1.3217638 2.4058127 3.6711397
1.3714101 2.420192 3.6808634
