ply
format ascii 1.0
comment PCL generated
element vertex 1463
property float x
property float y
property float z
element camera 0
property float view_px
property float view_py
property float view_pz
property float x_axisx
property float x_axisy
property float x_axisz
property float y_axisx
property float y_axisy
property float y_axisz
property float z_axisx
property float z_axisy
property float z_axisz
property float focal
property float scalex
property float scaley
property float centerx
property float centery
property int viewportx
property int viewporty
property float k1
property float k2
end_header
1.9264003 2.428669 2.5185544
2.1267493 2.4144323 2.5349772
2.1754987 2.4155989 2.5184131
2.2269287 2.4165649 2.5140822
2.2704136 2.4153719 2.5266073
2.3388801 2.4202013 2.532233
2.38064 2.415679 2.540817
2.4452252 2.4053779 2.5229008
2.4812529 2.4222667 2.5270257
-1.1092525 -0.55276501 2.5646372
-1.0776235 -0.55342811 2.577601
-1.0238863 -0.5559206 2.5710468
-0.9726333 -0.55684584 2.555382
-0.91841936 -0.55411899 2.5556149
-0.87544525 -0.55549896 2.5728681
-0.80884284 -0.55414438 2.581104
-0.79033291 -0.55023527 2.5656152
-0.67450964 -0.55575532 2.5637944
-0.63994384 -0.55385405 2.5796561
-0.14750911 -0.55250043 2.5918787
-1.40801 -0.50180805 2.5592971
-1.3784337 -0.50341117 2.5809817
-1.3289602 -0.51047266 2.5753036
-1.2676046 -0.5172044 2.5723662
-1.2212856 -0.52836889 2.5686197
-1.1792976 -0.53791153 2.5723269
-1.1325495 -0.5444808 2.5857172
-1.0367217 -0.54924244 2.5675788
-0.97272021 -0.54638594 2.5702238
-0.92620754 -0.54582238 2.5792
-0.89498371 -0.54660887 2.5908694
-0.77534139 -0.5420469 2.5806181
-0.72731835 -0.54277164 2.5692635
-0.6820972 -0.54900092 2.5805175
-0.57474953 -0.54288346 2.5841329
-0.52308953 -0.5452311 2.5869565
-0.46987283 -0.5424149 2.5800898
-0.42561436 -0.54223847 2.584363
-0.38301635 -0.54803485 2.5547588
-0.26959196 -0.54236716 2.583338
-0.22113878 -0.54822898 2.5683174
-0.12695999 -0.54511583 2.5578835
-0.096100718 -0.54583204 2.562139
1.1196663 -0.54141998 2.5733414
1.1760415 -0.53840405 2.5763061
1.2230036 -0.53290612 2.5678589
1.2740895 -0.52003157 2.5746956
1.3208308 -0.50506812 2.5710042
1.3585228 -0.50106686 2.5743933
-1.567623 -0.46492079 2.5546322
-1.5242656 -0.46968412 2.5746377
-1.4774568 -0.48221403 2.5845795
-1.4227797 -0.49336323 2.588089
1.3281806 -0.49985895 2.5784564
1.3780675 -0.48400545 2.5760143
1.4102013 -0.46858364 2.5680013
-1.6043161 -0.41539827 2.5530865
-1.5753989 -0.4220233 2.5633509
-1.5271312 -0.42210194 2.5857437
-1.492558 -0.44291398 2.5984581
1.4197685 -0.42864847 2.5755072
-1.6096004 -0.37375861 2.5548594
-1.57507 -0.37347034 2.5684884
-1.5266032 -0.37349829 2.5903957
1.4281667 -0.37352589 2.5727584
-1.6139897 -0.32616436 2.5590987
-1.5757564 -0.32515386 2.5745175
-1.5357509 -0.32461375 2.5933275
1.4286492 -0.32303447 2.5756407
-1.686174 -0.25091472 2.5543876
-1.6214845 -0.27550086 2.5601649
-1.5760585 -0.27672848 2.579258
-1.5405809 -0.27660343 2.5935528
1.4304051 -0.27617547 2.5770023
-1.6926413 -0.22385465 2.5661376
-1.6236844 -0.22689255 2.5614736
-1.5750465 -0.22808671 2.5811188
-1.5419254 -0.23259144 2.5940695
1.4310287 -0.22575761 2.5769153
-1.6741569 -0.1875394 2.5542541
-1.62674 -0.18689562 2.565896
-1.5752627 -0.18657708 2.583956
-1.5400075 -0.18393894 2.5937274
1.4307734 -0.17557888 2.5717661
1.4257016 -0.12889455 2.5768509
1.4252464 -0.073490687 2.5775728
-1.7586068 -0.020754317 2.5727048
-1.7294891 -0.034827687 2.5720348
-1.6948721 -0.023979088 2.5555177
1.4235551 -0.026741557 2.577879
-1.7692924 0.036071539 2.5881524
-1.7168958 0.034078736 2.5588226
-1.6877323 0.00972874 2.5565169
1.4212565 0.020552272 2.5737085
-1.7297845 0.057052121 2.5861807
1.4168479 0.074486531 2.57091
1.3986728 0.14252862 2.5897269
1.4128709 0.12551422 2.5752823
1.4081647 0.17591196 2.5754433
1.3938632 0.22797272 2.5884705
1.4058313 0.21604376 2.5688379
1.4052751 0.25765687 2.5801671
-1.6125371 0.58811307 2.5542812
-1.5763557 0.59026527 2.5837994
-1.6259388 0.62800902 2.556643
-1.57673 0.6255244 2.5779593
-1.5360619 0.62750298 2.5944278
-1.6110042 0.66032541 2.5530713
-1.5798241 0.67602593 2.5734184
-1.5295933 0.67303908 2.5910902
-1.6013817 0.70751035 2.5729868
-1.5654819 0.7040534 2.573848
-1.5306939 0.70421559 2.5906932
-1.4940034 0.71419525 2.5855329
-1.6662463 2.2739077 2.5586576
-1.6238173 2.2780676 2.5790861
-1.5744325 2.2813237 2.5762947
-1.5220525 2.2927344 2.5786653
-1.4789073 2.2887273 2.585475
-1.4307094 2.288363 2.5753827
-1.3773006 2.2980983 2.5927875
-1.5237676 2.3016565 2.5624714
-1.4624391 2.3011851 2.5558352
-1.4120263 2.3004668 2.5796514
-1.3984464 2.3055329 2.5933144
1.7240376 2.423068 2.5920072
1.829082 2.4345293 2.5741947
1.8740343 2.4215548 2.5681994
1.9291047 2.4254451 2.5536139
2.1174636 2.4166529 2.5891349
2.2192602 2.4197538 2.5696528
2.3068905 2.4162512 2.5710864
2.4207201 2.4088411 2.5703592
-0.86565584 -0.55281883 2.6294458
-0.83643657 -0.55965936 2.6025393
-0.61889958 -0.55148304 2.6034298
-0.21440712 -0.55046272 2.6412172
-0.18930186 -0.55194676 2.6496491
-1.315313 -0.50743532 2.6081877
-1.2712393 -0.50739241 2.627908
-1.2262737 -0.51152599 2.629056
-1.173331 -0.52232993 2.6218123
-1.1258696 -0.53332347 2.620697
-1.0780534 -0.53880262 2.6271622
-1.0211504 -0.53865027 2.6236017
-0.97205049 -0.54022622 2.6086004
-0.92872423 -0.54189807 2.6282938
-0.88437688 -0.54810709 2.6010525
-0.81862259 -0.539056 2.624603
-0.77613145 -0.52754265 2.6273136
-0.72549397 -0.53341788 2.6278553
-0.67601544 -0.53897738 2.6196883
-0.62648487 -0.54150414 2.6317487
-0.57811898 -0.53473461 2.6318829
-0.53057849 -0.53371185 2.6218839
-0.49161753 -0.53979105 2.628962
-0.42653573 -0.5450905 2.6301994
-0.37281093 -0.54800701 2.6176684
-0.32281166 -0.54499471 2.6202576
-0.25136477 -0.54731435 2.6239047
-0.22668883 -0.54925728 2.6347308
-0.16128097 -0.54403639 2.6127844
-0.14281082 -0.54602373 2.6230519
1.1336573 -0.53300661 2.6165905
1.1806494 -0.52931762 2.6198707
1.2270267 -0.52331787 2.6220443
1.2729198 -0.51293117 2.6216323
1.3132486 -0.5045203 2.6125674
-1.4691151 -0.46128082 2.6052296
-1.427713 -0.46981499 2.6161563
-1.3752645 -0.47733319 2.6305997
-1.3265834 -0.49590316 2.6410575
1.3291799 -0.49428135 2.6300375
1.3794746 -0.46908125 2.6302555
1.4026109 -0.45233738 2.6025813
-1.4720339 -0.41925159 2.6105464
-1.4264839 -0.42407948 2.6304781
-1.390354 -0.42536822 2.6437385
1.3971167 -0.42424214 2.637804
1.4059792 -0.42592204 2.6121955
-1.471817 -0.37368274 2.6152544
-1.4238982 -0.37385154 2.6360457
-1.3968229 -0.37403989 2.6481142
1.3992318 -0.35898882 2.6382692
1.4095502 -0.37802738 2.618072
-1.5097535 -0.32668579 2.6049807
-1.4718765 -0.32521692 2.6201015
-1.4238849 -0.3253502 2.6406746
1.3979223 -0.30343372 2.6408083
1.4093592 -0.32520029 2.6262932
-1.513518 -0.27672747 2.6067774
-1.4719471 -0.27674523 2.6243007
-1.4322157 -0.27711937 2.6445577
1.3976883 -0.2619749 2.6435578
1.4103757 -0.27421349 2.6196043
-1.5173101 -0.22542107 2.6079571
-1.4722874 -0.22831146 2.6282809
-1.4337949 -0.23308152 2.6453426
1.3992392 -0.23002656 2.6486025
1.4130167 -0.22546823 2.6227229
-1.5177156 -0.18807125 2.610862
-1.4712676 -0.18662031 2.6288688
-1.4375479 -0.19367762 2.6442301
1.4134887 -0.17283532 2.6189928
1.4108318 -0.12301893 2.6220798
1.396426 -0.054877128 2.6499863
1.4094331 -0.075788826 2.62218
1.3952742 -0.020382475 2.6481197
1.4060907 -0.027080165 2.6217575
1.3971913 0.019465521 2.6329703
1.4051385 0.016632412 2.6107574
1.3931812 0.080254972 2.6328313
1.4044642 0.070769928 2.6129167
1.390695 0.12552874 2.6283078
1.3873407 0.17202896 2.6260982
1.3834511 0.22230853 2.6187253
1.3973608 0.26123002 2.626878
-1.5244555 0.59188884 2.6165879
-1.4678229 0.58891851 2.6246612
-1.445469 0.59122485 2.6466396
-1.5148003 0.62426782 2.6092877
-1.4749565 0.62530565 2.6223836
-1.4284623 0.62645191 2.637574
-1.3997592 0.64587241 2.6470504
-1.5065985 0.67980635 2.6075964
-1.4742239 0.67594659 2.6206746
-1.424111 0.67790675 2.6335223
-1.3904518 0.66461056 2.6473389
-1.5037409 0.70475966 2.6053281
-1.4713261 0.7079109 2.6169567
-1.4185705 0.71004283 2.625236
-1.3759578 0.71291143 2.6452444
-1.5646664 2.2740936 2.6147115
-1.5210387 2.2739124 2.6216767
-1.4742527 2.2750919 2.630481
-1.4241872 2.2745137 2.6252112
-1.3849828 2.2899904 2.6234329
-1.3215964 2.2941124 2.630651
-1.2758498 2.2951567 2.6338608
-1.2329981 2.2927275 2.6483734
-1.1625899 2.2687311 2.6433842
-1.3639319 2.3093843 2.6330745
-1.3471228 2.3033912 2.6141069
-1.2814262 2.3052051 2.6454544
1.6752753 2.428797 2.628047
1.7264405 2.4336152 2.64678
1.7783556 2.4440746 2.6325216
1.8286086 2.4382942 2.625061
1.8745905 2.4292164 2.6356204
1.9067634 2.4244413 2.6083105
1.9875891 2.4214413 2.6384315
2.0742719 2.4196107 2.6229131
2.1116791 2.4126017 2.6310551
2.1770973 2.4240532 2.6059725
2.2348735 2.4185832 2.6178761
2.2835267 2.4117079 2.6027765
2.3110671 2.421849 2.64818
2.3861771 2.4120648 2.6248593
-0.17679225 -0.55297375 2.6551635
-0.11274843 -0.55427498 2.6637211
-1.2072487 -0.50592041 2.6572332
-1.1707087 -0.50980121 2.6711538
-1.125297 -0.51543617 2.6770146
-1.0749007 -0.5214023 2.6827252
-1.0310528 -0.52548939 2.6811645
-0.9750827 -0.53291374 2.6791472
-0.92136157 -0.53584176 2.6708617
-0.87473816 -0.54004091 2.6724858
-0.82479352 -0.52026802 2.6714272
-0.77330065 -0.50817233 2.6686025
-0.72730064 -0.51625556 2.6712315
-0.67373228 -0.52510941 2.6781852
-0.62017465 -0.52404749 2.6749091
-0.56841987 -0.52238661 2.6834631
-0.52899057 -0.52886379 2.6701689
-0.4728148 -0.53909159 2.6723869
-0.43159008 -0.54271156 2.6839643
-0.38000256 -0.54568982 2.6704483
-0.32549787 -0.54513687 2.6724586
-0.27608514 -0.54560918 2.678467
-0.22352497 -0.54425842 2.6750247
-0.17911838 -0.54729182 2.6921997
-0.11408144 -0.54778612 2.6969774
-0.035429578 -0.54187769 2.6693022
1.1311991 -0.53288388 2.6749206
1.1701578 -0.5279066 2.6884518
1.2260369 -0.51853871 2.6763883
1.2719462 -0.50567842 2.6775165
-1.3544694 -0.45697734 2.6529477
-1.323527 -0.46929193 2.6615815
-1.2775227 -0.47748074 2.6760204
-1.2335385 -0.48528841 2.6854835
-1.1829555 -0.49641275 2.6924813
-0.81326228 -0.47514361 2.6995749
-0.78726125 -0.48690832 2.6938698
1.2881979 -0.497022 2.661875
1.3227239 -0.49259999 2.6666803
1.3642292 -0.47185507 2.6738362
-1.3640987 -0.42014733 2.6546247
-1.3215486 -0.42289999 2.6731098
-1.2757516 -0.42531806 2.69256
1.3847498 -0.42470422 2.6741681
-1.3700578 -0.37431356 2.6604986
-1.3227215 -0.37468266 2.6806822
-1.2856852 -0.37850547 2.6960862
1.3864787 -0.37687716 2.6762381
-1.3763757 -0.32561377 2.6612673
-1.3224593 -0.32601622 2.684644
-1.2884113 -0.33314466 2.6975667
-0.61196947 -0.3206811 2.6866522
-0.58135033 -0.31725457 2.6806145
-0.53895718 -0.30699745 2.6928718
1.3886493 -0.32661748 2.67435
-1.4111549 -0.27708074 2.652251
-1.3764707 -0.27709267 2.6653984
-1.3224829 -0.27742821 2.6886055
-0.60820597 -0.2796483 2.6729941
-0.57560837 -0.27962992 2.6774893
-0.53878385 -0.27424169 2.6943064
1.3844106 -0.27169704 2.6813083
1.4023596 -0.28362423 2.6508455
-1.4164667 -0.22402681 2.6553447
-1.3773315 -0.22870053 2.6703351
-1.327701 -0.23050891 2.6908824
-0.60712039 -0.227208 2.6714628
-0.574983 -0.22734275 2.6778049
-0.53919214 -0.22551087 2.6945014
1.3919667 -0.22677156 2.680481
1.408262 -0.22223495 2.6662891
-1.4222391 -0.18554315 2.65363
-1.376554 -0.18696302 2.6711674
-1.3381217 -0.18742199 2.6927669
-0.60634983 -0.17503306 2.6706312
-0.5744949 -0.17520911 2.6780896
-0.53780526 -0.17596178 2.6947322
1.3916395 -0.17150298 2.671993
1.4001023 -0.19329357 2.652386
-0.60601288 -0.12307392 2.6710317
-0.57428002 -0.12323667 2.6789656
-0.53737211 -0.12371028 2.6944478
1.3923615 -0.12629926 2.6682811
-1.4288549 -0.069919117 2.6953418
-0.60484564 -0.071091048 2.6670997
-0.57381117 -0.071256571 2.6780117
-0.53720945 -0.071560889 2.694844
1.3910214 -0.077995025 2.6738939
-1.4604119 -0.013767047 2.6913638
-0.60502869 -0.025805846 2.6684344
-0.57375509 -0.025865436 2.6782868
-0.53689259 -0.025960647 2.6937723
1.3877321 -0.029446442 2.6744053
-1.4619534 0.011536803 2.6815994
-1.4441545 0.035437286 2.6926384
-0.60534394 0.019504298 2.6698179
-0.5735749 0.019520571 2.6774237
-0.53722602 0.019601552 2.6954427
1.3835388 0.025699215 2.6731656
-1.4440217 0.063555583 2.6919913
-0.60533458 0.071292974 2.6691592
-0.5738427 0.071407191 2.6780689
-0.53712207 0.071696259 2.6943135
1.3766032 0.076570772 2.6750095
-0.60538495 0.12311812 2.6680965
-0.57389611 0.12330026 2.6770272
-0.53732479 0.12382521 2.6940558
1.3748916 0.12338199 2.6744108
-0.60981631 0.17150457 2.6738753
-0.57448155 0.17537573 2.6777952
-0.53766632 0.17606421 2.6938062
1.3687176 0.1749334 2.6722829
-0.61035037 0.22891338 2.6733301
-0.57522148 0.2275975 2.6786156
-0.53593922 0.22912332 2.6936812
1.3676841 0.22958444 2.6709535
-0.60719621 0.27937025 2.6681709
-0.57701659 0.27854717 2.6775286
-0.53856713 0.27428791 2.692847
1.3742826 0.25773805 2.6781628
1.4216831 0.2811228 2.6873994
-0.60817999 0.32535443 2.66904
-0.57481551 0.32372749 2.6773589
-0.53725165 0.32269278 2.6938944
-0.60870653 0.37121642 2.6673379
-0.5773446 0.37199295 2.6777558
-0.53488916 0.37398985 2.6939986
-0.61039531 0.42448768 2.6694946
-0.57842058 0.42498022 2.6774848
-0.53598619 0.42488149 2.694546
-0.61236989 0.47826523 2.6721566
-0.57916749 0.47789815 2.6749835
-0.54059607 0.47831479 2.6925344
-0.68195868 0.54573423 2.6970439
-0.61361676 0.52516985 2.6717799
-0.57813299 0.52609086 2.6763866
-0.53545123 0.51841438 2.6947994
-1.4169441 0.59104609 2.6571407
-1.3685633 0.59140086 2.6777864
-0.67371553 0.56436294 2.6890237
-0.62099898 0.5650183 2.6806779
-0.57153171 0.56544244 2.6828425
-0.53121978 0.5610826 2.6944134
-1.4042181 0.61470687 2.653039
-1.3743755 0.62602532 2.6667817
-1.330547 0.6291464 2.6883571
-1.2915114 0.64784074 2.6969962
-1.3693148 0.67975909 2.6637337
-1.3263745 0.67554849 2.6834779
-1.2892853 0.68021053 2.6951914
-1.4112478 0.70777881 2.6579843
-1.3678708 0.70364559 2.6561863
-1.3275911 0.71170282 2.6744576
-1.2833927 0.71152878 2.6960356
-1.267126 0.7768684 2.6901691
-0.81318688 0.78280854 2.6984363
-0.81093949 0.83054417 2.6974783
-0.81495786 0.8872354 2.6990731
-0.81719524 0.92178434 2.6988859
-0.81187928 0.9883762 2.6980939
-0.81455868 1.0263197 2.6977367
-1.4213784 2.2679963 2.6691666
-1.3756891 2.280864 2.6791251
-1.3310267 2.2882481 2.6818495
-1.2819316 2.2886558 2.6725144
-1.2251498 2.2888174 2.6727624
-1.1969626 2.2948976 2.6833949
-1.1465449 2.3024905 2.6952674
1.5697834 2.4286547 2.6842949
1.6224757 2.4285798 2.6566052
1.6696295 2.4393172 2.6767707
1.7344477 2.4396045 2.6922078
1.7809906 2.4375205 2.6727951
1.8233166 2.4326947 2.6719067
1.8719236 2.4249647 2.6873343
1.9075358 2.4121225 2.6738739
2.0246346 2.4166093 2.6727386
2.081389 2.4201188 2.6638372
2.1276448 2.422792 2.6829612
2.1616688 2.4192646 2.6540189
2.2828503 2.4219494 2.6682398
2.3412309 2.4145546 2.6615515
-0.15420045 -0.55131102 2.7130489
-0.13506325 -0.55357015 2.7248521
-0.049248375 -0.55213922 2.7197149
-1.1100186 -0.50841695 2.7018003
-1.0683964 -0.5082528 2.7124891
-1.0245882 -0.51380533 2.7157953
-0.97621006 -0.51362586 2.7269595
-0.92047602 -0.5241546 2.7263877
-0.87769461 -0.52469176 2.7256691
-0.84782314 -0.51330042 2.7148004
-0.71018893 -0.50671303 2.7045901
-0.67704099 -0.50687546 2.711189
-0.63039386 -0.50848627 2.7125762
-0.5773595 -0.51038629 2.7138138
-0.52229726 -0.51892269 2.7254362
-0.47772387 -0.52739519 2.7216396
-0.42413148 -0.53315884 2.7162354
-0.37483811 -0.53735471 2.7310073
-0.33018494 -0.5372346 2.7272689
-0.28255922 -0.54003137 2.7311428
-0.23548609 -0.54396224 2.7401741
-0.17526942 -0.54244322 2.735446
-0.14226101 -0.54272062 2.7381325
-0.029706918 -0.5424937 2.7393022
1.0669084 -0.52800661 2.7457731
1.1305187 -0.53194648 2.7302485
1.1745732 -0.52279299 2.7120636
1.2287897 -0.51082569 2.7231147
1.2630881 -0.5035485 2.7110837
-1.2169975 -0.46810293 2.707067
-1.1710066 -0.47469792 2.7237926
-1.1270125 -0.48352507 2.7332385
-1.0773697 -0.4986594 2.7370131
-1.0328526 -0.49725437 2.74038
-0.82514709 -0.48051339 2.7089181
-0.77431577 -0.46965921 2.70804
-0.72870582 -0.47674811 2.7256567
-0.68451881 -0.48180777 2.7390149
-0.6167708 -0.48226306 2.7359869
-0.57828587 -0.49463555 2.734303
1.2902565 -0.49189824 2.7188091
1.3302656 -0.48169115 2.7219267
1.360482 -0.460466 2.7146728
-1.2609235 -0.40269887 2.7008843
-1.2275002 -0.42400852 2.7128668
-1.1735154 -0.42461821 2.7340822
-1.133148 -0.43439621 2.7450914
-0.82218891 -0.42271459 2.7114985
-0.78017592 -0.42180452 2.7136388
-0.72993243 -0.4237572 2.7362134
-0.6984508 -0.44530761 2.7484336
-0.61136216 -0.42087501 2.7361896
1.3630414 -0.42454964 2.7241352
-1.2675059 -0.37243277 2.7042985
-1.2284392 -0.37561643 2.7200012
-1.1762269 -0.37740576 2.7402978
-0.82217389 -0.37574127 2.7161353
-0.77994663 -0.37482288 2.7174826
-0.73304617 -0.37546137 2.7405603
-0.61036837 -0.37356567 2.7362342
1.3677542 -0.37553394 2.7265475
-1.2710989 -0.32419771 2.7071757
-1.2281225 -0.32681316 2.7237113
-1.182533 -0.32924736 2.74263
-0.82078928 -0.32820895 2.7156584
-0.77996123 -0.32796213 2.721576
-0.73781377 -0.32770157 2.7432745
-0.6249873 -0.32292405 2.7237389
-0.56351191 -0.32949021 2.712554
-0.5193364 -0.31249279 2.7087748
-0.47743717 -0.30949342 2.7228303
-0.43383834 -0.31128842 2.7437017
1.3693748 -0.32469961 2.7243207
-1.2752384 -0.27295426 2.7116735
-1.228629 -0.27126163 2.7291093
-1.1881825 -0.27158225 2.7451677
-0.81904197 -0.27403134 2.7138765
-0.77927297 -0.27416909 2.7231505
-0.74234301 -0.27535757 2.7424619
-0.63705444 -0.27340093 2.7399983
-0.51391238 -0.27491784 2.7042732
-0.47494701 -0.27397493 2.7198904
-0.43065235 -0.27133736 2.73932
1.3684709 -0.27739432 2.7261789
-1.3029121 -0.22211786 2.7021434
-1.2770195 -0.22499971 2.7120147
-1.229146 -0.2226298 2.7333536
-1.1954917 -0.22286046 2.7468922
-0.81792772 -0.2202353 2.713444
-0.7785542 -0.22044474 2.7238495
-0.74117982 -0.22126487 2.7413929
-0.63649154 -0.22654498 2.7403877
-0.5157913 -0.23113942 2.7050583
-0.47745582 -0.22851875 2.720422
-0.42979652 -0.22577722 2.7405274
1.3753436 -0.22733843 2.7226045
-1.3104241 -0.18744929 2.7027543
-1.2752861 -0.18469866 2.718842
-1.2287928 -0.17384133 2.7350104
-1.1952946 -0.17404072 2.7488604
-0.81712937 -0.17332543 2.7130802
-0.77812147 -0.17356728 2.7245893
-0.74107903 -0.17428195 2.7432606
-0.63621378 -0.17980698 2.7414451
-0.5127939 -0.17632961 2.7037086
-0.4757356 -0.17713793 2.7207415
-0.42694056 -0.17681691 2.7417076
1.3769015 -0.17689751 2.726759
-1.42799 -0.11309755 2.7248597
-1.2272475 -0.12494256 2.7334187
-1.1938092 -0.12509342 2.7472808
-0.81657982 -0.126553 2.7129483
-0.77819532 -0.12681951 2.7265468
-0.74184579 -0.13017395 2.7439766
-0.63407451 -0.12608811 2.7341604
-0.51239556 -0.12396963 2.7034819
-0.47532794 -0.12453639 2.7203467
-0.42521152 -0.12522162 2.7410164
1.3740189 -0.12521546 2.72751
-1.4276226 -0.070556395 2.7251606
-1.260437 -0.078466065 2.7199938
-1.2261258 -0.076201223 2.7321224
-1.1929473 -0.076310575 2.7464962
-0.81602538 -0.073161155 2.7123971
-0.77835393 -0.07339108 2.7283916
-0.7411381 -0.073687911 2.7464337
-0.63391334 -0.072947763 2.7347124
-0.51269627 -0.071784995 2.7062912
-0.4753049 -0.072060511 2.7213693
-0.42525148 -0.072487809 2.7425327
1.3748785 -0.074865073 2.7260463
-1.4502734 -0.013810876 2.7042396
-1.4280337 -0.030384608 2.7210848
-1.3956792 -0.020942444 2.7292645
-1.268085 -0.027707739 2.7371867
-1.2263764 -0.027574455 2.7332652
-1.1925963 -0.027608819 2.7463112
-0.8159461 -0.026532007 2.7126904
-0.7783311 -0.026618382 2.7288578
-0.74436021 -0.030077018 2.7458715
-0.63275099 -0.026430229 2.7302387
-0.51226872 -0.026042962 2.7045515
-0.47517097 -0.026155861 2.721138
-0.42678222 -0.027504105 2.741164
1.3456833 -0.013867047 2.7458968
1.3686532 -0.027892049 2.7253032
-1.4163595 0.022731034 2.7312047
-1.2628195 0.010732911 2.7432408
-1.222725 0.02303854 2.7327137
-1.1922678 0.021061428 2.7455435
-0.81611371 0.020098066 2.7132428
-0.77836156 0.020149415 2.7289345
-0.74689668 0.020205572 2.7422776
-0.63096982 0.019880582 2.7225466
-0.5122577 0.019649871 2.7044818
-0.4753834 0.019738559 2.722368
-0.4314104 0.01982137 2.7395804
1.3641135 0.018548172 2.7228942
-1.4339201 0.063722178 2.704895
-1.263387 0.069844663 2.7264533
-1.2255145 0.076603591 2.7306345
-1.1922574 0.076683857 2.7447844
-0.81543785 0.073338538 2.7103369
-0.77810693 0.073583767 2.7274208
-0.74108577 0.073882878 2.7461412
-0.6313026 0.072827637 2.72335
-0.51243144 0.071884595 2.704788
-0.47538072 0.072202243 2.7217276
-0.42790434 0.070679165 2.7410553
1.359237 0.077535555 2.7222724
-1.2255135 0.12521206 2.7293475
-1.1870998 0.12261192 2.7462192
-0.81633997 0.1267443 2.7119753
-0.77850449 0.12708946 2.7274461
-0.74109775 0.12754564 2.7448359
-0.62946451 0.12529311 2.7141123
-0.51291788 0.12423158 2.7060773
-0.47540918 0.1246746 2.7205703
-0.43194783 0.12538128 2.7411029
1.3490641 0.11999114 2.7340434
1.3576082 0.12642504 2.7143366
-1.2264552 0.17395625 2.7295208
-1.1908321 0.1756127 2.745502
-0.81640035 0.17340843 2.7104194
-0.77925539 0.17403519 2.728317
-0.74154168 0.17459886 2.7447319
-0.6272614 0.18401998 2.7023423
-0.51332915 0.17665479 2.7063055
-0.47585517 0.17731555 2.7211685
-0.42842469 0.18013442 2.7410519
1.3484024 0.17676346 2.7388272
1.3574047 0.17329551 2.7153466
-1.2279497 0.22286876 2.7303188
-1.1874957 0.22309776 2.7462788
-0.81750822 0.22036858 2.7117515
-0.77926886 0.22087869 2.7260618
-0.74177015 0.22164918 2.7432525
-0.62782264 0.22800429 2.7024918
-0.51252091 0.22809048 2.7045023
-0.47797534 0.22713225 2.7199266
-0.43009835 0.22340691 2.7422714
1.3442465 0.23037636 2.7302883
1.3549463 0.21142456 2.7250855
-1.2286189 0.27173048 2.7286403
-1.1881926 0.27202708 2.7447433
-0.8187322 0.27417937 2.7124858
-0.7805264 0.27483648 2.7271271
-0.74296796 0.27580857 2.7443862
-0.63015187 0.2772654 2.7094977
-0.51412296 0.27518168 2.7050297
-0.47504759 0.27264369 2.7223067
-0.43097907 0.27269784 2.7409754
1.3377528 0.25439966 2.7380018
1.3722243 0.25998086 2.7066467
1.4177738 0.29222772 2.7179363
-1.2521546 0.34207505 2.7220955
-1.2273501 0.32590261 2.7292266
-1.1882807 0.32612181 2.7468739
-0.81592548 0.33081096 2.7130373
-0.77475441 0.32717299 2.7278123
-0.74049163 0.31990588 2.74508
-0.63135529 0.32406884 2.7112072
-0.51366985 0.31852862 2.7045093
-0.47706208 0.32257152 2.7192683
-0.42972305 0.32443833 2.7405734
1.4289942 0.3281627 2.7300639
1.4536719 0.34488118 2.7429984
-1.250407 0.37643015 2.7150004
-1.2221239 0.37655598 2.7341287
-1.1799321 0.37763217 2.7473032
-0.81467438 0.37564605 2.71439
-0.76796508 0.37444729 2.7305205
-0.73841184 0.3710342 2.7461383
-0.63360381 0.37834823 2.7162368
-0.51141524 0.37301928 2.7041917
-0.47773698 0.3757453 2.7185817
-0.43012157 0.37774634 2.7385964
1.4316572 0.36807609 2.7425325
-1.2221638 0.42751026 2.7357857
-1.1803263 0.42418665 2.746938
-0.81557316 0.42305839 2.7126236
-0.77063859 0.42420283 2.729305
-0.73547417 0.4304105 2.7469957
-0.63668847 0.42683139 2.7248232
-0.51227582 0.43153372 2.702966
-0.4803026 0.42625517 2.7172725
-0.42981541 0.42364255 2.7389686
-1.2233566 0.47699928 2.7326763
-1.1814538 0.4700321 2.7470241
-0.81605661 0.47592142 2.7126112
-0.77309281 0.47738364 2.7270439
-0.73760605 0.47724918 2.7453592
-0.64148486 0.4771007 2.7400851
-0.51592398 0.4719274 2.7035909
-0.47767013 0.47263384 2.7192204
-0.42885387 0.47225168 2.7393687
-1.2235914 0.52539176 2.7304866
-1.1925114 0.53496248 2.7459557
-0.82171649 0.52410525 2.716383
-0.77153212 0.5247649 2.7265203
-0.73465711 0.52902651 2.7450459
-0.67274243 0.53942549 2.7229686
-0.64325672 0.53614759 2.7253366
-0.51216269 0.52886373 2.7053463
-0.47918975 0.52245343 2.7185485
-0.42964423 0.526429 2.7379134
-1.3255924 0.59221864 2.717766
-1.2739372 0.58666015 2.7330263
-1.2257074 0.57685781 2.7352486
-1.1958201 0.57173336 2.7485008
-0.82019907 0.57297182 2.713707
-0.77398705 0.57477885 2.7225201
-0.72813535 0.57591683 2.7368395
-0.67866492 0.59442598 2.7338889
-0.64415234 0.59374076 2.7363207
-0.55433077 0.58437425 2.7050424
-0.51569939 0.57579374 2.7180238
-0.47150919 0.56620848 2.722204
-0.42800879 0.56705421 2.7407689
-0.39773598 0.56167895 2.7464244
-1.3085358 0.61402559 2.7041609
-1.2708344 0.62621289 2.7124953
-1.224768 0.62151134 2.7334659
-1.1980628 0.6293667 2.7447815
-0.81366342 0.62818801 2.7031343
-0.77639902 0.62487751 2.7177227
-0.72359318 0.62528276 2.7394497
-0.68489504 0.61602598 2.7467859
-0.62579787 0.60906911 2.7457635
-1.2649424 0.67602217 2.7097068
-1.2225986 0.67292386 2.7371058
-1.1865214 0.6661613 2.749203
-0.81632155 0.67766261 2.7040396
-0.77502441 0.67286497 2.7159996
-0.72562838 0.67475897 2.7394116
-1.2643844 0.72621709 2.7065437
-1.221342 0.72251981 2.7262497
-1.1811447 0.72018975 2.7417924
-0.81694591 0.72361034 2.7014778
-0.77960277 0.72615784 2.7127659
-0.72719103 0.72401708 2.7369194
-1.2607824 0.76857907 2.7070363
-1.2257938 0.77489597 2.7261794
-1.1849841 0.79029441 2.741117
-0.82449055 0.7756753 2.713937
-0.77718514 0.77403408 2.7131259
-0.72937912 0.77416176 2.7360795
-0.69777489 0.7908144 2.7499075
-1.262859 0.82724595 2.7127984
-1.2268617 0.82685709 2.7291267
-1.1873903 0.8133117 2.7421224
-0.82365596 0.82179368 2.7166104
-0.771851 0.82539952 2.7152154
-0.72276461 0.82687914 2.7391295
-1.2575686 0.87363607 2.7086985
-1.2260218 0.8694616 2.7203188
-1.1909962 0.8712182 2.7420464
-0.8235203 0.87124622 2.7155733
-0.77094519 0.87577021 2.7163131
-0.72194684 0.87461823 2.7370751
-0.68705654 0.87029123 2.7485931
-1.2565899 0.91686732 2.7086248
-1.2284198 0.91762733 2.7148409
-0.82227665 0.92613679 2.711333
-0.77584773 0.92442936 2.7156827
-0.72633356 0.93051624 2.7399564
-1.2315619 0.96931177 2.7200539
-0.82437629 0.96983397 2.7160783
-0.78015041 0.97267312 2.7121575
-0.72645611 0.9735654 2.7380106
-0.69304991 0.97542703 2.7496808
-0.82100844 1.0272595 2.7206874
-0.77419317 1.0251267 2.7159083
-0.7294938 1.0209334 2.7359915
-0.81292886 1.0749468 2.7052433
-0.77281624 1.0774155 2.720259
-0.72493082 1.0757887 2.7403383
-0.81854177 1.1245092 2.7115309
-0.77627617 1.1243869 2.72015
-0.72800469 1.1301345 2.7444062
-0.81688946 1.1775453 2.708936
-0.77950078 1.1714216 2.7185831
-0.73413128 1.1778215 2.7434006
-0.82135528 1.22583 2.7182808
-0.77115989 1.2228965 2.7283666
-0.73818141 1.2271158 2.7449684
-0.81726044 1.270919 2.7163906
-0.77539778 1.2725114 2.729001
-0.73634487 1.2795131 2.745353
-0.81539053 1.322305 2.720484
-0.77575445 1.3218994 2.7317715
-0.74074119 1.3304554 2.7466607
-0.81273079 1.3730711 2.7213352
-0.77263945 1.3767096 2.7344027
-0.74923599 1.3613552 2.7461226
-0.81915265 1.4276201 2.7259967
-0.77535778 1.4274617 2.7352505
-0.74119163 1.4390316 2.7482138
-0.81699914 1.4805874 2.7271702
-0.77732104 1.4762584 2.735126
-0.74486727 1.4828714 2.7472427
-0.81176746 1.5211905 2.7205958
-0.77518779 1.5224713 2.7384512
-0.74911916 1.5282636 2.7476618
-0.81936026 1.5725173 2.7299387
-0.77758467 1.5725765 2.7424231
-0.80868167 1.6253802 2.727293
-0.7732563 1.6274083 2.7429895
-0.81520432 1.6761112 2.7317421
-0.77864069 1.6750056 2.7452197
-0.81597334 1.7259021 2.7339203
-0.78351182 1.7266409 2.7426121
-0.81486654 1.768821 2.7333734
-0.78035605 1.774518 2.7408438
-0.8139531 1.8200064 2.7315748
-0.78561282 1.824849 2.7393713
-0.81517029 1.8744574 2.7374942
-0.7814182 1.8773609 2.7450299
-0.81288362 1.9220769 2.7382464
-0.77682745 1.9229558 2.7447562
-0.81727266 1.9722668 2.7378762
-0.78836024 1.9704676 2.7421176
-0.81499481 2.040282 2.7448759
-0.79222751 2.0188019 2.7409673
-0.8147099 2.0794754 2.7466872
-0.81486976 2.1283302 2.7444668
-0.79879093 2.1362982 2.7431443
-0.80857539 2.169657 2.7428567
-0.81560844 2.2211058 2.7447855
-1.3271811 2.2719219 2.7096002
-1.2784773 2.2767041 2.7210147
-1.2303492 2.2880337 2.7285619
-1.1705885 2.2918985 2.7246408
-0.83188814 2.2630093 2.7411659
-1.1699312 2.3157799 2.7045698
-1.1243229 2.3118014 2.7299442
-1.0782931 2.3170438 2.7390745
-1.0478016 2.3053448 2.7336552
1.494712 2.4209146 2.7108045
1.5361855 2.4362311 2.7318082
1.5814519 2.4426076 2.738101
1.6239051 2.4394855 2.7115762
1.6841583 2.444608 2.7274942
1.7223763 2.4401085 2.7272491
1.7668346 2.4314604 2.7168541
1.8264347 2.4307218 2.7263153
2.0365949 2.414093 2.7282023
2.0827801 2.4246979 2.7159691
2.1240046 2.4211957 2.7287655
2.1775415 2.4195576 2.721143
2.275383 2.4252357 2.7270951
2.3533723 2.4276018 2.7250252
1.5315961 2.4519107 2.7368395
1.5863907 2.4543226 2.7127204
-0.11088875 -0.55134332 2.7826443
-0.081544966 -0.55416268 2.7745667
-1.0113319 -0.50028968 2.7642615
-0.97729295 -0.50066471 2.7749193
-0.92924005 -0.5075658 2.7601581
-0.88815522 -0.50536847 2.7676184
-0.50649559 -0.50981045 2.7521157
-0.4736551 -0.51282835 2.7643471
-0.42359108 -0.51434052 2.7675564
-0.37662274 -0.51813895 2.7685561
-0.32331169 -0.52445614 2.7835302
-0.26797056 -0.53151071 2.780098
-0.22208257 -0.53673947 2.7742012
-0.17863637 -0.53926951 2.7891586
-0.13048321 -0.54886693 2.7695775
-0.056826673 -0.54866898 2.7702079
-0.030322051 -0.53985178 2.7958398
1.0798999 -0.53448266 2.7794142
1.1330528 -0.52681476 2.7761753
1.1786206 -0.52000338 2.772459
1.2102829 -0.51083988 2.7730312
1.2583234 -0.50161821 2.7914085
-1.1127722 -0.46724355 2.7525568
-1.0786918 -0.4745743 2.7634399
-1.0248553 -0.47553989 2.7837012
-0.97971421 -0.48641595 2.7867606
-0.9191767 -0.4993425 2.7805667
-0.86963147 -0.49153379 2.7729609
-0.6665383 -0.4735947 2.7586243
-0.63089716 -0.4718276 2.7639487
-0.57430232 -0.473658 2.7644806
-0.52843112 -0.49502444 2.7770438
-0.47943723 -0.49626493 2.782383
-0.44236463 -0.4997479 2.7800088
1.2322986 -0.49979168 2.7880137
1.2831419 -0.49291801 2.7746315
1.3253829 -0.46780449 2.7751937
-1.1160891 -0.41849172 2.7576418
-1.0770776 -0.42725959 2.7732036
-1.0289203 -0.42901278 2.7910447
-0.99132735 -0.44822222 2.7997286
-0.67870551 -0.42489612 2.7619088
-0.62941438 -0.4270753 2.7751453
-0.57815272 -0.42590293 2.7747746
1.3415262 -0.42656028 2.7743175
1.350104 -0.41511878 2.7672632
-1.1542805 -0.36247587 2.7506123
-1.1205859 -0.37683246 2.7622585
-1.0737319 -0.37755817 2.7809858
-1.0376027 -0.37333262 2.7943494
-0.71156883 -0.36413583 2.7525761
-0.67976576 -0.37194932 2.7655408
-0.62720025 -0.37245458 2.7735231
-0.57784176 -0.37168327 2.7786496
1.3429692 -0.37672874 2.7825112
1.3559613 -0.36464468 2.767148
-1.1570375 -0.32341403 2.753058
-1.1236613 -0.32598716 2.7660828
-1.077572 -0.33053806 2.7836025
-1.0476875 -0.32920852 2.7977896
-0.71108943 -0.32344711 2.7540805
-0.67882729 -0.32414559 2.76562
-0.64378983 -0.33699518 2.7645531
-0.52005845 -0.33550167 2.7690279
-0.490376 -0.33816069 2.7950082
-0.40848017 -0.31215686 2.7539797
-0.37710088 -0.31371513 2.7707806
-0.32972732 -0.31297448 2.7882097
1.3431917 -0.32381848 2.7964294
1.3544608 -0.32431078 2.7733762
-1.1612056 -0.2717979 2.755651
-1.1211379 -0.27224374 2.7721043
-1.073904 -0.27268112 2.7898159
-0.71717155 -0.27601367 2.7537842
-0.67846197 -0.27671301 2.7675428
-0.40772668 -0.2695874 2.7517612
-0.37615353 -0.27296546 2.7665038
-0.32483003 -0.27461496 2.7876275
-0.29207271 -0.26186097 2.797771
1.3455604 -0.28149676 2.7813547
1.355175 -0.2734322 2.7626669
-1.168047 -0.22295149 2.7563124
-1.1214066 -0.22340149 2.7757864
-1.0781901 -0.22576748 2.7923825
-0.86534435 -0.20674048 2.798979
-0.71675718 -0.2220123 2.7554119
-0.67800701 -0.22256884 2.7689126
-0.40722889 -0.21848425 2.7513523
-0.3753849 -0.22589718 2.763623
-0.32439154 -0.22072765 2.7869358
-0.29193759 -0.24160036 2.7976537
1.3491553 -0.23591328 2.7802229
1.3612489 -0.22322483 2.76577
-1.1709452 -0.176946 2.7580364
-1.1217945 -0.18853177 2.7785225
-1.0812064 -0.18877906 2.7934978
-0.86113203 -0.17145097 2.786869
-0.71636653 -0.17480771 2.7561588
-0.67756671 -0.17521824 2.7693434
-0.40704361 -0.19852726 2.7510796
-0.37476248 -0.17908205 2.761167
-0.32402393 -0.17370224 2.7859707
-0.29184029 -0.18112993 2.7996554
1.346539 -0.17831248 2.7778003
1.3628938 -0.17676885 2.7625031
-1.4241694 -0.10991705 2.7724378
-1.1745458 -0.12526606 2.757386
-0.85982418 -0.12320912 2.7843292
-0.71815807 -0.12539458 2.7557857
-0.67727387 -0.12796518 2.7698331
-0.37475258 -0.1259988 2.763015
-0.3238436 -0.12685031 2.7860339
1.3476471 -0.14272037 2.7815638
1.3554014 -0.12130108 2.78104
-1.4270458 -0.092694744 2.7563086
-1.1743667 -0.076465838 2.7581644
-0.85555279 -0.074859232 2.7715986
-0.71577424 -0.073848009 2.7568369
-0.67713064 -0.074033089 2.7705052
-0.37467438 -0.07290791 2.7636468
-0.32373849 -0.07340052 2.7863696
1.3469499 -0.078330144 2.7818894
1.3598071 -0.078038797 2.7655032
-1.1734308 -0.027653106 2.7565806
-0.85455483 -0.027132923 2.7689373
-0.72025746 -0.025088478 2.7543766
-0.67743593 -0.026872175 2.77232
-0.40628791 -0.013160625 2.7505116
-0.37479803 -0.026492154 2.7650864
-0.3238385 -0.026669832 2.7877102
1.3456155 -0.014018954 2.7798483
1.3523244 -0.035409562 2.7764289
-1.2752032 0.014287747 2.7526095
-1.1751522 0.021111559 2.7606401
-0.85312456 0.020523895 2.7642951
-0.72229147 0.020258667 2.7554405
-0.67731392 0.020308871 2.7717876
-0.40634263 0.019879086 2.7508087
-0.37470019 0.019954225 2.7643988
-0.32378167 0.020081861 2.7872245
1.3430685 0.018620355 2.7795026
1.3532357 0.028677976 2.7611752
-1.175071 0.076923594 2.7597132
-0.85369813 0.074942075 2.7654834
-0.71565467 0.074019156 2.7562656
-0.67717612 0.074213617 2.7705767
-0.40655437 0.086008728 2.7513876
-0.37502465 0.073077694 2.7661319
-0.32413366 0.073586486 2.7896159
1.3422664 0.077315502 2.7789912
1.3515357 0.078289852 2.7569644
-1.1696922 0.12902984 2.7548637
-0.8541171 0.12265346 2.7656717
-0.71600193 0.12785022 2.7562563
-0.67656052 0.1280085 2.766659
-0.40699035 0.12581532 2.7532916
-0.37512487 0.12623164 2.7655413
-0.32389423 0.12697014 2.7863257
1.3389524 0.12680696 2.7768784
1.3513256 0.12794353 2.7552011
-1.1734982 0.17346741 2.7554796
-0.85782278 0.17102319 2.7759137
-0.71645492 0.17502475 2.7562573
-0.67711067 0.17528163 2.7671816
-0.40703177 0.16554216 2.7521904
-0.37534636 0.17946416 2.7652318
-0.32583353 0.17379574 2.7855251
1.3368229 0.17529555 2.7723429
1.350284 0.17037387 2.7513959
-1.1687026 0.22348873 2.7575102
-0.85743618 0.22562146 2.7719827
-0.71665525 0.22217982 2.7547145
-0.67614609 0.22211441 2.7609024
-0.40726316 0.23186854 2.7505753
-0.37517378 0.22587411 2.7617023
-0.32422775 0.22071983 2.7852998
-0.29220402 0.24192423 2.7998917
1.3299762 0.22237968 2.7793095
-1.1677194 0.2721132 2.7520652
-0.86171311 0.27480659 2.78286
-0.71751195 0.27635834 2.7546914
-0.67706978 0.27634743 2.7613988
-0.40754318 0.26517001 2.7504704
-0.37566471 0.27273566 2.7625213
-0.32462424 0.27456987 2.7856002
1.3227048 0.25695044 2.7754068
-1.1704688 0.33565271 2.753643
-0.86432153 0.32386896 2.787724
-0.71839505 0.32392171 2.7546291
-0.67891294 0.3243863 2.7654655
-0.40822816 0.32536697 2.7508459
-0.37614459 0.32635772 2.7623003
-0.32513538 0.32863757 2.7860432
-0.29244328 0.32953689 2.7962823
1.4306371 0.32462037 2.7668333
-1.1763964 0.3779943 2.7513456
-0.86720407 0.3663972 2.7935362
-0.71449769 0.37384737 2.757663
-0.67536485 0.37074563 2.7669857
-0.40887946 0.37908649 2.7507114
-0.37855467 0.37726757 2.7614818
-0.32543808 0.37592995 2.7847416
-0.29315323 0.37080121 2.7996795
1.4312052 0.37877592 2.7516673
1.4653025 0.36937255 2.7628613
-1.1753109 0.44932267 2.7537029
-0.86943793 0.40198055 2.7974772
-0.71198505 0.42424402 2.7590003
-0.67455155 0.42724684 2.7670908
-0.40967137 0.43978491 2.7501094
-0.37524983 0.42356819 2.7611244
-0.3257156 0.42327908 2.7826223
-0.29332113 0.42496809 2.7962282
1.4311004 0.41125059 2.7592821
-1.1853818 0.49270111 2.75353
-0.71403146 0.47336411 2.7574611
-0.67617434 0.47585726 2.7685626
-0.37779927 0.4749527 2.7602468
-0.32790002 0.47690433 2.7840543
-0.29416367 0.47353518 2.7992277
-1.1824042 0.52421218 2.7536135
-0.71510923 0.51485121 2.7566531
-0.6761837 0.51663756 2.7635942
-0.64625067 0.52798998 2.7546151
-0.38019988 0.52500606 2.7604101
-0.32567009 0.5243879 2.7843959
-0.29173052 0.52002573 2.7966151
-1.3083403 0.58817768 2.7614584
-1.2706671 0.58402348 2.7516079
-1.1777234 0.58463073 2.7669864
-1.1347836 0.5978905 2.789767
-0.47693047 0.59555542 2.7679605
-0.44547939 0.59868228 2.7863119
-0.37584299 0.56633329 2.7646189
-0.3298102 0.56702667 2.785042
-0.29502085 0.56310511 2.7965455
-1.1740172 0.62161016 2.7572517
-1.1245085 0.62460953 2.7795689
-1.0923991 0.6336354 2.7970152
-0.84944826 0.61924314 2.7524204
-0.66769588 0.63213086 2.7562692
-0.62436962 0.62798595 2.7603114
-0.57837087 0.62668508 2.7749751
-0.53841811 0.62434268 2.7963014
-0.43376499 0.60130066 2.7999413
-1.221421 0.68401742 2.7525814
-1.1761218 0.67215842 2.7573237
-1.1255178 0.66068017 2.776232
-1.0928204 0.66236442 2.7934151
-0.8600052 0.66882074 2.7798657
-0.67358953 0.67723167 2.75899
-0.62088984 0.67256385 2.7778561
-0.58283019 0.67179954 2.7924423
-1.1783752 0.74079621 2.7545996
-0.86674428 0.71608877 2.794405
-0.67555285 0.72722882 2.7587116
-0.62322247 0.72333509 2.7801139
-0.58651918 0.7261672 2.7968409
-1.1886737 0.76420951 2.7555451
-0.67638046 0.77178591 2.7590077
-0.62595505 0.77492404 2.7833478
-0.58719021 0.77390212 2.7961948
-1.2016253 0.83968437 2.7514892
-1.1857209 0.84574348 2.7508087
-0.6765157 0.82366407 2.7607298
-0.62797403 0.82601702 2.7827106
-0.59504765 0.82147449 2.7975895
-0.85572058 0.88768691 2.7732334
-0.67104667 0.87500405 2.7613413
-0.62808454 0.87612379 2.7818606
-0.5965898 0.87247056 2.794632
-0.85227579 0.91920257 2.7539563
-0.70427608 0.90923196 2.7516837
-0.67243803 0.92377609 2.7606316
-0.62495661 0.92201018 2.7816155
-0.59910047 0.92520237 2.795495
-1.1961585 0.95440406 2.7507722
-0.67085218 0.97632736 2.76351
-0.62284857 0.97497433 2.7867618
-0.67657995 1.0239714 2.7607524
-0.62413132 1.0264629 2.7871761
-0.85039753 1.0677716 2.7622774
-0.84973872 1.0953972 2.75213
-0.70084834 1.0920973 2.7525306
-0.67873567 1.0725 2.7629206
-0.62688857 1.0770494 2.7872574
-0.59277576 1.0793768 2.7988331
-0.85717428 1.1193335 2.7720623
-0.70331168 1.1313081 2.7519865
-0.67520219 1.1221395 2.7688859
-0.62986827 1.1249135 2.7886438
-0.7066977 1.1793834 2.7524107
-0.67455763 1.170391 2.7692909
-0.62805903 1.1742003 2.7925708
-0.84429353 1.2075348 2.7537277
-0.71851236 1.2300893 2.7557144
-0.67665464 1.2212529 2.7712281
-0.63310128 1.2224265 2.7910671
-0.85955477 1.2952104 2.781671
-0.71087348 1.2774349 2.7583013
-0.6738584 1.2688718 2.7777483
-0.63777989 1.2711233 2.7953212
-0.7150448 1.3283302 2.7595398
-0.67824596 1.3207176 2.7738013
-0.6425665 1.3218735 2.7898967
-0.85564488 1.3931831 2.7912111
-0.84822875 1.3664138 2.7724442
-0.7212894 1.3794504 2.7582979
-0.67161459 1.3708349 2.7775614
-0.63547969 1.3699955 2.7943351
-0.72666329 1.4235607 2.7574735
-0.67899585 1.423292 2.7755964
-0.64373547 1.4277142 2.7962921
-0.72048527 1.4745691 2.7617874
-0.67418408 1.4741344 2.7783363
-0.64126128 1.4827166 2.794019
-0.84460133 1.518551 2.7601588
-0.7233879 1.5212079 2.7599225
-0.6766876 1.524503 2.780257
-0.64230585 1.5227242 2.7916207
-0.85561872 1.5609653 2.7865977
-0.75660884 1.5957423 2.7526128
-0.72635967 1.5799221 2.7635758
-0.67591482 1.5726972 2.7853687
-0.83862734 1.6251563 2.7538979
-0.72351545 1.6275997 2.7663221
-0.67297506 1.6247555 2.7876854
-0.75050753 1.6901579 2.7538459
-0.72582096 1.6737667 2.7666988
-0.67939842 1.6761148 2.7863533
-0.6482532 1.6761668 2.7992902
-0.75790751 1.7248709 2.7534852
-0.72521305 1.7244157 2.7678432
-0.6801253 1.7247611 2.7896144
-0.75959051 1.7793697 2.7533851
-0.72433162 1.7752229 2.7673247
-0.67753595 1.766611 2.7872946
-0.75911981 1.8235865 2.7542133
-0.72413605 1.8239893 2.7700057
-0.67739546 1.8244567 2.7899039
-0.64604247 1.8343236 2.7993038
-0.83658266 1.8839701 2.7555332
-0.75711811 1.8664689 2.7545617
-0.72472322 1.8764749 2.7689474
-0.68283612 1.8744452 2.7872453
-0.85139328 1.9331739 2.7955606
-0.75752991 1.9119995 2.7518992
-0.72598416 1.9315509 2.7698154
-0.68038356 1.9226904 2.7880957
-0.75981355 1.9728786 2.7565734
-0.72560757 1.9777933 2.77897
-0.68283153 1.9781884 2.7939882
-0.83854187 2.0276 2.7587986
-0.76566434 2.0197661 2.7592084
-0.72530818 2.0221426 2.7769291
-0.69516075 2.0266747 2.7897334
-0.7796452 2.0765822 2.7576637
-0.72921884 2.0746264 2.7783604
-0.68929726 2.0700521 2.7937195
-0.83166885 2.1141713 2.7532213
-0.77202785 2.1292589 2.7582819
-0.72229719 2.120029 2.7797434
-0.68942595 2.12151 2.7956476
-0.83141375 2.1748049 2.7549429
-0.77430773 2.1819522 2.7622383
-0.72610998 2.1723983 2.7818615
-0.69390333 2.1677814 2.7932758
-0.78028941 2.2314961 2.7616713
-0.73175514 2.2247791 2.780201
-0.6977222 2.204191 2.7927947
-1.2679133 2.2739778 2.7517395
-1.2289257 2.2766886 2.7617662
-1.1772499 2.2792678 2.778331
-1.1294149 2.2936676 2.7773736
-1.0937243 2.2982514 2.7783334
-0.86720878 2.2829766 2.7747121
-0.81781596 2.2639334 2.7568977
-0.76873779 2.2701168 2.7659271
-0.71719396 2.2669251 2.7864439
-1.1074493 2.308567 2.7525675
-1.0747579 2.3064783 2.7696085
-1.0217425 2.3135471 2.7703075
-0.9663561 2.3046999 2.7698176
-0.93403798 2.313102 2.7790134
-0.89774591 2.3058712 2.779741
1.4260976 2.4384313 2.7676435
1.4838213 2.4431536 2.7865026
1.5303049 2.4372158 2.7756183
1.5743566 2.4388876 2.7662115
1.6270095 2.4411623 2.7797585
1.6615705 2.4462037 2.7829404
1.7192026 2.4431295 2.7751389
1.7716433 2.4289663 2.7698503
1.8171407 2.4228249 2.7770236
1.8964725 2.4077332 2.7604997
1.9177285 2.4113896 2.7535822
2.0249915 2.42414 2.7752211
2.0736217 2.4170294 2.7548254
2.1157875 2.4144268 2.7691109
2.1901398 2.4257762 2.7866044
2.3848619 2.4209912 2.7899492
1.40903 2.4548185 2.7981803
1.4791396 2.4532115 2.7639396
1.6774876 2.452035 2.7627163
-0.41233167 -0.50433183 2.8089418
-0.37150508 -0.50444722 2.813319
-0.32735154 -0.50811607 2.8180711
-0.27686796 -0.51362675 2.8200321
-0.22060384 -0.5241158 2.8225713
-0.17752856 -0.52930635 2.8283176
-0.12584266 -0.53757554 2.8185027
-0.071617849 -0.53908926 2.8277485
-0.023934705 -0.53946394 2.8303111
1.0880525 -0.5277378 2.8223727
1.1203648 -0.5261451 2.8041346
1.1758645 -0.5175277 2.824398
1.2263796 -0.50620413 2.8304729
-0.96238369 -0.47278851 2.807385
-0.92321134 -0.47726044 2.8189032
-0.88710439 -0.47316211 2.8189411
-0.55705768 -0.46474627 2.8051033
-0.52509254 -0.46674812 2.821552
-0.47948542 -0.4753373 2.8331785
-0.42889228 -0.49403772 2.8282709
-0.38210955 -0.49571005 2.8423989
-0.33944905 -0.49375239 2.8346245
1.2726444 -0.48555925 2.8258593
1.3078563 -0.46255702 2.8292112
-1.0059762 -0.41345125 2.8017397
-0.97003496 -0.42630136 2.8107352
-0.92409635 -0.42853177 2.8269691
-0.88716298 -0.42768127 2.82885
-0.55678648 -0.42350921 2.8080304
-0.52501065 -0.42547634 2.8253717
-0.48537752 -0.42375568 2.845443
1.3232597 -0.42506626 2.8224955
-1.0126325 -0.36862421 2.8063214
-0.97306967 -0.37222749 2.8204229
-0.92505211 -0.37270561 2.8352804
-0.88681847 -0.37398335 2.8293719
-0.55724561 -0.37600642 2.8148217
-0.52509773 -0.37750712 2.8303216
-0.49278557 -0.37902895 2.8458714
1.3262523 -0.37528518 2.8228474
-1.0237153 -0.32120347 2.8083076
-0.97326803 -0.32311311 2.8251247
-0.9278574 -0.325591 2.842061
-0.88100427 -0.3280741 2.8258789
-0.46564311 -0.33986175 2.8121033
-0.43490258 -0.34243831 2.8369846
-0.31513876 -0.32531601 2.8184404
-0.27877811 -0.31606391 2.8193638
-0.22092444 -0.31276193 2.8343329
-0.18754971 -0.30694956 2.8455439
1.3277379 -0.32787535 2.8274684
-1.0274955 -0.27337968 2.8095078
-0.97364068 -0.27402681 2.8297191
-0.93339849 -0.2746098 2.8452954
-0.86972445 -0.27708697 2.8091364
-0.27012441 -0.27834919 2.8097224
-0.22059356 -0.27835923 2.8324544
-0.18745245 -0.27269152 2.8463042
1.3308325 -0.27161175 2.8215895
-1.0613831 -0.21701759 2.8007636
-1.02783 -0.22435719 2.8133838
-0.97431034 -0.22497338 2.8345993
-0.93454105 -0.22804597 2.8469386
-0.8685177 -0.23519105 2.807771
-0.27127898 -0.22081557 2.8089049
-0.2203463 -0.22378637 2.8323512
-0.18727025 -0.22475001 2.8462105
1.3351564 -0.22671014 2.8246317
-1.0607747 -0.18888691 2.8005357
-1.0283943 -0.18716636 2.819145
-0.97229367 -0.18165082 2.8382046
-0.94076633 -0.19013695 2.8493495
-0.26860598 -0.17368975 2.8113868
-0.22021975 -0.17620009 2.8328121
-0.18720241 -0.17700697 2.8473518
1.3392906 -0.17372721 2.8285975
-0.96981293 -0.1268286 2.8477831
-0.27240431 -0.12779729 2.8102555
-0.2200148 -0.12863982 2.8318439
-0.18703036 -0.12921804 2.8463588
1.3368958 -0.12293146 2.8298302
-0.27227324 -0.073930368 2.8101349
-0.22014169 -0.074492589 2.834666
-0.18704984 -0.074808113 2.8478889
1.3377796 -0.07410831 2.8227468
-0.27223298 -0.026853671 2.8102505
-0.22006761 -0.02705284 2.8342869
-0.18704121 -0.027171498 2.848294
1.3322053 -0.028641492 2.8216398
-0.27231058 0.020226005 2.8110938
-0.22135861 0.019900596 2.8333123
-0.18686156 0.020427635 2.8456907
1.3317907 0.021951208 2.8278012
-0.27238756 0.074048124 2.8112311
-0.22014159 0.074584134 2.8346512
-0.18692534 0.088430859 2.8456569
1.3325843 0.072568931 2.8262386
-0.27230844 0.12783477 2.8091497
-0.22008747 0.12876001 2.8325963
-0.18706641 0.12933525 2.846741
1.323691 0.12551925 2.8251677
-0.96470195 0.18646041 2.8481963
-0.30539557 0.17459469 2.8000076
-0.27256426 0.17508371 2.8100512
-0.22026245 0.17632741 2.8332233
-0.18729311 0.18398732 2.8482273
1.3176525 0.17510501 2.8178
-0.96630925 0.22588442 2.8442488
-0.27140707 0.22102098 2.8099823
-0.22034281 0.22387238 2.8320122
-0.18732624 0.22491534 2.8467708
1.3168403 0.22392681 2.8299785
-0.2730884 0.27660474 2.8100522
-0.22044256 0.27826101 2.830054
-0.18745363 0.2728028 2.845968
1.3150533 0.26108408 2.8298764
-0.26924664 0.32271743 2.8092701
-0.22086428 0.32640061 2.8322744
-0.18772852 0.321015 2.8468421
-0.86996502 0.38835806 2.8005145
-0.27090123 0.37199777 2.8103464
-0.22113854 0.3744489 2.8317993
-0.18799238 0.37616327 2.8464277
-0.87250692 0.44511995 2.8030252
-0.26769969 0.42716554 2.81248
-0.22339733 0.42657831 2.830833
-0.18823355 0.41772842 2.8463211
-0.96308738 0.46930167 2.8482862
-0.87611389 0.47489834 2.8114529
-0.27054927 0.47486132 2.8086884
-0.21998718 0.47438881 2.8324375
-0.18863624 0.47352523 2.8467078
-0.95777988 0.54140449 2.8465304
-0.88696307 0.52318925 2.84112
-0.26714128 0.52400869 2.8088293
-0.22220796 0.5267545 2.8296914
-0.18557799 0.52606165 2.8466713
-1.156886 0.58766192 2.8069127
-1.1277442 0.59213346 2.8130941
-1.0805789 0.59938025 2.8126779
-1.0360322 0.5983696 2.8192453
-0.95809454 0.55583167 2.8455606
-0.88940483 0.55297524 2.8452637
-0.3104589 0.58699602 2.809731
-0.27479181 0.57197845 2.815793
-0.22251621 0.56858623 2.8283465
-0.18931504 0.56476331 2.8461444
-1.0709666 0.62443936 2.808259
-1.0246679 0.62393957 2.823127
-0.98907298 0.6349709 2.8422737
-0.5611124 0.64735788 2.800967
-0.51960498 0.63680989 2.8068571
-0.47313631 0.6287657 2.8244634
-0.42517966 0.6224342 2.8330624
-0.38276967 0.60714358 2.8324986
-1.0699319 0.66263485 2.8078341
-1.0265512 0.66735059 2.8256207
-0.97552073 0.67004454 2.8445871
-0.56307781 0.68281925 2.8054545
-0.52791506 0.67768902 2.8182003
-0.47947517 0.67300075 2.8379102
-0.44187137 0.65430075 2.8460317
-0.94449759 0.74722815 2.8444035
-0.56310546 0.72537553 2.8065238
-0.52549243 0.72409183 2.8256581
-0.48758528 0.72548485 2.8430963
-0.90250689 0.79129416 2.8494968
-0.8813861 0.77104187 2.83372
-0.56163096 0.77747977 2.8089671
-0.52176422 0.77419215 2.8278282
-0.48182726 0.7689113 2.8459764
-0.94287539 0.83838379 2.8459709
-0.88426179 0.82365644 2.8330855
-0.56885952 0.82387847 2.8097181
-0.52080244 0.82558304 2.830049
-0.48893726 0.82334781 2.8441358
-0.94989103 0.85265011 2.8406208
-0.57094628 0.87597609 2.8098545
-0.52387959 0.8722592 2.8286142
-0.48494402 0.87274617 2.8449683
-0.94063121 0.93003154 2.8436449
-0.57295132 0.92826664 2.8088186
-0.52718574 0.92343402 2.8281646
-0.48891145 0.92494512 2.8448844
-0.8820551 0.98214227 2.8247054
-0.57469922 0.97341943 2.8074458
-0.52639514 0.97626442 2.8294008
-0.49397963 0.97405225 2.8426158
-0.8811307 1.0228702 2.8292725
-0.60622519 1.0496739 2.8008282
-0.57272255 1.0226606 2.8128705
-0.52626592 1.0244244 2.8325188
-0.49291515 1.0254278 2.8461633
-0.90591729 1.0712948 2.8487856
-0.88783956 1.0598942 2.8431425
-0.57260215 1.0723791 2.8098831
-0.52599889 1.0738387 2.8353448
-0.4954105 1.0809108 2.8476572
-0.89185488 1.1234319 2.8397865
-0.57597893 1.1273042 2.8131924
-0.52564454 1.123569 2.8371296
-0.49257433 1.1149244 2.8437269
-0.88479137 1.1683276 2.834877
-0.60686171 1.1853743 2.8036382
-0.57495183 1.1754764 2.8137591
