ply
format ascii 1.0
comment PCL generated
element vertex 1453
property float x
property float y
property float z
element camera 0
property float view_px
property float view_py
property float view_pz
property float x_axisx
property float x_axisy
property float x_axisz
property float y_axisx
property float y_axisy
property float y_axisz
property float z_axisx
property float z_axisy
property float z_axisz
property float focal
property float scalex
property float scaley
property float centerx
property float centery
property int viewportx
property int viewporty
property float k1
property float k2
end_header
-0.29365334 0.35908636 0.91550672
-1.1681354 0.40655449 0.90798563
-0.32309619 0.40549493 0.90177804
-0.4140434 -0.47402397 0.97656137
-0.37407759 -0.47896102 0.97416145
-0.34327021 -0.47520149 0.97166663
-0.26529372 -0.47673628 0.97876692
-0.22565019 -0.4791345 0.97439784
-0.17499249 -0.47896287 0.97419834
-0.12485351 -0.47881985 0.97454929
-0.075852081 -0.47053662 0.97316855
-0.019496743 -0.47562981 0.97511119
0.017929314 -0.47821131 0.9759832
0.086671449 -0.4781189 0.97115892
0.12478199 -0.47875214 0.97110671
0.17399918 -0.47792739 0.97439969
0.22498102 -0.47740874 0.97317427
0.27398619 -0.4774732 0.97521394
0.32649305 -0.47730556 0.97732019
0.37429157 -0.47639069 0.97555071
0.425138 -0.47579029 0.97421974
0.47464544 -0.47520143 0.97664958
0.5258584 -0.47531822 0.97443944
0.57436645 -0.4738853 0.97404259
0.62406796 -0.47427535 0.97279787
0.67517209 -0.47380912 0.97402215
0.7253983 -0.47457132 0.97500277
0.77603197 -0.47537014 0.97696805
0.82533193 -0.47465134 0.97572339
0.87232488 -0.47368628 0.97548449
0.92504978 -0.47316456 0.97428542
0.96994185 -0.47447044 0.97375399
1.0214212 -0.47812158 0.97441995
1.0707017 -0.47719687 0.97257525
1.118073 -0.47797161 0.96850455
1.1729872 -0.47908381 0.97047967
1.2224748 -0.48053589 0.9767409
1.2726829 -0.48193219 0.9791683
1.32004 -0.48244476 0.99349177
-0.073077992 -0.44838524 0.96957874
0.067405105 -0.43311977 0.9740147
-0.37963822 -0.16132829 0.96786988
-0.32927793 -0.16781792 0.98524439
0.088912845 -0.18133076 0.9759953
-0.41298106 -0.12336461 0.96271461
-0.3832643 -0.12743726 0.96093184
-0.32357138 -0.13744688 0.95159519
-0.62250352 -0.057528481 0.96632463
-0.50590825 -0.08159934 0.95434034
-0.47316676 -0.071079358 0.96638876
-0.42965978 -0.074613489 0.98384398
-0.36718026 -0.071916476 0.98342323
-0.34924179 -0.053490665 0.97885108
0.11117169 -0.071930602 0.97760975
-0.61975807 -0.024086336 0.97370023
-0.58076382 -0.01441032 0.96769691
-0.52446526 -0.021743419 0.9644444
-0.47339833 -0.036337953 0.96889699
-0.42847678 -0.032974292 0.98978311
-0.36488467 -0.03392078 0.98509693
-0.34550229 -0.030321434 0.96416324
0.11778513 -0.039303005 0.98550034
-0.46844411 0.017244397 0.96102947
-0.42721084 0.010304126 0.97676462
-0.37380081 0.0091393543 0.96873808
-0.33989981 0.0048234346 0.96370077
-0.28110823 0.026293652 0.96084225
-0.24498205 0.03863357 0.99177104
-0.28526381 0.07874798 0.95685232
-0.21194112 0.058166228 0.99983573
0.19183514 0.095339186 0.98375684
-0.28257287 0.14015366 0.95744616
-0.22560978 0.10919199 0.99638343
-0.85936362 0.17764181 0.96120322
-0.83656538 0.17838106 0.98551846
-0.55884016 0.16971071 0.96073133
-0.31725082 0.18081374 0.95967102
-0.29382184 0.18496539 0.96776336
0.15838799 0.16673289 0.98078716
-0.86138928 0.20826653 0.9659642
-0.82491589 0.2139961 0.97733027
-0.77534521 0.22116248 0.97696304
-0.73331583 0.22288284 0.97763842
-0.69776374 0.22217287 0.98435158
-0.594145 0.20938604 0.99347579
-0.31364858 0.22262368 0.95839566
-0.29094669 0.22593784 0.97231507
-0.30518574 0.25460023 0.95240766
-0.28778654 0.26244426 0.95879877
-0.23821284 0.28943014 0.99981481
-0.24013282 0.33375311 0.98563939
-1.1131142 0.37915388 0.96808553
-0.23823348 0.37018096 0.99885035
-1.1244268 0.41170844 0.97603691
-0.24200624 0.40556288 0.98842859
-0.23448142 0.47740209 0.99382263
-0.45477629 -0.46537152 1.0430752
-0.42073247 -0.48191503 1.0291873
-0.37383637 -0.47674787 1.0254716
-0.32457054 -0.47347578 1.0219179
-0.27271229 -0.47716835 1.0242357
-0.22413903 -0.47984576 1.0259594
-0.17488101 -0.47936004 1.0233719
-0.12231081 -0.47656357 1.0240953
-0.087185644 -0.47717008 1.017694
-0.022409368 -0.48055643 1.0268021
0.019600812 -0.47962555 1.0211977
0.091225363 -0.4812935 1.0191631
0.1235652 -0.48286319 1.023596
0.17534651 -0.48262927 1.0298762
0.22523814 -0.48092833 1.0264183
0.27479383 -0.47851753 1.0245595
0.32521158 -0.47682875 1.0240719
0.37538087 -0.4760038 1.023766
0.42403746 -0.47493291 1.0255904
0.47405979 -0.47486356 1.0227253
0.52216834 -0.47475469 1.0241423
0.57480931 -0.47536501 1.0247356
0.62614536 -0.47446164 1.0221816
0.67468256 -0.47383934 1.0227892
0.72693813 -0.47566441 1.0305175
0.76909763 -0.47485977 1.0229157
0.82119006 -0.47504821 1.0248311
0.87250286 -0.47438762 1.0259249
0.92270857 -0.47193936 1.0223719
0.97574222 -0.472958 1.0276337
1.0263283 -0.47350696 1.0222566
1.0757108 -0.4752737 1.0232526
1.1254719 -0.47834462 1.0245969
1.1762615 -0.47970822 1.022011
1.2309428 -0.48098862 1.0279697
1.2698522 -0.47984728 1.0232202
1.325179 -0.47881141 1.02223
1.3641012 -0.48219568 1.0362815
-0.12351399 -0.44471371 1.0267551
-0.09571261 -0.44921228 1.0017915
0.078126967 -0.42780411 1.0265857
0.077060848 -0.39063832 1.0326376
-0.42211634 -0.27307385 1.0351034
-0.31973484 -0.25385395 1.0480108
-0.2964794 -0.2537095 1.037972
-0.31440049 -0.23892277 1.0401911
-0.2885659 -0.23985805 1.0430309
-0.33507618 -0.16750665 1.0111467
-0.27079463 -0.17020093 1.0352056
0.095167443 -0.1630837 1.0248945
-0.26475674 -0.12619455 1.0386688
-0.24836563 -0.10696154 1.0453591
0.11139535 -0.11510678 1.0413446
-0.4104076 -0.073274396 1.0045496
-0.38661188 -0.065008566 1.0056645
-0.26982784 -0.097158037 1.0468432
0.10965357 -0.090613484 1.0112506
-0.66027731 -0.0053698644 1.0205755
-0.51501417 -0.015706828 1.0194083
-0.47324207 -0.017063582 1.0219533
-0.42200872 -0.027102202 1.0099411
-0.38574141 -0.037718311 1.0080642
0.12227935 -0.029033735 1.0099075
-0.64658815 0.00016062915 1.0162301
-0.3163414 0.0076077706 1.0251756
-0.22505531 0.0333152 1.0194046
-0.22915559 0.072768912 1.0109277
0.14757729 0.093346894 1.0479546
0.15123942 0.089987002 1.0381359
-0.25179997 0.13318422 1.0139714
-0.23379673 0.12614299 1.0135114
0.1544756 0.11817122 1.0376621
-0.81327665 0.17458703 1.0154458
-0.79062599 0.17880264 1.0366457
-0.25446603 0.17461014 1.0206296
-0.23396648 0.17942144 1.0159664
-0.81470859 0.20807953 1.0166668
-0.7802254 0.21384165 1.0294875
-0.72338653 0.21984774 1.0229219
-0.68375814 0.22013734 1.0310867
-0.6236881 0.21040016 1.0382305
-0.25212121 0.21081492 1.0171372
-0.23824266 0.22474071 1.0167105
-0.23460175 0.27306497 1.0122876
-0.23323381 0.32318521 1.0074861
-0.23866883 0.3752014 1.0068252
-0.23829746 0.41790751 1.0086995
-0.22954255 0.47125992 1.012226
-0.46099725 -0.47156096 1.0825645
-0.42737731 -0.48124093 1.0772185
-0.37802356 -0.47506779 1.0725312
-0.31205243 -0.47684863 1.0749135
-0.275525 -0.47775272 1.0744524
-0.22605826 -0.47952592 1.0739508
-0.1724896 -0.47660419 1.0733873
-0.13776572 -0.47702923 1.0654181
-0.067375571 -0.4830806 1.0761689
-0.025014922 -0.48549196 1.0755585
0.021821277 -0.48501208 1.0778179
0.094036728 -0.48304236 1.0687029
0.12428753 -0.4830521 1.0728027
0.17482749 -0.48139089 1.0749063
0.22486766 -0.47853693 1.0735716
0.2759459 -0.47741771 1.0759935
0.32293177 -0.47686553 1.0742241
0.37447771 -0.47622794 1.0739088
0.42552966 -0.47616196 1.0761207
0.47595745 -0.47604555 1.0738705
0.5280121 -0.47567177 1.0751536
0.57639056 -0.47645178 1.075255
0.62415874 -0.47632882 1.0730246
0.67572749 -0.47610784 1.0749464
0.72293568 -0.47560439 1.0736145
0.77643299 -0.47518787 1.0746362
0.82761544 -0.47474012 1.0751574
0.87602925 -0.4735758 1.076
0.92484379 -0.47217444 1.0768285
0.97011244 -0.46985608 1.0707253
1.022319 -0.47080928 1.0734425
1.0778464 -0.47321045 1.0770415
1.1223421 -0.47512755 1.0740268
1.1791742 -0.47817764 1.0748578
1.2292453 -0.47897127 1.0721734
1.2695285 -0.47945192 1.0703956
1.3232347 -0.48282453 1.0740478
1.377317 -0.48137745 1.0751002
1.4287275 -0.48271954 1.0954716
-0.17570187 -0.43902248 1.0825928
-0.14973159 -0.44242546 1.0646186
0.088888802 -0.43240833 1.0796388
0.087838255 -0.37229991 1.065328
-0.36342055 -0.32945877 1.0820392
-0.34073371 -0.31843409 1.0712211
-0.43101516 -0.25668952 1.0573695
-0.32511654 -0.27623358 1.0621886
-0.30632824 -0.24250785 1.0534732
-0.27432382 -0.21980844 1.0806185
-0.26892203 -0.1766419 1.0576398
-0.23171927 -0.18798862 1.0837433
0.10748196 -0.15713754 1.0800549
-0.2675975 -0.13070193 1.0639945
-0.24977346 -0.11269146 1.0509304
0.10787686 -0.14608486 1.0710741
-0.31010225 -0.060796805 1.0911573
-0.26601967 -0.09356074 1.0657766
-0.24554308 -0.085715398 1.0688657
-0.50283521 -0.010748421 1.0583746
-0.49439651 -0.01068521 1.0537604
-0.31137878 -0.040046535 1.0912933
-0.31433937 0.0075978884 1.0784987
0.14536659 0.034074545 1.091404
0.14727268 0.071926855 1.069289
0.15059254 0.072095349 1.0705488
0.15568893 0.11542448 1.0552453
-1.3637801 0.18148394 1.092869
-1.3456686 0.19441982 1.0982292
-0.80496937 0.15732494 1.0577471
-0.76690513 0.1765109 1.0671428
-0.74158466 0.17955312 1.0921727
-0.76727432 0.20969708 1.0676123
-0.72969651 0.21469997 1.0785739
-0.67495036 0.21742786 1.0726329
-0.63488942 0.21038075 1.0512944
0.16160479 0.24572223 1.0936902
-0.50412637 -0.46301067 1.1373297
-0.47133133 -0.47094968 1.1240419
-0.42429468 -0.47459051 1.1229709
-0.39007673 -0.47304279 1.1124108
-0.31952828 -0.47712529 1.1238697
-0.273509 -0.47484896 1.1297166
-0.2250677 -0.48001644 1.1262949
-0.18359338 -0.47794864 1.1227244
-0.11159217 -0.48335093 1.1341141
-0.072692014 -0.48353532 1.1264635
-0.02617177 -0.48361015 1.121735
0.023185609 -0.48219612 1.1242067
0.096370652 -0.47468448 1.101663
0.12623771 -0.48094273 1.1229999
0.17604248 -0.47993413 1.1244849
0.22440535 -0.47828376 1.1239862
0.27211308 -0.47782382 1.1284158
0.32375917 -0.47749871 1.1239209
0.37408802 -0.47725525 1.1250998
0.42449272 -0.47692087 1.1246985
0.47121325 -0.4760713 1.120013
0.52381855 -0.47685033 1.1251954
0.57372004 -0.47719452 1.1237488
0.62502712 -0.47789359 1.1231103
0.67696196 -0.47723642 1.1233078
0.72690827 -0.47668567 1.1267648
0.77550936 -0.47541967 1.1272632
0.82503331 -0.47490391 1.1194153
0.8722648 -0.47266647 1.1276276
0.92481232 -0.47165182 1.1259804
0.97698563 -0.47080129 1.1229011
1.021553 -0.46960574 1.1253653
1.0746657 -0.47060034 1.1259872
1.1339383 -0.47395456 1.1249985
1.1780363 -0.47944474 1.1254545
1.2203071 -0.47820669 1.1230628
1.2800519 -0.48198688 1.1276144
1.3247181 -0.48148698 1.1254045
1.3733733 -0.4802863 1.1263734
1.418595 -0.47804299 1.1180868
1.4811918 -0.48134679 1.1301312
-0.47736987 -0.40990862 1.141582
-0.26717207 -0.44294205 1.1243356
-0.2255256 -0.43229967 1.1359835
-0.18868962 -0.43604735 1.1057454
0.097531065 -0.4294467 1.1292111
0.10417961 -0.43082809 1.1405003
-0.38837484 -0.35016298 1.1034989
-0.40715957 -0.31824782 1.1272875
-0.38651067 -0.32955107 1.1280544
-0.3325333 -0.306041 1.1066985
-0.41232875 -0.29715112 1.1484889
-0.27374828 -0.1592465 1.1089457
-0.23025481 -0.18849096 1.1031568
-0.2688798 -0.1405458 1.1127775
-0.30721542 -0.074100889 1.1178256
-0.27980819 -0.0668706 1.1333899
-0.4834559 -0.0056898245 1.1433864
-0.30735922 -0.029462282 1.1160743
-0.28282258 -0.03465962 1.1284676
-0.4791083 8.1521117e-05 1.1484914
-0.30519643 0.0085980007 1.1146845
-0.28811413 0.011052197 1.1320193
-1.3661916 0.16401771 1.1178991
-1.3281876 0.18050672 1.128352
-0.71675199 0.17616458 1.1165165
-0.68726343 0.17666365 1.1316663
-0.7176339 0.20721868 1.1178714
-0.68707073 0.21074754 1.1198895
0.10058791 0.24800256 1.1344184
0.12754756 0.25048462 1.1439768
-1.052447 0.34715521 1.1300956
-1.0311495 0.33611578 1.1343316
-1.0583346 0.37465301 1.1405561
-1.048002 0.37181935 1.146157
-1.0640523 0.40514815 1.1483272
-1.4367949 0.78209102 1.1469027
-0.51457506 -0.4686451 1.1779386
-0.47360089 -0.46960425 1.1724212
-0.43560088 -0.47482702 1.173834
-0.35618451 -0.47990274 1.1835213
-0.32495368 -0.47899497 1.175877
-0.2687169 -0.46667972 1.1661837
-0.22866365 -0.47795174 1.1710085
-0.16207017 -0.47965813 1.1841459
-0.1280832 -0.48122883 1.1765174
-0.077245638 -0.4811925 1.176149
-0.025379146 -0.48270801 1.1774441
0.023067933 -0.48222065 1.1731015
0.054768343 -0.47340107 1.178097
0.12936099 -0.48069155 1.1731735
0.17571662 -0.48032328 1.1741523
0.22560118 -0.47999498 1.1793278
0.27893448 -0.47880268 1.1741065
0.32564619 -0.47850373 1.1773998
0.37352511 -0.47690564 1.1679753
0.4274253 -0.47737861 1.1726433
0.4770813 -0.47674111 1.169838
0.5237717 -0.47683817 1.175454
0.57374984 -0.47867277 1.1757307
0.62345725 -0.4794178 1.1754949
0.67555928 -0.47852477 1.1745411
0.72275215 -0.47742736 1.1769768
0.77281684 -0.47599214 1.1773334
0.82561046 -0.47485459 1.1740267
0.87450057 -0.47292605 1.1705309
0.92158604 -0.47208107 1.1752355
0.9715566 -0.46985421 1.1723366
1.0222336 -0.46973312 1.1744568
1.0699401 -0.46778741 1.174352
1.1268303 -0.47241116 1.1761746
1.1801212 -0.47583735 1.1719323
1.2262107 -0.47845486 1.1778632
1.2764298 -0.48150197 1.1812817
1.3227885 -0.47999057 1.1684768
1.3796982 -0.47957054 1.1775395
1.4253882 -0.48054585 1.1780709
1.4744577 -0.48118889 1.1710232
1.5289613 -0.48030597 1.186573
-0.47555152 -0.4291192 1.1674311
-0.26592788 -0.42907429 1.172061
-0.24024656 -0.42511368 1.1537861
-0.12650611 -0.42135054 1.1886895
0.099474989 -0.42080456 1.1561277
0.10687375 -0.42729354 1.1737186
-0.35400867 -0.35737896 1.1644325
-0.32331479 -0.35800633 1.1795976
-0.27680179 -0.35817885 1.1850919
-0.21233274 -0.35040075 1.1998178
-0.18522605 -0.36004987 1.1981914
-0.1453876 -0.39944613 1.1820174
-0.41087705 -0.31005111 1.1660451
-0.36317474 -0.33443838 1.1592014
-0.32557926 -0.33904445 1.1739504
-0.27915755 -0.34334618 1.186381
-0.41026112 -0.29990178 1.160583
-0.23461436 -0.179803 1.1535672
-0.19613311 -0.16606247 1.182539
-0.17697939 -0.11882515 1.1852051
-0.30579898 -0.087330997 1.1532285
-0.26368898 -0.071898594 1.1708581
-0.24414563 -0.062179983 1.1925931
-0.16158518 -0.077274106 1.1932421
-0.14484511 -0.067237467 1.1848505
-0.26204568 -0.030019561 1.1712196
-0.24530146 -0.041819341 1.1931934
-0.15556514 -0.037800945 1.1943316
-0.13964033 -0.024909122 1.1885929
-0.49129874 8.4859552e-05 1.1541798
-0.13239926 0.011847837 1.1905627
-0.13649467 0.051754598 1.1991318
-0.10224067 0.13542879 1.1997781
-1.3551564 0.15993786 1.1618738
-1.3055116 0.17578961 1.1526607
-1.2776872 0.17933346 1.1750872
-1.2375295 0.19304354 1.1884775
-0.69295657 0.15519774 1.1569092
0.065879166 0.24510258 1.191038
0.10546724 0.24747205 1.1583579
-1.0151353 0.33965844 1.1681188
-0.98572385 0.33597693 1.1893762
-0.94882894 0.3218669 1.188482
-1.0656708 0.39124465 1.1543263
-1.0244062 0.37189209 1.1731926
-0.99563283 0.35355243 1.1951585
-1.5556406 0.40822804 1.1996065
-1.0639204 0.42741618 1.1659263
-1.0390054 0.42184183 1.1835268
-1.1031643 0.47412169 1.1802677
-1.0695938 0.46984828 1.18065
-1.0379673 0.4539848 1.1962643
-1.0718632 0.52111965 1.1853701
-1.419691 0.77943403 1.1725562
-1.3990452 0.76775539 1.1990652
0.43577895 0.79380697 1.1963738
-1.4180003 0.82253534 1.1766218
-1.4170297 0.87073904 1.1840308
-1.4175942 0.92233598 1.1950285
-0.55753016 -0.47631013 1.2462451
-0.54120588 -0.47580415 1.2372038
-0.47258142 -0.47125909 1.2259907
-0.44645178 -0.46998677 1.2094784
-0.36941296 -0.48005792 1.2283227
-0.3273496 -0.48028326 1.2221556
-0.25478339 -0.47268713 1.2095546
-0.23302653 -0.47461814 1.2150859
-0.17257284 -0.47665077 1.2239856
-0.12489869 -0.47690985 1.2246486
-0.074823983 -0.48245224 1.2242634
-0.026693601 -0.48402467 1.2256838
0.024743095 -0.48369333 1.2214411
0.053892203 -0.48333877 1.2284752
0.13067707 -0.48147264 1.2230873
0.17336628 -0.48240021 1.2255251
0.22813824 -0.48172966 1.230062
0.2759102 -0.47990894 1.2255454
0.32732144 -0.47873503 1.2250408
0.37580085 -0.47914314 1.224044
0.42471784 -0.47846654 1.219928
0.47525534 -0.47902292 1.2247808
0.52585757 -0.47947538 1.2300693
0.57930994 -0.47897065 1.2252836
0.62785745 -0.47872961 1.2243118
0.67410278 -0.47786218 1.2216493
0.72482973 -0.47957659 1.2256945
0.77413124 -0.4756439 1.2270485
0.82806236 -0.47510219 1.2282356
0.8766591 -0.47529396 1.2222453
0.92624253 -0.47266346 1.2236801
0.97285771 -0.47046328 1.2228894
1.0226986 -0.46941388 1.2239405
1.0695339 -0.46929282 1.2274649
1.1268685 -0.47139481 1.2247376
1.1722591 -0.47282729 1.2224982
1.21649 -0.47376722 1.2275256
1.2738074 -0.47834322 1.222247
1.325102 -0.48032472 1.2248168
1.3657446 -0.48097938 1.2231175
1.4351234 -0.47964865 1.221759
1.481512 -0.48049384 1.222187
1.5279981 -0.48222825 1.2392204
1.5748495 -0.48482978 1.2273489
-0.47892979 -0.43613616 1.212466
-0.25965995 -0.41664881 1.2264936
-0.15002808 -0.40007365 1.2224884
-0.11741909 -0.43566978 1.2142268
0.11364724 -0.42667562 1.2113607
-0.26181316 -0.37837309 1.2266197
-0.21124129 -0.36528939 1.2137645
-0.17878367 -0.36513662 1.2057593
-0.1469357 -0.37698841 1.2005143
-0.23593707 -0.28005871 1.2414865
-0.21909131 -0.22363508 1.2326134
-1.5545191 -0.11405548 1.2489452
-0.17181073 -0.12118818 1.2153901
-0.25573063 -0.08571665 1.211664
-0.23517007 -0.068041369 1.2161769
-0.16261211 -0.072666146 1.2052925
-0.34838825 -0.0059339954 1.2215641
-0.26138264 -0.019075366 1.2130765
-0.2399843 -0.035804994 1.223097
-0.15769979 -0.026520399 1.2095625
-0.14576425 -0.017291456 1.2044969
-0.35175216 4.8408594e-05 1.2221982
-0.34802395 4.7557907e-05 1.2313378
-0.13457547 0.027471518 1.2108374
-0.12093847 0.077955119 1.2163914
-1.5129322 0.13335645 1.223676
-1.4819221 0.13613759 1.2385222
-0.10973859 0.12136814 1.2196411
-1.5116831 0.15891868 1.2148353
-1.4782395 0.1598223 1.2325546
-1.4468 0.16272146 1.2493125
-1.2538236 0.17352198 1.2041682
-1.2254913 0.17839074 1.2273456
-1.1925033 0.19316377 1.2302576
-0.10300875 0.15675223 1.2072237
-0.092660315 0.17813545 1.213011
-0.07767377 0.2242804 1.2260406
0.031476151 0.24564546 1.239521
0.071234144 0.24999307 1.2000777
0.039487422 0.2517831 1.2392782
-0.96593279 0.34121159 1.2210419
-0.93585765 0.32977462 1.2256379
-1.0053446 0.37953299 1.2028385
-0.98036677 0.37417144 1.226874
-1.5752652 0.43047422 1.2348486
-1.5377727 0.40929902 1.2246357
-1.4911283 0.40498763 1.2421554
-1.0179905 0.42532349 1.2116326
-0.99032676 0.4186675 1.2306952
-1.0570301 0.48475862 1.2158223
-1.0227423 0.47677401 1.2261856
-0.99170065 0.45913661 1.2426617
-1.0705235 0.51405478 1.2020998
-1.0265191 0.51521528 1.2303816
0.537018 0.54219925 1.2496017
0.48599243 0.68025208 1.2275982
0.50395179 0.65176523 1.2432036
0.46283892 0.71535891 1.2024437
-1.4216981 0.79413438 1.2297454
0.43827075 0.78880864 1.2239873
0.45015836 0.79896539 1.2468328
-1.4150168 0.82476342 1.2144909
-1.4166616 0.8794629 1.213797
-1.4206529 0.9283365 1.2210788
-1.4231048 0.97505885 1.221523
-0.57192695 -0.47848272 1.2792227
-0.54466361 -0.47289822 1.2620126
-0.48533234 -0.473636 1.2645915
-0.40541747 -0.48398137 1.2826086
-0.3742083 -0.4837597 1.2781109
-0.3278763 -0.48353234 1.2746003
-0.21442775 -0.48143187 1.2815062
-0.18330657 -0.47864389 1.2763958
-0.10832886 -0.48113957 1.2706044
-0.075279333 -0.48462456 1.2758795
-0.027541427 -0.48560643 1.2748991
0.025167821 -0.48544911 1.271736
0.056994926 -0.48554787 1.2789323
0.13688217 -0.48312953 1.2683946
0.17558806 -0.48424125 1.2728943
0.22640347 -0.48351741 1.2774878
0.27351639 -0.4826878 1.27618
0.32209229 -0.48036328 1.2723722
0.37735394 -0.48070484 1.2773039
0.4248136 -0.48067206 1.2756234
0.47346413 -0.48116371 1.272447
0.52658957 -0.48098639 1.2810183
0.575109 -0.48039454 1.2734524
0.62305993 -0.47901434 1.2697926
0.6731168 -0.47854033 1.2737962
0.72588241 -0.47899133 1.2719816
0.77291298 -0.47830409 1.2766788
0.81907934 -0.47466424 1.2772026
0.87268859 -0.47699049 1.2735301
0.92799228 -0.4746159 1.2744011
0.9754976 -0.47304156 1.2799453
1.0261992 -0.47141466 1.2736329
1.07409 -0.47010875 1.2785605
1.1263685 -0.46971595 1.2719998
1.1823512 -0.47350305 1.279991
1.2281446 -0.47536275 1.2777358
1.2646016 -0.47626564 1.2728021
1.330988 -0.48459682 1.2751888
1.3815031 -0.48056021 1.2750431
1.4298406 -0.48085359 1.266713
1.4679537 -0.47883031 1.2771434
1.5147887 -0.48015991 1.2757558
1.5690691 -0.4844431 1.2774643
1.6139057 -0.48441514 1.2796352
1.6845977 -0.48906925 1.2979188
-0.25382632 -0.40964556 1.2658457
-0.24812476 -0.40336907 1.2858071
0.12544902 -0.41502455 1.2836068
-0.25483772 -0.37499103 1.272096
-0.2447864 -0.3935338 1.2874117
0.1210898 -0.39615142 1.2747697
-0.25363106 -0.34154481 1.2853795
-0.24814677 -0.33937517 1.2983991
-0.23599492 -0.27146021 1.2602742
-1.5563928 -0.10871216 1.2616047
-1.5331712 -0.11005962 1.2803496
-1.5589358 -0.074695759 1.2628692
-1.5381179 -0.074823342 1.2864778
-1.5565796 -0.025728703 1.2624724
-1.5356593 -0.025815081 1.2859535
-0.28001171 -0.0061528357 1.2773237
-1.5606681 0.02121193 1.2649931
-1.5359277 0.018630816 1.2861952
-0.31191152 0.0063107726 1.2898017
-0.12454109 0.066056587 1.2532064
-1.4611481 0.12793259 1.2653672
-1.4276165 0.13239326 1.2830914
-1.4513025 0.15467617 1.2541432
-1.4230688 0.15860847 1.2763861
-1.3963284 0.16269487 1.2993178
-1.2043021 0.16724043 1.2557859
-1.1745707 0.18022846 1.2753584
-1.1363194 0.19467071 1.2928219
-0.075916074 0.2244028 1.2680734
-0.016955044 0.24675977 1.2772609
0.013667454 0.24861091 1.2547027
-0.92185885 0.33993846 1.2693367
-0.89640915 0.33349937 1.2846931
-0.95952225 0.37834176 1.2556217
-0.93414551 0.3720012 1.2786245
-1.5532415 0.43635195 1.2642887
-1.5260959 0.42533806 1.2739966
-1.470597 0.40532956 1.2648431
-1.4407477 0.40552142 1.2954019
-0.97096515 0.42764038 1.2751381
-0.94082564 0.42525098 1.2886261
0.57838124 0.43745914 1.2903912
-1.002192 0.48183259 1.2540486
-0.97506678 0.47237617 1.2779939
-0.94178218 0.46092013 1.2957803
0.54413021 0.48004079 1.2820284
0.56848085 0.47008431 1.2761625
-1.0125031 0.53199452 1.2702326
-0.98305309 0.51623148 1.2831383
0.54204571 0.52437311 1.2674885
0.56393057 0.52366096 1.2759329
-1.0136368 0.56637436 1.2812077
0.53107107 0.57161301 1.2623417
0.52200687 0.6358816 1.2737991
0.49498814 0.678451 1.2506521
0.50548011 0.66956764 1.2633293
0.44485962 0.7950024 1.2571924
-1.4680554 0.84399396 1.2768029
-1.4851466 0.88314587 1.2960618
-1.4844919 0.92206758 1.2944639
-1.4757421 0.95619911 1.2851952
-1.4836347 1.0825861 1.2944798
-0.604173 -0.49173522 1.3472739
-0.58446091 -0.4856095 1.326624
-0.42151037 -0.48559192 1.3294675
-0.37367192 -0.48529756 1.3221915
-0.33394781 -0.48656788 1.3214442
-0.25967818 -0.48760962 1.3380153
-0.22328359 -0.48598471 1.3301044
-0.19095601 -0.4837192 1.3263625
-0.10449797 -0.48433554 1.3313524
-0.073225588 -0.48607659 1.3234816
-0.02368208 -0.48838562 1.3285609
0.023775619 -0.48794925 1.3249842
0.061112445 -0.48674563 1.3256922
0.13999252 -0.48585421 1.3275775
0.1753659 -0.48622027 1.3206948
0.22564022 -0.48771393 1.3269563
0.27937943 -0.48584595 1.3257174
0.3221572 -0.48339677 1.3236858
0.3717975 -0.4829604 1.324407
0.42911085 -0.4839671 1.3247954
0.47626555 -0.48166129 1.3219916
0.52523959 -0.48303816 1.330466
0.57521403 -0.48206794 1.323336
0.62391055 -0.48015383 1.3190857
0.67617965 -0.4797532 1.3228697
0.72175163 -0.47967929 1.3247594
0.77389801 -0.48021829 1.3226072
0.82700086 -0.47802046 1.3313205
0.87858832 -0.47763345 1.3279438
0.92221826 -0.47588918 1.3224999
0.97821498 -0.47363991 1.3222095
1.0304307 -0.47206295 1.3250026
1.0839918 -0.47073293 1.3174108
1.1234723 -0.4728429 1.326774
1.1700914 -0.47087622 1.321208
1.2278301 -0.47556224 1.3213905
1.2608118 -0.47509509 1.3214231
1.3107674 -0.48282242 1.3298072
1.3740821 -0.48510152 1.3170378
1.4348198 -0.48120457 1.3212063
1.4758981 -0.4797647 1.3281003
1.5221653 -0.48322758 1.3224753
1.5747778 -0.48499727 1.3316057
1.6289639 -0.48693779 1.3380774
1.6602504 -0.48904026 1.3207707
1.7195539 -0.48239005 1.3473301
-0.4371525 -0.43874869 1.3207188
0.13320605 -0.40534517 1.3112532
-0.25194442 -0.37708068 1.3121978
-0.24611732 -0.36824796 1.3331869
-0.2513755 -0.32433093 1.3186146
-0.24805173 -0.33184108 1.3359277
-1.5147253 -0.11157335 1.3186662
-1.4875876 -0.10630248 1.3400515
-1.5125864 -0.074953854 1.3141122
-1.486429 -0.075268976 1.3397115
-1.5120072 -0.026584378 1.3125972
-1.4857439 -0.025427826 1.3377204
-1.5122169 0.020821353 1.3111976
-1.4852538 0.017046534 1.3356808
-0.28521839 3.6557045e-05 1.3010722
-1.5030389 0.1159092 1.3029567
-1.4165963 0.11314225 1.3229654
-1.3792655 0.13236731 1.3263501
-1.374051 0.15811108 1.3221278
-1.3466978 0.1585228 1.3476522
-1.2059271 0.1609962 1.3156388
-1.1662287 0.16068067 1.3237507
-1.1292734 0.17891206 1.3262968
-1.092515 0.19512442 1.3295219
-0.030387722 0.24975669 1.3265827
-0.90186644 0.34410691 1.3110118
-0.878712 0.34180197 1.3280472
-0.83599472 0.33342123 1.3424715
-0.91245759 0.37867504 1.3192089
-0.88656288 0.36862504 1.3388554
0.59875083 0.3775712 1.3133768
0.61310554 0.37132421 1.3325149
-1.51931 0.43823314 1.3100525
-1.4800082 0.42784116 1.3250494
-1.4353902 0.40771919 1.3150914
-0.92594367 0.4261457 1.3260287
-0.89883238 0.40902621 1.3493242
0.59063137 0.41560778 1.3088386
0.60815644 0.40441793 1.3294752
-0.9577207 0.4878467 1.3228354
-0.92767715 0.47087321 1.3300384
0.56652808 0.47831714 1.3154726
-0.96698219 0.51817638 1.3108771
-0.94408929 0.50980878 1.319605
0.54452193 0.54640508 1.3093971
-1.0086584 0.58017045 1.3021967
-0.98037612 0.55836689 1.3348155
0.52723438 0.68782729 1.3258302
0.51629239 0.72483027 1.3219277
-1.4867738 0.83645618 1.3257418
-1.4879556 0.87383294 1.3316205
-1.4910558 0.92364907 1.3316295
-1.5003197 0.99323958 1.3152574
-1.4891385 0.97555363 1.3329289
-1.4908072 1.0262089 1.3292037
-1.4938761 1.075299 1.3307223
-1.4925663 1.1226431 1.335519
-1.4916259 1.1735495 1.3433847
-1.4879587 1.2040628 1.345324
-0.61276084 -0.49511337 1.3673899
-0.59815651 -0.49138466 1.3727316
-0.46185875 -0.48118642 1.3786902
-0.42649132 -0.48659456 1.375635
-0.37515894 -0.4878791 1.3771337
-0.33503079 -0.48734781 1.3689679
-0.26513499 -0.48866916 1.3806055
-0.22924335 -0.48777214 1.3805918
-0.19245827 -0.48360312 1.3635955
-0.1040885 -0.48473287 1.3733628
-0.075198874 -0.48720026 1.3723719
-0.026600573 -0.48962703 1.3813713
0.024046334 -0.48885852 1.3764116
0.06309969 -0.48702475 1.3737143
0.14616281 -0.48812509 1.38061
0.17341667 -0.48926082 1.3722587
0.22249804 -0.48939353 1.3672599
0.27129996 -0.48873311 1.374963
0.32914877 -0.48567879 1.3716013
0.37611276 -0.48614031 1.3774444
0.42437467 -0.48875758 1.3773187
0.47896832 -0.48732519 1.3784275
0.52753568 -0.48434332 1.374238
0.57160789 -0.48409647 1.3728005
0.62758845 -0.48298243 1.3696991
0.67306048 -0.48197868 1.3699731
0.72504002 -0.4809573 1.373768
0.77419698 -0.48093709 1.3703625
0.82155699 -0.47795743 1.3652751
0.87709308 -0.47635394 1.376785
0.92303723 -0.47355425 1.3643888
0.97495759 -0.47690308 1.3786681
1.0241668 -0.4751336 1.376071
1.0720857 -0.4733507 1.3742257
1.1196814 -0.47245464 1.3762348
1.1758151 -0.4754369 1.3730196
1.2176343 -0.47217354 1.363368
1.2660987 -0.48022878 1.3802319
1.3160684 -0.48276225 1.3834604
1.3859733 -0.49189305 1.3716362
1.4352679 -0.48745143 1.3549484
1.4773877 -0.48471585 1.3762407
1.527512 -0.48455206 1.3812394
1.5742232 -0.48261505 1.3815088
1.6329014 -0.48571491 1.3876153
1.6714616 -0.48633289 1.3859499
-0.23893495 -0.35420391 1.3576195
-0.25087446 -0.31232491 1.3548833
-0.24627373 -0.33221707 1.376634
-1.5030395 -0.11641893 1.3533608
-1.4652227 -0.1115907 1.3643742
-1.4269253 -0.11028729 1.3827268
-1.3807775 -0.11319003 1.386426
-1.4620134 -0.076928832 1.3642341
-1.4273796 -0.072658636 1.389184
-1.4616921 -0.026004631 1.3611488
-1.4279983 -0.026007945 1.3871706
-1.4597013 0.018472843 1.3593237
-1.4265044 0.018380968 1.3857491
-1.3659695 0.11630325 1.3643602
-1.3297398 0.1311233 1.3754133
-1.3210422 0.15836371 1.3737978
-1.2983776 0.16308412 1.3932085
-1.1093032 0.16872498 1.357023
-1.0823425 0.17714493 1.3797853
-0.85810024 0.3427524 1.3536527
-0.83375782 0.34409389 1.3525856
0.64645272 0.32963184 1.3760475
-0.86883086 0.37739521 1.3678772
-0.84143752 0.3646906 1.3709668
-1.4516898 0.4252083 1.352707
-1.4078904 0.4347828 1.3774116
-1.3839163 0.41891769 1.3820027
-1.342082 0.42006183 1.3900641
-0.90501338 0.43254936 1.3589004
-0.88048142 0.42264333 1.3795104
-0.83702821 0.42502356 1.3870556
-1.4058245 0.47762838 1.3823155
-1.3949059 0.46795368 1.3912134
-1.3380657 0.48882148 1.3876435
-0.91556662 0.47922716 1.3701476
-0.89076072 0.47426617 1.3818244
-0.84207129 0.45295334 1.3927332
-1.4054432 0.52763093 1.3854586
-1.3967686 0.52025926 1.3852711
-0.92175835 0.52962452 1.3656855
-0.89327174 0.50852537 1.3891559
-1.4099494 0.5762158 1.3857964
-1.394825 0.58160901 1.3974637
-1.3461938 0.55802625 1.3921531
-0.92988539 0.56499898 1.3720028
-1.4117386 0.62721455 1.3842607
-1.396458 0.62861127 1.3971269
-1.3459814 0.6114862 1.3905468
0.57146275 0.61417419 1.3835218
-1.4132375 0.67606473 1.3858982
-1.3988287 0.66423303 1.3950846
0.54217511 0.68049717 1.3617083
0.55490512 0.67228079 1.3783602
-1.415275 0.72374851 1.3890134
-1.3976544 0.70078254 1.3974121
-1.4139878 0.77597195 1.3885927
-1.4668565 0.83593965 1.360467
-1.4292914 0.83080512 1.3870186
-1.4657239 0.87836295 1.3675956
-1.4289858 0.87624174 1.3919932
-1.4633485 0.92244339 1.366483
-1.4277263 0.92323375 1.3892436
-1.4652898 0.97703522 1.3674934
-1.4313534 0.97308415 1.3908157
-1.4638219 1.0233036 1.3657038
-1.4327954 1.0269856 1.3910456
-1.4697043 1.0751659 1.3737029
-1.431334 1.0736673 1.3933686
-1.4690059 1.1226871 1.369035
-1.4343129 1.1230097 1.3910874
-1.4695634 1.1759583 1.3706002
-1.4374704 1.1749268 1.391629
-1.4675735 1.226138 1.3686514
-1.4353236 1.2267165 1.3891249
-1.461251 1.2770793 1.3746353
-1.4331414 1.2744057 1.394509
-1.4543129 1.3108746 1.381393
-1.4266804 1.3235288 1.3904372
-1.4197141 1.3680522 1.3937659
1.4543093 -0.50511301 1.4333915
-0.4634555 -0.48715639 1.4269902
-0.42534029 -0.48983777 1.4242008
-0.36991698 -0.49077973 1.4219375
-0.34177738 -0.49024159 1.4187813
-0.26564616 -0.48837003 1.4290146
-0.22345226 -0.48935315 1.4225368
-0.19607978 -0.48868188 1.4368404
-0.11280935 -0.48413593 1.4288098
-0.075110972 -0.48826447 1.4269249
-0.027374526 -0.48903593 1.4291193
0.023411166 -0.4890337 1.424803
0.063551165 -0.48831272 1.4189429
0.1729096 -0.48921674 1.4226856
0.22533271 -0.49063963 1.4221609
0.27651441 -0.49049708 1.4308089
0.32081512 -0.48715007 1.4232793
0.38032517 -0.48950163 1.4320362
0.42563179 -0.49104992 1.4283912
0.47575238 -0.49016476 1.4255695
0.52219898 -0.4890615 1.4260222
0.57756448 -0.48800233 1.4213831
0.62556744 -0.48710343 1.4237025
0.66998571 -0.48393974 1.4195541
0.72871327 -0.48383513 1.4233592
0.78018373 -0.48227286 1.421617
0.82513976 -0.48221636 1.4210275
0.8766852 -0.4769142 1.4290944
0.93136781 -0.47466621 1.4247462
0.97431624 -0.47365743 1.4298697
1.0238993 -0.47374627 1.4205058
1.0800643 -0.4719997 1.4266762
1.1231276 -0.47295633 1.4269323
1.1732924 -0.47364268 1.4172373
1.2269391 -0.47891492 1.4332414
1.2790325 -0.4818624 1.4286388
1.3151401 -0.48170099 1.4267591
1.3819648 -0.49603233 1.446866
1.4073936 -0.49687442 1.4299494
1.4911941 -0.48613101 1.4047264
1.5331624 -0.47929251 1.4129376
1.5628597 -0.47557357 1.412825
1.6040436 -0.47762358 1.4278103
1.6628535 -0.4876582 1.4340591
1.7322257 -0.4873035 1.4314362
-0.24377611 -0.32649386 1.4188169
-1.4062119 -0.10601979 1.4042715
-1.3734083 -0.10727787 1.4261065
-1.3487008 -0.11274361 1.4027401
-1.4039627 -0.094125509 1.4055014
-1.3777037 -0.073896274 1.4291381
-1.3773212 -0.026051613 1.427675
-1.4599837 0.046069231 1.4178765
-1.4220494 0.045543931 1.4226024
-1.376734 0.019163657 1.4268235
-1.3126465 0.1252403 1.4120194
-1.2798624 0.13459378 1.4261965
-1.2730756 0.15934508 1.422135
-1.2401556 0.16073529 1.4464712
-1.0591607 0.17257155 1.4075381
-1.0327578 0.17853501 1.4317133
-0.23683685 0.18750367 1.4408411
-0.23163942 0.2116379 1.4381316
-0.8639434 0.39278457 1.402468
-1.3775798 0.43529844 1.4073232
-0.85562164 0.41558006 1.4055982
-1.378714 0.47558787 1.4080963
-0.87604332 0.46944788 1.4166681
-0.84725225 0.46771997 1.4158381
-1.3793042 0.52632952 1.4077173
-0.91198182 0.52334446 1.4021713
-0.8804059 0.51327246 1.4170769
-1.3792989 0.57798368 1.405465
-1.3829472 0.62832826 1.4077237
0.57618654 0.63678473 1.421967
-1.3848214 0.67667717 1.4075652
0.57716346 0.65212667 1.4339671
-1.4012467 0.74500519 1.4016405
-1.3838524 0.72196257 1.4065403
-1.4015293 0.78341782 1.4038968
-1.3782506 0.77795625 1.4215369
-1.3362812 0.76431155 1.4492185
0.27576753 0.79129308 1.4335124
-1.405252 0.83876753 1.4015676
-1.3780978 0.82450336 1.42611
0.28061265 0.81361288 1.4442474
0.30581632 0.81650805 1.4465841
-1.4035786 0.86760193 1.4051746
-1.3786486 0.87502146 1.4287039
-1.4061835 0.92318743 1.4040091
-1.3806422 0.92483276 1.4282147
-1.4071549 0.97083461 1.40435
-1.3813483 0.97577399 1.4305627
-1.408049 1.022043 1.4081473
-1.3797222 1.0274572 1.433009
-1.4106475 1.0844122 1.406906
-1.3797989 1.0790244 1.4329202
-1.4096487 1.1282634 1.4063989
-1.3813965 1.1218113 1.4311479
-1.4134742 1.1741674 1.4074067
-1.3831561 1.1719288 1.4328361
-1.4114852 1.2247806 1.4065949
-1.3826699 1.2277741 1.4323165
-1.4107518 1.2771288 1.4081997
-1.3807262 1.2749392 1.4310766
-1.4048541 1.3245413 1.4092735
-1.3826364 1.3239634 1.4329741
-1.4065057 1.3733327 1.4060144
-1.3824729 1.3750523 1.4337609
-1.4061663 1.418389 1.4124091
-1.384275 1.4261358 1.4344105
-1.3783108 1.4695435 1.4354277
-1.3730582 1.5148469 1.4448547
1.436281 -0.50095022 1.4797394
1.4807189 -0.50475359 1.4623023
1.5254726 -0.50848633 1.4810055
1.5596843 -0.50184017 1.4904267
-0.46240801 -0.48836523 1.4727361
-0.42505151 -0.49356878 1.4764485
-0.37664759 -0.49138251 1.4666941
-0.34528941 -0.49105984 1.4686384
-0.26801974 -0.48752975 1.4700787
-0.22156902 -0.48758072 1.4803183
-0.17207247 -0.48143873 1.4717582
-0.11675521 -0.48135433 1.4672197
-0.076634429 -0.48772356 1.4771098
-0.025149936 -0.47859469 1.4784611
0.020568077 -0.48955131 1.4743385
0.06747321 -0.4920575 1.4742377
0.17977192 -0.49135056 1.4751927
0.22531088 -0.49140182 1.4755048
0.27424037 -0.49126005 1.4766872
0.33074135 -0.49112135 1.4862337
0.37131071 -0.48976195 1.4773185
0.42365819 -0.49078757 1.4776524
0.47522825 -0.48868293 1.4698679
0.52403033 -0.48790613 1.4727712
0.56946492 -0.48937628 1.4667611
0.62397379 -0.49047157 1.4809154
0.68041855 -0.48777038 1.4781735
0.72513759 -0.48550826 1.4733955
0.77865118 -0.48444921 1.4775668
0.82299453 -0.48097545 1.4740918
0.87515789 -0.47670045 1.4742348
0.92832142 -0.4706496 1.4769053
0.97893935 -0.46976304 1.4760674
1.0218291 -0.47271401 1.4758238
1.0740486 -0.47281703 1.4786323
1.1228499 -0.47145635 1.4743083
1.1742237 -0.47703645 1.4610344
1.2199696 -0.47776124 1.4775831
1.2759774 -0.4801622 1.4730042
1.3219904 -0.48403776 1.4822625
1.375615 -0.49059379 1.4745536
1.4409492 -0.49763805 1.4579947
1.5475551 -0.49479282 1.4606807
1.5799599 -0.48985258 1.4827771
1.6209887 -0.48866063 1.4795938
1.7049353 -0.48830354 1.4638568
-0.024434811 -0.43873668 1.4652447
-0.24456218 -0.30970722 1.4658026
-0.24555999 -0.29298797 1.4786558
-1.3509229 -0.10629708 1.4551575
-1.3280578 -0.1066395 1.4801781
-1.3508866 -0.079594262 1.4564967
-1.3284618 -0.074654169 1.4805677
-1.3295341 -0.026229447 1.4763484
-1.3730254 0.045633089 1.4730177
-1.327785 0.01828309 1.4744424
-1.3181419 0.11531424 1.45997
-1.2629343 0.1280584 1.458891
-1.2380579 0.13718162 1.4815643
0.74256366 0.1410944 1.4857639
0.75181264 0.14703311 1.4917414
-1.2228673 0.15989996 1.4749856
-1.1862025 0.1645975 1.4978448
-1.0093641 0.17265749 1.4577416
-0.98190695 0.18044741 1.4824591
-0.2239535 0.18623663 1.4680363
-0.22396119 0.21878068 1.4685829
-0.18181865 0.22602381 1.4615066
-0.13455997 0.22255696 1.4898038
0.28714809 0.63498884 1.4796814
0.51121402 0.63098484 1.4725661
0.28058171 0.67586666 1.4817293
0.27030733 0.72269267 1.4747379
-1.3255692 0.78249711 1.4772928
0.24843079 0.79739451 1.457278
0.26307529 0.77803946 1.4653786
0.30338317 0.79627293 1.4562465
-1.3538631 0.82452804 1.4524571
-1.3277408 0.82611382 1.4783149
0.2651827 0.80536449 1.46118
-1.3538042 0.8770752 1.4523693
-1.328861 0.87703514 1.4777925
-1.355484 0.92240018 1.4538811
-1.3302003 0.92343414 1.4769497
-1.3566409 0.97100013 1.4559902
-1.3282375 0.97177529 1.4806676
-1.3571159 1.0221361 1.4585587
-1.3299381 1.0207078 1.4804711
-1.3547574 1.0675271 1.4551262
-1.3292093 1.0720333 1.478776
-1.3562294 1.131205 1.4564226
-1.3323897 1.1251962 1.4804834
-1.3594073 1.1799738 1.4560541
-1.3317156 1.1769981 1.4813715
-1.3579016 1.2207683 1.4577353
-1.3296007 1.2243875 1.4808565
-1.3568912 1.2717978 1.4565692
-1.3319117 1.2753655 1.4820822
-1.3561554 1.3212665 1.4551873
-1.3338295 1.3253065 1.4789042
-1.3565875 1.3765883 1.45623
-1.3332038 1.370995 1.4809352
-1.359388 1.4301721 1.4586028
-1.3333306 1.4220523 1.4805956
-1.3574023 1.476218 1.4579669
-1.3302459 1.4742435 1.4843454
-1.357113 1.5216358 1.4660816
-1.3344206 1.5214041 1.4894274
1.4406525 -0.50128049 1.5319651
1.4674926 -0.50384617 1.5237952
1.5932337 -0.50922632 1.5333318
-0.45989338 -0.49049202 1.524999
-0.42531404 -0.49304107 1.5273502
-0.3754676 -0.49483913 1.5302069
-0.34610635 -0.49167728 1.5080923
-0.26869252 -0.4882144 1.5172563
-0.23931369 -0.48230916 1.507854
-0.16146487 -0.48258194 1.5157807
-0.12131982 -0.4824625 1.5229639
-0.07290639 -0.48237959 1.5171911
-0.022868099 -0.47292283 1.5092181
0.027532041 -0.490132 1.5195441
0.069647774 -0.49276811 1.5247674
0.18338968 -0.49093819 1.5196425
0.22362311 -0.49210203 1.5233327
0.27463388 -0.49146339 1.5239695
0.3234534 -0.49107087 1.524794
0.3785491 -0.48978761 1.5294925
0.4259868 -0.49081579 1.5287294
0.47267067 -0.49136892 1.5222079
0.52713001 -0.48812723 1.5263264
0.5802294 -0.49231204 1.5253855
0.62835389 -0.49104023 1.5301372
0.67827731 -0.48899239 1.5260246
0.72402292 -0.48377421 1.5289829
0.77256751 -0.48359552 1.5267415
0.82830739 -0.4806686 1.5268779
0.8760649 -0.46956408 1.521957
0.93064922 -0.46873757 1.5222913
0.97673398 -0.46821979 1.5245904
1.0241268 -0.46770602 1.5288166
1.0724699 -0.47057319 1.5307432
1.1298313 -0.47233379 1.5249735
1.1799732 -0.47805187 1.524992
1.22348 -0.47899157 1.5272324
1.2644048 -0.48422483 1.5252643
1.3339859 -0.49003297 1.529146
1.3811711 -0.49048895 1.5215111
1.4068351 -0.49282876 1.5137945
1.4525348 -0.49870384 1.5082779
1.5997568 -0.49140349 1.5156862
1.6346385 -0.48725444 1.5231194
-0.0054951115 -0.43459076 1.5036907
0.88949043 -0.44032896 1.5322229
-0.24177875 -0.30267212 1.515736
0.86616164 -0.32143605 1.5319365
-0.25008911 -0.28156734 1.523405
-0.24525066 -0.289828 1.5276356
0.86528927 -0.28752723 1.5476208
0.86038983 -0.22868587 1.5458819
-1.3039985 -0.10689363 1.5033884
-1.2811725 -0.10726009 1.5272752
0.83089006 -0.10443434 1.5377188
-1.3049053 -0.07564038 1.5059265
-1.2818303 -0.075893559 1.529519
0.81896311 -0.07160268 1.5288466
-1.3035927 -0.026374478 1.5057691
-1.280512 -0.026480593 1.5292804
0.81291974 -0.029935442 1.5380625
-1.3544286 0.046032105 1.5121797
-1.3094789 0.032003257 1.5123574
-1.2751355 0.019233253 1.5310378
0.79395884 0.028743709 1.5283173
0.80657321 0.018206682 1.5443665
0.79163665 0.07788875 1.5425349
-1.2230862 0.13546123 1.5156384
0.76819408 0.13046071 1.5255687
-1.2087791 0.15778169 1.5104057
-1.1786706 0.1615532 1.5218766
-0.96004605 0.17700072 1.5177228
-0.9324674 0.18080775 1.5379766
-0.89296353 0.16294122 1.5289046
-0.21766451 0.19029202 1.5158603
0.13531075 0.19275655 1.5420213
-0.15787297 0.23040441 1.5411475
-0.064440772 0.24318652 1.5309659
0.13558266 0.23030955 1.5415704
0.75971091 0.211503 1.5396588
0.13747171 0.26783574 1.5360401
0.15115224 0.28112122 1.5426646
0.74806494 0.28092706 1.5463277
0.14236923 0.36458665 1.5407425
0.16222505 0.38186646 1.5396914
0.17853439 0.42621404 1.5337021
0.69838566 0.4163827 1.5368223
0.18930393 0.47231573 1.5339098
0.20970877 0.4789921 1.5350893
0.19423793 0.51035804 1.5229264
0.21564187 0.52532136 1.5358299
0.23115557 0.56281334 1.5310493
0.250312 0.58216041 1.541427
0.28597477 0.6334331 1.5037825
0.54226172 0.61987323 1.5188284
0.5814932 0.64005917 1.5263008
0.28020692 0.68030453 1.5018938
0.26801476 0.74349034 1.503765
-1.3034444 0.77272159 1.5026312
-1.276896 0.7802695 1.52642
-1.3029553 0.8213439 1.5002794
-1.277482 0.82520247 1.5265719
-1.3035654 0.87401122 1.5052459
-1.2781501 0.87522298 1.5291272
-1.3063087 0.92721057 1.5058932
-1.2770176 0.92602378 1.530364
-1.3052357 0.97585601 1.5038157
-1.2803084 0.97651327 1.5293039
-1.3067455 1.0233064 1.5039353
-1.2805358 1.0257761 1.5309414
-1.3042403 1.0734965 1.5053356
-1.2831784 1.0783393 1.5313292
-1.3082484 1.1240522 1.5056165
-1.2817427 1.1294547 1.5309017
-1.3057442 1.1755769 1.5057567
-1.2768412 1.1743919 1.5322905
-1.305109 1.2272161 1.5094533
-1.2803972 1.2249566 1.5332036
-1.3082129 1.2761252 1.5093954
-1.2806062 1.2754854 1.533609
-1.3065796 1.3255309 1.5068272
-1.2799314 1.3255674 1.5344384
-1.3089937 1.3773636 1.5094095
-1.2832003 1.3757941 1.531477
-1.3094512 1.4218194 1.5056818
-1.2828376 1.4263535 1.5317165
-1.3058766 1.4707307 1.5101446
-1.280284 1.4718527 1.5314746
-1.3112994 1.5205317 1.5077672
-1.2825978 1.5251553 1.5315877
1.4735614 -0.50286299 1.5697209
1.5170373 -0.51080966 1.5779598
1.551193 -0.51547819 1.5754091
1.6265475 -0.51629609 1.5763874
-0.42316082 -0.49587414 1.5618435
-0.38034326 -0.49343887 1.5613818
-0.10646373 -0.48012516 1.5738332
-0.083159432 -0.48340315 1.5720891
0.029128311 -0.4920654 1.5747625
0.07186047 -0.494418 1.5769506
0.18428235 -0.49057239 1.5695138
0.22377746 -0.49332729 1.570904
0.2728886 -0.49286321 1.5791605
0.32646292 -0.49170917 1.5811292
0.3726826 -0.48165891 1.5724541
0.41819298 -0.48430359 1.5761591
0.47217301 -0.4912945 1.5745876
0.51810336 -0.49179259 1.5783799
0.57424796 -0.49257946 1.5776464
0.62058294 -0.49073878 1.5741098
0.67227709 -0.48751843 1.5717481
0.71570253 -0.4827486 1.5803319
0.77672672 -0.48196322 1.5787824
0.82073605 -0.47772592 1.5664103
0.86673075 -0.47586069 1.5737334
0.92649788 -0.46688554 1.5664307
0.98159564 -0.47077826 1.5779961
1.0155636 -0.46467137 1.5807711
1.063665 -0.4659304 1.5736812
1.12184 -0.47259387 1.5745806
1.1718624 -0.47471613 1.585463
1.2160478 -0.4776893 1.5727266
1.2741854 -0.48579088 1.5748074
1.3241251 -0.487993 1.5768427
1.3794909 -0.49054518 1.5760995
1.4128036 -0.48911491 1.5983124
1.4669473 -0.49901035 1.5825809
1.7042741 -0.48528543 1.5837786
0.37434322 -0.4413701 1.577871
0.40551007 -0.44690311 1.5838511
0.89473438 -0.42078662 1.5601711
0.90207887 -0.41607887 1.5555003
0.89523047 -0.38003048 1.5752672
0.90726686 -0.3931036 1.569422
0.84676832 -0.31133392 1.5852559
0.8682794 -0.32781294 1.5684811
-0.2502977 -0.26748478 1.5747315
-0.24501839 -0.27753884 1.5772171
0.87110084 -0.2700651 1.5699152
0.86426562 -0.22732547 1.5678487
0.84590721 -0.15547375 1.5625473
0.85831702 -0.17862937 1.5764015
-1.2551653 -0.1077541 1.555387
-1.2264251 -0.1122232 1.5829681
0.84188479 -0.12277305 1.5674392
0.85341918 -0.13335562 1.5967671
-1.2549767 -0.078229576 1.5557307
-1.2336978 -0.077155821 1.5830116
0.82803476 -0.073465675 1.5703565
-1.2567977 -0.026572391 1.5515906
-1.2325494 -0.027694274 1.5781485
0.823919 -0.025967648 1.5786116
-1.2766693 0.046097659 1.5756903
-1.2303172 0.02019448 1.5770149
0.81278479 0.024629587 1.579662
0.79114896 0.080681056 1.5548637
0.8079102 0.074167311 1.5881038
0.14235057 0.13280633 1.5918181
0.15666004 0.11271305 1.5938451
-1.1889886 0.15535617 1.5528823
-0.95844781 0.16033447 1.5688999
-0.93339992 0.16263644 1.5744332
0.12407795 0.17561904 1.590703
-0.15785271 0.22835076 1.5793128
-0.14616638 0.23170662 1.5769856
-0.075019464 0.23725036 1.5767044
0.094937034 0.22622906 1.5686632
0.10931906 0.22561038 1.5785613
0.76722944 0.22748318 1.5681006
0.11650222 0.27764001 1.5680674
0.75620317 0.27433234 1.5712442
0.12137973 0.30731359 1.570307
0.34758487 0.36922571 1.5936756
0.63041347 0.41635174 1.5851996
0.70475864 0.4242906 1.577148
0.35070667 0.45973262 1.5925119
-1.2542478 0.78241074 1.5520737
-1.2264812 0.77891892 1.5736475
-1.1965032 0.76303887 1.5982981
-1.2514744 0.8204664 1.5521828
-1.2262961 0.82462209 1.5776546
-1.2556787 0.87842494 1.5530367
-1.2293922 0.87396675 1.5769466
-1.2544247 0.92945838 1.5551971
-1.2293681 0.92300528 1.5774324
-1.2535369 0.97875881 1.5544096
-1.2287703 0.97388488 1.5788233
-1.2541605 1.0316858 1.5553794
-1.2282287 1.0255316 1.5808899
-1.2584386 1.0793335 1.5553919
-1.2308607 1.0748659 1.5795317
-1.254747 1.12527 1.5557443
-1.2295891 1.1228427 1.5822253
-1.25385 1.174661 1.5586611
-1.2308432 1.1773053 1.5828677
-1.2563952 1.2285918 1.5567307
-1.2291915 1.2246459 1.583804
-1.2560774 1.2755101 1.5579734
-1.2316622 1.2729032 1.5818355
-1.2586635 1.3227391 1.5551902
-1.232892 1.3259231 1.5805327
-1.2573606 1.3817364 1.5575293
-1.2323962 1.3758571 1.5825062
-1.2563555 1.4281985 1.558246
-1.2281176 1.4229394 1.5829191
-1.2565999 1.4836831 1.5589821
-1.2327554 1.4720294 1.5850006
-1.2578868 1.5274171 1.5589396
-1.2337068 1.5211418 1.5805626
-1.2347612 1.5537534 1.5830377
-0.16545957 -0.50237852 1.6157897
0.091050766 -0.50153863 1.6448679
1.4655796 -0.50042129 1.6198896
1.5248548 -0.50503147 1.6284403
1.5720775 -0.51067513 1.6281904
1.6250691 -0.51900655 1.6251901
1.6787637 -0.51305789 1.6284678
-0.10534408 -0.48508748 1.6179552
-0.080782667 -0.48082775 1.6046504
0.029053599 -0.49413717 1.6290697
0.072785385 -0.49517781 1.6215978
0.19129701 -0.49305055 1.6204375
0.2251599 -0.49437079 1.625532
0.27762863 -0.49201843 1.6244127
0.32582235 -0.49091476 1.6274797
0.3791185 -0.48353907 1.6221417
0.43402115 -0.48641062 1.6185143
0.47504908 -0.49249172 1.6276087
0.52209479 -0.49233201 1.6272792
0.56915736 -0.49021634 1.6209037
0.62177062 -0.48802817 1.6227046
0.67702127 -0.4866181 1.6293532
0.72814339 -0.48413679 1.6278267
0.77425027 -0.48140088 1.623621
0.82306498 -0.4781934 1.6277947
0.87678468 -0.47526306 1.621816
0.91815978 -0.46859887 1.6163768
0.97714669 -0.46388888 1.6216677
1.0199474 -0.46605575 1.619915
1.0718973 -0.46581888 1.6248726
1.1208782 -0.46983877 1.6281269
1.1837726 -0.47682199 1.6277696
1.2361553 -0.47987649 1.6191778
1.2794001 -0.48216844 1.6131668
1.3205769 -0.48474705 1.6273187
1.3655871 -0.48861289 1.6298643
1.4183867 -0.49622914 1.6326754
1.4902244 -0.49865225 1.6498408
0.41376519 -0.44391143 1.6183991
0.78657109 -0.305107 1.6354969
0.8296051 -0.3216038 1.6277558
0.85524803 -0.33495933 1.6178519
-0.25105244 -0.2569603 1.632189
-0.24495462 -0.26269981 1.6312304
-0.25018856 -0.24426654 1.6277683
-0.24547006 -0.24745548 1.6498114
0.87457585 -0.22425281 1.6099982
0.85605705 -0.15888171 1.6000508
-1.2044802 -0.11082818 1.6133921
-1.1839231 -0.10957939 1.6370255
0.84171528 -0.10530154 1.6239967
0.852754 -0.12193549 1.6152496
-1.2086512 -0.075244658 1.608584
-1.1852289 -0.071658798 1.6363527
-1.1205969 -0.054033205 1.6477767
0.83086383 -0.087906957 1.6301719
-1.2078792 -0.022984548 1.6051104
-1.1842306 -0.027043112 1.6311356
-1.1104112 -0.031087348 1.6332041
0.03613558 -0.010723836 1.6376164
0.074634142 -0.015092827 1.6274201
0.12264331 -0.01408937 1.6385792
0.17537923 -0.0078551844 1.6460457
0.83257675 -0.029079322 1.6083937
-1.2140341 0.031209445 1.6165463
-1.1819161 0.019271113 1.6300246
-1.1013927 0.00926321 1.6380217
0.03249117 0.021000529 1.6358827
0.074624099 0.021523712 1.6215336
0.12190262 0.014519189 1.6327426
0.15167618 2.5187825e-05 1.6467468
0.82407039 0.025326353 1.6210382
0.16283093 0.092506371 1.624383
0.83029419 0.059269864 1.6326132
0.13239443 0.12308313 1.6220227
0.15647189 0.13135934 1.6108985
0.79869938 0.14196469 1.615267
0.80903912 0.13464756 1.6266594
0.11354116 0.16582881 1.6159827
-0.1455913 0.22526774 1.6134226
-0.073385276 0.22876109 1.6230828
0.10339661 0.20285541 1.6247547
0.78471994 0.23153587 1.6294992
0.78031385 0.276858 1.6314974
0.38534772 0.36722922 1.6410407
0.42348835 0.35896245 1.6486231
0.36844048 0.4231545 1.631115
0.63415182 0.41060472 1.6041855
0.67242092 0.43773338 1.6402833
0.7180841 0.43513203 1.6324587
0.36011761 0.45985001 1.6376286
0.71722835 0.45134804 1.641032
0.39557958 0.59857684 1.6139109
0.38497609 0.61341989 1.6319551
-1.2026933 0.78144795 1.6006281
-1.1745794 0.78030634 1.6289805
-1.2023791 0.82645005 1.6026462
-1.1781151 0.82335418 1.6272665
