ply
format ascii 1.0
comment PCL generated
element vertex 1507
property float x
property float y
property float z
element camera 0
property float view_px
property float view_py
property float view_pz
property float x_axisx
property float x_axisy
property float x_axisz
property float y_axisx
property float y_axisy
property float y_axisz
property float z_axisx
property float z_axisy
property float z_axisz
property float focal
property float scalex
property float scaley
property float centerx
property float centery
property int viewportx
property int viewporty
property float k1
property float k2
end_header
-0.32322282 -0.4731749 2.5236998
-0.29301494 -0.49351278 2.5448985
1.5879478 -0.48390269 2.546442
1.6127617 -0.49898568 2.5408363
1.7164576 -0.49293429 2.5448303
1.7670908 -0.49724028 2.5481169
-0.36046919 -0.4240703 2.500258
-0.3335174 -0.42275143 2.521034
-0.35059431 -0.37802258 2.5226166
-0.3271288 -0.37534818 2.5327194
-0.32738385 -0.32431546 2.5389991
-0.46552405 -0.25892827 2.5492728
-0.32804161 -0.29430863 2.5464475
-0.4001056 -0.23209377 2.5339754
-0.39580542 -0.21751279 2.507442
-0.38445345 -0.15738179 2.5164087
-0.37344232 -0.12752919 2.5261335
-0.36272636 -0.069753692 2.5046277
-0.34571999 -0.060087066 2.505142
-0.36023897 -0.026418854 2.504766
-0.34274274 -0.027617116 2.522032
-0.36146668 0.018971646 2.5060427
-0.33765098 0.026075061 2.5297925
1.9845446 0.034499392 2.5323467
2.0100222 0.044109277 2.509095
-0.35773078 0.072195008 2.5036185
-0.33232978 0.07946229 2.5328188
1.991869 0.070488572 2.5382829
2.0143206 0.073253103 2.513849
-0.35883546 0.12798336 2.5100601
-0.3334128 0.12373259 2.5335872
2.0207012 0.12444337 2.5200408
1.9888765 0.16849187 2.5473728
2.0152168 0.17557198 2.5245712
1.6711384 0.22278731 2.5471818
1.993053 0.22737202 2.5489295
2.0237443 0.22674899 2.5178709
1.9963862 0.2790325 2.5490344
2.0277171 0.27833852 2.5185587
1.9916856 0.32106915 2.5248537
2.0150614 0.30674997 2.513931
1.9888704 0.38744083 2.5275712
-0.40132591 0.44128615 2.5229352
-0.32648054 0.43963146 2.5204866
1.9963613 0.41091794 2.5342319
-0.32293135 0.47159985 2.5229154
-0.32443771 0.52250999 2.5208645
-0.29381579 0.51975948 2.5479012
1.9973029 0.53105521 2.5361552
-0.32147425 0.57316893 2.5218103
-0.29488325 0.58995676 2.5472109
0.015384956 0.56432956 2.530009
1.9861131 0.5660395 2.5247078
-0.32244015 0.62176418 2.5218208
-0.29236379 0.63470936 2.5455501
0.058442555 0.61477208 2.5275445
-0.3527092 0.65040684 2.5003445
-0.32461807 0.67432415 2.5203238
-0.29630768 0.68016988 2.5448492
0.089628801 0.69200683 2.5268676
0.11399876 0.68994278 2.5186639
-0.3268944 0.72485077 2.5191004
-0.29718474 0.72599411 2.544215
1.9941517 0.73131073 2.5445645
2.0021837 0.70166212 2.547472
-0.32738814 0.77431595 2.5200136
-0.29831067 0.77274662 2.5450475
0.12681645 0.75452238 2.516278
0.15288766 0.76117653 2.5375369
-0.320577 0.8247382 2.5225253
-0.29824746 0.80395991 2.5379093
0.16544871 0.82399869 2.5250561
0.23474897 0.83868313 2.5251589
0.27037111 0.83282983 2.5049565
1.987187 0.81350112 2.5291905
-0.32268244 0.87733233 2.5218763
-0.29964814 0.85822046 2.5385208
0.18995109 0.87182015 2.5062544
0.21740124 0.88214844 2.5345516
-0.32271978 0.92323232 2.5219767
-0.289664 0.92978346 2.5474246
1.9931226 0.93517345 2.533004
-0.32047892 0.97734743 2.5275702
-0.35082617 1.0117103 2.5000451
-0.3227964 1.0265837 2.5261884
1.9993087 1.0214096 2.5454764
-0.32206196 1.0743783 2.5263267
-0.29420328 1.0866617 2.548084
-0.35492054 1.1194851 2.5003371
-0.3259719 1.1269389 2.5238302
-0.32343483 1.1763259 2.5266287
-0.2972652 1.1764033 2.549932
-0.32274604 1.2263467 2.5250118
-0.31895715 1.2795415 2.5275853
-0.29960588 1.2515421 2.5475137
-0.35139477 1.340355 2.5017159
-0.31966645 1.3262773 2.5274708
-0.35335332 1.374301 2.5050378
-0.32473227 1.3749496 2.5291018
-0.35508144 1.4075384 2.5064178
-0.32588619 1.4233668 2.5289676
-0.32734922 1.4607506 2.5273433
2.0247188 1.4887942 2.5227084
-0.33651087 1.5370842 2.5285919
2.0356557 1.5243208 2.5327225
2.0541823 1.538779 2.507045
2.0422096 1.5783029 2.5417137
2.0710685 1.5756928 2.5144012
2.0726924 1.6210254 2.5225666
-0.37659627 1.6824225 2.523102
-0.34531617 1.6818848 2.5435691
2.0750449 1.6731943 2.5238471
-0.40058458 1.7423152 2.5003405
-0.37636331 1.724839 2.5181339
-0.34699658 1.7110878 2.5450602
2.0766125 1.7252426 2.5269952
-0.37703407 1.7744265 2.5264761
2.0755203 1.7661573 2.5292079
2.1032469 1.7533687 2.5038397
-0.41146067 1.8210427 2.508817
-0.38245931 1.8259158 2.5310564
2.0916581 1.8049437 2.5334322
2.1294687 1.8243321 2.5250595
2.1586628 1.8361263 2.5057275
-0.41082621 1.8726826 2.5148323
-0.38708025 1.8765414 2.5344582
2.1741858 1.8736275 2.5291235
2.2007802 1.8916031 2.5001264
-0.40797752 1.9287959 2.5205534
-0.38709536 1.9253902 2.5328059
2.1880877 1.9113216 2.5285671
-0.41702476 1.9687403 2.5106907
-0.38300833 1.9810324 2.5444267
-0.41454503 2.0185277 2.5233285
-0.39425093 2.0273476 2.5372748
2.4764822 2.3986962 2.5354056
2.5138283 2.3984151 2.5077798
1.7794261 2.4150314 2.5475826
1.8264815 2.4195206 2.5258415
1.8757869 2.4204175 2.5376894
1.926136 2.4201717 2.5333793
1.9770293 2.429652 2.529501
2.0115361 2.4104295 2.5190063
2.0728447 2.4250495 2.530515
2.1193564 2.4202526 2.5276961
2.1770334 2.4204812 2.5217543
2.2316046 2.4216218 2.5193324
2.2710779 2.4160607 2.5273163
2.3190286 2.413835 2.52388
2.3699799 2.4095223 2.5261092
2.4216557 2.4052529 2.5279977
2.4837329 2.4060202 2.5197415
2.5360579 2.4005461 2.5431049
2.5565131 2.4019299 2.5306776
2.6672864 2.4143579 2.5206816
1.9055606 2.4537647 2.5286555
-0.22232202 -0.50105739 2.5887728
-0.11496662 -0.53463244 2.5691409
-0.07781475 -0.53562987 2.5748355
-0.040482163 -0.53638917 2.5790715
0.028190771 -0.53767097 2.5853503
1.6063359 -0.50131792 2.5594175
1.6565857 -0.50600553 2.5662358
-0.27452636 -0.47603732 2.571362
-0.23880851 -0.48222521 2.581537
1.5697228 -0.49162868 2.5593872
1.6290333 -0.48261937 2.5917876
1.679386 -0.49450803 2.5746603
1.7228705 -0.4846215 2.5850849
1.7799022 -0.49562734 2.5818629
1.8121831 -0.46968147 2.589653
-0.3055501 -0.42593014 2.5535917
-0.27822542 -0.42832687 2.5778325
1.8127363 -0.43364367 2.5953517
-0.30494225 -0.36346585 2.5547638
-0.28273329 -0.37910488 2.5779426
-0.30472213 -0.32629296 2.5561492
-0.28089166 -0.32995552 2.5831804
-0.31447825 -0.27692825 2.5584219
-0.28196505 -0.27891576 2.5792589
-0.30838403 -0.23230922 2.5727334
-0.28227124 -0.22954398 2.5850599
-0.28494412 -0.18001565 2.5889516
-0.44229072 -0.14841953 2.5662229
-0.27893922 -0.145155 2.5966313
1.9761915 -0.014001885 2.5636942
-0.32210734 0.024656424 2.5594082
1.9734788 0.022489801 2.5600095
-0.30747503 0.085874237 2.5570524
1.9786652 0.077280805 2.5588474
-0.30633929 0.12260926 2.5551474
1.9850574 0.12491325 2.5585091
1.6816678 0.19703871 2.5793037
1.9821488 0.18159623 2.5707614
1.6787765 0.21072048 2.5740142
1.98189 0.22661595 2.568398
0.82006896 0.28728467 2.5799117
1.993089 0.27643844 2.5662248
2.0029204 0.29464781 2.556015
0.70974088 0.31552681 2.5681057
0.76014256 0.32321435 2.5688717
0.81984949 0.32553124 2.5760772
1.9907426 0.32444915 2.5656428
2.0020962 0.32392108 2.5519924
0.82693785 0.38245791 2.5846031
1.9980882 0.37736428 2.5692444
2.0042734 0.36977693 2.5639699
-0.30797449 0.43566242 2.5726085
-0.27949372 0.44101834 2.5743444
-0.22962463 0.44052756 2.5819156
0.8334465 0.42809308 2.5800049
1.9960227 0.42272344 2.5751572
2.0030217 0.42908549 2.5864773
-0.27709824 0.47662371 2.5728929
-0.24818288 0.4776881 2.5981588
-0.19623916 0.46745884 2.5798311
1.9972258 0.47234899 2.5726078
2.0009997 0.48889288 2.5576231
-0.27666447 0.5259856 2.5708997
-0.24876827 0.5355171 2.5969291
1.9942863 0.51962411 2.5655353
2.0045097 0.50457448 2.5597324
-0.2754893 0.57271492 2.5702147
-0.24905376 0.57396078 2.5944974
1.9982098 0.57852435 2.5750535
2.0033457 0.56772798 2.5765626
-0.27306959 0.62122637 2.5740774
-0.24986573 0.63279277 2.5941081
1.9942006 0.62267804 2.5734546
2.0016956 0.62691712 2.5629666
-0.26900026 0.6732105 2.575382
-0.12290485 0.69369793 2.580512
0.10289416 0.67324257 2.5535834
1.9937063 0.6690107 2.5656462
2.0033731 0.67969143 2.554024
-0.26858726 0.72402024 2.5747585
-0.11036821 0.73202747 2.5755854
1.9968115 0.72515625 2.5723057
-0.26995736 0.77585566 2.5740557
-0.24001741 0.7811411 2.5997829
1.9950147 0.76861203 2.5745215
2.0007379 0.78901517 2.5543659
-0.27199462 0.8260349 2.5722456
-0.24098074 0.83570522 2.5993443
1.9966409 0.80844355 2.5742664
2.0072899 0.83552819 2.5819418
-0.3018702 0.87729955 2.5543706
-0.27171931 0.87636906 2.5742223
1.9939784 0.87428951 2.5835893
2.0061598 0.8730045 2.5698915
-0.27194902 0.92599374 2.5741642
-0.24232486 0.90501177 2.5990357
1.9997439 0.91492695 2.5800519
2.0070353 0.93004364 2.5700653
-0.27361006 0.97588915 2.5740628
-0.24377808 0.97547257 2.5984061
1.9932727 0.98019022 2.5824347
2.0055473 0.97872537 2.5685761
-0.27518168 1.0236051 2.5723145
1.9952449 1.01949 2.5724685
2.0042224 1.0279365 2.5665689
-0.27507451 1.072832 2.5727882
1.9945841 1.080801 2.5698752
2.0003951 1.0605273 2.5659552
-0.27650398 1.1237496 2.5726404
-0.24748793 1.135571 2.5967233
1.9912369 1.1177704 2.5646482
2.0064332 1.1496054 2.575475
-0.28000113 1.1742811 2.5720558
-0.24869838 1.1743419 2.5989006
1.9938176 1.16842 2.5744302
2.0017843 1.1624391 2.5635548
-0.27890879 1.2253923 2.5762303
2.0028727 1.2190084 2.5767102
-0.27538726 1.2754674 2.5781214
1.9992511 1.2656486 2.5864868
2.0040362 1.2699548 2.5689068
-0.27126804 1.3236333 2.5762677
1.9990984 1.331019 2.5933778
2.004787 1.3309253 2.5757375
-0.30608079 1.3997313 2.5567131
-0.27301881 1.3726259 2.5774293
2.0083826 1.3707842 2.5783594
-0.30734038 1.446039 2.5505071
-0.27632076 1.4265703 2.5757048
2.0100205 1.4099618 2.5746996
-0.28171888 1.4532644 2.5655754
-0.24321274 1.4530034 2.598134
2.0125229 1.4792329 2.5819299
2.0128517 1.5258441 2.5777452
-0.3125208 1.5528762 2.5571969
2.0242605 1.5706033 2.5695033
2.0367999 1.6220926 2.5704885
2.0599744 1.6165202 2.5503693
-0.31773859 1.6860409 2.5786459
2.0389655 1.6718297 2.56864
2.0574226 1.6767198 2.5512156
-0.32983088 1.7242211 2.5706789
2.0414946 1.7238871 2.5763776
2.0504694 1.717523 2.5554101
-0.35279268 1.7895973 2.5607076
-0.32819337 1.7703776 2.5781138
1.9979061 1.7789737 2.5887842
2.0286884 1.7693592 2.5839562
2.0546317 1.7766924 2.5680737
-0.35470599 1.8279722 2.5585489
-0.32928187 1.8193234 2.5794799
2.0771112 1.8214384 2.580658
2.1190276 1.8455025 2.5559521
-0.36482444 1.8790326 2.5576537
-0.33364573 1.8813848 2.5881655
2.1260037 1.8760712 2.5698946
2.1526227 1.8770132 2.5526326
-0.36640072 1.9267881 2.5599418
-0.33597904 1.921545 2.5848148
2.1315827 1.9057103 2.5822561
2.1643755 1.9044298 2.555516
-0.35698682 1.9809057 2.567404
-0.33594435 1.9685495 2.5892601
-0.36697999 2.0298042 2.5628369
-0.33838606 2.0162644 2.5869827
-0.36226332 2.0625782 2.571692
-0.34171793 2.0661705 2.5930109
2.4274917 2.3967955 2.5674973
2.5492837 2.393889 2.5695715
1.6929805 2.4039347 2.5815873
1.7332878 2.423811 2.5878072
1.7816334 2.4331355 2.5936871
1.8240038 2.4219868 2.5719354
1.8879849 2.4319246 2.5755568
1.9255066 2.4238958 2.581605
1.9700453 2.4251018 2.5692403
2.0175457 2.4307206 2.5760813
2.0682275 2.4193792 2.5714099
2.1424706 2.4243155 2.5849729
2.1820362 2.4248195 2.5738308
2.2214408 2.417459 2.575633
2.2746086 2.411339 2.57371
2.3315694 2.4037063 2.5702982
2.3810663 2.4067874 2.5715485
2.4090483 2.4065559 2.5984471
2.4669888 2.4012558 2.5788858
2.5399065 2.4030716 2.593534
2.5750694 2.4001377 2.562187
2.6261988 2.4107943 2.5771818
2.6797364 2.4041061 2.5912971
2.716145 2.4018734 2.5598595
2.8023567 2.4033539 2.599993
-0.015717341 -0.54339206 2.6129243
0.0032157653 -0.54378074 2.6148283
-0.21739964 -0.47426364 2.6251786
-0.1841113 -0.493893 2.6440482
1.592738 -0.48201016 2.6296353
1.6036339 -0.48101452 2.6177034
1.6846664 -0.48596781 2.6138906
1.7089022 -0.48674873 2.6073921
1.7782211 -0.47417504 2.6234152
1.8044811 -0.46418419 2.6083658
-0.26039243 -0.40159118 2.6027439
-0.22891866 -0.4248988 2.6235173
1.7900282 -0.4223851 2.6365728
1.8121805 -0.42107072 2.6136832
-0.26008123 -0.36977977 2.6026378
-0.23061183 -0.37290168 2.6265743
1.7901686 -0.37867793 2.6419151
1.8137778 -0.37751064 2.6182733
-0.25976875 -0.31299123 2.6043317
-0.23307551 -0.32382274 2.6278491
1.7983726 -0.33508882 2.6439559
1.8136859 -0.3381542 2.6296289
-0.25950041 -0.26888406 2.6048021
-0.23039643 -0.27150604 2.6320703
-0.32465962 -0.23954214 2.6233616
-0.25958431 -0.21892048 2.6086729
-0.23289399 -0.22168936 2.6325052
-0.26845673 -0.16969602 2.6096079
-0.23624019 -0.17010568 2.631707
-0.27166092 -0.120694 2.6076875
-0.23608868 -0.11962181 2.6318541
-0.26562297 -0.077910215 2.618082
-0.23724198 -0.070964172 2.6328843
-0.26166824 -0.037797928 2.6353784
-0.24887338 -0.037771143 2.6342521
-0.29793975 0.13806467 2.6166565
-0.21688166 0.11324425 2.6291652
-0.19892865 0.11374495 2.641788
2.0204384 0.13606516 2.646965
1.6784191 0.19913551 2.6174402
1.7122002 0.18631279 2.6268749
1.998908 0.16439556 2.6173553
2.0090799 0.15026613 2.6314135
1.6754317 0.21238796 2.6412156
1.7004397 0.2285856 2.6207118
1.993852 0.208538 2.6081233
2.0156636 0.24085024 2.634546
0.78410703 0.29051879 2.6183138
0.80976307 0.29046756 2.6125336
0.72985762 0.33452815 2.6153858
0.77791411 0.32261109 2.6313367
0.81025565 0.32623577 2.6080337
2.0256822 0.33256266 2.6395652
0.71913773 0.36453679 2.6481502
0.7904616 0.36504346 2.638016
0.8116309 0.37347391 2.6227322
2.0132272 0.3755132 2.6183741
0.79670066 0.41805983 2.6374271
0.81551898 0.42512196 2.6187277
-0.22856896 0.47643825 2.6158319
-0.22238986 0.52554023 2.6204605
-0.18714553 0.52681941 2.6213074
-0.2216005 0.57732832 2.624193
-0.18009962 0.57343566 2.6358786
2.013165 0.56721056 2.6195388
-0.25029173 0.60851908 2.6026008
-0.21967225 0.62391829 2.6213655
-0.19012605 0.64476579 2.6468267
-0.14970435 0.63735223 2.6180439
-0.21985064 0.67477489 2.6258082
-0.13828911 0.6821534 2.6374481
-0.2230839 0.72565204 2.6246703
-0.19130811 0.73312008 2.6485441
-0.12597029 0.7239269 2.6425152
2.018954 0.71815038 2.6272519
-0.22098123 0.77337384 2.6242244
-0.19203283 0.79450303 2.6471643
-0.22059672 0.82282025 2.6251781
-0.1922861 0.81511986 2.6466155
2.0105686 0.83557463 2.6177464
-0.22560255 0.87331343 2.6184409
-0.19307774 0.87741441 2.6446695
-0.074299596 0.86647844 2.6157956
-0.22313634 0.92570603 2.6220417
-0.062169369 0.91707742 2.6410229
2.0179181 0.94581455 2.628829
-0.22481351 0.97403139 2.6213226
-0.19491364 0.9782992 2.6475513
2.0023084 0.95387805 2.603812
-0.22769512 1.0231594 2.6192467
-0.1957593 1.0223621 2.6486533
2.0145645 1.0450971 2.6249905
-0.22718592 1.0747341 2.6225679
-0.19666588 1.0737848 2.6480618
2.0066521 1.0565258 2.6094182
-0.22679909 1.1225468 2.6199465
2.0006473 1.1396028 2.6041825
-0.22720636 1.1757756 2.6235025
-0.19853577 1.1647971 2.6492853
-0.2505604 1.2298963 2.6030068
-0.221889 1.2280277 2.6257341
-0.19914331 1.2088788 2.6445317
2.003828 1.2291675 2.6085699
-0.25176176 1.2760972 2.6015785
-0.22020602 1.2780732 2.6321332
-0.22292696 1.3229032 2.6279151
2.0061011 1.31978 2.6094291
-0.22675206 1.3769195 2.6263657
-0.25660771 1.4238694 2.6052055
-0.22393347 1.4272755 2.6291053
-0.19086505 1.4442787 2.646903
2.0294044 1.4348974 2.6311502
2.0226974 1.476588 2.6188626
2.0250475 1.5167645 2.6217487
2.0302405 1.5906689 2.6311188
2.0311408 1.6359694 2.6182456
-0.27574903 1.6871084 2.6265533
2.0220258 1.6716758 2.6125324
-0.31149265 1.7478975 2.6040955
-0.277742 1.722886 2.623642
2.0281096 1.7253008 2.6130853
-0.30054131 1.7967117 2.6196125
-0.2781485 1.7712792 2.6274683
2.0140305 1.7608531 2.6081667
-0.30654627 1.8327141 2.6133053
-0.27544445 1.8231573 2.634887
-0.30661765 1.8697119 2.6081405
-0.27877441 1.8721088 2.6372039
2.0961916 1.8703372 2.6270454
2.108165 1.8823322 2.6125047
-0.31048578 1.9250401 2.6075563
-0.28775242 1.9226508 2.6353695
2.1159134 1.9147882 2.6130524
-0.31545559 1.9715632 2.6097424
-0.2891686 1.9705088 2.6384437
-0.31691349 2.0267498 2.6114752
-0.28883055 2.0250101 2.6409981
-0.32109576 2.0786309 2.6110201
-0.29400077 2.079457 2.635118
-0.28622854 2.1075251 2.6363828
2.2933631 2.3938742 2.6348369
2.3345523 2.3979554 2.6365242
2.3634927 2.3986683 2.6170688
2.4176061 2.3959534 2.6373584
2.4640155 2.3944855 2.6333642
2.575752 2.3985829 2.633189
2.6101735 2.393882 2.6237092
1.6239938 2.4177656 2.6400647
1.6792061 2.4235854 2.6282554
1.734053 2.4195549 2.6214345
1.7775877 2.4219344 2.6202064
1.8220763 2.4251029 2.6191728
1.8724188 2.4308648 2.6289859
1.920601 2.4223177 2.6247532
1.976086 2.4268811 2.6255729
2.0302491 2.4173164 2.6216316
2.0781851 2.413455 2.6101522
2.1250982 2.4220257 2.6265819
2.1736546 2.4165862 2.6298509
2.2274065 2.4109676 2.62535
2.2731893 2.4076755 2.6185939
2.3201282 2.4019241 2.6064672
2.3901479 2.4065466 2.6120677
2.4408038 2.4002342 2.6120932
2.5238073 2.4056215 2.6266344
2.6724756 2.4052751 2.6244109
2.7821481 2.4219687 2.6170824
2.8303196 2.4072502 2.6388676
-0.1666238 -0.47429097 2.6708288
-0.12996732 -0.49077505 2.6947951
1.5999337 -0.48854783 2.6718094
1.6243778 -0.4750011 2.6686418
1.676224 -0.47209746 2.6691418
1.7300773 -0.46535444 2.6698484
1.7773349 -0.46313092 2.6718326
1.806566 -0.47236103 2.6699598
-0.20140736 -0.42204919 2.6548109
-0.17318776 -0.42438745 2.6773274
1.7318196 -0.4285028 2.6761401
1.7623647 -0.42142883 2.66064
-0.20114499 -0.37678772 2.655725
-0.1782466 -0.37828138 2.6798933
1.7431707 -0.37020767 2.6904631
1.766394 -0.37364596 2.6699476
-0.20515813 -0.32109207 2.6571724
-0.17683202 -0.32807693 2.6805422
1.7492118 -0.32223716 2.6894798
1.7742325 -0.32144052 2.668124
1.804002 -0.30687383 2.6549826
-0.20075369 -0.27406922 2.658664
-0.1778717 -0.27580512 2.6823339
1.7684735 -0.27943432 2.6819036
-0.20479877 -0.22073436 2.6590824
-0.17656744 -0.22478132 2.6833258
1.7712539 -0.24435474 2.6896503
-0.2067707 -0.17178415 2.6593604
-0.17770547 -0.17396349 2.6852169
-0.30282867 -0.14023647 2.6597757
-0.20672496 -0.12085555 2.6606011
-0.18053257 -0.12393516 2.6824763
-0.27642509 -0.050804153 2.6550031
-0.20985974 -0.072753571 2.6664047
-0.17914985 -0.082186654 2.6886239
-0.26375252 -0.025385443 2.6564617
-0.20773125 0.13432424 2.6728008
-0.17452656 0.12524725 2.6777854
-0.13850923 0.11604674 2.697962
1.6279057 0.18725497 2.685457
1.6738362 0.18759215 2.6698582
1.7008023 0.18740737 2.6531639
1.6341088 0.21303198 2.6790729
1.666844 0.22982319 2.6560671
2.0090432 0.24366413 2.6840873
1.9758053 0.25650153 2.6676137
0.7300688 0.31722137 2.6929793
0.75936133 0.33662343 2.6637256
0.74015528 0.37404576 2.6657326
0.77326107 0.37987298 2.6631978
0.77622491 0.42513788 2.6739166
0.77876359 0.45079792 2.6798291
-0.18352993 0.58628279 2.6540349
-0.061372411 0.57556486 2.6696734
-0.044078756 0.58132738 2.6656339
2.0337052 0.55011076 2.6502643
-0.17916152 0.62504351 2.6582341
-0.1731579 0.67639309 2.6663156
-0.169909 0.72374755 2.6736305
-0.14126143 0.72313005 2.6894598
-0.17264807 0.77354968 2.6708472
-0.12512843 0.76768506 2.6884151
-0.1702386 0.82515711 2.6741505
-0.10228418 0.8188172 2.6849298
-0.17064898 0.8715691 2.6745665
-0.14334147 0.89384758 2.696564
-0.089227423 0.85986191 2.6812842
-0.1750395 0.92310649 2.6708188
-0.14371324 0.91623318 2.6989536
-0.076294631 0.90302306 2.6830053
2.0311811 0.93642968 2.650763
-0.17208606 0.97220582 2.6749737
-0.14426385 0.96673751 2.6980445
-0.17363861 1.0266876 2.6726964
-0.14508072 1.0262285 2.6995714
-0.17608903 1.0763303 2.6704462
-0.14560764 1.0977035 2.6908522
-0.17838879 1.1249315 2.663765
-0.13935645 1.1154549 2.697319
-0.1760911 1.1773345 2.6731689
-0.14723222 1.1921678 2.6963544
-0.1737828 1.2206933 2.6717041
-0.14775215 1.223897 2.6971359
-0.17349657 1.2736573 2.6734753
-0.14840889 1.2707778 2.6954937
-0.17754652 1.323037 2.6731467
-0.20355512 1.3668288 2.6573963
-0.17729796 1.3728967 2.6813669
-0.17280509 1.4213083 2.6836803
2.0363328 1.4924107 2.6526036
-0.22484629 1.6901089 2.6749337
-0.25700796 1.7382275 2.652606
-0.22644173 1.7211915 2.6707578
-0.25792855 1.7589923 2.6547039
-0.22609121 1.7772489 2.6812961
-0.23458183 1.8271313 2.6780012
-0.26289934 1.8818045 2.6582203
-0.23446967 1.876758 2.6825397
-0.26219758 1.9220556 2.661072
-0.22922413 1.9248585 2.6920033
-0.25951925 1.9717021 2.6659744
-0.23098817 1.977617 2.6909571
-0.26049048 2.0241017 2.6715732
-0.24004956 2.020349 2.688875
-0.26355046 2.0712972 2.6654701
-0.23825134 2.0760808 2.6884027
-0.26538208 2.1163104 2.6639826
-0.23884529 2.1234026 2.6898403
-0.23015921 2.1543067 2.6998861
2.3446832 2.3895016 2.686367
2.3743804 2.3906734 2.6671658
2.4276485 2.3866487 2.6701198
2.4759815 2.3868365 2.6597896
2.5159359 2.3872652 2.6812935
2.5693741 2.3912594 2.674624
2.6972895 2.3978813 2.6687045
1.5343707 2.4143355 2.6818185
1.5764354 2.4149384 2.6743021
1.6139828 2.4216025 2.6774702
1.6759831 2.4253821 2.6789708
1.7321353 2.4193604 2.6732991
1.7781495 2.4246602 2.6756263
1.8210435 2.4206343 2.6756973
1.8659157 2.4232645 2.6740477
1.9212551 2.4270363 2.6676092
1.9742296 2.4208331 2.6722383
2.0187056 2.4137681 2.6794097
2.0745826 2.4182677 2.6765306
2.1226959 2.4171569 2.6767213
2.171869 2.4119604 2.6806686
2.216584 2.4059396 2.6745601
2.2758923 2.4052315 2.6752958
2.3296716 2.4031534 2.6975815
2.5198987 2.4012721 2.6545203
2.639976 2.4015064 2.6670861
2.6617532 2.4034612 2.6545036
2.8151615 2.4113767 2.6586101
-0.11774474 -0.472381 2.7165854
-0.08351291 -0.48943868 2.729512
1.6737311 -0.46297228 2.7214596
1.7076957 -0.45689732 2.7158461
-0.15268728 -0.42243898 2.7009096
-0.12246662 -0.42739725 2.7252078
1.6937526 -0.42948118 2.7431753
1.7153609 -0.42608932 2.7203929
-0.15258208 -0.37018299 2.7040312
-0.12769748 -0.37350044 2.7291679
1.6929817 -0.39224434 2.7461109
1.7210294 -0.37508038 2.7224925
-0.15253 -0.32460743 2.7069085
-0.12635416 -0.32246578 2.7299676
1.7311425 -0.32587695 2.7177057
-0.15475328 -0.2797845 2.7034841
-0.13029046 -0.2788702 2.7294827
1.7357485 -0.27182257 2.7230892
1.8430276 -0.29856074 2.7137132
-0.15200035 -0.22643909 2.7038817
-0.12981345 -0.22579399 2.728545
1.7393461 -0.22112481 2.72715
1.7575537 -0.22612286 2.7037692
-0.15472734 -0.17354488 2.7088819
-0.12746029 -0.17656815 2.7367363
-0.15745573 -0.1200717 2.7066739
-0.12983444 -0.12270777 2.7334185
-0.16536634 -0.074085906 2.7160881
-0.12988934 -0.086184181 2.7354944
-0.15669474 0.13841933 2.7141302
-0.12947513 0.13068847 2.7340157
1.5734639 0.18844959 2.7317505
1.6034561 0.18774059 2.7055953
1.5498499 0.20265363 2.7367387
1.5779561 0.21012481 2.7278512
1.6129106 0.21723936 2.7095482
2.0417156 0.26306638 2.726563
0.73538667 0.33949402 2.7109451
0.7308895 0.37947002 2.725584
0.73678678 0.41874582 2.7218676
0.75055897 0.43375123 2.7061722
-0.10236521 0.46920973 2.7426791
-0.076448247 0.57219684 2.7492933
-0.049419276 0.59377855 2.7228589
-0.062944449 0.61018914 2.7351561
-0.040817965 0.61843091 2.7313454
-0.13588558 0.78262669 2.7036765
-0.12732527 0.8286103 2.7116189
-0.12391809 0.87168437 2.7171695
-0.090589955 0.88642204 2.7192719
-0.12133039 0.92424154 2.7233286
-0.088085741 0.92563814 2.7390587
-0.11964354 0.97528952 2.7227738
-0.081567101 0.96190876 2.7379558
-0.12039243 1.0239227 2.7258646
-0.078849047 1.0290908 2.748668
-0.12733345 1.0743529 2.7212801
-0.023988022 1.0991366 2.7346287
-0.1181955 1.1243567 2.7154903
-0.093199067 1.1261111 2.7432222
-0.12588628 1.1717069 2.7125986
-0.093951285 1.1909088 2.7489185
-0.12127546 1.2252971 2.7245398
-0.094077468 1.2273774 2.7417614
-0.12191771 1.2734846 2.7250605
-0.094639689 1.2697861 2.7468443
-0.15004298 1.3406063 2.7058561
-0.12775356 1.3242712 2.7281165
-0.15072872 1.3748221 2.7080333
-0.12354489 1.3753655 2.732152
-0.09573698 1.3767614 2.746841
-0.15130442 1.4082035 2.7079217
-0.12565516 1.4203832 2.7241607
-0.096172303 1.4257622 2.7435706
-0.13113353 1.454196 2.7153728
-0.17209813 1.6855705 2.7251275
-0.20133808 1.7213061 2.7046604
-0.17334747 1.7271626 2.7305439
-0.20264453 1.7619715 2.7076559
-0.17445388 1.7755024 2.7300279
-0.20437217 1.8290548 2.7039883
-0.18291505 1.8227208 2.725831
-0.20647413 1.8854175 2.7116921
-0.17975402 1.8768491 2.7357495
-0.20808677 1.930408 2.7161078
-0.18068986 1.9264151 2.7355213
-0.21389896 1.9653505 2.7098706
-0.1860774 1.9797207 2.7353971
-0.2169259 2.0276146 2.70907
-0.18422826 2.0270238 2.7342155
-0.21762978 2.0770054 2.7109222
-0.18582398 2.0755224 2.7388849
-0.21972667 2.1333761 2.7139633
-0.19185972 2.1233675 2.7378519
-0.20563228 2.1649477 2.7249253
-0.18567482 2.1738176 2.7423663
1.3925152 2.3958306 2.7232149
2.2321935 2.3992648 2.7110293
2.3309355 2.3951397 2.7309351
2.3852403 2.3920918 2.7358935
2.4277706 2.3864605 2.711153
2.4642799 2.374378 2.7203732
2.5410151 2.3822939 2.7041075
2.5705194 2.3810556 2.731401
2.6172872 2.387929 2.7096505
2.6796322 2.3975747 2.7343094
1.3801044 2.4044244 2.7407374
1.4267907 2.4098015 2.7271926
1.4773761 2.4167721 2.7229209
1.5211313 2.4218721 2.728442
1.5729187 2.4105911 2.7197094
1.6325346 2.4123676 2.7274354
1.6732959 2.4211574 2.7256298
1.7216641 2.4186451 2.722723
1.7752242 2.422642 2.7264061
1.8203872 2.4166095 2.7332611
1.8774935 2.4226499 2.7305787
1.926109 2.4275904 2.71979
1.9725523 2.4223166 2.7375872
2.0287654 2.4219491 2.7312813
2.0799248 2.412504 2.727782
2.129436 2.4073267 2.7246168
2.1848481 2.4081299 2.7276237
2.2166889 2.4028871 2.7281594
2.2783582 2.4088366 2.7280123
2.3144121 2.4070661 2.7155077
2.6650422 2.4044137 2.7059305
2.7483716 2.4028625 2.7462587
2.7536266 2.4100707 2.702858
-0.067626707 -0.46741244 2.7672579
-0.03224862 -0.48813009 2.7761869
0.010167482 -0.49858826 2.796509
-0.10245814 -0.41000676 2.7520053
-0.068143167 -0.42392468 2.7811196
1.6838059 -0.41307467 2.7680416
-0.10253331 -0.37722349 2.7570732
-0.075447187 -0.37886235 2.7779496
1.6833069 -0.37208965 2.7726884
1.7002473 -0.35672852 2.761699
-0.10246106 -0.32405457 2.7594943
-0.07652089 -0.32643571 2.7803526
1.7169933 -0.33102453 2.7601085
-0.10660378 -0.26608971 2.7566633
-0.076428927 -0.27279434 2.7805965
1.7271602 -0.26699498 2.7506828
-0.10556345 -0.22771569 2.7605424
-0.07645496 -0.22622371 2.7841132
1.7322582 -0.22303085 2.7617874
-0.10212384 -0.17793585 2.758918
-0.079030976 -0.17947386 2.7829742
1.7862978 -0.1959223 2.7869496
-0.1063625 -0.12724139 2.7566664
-0.086796373 -0.12993264 2.7771583
-0.11771645 -0.074781053 2.7662897
-0.10751335 0.13471159 2.7634571
-0.078226425 0.12914486 2.7828312
1.5297384 0.19017932 2.7814562
1.5273315 0.21175417 2.7758751
1.5818585 0.21954912 2.760463
-0.063739724 0.44326064 2.7916582
0.72541428 0.43601614 2.7710264
-0.068298541 0.46950197 2.7776804
0.7396428 0.4500111 2.7693918
-0.089867137 0.54627568 2.7561059
-0.085632078 0.58324581 2.7581434
-0.075159729 0.62496442 2.765368
-0.023636183 0.63641697 2.7904193
-0.055328775 0.67165428 2.7904654
-0.037348583 0.66658849 2.799089
-0.050927199 0.71388328 2.7897708
-0.037447147 0.716079 2.7985594
-0.078712761 0.97967875 2.7568607
-0.07495866 1.021659 2.7611613
-0.10685053 1.0761011 2.7521918
-0.072184972 1.0766684 2.7694604
-0.038315196 1.0884366 2.7850146
-0.066124201 1.1227089 2.7735043
-0.038551591 1.1162133 2.796392
-0.070757344 1.1731861 2.7780337
-0.010483458 1.166118 2.7844114
-0.068129212 1.2226933 2.7713559
0.010575449 1.2239859 2.7713103
-0.070559166 1.2769439 2.7672384
-0.081657641 1.3273764 2.7711084
0.046661694 1.3340676 2.7972946
-0.073082909 1.3815727 2.7723434
-0.089321658 1.415885 2.7576098
-0.12092142 1.6871792 2.7731495
-0.12364969 1.7255822 2.772053
-0.13133337 1.7750803 2.7720165
-0.1618982 1.8307506 2.7540956
-0.13243385 1.8254507 2.7778633
-0.16278198 1.8710405 2.7533178
-0.13338412 1.876461 2.777771
-0.13699977 1.9179723 2.7712667
-0.15775931 1.9712825 2.7612944
-0.12817043 1.9821317 2.7930174
-0.15609056 2.0084026 2.7625101
-0.13132966 2.0193157 2.7887146
-0.15628318 2.0642877 2.7677312
-0.1377299 2.0710096 2.7928352
-0.16176805 2.1240745 2.7706699
-0.13473018 2.1252861 2.7886894
-0.16296843 2.1715479 2.7710428
-0.14020151 2.1883063 2.7935071
-0.16359144 2.2037387 2.7660928
-0.12501924 2.2273693 2.7974839
1.2545452 2.3973343 2.7833536
1.3695196 2.3989313 2.7754555
2.192944 2.3992722 2.7857659
2.2992442 2.3926916 2.7982385
2.3287616 2.3933454 2.7786369
2.3811796 2.38799 2.7813768
2.4302435 2.3786535 2.7790003
2.4581089 2.3774211 2.7562292
2.5955975 2.3753359 2.7538366
2.7814088 2.3922601 2.781584
1.2410327 2.4047844 2.7987864
1.296273 2.4103777 2.7845409
1.330133 2.4244092 2.7898941
1.3602325 2.4148226 2.7764418
1.4171704 2.420547 2.7849123
1.4755005 2.4204888 2.7776015
1.5294222 2.4163017 2.7786446
1.5622357 2.4152219 2.7742519
1.6206573 2.4165599 2.7803397
1.6715204 2.4162848 2.7737968
1.7204657 2.4160156 2.7719312
1.7781658 2.4189165 2.7752826
1.8197149 2.4216652 2.7844276
1.8707339 2.4200792 2.7812088
1.9272506 2.4186983 2.7707109
1.975975 2.4146097 2.778692
2.0203161 2.4138722 2.7722781
2.0797651 2.4152427 2.7786357
2.12795 2.4084542 2.7820523
2.1744823 2.4084117 2.7666435
2.2328086 2.4115515 2.7804933
2.272846 2.4040654 2.7718248
2.3075695 2.4006448 2.7575788
2.3680017 2.4038756 2.7702253
2.7888076 2.4001362 2.7643499
-0.019774469 -0.47246978 2.8162105
0.015401243 -0.47874579 2.8316522
0.05840423 -0.49415311 2.849828
1.7082824 -0.47499323 2.815068
-0.023647485 -0.42749992 2.8243997
0.0034811751 -0.43792906 2.8475013
1.6939577 -0.41069055 2.8418634
-0.050409824 -0.37004858 2.8052149
-0.023635654 -0.37297881 2.8274996
-0.050313998 -0.32906938 2.8031216
-0.023615889 -0.32533222 2.8298824
-0.050280429 -0.27514118 2.8049994
-0.0248501 -0.27969667 2.8325617
-0.063873537 -0.22871709 2.8141928
-0.032622989 -0.21641774 2.8306494
-0.054723766 -0.1744308 2.8091936
-0.030348837 -0.18927118 2.8304172
-0.050199799 0.12736954 2.8071561
-0.023613214 0.12873836 2.8377237
1.4963335 0.19242978 2.8350818
1.5013821 0.19119732 2.811162
1.4992014 0.20760596 2.839746
1.5069375 0.21401885 2.8203793
2.1172624 0.28989947 2.8416545
-0.057504594 0.43337104 2.8161643
-0.026356721 0.43955383 2.8209083
0.003479108 0.4377839 2.845238
0.065124497 0.43153858 2.8493538
2.1670852 0.43165976 2.8467805
-0.022294886 0.47244263 2.819387
0.0034810978 0.47228631 2.8434148
-0.016946601 0.50369048 2.8237147
0.0034781357 0.50611311 2.8373346
0.044290274 0.59210491 2.8118138
0.058030233 0.58661729 2.8189135
-0.01019837 0.64279729 2.8184505
0.0034932119 0.64590478 2.832087
2.1595938 0.62938422 2.838572
-0.023840513 0.67581117 2.8140397
0.017245276 0.67847842 2.8319471
-0.018835571 0.72774357 2.823199
0.0062946961 0.72579449 2.8422494
0.059084862 0.73620123 2.8486331
-0.024031702 0.77452648 2.8186543
0.0035329852 0.77866387 2.8444328
2.1675067 0.79343444 2.8486853
-0.014971338 0.82560444 2.8292367
0.0035390654 0.81492209 2.8431222
-0.010391561 0.86381853 2.8338721
0.0035569957 0.87525284 2.8468604
0.0035702554 0.92081988 2.8489623
-0.031700097 1.1432298 2.8051839
-0.052949876 1.1733145 2.8012567
-0.028809024 1.1790063 2.8095806
-0.026719019 1.2279632 2.8214524
2.1610193 1.2406093 2.8460002
-0.053471401 1.2705284 2.8024607
-0.025114626 1.2768658 2.8288591
0.0072575482 1.2726568 2.8348923
-0.053923417 1.3316008 2.8095503
-0.027318511 1.323373 2.830384
0.023016782 1.3207909 2.8402178
-0.054028653 1.3630418 2.8051107
-0.027008168 1.3745141 2.8309143
0.047596507 1.3754394 2.8483434
-0.025595795 1.4291116 2.8351922
-0.025853958 1.4878669 2.8471794
-0.025991244 1.5403378 2.8448625
-0.026005862 1.5635072 2.837461
-0.071332201 1.6844991 2.8205249
-0.041601386 1.6813833 2.8478754
-0.071859732 1.7268276 2.8268778
-0.10242645 1.7841587 2.8079095
-0.072299883 1.7758491 2.8268533
-0.10287391 1.8224387 2.8051646
-0.072878391 1.8252169 2.831012
-0.042327549 1.8184854 2.8473136
-0.10359562 1.8736278 2.805289
-0.076248944 1.8629494 2.8272696
-0.10972095 1.9324211 2.8095741
-0.081804439 1.9263158 2.8375802
-0.11038087 1.9703063 2.8127038
-0.083995208 1.9767954 2.839215
-0.1112038 2.0262506 2.8092091
-0.085767619 2.0278432 2.8430927
-0.11461953 2.0723157 2.8107815
-0.091607898 2.0804925 2.8381033
-0.11283184 2.1149559 2.8168457
-0.092409417 2.1308484 2.8438144
-0.11503284 2.1766708 2.8195353
-0.08744619 2.1757371 2.8357232
-0.12146989 2.2286062 2.8145716
-0.093856007 2.2294855 2.8477464
-0.086155936 2.2659922 2.8472474
1.0417967 2.3871529 2.8447776
1.2473367 2.3994689 2.8260055
1.5606573 2.3981547 2.8031073
2.2736604 2.3961668 2.8224206
2.3148396 2.3894744 2.8312886
2.3826385 2.3894267 2.8339391
2.4181643 2.3857455 2.8271728
2.7718992 2.3914165 2.8150487
2.8393979 2.3848879 2.8053277
1.1300566 2.4094729 2.8455548
1.1787546 2.4065201 2.8335359
1.2166849 2.4082212 2.8249891
1.2804782 2.4128029 2.8190365
1.3274562 2.417892 2.8196442
1.3749074 2.4216683 2.8432782
1.4312233 2.413487 2.8227379
1.4710091 2.4118195 2.8127911
1.5200998 2.4136138 2.8255026
1.5781069 2.4096787 2.8251648
1.6228143 2.4166241 2.8269241
1.6773989 2.4151301 2.8206677
1.7262255 2.4189827 2.8321183
1.7780213 2.4191251 2.8325856
1.8275975 2.4156158 2.8280532
1.8723581 2.4160521 2.8211691
1.9263775 2.4129605 2.8286202
1.978339 2.4054661 2.8184941
2.0303414 2.4135432 2.8226452
2.0686626 2.4110963 2.8290324
2.1275549 2.4104345 2.8330925
2.1789248 2.4053695 2.8221047
2.2316842 2.4118152 2.8304126
2.2555203 2.4064345 2.8043964
2.3452439 2.4007607 2.8309646
2.3658011 2.4018652 2.8184547
0.032803629 -0.46661174 2.8633199
0.069465294 -0.48212039 2.8822284
0.1291125 -0.48824143 2.8962641
1.6758587 -0.46466747 2.8790553
0.027989011 -0.42237595 2.872354
1.6908177 -0.44054636 2.8772495
1.7062211 -0.42899817 2.8607545
0.020501811 -0.37575418 2.8690381
0.024241809 -0.32372528 2.8762906
1.9702907 -0.30861813 2.8699846
-0.010214601 -0.26025522 2.8642533
0.021265557 -0.28312001 2.87641
1.9494525 -0.29998598 2.8717177
-0.023994477 -0.2473806 2.8745606
-0.017005697 0.10931405 2.8618469
0.020039823 0.12365673 2.8774669
1.5062509 0.22345912 2.8522677
1.8559369 0.29867715 2.8888242
1.8815569 0.32000053 2.8946512
1.9155372 0.32790348 2.8924236
2.1708617 0.32774881 2.878968
2.1755991 0.37761787 2.8803635
0.031136876 0.44158998 2.8698509
0.072419412 0.44156471 2.8691902
2.1809795 0.42842722 2.8871915
0.031166324 0.47658101 2.8690927
0.059334867 0.48122919 2.8969066
2.1850755 0.47157532 2.8979983
0.03116264 0.51100385 2.8646286
0.066262037 0.50870723 2.8912756
2.1848438 0.52933103 2.8895264
2.1843023 0.5787943 2.8810313
0.06409841 0.61945206 2.884506
2.1796999 0.61284578 2.8854108
0.017413884 0.69431889 2.8551283
0.080242097 0.6693874 2.870909
0.031466424 0.72736299 2.8629324
2.1876833 0.71745557 2.8932362
-0.052653871 0.75915635 2.8806877
0.030209735 0.77311075 2.8670185
0.065820202 0.78068316 2.8946724
2.1937089 0.76960325 2.890599
0.030567179 0.82606786 2.8689563
0.060237184 0.82138115 2.8913252
0.10270128 0.82126039 2.8901119
0.030421307 0.87715423 2.86763
0.060410473 0.85215628 2.8941426
2.189759 0.89180744 2.8901241
0.030188363 0.92391652 2.8702409
2.1814997 0.92191625 2.8704529
0.033692893 0.97305447 2.8764949
0.043051776 1.0176023 2.8860731
0.061202254 1.0216713 2.8973756
2.1842673 1.0316507 2.8782787
0.046909507 1.0525666 2.8963935
2.1908851 1.1368659 2.8907509
2.1853728 1.1595788 2.8749287
2.1919854 1.2411507 2.8930845
-0.010910016 1.3448261 2.8557074
0.011038186 1.3335207 2.8676353
2.1928093 1.3383294 2.8954051
-0.0109997 1.3999666 2.863759
0.018496854 1.3757559 2.8746121
2.1960292 1.3576998 2.8927596
-0.010992777 1.4211125 2.853981
0.021975815 1.4235078 2.8840783
0.062965617 1.4362407 2.8663735
2.1830883 1.4476647 2.873714
-0.01477289 1.46878 2.8616154
0.013764032 1.4742199 2.8895578
-0.016077347 1.5144008 2.8581371
0.011349438 1.5243711 2.891139
0.093860209 1.5313253 2.8776259
-0.011242774 1.5659896 2.8753746
0.0038310958 1.5740403 2.890136
2.2066948 1.5639433 2.8999162
-0.01737825 1.6255951 2.8758731
0.0038520452 1.6211684 2.8913741
2.1820722 1.6476159 2.8597395
-0.018994948 1.677668 2.8742073
0.0038772461 1.6706182 2.8950512
-0.028901637 1.727662 2.8700995
0.0039064595 1.7302039 2.8977683
2.1853294 1.7261412 2.8672037
-0.026887029 1.772693 2.8702011
-0.027121104 1.8239703 2.8772233
-0.058405858 1.8863554 2.856832
-0.030468334 1.8764416 2.8800933
-0.063814156 1.9138389 2.8559988
-0.030159278 1.9273816 2.8819294
-0.059052449 1.9623586 2.8595457
-0.03569841 1.9789534 2.8840005
-0.064914227 2.0208988 2.8650665
-0.036042653 2.029633 2.8936739
-0.066367283 2.0683272 2.8624849
-0.044282559 2.0795579 2.8846598
-0.068504766 2.1217556 2.8633862
-0.033767369 2.12165 2.8900268
-0.068903856 2.1667423 2.8607709
-0.040866133 2.177063 2.8905957
-0.066975676 2.2271836 2.8715856
-0.045400694 2.239269 2.8928142
-0.067234114 2.2635996 2.8655632
-0.03318242 2.2763028 2.8927093
-0.045820639 2.3015759 2.8927591
1.0337331 2.3911738 2.8882549
1.1062764 2.3971875 2.8732483
1.2003025 2.3928361 2.8713675
1.4531937 2.3978243 2.8528075
2.2440677 2.3966906 2.8933315
2.282536 2.3962741 2.8662887
2.3235557 2.3889523 2.8747706
2.3680921 2.3846416 2.8694661
2.4111059 2.368598 2.877079
1.0240357 2.4063764 2.8757746
1.0796449 2.4050212 2.8744366
1.126177 2.4080617 2.8691893
1.1792165 2.4093409 2.8770132
1.2368183 2.41278 2.8731461
1.2784209 2.4075694 2.8625453
1.3290527 2.4191914 2.8587751
1.3671259 2.4216106 2.88499
1.4265323 2.4222031 2.8802526
1.489934 2.4285729 2.8812666
1.5204334 2.4130306 2.8744113
1.584114 2.4191809 2.8771689
1.6188847 2.4090681 2.8722181
1.6580505 2.4130311 2.8586125
1.7386261 2.4203002 2.884311
1.7688813 2.4132805 2.8713539
1.8168072 2.408298 2.8732157
1.8796223 2.4094183 2.8725314
1.9338012 2.4105141 2.8764279
1.97255 2.4074333 2.8754892
2.0309014 2.4177465 2.8758063
2.079494 2.4109471 2.8806291
2.1248767 2.4098756 2.8816261
2.1797895 2.4082615 2.8751421
2.223969 2.4049735 2.8723888
2.2695727 2.4025064 2.8617954
0.078345552 -0.4648529 2.9139984
0.11487503 -0.47175026 2.9267585
0.072457902 -0.42577747 2.9192851
0.10263795 -0.42440486 2.9450495
0.04530995 -0.37586349 2.9027128
0.075096525 -0.37562865 2.9224925
0.10257688 -0.39586571 2.9458642
2.1548407 -0.36053208 2.9029133
0.072336264 -0.32710263 2.9230301
2.0299547 -0.30736387 2.9252243
2.1477525 -0.34563082 2.9268687
2.1702554 -0.32530722 2.92715
0.045215197 -0.27782586 2.9036841
0.073634639 -0.28714347 2.9270191
0.10242165 -0.29644224 2.9488971
1.9661083 -0.27213338 2.9199803
2.0403261 -0.27634123 2.9426472
2.1747961 -0.28076738 2.9329233
1.9701148 -0.24120118 2.9389026
2.0420024 -0.23583299 2.9478045
2.1718049 -0.23100649 2.9362688
2.147162 -0.19718824 2.9368255
2.17994 -0.18135738 2.9339571
2.1714506 -0.12952745 2.9366233
2.1482875 -0.065351345 2.9428978
2.1691046 -0.083985209 2.9347246
2.1468887 -0.032330524 2.9413567
2.1717253 -0.032313913 2.9270446
2.1682229 0.017147919 2.938349
2.1485252 0.083102494 2.9426889
2.1730258 0.068731107 2.9321675
0.045131959 0.12485026 2.9048996
0.073542498 0.12593237 2.929925
2.1455779 0.1324053 2.9371643
2.1749804 0.12803875 2.9314587
1.3884071 0.1959143 2.9358842
1.4107183 0.19588748 2.9276767
2.1441505 0.16524017 2.933876
2.1702778 0.1710735 2.926389
1.3880193 0.21090612 2.9343107
1.8466666 0.29971021 2.9065855
1.8625113 0.32473409 2.9132376
2.1340847 0.32961437 2.9248769
2.1563513 0.32926038 2.9071722
2.1376874 0.37618384 2.9334798
2.1589465 0.38346285 2.9182725
0.03860506 0.4348411 2.9185019
0.11691031 0.43912795 2.9459243
2.1296237 0.43068826 2.9406672
2.1637051 0.42785779 2.9160564
0.07785745 0.47566706 2.91834
0.10540596 0.46950597 2.9380574
2.1357419 0.48171291 2.9429076
2.1703675 0.48363727 2.9181397
0.084522106 0.52429491 2.9184277
0.10633329 0.52783847 2.9376082
2.1492205 0.51613361 2.940686
2.1684849 0.52931923 2.9216375
2.1694112 0.5725162 2.9273019
0.08115454 0.6346845 2.9100099
0.11310431 0.6253581 2.9166191
2.1671245 0.62003201 2.9257579
0.088677652 0.66649503 2.9214535
0.10628293 0.67870891 2.9356947
2.147707 0.67052907 2.9467738
2.1749654 0.66864973 2.9184604
0.1153013 0.72154969 2.9411223
2.1689677 0.72162414 2.9291904
0.13259961 0.77385402 2.9347894
2.1754756 0.77499354 2.9315631
0.082157679 0.82817221 2.9147422
0.10406072 0.84648055 2.9256022
2.1784258 0.82660878 2.924206
0.077146485 0.87645924 2.9183316
0.10835174 0.87744969 2.9400103
2.1789787 0.87781018 2.9242387
0.046590246 0.94511807 2.9001784
0.074164502 0.92344904 2.9183199
0.11556118 0.92154276 2.9331982
2.1727204 0.92146409 2.9323418
0.076014526 0.97629231 2.923959
0.10579113 0.98456085 2.9481204
2.181855 0.97051567 2.9275942
0.032492705 1.038128 2.9000454
0.080323085 1.0229349 2.9198954
0.10587122 1.0072068 2.9453213
2.1880143 1.0242902 2.931659
0.047407825 1.0783268 2.9235106
0.076700181 1.0748308 2.9280057
2.1837811 1.0787848 2.9303017
0.080371343 1.1251377 2.9335928
0.10695682 1.1207914 2.9499938
2.1781948 1.1192456 2.9259651
0.08493185 1.1810097 2.9374402
0.10723495 1.1532866 2.9497986
2.1815848 1.1768991 2.932148
0.092613794 1.2145777 2.9387951
2.1850452 1.2210602 2.9269717
2.1895957 1.2720011 2.9345329
2.1934121 1.3178478 2.9234173
2.1895916 1.3931072 2.946079
2.2050068 1.374122 2.938998
0.033704545 1.4361687 2.9018071
2.1914387 1.4207597 2.9377985
2.2049909 1.4269394 2.9174678
0.043072753 1.4825112 2.916177
0.064177237 1.4789811 2.9160659
2.2087076 1.4764515 2.9422369
0.037263371 1.5269674 2.9184463
0.070791863 1.5247493 2.9276454
2.2102566 1.5290345 2.9352453
0.036347605 1.5746449 2.9209359
0.065374777 1.5758312 2.9443979
2.2076502 1.5611601 2.9300697
0.026867718 1.6237987 2.9127386
0.053975027 1.6257186 2.9329276
0.11087733 1.6054599 2.9121439
2.2140381 1.6256248 2.9346559
0.027021209 1.6716971 2.9135132
0.050507516 1.6849716 2.9364445
0.12779126 1.6726593 2.9300411
2.2144852 1.6691604 2.9319141
0.023873936 1.7208086 2.9147296
0.050725512 1.7234989 2.9357095
2.210793 1.7239853 2.9380047
0.017336234 1.7730998 2.9126179
0.050995462 1.7562078 2.9409931
0.16002662 1.7641193 2.9181008
2.208214 1.7677293 2.9283295
0.019747769 1.8257285 2.9232275
0.051432662 1.8187826 2.9446263
-0.011769574 1.874656 2.9029202
0.019930614 1.8763027 2.9325733
0.19266479 1.8559345 2.9013271
-0.011844506 1.9180498 2.9052844
0.016868265 1.9277322 2.9327874
2.1472969 1.9407066 2.9482675
2.1673391 1.923632 2.9492066
-0.011939569 1.9731545 2.9074855
0.010492148 1.9742941 2.9316397
2.1312547 1.9706854 2.9472184
2.1614943 1.9788946 2.9372718
-0.012021065 2.0185485 2.9097962
0.00947682 2.0245168 2.9343922
2.1361897 2.0212858 2.9426501
2.1647525 2.0217454 2.9337935
-0.020207208 2.0743163 2.909307
0.012274196 2.0729182 2.9393659
2.1321962 2.0541649 2.9471178
-0.012206207 2.1144838 2.9173772
0.0041605174 2.1452618 2.9437625
-0.01638937 2.170464 2.9137301
0.0097268373 2.1837895 2.942421
-0.023453191 2.2291884 2.9171193
0.00419035 2.2204432 2.932343
-0.012503778 2.2737918 2.9215202
0.0042294501 2.2757459 2.940187
-0.012577996 2.3205512 2.9168882
0.012703416 2.3205507 2.93294
0.58282769 2.3838236 2.9492817
0.62634897 2.3851919 2.9436023
0.6994046 2.398742 2.9472532
0.72830451 2.3796346 2.916738
0.76992571 2.3842564 2.9274206
1.0403173 2.388824 2.9189832
1.0602167 2.3941212 2.9200599
2.1045833 2.3902924 2.923907
2.1764572 2.3971829 2.9389663
2.2168097 2.398757 2.9153452
2.2813559 2.3959377 2.9168978
2.3365996 2.3861549 2.9286957
2.3669744 2.3835902 2.9113231
1.0707831 2.4068141 2.9158592
1.1219888 2.4134376 2.9265974
1.1759919 2.4117229 2.9282889
1.2275343 2.4114423 2.9246652
1.2756763 2.4180346 2.9160731
1.3294522 2.4256215 2.9252603
1.3785207 2.419174 2.9254324
1.420694 2.4203849 2.9293389
1.4779592 2.4191043 2.9286733
1.5223789 2.4150896 2.9270446
1.5745721 2.4158468 2.9245489
1.625384 2.4139817 2.9180002
1.6724353 2.4195957 2.9244273
1.7225186 2.4234252 2.9262364
1.7785805 2.4101169 2.9187717
1.8282436 2.4076893 2.9318745
1.8816185 2.4064603 2.9224997
1.9270504 2.406714 2.9194453
1.9712769 2.4070807 2.9400864
2.0302265 2.4102726 2.925843
2.0701241 2.4132183 2.9221189
2.1176133 2.4037385 2.9154983
2.1659467 2.4050176 2.9108586
2.2465785 2.4006481 2.9491088
0.13643637 -0.46004626 2.9579942
0.1317143 -0.42408842 2.9622672
0.12407688 -0.37544566 2.9663255
0.11881778 -0.32409528 2.9674306
0.11250206 -0.28869495 2.9663191
2.0165906 -0.27299291 2.9537036
2.1606815 -0.28136504 2.9500525
1.9800707 -0.21813716 2.9551837
2.0158944 -0.23096319 2.9619443
2.0686746 -0.214139 2.9877577
2.046077 -0.1970496 2.9885914
2.1571245 -0.173262 2.9516568
2.1555908 -0.14831722 2.950613
0.11063468 0.099909119 2.9881637
0.11892823 0.12523654 2.9794421
1.3258061 0.19777055 2.9886835
1.3712411 0.1977735 2.9739611
1.3381383 0.21252054 2.9768784
1.4381616 0.21389979 2.965384
1.8827914 0.31628275 2.9960625
1.9065064 0.34194508 2.9980502
1.9982861 0.34379995 2.9727678
2.0889659 0.34944016 2.9901037
2.115597 0.34242287 2.9574869
2.0930309 0.37978014 2.9897022
2.1173191 0.38181749 2.9615166
0.14212932 0.43929848 2.9790564
0.16231899 0.44716868 2.9985299
2.0866518 0.41709086 2.9964817
2.1078906 0.42932948 2.972595
0.13251922 0.47718197 2.9733708
0.16238764 0.46900755 2.997613
2.0901396 0.46785507 2.9956267
2.1086676 0.47474459 2.9715016
0.13562663 0.52352726 2.9740326
0.16608778 0.53784299 2.9915462
2.0927868 0.51860338 2.9928582
2.1198678 0.5224179 2.9692822
0.17650142 0.56180185 2.9810822
2.0994396 0.55375826 2.9976273
2.1232457 0.57111621 2.974365
0.12549956 0.6451841 2.9571428
0.19069168 0.64751285 2.9655271
2.1232815 0.62046379 2.9710674
0.13680738 0.67360717 2.9731917
0.16807497 0.66256446 2.9895561
2.1204541 0.67251033 2.9749072
0.14157721 0.72572976 2.9820721
2.1297653 0.72606868 2.9783607
2.1576455 0.72411251 2.9507611
0.14310205 0.7667464 2.9765642
0.16431984 0.77394962 2.9921117
2.1313844 0.7772786 2.9702609
0.14917913 0.80026144 2.9766912
0.16385515 0.83001304 2.9731472
2.1268394 0.82773489 2.9757149
2.1533573 0.82991028 2.9562728
0.11992301 0.88639373 2.9569514
0.18640539 0.87706017 2.9752235
2.128933 0.87057537 2.9850411
2.1551399 0.86447132 2.9508219
0.12775375 0.91946381 2.9635465
0.15052611 0.93964028 2.9775562
2.1298704 0.92145526 2.9814229
2.1536975 0.93898016 2.9653053
0.12476711 0.97194195 2.968869
0.15459028 0.96797895 2.9798508
2.1344676 0.97600698 2.9801834
2.1568396 0.97453421 2.9605496
0.12371998 1.0297445 2.975832
0.166476 1.0161942 2.985091
2.134234 1.0281917 2.9790056
2.1626799 1.0285916 2.9542334
0.12203758 1.0742307 2.9693103
0.152749 1.0652884 2.9959805
2.1328831 1.0736802 2.9902961
2.1564083 1.0768347 2.9668975
0.1260059 1.1263475 2.9736001
0.15336539 1.1219758 2.9949245
2.1395328 1.1245782 2.98153
2.1614656 1.122537 2.9605811
0.12316068 1.1788079 2.9724061
2.1364951 1.1665565 2.982132
2.1566908 1.1779994 2.9600666
0.093587615 1.2423226 2.9653573
0.12157844 1.224534 2.9736922
2.138386 1.2202777 2.9861917
2.1585119 1.2255937 2.9593313
0.093944781 1.262095 2.9722512
0.12457766 1.2753896 2.982718
2.1432855 1.2655551 2.984751
2.1652982 1.2806662 2.9657643
0.12510549 1.3226342 2.982939
2.1472435 1.300607 2.9914215
2.1680939 1.3290151 2.9755611
0.14168966 1.3783301 2.9996681
2.1735334 1.3756512 2.9713559
2.1490064 1.4099302 2.9921799
2.1699891 1.429314 2.971024
2.1833119 1.4764758 2.9755893
2.1780241 1.5217159 2.9823802
2.2001729 1.5183589 2.9505708
0.086339384 1.5870124 2.9590919
2.1831582 1.5757059 2.9706693
0.081812181 1.6323725 2.9674399
2.1840067 1.6198436 2.9811668
2.2037597 1.61444 2.9541054
0.084292874 1.6784872 2.9711909
0.11368647 1.6697124 2.9762869
2.1926391 1.6694235 2.9767408
2.2042019 1.6917367 2.9600599
0.080517851 1.728302 2.9698739
0.12018169 1.7216645 2.9931669
2.1877873 1.7220414 2.99228
2.200747 1.7397454 2.9734063
0.078947969 1.7793096 2.9792049
0.13067803 1.7510772 2.9809747
2.1382966 1.7873048 2.9846594
2.1777189 1.7777894 2.9836445
2.205658 1.7711766 2.9659247
0.067821763 1.8227587 2.9729059
2.0846305 1.8152132 2.9814572
2.1283379 1.8300836 2.9609337
2.1689291 1.8261745 2.9603066
0.070811577 1.8774595 2.9863548
0.18165152 1.8730292 2.9948916
2.0773273 1.874925 2.984019
2.1251597 1.8830522 2.9620433
2.164937 1.8673521 2.9532845
0.036191169 1.9203802 2.9572916
0.065655045 1.9245571 2.9864144
2.0386219 1.9160223 2.9859874
2.0740597 1.9164833 2.9707975
2.1232948 1.9264082 2.9573805
2.1645761 1.9026995 2.9558842
0.036555953 1.9885498 2.9624972
0.066594958 1.9722046 2.9867041
2.0490155 1.953446 2.9857428
2.0745149 1.9677805 2.9710083
2.1083837 1.9665747 2.9526565
2.1801255 1.9629178 2.9505191
0.031397175 2.0393445 2.9666913
0.053200297 2.0206313 2.9770868
2.0765238 2.01736 2.9798093
2.1101794 2.013891 2.9601996
0.036957152 2.076232 2.9601107
0.053451266 2.0713172 2.9691987
