ply
format ascii 1.0
comment PCL generated
element vertex 1473
property float x
property float y
property float z
element camera 0
property float view_px
property float view_py
property float view_pz
property float x_axisx
property float x_axisy
property float x_axisz
property float y_axisx
property float y_axisy
property float y_axisz
property float z_axisx
property float z_axisy
property float z_axisz
property float focal
property float scalex
property float scaley
property float centerx
property float centery
property int viewportx
property int viewporty
property float k1
property float k2
end_header
0.4769007 -0.49098584 1.4321134
0.52241045 -0.48926169 1.4266356
0.5760743 -0.48821831 1.4259452
0.62807673 -0.48769253 1.4264807
0.6729362 -0.48447284 1.4258294
0.72505593 -0.48375019 1.4207735
0.78049707 -0.48218679 1.4223017
0.83101094 -0.47924954 1.419668
0.87422526 -0.4744139 1.4206138
0.92596668 -0.47400621 1.4266856
0.97178793 -0.47281566 1.4241686
1.0237019 -0.47374204 1.4152266
1.0801605 -0.47318512 1.4275839
1.1247623 -0.47407171 1.4224788
1.1787894 -0.47401255 1.422192
1.2377794 -0.47974789 1.4293762
1.2781852 -0.48270765 1.4291353
1.3248084 -0.48664546 1.4153981
1.3626776 -0.49074015 1.4351475
1.4854048 -0.49670199 1.4138788
1.5176779 -0.48657149 1.4172111
1.5733151 -0.48418006 1.4144253
1.620636 -0.47962269 1.4244778
1.6690712 -0.48948467 1.43944
-0.012414099 -0.42656016 1.4498919
-0.24437465 -0.32474875 1.4180341
-1.4063364 -0.10602926 1.4043972
-1.3731784 -0.10894968 1.4222925
-1.3356771 -0.11239336 1.4054098
-1.4081193 -0.08383698 1.4045979
-1.377647 -0.074306555 1.4304025
-1.3774052 -0.026052123 1.4277657
-1.4229021 0.045709681 1.4319782
-1.3760108 0.018286247 1.4263562
-1.3170073 0.11702568 1.4173419
-1.2797275 0.13386969 1.4280119
-1.2726442 0.15929084 1.421659
-1.240971 0.16333961 1.4417756
-1.0592626 0.17307058 1.4080588
-1.0315623 0.17882966 1.4313656
-0.23457904 0.18747219 1.444622
-0.23158708 0.20812711 1.4381285
-1.3741355 0.43546677 1.4062788
-1.3492622 0.42740545 1.4005235
-1.378852 0.47426048 1.4068133
-0.86798471 0.48544738 1.4053198
-0.848441 0.46412608 1.4012625
-1.3806587 0.52793872 1.4074804
-0.87432563 0.51740634 1.4153264
-1.3806527 0.57770282 1.4071292
-1.3808666 0.62624836 1.4079026
0.023625439 0.61730939 1.4348575
0.5733152 0.63360333 1.4148273
-1.3858422 0.6699549 1.4049271
-1.3854929 0.72321397 1.4099717
-1.400733 0.78771454 1.4008083
-1.3785948 0.77996624 1.4213548
0.27976465 0.79374355 1.433151
0.31009811 0.79700571 1.4045017
-1.4046724 0.83842087 1.4009899
-1.377517 0.82663035 1.4266849
0.27751079 0.81239033 1.4413635
0.30307993 0.80919212 1.4336185
-1.4058532 0.88712496 1.4048368
-1.3788962 0.87179804 1.4266332
-1.4071436 0.91669607 1.4046274
-1.3818846 0.92429286 1.4291763
-1.4067823 0.97752345 1.4068726
-1.3807619 0.97578132 1.4312491
-1.4088479 1.0297388 1.4075066
-1.3799917 1.0257615 1.4325989
-1.4126347 1.077865 1.4062574
-1.3811263 1.0725964 1.4316715
-1.4129047 1.1187245 1.4073932
-1.3803229 1.1229416 1.4353249
-1.4075326 1.1692028 1.4070193
-1.3834695 1.1748295 1.4330497
-1.4085484 1.2278593 1.40759
-1.3827096 1.2278119 1.4323679
-1.4083772 1.2749878 1.4058305
-1.3831592 1.2768197 1.4304204
-1.4053242 1.3249868 1.4097406
-1.3815407 1.3273529 1.4342309
-1.407377 1.3779402 1.409731
-1.38011 1.3787794 1.4344704
-1.4071262 1.4193467 1.4133677
-1.3843768 1.4262416 1.4345139
-1.3832455 1.4704837 1.4342092
-1.3719536 1.5136056 1.4436731
-0.65455681 -0.50957888 1.465698
-0.63174653 -0.50371426 1.4537525
1.4452312 -0.50407791 1.4889923
1.4652417 -0.50272006 1.4646193
1.5246776 -0.50501513 1.4811078
-0.46360892 -0.48696527 1.4740382
-0.4314408 -0.49189681 1.4794027
-0.38059744 -0.49269384 1.4724064
-0.34539616 -0.49120563 1.469094
-0.26480985 -0.49002656 1.478611
-0.22050324 -0.48753566 1.4754703
-0.18473332 -0.48089373 1.4651098
-0.10367477 -0.48396498 1.4719807
-0.075616203 -0.48709515 1.4740745
-0.025857434 -0.47835311 1.4788731
0.018284401 -0.48626795 1.474527
0.065853171 -0.49135175 1.4734613
0.17847334 -0.49168023 1.4763222
0.22490868 -0.49163935 1.4806685
0.27416235 -0.49134359 1.4772894
0.3243444 -0.48951459 1.475088
0.3740629 -0.49053314 1.4765096
0.42331672 -0.49066493 1.472864
0.47338337 -0.48982206 1.4719062
0.52815074 -0.48827422 1.4684881
0.5741244 -0.48979154 1.4730213
0.62587023 -0.49059483 1.4784092
0.67775923 -0.48907858 1.4827805
0.72345835 -0.48751608 1.4786261
0.77468425 -0.48448712 1.4815178
0.82164389 -0.48102525 1.4724975
0.8741129 -0.47683534 1.4752575
0.92542267 -0.47312203 1.4751166
0.98112452 -0.47218567 1.4746134
1.0282117 -0.47401047 1.4736118
1.0732185 -0.47343594 1.4713274
1.1299535 -0.47491106 1.4797255
1.1784463 -0.47254786 1.4758524
1.2306043 -0.47745824 1.4916034
1.2645453 -0.48120081 1.4627872
1.3176285 -0.48334613 1.4723554
1.3628759 -0.48696893 1.4912744
1.4576359 -0.49863595 1.4763634
1.6165293 -0.48733234 1.475598
-0.024728306 -0.43806618 1.4662101
-0.24246004 -0.31221548 1.4661956
-0.24449682 -0.2952899 1.4779826
-1.3524579 -0.10641786 1.456811
-1.327866 -0.10662472 1.4799786
-1.3515552 -0.075181641 1.4573927
-1.3280412 -0.075398333 1.4816958
-1.3506335 -0.043975722 1.4575157
-1.3290652 -0.025627498 1.4772748
-1.4065583 0.045878991 1.4576235
-1.371453 0.045578435 1.471293
-1.3280184 0.018290084 1.4747002
-1.2611314 0.12923534 1.4564782
-1.2389585 0.13620226 1.4810863
0.74497169 0.14259733 1.4874725
-1.2263715 0.15977219 1.469246
-1.191287 0.16411662 1.4877801
-1.0097873 0.17332894 1.4624848
-0.98262733 0.18028706 1.4820322
-0.22248745 0.18698777 1.4676093
-0.22560821 0.22038051 1.4675336
-0.1740012 0.22504637 1.455755
0.6800819 0.35828322 1.4650854
0.0092358561 0.53778762 1.4799665
0.0019007721 0.58426923 1.4950849
0.016790364 0.60355175 1.480961
0.28850675 0.63785934 1.4829972
0.51008588 0.62733692 1.4676406
0.60234219 0.64794558 1.4824384
0.281654 0.66862696 1.4773854
0.5052008 0.66064417 1.4964036
0.59952784 0.65348512 1.4975162
0.27175149 0.72653317 1.4825873
-1.350979 0.79179651 1.4561841
-1.3229424 0.77977002 1.4749292
-1.2987607 0.76994491 1.4972316
0.2476211 0.79864281 1.4509699
0.26345611 0.78763372 1.469926
-1.3524641 0.82426965 1.4527506
-1.3269137 0.82416129 1.4758128
0.27128577 0.81783468 1.4569795
-1.3556826 0.87958819 1.4555022
-1.3272617 0.87579739 1.4804115
-1.3565824 0.92314583 1.4550579
-1.3305572 0.92483342 1.4796419
-1.3556355 0.97027391 1.4549112
-1.3298762 0.9724232 1.480144
-1.3555279 1.0209324 1.4568508
-1.3304083 1.0204647 1.4786018
-1.3556676 1.0664281 1.4588126
-1.3306094 1.0732296 1.4800501
-1.3578502 1.1136014 1.4522787
-1.3312306 1.1236989 1.4786675
-1.3601981 1.1740671 1.4571915
-1.3327178 1.1771256 1.4800158
-1.3584726 1.2212865 1.4583526
-1.3337437 1.2278508 1.482182
-1.3577805 1.2704729 1.4553347
-1.3314569 1.2768685 1.4818779
-1.3553915 1.3205415 1.4543724
-1.3344718 1.3259529 1.4796339
-1.3558791 1.3735803 1.4577705
-1.3342433 1.3765641 1.4833632
-1.3577391 1.4284483 1.456838
-1.3308926 1.4248258 1.4835944
-1.3618687 1.4818363 1.4602455
-1.3309519 1.4711795 1.4851049
-1.3555537 1.5138769 1.4593363
-1.3344826 1.5190692 1.4874293
1.4492935 -0.50428718 1.5411538
1.5641218 -0.51310879 1.5111855
1.6159512 -0.50970572 1.5470457
-0.45996928 -0.49285764 1.5308425
-0.42089614 -0.49374613 1.5250403
-0.37734115 -0.49407241 1.5236459
-0.34790373 -0.49041477 1.5167736
-0.26888242 -0.48732263 1.5144044
-0.23598747 -0.48690015 1.5139467
-0.16354682 -0.48122066 1.5215207
-0.12559764 -0.48369285 1.518989
-0.077232853 -0.48284501 1.5219626
-0.024148762 -0.47626609 1.5114946
0.025536295 -0.48808804 1.5235447
0.073498085 -0.49341896 1.5266362
0.1824237 -0.49064347 1.5244675
0.22249311 -0.49164867 1.5324978
0.27273306 -0.49228862 1.5272892
0.32910377 -0.49111396 1.5245031
0.37091184 -0.48880276 1.5210365
0.42498714 -0.49064097 1.5295641
0.47662961 -0.49286765 1.5261078
0.52017862 -0.49016151 1.5221958
0.57286769 -0.49198377 1.5290604
0.63158214 -0.49170318 1.53202
0.67460549 -0.4882828 1.5224431
0.72488075 -0.48478028 1.527123
0.76952648 -0.48028973 1.5197438
0.82607234 -0.47941417 1.5228601
0.87661034 -0.46927798 1.5224433
0.92295527 -0.46756423 1.5209479
0.97358471 -0.46971649 1.516277
1.0256363 -0.4685038 1.5249213
1.0734484 -0.47263813 1.5281885
1.1221412 -0.47420207 1.5292844
1.1698896 -0.47501782 1.5297773
1.2469105 -0.4810138 1.5214366
1.2696905 -0.48131728 1.519192
1.3093089 -0.49074125 1.5259757
1.3865871 -0.49242401 1.5275393
1.4191866 -0.49715564 1.5270852
1.4537358 -0.49911618 1.5095249
1.6322994 -0.4904331 1.5230993
1.6679298 -0.48527458 1.5472521
1.7329421 -0.48367941 1.5111603
-0.035328679 -0.43169487 1.5205773
0.89390123 -0.43230206 1.5410366
0.84421563 -0.30231583 1.5435834
0.86702079 -0.32207623 1.5420042
-0.24612124 -0.28806478 1.5262301
-1.3047435 -0.1069547 1.5042473
-1.2820289 -0.10733223 1.5283058
0.83180332 -0.10454913 1.5394089
-1.3042593 -0.075601734 1.5051808
-1.2817084 -0.075894989 1.5293733
0.81620723 -0.082049839 1.5233407
-1.3027148 -0.026354674 1.5047553
-1.2797564 -0.026461124 1.5283662
0.8169961 -0.027178114 1.543072
-1.3584222 0.046018586 1.5080658
-1.3090028 0.031978227 1.5118034
-1.2765638 0.019339453 1.5283405
0.79722995 0.036063075 1.5354309
0.80514801 0.01816144 1.5416565
0.78746808 0.077417947 1.5344188
-1.2205815 0.13557278 1.5160204
0.76946872 0.13068497 1.5280997
-1.2067201 0.15751219 1.5078218
-1.1812919 0.16267142 1.5234903
-0.96187019 0.17651743 1.5188924
-0.93156302 0.18169728 1.5369772
-0.88776654 0.16199291 1.5200064
-0.21578231 0.18864651 1.5027523
-0.20852996 0.22492214 1.5001252
0.098570481 0.23801263 1.5448201
0.13578668 0.22812903 1.5442413
0.13821056 0.27121523 1.5333999
0.15087536 0.26447129 1.5417794
0.72886276 0.31965131 1.5395302
0.14208716 0.36174786 1.542014
0.16123411 0.38098091 1.5395865
0.17903891 0.42457086 1.5331955
0.69718534 0.41168636 1.5349581
0.70045102 0.4256438 1.5397656
0.18882199 0.4713048 1.5342205
0.20856209 0.48021603 1.5339202
0.19584557 0.51147556 1.5298201
0.21557231 0.52541643 1.5324903
0.012698463 0.58269328 1.5342971
0.22929955 0.56144243 1.5290458
0.017312346 0.60971487 1.5275413
0.28754756 0.64077938 1.5108998
0.57570797 0.63835567 1.5312921
0.28185147 0.68040794 1.5119605
0.57954252 0.65087819 1.5433936
0.26957777 0.74782622 1.5125347
-1.2745236 0.77974743 1.5258673
-1.3034506 0.82165492 1.5008504
-1.2774928 0.82350004 1.5256263
-1.3030987 0.87565124 1.5036999
-1.2773254 0.87441605 1.5286726
-1.3052348 0.92644453 1.5046437
-1.2781481 0.92808467 1.5292718
-1.3046633 0.97227144 1.5034088
-1.279183 0.9769057 1.5303041
-1.3075379 1.0199374 1.5052338
-1.2805991 1.0276284 1.530602
-1.3062439 1.0834563 1.5061433
-1.2788455 1.0740052 1.5307804
-1.3061767 1.126334 1.5059662
-1.2822444 1.1250144 1.5298724
-1.3077596 1.1788082 1.5086238
-1.2801601 1.1726109 1.535053
-1.3076099 1.2264615 1.5094563
-1.2804731 1.2250277 1.5332998
-1.3081815 1.2740829 1.5053898
-1.2825263 1.275656 1.5325694
-1.3111315 1.3308632 1.5056199
-1.2839258 1.3235569 1.5286324
-1.3067362 1.3749928 1.5068023
-1.2785975 1.3777772 1.5352755
-1.3089498 1.426928 1.5080491
-1.280232 1.4254682 1.5320029
-1.3070223 1.4689652 1.5118086
-1.2826118 1.4769586 1.5333996
-1.3078604 1.5208564 1.5105232
-1.2833564 1.5248621 1.535903
-1.2906488 1.553406 1.5464059
1.4373519 -0.50060767 1.5860978
1.4664203 -0.50042605 1.5621139
1.5189824 -0.51147062 1.5800343
1.5768458 -0.51889199 1.5725957
1.6277425 -0.51582426 1.5880425
1.6633701 -0.50050461 1.5788434
-0.45551583 -0.49683994 1.5587268
-0.42959237 -0.49423862 1.5551865
-0.37858453 -0.49420735 1.5642077
-0.10497616 -0.4810513 1.5502609
-0.083328024 -0.48454174 1.5758059
0.032180138 -0.49143162 1.5753183
0.074115664 -0.49412492 1.5791485
0.18556501 -0.49200007 1.5807613
0.22631934 -0.49353862 1.5753115
0.27477565 -0.49228159 1.578825
0.32552072 -0.49190262 1.5767487
0.37515423 -0.48049745 1.5749767
0.4184024 -0.48485258 1.580281
0.47082368 -0.49250519 1.5693767
0.52238274 -0.4913024 1.5742261
0.57135886 -0.49256968 1.5705544
0.62060922 -0.49117932 1.5784707
0.67259914 -0.48588416 1.5730062
0.72464406 -0.48300445 1.5723633
0.77633601 -0.48005337 1.5765823
0.82010716 -0.4791244 1.5718668
0.87584645 -0.47208899 1.5736439
0.92535299 -0.46560431 1.5678132
0.97445053 -0.47085953 1.5730554
1.0244176 -0.46677014 1.5807403
1.0727038 -0.46703786 1.5773826
1.1259015 -0.47280213 1.5696595
1.1742709 -0.4720335 1.5710566
1.230841 -0.48293456 1.5732578
1.2698613 -0.4828113 1.5793425
1.3324225 -0.49022847 1.5694594
1.3791933 -0.49389336 1.5940905
1.4232891 -0.49570307 1.5704118
1.4633017 -0.494555 1.589283
1.720082 -0.48674726 1.5787122
0.37325317 -0.44009656 1.573252
0.40608415 -0.44753104 1.5860943
0.89484197 -0.42080802 1.5603645
0.90656137 -0.40969849 1.5649381
0.8972829 -0.37811947 1.5730073
0.91076016 -0.38609737 1.5770335
0.83987647 -0.30825222 1.5821229
0.86692888 -0.33016777 1.5744889
-0.2452682 -0.27657929 1.569925
0.78033584 -0.29787737 1.5924311
0.87071383 -0.27208534 1.5678704
0.86506021 -0.22706477 1.5704296
0.8499487 -0.15774803 1.5886338
0.86090147 -0.17623655 1.5786304
-1.2573314 -0.10793998 1.5580697
-1.2288662 -0.11276153 1.5822198
0.84067947 -0.11784901 1.5713862
0.85196042 -0.14833578 1.5743064
-1.2557704 -0.076202847 1.5558408
-1.2336453 -0.078042299 1.5828099
0.8360545 -0.076398961 1.590156
-1.2563946 -0.026566735 1.5510929
-1.2329364 -0.025705278 1.576956
0.82865673 -0.032684904 1.581924
-1.2742496 0.03232928 1.5620233
-1.2316716 0.021155724 1.5760814
0.80428523 0.024415424 1.5569006
0.16296503 0.099703133 1.5997703
0.80794728 0.078270808 1.5880277
-1.2064917 0.1386437 1.5599442
0.14252028 0.1338345 1.5898948
0.15592518 0.11589949 1.5901725
0.78862941 0.11368548 1.5673229
-0.95788622 0.15953854 1.5591636
-0.92394191 0.15981193 1.5573375
0.12563688 0.17744368 1.5873563
-0.14162862 0.23043925 1.5684357
0.095623389 0.22494881 1.5588616
0.11274964 0.22638138 1.5762274
0.77298033 0.21987273 1.5709617
0.11673425 0.27642176 1.5657189
0.76399076 0.27465945 1.5807531
0.12587908 0.30877399 1.571838
0.62680417 0.41369772 1.5861305
0.69866687 0.41327459 1.5594914
0.70678639 0.42875743 1.5865782
0.34371588 0.479173 1.574248
0.57381088 0.64544034 1.5546352
0.58281738 0.66387028 1.5764819
-1.2518756 0.77613693 1.5512348
-1.2272465 0.78067118 1.575189
-1.2530771 0.82635415 1.5519288
-1.2276167 0.82401788 1.5774711
-1.2524252 0.87299556 1.5561326
-1.2270237 0.87392455 1.5786963
-1.2554171 0.91036648 1.5534139
-1.2309744 0.924532 1.57734
-1.2538918 0.97610778 1.5525327
-1.2302221 0.97342283 1.5781506
-1.2553837 1.0281554 1.5534625
-1.2304777 1.0248117 1.5791317
-1.2553976 1.0862689 1.555799
-1.2306293 1.0736166 1.5789151
-1.2533468 1.1288546 1.5573599
-1.2302406 1.1234262 1.5830665
-1.257364 1.1751941 1.5580302
-1.2311447 1.1775941 1.5832528
-1.2573301 1.2295339 1.5551413
-1.2341701 1.2254843 1.5799321
-1.257619 1.278838 1.5563141
-1.2333207 1.2712551 1.5810063
-1.2560251 1.323714 1.5587759
-1.2309601 1.3226154 1.5843862
-1.2565222 1.3679354 1.5563123
-1.2336441 1.3723369 1.5796714
-1.255597 1.430384 1.5570273
-1.2342068 1.4185544 1.5806046
-1.2590513 1.4769456 1.5570718
-1.23348 1.469171 1.5825194
-1.257045 1.5140796 1.5596509
-1.2348971 1.5214945 1.5829862
-1.2610863 1.558525 1.5734478
-1.2282503 1.5526299 1.5854796
0.097441055 -0.50088793 1.6147078
1.5264378 -0.5052163 1.6222298
1.5746199 -0.51467252 1.6116695
1.6321316 -0.52004486 1.6360279
1.682707 -0.51381236 1.6260505
1.7045392 -0.50538749 1.6408424
-0.10711084 -0.48972812 1.6239996
-0.084225759 -0.48522782 1.6249645
0.029063713 -0.49231225 1.6266137
0.07274197 -0.49393237 1.6306695
0.19228125 -0.49296531 1.6295882
0.22568645 -0.49322245 1.6204019
0.2775262 -0.49322903 1.6212176
0.33124593 -0.49094582 1.6268454
0.3697184 -0.48481312 1.6314961
0.43276519 -0.48391712 1.6224954
0.47839141 -0.49319533 1.6192776
0.52820408 -0.49290538 1.6252813
0.57557189 -0.49240461 1.6211877
0.6261673 -0.48650011 1.6234118
0.68022484 -0.48520684 1.6256431
0.7265262 -0.48268083 1.6197467
0.77482092 -0.48092133 1.630461
0.82647812 -0.47766322 1.6176373
0.87175101 -0.47369742 1.6287487
0.92125005 -0.47026232 1.62862
0.97994053 -0.46442392 1.6198653
1.0246987 -0.46604472 1.624595
1.0733024 -0.46257287 1.6279323
1.1287303 -0.47125298 1.6168649
1.172632 -0.47599256 1.6145695
1.2235634 -0.47938555 1.624429
1.2703791 -0.47914726 1.6189202
1.3284171 -0.48824003 1.6271272
1.3709482 -0.49146181 1.6258048
1.4247745 -0.49325442 1.6117939
1.4691321 -0.49406725 1.6257461
1.7243836 -0.4972187 1.6425456
0.41573507 -0.44602484 1.6261041
0.90212035 -0.35975203 1.6043789
0.78046614 -0.3011252 1.6127206
0.83296013 -0.32377213 1.6308757
0.85471094 -0.33428004 1.6140946
-0.24357204 -0.26429173 1.6135235
-0.24670851 -0.24475041 1.6313872
0.86955434 -0.20192391 1.6027881
0.85826576 -0.15089877 1.6047635
-1.206525 -0.11048639 1.6114346
-1.1828376 -0.11107758 1.636916
0.84643662 -0.1064233 1.6428834
0.86021 -0.13051429 1.6144654
-1.2084556 -0.07490167 1.6080813
-1.1854482 -0.071662128 1.6348881
0.8359127 -0.090591505 1.6192604
-1.2091494 -0.030297905 1.6051453
-1.1847754 -0.027057463 1.6318837
-1.1173455 -0.03131194 1.6434028
0.036096349 -0.010715984 1.6361622
0.074532442 -0.015068172 1.6252582
0.12322032 -0.011704541 1.635558
0.17540807 -0.011799075 1.6457357
0.82937431 -0.022054233 1.6055446
-1.2519549 0.046502519 1.6145921
-1.2147752 0.027911723 1.6162118
-1.1823528 0.018558139 1.6286033
-1.1092184 0.0093290275 1.6496602
0.032472357 0.021629166 1.6360959
0.074583165 0.021499306 1.6207062
0.12125521 0.015373089 1.6327375
0.15172951 0.01054024 1.647278
0.017471921 0.054271236 1.6238697
0.1623702 0.091379784 1.6232653
0.82568467 0.071938589 1.6329818
0.1335887 0.12261968 1.6214901
0.81239116 0.13939238 1.6331391
0.11551599 0.16761851 1.609373
0.80237925 0.15178621 1.6321182
-0.084209993 0.23513128 1.6301327
0.095940024 0.21141562 1.6302646
0.10296673 0.202012 1.6179994
0.79286164 0.22850372 1.6366196
0.77754021 0.27805051 1.6140684
0.40814063 0.3493053 1.6451197
0.3772085 0.37352806 1.6307564
0.42313996 0.35866189 1.6472416
0.36653131 0.43222791 1.6256138
0.64959991 0.43181285 1.6168519
0.6675427 0.43106243 1.6283927
0.71419203 0.44256109 1.6240244
0.34764799 0.48633298 1.6122422
0.36221486 0.46148622 1.6276118
0.71984667 0.45299572 1.6470227
-1.205197 0.76492232 1.60423
-1.1766809 0.780173 1.6270943
-1.203938 0.83240044 1.6025388
-1.1780864 0.82332939 1.6272218
-1.2048864 0.88402581 1.6028641
-1.1796863 0.87324578 1.6266649
-1.2042804 0.93043 1.6022477
-1.1789283 0.92592758 1.6287456
-1.2037644 0.97868627 1.6081514
-1.1799719 0.97772598 1.6308457
-1.2065021 1.033041 1.6058745
-1.181839 1.0259961 1.6293859
-1.2066579 1.0791765 1.6069716
-1.1790799 1.0785685 1.6335918
-1.207379 1.1283507 1.609094
-1.1824471 1.1268588 1.6300733
-1.2079103 1.1749471 1.6076165
-1.1811984 1.1741793 1.6325783
-1.2087868 1.221238 1.6085256
-1.1839837 1.227295 1.6305505
-1.2053772 1.2779492 1.6107477
-1.1807177 1.273699 1.632326
-1.2075511 1.3260976 1.6074619
-1.1828507 1.3205525 1.6290138
-1.2080946 1.3810425 1.6064106
-1.1849926 1.3715876 1.6308701
-1.2079687 1.4297369 1.610375
-1.1809007 1.4255724 1.6366299
-1.2091373 1.4721754 1.6085808
-1.1840615 1.4725471 1.6285719
-1.2105191 1.5290327 1.6129663
-1.1860443 1.5215752 1.6365379
-1.2120746 1.5607097 1.6079824
-1.1827555 1.5629884 1.6383556
0.077152647 -0.50015908 1.6989309
0.10216878 -0.50851762 1.6964638
1.5752652 -0.50776541 1.665345
1.6220065 -0.51179606 1.6721002
1.6685854 -0.51134747 1.6745116
1.7185251 -0.51274252 1.6745663
0.025794376 -0.49400917 1.6754754
0.059769288 -0.49620685 1.6786256
0.19459252 -0.49216256 1.675279
0.22280449 -0.49315536 1.6745471
0.27572623 -0.49326655 1.6764216
0.3210797 -0.49363232 1.6773267
0.35943103 -0.49095657 1.6807091
0.47677332 -0.49327925 1.678632
0.52427906 -0.49344081 1.6749892
0.57510042 -0.48875815 1.6680937
0.62044287 -0.4860031 1.6663692
0.68097162 -0.48616058 1.6763381
0.72495562 -0.48376992 1.6820658
0.7822268 -0.48037204 1.6727239
0.82275647 -0.47658509 1.6707112
0.87249565 -0.47711244 1.6861696
0.92397732 -0.47351953 1.6770296
0.97587502 -0.45827264 1.6656728
1.0192021 -0.46552935 1.6683202
1.0600634 -0.46213871 1.6552266
1.1286478 -0.4705103 1.6831694
1.1755159 -0.47389665 1.6745183
1.2234747 -0.48221725 1.6881983
1.2701476 -0.48024577 1.6708091
1.3181615 -0.48423687 1.6928315
1.3821464 -0.4875623 1.6678814
1.4374663 -0.49349856 1.6803627
1.4724722 -0.49445161 1.679746
1.5208892 -0.49511909 1.6668845
1.5934873 -0.49775153 1.6887717
1.7524034 -0.49429968 1.672078
0.78680229 -0.3205089 1.6760737
0.81301653 -0.32912728 1.6591498
-1.1337589 -0.15800813 1.6993375
-1.0854205 -0.17338993 1.6804659
-1.1588264 -0.11799404 1.6630944
-1.1381153 -0.12338778 1.6843482
0.83294833 -0.10898964 1.6786617
-1.1593153 -0.073151447 1.6580486
-1.1359118 -0.07645341 1.6695995
0.16917124 -0.070664324 1.677734
0.83106703 -0.090508975 1.6735353
-1.1570541 -0.02717942 1.655853
-1.1402726 -0.024109082 1.6619202
-0.018092874 -0.0080129234 1.6840383
0.011265834 -0.013222679 1.6641397
0.096696801 -0.023649585 1.6521292
0.12524323 -0.023807503 1.6619978
0.17555974 -0.018295716 1.676716
0.20004138 -0.0078925062 1.6525532
-1.2074465 0.046878166 1.662744
-1.1640762 0.026668912 1.660569
-1.1308113 0.023811856 1.6754349
-1.0928032 0.027883193 1.6983947
-0.02511082 0.025085798 1.6801336
0.0093696425 0.027932072 1.6546712
0.081289776 0.047586318 1.6599509
0.13129403 0.034333322 1.6556946
0.17492364 0.014688529 1.6692363
0.20347792 0.012134651 1.6808978
-0.026215101 0.056410108 1.6877574
0.0059590787 0.055381663 1.6571481
0.14494786 0.09531191 1.6585293
0.18077911 0.078282483 1.6754346
0.20769824 0.068576038 1.6812496
0.12133726 0.13524953 1.6608366
0.79952002 0.14748642 1.6887145
0.80729389 0.145769 1.6631054
-0.054936603 0.18734163 1.6997553
-0.027410956 0.18500574 1.6833025
0.7993747 0.18017255 1.6649691
0.81454664 0.164652 1.6803693
-0.15875353 0.22912921 1.6700668
-0.14940435 0.22717208 1.6560404
-0.057824779 0.23158088 1.6624238
-0.030284554 0.21834102 1.6856494
0.034146607 0.22476615 1.6722913
0.81278098 0.22437502 1.6681589
0.79595894 0.26954845 1.6630993
0.80776793 0.2600314 1.6750302
0.39900699 0.34736902 1.6788577
0.40334091 0.34278208 1.6982514
0.38804188 0.37254387 1.6787329
0.43074763 0.37482414 1.6744466
0.45285314 0.37154174 1.6830485
0.37526852 0.4271152 1.6751645
0.42958137 0.40239781 1.6898891
0.69339049 0.43537724 1.6562496
0.72200161 0.43753347 1.6743941
0.75337505 0.42325896 1.662778
0.36526155 0.47052562 1.6602143
0.7138775 0.45738071 1.6670134
-1.1545162 0.78313369 1.6517547
-1.1287262 0.77457148 1.6743778
-1.1533573 0.82819736 1.6537653
-1.1304861 0.82435685 1.6770492
-1.1531113 0.8795746 1.6540169
-1.1319467 0.87476838 1.6754982
-1.1557612 0.92219961 1.6568043
-1.132768 0.92367482 1.6788617
-1.1567049 0.97144461 1.6557182
-1.1297919 0.97540772 1.6813812
-1.1554018 1.0186393 1.6582905
-1.1351022 1.0261575 1.6817158
-1.154591 1.06582 1.6568127
-1.1323227 1.0762869 1.6819645
-1.1574061 1.1279176 1.6585904
-1.1330436 1.1259619 1.6810516
-1.1568445 1.1781651 1.6584414
-1.1320447 1.1732608 1.681285
-1.1590266 1.2258136 1.6570879
-1.1324667 1.2256014 1.6834472
-1.1582811 1.2760599 1.6556007
-1.1343929 1.2719792 1.6804084
-1.1594659 1.3263968 1.6580325
-1.1318347 1.3246154 1.6829274
-1.1580844 1.3742414 1.6585764
-1.1337888 1.3792516 1.6841984
-1.1571267 1.4237071 1.66281
-1.1313797 1.4282894 1.6858664
-1.1616954 1.4719046 1.659098
-1.1354525 1.4768764 1.6828165
-1.1616609 1.5246962 1.6591619
-1.1374036 1.5246748 1.6861712
-1.1590818 1.5693569 1.6692965
-1.1364067 1.5735416 1.694185
0.080086395 -0.50183594 1.7197862
0.10794125 -0.50771391 1.7236042
1.5800886 -0.50025409 1.7143805
1.6263801 -0.50465202 1.7033715
1.6774931 -0.50439912 1.7286344
1.7259412 -0.50629658 1.7235268
1.7695643 -0.50553143 1.7302004
1.8019825 -0.50013518 1.7434313
0.023054052 -0.49354327 1.7075551
0.07592874 -0.49726337 1.7193993
0.12140911 -0.4939445 1.737331
0.19438075 -0.48474863 1.7003509
0.22744365 -0.49316025 1.7274977
0.2764371 -0.49360269 1.7287098
0.32648543 -0.492852 1.7236084
0.37490833 -0.4925766 1.724098
0.47482714 -0.49408031 1.7236801
0.52264893 -0.49180356 1.7298515
0.5730738 -0.49010536 1.7242403
0.62763005 -0.48822236 1.7341764
0.67556751 -0.48488894 1.7212658
0.72494763 -0.48113307 1.7316089
0.7690354 -0.47939935 1.7205168
0.82861221 -0.47500119 1.7197334
0.88134998 -0.47353721 1.7265178
0.91884845 -0.4706246 1.7185218
0.96572196 -0.46870565 1.7177088
1.025098 -0.45978403 1.713892
1.0819741 -0.46913725 1.7288237
1.1207693 -0.4700397 1.7332714
1.1678681 -0.47158089 1.7162971
1.2277457 -0.47649878 1.7206789
1.2716372 -0.48043412 1.7287323
1.3217791 -0.48107809 1.7286601
1.3727553 -0.49173218 1.7249435
1.4177988 -0.48994067 1.7135184
1.4553746 -0.49752516 1.7291484
1.5391389 -0.49569604 1.7192707
1.5801437 -0.49394256 1.7264047
1.6258445 -0.49514914 1.7314547
1.7043935 -0.49969065 1.74871
1.7919533 -0.49420863 1.7126544
0.74661785 -0.31472123 1.7262999
0.76557994 -0.32750109 1.7210176
-1.1104425 -0.16269636 1.7241518
-1.0929356 -0.18008766 1.7378258
-1.1193209 -0.1352686 1.7108483
0.7893827 -0.10598692 1.7346293
0.81280071 -0.10686643 1.7106212
0.69386387 -0.078679316 1.7441258
0.71142548 -0.077720694 1.7157364
0.78456843 -0.091914535 1.7295408
0.812666 -0.093307585 1.7087526
-0.038632561 -0.0081189992 1.7061687
-1.1535528 0.047484286 1.72454
-1.1208376 0.0453953 1.7301712
-1.0802672 0.032789387 1.7261667
-0.072730862 0.024532514 1.7285782
-0.046685714 0.0040790378 1.7028385
0.18639919 0.032794371 1.710295
-0.065278009 0.060515527 1.7274305
-0.04685517 0.06526278 1.7081772
0.44969872 0.14361838 1.7281079
0.469935 0.14191315 1.7245115
0.79304159 0.14952663 1.7179842
-0.075569287 0.18735424 1.7219654
-0.028028572 0.18027835 1.7113571
0.79273146 0.15113962 1.7394371
0.81111169 0.1682214 1.7241393
-0.21597554 0.23489819 1.7390614
-0.18073481 0.23275417 1.7257224
-0.10513607 0.20625137 1.7188561
-0.075075351 0.220789 1.7313178
-0.027597552 0.22023629 1.7214793
0.012125899 0.23191099 1.738271
0.42090899 0.24789071 1.7467752
0.40825033 0.33284882 1.7208567
0.41484079 0.36859331 1.7217948
-1.1043766 0.78153199 1.7042691
-1.0797645 0.77719933 1.7295171
-1.1072265 0.83112043 1.7088135
-1.0828654 0.82419455 1.7300141
-1.1085951 0.87243897 1.7061764
-1.082355 0.87663811 1.732667
-1.1092626 0.92796463 1.7060432
-1.0843602 0.92350131 1.7321849
-1.1050462 0.9720462 1.7091293
-1.0844429 0.97478515 1.7327821
-1.1101141 1.0279492 1.7075361
-1.082395 1.021523 1.7340528
-1.107187 1.0779263 1.7083215
-1.0837187 1.0731355 1.7315923
-1.1086305 1.1285738 1.7060595
-1.0839808 1.1248085 1.731678
-1.1077524 1.1742234 1.708712
-1.085369 1.1785415 1.7318525
-1.1077479 1.2226855 1.7084503
-1.0844907 1.2236286 1.732808
-1.1087639 1.2732939 1.70864
-1.0859419 1.2726078 1.7334886
-1.1070862 1.3184316 1.7111578
-1.0821849 1.3253245 1.7344537
-1.1096773 1.3707968 1.7079691
-1.0879796 1.3780068 1.732408
-1.1073979 1.4195431 1.7117916
-1.0826414 1.4258314 1.7359543
-1.1083026 1.4687014 1.7119417
-1.0853227 1.4742812 1.7365447
-1.1146458 1.5211916 1.7116023
-1.0895494 1.527532 1.7354368
-1.1132646 1.5768362 1.7143465
-1.090827 1.5724597 1.7368277
-0.0417675 -0.50157547 1.7993658
0.03080477 -0.50116187 1.779363
0.06748715 -0.50085115 1.7799085
0.11423118 -0.50410634 1.7575111
1.5276619 -0.5006038 1.7563558
1.7907853 -0.50343508 1.775185
-0.45073232 -0.48841068 1.7813751
-0.43036288 -0.49049923 1.7927226
0.024053093 -0.49587059 1.7790253
0.079976834 -0.49682051 1.7651588
0.11368185 -0.49356928 1.7741079
0.22720319 -0.49202672 1.7722591
0.2770828 -0.49451065 1.7765115
0.32574305 -0.49547794 1.780126
0.36805573 -0.49530971 1.7724727
0.48338643 -0.49240133 1.7705736
0.52624911 -0.48941073 1.7761233
0.58006096 -0.48940355 1.7697165
0.62879443 -0.48841324 1.7732213
0.67354071 -0.48399532 1.7752495
0.71526974 -0.47968319 1.7604978
0.76865321 -0.47798193 1.77727
0.82272673 -0.47955635 1.7782066
0.88200235 -0.47702891 1.7766497
0.91480947 -0.47333622 1.7918968
0.98614722 -0.46785891 1.7738698
1.0746309 -0.46784335 1.7816515
1.117187 -0.46903124 1.7797239
1.1767612 -0.46935466 1.7512884
1.2262064 -0.47972953 1.7773823
1.2655789 -0.48074704 1.7606301
1.3044471 -0.47893876 1.755777
1.3739475 -0.4859626 1.7792532
1.4245093 -0.49148017 1.76491
1.473689 -0.49153289 1.7746568
1.5283684 -0.49600974 1.7723097
1.579196 -0.48959875 1.7684587
1.6464046 -0.48794648 1.7943919
1.6784146 -0.4932583 1.7733405
1.7237965 -0.49412492 1.7712539
1.8147532 -0.4916777 1.7753896
0.73178393 -0.3240996 1.7700948
-1.0748127 -0.20082337 1.7882643
-1.1014836 -0.17101818 1.7640603
-1.0855583 -0.18645188 1.7729365
0.74457037 -0.10849696 1.7946924
0.76528698 -0.10759079 1.7718605
0.68814713 -0.079030745 1.7542613
0.74076492 -0.094445348 1.7860994
0.76170725 -0.093688756 1.7640456
-1.0711769 0.039914258 1.7639542
-1.0306423 0.029984387 1.781376
-0.16115367 0.037291907 1.7971455
-0.12332822 0.027431857 1.7765709
-0.097177058 0.016806215 1.7625411
-0.16065571 0.051449522 1.7913122
-0.11786612 0.057919972 1.7808756
-0.089089289 0.060065988 1.7592138
0.4473379 0.14559692 1.7534063
0.47248825 0.13853982 1.7695211
-0.17799801 0.19310419 1.7858737
-0.1076276 0.18155792 1.7617466
-0.088064305 0.17345865 1.7665347
0.44895893 0.19277421 1.7927564
0.4545621 0.19579126 1.7786
0.7741518 0.17114709 1.7885118
0.81328315 0.16996156 1.7797464
-0.22837019 0.23269968 1.7701938
-0.17392278 0.22726293 1.7712141
-0.1070862 0.20167467 1.7513896
-0.090639077 0.21932547 1.7574553
-0.0063662757 0.22202364 1.780637
0.019073371 0.22838639 1.7630552
0.052785188 0.22790495 1.7588959
0.44324732 0.23372088 1.790935
0.45059675 0.21985385 1.7972513
0.43594301 0.27512655 1.781866
0.42202231 0.31953207 1.7652687
-1.0551698 0.78161365 1.758123
-1.0316052 0.77949589 1.7796581
-1.0586003 0.82437849 1.7568358
-1.0320561 0.82631743 1.7821316
-1.0586463 0.87377948 1.7573993
-1.0302154 0.87456381 1.7838067
-1.0590996 0.92497498 1.7608514
-1.032418 0.92329371 1.7842481
-1.059881 0.97251344 1.7609197
-1.0349754 0.97396493 1.7851048
-1.0575433 1.0311426 1.7599214
-1.0353726 1.0212516 1.7836955
-1.0603267 1.0765513 1.7589704
-1.0359956 1.0713156 1.784481
-1.0570209 1.1220438 1.7632517
-1.0347222 1.1249557 1.7867622
-1.0599891 1.1741663 1.7598444
-1.0374619 1.1776665 1.7840351
-1.0633373 1.2276013 1.7585695
-1.0340545 1.2230588 1.7859073
-1.0608186 1.2754366 1.7599636
-1.0377733 1.2749516 1.7840935
-1.05832 1.3243487 1.7613575
-1.0369645 1.3250855 1.7855195
-1.0634903 1.3768117 1.760051
-1.0360975 1.3748311 1.7859236
-1.0602161 1.4229659 1.7620608
-1.0396274 1.4248626 1.7865798
-1.0581064 1.472629 1.7675363
-1.0383489 1.4750663 1.789668
-1.0636727 1.5217696 1.7694486
-1.0386829 1.5321621 1.7904797
-1.0650337 1.5762118 1.7694371
-1.0421131 1.5742104 1.7915983
-1.0754416 1.6097586 1.760603
-1.0441693 1.6046301 1.7871094
-0.051316347 -0.50006694 1.8274776
-0.038071483 -0.502271 1.8357477
0.011084162 -0.50371218 1.8073349
-0.51301378 -0.49680176 1.8388516
-0.47273651 -0.49320355 1.8322321
-0.42487937 -0.49039307 1.822065
0.02307841 -0.49415052 1.8262671
0.076297216 -0.49226525 1.8183531
0.11901052 -0.48873255 1.837998
0.23238325 -0.49223241 1.8168281
0.26888609 -0.4955194 1.8269116
0.32413882 -0.49627092 1.8346757
0.37960401 -0.49612859 1.8269631
0.40813041 -0.49235407 1.8395596
0.4846355 -0.4887121 1.8340994
0.52525932 -0.48924971 1.8237667
0.57735795 -0.48724496 1.8231952
0.62291121 -0.48431388 1.82327
0.66712636 -0.48262584 1.8185438
0.72574228 -0.48271957 1.8261324
0.76090032 -0.47974008 1.817891
0.82556593 -0.48047629 1.8197867
0.88210088 -0.47772571 1.8180453
0.93643296 -0.47398761 1.820766
0.98015094 -0.47639418 1.826684
1.0116396 -0.47230923 1.8425628
1.0922592 -0.46958551 1.8450159
1.1124955 -0.46689177 1.8222765
1.2422583 -0.47719976 1.8097249
1.2652004 -0.47692296 1.8237116
1.318471 -0.48583049 1.8266701
1.3799754 -0.485021 1.829875
1.4253073 -0.48548424 1.8248715
1.4885466 -0.48749638 1.8372998
1.5292066 -0.48831055 1.8140503
1.5878416 -0.49076119 1.8324891
1.6092504 -0.48852071 1.8263602
1.6722929 -0.487647 1.8465043
1.7219883 -0.48674378 1.820541
1.7748493 -0.49125069 1.8188572
1.8303784 -0.4852674 1.8213748
1.8554631 -0.47982019 1.803589
0.1278522 -0.44391772 1.8428323
1.8887815 -0.41913465 1.8409299
1.8921634 -0.37340206 1.8398952
0.69090283 -0.32336089 1.8341508
0.70818835 -0.32529917 1.8125185
-1.0703319 -0.21236603 1.8105872
-1.0317154 -0.22903758 1.8473155
-1.0789915 -0.19285384 1.8062086
0.71746218 -0.10269216 1.8220059
0.68548226 -0.084912367 1.8241838
0.72083199 -0.092882589 1.8166231
-1.0730615 0.048550531 1.8169355
-1.0100601 0.033595681 1.8129821
-0.98777032 0.026830435 1.8344955
-0.15966852 0.022802424 1.8171301
-0.14146642 0.01152316 1.8031226
-0.15342896 0.056234084 1.8075383
-0.13602462 0.060522925 1.8070575
0.49798793 0.063156433 1.844808
0.47617191 0.12380429 1.8267002
0.52101958 0.14317797 1.8226429
-0.21315812 0.18648452 1.8387513
-0.1912149 0.18466437 1.8305769
-0.069802269 0.16854748 1.8148282
-0.04196265 0.17245458 1.8479019
0.0022530518 0.19487435 1.8497247
0.73961782 0.17227018 1.8120486
0.78052145 0.17004496 1.8195534
0.80699372 0.17397912 1.8121792
-0.20511363 0.23073207 1.8194133
-0.1872253 0.22282179 1.8235734
0.021091012 0.2272525 1.8327055
0.072019048 0.22670157 1.8171901
0.10875446 0.22190265 1.8494718
0.45461071 0.21635342 1.8044256
-1.0136435 0.78625107 1.8203847
-1.0079668 0.82639885 1.8218374
-1.0054617 0.8744576 1.8189154
-0.99686468 0.88677996 1.8355496
-1.0074719 0.92332399 1.8104961
-0.99207675 0.92984366 1.8267424
-1.0106512 0.97755176 1.8081058
-0.9901281 0.97936565 1.8293948
-1.0105667 1.0287747 1.8096008
-0.98625743 1.023993 1.8297086
-1.0119267 1.080631 1.8102258
-0.98268318 1.0726122 1.8353741
-1.009236 1.1215073 1.8100747
-0.98365116 1.1254997 1.8355083
-1.0108718 1.1728669 1.8109726
-0.98622447 1.1743743 1.8320262
-1.0105577 1.2239304 1.8106586
-0.98388934 1.2272233 1.8352356
-1.012459 1.2723858 1.8102608
-0.98639071 1.2716329 1.8367882
-1.0113652 1.3239 1.8136064
-0.9855091 1.3211483 1.8371925
-1.0131282 1.3734094 1.8125302
-0.98658675 1.3766979 1.8389676
-1.0127227 1.4232062 1.8148053
-0.9882887 1.4240315 1.838228
-1.012333 1.4716151 1.8162909
-0.9903428 1.4724828 1.840036
-1.016289 1.5223061 1.8203092
-0.99340785 1.5242051 1.8449271
-1.0186208 1.577022 1.8204731
-0.99704981 1.5680928 1.8438245
-1.0225439 1.6265483 1.8236319
-0.9992578 1.6043743 1.843829
-0.065515988 -0.5058412 1.8764915
-0.043185152 -0.50040656 1.8637638
-0.52429599 -0.49597621 1.8815154
-0.034249403 -0.49820691 1.8736628
0.033208273 -0.49255833 1.8630469
0.078770719 -0.49217987 1.8801241
0.11882359 -0.47867006 1.865617
0.23663966 -0.49302396 1.8745481
0.27564338 -0.49138859 1.8725147
0.32285324 -0.49086857 1.8658131
0.37433165 -0.49381763 1.8739296
0.40911329 -0.48992249 1.8673619
0.47940803 -0.48617491 1.8720398
0.52706945 -0.48702732 1.8746517
0.57075977 -0.4825041 1.8723766
0.63011426 -0.4838469 1.8718392
0.67359 -0.4819966 1.8617407
0.7284109 -0.48380515 1.8833362
0.7784183 -0.48482224 1.8880482
0.8248449 -0.48547652 1.8768877
0.87049395 -0.48048693 1.8720953
0.93344343 -0.47752196 1.8733439
0.97429836 -0.47576466 1.8736856
1.0254178 -0.47338313 1.8920484
1.1064841 -0.46557572 1.8709739
1.2408637 -0.47428995 1.8509293
1.3307247 -0.4863537 1.8661919
1.371474 -0.48263663 1.8828809
1.4155827 -0.48484352 1.8688629
1.4831086 -0.48557544 1.8792272
1.5266507 -0.48250389 1.8661301
1.5855625 -0.48764595 1.8741148
1.6309972 -0.49065518 1.8963957
1.6729199 -0.48844719 1.8766648
1.7149209 -0.47955337 1.8905009
1.7837801 -0.48275974 1.8850743
1.8241481 -0.48403138 1.8605481
1.8669634 -0.46313497 1.8648573
0.12363647 -0.42724499 1.8600782
1.8419847 -0.4098357 1.8835384
1.8673252 -0.42478475 1.8710122
1.841181 -0.39309448 1.897172
1.8733842 -0.37691256 1.8775618
0.67927843 -0.32774627 1.8719858
1.8526325 -0.34525517 1.8945785
1.907266 -0.34044442 1.8606081
-1.0212982 -0.23515913 1.8632054
0.68246615 -0.10237907 1.8701046
0.64959455 -0.083117947 1.8633426
0.67782307 -0.091309108 1.8669435
0.51669604 -0.027477967 1.8790684
-1.0177605 0.049032018 1.8641455
-0.98069733 0.031238252 1.8633041
-0.17166805 0.0089475419 1.8644398
0.51085258 0.02073922 1.8841604
0.49093744 0.084747382 1.8591876
0.50902313 0.055343352 1.88589
0.48121041 0.10849939 1.8513697
-0.31725514 0.18721651 1.890547
-0.27103576 0.18889174 1.8843575
-0.24067257 0.18484513 1.8583664
-0.019957617 0.17357519 1.8601249
0.01736092 0.18276389 1.8840398
-0.27564502 0.2005375 1.8902422
-0.22308198 0.22281693 1.8720665
-0.19036043 0.21952228 1.863168
0.024164453 0.21603274 1.8786669
0.076571703 0.22524025 1.8783648
0.10626855 0.22146885 1.8842187
-1.0237867 0.80903906 1.8747801
-1.003966 0.88188577 1.8733213
-0.99223787 0.89160043 1.8573754
-0.99050802 0.9294548 1.8624828
-0.97911614 0.97403538 1.8600273
-0.97108382 1.0272795 1.8743485
-0.9601804 1.0750375 1.8638699
-0.94155967 1.0840111 1.886988
-0.95888108 1.131879 1.8591293
-0.93714237 1.1241943 1.8833543
-0.96015149 1.1776297 1.8603694
-0.93284386 1.1722593 1.8847867
-0.96229064 1.2250644 1.858824
-0.93317401 1.2240282 1.8850785
-0.95976937 1.278939 1.8623474
-0.93809485 1.2735435 1.884758
-0.95824349 1.3276607 1.8634255
-0.93501729 1.3202718 1.88501
-0.96254158 1.3707386 1.8638651
-0.93766975 1.3799915 1.8895874
-0.96626854 1.4259672 1.8633885
-0.94191349 1.4268707 1.8877574
-0.96633351 1.4712945 1.8689616
-0.94135493 1.4791712 1.8897212
-0.97166848 1.5254207 1.8716646
-0.94165426 1.5167209 1.8956504
-0.97369981 1.5731105 1.8685665
-0.94646513 1.5694444 1.8947585
-0.97337025 1.6225332 1.8731545
-0.94933152 1.6078149 1.8976296
-0.97160721 1.6613122 1.8854148
-0.072689779 -0.50694931 1.9241464
-0.044664189 -0.50813669 1.929263
-0.54317451 -0.49762556 1.9143966
0.03666918 -0.49229106 1.9188093
0.073238432 -0.49067482 1.9208505
0.10844487 -0.48960868 1.9192244
0.24081635 -0.48615575 1.9102859
0.27875701 -0.48818025 1.9214648
0.32614154 -0.48814437 1.9210616
0.37266442 -0.48879275 1.9265134
0.41871744 -0.48964572 1.9264109
0.48489115 -0.48714906 1.9230303
0.52250582 -0.48645505 1.9203221
0.57690275 -0.47819132 1.9203539
0.62360752 -0.4726578 1.9188404
0.67688686 -0.48293972 1.9219064
0.71887428 -0.48453194 1.9300897
0.77795458 -0.48693904 1.9425559
0.82605737 -0.48625383 1.9319745
0.87564456 -0.48128176 1.9247468
0.92051744 -0.4798587 1.9223747
0.96604466 -0.47395289 1.9176054
1.0200055 -0.47448787 1.916809
1.4243256 -0.48251194 1.9143865
1.4640332 -0.48658025 1.9137425
1.5111082 -0.48528177 1.9447027
1.5867474 -0.48146585 1.9438815
1.6228093 -0.48535648 1.943635
1.6724234 -0.485293 1.9233147
1.7127643 -0.48111337 1.9293082
0.60312814 -0.42938852 1.9389933
1.840443 -0.36191866 1.9092894
0.64094228 -0.32397294 1.9415864
0.66103786 -0.33038631 1.9154383
1.8311535 -0.3465037 1.9244932
1.8625923 -0.33511719 1.9066117
0.51311034 0.0093553457 1.9015952
0.50909895 0.056370124 1.922611
-0.27868351 0.17513131 1.9131677
0.042259533 0.17569913 1.9072844
0.073046245 0.18044423 1.9299808
0.12568091 0.18195982 1.930704
-0.26720047 0.21893995 1.9114424
-0.24010897 0.2184383 1.9219215
0.044382919 0.20846681 1.9083773
0.07325682 0.21272179 1.9233994
0.10370425 0.2211839 1.9213417
-0.95486802 1.0656019 1.9014544
-0.92327416 1.0986966 1.9008811
-0.911964 1.1287509 1.9151514
-0.89142382 1.1399579 1.9288723
-0.90998423 1.1755819 1.9113275
-0.88680005 1.1777254 1.935295
-0.90771163 1.2207903 1.9091824
-0.88395071 1.2253505 1.9359504
-0.91253459 1.2778218 1.9105084
-0.88403243 1.273446 1.9343021
-0.91236109 1.3256348 1.908703
-0.88725984 1.3274988 1.9335314
-0.91420835 1.3712572 1.9109198
-0.89198411 1.3758743 1.9293178
-0.91685933 1.4268143 1.9150082
-0.89272434 1.4247823 1.9393853
-0.91593587 1.474124 1.9182003
-0.89459306 1.4751697 1.9411725
-0.91791075 1.5257581 1.9192685
-0.89256477 1.5207201 1.9476224
-0.92224896 1.5766524 1.9196261
-0.89876711 1.5550171 1.945112
-0.92644125 1.6200502 1.921122
-0.96682572 1.6768354 1.9180202
-0.93611985 1.6753341 1.9391624
-0.10307797 -0.51791543 1.9649422
-0.068091348 -0.50887275 1.9697167
-0.040649913 -0.50715619 1.9635926
0.040904131 -0.49507719 1.9752254
0.070015267 -0.49486679 1.9838567
0.27622667 -0.49071857 1.9768677
0.32196456 -0.48982579 1.9733632
0.38362026 -0.48862046 1.9859545
0.41330731 -0.48894754 1.9833177
0.49222347 -0.48468643 1.9748127
0.52302402 -0.48934293 1.974606
0.59314722 -0.48628271 1.9845471
0.62097675 -0.46582198 1.9726275
0.67306858 -0.48777005 1.9733719
0.73193794 -0.48473006 1.9730136
0.7740984 -0.48351541 1.9670578
0.82181865 -0.48208278 1.9643624
0.88220716 -0.4838742 1.9768325
0.92655647 -0.47714764 1.9722259
0.9761858 -0.47719088 1.970587
1.0220182 -0.47159892 1.9765089
1.3807617 -0.4846136 1.9516788
1.4206381 -0.48457828 1.9724646
1.4729296 -0.48389608 1.9600848
1.5254768 -0.48212141 1.987591
1.5786937 -0.47950587 1.9869061
1.6283669 -0.47677872 1.9810513
1.6730967 -0.47947213 1.9676232
1.7394458 -0.47832862 1.9731617
0.61090165 -0.42582291 1.9758189
0.60798717 -0.3572174 1.9999044
1.7442816 -0.37761253 1.9972098
1.7714676 -0.3692258 1.9840684
0.59108162 -0.32095259 1.9646225
0.62014014 -0.33185071 1.9647133
0.65667105 -0.34162468 1.955693
1.774422 -0.34876916 1.9906062
1.9813584 -0.32463536 1.9609315
0.58320779 -0.26090583 1.9850117
0.58002061 -0.22017252 1.989109
0.56673157 -0.16530411 1.9822525
0.09586224 0.18076549 1.9525186
0.11301185 0.18095417 1.957481
-0.2673192 0.21770014 1.9638963
0.096333131 0.21142852 1.9601686
0.11041018 0.21139403 1.9595509
-0.8619411 1.1739042 1.9633056
-0.83365703 1.179286 1.9891456
-0.8603673 1.2235855 1.9619175
-0.83820045 1.227284 1.9847257
-0.86080551 1.2734852 1.9632494
-0.83690339 1.2760011 1.9871382
-0.86056161 1.3279557 1.9667335
-0.83882415 1.3234605 1.9876169
-0.86525208 1.379015 1.9627476
-0.84194392 1.3679909 1.9860214
-0.8688854 1.4254558 1.9648956
-0.84068078 1.4270117 1.9910705
-0.87136883 1.4756237 1.9659545
-0.84464884 1.472176 1.9936925
-0.8689599 1.5251163 1.9760871
-0.8429749 1.5257527 1.9995543
-0.87481028 1.5775797 1.9709177
-0.84881097 1.5603321 1.9976748
-0.90350616 1.6264749 1.956507
-0.87726331 1.6278369 1.9815979
-0.90926397 1.6738294 1.9608793
-0.88409972 1.6768421 1.9871897
-0.90483475 1.7055137 1.9750636
-0.87690169 1.7112069 1.9937602
-0.750642 -0.50545025 2.0317173
-0.74186277 -0.5065043 2.0386035
-0.11553296 -0.52359104 2.0154309
-0.081596591 -0.51729137 2.0287168
-0.041621737 -0.50950193 2.0122712
-0.75672221 -0.49914426 2.049964
0.077790834 -0.49737209 2.037122
0.10613796 -0.49802932 2.0265069
0.27079198 -0.49075261 2.0071623
0.32607839 -0.49023393 2.0210316
0.37111565 -0.49011642 2.0207398
0.40035066 -0.4872447 2.0211096
0.52783018 -0.48822251 2.0280573
0.57168889 -0.49024922 2.0313077
0.62087417 -0.47648957 2.0269842
0.68224317 -0.48560828 2.0267613
0.72723722 -0.48834673 2.0282834
0.77530974 -0.48404789 2.0252686
0.82010955 -0.48772794 2.0298803
0.87483883 -0.48685414 2.0198019
0.90999812 -0.47955927 2.0149462
0.98065519 -0.47812089 2.0375197
1.0110226 -0.47742414 2.0232356
1.061318 -0.47262162 2.0362253
1.4300704 -0.48474082 2.0246935
1.477843 -0.48161405 2.0133877
1.5640087 -0.48251247 2.0400918
1.6273211 -0.47368017 2.0208378
1.6645617 -0.47582182 2.0098143
1.7145437 -0.48146516 2.0125225
0.63894463 -0.42249233 2.0407691
0.65865308 -0.44065672 2.0492017
0.61310965 -0.38527316 2.0136065
1.7224493 -0.37054214 2.0222516
0.6005103 -0.348717 2.0113251
1.7292223 -0.34741032 2.029959
1.7729779 -0.33993801 2.0249226
1.8732181 -0.32340187 2.0359139
1.9209626 -0.32725492 2.0401745
1.9907554 -0.31765625 2.0193701
0.58740085 -0.24774012 2.0124867
0.58064663 -0.18769526 2.0114794
-0.81185418 1.1859368 2.0190673
-0.79333317 1.1918592 2.036211
-0.8149811 1.2204545 2.0087264
-0.78811812 1.2245977 2.0352409
-0.81524652 1.2763594 2.0103967
-0.78839988 1.2738616 2.0382948
-0.81355447 1.3267719 2.0153787
-0.78907496 1.3243506 2.0406225
-0.81606168 1.3750888 2.0173299
-0.79264766 1.3811245 2.0448921
-0.81608814 1.4203508 2.0209367
-0.79437423 1.4301242 2.0418212
-0.82090026 1.4743263 2.0210576
-0.79531914 1.4780409 2.0453432
-0.82413423 1.5287137 2.0242677
-0.8538537 1.5816818 2.0014572
-0.82424539 1.5789407 2.0256376
-0.79946798 1.5813596 2.0456157
-0.85225916 1.6319414 2.00982
-0.82551098 1.6197231 2.0244682
-0.86506444 1.6754469 2.006417
-0.83907372 1.6763241 2.0305045
-0.85726416 1.7153312 2.0198162
-0.83984196 1.7179465 2.0297122
-0.77400804 -0.50362009 2.0656171
-0.72068864 -0.50527984 2.0703471
-0.69723612 -0.50646871 2.0731597
-0.12343804 -0.5290423 2.0664759
-0.042871661 -0.51507545 2.0758471
0.063271515 -0.50576669 2.0804057
0.10272295 -0.50081623 2.05898
0.28382936 -0.50103348 2.0925462
-0.76587147 -0.47560945 2.0819144
-0.74382168 -0.49750507 2.0786829
0.11449585 -0.49844062 2.0923011
0.32954425 -0.49136409 2.0740314
0.36872709 -0.48813441 2.0737193
0.54014546 -0.48572618 2.0847433
0.56831855 -0.48627761 2.0821047
0.61804867 -0.48604181 2.0713835
0.68853474 -0.48378411 2.0787439
0.72119159 -0.48640522 2.0749285
0.77662361 -0.48696828 2.0787559
0.82569838 -0.48519453 2.0672438
0.87724024 -0.48496249 2.0738072
0.92572212 -0.48275533 2.0786932
0.96447408 -0.47954464 2.0723338
1.0072393 -0.47502407 2.0683837
1.512961 -0.48698905 2.0981581
-0.76677072 -0.44366357 2.0790973
1.7276089 -0.33943382 2.0524242
1.9339819 -0.3188841 2.0795443
1.9527425 -0.31774148 2.0516946
2.0015924 -0.30856797 2.0561135
2.0792587 -0.30758473 2.0871201
2.118016 -0.27368936 2.0903189
2.1282215 -0.23291314 2.0947623
2.1530557 -0.20055957 2.0969975
-0.76930732 1.192733 2.0584826
-0.74939287 1.1971722 2.0726941
-0.76235354 1.2248256 2.0621886
-0.74200267 1.2365633 2.0898547
-0.76169109 1.2786669 2.0667393
-0.74305058 1.2723231 2.0857768
-0.76355875 1.3241175 2.0662553
-0.74718142 1.3307781 2.090395
-0.76863474 1.3737193 2.0632467
-0.74905002 1.3693684 2.0774086
-0.76916414 1.4214983 2.0687978
-0.74876148 1.420498 2.09709
-0.77148634 1.474286 2.0762656
-0.80250335 1.5094459 2.0528798
-0.77991885 1.5280819 2.0731444
-0.77712208 1.5733268 2.073976
-0.78019893 1.6197642 2.0751021
-0.81309325 1.6705624 2.0649679
-0.78848028 1.6791515 2.0850842
-0.81710064 1.7247643 2.0631814
-0.78708667 1.7203536 2.0900688
-0.80948341 1.7530715 2.0745389
-0.79171437 1.7558662 2.0841656
-0.15840985 -0.54014778 2.1296992
-0.12528291 -0.53421998 2.1291838
-0.073679544 -0.52719301 2.1386998
-0.038910318 -0.51931643 2.1365554
0.082843497 -0.50148624 2.1151633
0.10469502 -0.50022209 2.100132
0.3048341 -0.50009084 2.1323209
-0.75310731 -0.47354883 2.1092949
-0.72209078 -0.47810259 2.1274493
-0.69521117 -0.4669421 2.1444495
0.085351363 -0.49627146 2.1291749
0.11097531 -0.49528253 2.1241426
0.29362309 -0.49874845 2.127568
0.33947831 -0.49224669 2.1182742
0.53774613 -0.49266574 2.1327202
0.58749306 -0.49520764 2.1186919
0.62238818 -0.4900609 2.1284692
0.73648435 -0.48632056 2.1350782
0.77339375 -0.487701 2.1351528
0.82589817 -0.48319224 2.1258454
0.87431651 -0.48435578 2.1206107
0.92052996 -0.48466671 2.1314931
0.97213143 -0.48000535 2.1287053
1.0303319 -0.47488189 2.117682
1.5083199 -0.4893496 2.1151426
1.5813701 -0.47298026 2.1254616
-0.77645057 -0.43899894 2.1039608
-0.71308208 -0.44366083 2.1437266
1.8884878 -0.32100302 2.1377606
1.9031415 -0.32019794 2.1179852
1.9767091 -0.30802691 2.1326723
2.0259914 -0.3042267 2.1443877
2.0673428 -0.30439806 2.1128371
2.0781205 -0.27262959 2.1276872
2.1091776 -0.25728926 2.1067293
2.0859275 -0.22284448 2.1389697
2.1163709 -0.21929532 2.1148119
2.0948439 -0.17341398 2.1413136
2.1227822 -0.17641681 2.1190774
2.0947654 -0.1465895 2.1429551
2.1296582 -0.131927 2.1359241
2.1468191 -0.080334872 2.1418202
2.1653204 -0.070308492 2.1350446
2.1409297 -0.026134379 2.1433616
2.1691446 -0.026193671 2.1332831
2.1459427 0.0077007078 2.1484454
2.1671872 0.0054786592 2.1356885
-0.72193491 1.2299756 2.1287408
-0.71891701 1.2740328 2.1300762
-0.69425851 1.2885169 2.1493435
-0.72481722 1.3268085 2.1257119
-0.75298846 1.3924935 2.1282213
-0.72397041 1.3733088 2.1301665
-0.72918093 1.4277875 2.1262238
-0.75244457 1.4871804 2.1245978
-0.72700483 1.4774716 2.1392379
-0.75798148 1.5267601 2.1061118
-0.72981513 1.5237583 2.1355934
-0.73471367 1.5756719 2.1397915
