ply
format ascii 1.0
comment PCL generated
element vertex 1460
property float x
property float y
property float z
element camera 0
property float view_px
property float view_py
property float view_pz
property float x_axisx
property float x_axisy
property float x_axisz
property float y_axisx
property float y_axisy
property float y_axisz
property float z_axisx
property float z_axisy
property float z_axisz
property float focal
property float scalex
property float scaley
property float centerx
property float centery
property int viewportx
property int viewporty
property float k1
property float k2
end_header
-0.47552875 -0.49461976 1.1733373
-0.42512935 -0.49623218 1.1728659
-0.37640393 -0.49711978 1.1750542
-0.3275044 -0.49621564 1.1745254
-0.27473328 -0.49573705 1.1755248
-0.2268445 -0.49487647 1.1766483
-0.17742881 -0.49360847 1.1722583
-0.12397825 -0.49265072 1.1724883
-0.07337679 -0.49145001 1.1758789
-0.024583898 -0.49014664 1.1746318
0.023214677 -0.4891341 1.1731386
0.075779885 -0.48881868 1.1784056
0.12430144 -0.48712665 1.1763954
0.17445262 -0.48722881 1.1728096
0.22389179 -0.48445731 1.1746107
0.27320787 -0.48514205 1.1771381
0.32346436 -0.48337531 1.1720213
0.37629464 -0.48118711 1.1712294
0.425201 -0.47978437 1.1737962
0.47569221 -0.47921032 1.1759478
0.52827501 -0.47514215 1.1737088
0.58209425 -0.47557616 1.1807296
0.62381256 -0.4725478 1.1692191
0.67376113 -0.4703294 1.1772391
0.7231546 -0.46866268 1.176792
0.77178997 -0.46718627 1.17458
0.82366657 -0.46544948 1.173722
0.87019503 -0.46427548 1.1754819
0.92369443 -0.46356651 1.1735815
0.9685241 -0.46124825 1.1682645
1.0251131 -0.46149874 1.1743317
1.0784531 -0.4612093 1.173738
1.1246439 -0.46126011 1.1712532
1.1765079 -0.46090508 1.1776861
1.222566 -0.45658118 1.1714193
1.2730899 -0.45653084 1.1731545
1.3207542 -0.45361286 1.1749588
1.3686525 -0.4541212 1.1755292
1.4279127 -0.45466384 1.1804689
1.4589303 -0.45323601 1.1933924
1.501954 -0.45317072 1.1523901
-0.6348809 -0.42343929 1.1612116
1.3662797 -0.44845325 1.1562607
1.4749973 -0.44717875 1.1745102
-0.63955843 -0.36750671 1.1647569
-0.63881034 -0.3283135 1.1629438
-0.63339907 -0.29573771 1.1536745
-0.6588791 -0.47256091 1.2310842
-0.62467879 -0.4770022 1.2243172
-0.57567304 -0.48262918 1.224555
-0.52647251 -0.48860711 1.225798
-0.47503278 -0.49125871 1.2222359
-0.42351818 -0.4936626 1.2239459
-0.37291199 -0.49388769 1.225209
-0.32514286 -0.49415505 1.2250514
-0.27318028 -0.49333903 1.2271627
-0.22377139 -0.49285254 1.2284933
-0.17390992 -0.49226332 1.2195777
-0.12447923 -0.49098483 1.2205806
-0.07678508 -0.49007618 1.2240983
-0.027264897 -0.48934039 1.2270948
0.024715547 -0.48837513 1.2266543
0.074341021 -0.48815885 1.2273755
0.12753235 -0.48754269 1.225113
0.17572196 -0.48713467 1.22305
0.22735111 -0.48627239 1.226141
0.27573064 -0.48703393 1.2243464
0.32561329 -0.48759881 1.2239392
0.37398133 -0.48469898 1.2231272
0.42287126 -0.48364347 1.2283815
0.47690275 -0.48294032 1.2278309
0.52476847 -0.47936854 1.2208792
0.57309121 -0.47676319 1.2220401
0.62554437 -0.47604978 1.2236614
0.66759342 -0.47288227 1.2232556
0.72131479 -0.47126645 1.2283589
0.77620929 -0.46998999 1.2271321
0.82005495 -0.46811593 1.2231385
0.87366313 -0.46675545 1.2206897
0.92170006 -0.46597147 1.2279261
0.97574025 -0.46524498 1.2221198
1.0306786 -0.46441755 1.2211617
1.0732543 -0.46243933 1.221297
1.1359662 -0.46355075 1.233276
1.167047 -0.46251351 1.2276076
1.2296422 -0.45911947 1.2207922
1.2735384 -0.45828608 1.2224985
1.3219692 -0.45572045 1.2236521
1.3779404 -0.45441994 1.2362525
1.4252728 -0.4549301 1.2265404
1.4665225 -0.45259109 1.2085342
1.5056423 -0.45141131 1.2447194
1.3794771 -0.44996294 1.2001613
1.4635304 -0.44873309 1.2151421
-0.70201993 -0.45725769 1.2984563
-0.6668762 -0.47310573 1.2755727
-0.62352622 -0.47591326 1.2735299
-0.57322669 -0.48097551 1.2773592
-0.52347028 -0.48550817 1.2718875
-0.47319657 -0.48880273 1.2721573
-0.42363173 -0.49063212 1.2733531
-0.37345868 -0.49108163 1.275763
-0.3228353 -0.49062982 1.2783601
-0.27658588 -0.49028778 1.2741238
-0.22442327 -0.48961049 1.2754662
-0.1735847 -0.48915276 1.2719519
-0.1255355 -0.48860908 1.2727141
-0.078084588 -0.48851535 1.2715917
-0.023596302 -0.48778671 1.2763014
0.024727687 -0.48789468 1.2779127
0.071647108 -0.48758999 1.2785094
0.12287643 -0.48798105 1.2729293
0.17669852 -0.48808247 1.2763566
0.22371915 -0.48716685 1.2732217
0.27372539 -0.48850626 1.2725855
0.32523927 -0.49097034 1.2756169
0.37739202 -0.48837465 1.2724562
0.42735022 -0.48544055 1.2767609
0.47262463 -0.48563993 1.2725543
0.52313364 -0.48397893 1.2723207
0.57313037 -0.48197949 1.2787665
0.62065071 -0.47920468 1.2745513
0.68125314 -0.47782835 1.2746487
0.72619647 -0.47337934 1.2704425
0.77822655 -0.47283775 1.2765007
0.826832 -0.47054383 1.2684816
0.87998796 -0.47129717 1.2751082
0.92715997 -0.46905458 1.2722263
0.97384822 -0.46972772 1.2761724
1.0245513 -0.46651575 1.2728722
1.0747911 -0.4671171 1.2857783
1.1252611 -0.46852985 1.2737935
1.1808629 -0.46415854 1.2795336
1.2251217 -0.46586892 1.2652031
1.2747571 -0.46518725 1.2821586
1.3242338 -0.46084428 1.2813336
1.3547771 -0.45578405 1.2553171
1.4217486 -0.45777237 1.280562
1.4710468 -0.45502019 1.2771295
-0.70959759 -0.46514609 1.3342153
-0.67385721 -0.47186986 1.325781
-0.62323612 -0.47695413 1.3234961
-0.57368374 -0.47920156 1.3249133
-0.52492112 -0.48361778 1.3242627
-0.47628397 -0.48605934 1.323489
-0.42555118 -0.48694178 1.3231492
-0.37641194 -0.48714456 1.3233814
-0.32656124 -0.4863669 1.3242784
-0.27515408 -0.4873625 1.3238426
-0.22506237 -0.48597685 1.3236692
-0.17579965 -0.48493779 1.3261003
-0.12440273 -0.48547244 1.3266544
-0.074143946 -0.48525673 1.3242866
-0.026971143 -0.48590207 1.3224585
0.024285998 -0.48660836 1.3232635
0.077934101 -0.48734018 1.3242955
0.12476227 -0.48728865 1.324054
0.17430112 -0.48913988 1.3254369
0.22692794 -0.48755997 1.3266106
0.2588186 -0.48952356 1.3312781
0.33008683 -0.49387458 1.320377
0.37575617 -0.49253422 1.3242913
0.42500806 -0.48875147 1.32291
0.4744814 -0.48789221 1.3232652
0.52713227 -0.48949262 1.3245442
0.57482356 -0.48553064 1.3255135
0.6236468 -0.48113108 1.3192747
0.67847389 -0.48342928 1.3273292
0.72452098 -0.47890884 1.3206228
0.77532667 -0.47707555 1.3249201
0.8309828 -0.47802961 1.3293509
0.87845457 -0.47498894 1.3239719
0.92078292 -0.47372213 1.327677
0.97163105 -0.47291067 1.3274747
1.0209591 -0.47239572 1.3231893
1.0685954 -0.47141957 1.32706
1.1242242 -0.46995765 1.324419
1.1788352 -0.46919408 1.3195528
1.2293541 -0.46736947 1.3219252
1.2773317 -0.46493286 1.3151137
1.3317494 -0.46545163 1.318431
1.3833312 -0.46404487 1.3248326
1.4184325 -0.4594796 1.3196844
0.32469425 -0.50532502 1.3869791
-0.72457856 -0.46674496 1.3773552
-0.67195415 -0.47393006 1.3796229
-0.62421453 -0.47807685 1.3769774
-0.57771361 -0.47989449 1.3672533
-0.52811414 -0.480436 1.3761566
-0.47665039 -0.48197606 1.3751148
-0.42233321 -0.4841457 1.377275
-0.37411639 -0.48477763 1.3717598
-0.32407597 -0.48397249 1.3728178
-0.27572715 -0.48357651 1.3743154
-0.22483094 -0.48294216 1.3767222
-0.17457442 -0.48173642 1.372468
-0.12437008 -0.48205367 1.3768582
-0.071805201 -0.48315838 1.3753221
-0.025566218 -0.48254365 1.3745769
0.024535973 -0.4836148 1.3718998
0.075852111 -0.48491198 1.3702691
0.12773015 -0.48757732 1.3745414
0.17698926 -0.48964155 1.3764566
0.22581609 -0.48849374 1.3768721
0.26253265 -0.48887035 1.3769268
0.3362574 -0.49617475 1.3686559
0.37226227 -0.49610999 1.3740548
0.42456907 -0.49137142 1.3702655
0.47445282 -0.49018621 1.3798361
0.5226025 -0.49315232 1.3745162
0.58009511 -0.48963049 1.3770905
0.62482876 -0.48327771 1.3677788
0.67251879 -0.48647636 1.3723834
0.72746354 -0.48481005 1.3711547
0.76844347 -0.47944477 1.3729671
0.82816225 -0.48137093 1.3784212
0.87246507 -0.4818792 1.3819593
0.92131388 -0.48038262 1.3797929
0.96694142 -0.47982603 1.382214
1.0287627 -0.47866032 1.3774558
1.0731846 -0.47443101 1.3683033
1.123929 -0.47557354 1.3846821
1.1801656 -0.47464624 1.3793807
1.2226274 -0.47148722 1.3782232
1.2761247 -0.47249037 1.3705798
1.3274863 -0.4680315 1.3748342
1.3787684 -0.4715763 1.3830551
1.42373 -0.46551013 1.3759178
0.2845417 -0.50178099 1.404844
0.32913652 -0.50326222 1.4381778
0.37640825 -0.50232947 1.4269241
0.42512497 -0.50042677 1.4460138
-0.76156777 -0.46171138 1.4328728
-0.72311401 -0.47309479 1.4276757
-0.67395508 -0.47663799 1.4278903
-0.62631965 -0.47730923 1.4237885
-0.57413703 -0.47971264 1.4216582
-0.52380323 -0.48001471 1.4316134
-0.47514406 -0.4824006 1.4261626
-0.4282479 -0.48125574 1.425993
-0.37394214 -0.48152041 1.4206662
-0.32507613 -0.48232606 1.4232017
-0.2754001 -0.48009253 1.4252226
-0.22646278 -0.47993141 1.4223825
-0.17549522 -0.48038483 1.4239527
-0.12644611 -0.47936735 1.424475
-0.076395594 -0.47917867 1.4228404
-0.027803237 -0.48013479 1.4265544
0.022914825 -0.4804779 1.4219918
0.072522789 -0.48464045 1.4211738
0.12234282 -0.48769826 1.4230007
0.17002676 -0.48861191 1.4181832
0.22540943 -0.48862156 1.4217707
0.27717906 -0.49077231 1.4243234
0.32852057 -0.49780047 1.4242393
0.39554074 -0.49835476 1.4217418
0.42494074 -0.49614111 1.4196401
0.47005969 -0.49217278 1.425333
0.52369958 -0.49559247 1.4188502
0.59928489 -0.49890462 1.4480904
0.62549216 -0.48856828 1.4179857
0.66646743 -0.48630229 1.4206039
0.73407096 -0.49123266 1.4125328
0.77795345 -0.48738739 1.4297118
0.82630521 -0.48516673 1.4220383
0.88711691 -0.48569775 1.4210696
0.93102849 -0.48693526 1.4311351
0.97556174 -0.48233393 1.4318993
1.0201647 -0.48155603 1.412769
1.0854374 -0.48084906 1.4233654
1.1241301 -0.48099732 1.4290018
1.1740869 -0.47858945 1.4256016
1.2411201 -0.48104709 1.4333012
1.2938179 -0.47734451 1.4308523
1.3248314 -0.47252053 1.4302647
1.3679559 -0.4712463 1.4289875
1.4310995 -0.4693971 1.4185764
1.4688308 -0.46779543 1.4324054
0.3326686 -0.50621665 1.4773662
0.37013388 -0.50291425 1.4681096
0.42394194 -0.50283015 1.4700394
0.52586359 -0.50136805 1.4504672
-0.76171285 -0.4746663 1.4812235
-0.71911907 -0.47410843 1.4812514
-0.67497122 -0.47347409 1.4755371
-0.62346721 -0.4756332 1.4679884
-0.57710147 -0.47406977 1.4735174
-0.52585429 -0.47623086 1.473882
-0.47562242 -0.47876945 1.472537
-0.42444539 -0.4788467 1.469462
-0.37636647 -0.47935772 1.4705871
-0.32494694 -0.4788183 1.4719791
-0.27420068 -0.47799098 1.4764786
-0.22507781 -0.47744966 1.4732523
-0.17425966 -0.47618032 1.4739457
-0.12262081 -0.47655651 1.4756215
-0.075559951 -0.47733212 1.4732754
-0.025447514 -0.47874817 1.4747516
0.02370034 -0.47981024 1.4749064
0.076798692 -0.48504153 1.4771777
0.12707621 -0.48828399 1.4776245
0.17543633 -0.4899511 1.4722738
0.22317789 -0.49018228 1.4760443
0.27264589 -0.48987481 1.4744499
0.3124648 -0.49429712 1.4653153
0.43402818 -0.4983733 1.4793094
0.47621116 -0.49464196 1.4715375
0.50799084 -0.49586987 1.4718503
0.63370502 -0.49334994 1.466653
0.67129534 -0.49143422 1.4786111
0.78312641 -0.49320173 1.4687196
0.82659847 -0.48992634 1.4758295
0.87687021 -0.49292874 1.4778072
0.91724569 -0.49251047 1.4755714
0.97561616 -0.48640552 1.4790573
1.0182012 -0.48457885 1.4789246
1.076755 -0.49009308 1.4736874
1.1240399 -0.48161522 1.4641945
1.1795223 -0.48136368 1.4777369
1.225286 -0.48281148 1.4684287
1.2719312 -0.48331162 1.4737694
1.3294884 -0.4772152 1.4812173
1.3805742 -0.47272313 1.4793794
1.4272351 -0.47583207 1.4766594
1.4740503 -0.47866243 1.4907658
0.33401126 -0.50187153 1.5229597
0.36483413 -0.50867832 1.5265496
0.43449724 -0.50750118 1.5340952
0.46852803 -0.50375652 1.529323
0.55663872 -0.50336516 1.5291622
0.64024854 -0.50243121 1.5311846
0.66369212 -0.50101995 1.533988
0.77536708 -0.50120777 1.523505
0.80227274 -0.50298321 1.5387505
0.93586981 -0.50242388 1.5299034
0.95294213 -0.50056982 1.5320413
-0.82182419 -0.47591633 1.5448382
-0.76983112 -0.4738054 1.5246518
-0.72533411 -0.47580862 1.5401655
-0.66987282 -0.47018197 1.5281308
-0.63171399 -0.47348586 1.5181453
-0.57584673 -0.46902606 1.5164044
-0.52626842 -0.47361279 1.5227522
-0.47462443 -0.47640306 1.5239229
-0.42089391 -0.47587889 1.5198122
-0.37511292 -0.4759433 1.5180573
-0.32387367 -0.47490492 1.5254127
-0.27608451 -0.47414464 1.530045
-0.22380732 -0.47392559 1.5221465
-0.1772368 -0.474325 1.5241157
-0.12433122 -0.47293079 1.5217206
-0.07565631 -0.47380176 1.5238061
-0.023430169 -0.47601774 1.5205468
0.02451917 -0.47803658 1.529955
0.07378979 -0.48279214 1.5239592
0.12281284 -0.48731264 1.5306463
0.17718083 -0.48953804 1.5233728
0.22460498 -0.49234024 1.5230864
0.27537432 -0.48980486 1.5250149
0.31272936 -0.49649048 1.5211408
0.48469695 -0.49800402 1.5152612
0.52192825 -0.49631962 1.5283972
0.67741263 -0.49588403 1.5190648
0.71961743 -0.49694934 1.520388
0.77958977 -0.49648058 1.5234599
0.83154523 -0.49329534 1.5153714
0.87362134 -0.49206957 1.519745
0.92427528 -0.49511704 1.5169723
0.97511697 -0.49179986 1.5222117
1.0119734 -0.48474386 1.5112032
1.070906 -0.49199 1.522925
1.1163173 -0.49672562 1.5447079
1.1737316 -0.48458523 1.5229394
1.2190983 -0.48849544 1.5187232
1.251303 -0.48626044 1.5442948
1.3279244 -0.48148203 1.5148385
1.3766408 -0.47738591 1.5258359
1.4189676 -0.47472295 1.5140933
1.475924 -0.47589844 1.5314999
0.34235021 -0.50459075 1.5630853
0.37486508 -0.51091075 1.5769653
0.42471638 -0.5132544 1.586162
0.47062016 -0.50600624 1.5748291
0.51030266 -0.50205827 1.5860052
0.57175183 -0.50491428 1.5735137
0.62041825 -0.50763631 1.584602
0.66452277 -0.50517565 1.5734168
0.74258804 -0.50264412 1.5703188
0.77842879 -0.50468487 1.5812374
0.83083057 -0.50348151 1.576907
0.85208923 -0.50122362 1.5793164
0.94357097 -0.50294262 1.5823164
1.1220324 -0.50031912 1.5995815
-0.82419866 -0.47850093 1.5766125
-0.77577537 -0.47655913 1.5820743
-0.72694546 -0.47040859 1.5752065
-0.68902016 -0.46871415 1.5811857
-0.58445585 -0.47062868 1.5545446
-0.51893157 -0.47052696 1.5705618
-0.47080788 -0.47269395 1.569533
-0.42510164 -0.47132725 1.5723144
-0.37528175 -0.47148263 1.5726637
-0.32987839 -0.47190407 1.5770069
-0.27316925 -0.46935424 1.5778104
-0.22458011 -0.46853006 1.5757728
-0.17144707 -0.46930271 1.5720621
-0.12623742 -0.46803427 1.5736879
-0.072157688 -0.46988794 1.5721259
-0.026567478 -0.4741495 1.573136
0.025194211 -0.47608772 1.5763607
0.075646751 -0.48333579 1.5835539
0.12619323 -0.48922819 1.5756683
0.1721015 -0.49033552 1.573405
0.22709537 -0.4945522 1.5749874
0.27601579 -0.49221563 1.5805936
0.32142898 -0.49646717 1.5743856
0.53504181 -0.4966166 1.5763508
0.69076717 -0.49783516 1.5722419
0.71782225 -0.49615052 1.5719355
0.75695074 -0.49750066 1.5678819
0.81739342 -0.49892667 1.5505382
0.87400275 -0.49370506 1.5702504
0.93021971 -0.49684241 1.5824137
0.97976714 -0.49623242 1.5603715
1.0345914 -0.49387223 1.5692389
1.0740478 -0.4919858 1.572534
1.1166651 -0.49553677 1.5672965
1.1803191 -0.49446324 1.5678848
1.2348671 -0.48886001 1.5678267
1.2660488 -0.4862805 1.5827831
1.3777525 -0.49339074 1.5925295
1.4647448 -0.4769043 1.5761766
1.5071716 -0.4776397 1.5760026
0.33908895 -0.50339532 1.6289442
0.37417638 -0.5113405 1.627782
0.4265615 -0.51425159 1.6219853
0.47439915 -0.50748211 1.625296
0.51037967 -0.50405729 1.62236
0.58213985 -0.50581831 1.6307876
0.62337899 -0.50851601 1.6175653
0.67342949 -0.5077945 1.6187869
0.72400361 -0.50189996 1.6395773
0.78364027 -0.50356781 1.6290263
0.82144207 -0.50504798 1.6147052
0.87337506 -0.50505722 1.6208873
0.90860361 -0.50378388 1.6381471
0.98330945 -0.5029195 1.617981
1.0170684 -0.50261331 1.6230183
1.1628866 -0.50619334 1.6024789
1.2202667 -0.50384879 1.6487595
1.3916219 -0.5018971 1.6271725
-0.81551546 -0.48390931 1.6230961
-0.76807261 -0.47509974 1.6241628
-0.72338903 -0.46717033 1.6188982
-0.68109292 -0.46641183 1.608259
-0.51475227 -0.46759647 1.6167552
-0.47489807 -0.4664892 1.6130619
-0.42274475 -0.46591777 1.6181381
-0.37254572 -0.46311212 1.6178252
-0.32270783 -0.46546549 1.6227363
-0.28345117 -0.46568504 1.6156317
-0.2158868 -0.46741843 1.6075766
-0.18314242 -0.46472943 1.6009376
-0.11103734 -0.46389571 1.6170608
-0.070207179 -0.46816614 1.6189562
-0.021771554 -0.47001877 1.6221597
0.024188291 -0.47463015 1.6235001
0.076757789 -0.48266202 1.6365595
0.12980427 -0.48868269 1.6223825
0.17649229 -0.49134156 1.6206199
0.2267749 -0.49525356 1.6294686
0.27826962 -0.49177623 1.6288211
0.31823066 -0.49510622 1.6214306
0.53687322 -0.4977527 1.6096458
0.55924678 -0.49967444 1.6033573
0.73075414 -0.4973478 1.6260672
0.75653362 -0.49844536 1.6216211
0.92705566 -0.49509838 1.6203275
0.96203393 -0.49738628 1.6270213
1.02082 -0.49549758 1.611226
1.0732474 -0.49471051 1.6276805
1.1295896 -0.49654508 1.6217318
1.2223053 -0.49253607 1.609305
1.2662382 -0.48924533 1.6139956
1.3451509 -0.49212611 1.6092837
1.4167137 -0.49392661 1.6213839
1.4672602 -0.48652577 1.6189955
1.5211354 -0.47620782 1.6183271
1.5699871 -0.47519705 1.6371787
0.34360868 -0.501899 1.6524501
0.37946984 -0.51033741 1.6759343
0.42623097 -0.51640189 1.6736224
0.46990556 -0.5133341 1.6826407
0.52661401 -0.50529182 1.6694621
0.57274771 -0.50209999 1.6779597
0.62445706 -0.5105207 1.6724355
0.67004901 -0.51223534 1.6716095
0.71471375 -0.505871 1.6752487
0.78956962 -0.50122607 1.6733551
0.82864159 -0.51070905 1.6782604
0.87734187 -0.5104717 1.6728101
0.91297978 -0.50449592 1.6696113
0.97467566 -0.50262791 1.682901
1.0278919 -0.50557488 1.6710134
1.0524415 -0.50149834 1.6838148
1.1707579 -0.5030545 1.6737075
1.2415915 -0.50297618 1.6799511
1.3287207 -0.50053191 1.6636163
1.3692101 -0.50505006 1.6865587
1.4217997 -0.50812578 1.6938415
1.4558514 -0.50089848 1.6880692
-0.81004333 -0.48096484 1.6779447
-0.78222322 -0.47453251 1.6738826
-0.74694717 -0.46749568 1.6630268
-0.41072226 -0.46225494 1.655707
-0.31675661 -0.45772868 1.6529458
-0.058845185 -0.46286193 1.6600823
-0.035129804 -0.46816492 1.6727703
0.022889573 -0.46928135 1.6776659
0.07059025 -0.47732964 1.6655277
0.11932178 -0.48661721 1.6727952
0.17454642 -0.48860192 1.6695251
0.22523125 -0.49498481 1.681461
0.26813465 -0.49303812 1.6815921
0.32209048 -0.49438953 1.6747258
0.35215059 -0.49995458 1.6746029
0.5654664 -0.49912065 1.6788211
0.74412602 -0.49733272 1.6734496
0.76762742 -0.49684367 1.6818875
0.93215865 -0.49627236 1.6746136
0.96366602 -0.49562097 1.6852478
1.0695045 -0.49762049 1.6728634
1.1264565 -0.49479198 1.6712046
1.1759646 -0.49777097 1.6929104
1.2897036 -0.4919703 1.671654
1.3271042 -0.49577355 1.6757263
1.3612685 -0.49903214 1.6876372
1.4759922 -0.49333921 1.6708735
1.5201213 -0.4836196 1.6790218
1.5623425 -0.47922915 1.6681354
1.6423795 -0.47837153 1.6650643
0.37621427 -0.50501597 1.7279232
0.42481712 -0.51307362 1.7244669
0.47684243 -0.51004243 1.7294358
0.52400875 -0.50579202 1.725801
0.56817687 -0.50216693 1.7250775
0.62435949 -0.50721234 1.727693
0.67526221 -0.51062226 1.725293
0.72622913 -0.50860828 1.7312655
0.76696712 -0.50216293 1.7209671
0.83161104 -0.50717324 1.7266271
0.87259811 -0.50894952 1.7252294
0.92267257 -0.50473464 1.7250545
0.9950313 -0.50069827 1.7069314
1.02665 -0.50475955 1.7243983
1.0795933 -0.5041191 1.7260777
1.1350976 -0.50305247 1.7391919
1.2241534 -0.50636971 1.7187507
1.2722154 -0.51138991 1.7359029
1.3181245 -0.50359631 1.7388119
1.4263574 -0.507173 1.7237415
1.4548107 -0.50589347 1.7161002
-0.824251 -0.48244527 1.7242569
-0.056343216 -0.46766168 1.7088834
-0.019862799 -0.46802554 1.7148604
0.027472813 -0.46795702 1.7234631
0.07414984 -0.47469062 1.718109
0.12524901 -0.48387933 1.7226243
0.17416908 -0.4881255 1.7281556
0.22115515 -0.4935225 1.7202688
0.27205837 -0.4922494 1.7343979
0.32437354 -0.49429056 1.7317599
0.35146883 -0.49404725 1.7164799
0.58472502 -0.49745965 1.7299275
0.77961743 -0.49694982 1.7338312
0.81152582 -0.49565768 1.7438158
0.93833435 -0.49796519 1.7401669
0.97254503 -0.49611506 1.7270191
1.0968249 -0.49887255 1.7391242
1.1198641 -0.496326 1.7158765
1.1692685 -0.49550861 1.7336117
1.2059715 -0.49862215 1.7286463
1.3357857 -0.49654329 1.7277107
1.3774725 -0.49501196 1.7222077
1.4019974 -0.49339077 1.7430795
1.4674296 -0.49632984 1.7138858
1.5250498 -0.4892633 1.7245247
1.5809512 -0.48083609 1.7305717
1.6163033 -0.47368035 1.7275511
0.39051387 -0.50285834 1.7757926
0.4238925 -0.50744724 1.7717434
0.47721207 -0.5074237 1.7779908
0.52488858 -0.50263226 1.7741226
0.57094002 -0.50268126 1.7761739
0.62526661 -0.50297803 1.7644609
0.67285228 -0.50418317 1.7768512
0.7219494 -0.5063045 1.7718544
0.75658762 -0.50266457 1.7639261
0.84298545 -0.50354731 1.7651898
0.87933451 -0.50307661 1.7773467
0.92167443 -0.50415629 1.7729366
0.96035361 -0.50744712 1.7928945
1.0186492 -0.50060374 1.7827158
1.0715157 -0.50757128 1.7676939
1.1383976 -0.50341654 1.7866988
1.1515465 -0.50052398 1.7665923
1.2478023 -0.50579649 1.7909068
1.267494 -0.50877059 1.7737669
1.3167197 -0.50576174 1.7776297
1.4391081 -0.50091994 1.7590892
1.4821013 -0.50553685 1.7751794
1.5057132 -0.50220662 1.7813418
-0.83259028 -0.48220551 1.7742625
-0.0063730022 -0.46988171 1.7503798
0.021583591 -0.46434173 1.7675507
0.079260781 -0.47282323 1.7737877
0.12282682 -0.48238182 1.7772371
0.17307059 -0.48568216 1.7810268
0.2261913 -0.49132326 1.7712414
0.27350321 -0.49174023 1.7768482
0.32687598 -0.49255711 1.775642
0.36583734 -0.4979122 1.7782251
0.41206586 -0.49879202 1.7917038
0.52815408 -0.49567962 1.794629
0.57736242 -0.4945673 1.787225
0.61811978 -0.49608341 1.7710449
0.68165565 -0.49556899 1.7955043
0.73924959 -0.49724296 1.7860219
0.77907521 -0.49724844 1.7787781
0.82203388 -0.4934538 1.7842582
0.85466152 -0.49617553 1.7845664
0.93717021 -0.49574971 1.7947328
0.98140842 -0.49882925 1.7905793
1.02501 -0.49379107 1.7754048
1.0506501 -0.49976856 1.7649041
1.1443106 -0.49609658 1.7981087
1.1740052 -0.49396196 1.7727765
1.2137343 -0.49157318 1.7783667
1.3750564 -0.49607897 1.7749661
1.4238614 -0.49244109 1.7825985
1.464728 -0.49739775 1.7827938
1.5307206 -0.49442908 1.7667748
1.5830934 -0.48059893 1.768968
1.6278098 -0.47467554 1.7973871
0.22740297 -0.21648879 1.7979239
0.2535876 -0.19066386 1.7990345
0.37763095 -0.50038922 1.8027606
0.42494354 -0.5026871 1.8193867
0.4638595 -0.50442266 1.8130498
0.67673445 -0.50213093 1.8229609
0.71946812 -0.50272739 1.8137251
0.75882483 -0.50095654 1.8351732
0.88085449 -0.50102538 1.8169179
0.90691948 -0.50438839 1.8004041
0.96802866 -0.50436759 1.8202357
1.0898472 -0.50383157 1.811739
1.1267865 -0.50431484 1.8209215
1.278859 -0.50188643 1.8070116
1.3244373 -0.502657 1.8241613
1.3900104 -0.50400674 1.8078369
1.5302372 -0.50130367 1.8232508
0.084348962 -0.47281438 1.8297303
0.1232824 -0.48005104 1.8281193
0.17718135 -0.48596004 1.8337984
0.22463512 -0.48642018 1.8262359
0.27313969 -0.48783535 1.8238384
0.32414958 -0.49098656 1.8199147
0.37602085 -0.49395031 1.8285137
0.42877752 -0.49551386 1.8380511
0.47872055 -0.49386451 1.8252919
0.52317262 -0.47965211 1.8193002
0.5740937 -0.48283154 1.8284578
0.62464702 -0.48501 1.8257885
0.67265004 -0.4878163 1.8366535
0.72214836 -0.49337375 1.8402978
0.78492552 -0.49506611 1.8286844
0.82706499 -0.49075526 1.8337845
0.87097132 -0.49445909 1.8306437
0.91764271 -0.49657446 1.8245411
0.9718731 -0.49667132 1.8295574
1.0192016 -0.49190813 1.8286756
1.0701551 -0.49383733 1.8301703
1.1435726 -0.4972797 1.8291481
1.1767768 -0.4908601 1.824074
1.2258046 -0.48765683 1.8287055
1.2695156 -0.49291113 1.8303038
1.3429551 -0.49557194 1.8497351
1.3755718 -0.49762383 1.8315753
1.4278681 -0.48922345 1.8234013
1.4776058 -0.48963457 1.8310455
1.5249383 -0.49514431 1.8308073
1.5804342 -0.48905462 1.8206714
1.6114949 -0.47314495 1.8000566
1.6664785 -0.47035015 1.814181
1.7503524 -0.47371289 1.8497484
0.25227728 -0.40173557 1.8320127
0.27218288 -0.36879793 1.8491828
0.1977531 -0.3154133 1.8384253
0.23756514 -0.31528538 1.8345573
0.25584358 -0.3113665 1.8365619
0.23990348 -0.26874068 1.8394794
0.27582812 -0.27016225 1.8462905
0.3061114 -0.25017005 1.8459332
0.18114853 -0.21435429 1.8457626
0.22709052 -0.22255205 1.8166922
0.27401558 -0.23229316 1.8384478
0.16922271 -0.19221078 1.8443911
0.24055758 -0.15442559 1.8358881
0.2649543 -0.170415 1.8356591
0.24027745 -0.14983688 1.8339477
0.2614885 -0.1493592 1.8261492
1.1248424 -0.50521374 1.8505268
0.092679419 -0.46992439 1.8546977
0.126184 -0.47722748 1.8740003
0.17439844 -0.48056835 1.8741052
0.21882297 -0.47990343 1.8558568
0.27839813 -0.48228347 1.8536696
0.32675183 -0.48680413 1.8661342
0.37265152 -0.48802692 1.8804249
0.43125486 -0.48609877 1.8744377
0.47357661 -0.47925198 1.8714794
0.5381155 -0.46338645 1.8653536
0.57109612 -0.47455749 1.8748856
0.63102734 -0.46529591 1.8785528
0.67923081 -0.47361469 1.8762411
0.72730732 -0.4764207 1.8618624
0.77300406 -0.48174605 1.8636389
0.82731986 -0.47836679 1.8694863
0.87632835 -0.47958791 1.8701347
0.92400837 -0.48230034 1.875036
0.97462922 -0.48720095 1.875392
1.0218898 -0.48123762 1.8773698
1.0735856 -0.4785957 1.8771607
1.1259166 -0.4898243 1.8779279
1.1748135 -0.48503166 1.8842586
1.2257696 -0.48088494 1.8838357
1.2744825 -0.47821 1.886978
1.3222153 -0.48707867 1.8750798
1.3817883 -0.48940682 1.8791999
1.422253 -0.48345721 1.8730447
1.4758863 -0.47772661 1.876701
1.5264577 -0.48144898 1.8770165
1.5734438 -0.48449451 1.8783702
1.6231617 -0.48658466 1.8765087
1.6685257 -0.47142234 1.8714391
1.7918029 -0.46124652 1.8986392
1.8069271 -0.47082204 1.8676108
0.25545016 -0.43390787 1.8509703
0.53886342 -0.43424642 1.8640726
0.24218832 -0.35861984 1.8835013
0.26979452 -0.36408269 1.8648791
0.30493063 -0.37589356 1.8819476
0.18879014 -0.31878784 1.8721377
0.23122154 -0.32727724 1.8666412
0.26779246 -0.32814747 1.8748173
0.54638994 -0.30005106 1.8997604
0.14769457 -0.2634705 1.8891958
0.17428128 -0.26853305 1.8797207
0.22833863 -0.27272898 1.8643669
0.27234092 -0.27664083 1.85735
0.31644109 -0.26883894 1.8677664
0.14438443 -0.23022553 1.8726923
0.16856161 -0.21973415 1.8541336
0.22473305 -0.21555853 1.8858773
0.27618387 -0.22282544 1.8543409
0.31878448 -0.22349343 1.8804568
0.54447341 -0.21677575 1.8749247
0.6436342 -0.21207252 1.8980677
0.65191907 -0.21641254 1.8921741
0.18561204 -0.17658216 1.8632814
0.22988841 -0.1767489 1.8643436
0.28038675 -0.18311542 1.8662376
0.31737307 -0.17465542 1.8754864
0.35579377 -0.15602243 1.8987552
0.53278363 -0.18283811 1.8618569
0.64081204 -0.17593078 1.8921473
0.65899247 -0.17109536 1.8921525
0.15404622 -0.1428161 1.8638874
0.6561805 -0.018715225 1.8979952
0.13275321 -0.47481516 1.9108096
0.16387108 -0.47977644 1.9194622
0.38106599 -0.48643607 1.9198945
0.42035913 -0.48551849 1.9216416
0.52449381 -0.47889575 1.9230244
0.62128705 -0.46762979 1.9248574
0.67064697 -0.46017456 1.9239914
0.77367735 -0.47361919 1.914837
0.82927513 -0.4750762 1.9204204
0.87067604 -0.46738043 1.9262381
0.92145234 -0.47136751 1.9311132
0.97741187 -0.47454637 1.9162422
1.0315946 -0.47322485 1.9276886
1.0556375 -0.47002339 1.9151345
1.1319189 -0.47106552 1.9149075
1.1689197 -0.47102642 1.9069616
1.2340771 -0.46509582 1.9211355
1.2733848 -0.46375698 1.9197623
1.318091 -0.46509203 1.9124364
1.3743411 -0.46941626 1.92273
1.4256941 -0.46809068 1.9254892
1.4799548 -0.46767807 1.9282305
1.5277445 -0.46278596 1.9211118
1.5846123 -0.47164944 1.9206599
1.6301748 -0.476616 1.9207851
1.6706023 -0.46999148 1.92659
1.7246292 -0.46562201 1.9305098
1.7584131 -0.45590353 1.9306369
0.54127157 -0.42531827 1.9008158
0.63023591 -0.44896746 1.9235435
0.66780055 -0.40591353 1.9490632
1.1986552 -0.4260768 1.9015167
1.2252702 -0.42165646 1.9334823
0.65970224 -0.37473351 1.9447837
1.2329018 -0.38675624 1.941577
0.14262576 -0.30850205 1.9407998
0.18822519 -0.33450314 1.9233718
0.22622728 -0.30775282 1.9308639
0.34274828 -0.34499758 1.9424205
0.36130562 -0.31161812 1.9419558
0.56824696 -0.30678558 1.9405265
0.64666468 -0.32394382 1.9336805
0.66051888 -0.32715464 1.9334967
0.13773175 -0.2842716 1.933591
0.17991179 -0.28162012 1.9063802
0.21815856 -0.28352487 1.9173917
0.34128791 -0.27733752 1.9136071
0.36497831 -0.28005216 1.9283139
0.54864711 -0.27303654 1.9104316
0.56059146 -0.2743625 1.9172169
0.64132911 -0.27439266 1.928142
0.6585117 -0.27446193 1.9173328
0.1363966 -0.22953784 1.9129652
0.2057036 -0.24028514 1.9208361
0.33626851 -0.21791157 1.9172368
0.38414091 -0.22786379 1.9328064
0.41707358 -0.21912138 1.9461331
0.54715508 -0.23008391 1.9089563
0.55215967 -0.23550963 1.914548
0.63381284 -0.22308731 1.9254206
0.6700623 -0.22948194 1.920527
0.88415867 -0.22931923 1.9376889
0.90903693 -0.21286467 1.929405
1.1219995 -0.2060692 1.9433999
0.34257305 -0.1792638 1.9021728
0.37290409 -0.17203726 1.9258997
0.41398168 -0.18226464 1.9340271
0.5558905 -0.15260001 1.9448459
0.63138199 -0.17072582 1.9256127
0.67729074 -0.16258813 1.92449
0.87834209 -0.17626429 1.9290351
0.90964365 -0.18780474 1.9284145
0.33383405 -0.14727522 1.9075342
0.37652227 -0.14250433 1.9221458
0.55697942 -0.14333819 1.9491372
0.642941 -0.12611929 1.9240528
0.66843849 -0.12594527 1.9265225
0.89258939 -0.14541642 1.9434825
0.6446349 -0.07953424 1.9332765
0.65716648 -0.074154921 1.9281693
0.64280051 -0.023912765 1.9442381
0.66487634 -0.027968675 1.9380505
0.89436942 -0.039473575 1.9425557
0.14270465 -0.47866827 1.9869039
0.15562063 -0.47864354 1.9653701
0.39280364 -0.48056659 1.9652275
0.4177157 -0.48042917 1.9713171
0.57904309 -0.47871959 1.9546812
0.61387169 -0.46235147 1.9556926
0.67494982 -0.46360242 1.9724017
0.73131883 -0.48067749 1.9735583
0.77143526 -0.48228702 1.9700732
0.83622807 -0.47189894 1.9514658
0.87400317 -0.46565464 1.9733373
0.92608607 -0.46666121 1.9728899
0.98418111 -0.47760859 1.9800637
1.0169462 -0.47584701 1.9592869
1.0982057 -0.47374973 1.9707887
1.1192064 -0.46488217 1.9632572
1.1647956 -0.46237174 1.9983997
1.3607086 -0.46326646 1.9710273
1.4648952 -0.45886254 1.9538438
1.5712897 -0.45848382 1.9584452
1.6321291 -0.46087003 1.9648834
1.6707101 -0.46034628 1.9627852
1.7216345 -0.45508417 1.9612157
0.43245545 -0.40574563 1.9675963
0.47331721 -0.40763798 1.9707853
0.52573162 -0.40794721 1.9823669
0.56634539 -0.40518796 1.9757658
0.62442404 -0.4320879 1.9801813
0.66502762 -0.42838395 1.9745237
0.73137712 -0.40194458 1.9934169
0.77731109 -0.40491873 1.9975357
0.88182116 -0.44655672 1.9769275
0.91814619 -0.42146051 1.9888277
1.097932 -0.44826812 1.9508574
1.127647 -0.44544101 1.982018
1.7935666 -0.42271417 1.9773515
1.8016032 -0.41245946 1.9883885
0.3715376 -0.37871063 1.9901897
0.4248257 -0.37264538 1.9687488
0.47732106 -0.37758115 1.9756627
0.52264017 -0.37316546 1.9848961
0.57260132 -0.373395 1.9838293
0.61284703 -0.37699372 1.9960105
0.663441 -0.37315807 1.9630926
0.72931975 -0.37165084 1.9909678
0.76751709 -0.37533849 1.9949586
0.9121806 -0.37062624 1.98806
1.2382872 -0.39180106 1.9721873
0.13389392 -0.30054057 1.9511936
0.38266826 -0.32917443 1.9795821
0.42323285 -0.32639784 1.9680177
0.47713929 -0.32539022 1.9757117
0.52559811 -0.32258093 1.9874824
0.57045847 -0.32573897 1.9883242
0.6297816 -0.32544291 1.9854671
0.68662363 -0.32463059 1.9679737
0.72623724 -0.32485214 1.9943933
0.76130217 -0.32324696 1.9986616
0.89573252 -0.31955355 1.9784184
0.91031796 -0.32427686 1.9786363
1.1372546 -0.30722991 1.9951973
1.151166 -0.30811 1.9964079
1.805774 -0.30176571 1.986829
0.12264035 -0.27499822 1.9619435
0.38496062 -0.27091953 1.9682007
0.42685702 -0.27681029 1.974264
0.47443703 -0.27330276 1.9741269
0.52513039 -0.27191326 1.9860423
0.56930119 -0.27594325 1.9906557
0.62587368 -0.27398229 1.9865223
0.68726408 -0.27871388 1.9593338
0.7244128 -0.27853906 1.9918251
0.75824577 -0.27603161 1.9990782
0.89030081 -0.27143219 1.9649069
0.91439003 -0.27432877 1.9692651
1.1331052 -0.27164799 1.9879498
1.3574364 -0.25844455 1.9951603
1.7901431 -0.26979956 1.980772
0.12849723 -0.24269295 1.9701214
0.37574244 -0.2254187 1.9606484
0.43343383 -0.22947685 1.9782815
0.4744556 -0.22148071 1.9740469
0.52719361 -0.22293566 1.9863616
0.56900841 -0.22813471 1.9824759
0.61612737 -0.22807771 1.9788892
0.69760251 -0.23975173 1.9620695
0.73013365 -0.22911558 1.9936837
0.75290287 -0.20997477 1.9976851
0.8452009 -0.20672144 1.9914722
0.87007254 -0.22232056 1.9765289
0.93221682 -0.23348837 1.9772323
1.0880107 -0.21321228 1.9793112
1.1219093 -0.22818202 1.967326
1.1731975 -0.22021301 1.9878063
1.2677521 -0.22673203 1.9940534
1.3385032 -0.22169136 1.9850489
1.368029 -0.22995292 1.9802774
1.402784 -0.21071121 1.9993712
1.5847241 -0.21726738 1.9799087
1.7920067 -0.22144835 1.9803159
0.3918058 -0.18853985 1.9596241
0.43247902 -0.1677652 1.975111
0.47364491 -0.17301977 1.9738173
0.52747786 -0.17491716 1.9874136
0.56625146 -0.17087688 1.9758807
0.61312485 -0.1714009 1.9768931
0.72903204 -0.17741324 1.9920446
0.75449163 -0.17660677 1.9991964
0.83890104 -0.19400245 1.9641149
0.87195021 -0.17574291 1.976312
0.93035454 -0.16712223 1.9779526
0.95537788 -0.19446586 1.9917572
1.0934631 -0.19904085 1.9962733
1.1233488 -0.18117146 1.9710503
1.164578 -0.1801405 1.9966056
1.3470061 -0.19635239 1.9851115
1.367753 -0.19776469 1.9936267
1.7890706 -0.1791321 1.980648
0.39228502 -0.13307256 1.965008
0.42595455 -0.1234261 1.9730058
0.47481629 -0.12523295 1.9810463
0.52830487 -0.12650511 1.992964
0.56938356 -0.12481995 1.9806817
0.62747037 -0.12469143 1.976684
0.69647622 -0.12204427 1.9661993
0.72832054 -0.13650802 1.9987286
0.75184423 -0.12975812 1.9994957
0.89063436 -0.12469235 1.9683957
0.90790635 -0.11656594 1.9697958
1.1364573 -0.13486497 1.992312
1.240398 -0.12769386 1.9793026
0.43141288 -0.077603899 1.9721816
0.47486445 -0.077058308 1.9829588
0.5243383 -0.080749348 1.9949553
0.57090926 -0.077862889 1.9884608
0.64584345 -0.081350997 1.9789177
0.68721884 -0.077974983 1.9664268
0.71393532 -0.0834952 1.9950482
0.89399481 -0.070358559 1.978838
0.90478027 -0.075037323 1.9644465
1.1340693 -0.062603019 1.9831185
1.2400175 -0.074362002 1.980747
1.2513855 -0.096571565 1.9982265
0.4328019 -0.028644556 1.9737428
0.47506383 -0.028879112 1.9846098
0.51945734 -0.026463086 1.9900981
0.57329446 -0.026950698 1.9901942
0.63125437 -0.023934908 1.9884696
0.68125761 -0.031653412 1.9705188
0.72092789 -0.031424824 1.9932582
0.75045866 -0.02979818 1.998472
0.88567924 -0.039756116 1.9610109
0.91109139 -0.039995383 1.9705353
0.43222708 0.023927538 1.9711401
0.47320047 0.024644155 1.9723693
0.52348298 0.030924693 1.9731756
0.57321256 0.027927924 1.9748333
0.62518054 0.03414594 1.9748325
0.67435509 0.024594774 1.9810414
0.72403306 0.029777031 1.9855348
0.77353704 0.026502253 1.9895065
0.82156277 0.019059764 1.9936972
0.87137634 0.017019922 1.9990001
0.43304953 0.076622911 1.9740283
0.47442684 0.077135362 1.9809983
0.52462667 0.077459566 1.9806598
0.57647854 0.077944309 1.9836987
0.62606901 0.077070504 1.98581
0.67507952 0.080341697 1.9922978
0.72416526 0.07427638 1.996559
0.77244347 0.05811156 1.9979006
0.43371806 0.12464614 1.9754075
0.47607636 0.1257254 1.9862378
0.52772474 0.12653649 1.9906152
0.57454622 0.12721474 1.9931324
0.61486572 0.12334742 1.9972953
0.65478665 0.10881042 1.9999028
0.71876866 0.10953879 1.9990628
0.43128765 0.17448488 1.9768378
0.47675893 0.17430079 1.9866166
0.52801615 0.17471224 1.9924933
0.57487553 0.1774945 1.9959491
0.61355311 0.18018697 1.9991738
0.42920467 0.2223573 1.9748032
0.47711945 0.22364986 1.9882818
0.52313179 0.22328308 1.9946499
0.57009327 0.22385386 1.9979221
0.60325599 0.20690903 1.9980633
0.43117553 0.27462858 1.9762459
0.47751817 0.27122146 1.9899092
0.52394885 0.27548951 1.9944272
0.56487864 0.27863452 1.9976774
0.61325502 0.27580705 1.9994256
0.43035534 0.32123002 1.9743919
0.4751741 0.31991041 1.991424
0.52185953 0.32289031 1.9940745
0.56279999 0.31532931 1.9969363
0.14094383 -0.47455403 2.033859
0.71889764 -0.46799052 2.02686
0.83197361 -0.48705861 2.0234108
0.86228162 -0.46404111 2.0066204
0.92473602 -0.45292774 2.0393553
0.96267867 -0.47716293 2.0120215
1.0915728 -0.46334726 2.0338078
1.1101941 -0.46744457 2.0188868
1.1827077 -0.46189559 2.01828
1.2066734 -0.46356276 2.0483067
1.3289199 -0.45842969 2.0264978
1.3574028 -0.45736256 2.0285292
1.4168022 -0.45567378 2.0336237
1.6304907 -0.4508501 2.0292418
0.41737568 -0.404908 2.016315
0.63724315 -0.4266513 2.0204937
0.65426946 -0.42341769 2.016062
0.71465027 -0.42105177 2.0252411
0.7848599 -0.40886331 2.017046
0.84114885 -0.40108934 2.0163846
0.87664747 -0.43550441 2.0339479
0.91914862 -0.42634261 2.0196099
0.97255141 -0.40038952 2.0321522
1.0146606 -0.40034944 2.017065
1.0932993 -0.44879818 2.0146327
1.1079643 -0.44503048 2.0184422
1.1622812 -0.42729458 2.0318084
1.3225051 -0.43842864 2.0280647
1.3780553 -0.4353244 2.0280645
1.4041054 -0.41540182 2.0446458
1.5499493 -0.43311861 2.041553
1.5684627 -0.44564903 2.0334692
1.6160005 -0.44330212 2.0427883
1.8133935 -0.41072771 2.0336053
2.0344002 -0.40013465 2.0274563
2.0505967 -0.40075067 2.019278
0.38431966 -0.37198108 2.0062416
0.40995425 -0.38774657 2.0067077
0.64132535 -0.37334016 2.0274966
0.65982127 -0.37833795 2.0226636
0.71299124 -0.37378436 2.0050755
0.7927925 -0.37170991 2.0070026
0.82451677 -0.37614536 2.0126982
0.86256289 -0.37529024 2.0343549
0.9218865 -0.37542561 2.0279303
0.97317302 -0.37510788 2.019032
1.0236034 -0.37404072 2.0238018
1.0714748 -0.37380353 2.0332763
1.1495068 -0.36755159 2.0335379
1.1739084 -0.37459573 2.0302026
1.2203703 -0.37630454 2.0373561
1.2673061 -0.37275586 2.0370812
1.3105164 -0.38525531 2.0440273
1.3858612 -0.37783229 2.0344176
1.7920558 -0.35466287 2.0334554
1.8207976 -0.37559494 2.0320952
2.0404558 -0.37419215 2.0256069
2.0723064 -0.36991757 2.0215712
0.40250331 -0.31214622 2.0033216
0.63233149 -0.32342979 2.0139709
0.65154439 -0.34935102 2.0044219
0.78573638 -0.3234261 2.0079737
0.82699615 -0.32753992 2.0188806
0.87717241 -0.31898719 2.036304
0.920865 -0.32501367 2.027576
0.97599512 -0.32440168 2.0207603
1.0254366 -0.32729089 2.0280542
1.0732983 -0.32371515 2.0392172
1.1346327 -0.32313478 2.0175524
1.1803576 -0.32901073 2.030493
1.2111675 -0.32403314 2.0431266
1.3721309 -0.32705095 2.0269163
1.4105562 -0.30611214 2.0461996
1.6113122 -0.31877059 2.0478723
1.7997473 -0.30280218 2.0029192
1.8182884 -0.33227336 2.0229366
2.0351589 -0.32807019 2.0270746
2.077987 -0.32528999 2.0338895
0.39108974 -0.26225749 2.0007415
0.62052864 -0.28578043 2.0024874
0.73891842 -0.26035556 2.000267
0.77799195 -0.27116835 2.0058174
0.82587945 -0.27597055 2.0214882
0.87679255 -0.27580845 2.0221658
0.92803717 -0.28536686 2.0103819
0.97978431 -0.27350986 2.0207593
1.0260054 -0.27407458 2.0298572
1.0751088 -0.27629638 2.0411189
1.1170933 -0.27629277 2.0294538
1.1844441 -0.27494133 2.022979
1.2138536 -0.27250367 2.0386283
1.2928182 -0.26431844 2.0304317
1.3290668 -0.26858363 2.0349853
1.3696002 -0.278009 2.0172951
1.4143598 -0.27734968 2.0434959
1.5940719 -0.25687194 2.0326254
1.6150169 -0.26814377 2.0401869
1.799289 -0.2905907 2.0039241
1.8039999 -0.25485244 2.0133405
2.0334899 -0.27626169 2.0320222
2.0585997 -0.27703288 2.0206788
0.77560216 -0.22335951 2.0078552
0.82361013 -0.22423491 2.0202959
0.8622843 -0.23348472 2.0190299
0.9808495 -0.22978319 2.0191247
1.0243658 -0.22624214 2.0308025
1.0737733 -0.22233181 2.0324667
1.1105226 -0.24004877 2.0196185
1.1854203 -0.241651 2.016259
1.2233711 -0.22358492 2.0416048
1.2885959 -0.21760648 2.0053139
1.3223953 -0.22569306 2.0243237
1.3577938 -0.22357923 2.0437722
1.4242704 -0.22898614 2.0196452
1.5753554 -0.22639142 2.0235288
1.633104 -0.22699167 2.0286438
1.7969736 -0.20538257 2.0101466
1.8146435 -0.23189144 2.0276713
2.0363145 -0.23072158 2.0276299
2.0537415 -0.211862 2.0226469
0.60288554 -0.15738936 2.0001266
0.7793017 -0.17190482 2.0092747
0.82423574 -0.17407556 2.0219386
0.86884642 -0.16616069 2.0194123
0.94879168 -0.15408681 2.005481
0.98240489 -0.17537822 2.0223308
1.0236566 -0.17871389 2.032759
1.0755136 -0.17707561 2.0398021
1.1173241 -0.17416897 2.0227582
1.1827204 -0.16521335 2.0218625
1.2081578 -0.17340735 2.0369811
1.2788804 -0.15783045 2.0166774
1.3343923 -0.19620144 2.0273902
1.3736485 -0.17497307 2.0242159
1.4127736 -0.18004423 2.0383565
1.5904548 -0.19793187 2.0332592
1.6134496 -0.19343179 2.0405474
1.815733 -0.17660657 2.0277588
2.0402317 -0.18604857 2.0355341
2.0646558 -0.18704863 2.035579
0.3988592 -0.1271923 2.023756
0.40925121 -0.1175783 2.0258679
0.60715401 -0.12922026 2.002573
0.73207253 -0.12333821 2.0016296
0.77377838 -0.12282123 2.0115135
0.82374096 -0.12226011 2.0266078
0.87355787 -0.12434467 2.0384123
0.92812306 -0.12539983 2.0220664
0.97542888 -0.12464769 2.0248275
1.0250738 -0.12626486 2.038378
1.0637573 -0.12741791 2.0463581
1.1416682 -0.13012837 2.0265605
1.1800336 -0.12440021 2.0379028
1.211261 -0.12491688 2.0448554
1.2780036 -0.12501934 2.0169837
1.3800503 -0.12077556 2.0430675
1.8301719 -0.14645591 2.0286682
0.5400362 -0.063457623 2.0007727
0.55049533 -0.068421714 2.0013742
0.62302721 -0.079479873 2.0096209
0.65171731 -0.064819753 2.0246663
0.7311992 -0.077157922 2.0020084
0.77261513 -0.071828939 2.0144792
0.82353365 -0.071256645 2.027761
0.87349421 -0.069752201 2.0338135
0.92756444 -0.072239719 2.0269799
0.97513449 -0.07367184 2.0240028
1.0242158 -0.072774015 2.0353959
1.0695287 -0.074222781 2.0455294
1.1432539 -0.074584648 2.0287516
1.1728231 -0.081272282 2.030812
1.2165411 -0.084711149 2.0459695
1.2713178 -0.079449967 2.0155368
1.370505 -0.0885906 2.0257471
0.53722322 -0.030643141 2.0016594
0.55460054 -0.04104108 2.0018177
0.62129682 -0.033243597 2.0062041
0.65143865 -0.049820878 2.024081
0.73349839 -0.035785843 2.0055962
0.7723757 -0.024707949 2.0174723
0.82191777 -0.030403409 2.0277395
0.87866002 -0.028888874 2.0253699
0.92483169 -0.020329071 2.0087578
0.98019111 -0.025063291 2.0211341
1.0219228 -0.017568354 2.0200465
1.0757381 -0.016355542 2.0243793
1.1251088 -0.021039547 2.0255263
1.1736444 -0.021215426 2.0294929
1.2174214 -0.019896209 2.0413246
0.52666533 0.0099228099 2.0174587
0.56213528 0.0066333138 2.006839
0.62848669 0.001735736 2.013443
0.65461814 0.0050330064 2.0014567
0.74734819 0.00011715837 2.0196965
0.77584827 0.00012517128 2.0074265
0.81920171 0.027000869 2.0039136
0.87478209 0.020474402 2.0047204
0.92710459 0.02117219 2.0087924
0.97610474 0.02146188 2.0134969
1.0240682 0.02056632 2.0195553
1.0745789 0.022462588 2.025305
1.1251142 0.019719994 2.0316942
1.1730666 0.023626208 2.0361567
1.2154424 0.015975833 2.0416369
0.72403109 0.084073357 2.0015562
0.77721876 0.076026827 2.0044622
0.82662266 0.072006814 2.0107396
0.87546557 0.071640134 2.0148816
0.92509699 0.072337016 2.0213075
0.97533166 0.073025167 2.026299
1.0273143 0.073792726 2.0321155
1.0758369 0.073193081 2.0377359
1.1230766 0.076371513 2.0425098
1.1759305 0.075403884 2.0453222
1.2196183 0.065764368 2.0492334
0.63567352 0.13541812 2.0017679
0.67847395 0.12999932 2.0033882
0.72894126 0.12451817 2.0077069
0.77282244 0.1209546 2.011282
0.82521141 0.12201054 2.0160568
0.88028109 0.12334587 2.0242081
0.92949688 0.12445817 2.0291078
0.97876167 0.1254705 2.0315783
1.0266759 0.12596388 2.035532
1.072878 0.12840125 2.0411813
1.1223259 0.12512644 2.0433216
1.1726424 0.12591955 2.0482216
1.2144864 0.13125591 2.0497184
0.63321322 0.1759652 2.002259
0.67363334 0.17907432 2.0049951
0.72465032 0.17124765 2.0097585
0.77523649 0.17184806 2.0149999
0.82551873 0.17190972 2.0191524
0.87588209 0.17481945 2.0247843
0.92611295 0.1768505 2.0295413
0.97662532 0.17743179 2.0341885
1.0234069 0.17585005 2.0392687
1.0720353 0.17578661 2.0410397
1.1257566 0.17286736 2.0455995
1.1762874 0.18318239 2.0479906
1.2094401 0.16394714 2.0487525
0.54270202 0.24563161 2.0010452
0.57926542 0.23219357 2.0005586
0.62721807 0.22868554 2.0031149
0.67485595 0.22842103 2.0077534
0.72610992 0.22120035 2.0129614
0.77759725 0.22301242 2.0176651
0.82412052 0.22466779 2.0212154
0.87171048 0.22643471 2.0249708
0.91925144 0.22601488 2.0293472
0.9713906 0.22535372 2.0354092
1.0223932 0.22212605 2.0392973
1.0739394 0.22407785 2.0411792
1.1249853 0.22444893 2.0461373
1.178564 0.20937014 2.0475681
1.2169919 0.21907029 2.0483823
0.58425444 0.27327743 2.0019276
0.63207239 0.27814123 2.0036848
0.67423928 0.27696693 2.0075641
0.72520781 0.27046961 2.0116541
0.77631301 0.27541637 2.0164127
0.82744437 0.27681097 2.0248849
0.87314391 0.27640125 2.0269763
0.92489886 0.27308929 2.0318925
0.97395325 0.27321288 2.0365822
1.0258223 0.27588555 2.0413909
1.0761745 0.27442792 2.0431464
1.1247814 0.27537656 2.0468729
1.1598073 0.27324298 2.0487154
0.47397324 0.34386119 2.0030472
0.53070319 0.33579919 2.0053837
0.58203834 0.32679269 2.0025027
0.62460321 0.32359266 2.0057387
0.67548686 0.32322603 2.0128016
0.72405332 0.3239848 2.019263
0.77435422 0.32595947 2.0226991
0.82630849 0.32266709 2.0258734
0.87651581 0.32125676 2.0306311
0.92535412 0.31749839 2.0339303
0.97579676 0.32251674 2.0391099
1.0265539 0.32054117 2.0410864
1.0777957 0.31505296 2.0454288
1.1190881 0.31541681 2.0475178
1.158592 0.31314203 2.0464244
0.6724171 0.36275101 2.016937
0.80754203 0.35101828 2.038862
0.91243702 -0.45467874 2.0523241
0.97302407 -0.46471155 2.0704217
1.1778107 -0.45202857 2.0598192
1.4412721 -0.45194694 2.0707664
1.5930636 -0.4503774 2.0501351
1.6722529 -0.45021719 2.0834124
2.4210482 -0.46351635 2.0774016
2.4713378 -0.46172452 2.0818176
0.8925693 -0.42942986 2.0765667
0.91503894 -0.42396519 2.0754397
0.97628832 -0.42553234 2.0813124
1.1274875 -0.42943826 2.0701518
1.1645509 -0.424146 2.0750449
1.2092063 -0.42779109 2.070791
1.2517797 -0.40112498 2.0635347
1.3352697 -0.41741306 2.0551186
1.3777193 -0.41708437 2.0643187
1.428862 -0.42810735 2.064023
1.5708365 -0.43008414 2.0752547
1.6409903 -0.42043996 2.0857842
1.6577249 -0.43742925 2.0906034
2.4958804 -0.41072556 2.089505
2.5310676 -0.41606396 2.0871892
0.89686275 -0.37773347 2.0831525
0.90971053 -0.37646425 2.0711234
0.96133494 -0.39390004 2.0619721
1.1319209 -0.37213984 2.0786953
1.1693494 -0.38264644 2.0823376
1.2431662 -0.35960731 2.054719
1.2629489 -0.35917369 2.0562904
1.3374561 -0.37141889 2.0629525
1.3764911 -0.36583996 2.079911
1.4316705 -0.3770009 2.0728707
1.4722714 -0.37428954 2.0631552
1.5246094 -0.36840594 2.0779042
1.573447 -0.37571222 2.0942597
1.6335354 -0.37853485 2.0801935
1.6912926 -0.37798312 2.0898659
1.7242943 -0.37260303 2.0858421
1.7672081 -0.37529135 2.0874348
1.8089722 -0.37540445 2.0777676
2.1476107 -0.36083686 2.0730572
2.4879241 -0.39084175 2.0947506
2.5184534 -0.37501812 2.077018
0.89048588 -0.32943061 2.0657296
0.90353858 -0.34224814 2.0609963
1.12149 -0.32995632 2.0653636
1.1613803 -0.32529822 2.0847976
1.2385885 -0.3290748 2.0555217
1.2738531 -0.32439727 2.0611935
1.3277117 -0.32204053 2.0580516
1.3738277 -0.32615313 2.067631
1.4359478 -0.32956305 2.0691879
1.4750378 -0.32682237 2.083039
1.5240021 -0.32377928 2.091387
1.5768827 -0.32740191 2.0936806
1.6255658 -0.33457011 2.0736213
1.6724297 -0.32363781 2.0892825
1.8144782 -0.32616732 2.0753741
2.1659288 -0.31662804 2.0973589
2.5251355 -0.33084697 2.081085
2.5520477 -0.30605844 2.0798249
0.88086218 -0.29256919 2.0549088
1.1432631 -0.28759485 2.0558372
1.2406249 -0.27601799 2.0600581
1.2686337 -0.27404565 2.0615821
1.3272384 -0.28692028 2.0518064
1.3701738 -0.28215304 2.0571573
1.4351395 -0.2860719 2.0615652
1.4753785 -0.27130109 2.0796306
1.5253669 -0.27762717 2.0939145
1.5670947 -0.27631411 2.0827882
1.6181437 -0.28123653 2.0686922
1.6724693 -0.27014661 2.0680976
1.7272453 -0.25619537 2.0851891
1.8214461 -0.27542526 2.0729628
2.1461959 -0.25348243 2.0853271
2.1546969 -0.28139359 2.0905979
2.5290296 -0.27590987 2.0908771
2.5594893 -0.28491378 2.0883937
1.2360877 -0.24195522 2.0556667
1.2667947 -0.22698699 2.0610635
1.31674 -0.20009141 2.0508435
1.4459949 -0.20574984 2.0618689
1.4891893 -0.22286022 2.0807462
1.5330359 -0.22939327 2.0840783
1.5693102 -0.21732771 2.0718172
1.6103809 -0.20265704 2.0928922
1.6785754 -0.22737968 2.0588615
1.7242522 -0.23188876 2.0915844
1.8097191 -0.22826955 2.068927
2.0354486 -0.21270455 2.0527477
2.1481452 -0.24031025 2.0885839
2.1547692 -0.22087941 2.0969219
2.527843 -0.23929688 2.0935683
1.0981266 -0.15011647 2.0558271
1.1270005 -0.1585346 2.0644457
1.2330427 -0.17546804 2.0555148
1.2673157 -0.17715459 2.0655131
1.3331769 -0.1732118 2.0599475
1.3743641 -0.1756995 2.0782104
1.4213092 -0.16476271 2.0629823
1.4784163 -0.17558935 2.0889506
1.5190125 -0.17901887 2.0948091
1.5782413 -0.18934585 2.091742
1.6214157 -0.17601033 2.0661001
1.6635802 -0.16521706 2.0889318
1.816267 -0.18009815 2.0710113
1.8599808 -0.15612334 2.0847864
2.0350838 -0.18676886 2.0545304
2.0599174 -0.16832043 2.0566254
2.1052144 -0.17092066 2.0770473
0.88573229 -0.12271676 2.0560951
0.91136646 -0.11471947 2.0555868
1.0899765 -0.1251606 2.0520635
