ply
format ascii 1.0
comment PCL generated
element vertex 1499
property float x
property float y
property float z
element camera 0
property float view_px
property float view_py
property float view_pz
property float x_axisx
property float x_axisy
property float x_axisz
property float y_axisx
property float y_axisy
property float y_axisz
property float z_axisx
property float z_axisy
property float z_axisz
property float focal
property float scalex
property float scaley
property float centerx
property float centery
property int viewportx
property int viewporty
property float k1
property float k2
end_header
-1.4680125 2.4054062 2.9265027
-1.4222976 2.4032545 2.9132016
-1.3786963 2.4126849 2.9190226
-1.3257248 2.4143903 2.9200885
-1.2708315 2.4084182 2.9269652
-1.2247763 2.4060917 2.9179442
-1.173833 2.4111483 2.9429142
-1.1287485 2.4090455 2.9181671
-1.0730116 2.4075289 2.9249806
-1.0251107 2.4120924 2.9186292
-0.96974528 2.4143739 2.9199698
-0.92440075 2.4105442 2.927393
-0.86910462 2.4118261 2.9258304
-0.82436752 2.4086518 2.9326813
-0.78135216 2.4104183 2.9448514
0.94053549 2.4383562 2.9420178
0.99428046 2.4402437 2.9294021
1.0319885 2.4458482 2.9256454
1.0569059 2.4429557 2.9262695
1.1245258 2.4454179 2.9139843
1.1799585 2.441102 2.9076912
1.2247528 2.4415679 2.9298036
1.2776892 2.445323 2.928158
1.3107699 2.4450083 2.927845
1.3805108 2.4407692 2.9165604
1.4247993 2.4411244 2.9280126
1.4753786 2.442302 2.9345732
1.5095354 2.4421442 2.9326036
1.6750647 2.4326878 2.9222817
1.7389687 2.4443038 2.9074743
1.7546155 2.447453 2.9474432
1.8293284 2.4389396 2.9266539
1.8821839 2.438303 2.9296551
1.9256597 2.4359248 2.9234152
1.989502 2.4368539 2.9334528
2.0232432 2.4332635 2.9303858
2.0662861 2.4291298 2.9204247
2.1278615 2.4352796 2.9244053
2.1834359 2.4440191 2.9202065
2.2146282 2.4373167 2.9371276
1.0180913 2.4550478 2.9419656
1.0950429 2.450304 2.9485183
1.1303889 2.455467 2.9316633
1.1667677 2.450794 2.9254386
1.3471437 2.4504631 2.9341125
1.7205355 2.4578929 2.9382381
1.7797208 2.4537451 2.9296124
-1.1795156 -0.62178528 2.9862256
-0.61308253 -0.60201001 2.9987917
-0.57397252 -0.6068486 2.9903111
-1.3054402 -0.56303352 2.9692736
-1.270754 -0.57125384 2.9672995
-1.2491454 -0.58041519 2.9967394
-0.9694882 -0.59876537 2.9979858
-0.59590095 -0.59950161 2.988265
-0.52079982 -0.59724432 2.986069
-1.3285954 -0.5287562 2.971246
-1.3601407 -0.46968174 2.9766428
-1.3486429 -0.49156004 2.997499
-1.3692442 -0.42774165 2.978636
-1.3752244 -0.37278306 2.9827981
-1.3812832 -0.32324266 2.964047
-1.3893152 -0.27529797 2.9901972
-1.3819798 -0.22270238 2.9711788
-1.385919 -0.17042889 2.9807587
-1.3849047 -0.12430876 2.9726501
-1.4000955 -0.060780354 2.9838674
-1.3890295 -0.079651922 2.9787629
-1.391824 -0.033274025 2.9815617
-1.3907461 0.017957026 2.9768088
-1.3912576 0.072693303 2.9835367
-1.3930653 0.11822534 2.9769287
-1.3912654 0.17961816 2.9689314
-1.40221 0.23716462 2.9818873
-1.3914179 0.21258791 2.9601853
-1.4048198 0.29120046 2.9840255
-1.3985659 0.26703715 2.9722776
-1.4042771 0.32462505 2.9709458
-1.3933649 0.32270786 2.9951272
-1.4067215 0.37712753 2.9685295
-1.396415 0.35419986 2.9992144
-1.4031116 0.42084539 2.9691887
-1.3969234 0.42239553 2.9843593
-1.4020274 0.48165804 2.9601784
-1.3975128 0.47256419 2.9802384
-1.4028133 0.52206391 2.9697287
-1.3981193 0.52414429 2.9849339
-1.4038744 0.55881131 2.9543381
-1.3970846 0.56990844 2.976613
-1.4034725 0.6344074 2.981158
-1.3984925 0.60133296 2.9752374
-1.4084826 0.6833474 2.9686351
-1.3954283 0.66891497 2.997432
-1.4037479 0.7273733 2.9662673
-1.3994828 0.73322988 2.995554
-1.4203973 0.78012133 2.9799366
-1.4523426 0.83814698 2.9720533
-1.4430861 0.81826651 2.9957507
-1.4564989 0.87195265 2.9738712
-1.4486426 0.88458997 2.9940302
-1.446386 0.93051887 2.9787035
-1.4524906 0.97403413 2.9818096
-1.4541802 1.0465136 2.9671791
-1.4471052 1.0234202 2.9781311
-1.4538141 1.0621008 2.9621921
-1.4615676 1.1439691 2.9987392
-1.4581223 1.1734191 2.9822295
-2.3427916 1.2552609 2.9810433
-2.4170558 1.3277621 2.975301
-2.4263363 1.3810803 2.9776015
-2.4283307 1.4241762 2.9828358
-2.4424059 1.4712338 2.9736543
-2.4529119 1.5256248 2.9551628
-2.4459407 1.5235084 2.9865649
-2.4514551 1.5828198 2.9679353
-2.4474628 1.5769792 2.9854164
-2.4576585 1.6253722 2.9739609
-2.4630518 1.6746908 2.973109
-2.4643676 1.7335014 2.9706953
-2.608315 2.3192086 2.9865112
-2.5673132 2.3404021 2.9766979
-2.5346673 2.3493121 2.9634521
-2.4692383 2.345243 2.97539
-2.4151089 2.3418155 2.9799464
-2.5065153 2.3513346 2.9882083
-2.4920223 2.3579044 2.9571609
-2.4268832 2.3535085 2.9681292
-2.3739469 2.3606575 2.9750547
-2.3293869 2.3558042 2.9788239
-2.2722642 2.3574855 2.9690325
-2.2374182 2.3619301 2.9835546
-2.1746745 2.366369 2.969847
-2.123183 2.3623507 2.9747188
-2.0655763 2.370368 2.9602869
-2.0280941 2.3805971 2.9694607
-1.9751127 2.3880379 2.9791846
-1.9238932 2.3765635 2.9612665
-1.8789676 2.3863597 2.9757991
-1.8207622 2.3848329 2.9869537
-1.7745869 2.3908594 2.96595
-1.7300732 2.392396 2.9805541
-1.6781421 2.3945639 2.9883173
-1.6255041 2.3908832 2.9655435
-1.5723909 2.3913052 2.9772604
-1.5231037 2.39395 2.9760275
-1.4790013 2.3959129 2.9678602
-1.4256415 2.3968718 2.9618859
-1.6696239 2.4010444 2.9601057
-1.4214149 2.4082203 2.9737873
-1.3708826 2.4149592 2.9711895
-1.3331128 2.4124815 2.9824176
-1.2782463 2.4039938 2.9714472
-1.2246786 2.4053645 2.9774585
-1.179795 2.4054744 2.970438
-1.1227845 2.4076321 2.9736259
-1.0734677 2.4117813 2.9855776
-1.0233167 2.4121547 2.969979
-0.97728634 2.4125755 2.9836555
-0.92418826 2.4064686 2.9753804
-0.87737387 2.4081986 2.9718654
-0.82955128 2.4145498 2.9829445
-0.77453476 2.4170523 2.9811149
-0.72775149 2.416589 2.9730005
-0.68015856 2.4231558 2.9822447
-0.62544727 2.4151652 2.9820099
-0.57399672 2.4196258 2.9963448
0.72850144 2.437973 2.9918978
0.8104772 2.4455385 2.9839129
0.91841668 2.4459934 2.9817886
1.0206206 2.4432969 2.9619014
1.0746077 2.4469326 2.987232
1.1292596 2.448463 2.9720404
1.1678654 2.4449229 2.9731393
1.2789086 2.4465029 2.9805591
1.3144113 2.4388645 2.9692731
1.3776439 2.4450989 2.9730165
1.4244708 2.437819 2.9630942
1.4656986 2.4383039 2.9731386
1.5214536 2.4382327 2.9723592
1.5814319 2.4456644 2.987329
1.718118 2.4490321 2.968739
1.7741265 2.4442873 2.9868906
1.8149611 2.4381435 2.9738843
1.8809016 2.4422393 2.9820395
1.9235005 2.4381907 2.9741261
1.9684364 2.4319305 2.9724061
2.0249052 2.4294267 2.9936135
2.0795543 2.4366221 2.9730256
2.126678 2.4367237 2.9762554
2.1779418 2.4401479 2.9660878
2.2206829 2.4350319 2.97892
2.2680173 2.4334738 2.9701786
0.78576118 2.4513443 2.9969962
0.84037942 2.4553041 2.9896238
0.87545508 2.4539354 2.979285
0.93089485 2.4595423 2.9723716
0.97643608 2.4531205 2.9695063
1.0252174 2.4543657 2.9752736
1.0785398 2.4534218 2.9579122
1.1039028 2.4520833 2.985116
1.1935952 2.4512734 2.954252
1.2227368 2.4555731 2.9878857
1.2756888 2.4525607 2.9645734
1.3406603 2.4536221 2.980186
1.5669914 2.4563243 2.9685476
1.6833354 2.4531851 2.9926257
1.701471 2.452158 2.9820216
1.8629882 2.4534471 2.9876449
-1.1884509 -0.60621315 3.0413458
-1.1266789 -0.61089015 3.0257683
-1.0983627 -0.61214679 3.0397682
-1.0291594 -0.60746044 3.0311687
-0.93434191 -0.62274647 3.0103536
-0.86412513 -0.61338723 3.0159531
-0.82426667 -0.60208815 3.0449681
-0.61484545 -0.61846733 3.0054169
-0.53828251 -0.60049224 3.0005872
-0.37869206 -0.60297227 3.0292759
-0.34777725 -0.60039049 3.018626
-1.3031276 -0.55329901 3.0057836
-1.2766329 -0.56593698 3.0358558
-1.2272983 -0.59223729 3.0260286
-1.1402915 -0.59874439 3.0417905
-1.0087967 -0.57414269 3.0232625
-0.96884465 -0.58444953 3.0321662
-0.92038721 -0.59073561 3.0485809
-0.82061607 -0.59942997 3.0315542
-0.7602663 -0.59913272 3.0405614
-0.74458498 -0.59857303 3.0402095
-0.67479491 -0.59642446 3.0397844
-0.62140441 -0.58796698 3.0296547
-0.57464838 -0.58816695 3.0368016
-0.52112973 -0.59133995 3.0332475
-0.46915683 -0.59106708 3.037426
-0.37992933 -0.59013987 3.0408223
-0.34916079 -0.58807689 3.0325375
-0.26874813 -0.58908039 3.0431268
-0.22960013 -0.58322233 3.0148251
-0.11319368 -0.57714534 3.0265741
-0.087671779 -0.57381767 3.0292931
-0.032642066 -0.5527153 3.016696
0.032743424 -0.56754947 3.0164502
0.081552684 -0.56434625 3.0254653
0.11398031 -0.55844831 3.046716
-1.3158932 -0.51839364 3.012867
-1.2851948 -0.5308699 3.0349653
0.15033698 -0.54238081 3.039732
-1.3540318 -0.47038466 3.0120835
-1.3476256 -0.47353232 3.0372891
-1.3612961 -0.41960812 3.0204971
-1.369364 -0.37483585 3.0321736
-1.3787531 -0.32144478 3.0258453
-1.3790282 -0.2806778 3.0215099
-1.3816332 -0.21928075 3.0307384
-1.3833091 -0.16977939 3.0307839
-1.3780354 -0.12313433 3.0266137
-1.3821403 -0.076990649 3.0322239
-1.3817772 -0.030577574 3.0208964
-1.384522 0.02530927 3.0268788
-1.3905404 0.081378952 3.0295763
-1.3874485 0.12834327 3.0314088
-1.3910574 0.1698122 3.0184057
-1.3921129 0.22741888 3.0207374
-1.3896041 0.27665013 3.0241365
-1.3902 0.32868695 3.0265651
-1.4011706 0.3862901 3.0066926
-1.3884979 0.37279937 3.0303552
-1.4032785 0.44873261 3.0050354
-1.3890871 0.42591548 3.0153022
-1.3884264 0.47475949 3.0283966
-1.3926078 0.52562255 3.0316341
-1.3935976 0.57807165 3.0269451
-1.3939375 0.62507659 3.020962
-1.3892165 0.67963308 3.0382323
-1.4022408 0.71124494 3.0055544
-1.3897696 0.72477454 3.0360174
-1.404062 0.75910521 3.0010872
-1.3940179 0.75430143 3.0199389
-1.4412801 0.82797825 3.0200255
-1.4509006 0.86224127 3.0037971
-1.4471928 0.8774752 3.0330575
-1.4591409 0.92281657 3.0086284
-1.4537932 0.96160883 3.0289278
-1.4439365 0.98692101 3.0007405
-1.4619106 1.0233893 3.0320749
-1.4617723 1.0797095 3.0170822
-1.4590656 1.1190972 3.0321739
-1.4658957 1.1764731 3.0423555
-1.4949338 1.236002 3.0474994
-2.3456249 1.2944946 3.0484731
-2.2915258 1.2705226 3.0338314
-1.869156 1.2897708 3.0468464
-2.403759 1.3288585 3.0239756
-2.0502396 1.3003088 3.0460303
-2.4187882 1.3740621 3.0287447
-2.4273996 1.4146838 3.0320699
-2.4330685 1.4786775 3.0276065
-2.4359307 1.5253886 3.0324447
-2.4430194 1.5673625 3.0246546
-2.4426632 1.6233971 3.029973
-2.4557283 1.6837751 3.0251684
-2.4426155 1.6612694 3.0441036
-2.4598477 1.7236818 3.019192
-2.4512808 1.7529002 3.0127127
-2.6057909 2.3146403 3.036088
-2.5826566 2.3301244 3.019285
-2.5339808 2.336885 3.0220609
-2.4785447 2.3433681 3.0197635
-2.4193413 2.3454368 3.0202894
-2.3275445 2.3440821 3.0184593
-2.3762369 2.3527617 3.0288341
-2.3053033 2.3517103 3.0220232
-2.2730877 2.3590581 3.0230072
-2.22346 2.3617878 3.0263424
-2.179352 2.3579259 3.0262113
-2.1180806 2.3672295 3.0294335
-2.076195 2.3751462 3.0268452
-2.027272 2.3765187 3.0263007
-1.9804041 2.3689668 3.0275009
-1.9267197 2.3748722 3.0260961
-1.8746275 2.3776047 3.0211232
-1.8292859 2.3767538 3.0318351
-1.7711382 2.3791707 3.0213637
-1.7178602 2.3838603 3.0237033
-1.6794214 2.3909798 3.0250268
-1.625172 2.391643 3.0261266
-1.5670005 2.3927917 3.023694
-1.5241988 2.3942776 3.0275712
-1.4636238 2.3986673 3.0497122
-1.2668177 2.39747 3.0436027
-1.2472273 2.3957212 3.009305
-1.1671144 2.3983395 3.0023613
-1.1492505 2.3986685 3.0086818
-0.94435197 2.3998837 3.03333
-1.4722767 2.404922 3.0283737
-1.415935 2.4040287 3.0265312
-1.3706326 2.4031661 3.0132275
-1.3203992 2.4067259 3.0245988
-1.2850422 2.4038069 3.0203469
-1.2235069 2.4025803 3.0274363
-1.1871692 2.4025936 3.0270538
-1.1284125 2.4118981 3.0339601
-1.0726407 2.4037979 3.024816
-1.027178 2.4052181 3.0179186
-0.97628647 2.405822 3.0238276
-0.92054027 2.4023814 3.0066853
-0.86891556 2.4072039 3.0260341
-0.82408869 2.4153218 3.0295498
-0.77719033 2.4124665 3.0272317
-0.72190887 2.4172742 3.0221112
-0.67628145 2.4143097 3.0235474
-0.63082039 2.4112315 3.0242062
-0.57994419 2.4175408 3.0212638
-0.52404952 2.4230449 3.0253747
-0.4740904 2.4215236 3.0268462
-0.41738757 2.4263184 3.0262072
-0.37218803 2.4179995 3.0205703
-0.32892084 2.4219811 3.029721
-0.27699551 2.4278872 3.0414445
-0.22396682 2.4252272 3.0417132
-0.16215882 2.420516 3.0389981
-0.083462387 2.4264796 3.0491202
-0.030695966 2.4238145 3.0465837
0.057089534 2.4235737 3.0459754
0.30434212 2.4352953 3.0487158
0.3933647 2.4403753 3.0467453
0.48250806 2.4442551 3.0410397
0.51852459 2.4470763 3.0397449
0.57997942 2.4446397 3.0273914
0.60383308 2.4337068 3.0095489
0.65760511 2.4369991 3.0043592
0.84288889 2.4447756 3.0108283
0.93040085 2.4459608 3.0266972
0.97684747 2.4497664 3.0194292
1.0205098 2.4477236 3.016696
1.0720674 2.4436147 3.0205548
1.1267711 2.4445131 3.0047948
1.1724087 2.4461358 3.0300062
1.2333837 2.446404 3.0353191
1.2542408 2.4451623 3.0391836
1.3296164 2.44398 3.0196919
1.3693746 2.4401226 3.0185487
1.427471 2.4446046 3.0253305
1.4754299 2.4399621 3.0255473
1.5256304 2.4383242 3.029052
1.5733234 2.4407353 3.014864
1.6330956 2.4405992 3.0257671
1.6814623 2.4357517 3.0308468
1.7251706 2.4345274 3.0291538
1.7693779 2.4335716 3.0273159
1.8245915 2.4340756 3.0216572
1.8756114 2.4362481 3.0318999
1.9327687 2.4322436 3.0204923
1.9751874 2.4279342 3.0201232
2.0170534 2.4336073 3.0293155
2.0714555 2.4419894 3.0355604
2.1236627 2.4360704 3.0259449
2.2253568 2.4420104 3.0391495
2.2809665 2.4382401 3.0301068
0.53753191 2.4529264 3.0444548
0.55470729 2.4503105 3.0385618
0.63568282 2.4545591 3.0307629
0.68194151 2.4611249 3.0307961
0.71794993 2.4563572 3.0293846
0.76976407 2.4574864 3.0296407
0.81996524 2.4562502 3.0311656
0.88254577 2.4559615 3.0159359
0.90773588 2.4576182 3.048044
0.97203803 2.4587367 3.020551
1.0494778 2.4512191 3.0006413
1.2217659 2.4536932 3.0239346
1.2790669 2.4518588 3.0269058
1.4519726 2.4504547 3.0103471
1.6449649 2.4521828 3.0096784
1.6670789 2.4570057 3.0065129
1.7288399 2.4724193 3.0436926
1.7534581 2.4801638 3.0436072
2.190671 2.4567719 3.0376029
2.2567451 2.4544206 3.0416048
-1.1689509 -0.60163593 3.0503993
-1.2529835 -0.55838341 3.0517936
-1.2217932 -0.57041746 3.0649679
-1.1774403 -0.57488942 3.0766482
-1.1302159 -0.57789981 3.080009
-1.075556 -0.58134031 3.0742943
-1.0247226 -0.56613755 3.0858736
-0.97835666 -0.57069439 3.0817897
-0.92344576 -0.5831911 3.0782497
-0.87453324 -0.58470958 3.0735152
-0.82215196 -0.58768243 3.079201
-0.76908404 -0.58586955 3.0784657
-0.72512752 -0.58215612 3.0734105
-0.67416239 -0.58139181 3.0746598
-0.64229584 -0.57834268 3.0709732
-0.56839204 -0.587147 3.0864315
-0.52721471 -0.58699715 3.069958
-0.47251287 -0.5780493 3.0813713
-0.43213099 -0.57612604 3.0748363
-0.37483421 -0.57892084 3.0619678
-0.32119325 -0.58403414 3.0702291
-0.27435458 -0.57858479 3.0808899
-0.22780839 -0.57579648 3.0710402
-0.1796751 -0.57018101 3.081208
-0.13237813 -0.5682162 3.0666571
-0.063018844 -0.56381416 3.0769675
-0.022268428 -0.55452096 3.0889258
0.027548034 -0.56161147 3.0819159
0.078054801 -0.56454468 3.0807183
-1.3137634 -0.50717366 3.0888591
-1.2664623 -0.52721941 3.0718303
-1.2340978 -0.54063749 3.0851102
-1.1816188 -0.54576069 3.09149
0.11858709 -0.54460645 3.0744705
0.15955922 -0.53419179 3.0784574
-1.3349795 -0.47610575 3.0744538
-1.3546621 -0.42136601 3.0588038
-1.3447908 -0.42837551 3.0866535
-1.3557601 -0.37559506 3.0723665
-1.349225 -0.36165377 3.0925629
-1.3596603 -0.33007935 3.0665565
-1.3462919 -0.32946861 3.0882871
-1.3666646 -0.27544075 3.072469
-1.3493576 -0.29088008 3.0980561
-1.3697873 -0.22724019 3.071682
-1.3705667 -0.1693287 3.0715942
-1.3706971 -0.1278719 3.0732379
-1.3688469 -0.081254102 3.0861602
-1.3738563 -0.027828539 3.0660527
-1.3728604 0.026218811 3.0664237
-1.3784119 0.078351796 3.071559
-1.3756418 0.12141542 3.0742962
-1.3766819 0.17186435 3.0649207
-1.3792412 0.22334555 3.0654063
-1.3756126 0.28292218 3.0824006
-1.3780556 0.32420707 3.0725672
-1.3711718 0.37244564 3.0698764
-1.3785025 0.42446172 3.0716078
-1.3790992 0.47395048 3.0839999
-1.3814331 0.52377552 3.0788646
-1.3780168 0.5729171 3.0706398
-1.3807572 0.62542915 3.0724843
-1.3800018 0.67325079 3.075911
-1.3801785 0.72424173 3.0763392
-1.4112105 0.77592289 3.0757051
-1.3886796 0.75271422 3.0911379
-1.4456447 0.82188433 3.0823021
-1.4426498 0.87551528 3.0815167
-1.4524641 0.92286384 3.0766559
-1.4442451 0.92383367 3.0832336
-1.4512199 0.97868609 3.0610404
-1.4443468 0.97012448 3.0793378
-1.4548212 1.0295298 3.0740352
-1.4475906 1.0117034 3.0876107
-1.4484696 1.069458 3.0751281
-1.4464964 1.1169071 3.0579052
-1.4642537 1.1686136 3.0737894
-1.4799381 1.2142795 3.0784652
-2.3315027 1.2967557 3.065624
-2.0309644 1.2991993 3.05305
-1.609243 1.294697 3.0657971
-1.5825087 1.2866178 3.0534139
-1.5385084 1.2917221 3.0852392
-2.3792989 1.3405825 3.0741546
-2.3238556 1.3236871 3.0705597
-2.2782576 1.3401675 3.0866578
-2.2214208 1.3310647 3.0797276
-2.1828353 1.3385996 3.094569
-2.115253 1.3334916 3.084614
-2.0931959 1.3308721 3.0885272
-1.9962473 1.3463585 3.0965712
-1.9263759 1.3111553 3.0842872
-1.8212304 1.3157473 3.0904982
-1.6643754 1.3116716 3.0919127
-1.6440798 1.3090608 3.0928378
-2.4035139 1.3811209 3.0631986
-2.3810661 1.3841926 3.0884867
-2.3272154 1.3742887 3.0902481
-2.2826111 1.3879595 3.0959496
-2.2402024 1.3696859 3.0957818
-2.1746881 1.357229 3.0945249
-2.4110303 1.4281247 3.0762806
-2.374145 1.4376485 3.0977545
-2.3356528 1.4150715 3.0945537
-2.4184835 1.4699819 3.0706429
-2.3796434 1.469061 3.093667
-2.3269634 1.4594252 3.0975404
-2.2931454 1.4834481 3.0959046
-2.4153001 1.526596 3.0834219
-2.3869066 1.5358832 3.0980833
-2.4193027 1.5818994 3.0782135
-2.3958023 1.5699714 3.0974219
-2.4216886 1.6226234 3.0806727
-2.3696952 1.6187441 3.098093
-2.4290643 1.6759214 3.0762017
-2.3659697 1.6511561 3.0989499
-2.4250324 1.7272723 3.0766988
-2.3849535 1.7218008 3.0968008
-2.4226289 1.7833142 3.0838795
-2.3838253 1.7750834 3.0984833
-2.4258535 1.831584 3.0871258
-2.3872309 1.8242391 3.0944433
-2.42345 1.8770281 3.0912795
-2.3605504 1.8646016 3.0966589
-2.44414 1.9312196 3.0878267
-2.4560597 1.9701847 3.0865321
-2.427958 1.9817705 3.0949047
-2.3843379 1.9793143 3.0994871
-2.4345634 2.0261145 3.0891678
-2.3920181 2.0053554 3.0983963
-2.4682083 2.0757661 3.0949011
-2.3586519 2.0695107 3.0985408
-2.5040555 2.1869419 3.090812
-2.5176835 2.229429 3.0884404
-2.4784184 2.2316494 3.0926661
-2.5665767 2.2724757 3.0798244
-2.5247686 2.2860804 3.0819352
-2.4757135 2.2689123 3.0896015
-2.419086 2.2938728 3.0976737
-2.3466361 2.2928979 3.0901365
-2.5684876 2.3084116 3.0598681
-2.5206001 2.3226392 3.0677109
-2.4733393 2.3271167 3.0731802
-2.4158301 2.3292248 3.0734673
-2.364923 2.3231623 3.0742071
-2.3229296 2.3295076 3.0899456
-2.2723248 2.3389227 3.0887411
-2.222914 2.3387735 3.0767932
-2.1754854 2.3404658 3.0842314
-2.1219795 2.3449523 3.0751514
-2.0832276 2.3456275 3.0996611
-2.0092897 2.3479519 3.0978451
-2.3168719 2.3536243 3.0706592
-2.2686267 2.3549373 3.0525515
-2.1701827 2.3545594 3.0634899
-2.0728369 2.3584452 3.0677326
-2.0260069 2.3593197 3.0724578
-1.9813253 2.3575046 3.0827549
-1.9291598 2.3607848 3.0702155
-1.8832887 2.3662307 3.0697138
-1.8227576 2.3655357 3.0737114
-1.7789855 2.3683882 3.0819888
-1.7278572 2.3763967 3.0760751
-1.6770636 2.3799298 3.069001
-1.6352735 2.3831608 3.0764391
-1.5745023 2.379318 3.0763171
-1.5199007 2.3861599 3.0687821
-1.4751228 2.3864763 3.0776248
-1.4251893 2.3950195 3.0801239
-1.3724314 2.3969767 3.0699294
-1.3258506 2.3940239 3.0762532
-1.2673174 2.3974092 3.0824742
-1.2244062 2.3947582 3.0737906
-1.1870275 2.3933616 3.0841732
-1.128812 2.3957109 3.0867543
-1.0128528 2.3991041 3.0875821
-0.97585934 2.3974457 3.0951505
-1.4284331 2.4019768 3.0690355
-1.3824073 2.4052706 3.0517006
-1.2871863 2.4000933 3.079428
-1.1652845 2.4046698 3.0690227
-1.1313136 2.4049377 3.0705693
-1.0699073 2.4048746 3.0795028
-1.0291471 2.4083097 3.0679581
-0.97108835 2.4038329 3.06831
-0.92016327 2.4102273 3.0755439
-0.87408078 2.4062619 3.0740609
-0.82272482 2.4075696 3.079201
-0.76636451 2.4075925 3.076335
-0.72596353 2.4107187 3.07617
-0.67421645 2.411901 3.0733001
-0.62562978 2.418576 3.0818286
-0.5736357 2.4110973 3.0716419
-0.52419245 2.4131072 3.0727918
-0.47454429 2.4134336 3.0712323
-0.42097819 2.4204714 3.0695448
-0.37112793 2.4173596 3.0742424
-0.32839578 2.4194522 3.0741024
-0.28350255 2.423882 3.078289
-0.22521928 2.4279923 3.0653689
-0.17708039 2.4316242 3.0776737
-0.1192703 2.4308472 3.0704985
-0.072230771 2.4306049 3.0770695
-0.03093572 2.4308574 3.0756581
0.022173651 2.4366903 3.0797112
0.078709759 2.430347 3.0743515
0.12840889 2.4354389 3.0760314
0.18167616 2.4375856 3.0765536
0.22626796 2.4405208 3.0778739
0.27080178 2.4420836 3.0768909
0.3294093 2.4444256 3.08371
0.37436295 2.4439816 3.0738091
0.42682123 2.4460292 3.0673389
0.45656595 2.4396265 3.0843441
0.53092229 2.4456079 3.0706596
0.58625185 2.4440198 3.0777709
0.62748718 2.4462378 3.0703974
0.67950797 2.4487743 3.0856862
0.73301232 2.447155 3.0733678
0.77412331 2.4453516 3.0984492
0.81199902 2.4473584 3.0810413
0.92109412 2.4419472 3.078402
0.97236478 2.4477735 3.0915561
1.0088028 2.4475646 3.0814958
1.0991031 2.4454041 3.0523059
1.182004 2.4477499 3.0674307
1.2272335 2.4462039 3.0888965
1.2891237 2.4406245 3.0593009
1.3275146 2.4464033 3.0834317
1.3760439 2.4358606 3.0798054
1.4211071 2.4377561 3.0690188
1.4816841 2.4355578 3.0711708
1.5266354 2.4371066 3.0717506
1.5793005 2.4322579 3.0657699
1.624896 2.435138 3.078054
1.6702386 2.4294186 3.0767763
1.7218463 2.426122 3.0721445
1.7779789 2.4297435 3.0835342
1.8308156 2.4262416 3.0733452
1.8770508 2.4264441 3.0720916
1.9243072 2.4274378 3.0713305
1.9757787 2.4225359 3.0734951
2.0149324 2.4238622 3.0693614
2.0838401 2.4378331 3.0859156
2.1212871 2.4361932 3.0769844
2.1754491 2.4391127 3.0822303
2.2168941 2.4446702 3.0748906
2.3106632 2.4392929 3.081811
2.3508117 2.4494038 3.0743046
0.3240388 2.4508443 3.0666816
0.43044576 2.4502022 3.0550594
0.48813403 2.454776 3.0882971
0.50614548 2.4552619 3.08653
0.57694256 2.4515584 3.0714245
0.66917402 2.4559643 3.0733471
0.71071798 2.4546406 3.0638835
0.78031784 2.4544897 3.073307
0.83653724 2.4516068 3.0752268
0.87399763 2.4552202 3.0712636
0.94948357 2.4540746 3.0692048
0.97687513 2.4559832 3.0768878
1.031014 2.455163 3.067039
1.0746094 2.4519231 3.0686755
1.1359869 2.4660366 3.0694895
1.1599617 2.459532 3.0911379
1.2034039 2.4538846 3.069021
1.2682774 2.453922 3.0858898
2.2632551 2.4522142 3.0847597
-1.1177913 -0.56065935 3.101697
-1.0687357 -0.55945569 3.1063194
-1.0333651 -0.55716586 3.1008055
-0.97132909 -0.56330109 3.1133828
-0.92638922 -0.56234056 3.1169777
-0.87409425 -0.56206709 3.1164167
-0.82770234 -0.56525117 3.1238866
-0.7791366 -0.56575704 3.1294382
-0.72297329 -0.5620386 3.1356118
-0.67316419 -0.56298918 3.1355751
-0.62132031 -0.56403273 3.1234376
-0.57774669 -0.56621403 3.1302788
-0.52409059 -0.56694025 3.1264787
-0.48364797 -0.56105393 3.1371965
-0.4173314 -0.56647813 3.1245461
-0.37441429 -0.5672521 3.1238117
-0.33264673 -0.56679523 3.1328521
-0.28035751 -0.56328315 3.1224744
-0.21988678 -0.56526756 3.1310105
-0.17757818 -0.56302518 3.1332104
-0.12074561 -0.56224406 3.1305232
-0.075099841 -0.55984771 3.1181068
0.023774026 -0.55495667 3.1125953
0.078980409 -0.55605966 3.118211
-1.2725422 -0.5095582 3.1172838
-1.2248366 -0.51850379 3.123158
-1.175837 -0.52269965 3.1295934
-1.1282357 -0.52652848 3.1353753
-1.0780939 -0.53296852 3.1372981
-1.0323682 -0.52863526 3.1331155
-0.97574013 -0.54409266 3.1300895
-0.92537451 -0.54192525 3.1271827
-0.88298547 -0.5363245 3.1399136
-0.83000499 -0.54036283 3.1356633
-0.79061002 -0.5398373 3.1393042
-0.67314363 -0.53844929 3.1491535
-0.64034599 -0.53675854 3.1435165
-0.51514333 -0.5494566 3.1415966
-0.42329788 -0.54913813 3.1487715
-0.36167029 -0.54823053 3.148556
-0.32311153 -0.54741752 3.1465926
-0.06164901 -0.53893894 3.1377952
-0.024453744 -0.53030002 3.1364858
0.0038499681 -0.54492295 3.143048
0.079451807 -0.54433227 3.1389749
0.12939709 -0.53225631 3.1274593
0.16989005 -0.52084237 3.1342859
-1.3159889 -0.4713923 3.1130614
-1.2804761 -0.4754912 3.1298201
-1.2315965 -0.47499862 3.1397724
-1.1873282 -0.47947952 3.1451855
-1.1401126 -0.48900503 3.1489172
-1.3259593 -0.42591608 3.1212704
-1.2792861 -0.4301818 3.1401901
-1.2306429 -0.42586613 3.1478574
-1.1987035 -0.43498278 3.1491222
-1.3286929 -0.38053635 3.1265275
-1.2825022 -0.38096386 3.1437941
-1.2499059 -0.39659142 3.1493003
-1.3509808 -0.31486183 3.1001847
-1.3281618 -0.32487342 3.1295912
-1.2875437 -0.32795882 3.1457808
-1.3544531 -0.26038772 3.1117005
-1.3286793 -0.26947665 3.134469
-1.2912925 -0.27280873 3.1470366
-1.3547182 -0.22095482 3.1144106
-1.3276596 -0.22172111 3.1346097
-1.2881862 -0.22175653 3.146517
-1.356866 -0.1772486 3.1110046
-1.3268629 -0.17404808 3.1347985
-1.2893327 -0.17729798 3.1469212
-1.3576758 -0.12268903 3.1085205
-1.3274879 -0.12658267 3.1378422
-1.2963972 -0.13458116 3.1483305
-1.3570181 -0.074730068 3.1141906
-1.3290312 -0.079114482 3.1425076
-1.2962925 -0.086996183 3.1492045
-1.3605515 -0.031303745 3.1125469
-1.3279785 -0.031488754 3.1405702
-1.3604913 0.023904841 3.1123867
-1.3275242 0.024014072 3.1395035
-1.296295 0.00021839373 3.1499877
-1.3603579 0.079109706 3.1114151
-1.3281783 0.079526395 3.1403852
-1.3619612 0.12657185 3.1139526
-1.328329 0.12712216 3.1396055
-1.296491 0.12710153 3.1485691
-1.3635811 0.17416286 3.1160049
-1.3295858 0.17487118 3.1409314
-1.2973862 0.17480277 3.1491203
-1.3640141 0.22166826 3.1148517
-1.3307306 0.22270325 3.1415036
-1.2978241 0.20661485 3.1488397
-1.3645527 0.26636797 3.1177101
-1.3322306 0.27067679 3.1424019
-1.3629489 0.33010659 3.1124127
-1.3365064 0.32033783 3.1397841
-1.3623635 0.38613579 3.1203766
-1.3362265 0.37787509 3.144058
-1.3572451 0.43015456 3.1252768
-1.3294615 0.43144822 3.1444504
-1.3612225 0.47811884 3.1206043
-1.333596 0.47708249 3.1453829
-1.3606635 0.52701068 3.1227119
-1.3436762 0.52974564 3.1462643
-1.361159 0.57511038 3.1177979
-1.33972 0.57789588 3.1415768
-0.93196219 0.56170821 3.146765
-0.89187407 0.55616742 3.1218975
-1.3639199 0.62428218 3.1175041
-1.3402367 0.63063633 3.1421344
-1.363272 0.67696685 3.1242094
-1.3489592 0.66069794 3.1412621
-1.3656603 0.72550184 3.1274989
-1.4096645 0.7881543 3.1192179
-1.3854849 0.77629554 3.1395774
-1.4237069 0.82710636 3.1206269
-1.3910923 0.82440889 3.1483946
-1.4206529 0.86864728 3.1292572
1.2407256 0.89968312 3.1199348
-1.4259175 0.92721307 3.13131
-1.4296281 0.97658747 3.1289961
-1.4352857 1.0297825 3.1349971
1.1812451 1.0394268 3.1454048
-1.4378651 1.0719221 3.1252995
1.1810172 1.0554776 3.1409464
-1.4393048 1.1291835 3.1209681
1.1977253 1.1285207 3.1449153
-1.4542242 1.1761132 3.118962
-1.434983 1.165128 3.1291852
1.1990774 1.1625419 3.1398211
-1.4800059 1.2248082 3.127764
-1.5147126 1.2793205 3.1336098
-1.4827224 1.267797 3.1444232
1.1848369 1.268895 3.1380794
-2.1645787 1.338474 3.1047995
-2.0715561 1.3430711 3.1077855
-2.0335174 1.3356879 3.1050963
-1.9760387 1.335779 3.1048474
-1.9201902 1.3365006 3.1053004
-1.8750463 1.3381503 3.1029217
-1.8319575 1.3409274 3.1028097
-1.7796813 1.3343235 3.107486
-1.7168303 1.331643 3.1088161
-1.6784334 1.3342061 3.1141789
-1.6235846 1.3371521 3.1269894
-1.5697256 1.3350364 3.1422298
-1.5296179 1.3171284 3.1471698
-2.273638 1.3789142 3.105341
-2.2281423 1.3826807 3.1119769
-2.1753931 1.3815008 3.1070137
-2.1234207 1.3773305 3.1109307
-2.0681233 1.3735962 3.1112823
-2.0251541 1.3777319 3.1164098
-1.9823883 1.3817673 3.1208153
-1.9238768 1.3776916 3.1185453
-1.8753203 1.3870157 3.1213436
-1.8293304 1.3725016 3.1162972
-1.7733898 1.3725946 3.1245139
-1.7271311 1.3774951 3.1319675
-1.6770519 1.3775548 3.1316991
-1.6220125 1.3760188 3.1361353
-1.5804057 1.3619411 3.1461806
-1.5349115 1.3516237 3.1483977
-2.387563 1.4214351 3.1043785
-2.3104534 1.4271064 3.1047127
-2.2756443 1.4319102 3.1087787
-2.2275095 1.4247001 3.1155138
-2.1786411 1.4259511 3.1162641
-2.12993 1.4268874 3.1159682
-2.0712209 1.4267781 3.1176999
-2.0262463 1.425036 3.1218019
-1.9755566 1.4268373 3.1211362
-1.9277025 1.4210347 3.1170642
-1.8799144 1.4250497 3.1235843
-1.8255931 1.4255185 3.1296332
-1.7754841 1.4260067 3.1360066
-1.7266852 1.4245865 3.1320555
-1.67325 1.4247649 3.1415431
-1.6281325 1.4216493 3.1442704
-1.5863503 1.4270341 3.1491542
-2.354454 1.4989201 3.1042829
-2.3392725 1.4858491 3.1063905
-2.2709374 1.471771 3.1060801
-2.2248015 1.4703335 3.1139221
-2.1722946 1.4741495 3.1159072
-2.1199415 1.468895 3.1242573
-2.075959 1.4817547 3.1260209
-2.0256524 1.4715824 3.1241071
-1.9865847 1.4750333 3.1254158
-1.9261128 1.4755268 3.1291618
-1.8729231 1.46885 3.1368551
-1.8245003 1.4823033 3.1359022
-1.7725557 1.4709243 3.1400137
-1.7217476 1.4707103 3.1405666
-1.6776135 1.4752147 3.1457541
-1.6108652 1.4595255 3.1471946
-2.3715003 1.5246173 3.106535
-2.3270659 1.5274614 3.1114795
-2.273922 1.5237876 3.1148465
-2.2299957 1.5240936 3.1176562
-2.1762402 1.5286324 3.1260355
-2.1283927 1.5249039 3.130863
-2.0748994 1.5239754 3.1286569
-2.0258927 1.5227735 3.1344066
-1.9757187 1.522136 3.1361682
-1.9224961 1.5251522 3.1377409
-1.8753338 1.5225264 3.1429214
-1.8169068 1.520013 3.1370337
-1.7705833 1.5247226 3.1439247
-1.727108 1.5170858 3.1436327
-1.6858501 1.5324788 3.1490066
-2.3628256 1.576317 3.1058149
-2.3178122 1.57235 3.1126873
-2.2744594 1.576589 3.1189046
-2.2187066 1.5731634 3.1248133
-2.1725945 1.5759948 3.130043
-2.1263697 1.5784129 3.1338825
-2.0759501 1.5750668 3.1355197
-2.0303679 1.578874 3.1401355
-1.9763026 1.5727879 3.1431246
-1.9258826 1.5613631 3.13867
-1.8752829 1.5657644 3.1479735
-1.8254036 1.5728028 3.1471069
-1.7809579 1.568769 3.1469302
-1.7337372 1.5615271 3.1499498
-1.6880524 1.5521194 3.1462574
-2.3721843 1.6204748 3.1012578
-2.3270407 1.6248509 3.1118975
-2.2826402 1.6295009 3.1224523
-2.2270505 1.6261364 3.1291571
-2.1751361 1.6227961 3.1273327
-2.12182 1.6198736 3.1385844
-2.0709257 1.6336876 3.1409156
-2.0215611 1.6236465 3.1415195
-1.9748322 1.6223783 3.1462874
-1.8844619 1.6302761 3.147356
-1.7862929 1.6124591 3.1498048
-1.7266608 1.642643 3.1482172
-2.403935 1.6739032 3.106523
-2.3683453 1.6880693 3.1074948
-2.3233719 1.677054 3.1124871
-2.2635007 1.6669269 3.116713
-2.224334 1.6775423 3.1277764
-2.1726589 1.673731 3.1310973
-2.1258838 1.6733968 3.1401412
-2.0816743 1.6792672 3.1408284
-2.0377467 1.6741924 3.1428032
-1.9693743 1.6692539 3.1484699
-1.904735 1.6555538 3.1473193
-1.773946 1.6714418 3.1451416
-2.3773668 1.7280258 3.1033216
-2.327044 1.7238221 3.1099267
-2.2740464 1.7225412 3.1223023
-2.2240491 1.7292969 3.1299794
-2.1724815 1.7269776 3.1376204
-2.1240227 1.7256649 3.1398258
-2.0688744 1.7211565 3.1429923
-2.0309765 1.7034386 3.1470008
-1.9930949 1.7396864 3.1484301
-1.9141269 1.7002859 3.1467795
-2.3573835 1.7872453 3.108005
-2.3191741 1.7717882 3.1045268
-2.2760799 1.7712412 3.1188669
-2.2233286 1.7740746 3.1299067
-2.1761758 1.7759751 3.134732
-2.1302543 1.778602 3.1401765
-2.0819507 1.7694941 3.1453261
-2.0439603 1.7516005 3.1499872
-1.9978591 1.7623988 3.1473277
-2.3653312 1.8222055 3.1038675
-2.3258686 1.8319101 3.1132102
-2.2695115 1.8263518 3.1179531
-2.2232254 1.8244569 3.1278
-2.1808457 1.8262043 3.1325073
-2.1240466 1.8203132 3.1405723
-2.0743995 1.828233 3.1443419
-2.0335364 1.814814 3.1461523
-2.3859501 1.8867183 3.1056499
-2.3277574 1.87813 3.1110656
-2.272562 1.8749725 3.1216383
-2.224041 1.8760393 3.1263285
-2.1779633 1.8788425 3.1332383
-2.1281421 1.8685409 3.1383879
-2.0733232 1.8807207 3.1444452
-2.4188662 1.9351357 3.1050575
-2.3711295 1.9244881 3.1063447
-2.3312569 1.9296926 3.1117256
-2.2845614 1.9235413 3.1177018
-2.2294376 1.9231271 3.1234138
-2.1723914 1.9219503 3.1334777
-2.1218743 1.9274954 3.1436372
-2.0870519 1.9312623 3.1456494
-2.0346286 1.9082125 3.1495314
-2.4098165 1.96454 3.1047647
-2.3691142 1.9774847 3.1053135
-2.3264036 1.9814327 3.1143441
-2.2712159 1.967369 3.1171699
-2.2255158 1.9708552 3.1262903
-2.1803436 1.974563 3.1350598
-2.1269112 1.9795182 3.1404109
-2.0827897 1.9741265 3.1469982
-2.4037325 2.0349388 3.1022816
-2.3679929 2.0296426 3.1140642
-2.3173285 2.0300062 3.1107616
-2.2768412 2.0197294 3.1227388
-2.2289674 2.0214081 3.1292317
-2.181006 2.0226326 3.1343927
-2.1308365 2.0289302 3.1408558
-2.0898571 2.0285621 3.1482437
-2.42749 2.0759971 3.1043961
-2.3794882 2.063072 3.1074207
-2.3299596 2.0797431 3.1218309
-2.2806785 2.0710964 3.1252456
-2.2331166 2.0731573 3.1325617
-2.1824841 2.0719314 3.1342812
-2.1187887 2.0764179 3.1424239
-2.0636973 2.0792797 3.1415982
-2.0479348 2.0538683 3.1485119
-2.4590676 2.1149919 3.1046352
-2.4183559 2.1252167 3.1081579
-2.3688135 2.1169577 3.1138546
-2.3187373 2.1270354 3.122839
-2.2671595 2.1160266 3.123107
-2.2214892 2.1294839 3.1357803
-2.1741333 2.1216574 3.1394007
-2.073323 2.1180756 3.148103
-2.0418031 2.1250405 3.1464028
-2.4685872 2.1726739 3.1032476
-2.4353626 2.173748 3.1096413
-2.3834362 2.1700397 3.108871
-2.3308146 2.1777818 3.1218657
-2.2798386 2.1673052 3.1254227
-2.2254784 2.1758292 3.1329861
-2.1687362 2.1749475 3.1397133
-2.1270595 2.1772175 3.1390412
-2.0800536 2.177084 3.144964
-2.0344234 2.1861668 3.1470013
-1.9848777 2.1840663 3.1456654
-2.4753613 2.2086205 3.1015975
-2.4216692 2.2265813 3.1024129
-2.374649 2.2205184 3.1121492
-2.3204067 2.2269001 3.1160147
-2.2761502 2.2227814 3.1271162
-2.2309351 2.2273331 3.1384768
-2.1769269 2.2226834 3.1360998
-2.1312799 2.2359648 3.1384625
-2.0780518 2.2211192 3.1404788
-2.0233867 2.2375174 3.1451569
-2.4397483 2.2638199 3.1039124
-2.3755102 2.2711036 3.1076264
-2.3251321 2.2764008 3.1112299
-2.26772 2.2741549 3.1216371
-2.2284155 2.2747033 3.130007
-2.1792378 2.2727566 3.1254208
-2.1187332 2.2830424 3.1358519
-2.0689487 2.2717273 3.1432145
-2.0196285 2.2800715 3.1375291
-1.9749541 2.2834108 3.144165
-2.3076952 2.3142357 3.1051817
-2.2710249 2.317595 3.1091366
-2.2151942 2.3112056 3.105926
-2.1661403 2.3112912 3.1107593
-2.1217291 2.3258839 3.1147304
-2.0692968 2.3195539 3.1188624
-2.0230396 2.3231409 3.1176479
-1.9780117 2.3260701 3.123934
-1.9309319 2.3235428 3.1370571
-1.8731359 2.3317156 3.1349528
-1.821655 2.3301916 3.1431127
-1.776155 2.3404949 3.1377254
-1.7317026 2.3420606 3.1392953
-1.6996814 2.3375988 3.1468391
-1.6341748 2.345175 3.1451867
-1.9659287 2.3623846 3.1000459
-1.929373 2.3534584 3.1043139
-1.8847547 2.3559575 3.109189
-1.8278875 2.3547878 3.1135342
-1.7707107 2.362154 3.1093719
-1.7237922 2.3611853 3.1156776
-1.6749731 2.3584855 3.1267221
-1.6215761 2.3692863 3.1250253
-1.5758678 2.3696446 3.134872
-1.5195467 2.3704877 3.1239276
-1.4702983 2.3779507 3.1181669
-1.4252186 2.3766963 3.1298485
-1.3736532 2.3841262 3.1200235
-1.3263321 2.3837628 3.120657
-1.2748919 2.3838718 3.1189864
-1.2245362 2.3897462 3.1348004
-1.1661954 2.3886592 3.1226921
-1.1225488 2.387856 3.130996
-1.0733141 2.3963418 3.1422958
-1.0225472 2.3945088 3.1348157
-0.97365463 2.3962016 3.1313121
-0.93750221 2.3956022 3.1272354
-0.87119645 2.3910041 3.1489279
-0.78021652 2.3973246 3.1285942
-0.72758919 2.3960495 3.1312327
-1.115609 2.4066579 3.1064551
-1.0778693 2.4043953 3.1143534
-1.022045 2.4024959 3.1273336
-0.97739887 2.4012604 3.1001306
-0.91436636 2.4028561 3.1183026
-0.86833119 2.40136 3.1270978
-0.8184002 2.4030817 3.1284742
-0.77154362 2.4012725 3.1115625
-0.70160133 2.4089947 3.1356814
-0.67680728 2.4089704 3.1186309
-0.62153417 2.4105413 3.1248291
-0.56676662 2.4164426 3.1235213
-0.5222773 2.4188342 3.1330442
-0.47106773 2.4145849 3.1253207
-0.42454791 2.4143529 3.1129839
-0.37171569 2.4193878 3.1250751
-0.31749672 2.4158857 3.1253765
-0.27196577 2.4175503 3.113816
-0.2278471 2.4225998 3.1232331
-0.17416324 2.4217045 3.1249008
-0.12056938 2.4219093 3.1272042
-0.075889885 2.4213297 3.1276159
-0.031163327 2.4251978 3.1160567
0.022270674 2.4214518 3.1113088
0.075702555 2.4226205 3.1121302
0.13429821 2.4308369 3.1296897
0.17468721 2.4280298 3.1330934
0.2188379 2.4297807 3.1158388
0.27326006 2.4372854 3.1220093
0.32254568 2.4332316 3.1216083
0.38178024 2.4395065 3.1242802
0.42156035 2.4346721 3.1260242
0.47692418 2.4420857 3.1291623
0.52423376 2.4439819 3.1254535
0.57296073 2.4458838 3.117383
0.62069154 2.4426758 3.1322422
0.73491055 2.4473989 3.1451991
0.76289123 2.4493117 3.142252
0.84068328 2.4419632 3.1402514
0.87825906 2.4427342 3.1229212
0.92420024 2.4469273 3.139864
1.0251642 2.4477322 3.1273048
1.0751351 2.4463534 3.1176114
1.117103 2.4483273 3.1271012
1.1902852 2.4468513 3.1410947
1.2280879 2.447782 3.1301146
1.2724582 2.4392323 3.1264119
1.3305435 2.4458094 3.1315379
1.3853478 2.4407301 3.1444099
1.4257432 2.4322853 3.1264887
1.4737995 2.4368052 3.1246457
1.5271164 2.4320762 3.1267953
1.5679072 2.4268177 3.1224434
1.6256361 2.4260156 3.1207924
1.6778276 2.4193377 3.1262088
1.7316012 2.4244444 3.1312408
1.7776624 2.4231119 3.1178041
1.8192786 2.4252872 3.1346726
1.8836656 2.4231133 3.1208594
1.9220111 2.4198031 3.1298904
1.9814399 2.433938 3.1378071
2.0209188 2.4245324 3.1314068
2.0637696 2.4254596 3.1247871
2.1361654 2.4341841 3.1308572
2.1608994 2.4293218 3.1323316
2.2243414 2.4440112 3.1288128
2.2788434 2.4486876 3.1201587
2.319886 2.4392922 3.1285007
2.3621364 2.4406767 3.1033185
0.5449881 2.4508772 3.11041
0.67738789 2.4557049 3.1308537
0.73151606 2.4542758 3.1188653
0.79061288 2.4502959 3.1379158
0.81859732 2.4519835 3.1342282
0.98141176 2.4520702 3.1324527
1.0777667 2.4525735 3.1255057
1.1278573 2.4571426 3.1106613
1.1756692 2.4545152 3.1176927
1.2949098 2.4505634 3.1112273
1.3615893 2.4509282 3.1277483
-0.56424481 -0.5526886 3.1548598
-0.5407542 -0.55221832 3.1548319
-0.45515728 -0.55842495 3.1543999
-0.3935228 -0.55017209 3.1573026
-0.1333136 -0.55608231 3.1608806
-1.0821341 -0.50351632 3.1525929
-1.0135015 -0.51772648 3.1563547
-0.97190994 -0.51647133 3.1570597
-0.92556542 -0.51797658 3.1590376
-0.86459285 -0.51972497 3.158201
-0.81990832 -0.52059811 3.1616564
-0.77008212 -0.52555323 3.1640186
-0.72414643 -0.52654731 3.1651952
-0.67697293 -0.52405661 3.1688874
-0.62750924 -0.52315986 3.1700263
-0.57714778 -0.52340919 3.1745672
-0.52327543 -0.52552199 3.1753221
-0.47383344 -0.52383888 3.1797915
-0.42592886 -0.52737671 3.1711371
-0.37547079 -0.52409863 3.1819651
-0.32054785 -0.52902728 3.1721277
-0.27329585 -0.53054214 3.1756668
-0.22548686 -0.53510159 3.1713471
-0.18125165 -0.53228647 3.1750426
-0.1236099 -0.53144366 3.1763716
-0.076879755 -0.52599591 3.1746812
-0.041982573 -0.51980776 3.1777318
0.028790914 -0.53130525 3.1620581
0.080060273 -0.52563399 3.1655209
0.12196855 -0.52180272 3.1649427
-1.1666844 -0.46253258 3.1536114
-1.1206332 -0.46938288 3.1565015
-1.0781575 -0.47451943 3.1582625
-1.0314952 -0.47048706 3.1562726
-0.9771055 -0.46830454 3.162642
-0.92031789 -0.4770076 3.16502
-0.868213 -0.4748714 3.164201
-0.82041138 -0.47425321 3.1684418
-0.77265972 -0.47359025 3.1718318
-0.72670603 -0.47766486 3.1745164
-0.67748171 -0.47998163 3.1760073
-0.6271739 -0.48096552 3.1788476
-0.57368118 -0.47772911 3.1838968
-0.52110201 -0.47861284 3.1861899
-0.47513723 -0.47897774 3.1933181
-0.42817295 -0.47830766 3.1932211
-0.3816945 -0.47808334 3.1955354
-1.1778867 -0.4246425 3.1540909
-1.1325822 -0.4260276 3.1581044
-1.0817823 -0.42468742 3.1594145
-1.0314208 -0.42340946 3.160578
-0.97537589 -0.42292154 3.1687019
-0.91758919 -0.42158592 3.1696508
-0.86914754 -0.42082724 3.1728024
-0.82110345 -0.42018372 3.1762345
-0.77314633 -0.41951331 3.1789756
-0.72401452 -0.42451715 3.1811559
-0.67768145 -0.42589381 3.1820405
-0.63068253 -0.42554262 3.1857245
-0.5761025 -0.42526346 3.190294
-0.52173561 -0.42508149 3.1950252
-0.47649702 -0.42936292 3.1965675
-0.43224758 -0.43223533 3.1987612
-0.39740932 -0.44756609 3.1995993
-1.2505699 -0.38092259 3.1523244
-1.2278382 -0.37794331 3.1520894
-1.1772358 -0.38107511 3.1597571
-1.128032 -0.37640232 3.1634037
-1.080892 -0.37716556 3.1608591
-1.0301334 -0.37588117 3.1606898
-0.97501713 -0.37577286 3.1715047
-0.91771561 -0.37477571 3.1740406
-0.86887568 -0.37393898 3.1756852
-0.82124835 -0.37355676 3.1807082
-0.77299339 -0.37281689 3.1821344
-0.72530681 -0.3722724 3.1847787
-0.67772323 -0.37171304 3.1867304
-0.6306479 -0.37137255 3.1900361
-0.57597929 -0.37105271 3.1939948
-0.52140826 -0.37074476 3.1974485
-0.4808782 -0.37047514 3.1991954
-1.2623966 -0.3173798 3.1536367
-1.2305388 -0.32535359 3.1542521
-1.1835029 -0.32870263 3.1590199
-1.1290858 -0.32964399 3.1657584
-1.0791328 -0.33202699 3.1653717
-1.0301493 -0.32887492 3.1642447
-0.97882557 -0.33005923 3.1710584
-0.92531192 -0.3262763 3.1753118
-0.87149191 -0.32700041 3.1767519
-0.82047999 -0.32654431 3.1811173
-0.77266854 -0.32606637 3.1841979
-0.72538328 -0.32576662 3.1884739
-0.67771268 -0.32523233 3.1900215
-0.63045746 -0.32483593 3.1923442
-0.57557291 -0.32442668 3.1950266
-0.52349627 -0.31895038 3.1978099
-1.2693155 -0.26555654 3.1521547
-1.2321326 -0.26920903 3.1579032
-1.1795827 -0.27415678 3.1609015
-1.131653 -0.27584377 3.1668112
-1.0810108 -0.27500084 3.1683233
-1.0294446 -0.2738589 3.1655674
-0.98264223 -0.27565101 3.1712272
-0.92512804 -0.28092954 3.177552
-0.86737233 -0.2799466 3.1765966
-0.81987953 -0.27967516 3.1817441
-0.77221131 -0.27930397 3.1852329
-0.72443968 -0.2788507 3.1872411
-0.6772902 -0.27858984 3.1909113
-0.62909156 -0.2778244 3.1883316
-0.57453191 -0.27651328 3.1962097
-0.52050292 -0.27756029 3.1980231
-1.2639881 -0.22169359 3.1521847
-1.2291564 -0.22113258 3.1527624
-1.1788422 -0.22060552 3.1575341
-1.1311872 -0.22055611 3.168452
-1.0810426 -0.21998322 3.1713378
-1.0296303 -0.21909207 3.1689863
-0.97891265 -0.22174978 3.1722388
-0.92575836 -0.22761975 3.1768837
-0.87028062 -0.22381926 3.180958
-0.81920487 -0.22509046 3.1819293
-0.77130717 -0.2247197 3.1843092
-0.72373492 -0.22439764 3.1869309
-0.6766023 -0.22417928 3.1904366
-0.62967789 -0.22399183 3.1940858
-0.57335699 -0.22424343 3.1970687
-0.52021086 -0.22653723 3.1987996
-0.47851837 -0.24114685 3.1984618
-1.267503 -0.17011487 3.1521385
-1.22929 -0.17372012 3.1551437
-1.1795207 -0.17339265 3.1613765
-1.1317705 -0.17333743 3.1720457
-1.0801708 -0.17268072 3.1707022
-1.029171 -0.17204458 3.1695619
-0.98094285 -0.17181884 3.1754489
-0.93158001 -0.1713798 3.1766005
-0.87495667 -0.17099643 3.1795022
-0.81865132 -0.17061795 3.1820381
-0.77134961 -0.17045736 3.1867075
-0.72388297 -0.17024395 3.189769
-0.67640221 -0.16999519 3.1917019
-0.62935257 -0.16982274 3.1945808
-0.57653999 -0.16817836 3.1963251
-0.53551525 -0.15405282 3.1993208
-1.2758454 -0.1243717 3.1539562
-1.2301852 -0.12637874 3.158962
-1.1807719 -0.12618846 3.1662302
-1.1312909 -0.1259672 3.1721964
-1.0785861 -0.12535314 3.1675045
-1.02855 -0.12500089 3.1691082
-0.98072362 -0.12489578 3.1761942
-0.93129528 -0.12457185 3.1770649
-0.87452412 -0.12426594 3.1793683
-0.81821638 -0.12399091 3.1817472
-0.77072865 -0.12384856 3.1855135
-0.72295326 -0.12362407 3.1870894
-0.67586994 -0.12351063 3.1905591
-0.62874478 -0.12336603 3.192879
-0.57416934 -0.12324973 3.1963949
-0.53540772 -0.13090821 3.1993332
-0.48839748 -0.10762756 3.1996152
-1.2756268 -0.07679604 3.1544306
-1.230324 -0.078922905 3.160352
-1.1811496 -0.078821272 3.1682456
-1.1316983 -0.078693926 3.1743565
-1.0790271 -0.0783123 3.1697993
-1.0290356 -0.078110985 3.1715624
-0.98014653 -0.077961728 3.1753137
-0.93084866 -0.077773564 3.1765149
-0.87426549 -0.077596307 3.1793938
-0.81857288 -0.077484936 3.1840734
-0.77015769 -0.07730408 3.1841366
-0.72289252 -0.07722909 3.1877389
-0.67574817 -0.077148706 3.1909056
-0.62838042 -0.07702928 3.1919401
-0.57389092 -0.076965861 3.1957884
-0.51545358 -0.073020548 3.1981888
-0.48821458 -0.076830298 3.1989615
0.51067841 -0.069046542 3.192136
-1.2801514 -0.031492546 3.153641
-1.2311034 -0.031467147 3.1629066
-1.1810248 -0.031417735 3.1684399
-1.1309315 -0.03135385 3.1727095
-1.0801221 -0.031273946 3.1735888
-1.0297601 -0.031176858 3.1742826
-0.97968781 -0.031089889 3.1743686
-0.93182629 -0.031060573 3.1803281
-0.88237017 -0.030979779 3.1796803
-0.82625318 -0.030922985 3.1829205
-0.76996535 -0.030856861 3.183805
-0.72263408 -0.030826516 3.1870661
-0.67525983 -0.03078806 3.1891131
-0.62832582 -0.030765049 3.1921854
-0.57410151 -0.030755656 3.1974192
-0.51936054 -0.028148569 3.1986244
0.51072317 -0.030633911 3.1927741
-1.2790796 0.026165705 3.1549418
-1.23095 0.023940578 3.1624918
-1.181136 0.023891216 3.1687281
-1.1312524 0.023825282 3.1736171
-1.0785543 0.023702404 3.1689224
-1.0291634 0.023634076 3.1724823
-0.98016 0.023580259 3.1758702
-0.93105215 0.02351016 3.1776953
-0.87579113 0.024983564 3.1795163
-0.82073265 0.021585781 3.1832685
-0.7705732 0.023341579 3.1863315
-0.72238398 0.023271814 3.1859682
-0.67523545 0.02323515 3.1889899
-0.62845838 0.02322408 3.192807
-0.57729805 0.02539367 3.1964583
-0.51623785 0.023154521 3.1986592
0.51080209 0.020533128 3.1932659
-1.2811899 0.07954856 3.1555362
-1.2312572 0.079389118 3.1626308
-1.1818985 0.079249412 3.1701415
-1.1318481 0.079050958 3.1746593
-1.0795944 0.078685358 3.1713457
-1.0291207 0.078415796 3.1717093
-0.98019069 0.07825157 3.1753478
-0.93155831 0.078085296 3.1788323
-0.8768869 0.077889189 3.1807249
-0.82157755 0.077697918 3.1830585
-0.77075422 0.077570148 3.1864901
-0.72286862 0.077413805 3.1875288
-0.67578429 0.077337652 3.1910028
-0.62919241 0.077288955 3.1959639
-0.57369667 0.07709001 3.1945851
-0.51729834 0.072640814 3.1991806
-0.48830217 0.076973237 3.199451
-1.2729692 0.12712069 3.1559584
-1.2323049 0.12701042 3.1642191
-1.1831756 0.12682469 3.1724756
-1.126682 0.12787868 3.1765199
-1.0753407 0.12356295 3.172111
-1.0294192 0.12540877 3.1715701
-0.98051685 0.12515259 3.1753464
-0.93159211 0.12487227 3.1778955
-0.87518448 0.12459591 3.1816041
-0.81868786 0.12428284 3.183408
-0.77073014 0.12404631 3.1853704
-0.72318238 0.12385827 3.1879108
-0.67637634 0.12378158 3.1927834
-0.62937206 0.12364868 3.1958604
-0.57410532 0.12338584 3.195859
-0.52727056 0.12324464 3.1975574
-1.2739822 0.17485131 3.1568553
-1.2249521 0.17463203 3.166193
-1.1689605 0.1762304 3.1733501
-1.1283567 0.17161186 3.1760662
-1.0800012 0.17297235 3.1699297
-1.0295372 0.17240761 3.1704187
-0.98079026 0.17208725 3.1747265
-0.92892277 0.17330067 3.1785138
-0.87366158 0.1699854 3.1827583
-0.81974316 0.17107114 3.1860352
-0.77073979 0.17052634 3.1839442
-0.72356361 0.17036368 3.1881533
-0.67686784 0.17029171 3.193671
-0.62905508 0.16990748 3.1928074
-0.57433397 0.16969915 3.1957338
-0.53583628 0.18513249 3.1999412
-1.3010755 0.23896617 3.155138
-1.2704451 0.22269276 3.1590886
-1.2171098 0.22222993 3.1664703
-1.171604 0.22400796 3.1708763
-1.12282 0.21979882 3.1753004
-1.0705351 0.22271772 3.1756835
-1.029289 0.2177958 3.1741948
-0.97657454 0.22072825 3.1786363
-0.92200214 0.21861422 3.1792116
-0.87258208 0.22593179 3.1811049
-0.8198691 0.22549351 3.1842
-0.77169663 0.22504158 3.1856048
-0.7240935 0.22471209 3.1881781
-0.67663121 0.22437619 3.1903031
-0.62995261 0.22426395 3.1951411
-0.57654452 0.22342101 3.1970532
-0.53591228 0.20058316 3.199774
-1.3011097 0.27876604 3.1529083
-1.2715753 0.26902288 3.1593621
-1.2180792 0.27002329 3.1664045
-1.1684157 0.26953566 3.1731882
-1.1203642 0.27089328 3.1772311
-1.072142 0.27635905 3.1736109
-1.0295286 0.27188572 3.1759489
-0.97989368 0.27592129 3.1750956
-0.92620963 0.27371925 3.1813657
-0.86881661 0.28065982 3.181495
-0.82087404 0.28023869 3.1851964
-0.77262616 0.27968058 3.186573
-0.72506976 0.27929518 3.1896012
-0.67801678 0.27908036 3.1939669
-0.63029057 0.27853239 3.1940114
-0.58872938 0.27580395 3.1977117
-1.3074546 0.32313758 3.1544914
-1.2692275 0.31853786 3.1591175
-1.2180786 0.32378674 3.1670129
-1.1696149 0.32533437 3.1728182
-1.1195822 0.32460693 3.1776104
-1.0743721 0.33076882 3.1697693
-1.0251654 0.33011836 3.1742887
-0.96797776 0.32936716 3.1787982
-0.91956455 0.32885796 3.18343
-0.86993152 0.32783973 3.1825085
-0.82157207 0.32722917 3.1849096
-0.77329022 0.32656115 3.1863389
-0.72589284 0.32620734 3.1902595
-0.67825562 0.32569212 3.1921518
-0.63156599 0.32559633 3.1975565
-0.58410323 0.32505226 3.1981378
-1.3112609 0.37180948 3.1521924
-1.2715601 0.37494859 3.1606104
-1.2234898 0.37914127 3.1681418
-1.1722615 0.38169828 3.1756747
-1.1207765 0.38040155 3.1767824
-1.0714658 0.38101247 3.1761696
-1.0209806 0.37589434 3.1735287
-0.96920079 0.37686867 3.1792452
-0.92057925 0.37623706 3.1833677
-0.87104911 0.37514547 3.1831293
-0.82325959 0.37471771 3.1879492
-0.77536619 0.3741883 3.1914067
-0.72721332 0.37347239 3.1926258
-0.67906713 0.37265754 3.1925442
-0.62626934 0.37088421 3.1967041
-0.58451158 0.35625386 3.1982284
-1.3058586 0.43155935 3.1523438
-1.2733531 0.4313587 3.1600556
-1.2235802 0.43068984 3.1683822
-1.1736993 0.42992222 3.175334
