ply
format ascii 1.0
comment PCL generated
element vertex 1475
property float x
property float y
property float z
element camera 0
property float view_px
property float view_py
property float view_pz
property float x_axisx
property float x_axisy
property float x_axisz
property float y_axisx
property float y_axisy
property float y_axisz
property float z_axisx
property float z_axisy
property float z_axisz
property float focal
property float scalex
property float scaley
property float centerx
property float centery
property int viewportx
property int viewporty
property float k1
property float k2
end_header
-0.57078528 -0.17401624 1.8227443
-0.57080269 -0.12525833 1.8218665
-0.56991374 -0.076284751 1.8243959
-0.56991845 -0.02645753 1.8242992
-0.56866807 0.022038089 1.824423
-0.56583619 0.075985268 1.8251139
-0.56483966 0.12558156 1.824914
-0.5604772 0.17568922 1.8259521
-0.54375762 0.1912065 1.849169
-0.5670715 0.22053213 1.8194963
-0.54623461 0.21622595 1.842617
-1.6177077 0.44767609 1.8438686
-0.26813698 -0.55025131 1.8911635
-0.20467165 -0.5519712 1.8686999
-0.19211033 -0.55085826 1.8826365
-0.45228475 -0.50092798 1.8657165
-0.42250752 -0.51617724 1.8730298
-0.37373039 -0.52554768 1.8797224
-0.32550013 -0.54010129 1.8745637
-0.27201065 -0.5485189 1.873484
-0.22801602 -0.54820931 1.8707854
-0.1657069 -0.5473389 1.8698177
-0.12670849 -0.5434624 1.8774961
-0.08026316 -0.5383721 1.8712676
-0.025253857 -0.53166616 1.872905
0.025228258 -0.52484548 1.8744762
0.078397028 -0.51777893 1.8765781
0.12626334 -0.51626021 1.8755447
0.17683494 -0.51577139 1.8739853
0.23150131 -0.51069778 1.867385
0.27575615 -0.51307201 1.8843385
0.32670695 -0.50954944 1.8792328
0.36675784 -0.50815582 1.8782784
0.42325714 -0.50552243 1.8667543
0.47145849 -0.50490862 1.872566
0.52436453 -0.50309241 1.8777856
0.55407077 -0.50481963 1.8620939
0.63076735 -0.5019055 1.8727608
0.6646421 -0.50128126 1.8620589
0.74340498 -0.50022304 1.8778633
-0.51590037 -0.47549888 1.8783414
-0.49360606 -0.4958854 1.8900496
-0.44496304 -0.47518966 1.8804305
0.48804232 -0.49968177 1.8931057
0.53287476 -0.49897686 1.8819919
0.57046652 -0.49620262 1.8633102
0.61775929 -0.49846864 1.8753386
0.67600828 -0.49672666 1.881184
0.72904259 -0.49571952 1.8798892
0.78018171 -0.49297547 1.8864363
0.83139133 -0.48508558 1.8732439
0.85504955 -0.47998199 1.888041
-0.53014153 -0.42397109 1.8750707
-0.53402311 -0.37566739 1.8784908
-0.5373978 -0.32520023 1.8742287
-0.53990847 -0.2744464 1.8753377
-0.55493462 -0.21916947 1.8524921
-0.5418036 -0.22508577 1.8756109
-0.55486327 -0.17345518 1.8554914
-0.54225898 -0.17530766 1.8788486
-0.55550659 -0.1211282 1.8557718
-0.54112363 -0.12429195 1.8775953
-0.55340517 -0.072806649 1.8550259
-0.54048675 -0.073539734 1.8771352
-0.55287635 -0.027236238 1.8540478
-0.54005039 -0.027512791 1.8764212
-0.55242825 0.018262947 1.8525879
-0.53795028 0.025068056 1.8788023
-0.55261868 0.077413172 1.8521545
-0.53676921 0.075142339 1.8754044
-0.55308223 0.13665329 1.8513981
-0.53441566 0.12506483 1.8743695
-0.53131229 0.17380774 1.871366
-0.56617731 0.23849608 1.8557005
-0.53012967 0.21665971 1.8718688
-1.665455 0.43060029 1.8931609
-1.6391609 0.41676399 1.8538239
-1.6433164 0.45791331 1.8945915
-0.22329544 -0.55242783 1.911352
-0.1778667 -0.55349475 1.9328014
-0.46341333 -0.50793362 1.9299237
-0.41905993 -0.51319456 1.9074129
-0.37753704 -0.51471239 1.915724
-0.32944158 -0.53089803 1.9218706
-0.27880746 -0.54649526 1.9235892
-0.23020954 -0.54637867 1.9227282
-0.1801375 -0.54740781 1.9228216
-0.12469745 -0.54582858 1.9201908
-0.063536145 -0.54221869 1.923624
-0.022737691 -0.53499454 1.9254578
0.025426161 -0.52762151 1.9246142
0.080127612 -0.52039373 1.9282537
0.11932264 -0.51659405 1.929355
0.18139306 -0.5181247 1.9243917
0.21489035 -0.51875848 1.9122916
0.27677196 -0.51275998 1.9264673
0.32829079 -0.50817317 1.9253969
0.37626621 -0.50968808 1.9273325
0.4256323 -0.50637317 1.9261972
0.47680846 -0.50287044 1.923597
0.54777622 -0.50623471 1.948496
0.58253914 -0.50434905 1.9338267
0.6245935 -0.50538594 1.9290296
-0.51113224 -0.47050613 1.919397
-0.48471782 -0.48038444 1.9312824
-0.42816341 -0.48790997 1.9352158
0.63480711 -0.4983924 1.9230661
0.67605031 -0.49769723 1.9272175
0.72618437 -0.49421588 1.9140981
0.76951259 -0.48837334 1.9061592
0.82128716 -0.48907465 1.9198271
0.86926657 -0.47683957 1.9279288
-0.5104214 -0.42351654 1.9211698
-0.49797219 -0.42573148 1.9456545
-0.51214427 -0.37484014 1.9250796
-0.4971337 -0.37459072 1.9493995
-0.51641989 -0.3212876 1.9187963
-0.51592183 -0.27466148 1.9250013
-0.51975316 -0.22558235 1.9208938
-0.51911944 -0.17620906 1.922366
-0.52000189 -0.12465379 1.9216754
-0.51801825 -0.074216865 1.9237199
-0.51560193 -0.028144451 1.9264947
-0.51498812 0.022541948 1.9239768
-0.49987718 0.047452021 1.9443871
-0.51323688 0.072397217 1.9234817
-0.51071703 0.12229919 1.9241711
-0.50941736 0.17214146 1.9227991
-0.49732819 0.18954591 1.9382426
-0.51225394 0.21887027 1.9124699
-0.49567392 0.21586585 1.9423939
-1.6702232 0.42401013 1.9281416
-1.6563834 0.45002812 1.9120104
-1.6491715 0.45119455 1.9254709
-0.23447666 -0.55112684 1.9681563
-0.16222338 -0.55216688 1.9767612
-0.12332958 -0.55140525 1.975902
-0.45408601 -0.50987941 1.9590454
-0.42693821 -0.51235449 1.973011
-0.36590779 -0.51367629 1.9664779
-0.32251114 -0.52502894 1.9646757
-0.27654514 -0.54292876 1.975176
-0.22021383 -0.54679644 1.972147
-0.18289047 -0.54660439 1.9647601
-0.11851683 -0.54689378 1.9782386
-0.076085366 -0.54400301 1.9718405
-0.026353326 -0.5355193 1.9647942
0.027598854 -0.52946568 1.9797941
0.072246179 -0.52260864 1.9741666
0.1331276 -0.52063048 1.9664357
0.17239176 -0.51928973 1.9718826
0.22681488 -0.51720434 1.9725225
0.27003297 -0.51437134 1.9684271
0.31542411 -0.51110327 1.9782394
0.37037104 -0.50806534 1.9724261
0.41569012 -0.505997 1.9799057
0.46503973 -0.50542605 1.9680779
0.52508521 -0.5050115 1.9709178
0.57440048 -0.50436968 1.9705435
0.62033129 -0.50269067 1.961023
0.68758082 -0.50442606 1.9821485
0.71807027 -0.50372761 1.9864357
-0.47432452 -0.46959445 1.9752011
-0.42035085 -0.49560231 1.9678605
-0.36301392 -0.49694467 1.9810003
-0.34317183 -0.49650237 1.9815712
0.47292998 -0.49973994 1.9768213
0.59966898 -0.49749249 1.9869719
0.62735528 -0.49839962 1.9849135
0.66110039 -0.49877462 1.9789678
0.72604311 -0.49748033 1.966527
0.778211 -0.49470344 1.9768779
0.8249113 -0.48791748 1.970863
0.86688936 -0.48532069 1.9679427
-0.48499674 -0.424586 1.9756819
-0.48785812 -0.37408629 1.9767339
-0.50613075 -0.32938245 1.9507605
-0.48980528 -0.32620627 1.97606
-0.50438648 -0.26767278 1.9502807
-0.48891252 -0.27681813 1.9768687
-0.50397921 -0.2244668 1.9522661
-0.49085543 -0.22394158 1.9775118
-0.50377542 -0.1718404 1.9550216
-0.49038023 -0.1738877 1.9814323
-0.50244415 -0.12376896 1.9522288
-0.48963958 -0.12538794 1.9808555
-0.50216049 -0.080857888 1.9526072
-0.48901236 -0.077040121 1.9799143
-0.50126004 -0.028443435 1.9500653
-0.48876649 -0.028843064 1.9797436
-0.50195062 0.0095888982 1.952839
-0.48713309 0.025387662 1.9773901
-0.50252092 0.090576157 1.9536264
-0.48424506 0.078076743 1.9776634
-0.50206631 0.12381082 1.9506202
-0.48350811 0.12518606 1.9762518
-0.48141566 0.17325792 1.9734728
-0.4811365 0.21601222 1.9779491
-1.6666377 0.40925857 1.9546883
-0.220213 -0.55180371 2.0186706
-0.17742974 -0.55209517 2.0128946
-0.13214324 -0.55157542 2.0133269
-0.091896668 -0.55131793 2.0330927
-0.41934556 -0.51146829 2.0225959
-0.37864876 -0.51864213 2.0182502
-0.32137743 -0.51846325 2.0251923
-0.28195709 -0.53874516 2.0330212
-0.23542607 -0.54523176 2.02194
-0.16702051 -0.54848933 2.038646
-0.14714916 -0.54876751 2.0407159
-0.072083704 -0.54692364 2.03651
-0.032077901 -0.54275215 2.0216515
0.022252139 -0.53449625 2.0296106
0.071886167 -0.52492529 2.0318127
0.1382511 -0.52085817 2.0238748
0.18457647 -0.52046502 2.0258899
0.21796508 -0.52011091 2.0331471
0.27535361 -0.51344085 2.0260043
0.3261649 -0.51099288 2.0244927
0.37705597 -0.50923735 2.0293634
0.41983679 -0.50567597 2.0305958
0.47159302 -0.50733471 2.0225248
0.54454076 -0.50640869 2.0353985
0.57582581 -0.50272733 2.0139124
0.63921905 -0.50400746 2.0289521
0.6904192 -0.50562614 2.0013876
0.72940785 -0.50145245 2.0196052
-0.45937991 -0.47183648 2.0218999
-0.44835341 -0.4707886 2.0329533
-0.35598156 -0.49784681 2.0277514
-0.32361808 -0.49406138 2.0156345
-0.2748307 -0.49528787 2.0255334
-0.24087113 -0.49665737 2.0341091
0.52260697 -0.49995378 2.0121489
0.68351418 -0.49785975 2.0150301
0.72938871 -0.49685967 2.0308447
0.77609181 -0.49656832 2.0253444
0.81803507 -0.4917188 2.0161867
0.87679338 -0.48699236 2.0095928
0.91473919 -0.48207986 2.0255418
-0.46264195 -0.42464617 2.0256705
-0.46582407 -0.37661642 2.0247381
-0.46670023 -0.32656354 2.0263717
-0.46558502 -0.2752392 2.0265012
-0.46963155 -0.22617289 2.0183656
-0.46712002 -0.17619966 2.025598
-0.46601325 -0.12848978 2.0270402
-0.46636331 -0.078087159 2.0262973
-0.46485138 -0.02889128 2.0244384
-0.46402383 0.024350805 2.0211577
-0.46065858 0.07747148 2.0252762
-0.45920762 0.12777682 2.0227377
-0.44460836 0.12260511 2.0490053
-0.45789555 0.1752672 2.0177233
-0.4434661 0.1834034 2.0406742
-0.46242413 0.21879435 2.0137177
-0.44471794 0.21374734 2.0445065
-0.20911084 -0.55429739 2.0577741
-0.18637839 -0.55270386 2.0772774
-0.12376058 -0.55231738 2.0683062
-0.08588814 -0.55117792 2.0918534
-0.41998839 -0.50584835 2.0782866
-0.39111555 -0.51118743 2.0789623
-0.2716139 -0.52710932 2.0613244
-0.22651424 -0.52872431 2.0777373
-0.16014665 -0.54914057 2.0812178
-0.1293003 -0.54769194 2.0770717
-0.05800052 -0.5450201 2.0691278
-0.027632326 -0.54291421 2.0615163
0.022801742 -0.53871113 2.0757725
0.083621897 -0.52675933 2.0796082
0.12160792 -0.52695084 2.0790987
0.16307355 -0.52165055 2.0562601
0.22411898 -0.51839983 2.0722125
0.27372026 -0.51342505 2.0789793
0.32494521 -0.51159894 2.0882809
0.36872691 -0.50853616 2.070682
0.43021074 -0.50910068 2.0650108
0.49346665 -0.51121604 2.0643969
0.52341849 -0.50778168 2.0731745
0.58959961 -0.50392365 2.077188
0.61998963 -0.50826645 2.0742383
0.68893898 -0.50799716 2.0818431
0.72523713 -0.50613666 2.0892119
-0.45307955 -0.49605545 2.0512087
-0.4334718 -0.4767991 2.0709882
-0.21096613 -0.49820504 2.0863085
-0.1910079 -0.49920753 2.0918188
0.7817257 -0.49466184 2.0724909
0.82108784 -0.49261245 2.0692894
0.87053901 -0.49212968 2.0699117
0.90117574 -0.49181661 2.0765958
-0.45113766 -0.41328362 2.0544012
-0.43610701 -0.42919949 2.0767992
-0.45276669 -0.37292743 2.0590737
-0.43677944 -0.37744454 2.0825408
-0.45034823 -0.33708674 2.059989
-0.44041672 -0.32355636 2.0778902
-0.45252937 -0.27402481 2.0642719
-0.44052911 -0.2708953 2.0815551
-0.45694098 -0.2246851 2.052892
-0.44106579 -0.22357289 2.0790408
-0.45615146 -0.1893886 2.0516658
-0.44109073 -0.17471781 2.0787344
-0.45662078 -0.11971953 2.0572329
-0.44088078 -0.12427127 2.0765622
-0.45522624 -0.084537029 2.0520368
-0.43899354 -0.074160196 2.0788126
-0.45479318 -0.039708395 2.050988
-0.43987939 -0.026962975 2.0738282
-0.45475984 0.014969341 2.0510159
-0.43829682 0.021891275 2.0729921
-0.435684 0.074774258 2.0733118
-0.43071628 0.12702487 2.0756464
-0.42884943 0.17331141 2.0751822
-0.4601427 0.23141733 2.0666125
-0.4252893 0.21147957 2.0750077
-0.17451642 -0.55233395 2.1340444
-0.13001993 -0.55424446 2.1331303
-0.076200925 -0.55178052 2.1274385
-0.049321566 -0.55073327 2.132242
-0.40203837 -0.50313616 2.1114717
-0.3779372 -0.50869757 2.1324344
-0.21385184 -0.53207803 2.1104593
-0.18268642 -0.52270436 2.1364398
-0.13150088 -0.5467335 2.1144154
-0.022219401 -0.54651475 2.1245925
0.020332845 -0.54061514 2.1232829
0.054202307 -0.53636408 2.1182117
0.13101916 -0.5250048 2.1298494
0.1783295 -0.52186263 2.1202135
0.23116875 -0.5134877 2.104383
0.28934255 -0.51459169 2.1191547
0.33059934 -0.51351005 2.1256225
0.37910339 -0.51057845 2.1306722
0.42651972 -0.50941765 2.1212416
0.47471699 -0.50866455 2.1251774
0.50380683 -0.51157153 2.1332812
0.56856537 -0.50688052 2.1159763
0.6661526 -0.50279236 2.1371758
0.72552991 -0.50190538 2.1197338
0.764373 -0.50402099 2.1199679
-0.41221416 -0.47367287 2.1184394
-0.39615992 -0.48794377 2.1403189
0.71468818 -0.49930981 2.1104748
0.78277832 -0.49819028 2.140059
0.81602955 -0.4986397 2.1334977
0.86375916 -0.49258202 2.1182513
-0.41419846 -0.42525518 2.1241627
-0.41465145 -0.37573752 2.1293118
-0.41870305 -0.32489184 2.1220813
-0.41843158 -0.27788353 2.1244471
-0.41767579 -0.22558552 2.1272686
-0.41773063 -0.17609021 2.1246104
-0.41816133 -0.12190098 2.1225863
-0.41459358 -0.070713863 2.1280012
-0.41269007 -0.02559137 2.1236823
-0.41211444 0.020572582 2.1249964
-0.41119182 0.069724172 2.120599
-0.39985323 0.072298273 2.1380625
-0.40945554 0.12151629 2.1226828
-0.39930734 0.10825919 2.1341786
-0.40966564 0.17364271 2.1097946
-0.39391363 0.17577614 2.1383905
-0.41391516 0.22371393 2.1126966
-0.39574188 0.21471874 2.1324353
-0.12442038 -0.55256087 2.1715975
-0.092698008 -0.55107915 2.1754816
-0.36467674 -0.50569206 2.1743813
-0.33061942 -0.51645619 2.1708512
-0.28906962 -0.5197897 2.1713371
-0.16705705 -0.52880543 2.1680515
-0.11966162 -0.54731894 2.1817627
-0.070954114 -0.54679066 2.1590674
-0.025920955 -0.54414654 2.1680474
0.023852531 -0.54052347 2.1786017
0.078053318 -0.53401417 2.170543
0.12383878 -0.52472228 2.1840329
0.241795 -0.52066457 2.1788883
0.27720964 -0.51562107 2.1747625
0.32463846 -0.51362973 2.1794369
0.37986651 -0.51229209 2.1771672
0.43349969 -0.51048464 2.1625948
0.525011 -0.51148462 2.1696289
0.57220823 -0.51001388 2.1755488
0.63825339 -0.51045495 2.1776161
0.65482235 -0.5064559 2.1561553
0.77403295 -0.50527102 2.1753869
-0.38579524 -0.47479504 2.1694717
0.82969171 -0.49818063 2.1816483
0.89541638 -0.49570864 2.1513388
-0.38687745 -0.42807525 2.1767712
-0.38913804 -0.37590805 2.1766574
-0.4057008 -0.32455686 2.1543326
-0.38947484 -0.32639441 2.1793644
-0.40420458 -0.26074755 2.1520178
-0.38873959 -0.27450785 2.179903
-0.40402707 -0.22936149 2.1534009
-0.39044139 -0.22233117 2.1794126
-0.40374938 -0.1718816 2.1554034
-0.38936836 -0.17782182 2.1777582
-0.40277737 -0.12989616 2.1521065
-0.38732329 -0.12468703 2.1808486
-0.40341303 -0.078036934 2.1571403
-0.38602856 -0.073493615 2.1793826
-0.38613954 -0.026216567 2.1806867
-0.38310355 0.021649543 2.1778746
-0.38194582 0.074659579 2.1764667
-0.37982792 0.12581779 2.1730118
-0.37476212 0.17668054 2.1720815
-0.37330943 0.21748623 2.1738245
-0.68835157 0.43206152 2.1637311
-0.10530042 -0.55096394 2.2191463
-0.051249392 -0.55066842 2.219219
-0.040482529 -0.55110407 2.221123
-0.35256472 -0.50595021 2.2010465
-0.32076785 -0.51300335 2.2244751
-0.27545911 -0.52368861 2.2367597
-0.23188506 -0.52375305 2.240315
-0.15885605 -0.5062604 2.2172945
-0.13529694 -0.5401662 2.2198596
-0.072955512 -0.54621625 2.2236345
-0.024450732 -0.54483843 2.2416761
0.028034171 -0.54020756 2.2303693
0.076750994 -0.53212208 2.221585
0.10971202 -0.52419275 2.2007704
0.18923917 -0.52670008 2.2268579
0.22420579 -0.52369726 2.2165904
0.26576757 -0.51790857 2.2248254
0.33766901 -0.51595819 2.24687
0.37165803 -0.51625532 2.2322373
0.42389664 -0.51188201 2.2189791
0.48007041 -0.51453441 2.2333219
0.53425902 -0.5131591 2.2086205
0.60672003 -0.51596457 2.2085583
0.6868372 -0.51151961 2.2245049
0.73912913 -0.51186091 2.2326534
0.77402526 -0.50279307 2.2179301
0.83988124 -0.50882006 2.2302668
-0.36240149 -0.47689018 2.215677
-0.34662586 -0.48030871 2.2380958
-0.36314166 -0.42157319 2.2212453
-0.34678286 -0.40410933 2.2491179
-0.36538523 -0.37473443 2.2249398
-0.34585461 -0.39213452 2.2443705
-0.36424372 -0.32628423 2.2281759
-0.36537117 -0.27662715 2.2250681
-0.36755705 -0.22597748 2.223155
-0.36456284 -0.17255759 2.2287977
-0.36403987 -0.12704994 2.2257569
-0.36162013 -0.074972264 2.2267027
-0.36083463 -0.02669221 2.2225854
-0.3596563 0.02062548 2.225503
-0.34270003 0.037825145 2.2456603
-0.35781375 0.073062398 2.2198713
-0.34247237 0.075562216 2.24349
-0.35585871 0.12802431 2.2143869
-0.34153062 0.12511182 2.2360451
-0.35634184 0.17245258 2.2125945
-0.34222841 0.17855595 2.2291999
-0.36754242 0.22437716 2.2112682
-0.33991516 0.21373919 2.2300115
-0.70011425 0.41747606 2.2036555
-2.1744614 2.3353922 2.2478917
-2.1219039 2.3318949 2.2252057
-2.0853758 2.3282597 2.230984
-0.096255973 -0.55022407 2.2626064
-0.31594592 -0.50462073 2.2697606
-0.27571568 -0.51180816 2.2813244
-0.22898369 -0.52148759 2.290422
-0.17846422 -0.52109808 2.2814872
-0.12508565 -0.5397715 2.2727463
-0.074825153 -0.5437091 2.2837281
-0.024839969 -0.5451355 2.2745292
0.019369043 -0.53814441 2.2773223
0.14150515 -0.53248942 2.2828774
0.17449997 -0.52601624 2.2783086
0.22296479 -0.52575266 2.2779241
0.28348643 -0.51708829 2.2670014
0.32548812 -0.51721346 2.2791831
0.37197152 -0.51712978 2.2869825
0.41673309 -0.51392686 2.2698643
0.46143633 -0.51441747 2.276721
0.52486002 -0.5106073 2.2767093
0.56100279 -0.51306212 2.2732556
0.64056754 -0.5122925 2.2917016
0.67400002 -0.50741839 2.2620802
0.72732162 -0.50923681 2.2594171
0.82370007 -0.50492549 2.2726698
-0.32867163 -0.47542289 2.2742007
-0.3373653 -0.42775878 2.2744298
-0.33831999 -0.37328455 2.2771471
-0.35699433 -0.31609726 2.2526867
-0.3389293 -0.32647216 2.2738366
-0.33794788 -0.2747854 2.2774813
-0.35550976 -0.22793654 2.2501757
-0.33721814 -0.22483218 2.2761137
-0.33680162 -0.17526731 2.2761016
-0.33644488 -0.12581994 2.2758214
-0.33236641 -0.074640498 2.2747965
-0.33393735 -0.025992729 2.2725554
-0.32935652 0.019329483 2.2741699
-0.32522622 0.076581873 2.2762015
-0.31915569 0.12734075 2.2801673
-0.31927714 0.17409737 2.2761567
-0.3158499 0.21751162 2.2724562
-0.50888032 0.2781975 2.2837451
-0.48904902 0.27738255 2.2916889
-0.50338238 0.32732606 2.2937288
-0.49242854 0.3196319 2.2952411
-0.50230569 0.37054551 2.2977316
-0.49059296 0.36456114 2.2976847
-0.49156305 0.43832487 2.2936354
-0.48326099 0.46933591 2.29598
-0.47262532 0.54353291 2.2993975
-0.47282031 0.5607537 2.2975695
-2.2515221 2.3456149 2.2928541
-2.2276895 2.3389144 2.2983055
-2.1781025 2.3312428 2.2789996
-2.1154275 2.3176165 2.2595716
-2.0754397 2.3264241 2.2687752
2.0883107 2.3790684 2.295361
2.144634 2.3939939 2.2810445
2.185678 2.3931372 2.2922978
2.2197547 2.3929052 2.2892289
2.1820719 2.4066584 2.2757266
-0.26617593 -0.50434744 2.3041594
-0.21794508 -0.51046985 2.3260236
-0.17519212 -0.51635438 2.3344448
-0.12622538 -0.53309631 2.3110442
-0.075917408 -0.53962743 2.3155496
-0.025215909 -0.53965789 2.3164268
0.029161694 -0.53912967 2.3141012
0.07609728 -0.54063964 2.3199124
0.12676571 -0.5349465 2.3190353
0.1778051 -0.524396 2.3218307
0.2286796 -0.52311665 2.32184
0.27101183 -0.51920557 2.3185756
0.31417447 -0.52061093 2.3213429
0.36998695 -0.51940525 2.3103819
0.4391261 -0.5098182 2.3119349
0.46891281 -0.51935953 2.3341541
0.73014224 -0.5118053 2.32798
0.81041998 -0.51473415 2.3240311
-0.30608708 -0.46980858 2.3174872
-0.28173003 -0.48426428 2.3269951
-0.23442595 -0.49717578 2.3270447
-0.31187156 -0.42366156 2.3179255
-0.29196075 -0.44219729 2.3383868
-0.31110838 -0.37451521 2.3244951
-0.31174073 -0.32336542 2.32143
-0.29153621 -0.30568555 2.3491948
-0.3105481 -0.27422136 2.3227618
-0.31035909 -0.22371565 2.3248518
-0.30996382 -0.1731513 2.324682
-0.31080869 -0.12236523 2.3175988
-0.29973236 -0.13070013 2.3343403
-0.30899593 -0.080704927 2.3205311
-0.29535803 -0.067103513 2.3315647
-0.31226853 -0.03004686 2.3095648
-0.29616821 -0.024245059 2.338371
-0.30891454 0.024030417 2.3063841
-0.2952075 0.022432962 2.334532
-0.30767974 0.077664576 2.3102956
-0.29051024 0.075078696 2.3347433
-0.30724302 0.11077942 2.306143
-0.29042456 0.12387139 2.3281541
-0.28870124 0.17550057 2.3279293
-0.30628917 0.23615125 2.3357852
-0.28431723 0.21514355 2.3278406
-0.56857097 0.33977178 2.3444092
-0.51586241 0.32713565 2.3110878
-0.48256564 0.32745767 2.3184934
-0.56796896 0.36003572 2.3398223
-0.52334124 0.3671281 2.3226976
-0.48153347 0.38154167 2.3194723
-0.50690651 0.40791684 2.3149307
-0.48262843 0.42288157 2.3137712
-0.47308031 0.47602811 2.3117464
-0.47232822 0.52747214 2.3174553
-2.3277268 2.3433557 2.3411391
-2.2696972 2.3378019 2.3089101
-2.2401609 2.334434 2.3238358
-2.1678791 2.3307955 2.3261676
-2.1203392 2.3340657 2.3229103
-2.3259249 2.3504837 2.3331134
-2.0848331 2.350177 2.3320367
2.0758781 2.385359 2.3266971
2.1293013 2.3884947 2.3228076
2.1746449 2.3913713 2.3172612
2.2184799 2.3926265 2.3236835
2.2517107 2.391288 2.3263924
2.3119516 2.3994243 2.3401134
2.1254802 2.4016457 2.3056285
2.2814128 2.4039838 2.3266079
-0.17794389 -0.51189631 2.3809102
-0.12379199 -0.53543872 2.3731372
-0.071921214 -0.54154718 2.3751173
-0.020154437 -0.54260564 2.3804357
0.026105691 -0.54385096 2.385838
0.077849984 -0.54177111 2.3759832
0.11780241 -0.53981072 2.366303
0.17572932 -0.52610105 2.3734906
0.22804523 -0.52312875 2.3751431
0.27454263 -0.51987422 2.3750815
0.32149711 -0.52125978 2.3775761
0.37459707 -0.52254027 2.3783622
0.431557 -0.5211938 2.3656836
0.50793028 -0.52230525 2.3606975
0.73560452 -0.51206076 2.3876567
0.78142357 -0.51477903 2.3912339
-0.26897085 -0.47464177 2.3768597
-0.24123631 -0.4999412 2.3960371
-0.28147104 -0.42217305 2.3721883
-0.28295717 -0.37434521 2.3744719
-0.28162411 -0.32556763 2.3770933
-0.28263432 -0.27408844 2.3734574
-0.28270432 -0.2242603 2.3700774
-0.28161022 -0.17638874 2.3708446
-0.28153905 -0.12513436 2.3723516
-0.27708292 -0.074361101 2.3735554
-0.27594632 -0.030295433 2.3757584
-0.27282804 0.022789694 2.3750544
-0.267699 0.071689896 2.3729823
-0.24883895 0.091584913 2.3890979
-0.26791978 0.1240967 2.3688533
-0.24937256 0.12904122 2.3930378
-0.26367524 0.17586657 2.3639436
-0.24886851 0.17744623 2.3861494
-0.26113507 0.21667616 2.3736279
-0.24557991 0.2103159 2.3899324
-0.54946995 0.33957559 2.3544827
-2.467567 2.328516 2.3916135
-2.4119551 2.3373661 2.3801117
-2.3804097 2.3391542 2.3763549
-2.3175476 2.3278005 2.3692498
-2.2843037 2.3353128 2.3580408
-2.1602423 2.33319 2.377136
-2.1245604 2.3403764 2.3715436
-2.0784836 2.3408084 2.3725095
-2.0471873 2.3490169 2.3965061
-1.9124662 2.3381386 2.373734
-1.886476 2.3397038 2.3796647
-1.8421514 2.3393481 2.3942173
-2.238265 2.3508227 2.3523817
-2.0676117 2.3600421 2.3592782
-1.869447 2.352406 2.3967652
1.9867046 2.3913002 2.3811593
2.0283146 2.3908589 2.373446
2.0779431 2.3902194 2.3734643
2.1296163 2.3864698 2.3705597
2.1742346 2.3961198 2.3731298
2.2238052 2.3937533 2.3774674
2.3314042 2.3969946 2.3759246
2.0598881 2.4061093 2.3559504
2.2070658 2.4003417 2.3714776
2.2854245 2.4045618 2.3774924
2.3879933 2.4041846 2.3809006
-0.22022521 -0.50518411 2.4226389
-0.17110725 -0.51638114 2.4353523
-0.12126123 -0.53206611 2.4236486
-0.076246202 -0.53804457 2.4362583
-0.030032635 -0.54545951 2.4358277
0.020736825 -0.54393637 2.4398937
0.073296323 -0.53960055 2.4197598
0.12708691 -0.54364944 2.436487
0.19205929 -0.5316456 2.4345744
0.20463122 -0.52175796 2.4446514
0.28750235 -0.52148587 2.4378603
0.31254387 -0.52371925 2.4463546
0.39152017 -0.52972227 2.4098001
0.47097954 -0.52782458 2.4489772
-0.25656742 -0.46361059 2.4075637
-0.2368384 -0.47965872 2.434948
-0.25896761 -0.42705184 2.4149806
-0.244993 -0.42508954 2.4437058
2.8937507 -0.4208113 2.4414527
-0.2588267 -0.38017002 2.4187279
-0.24400614 -0.36851421 2.4397032
-0.25881213 -0.32571301 2.4158459
-0.24434473 -0.32383847 2.4472499
-0.25843129 -0.27298754 2.4164965
-0.24347043 -0.2757476 2.4422526
-0.25812787 -0.22624427 2.4167857
-0.24273419 -0.22809812 2.4379983
-0.25809962 -0.173997 2.4192557
-0.24256742 -0.17533517 2.4391172
-0.25728229 -0.12142049 2.4136548
-0.24206604 -0.12250255 2.4361463
-0.25510588 -0.073165558 2.4126623
-0.2420104 -0.075764537 2.4367952
-0.25509322 -0.028850421 2.4131279
-0.24154696 -0.029090596 2.4327517
-0.25071463 0.023087792 2.4081948
-0.2365112 0.024627352 2.4347119
-0.25065002 0.069218181 2.4069922
-0.23576891 0.075753085 2.4330089
-0.25031292 0.11514995 2.4025879
-0.22996666 0.12234065 2.4327488
-0.23033777 0.17442001 2.4256766
-0.22954226 0.21900316 2.4234841
3.1678619 0.87891912 2.4477568
3.1936958 0.94991207 2.4499185
3.199837 1.0858183 2.4469678
3.2288074 1.0710077 2.4435043
3.1867301 1.1222581 2.4457526
3.2216861 1.1342653 2.4391201
3.2503998 1.115309 2.4480479
3.1943226 1.1639796 2.4496307
3.2224383 1.1768293 2.4366539
3.254844 1.154022 2.4392211
3.2201669 1.222847 2.4437854
3.223352 1.277003 2.4356694
3.2178397 1.3195925 2.4488287
-2.5232079 2.327281 2.4174848
-2.4793367 2.32126 2.415524
-2.4301276 2.3346167 2.425132
-2.3815212 2.3336532 2.4403241
-2.3287678 2.335449 2.4363165
-2.2938464 2.3363972 2.4184084
-2.1556087 2.3390696 2.43278
-2.1184986 2.3450868 2.4255764
-2.0705061 2.3393955 2.4278412
-2.0392351 2.3424037 2.4328184
-1.8690068 2.3361804 2.4253271
-1.8286123 2.3395708 2.429558
-1.7937937 2.3315015 2.4126744
-1.7428648 2.3198078 2.4264183
-2.301028 2.3803566 2.444742
-2.2893507 2.350178 2.4454582
1.8774191 2.3842242 2.4406915
1.9255257 2.3861012 2.4229825
1.975196 2.3957453 2.4259851
2.0161483 2.3855143 2.4242015
2.0734103 2.3879967 2.4212031
2.1284075 2.3923075 2.4260299
2.1663682 2.3865151 2.4189935
2.2397211 2.3997142 2.4332154
2.2685485 2.3925993 2.4231129
2.3361344 2.3976886 2.4282687
2.3898165 2.3937757 2.4206684
2.4255722 2.3958483 2.4285624
2.2150688 2.4014912 2.4316452
2.3674204 2.4018991 2.4354749
2.5098212 2.4142864 2.4459622
-0.20087759 -0.50375098 2.4762812
-0.1750394 -0.51221567 2.4788091
-0.12606469 -0.52342582 2.467638
-0.071388505 -0.53068936 2.4799702
-0.028135493 -0.53677702 2.474402
0.021027954 -0.53911209 2.4737301
0.067416742 -0.54265743 2.4894526
0.12913519 -0.54068655 2.4788053
0.17510794 -0.53000867 2.4754884
0.23376045 -0.52380955 2.4759574
0.26995784 -0.52403271 2.4745975
0.33190435 -0.52184975 2.4800174
0.36460859 -0.52412343 2.472873
0.40191287 -0.51961452 2.4772148
0.90923262 -0.50317907 2.4971468
-0.2163052 -0.47563407 2.4729257
-0.19021879 -0.49523857 2.4960334
-0.22631128 -0.42649117 2.4741035
2.8816624 -0.4130781 2.4634938
2.9034154 -0.40526801 2.451973
-0.22905883 -0.3736957 2.4702976
2.893507 -0.37230793 2.4792292
2.9081967 -0.37197614 2.4604263
2.9907925 -0.38028392 2.4983501
3.0213275 -0.37319326 2.492914
3.0765665 -0.37668356 2.4901669
-0.23035222 -0.32850802 2.4709659
2.8805087 -0.32086661 2.4896572
2.9100988 -0.32124481 2.4679756
2.9786935 -0.31823334 2.4951825
3.0106289 -0.32844198 2.4890237
3.0764062 -0.33596414 2.4914749
-0.22303754 -0.27562931 2.4781849
2.8930142 -0.2873092 2.4882534
2.9171281 -0.2713573 2.4868579
2.9704881 -0.28286028 2.4917245
3.049598 -0.26074591 2.4959376
3.0673518 -0.28241292 2.4893684
-0.22435617 -0.22370976 2.4758151
2.8997095 -0.23688771 2.4984877
2.9118538 -0.22795495 2.478076
2.9595788 -0.23029199 2.4869289
3.0752425 -0.23505446 2.4869599
-0.22328927 -0.17027591 2.4752741
3.0468633 -0.19058178 2.4987719
3.0694246 -0.17330611 2.4862037
-0.22418499 -0.12184024 2.472384
3.0725942 -0.11217161 2.4915621
-0.22184049 -0.076930441 2.4741669
3.0747986 -0.059608769 2.4947286
-0.22020614 -0.026491174 2.4676158
-0.19988152 -0.02383613 2.4968364
3.0768147 -0.024533439 2.4967782
-0.21718024 0.022605054 2.4705777
-0.19937398 0.029755641 2.4903789
3.0734639 0.028088942 2.4939184
-0.21531792 0.076748006 2.4670875
-0.1995917 0.08346907 2.4923005
3.0736706 0.05441526 2.4936872
-0.20983858 0.12420903 2.4707956
-0.1991962 0.13088585 2.4859982
3.0679581 0.12436981 2.4867921
-0.21143922 0.17208031 2.4598713
-0.19687338 0.17376974 2.4852195
3.0818751 0.18646392 2.4948392
-0.21648256 0.22189136 2.460799
-0.19435881 0.21409789 2.4817758
3.0817022 0.2128389 2.492929
3.0869956 0.2748712 2.4921451
3.0903766 0.31045926 2.4914267
3.1019471 0.37357795 2.49369
3.0752113 0.42540306 2.4971838
3.1044419 0.42704275 2.4887011
3.0816309 0.46167523 2.4972062
3.1136403 0.4727501 2.4895446
3.0963187 0.53498483 2.4974725
3.1301425 0.51993155 2.4955075
3.0970123 0.57067615 2.4915807
3.1209867 0.57189494 2.4787591
3.1165783 0.62656993 2.4840665
3.0978289 0.69930226 2.4986589
3.1293633 0.67929947 2.4837379
3.0974526 0.71710724 2.4942708
3.1229224 0.72883624 2.4737518
3.1212888 0.7713815 2.488548
3.1553469 0.77780741 2.4741662
3.1323011 0.8201139 2.487963
3.1787386 0.82406634 2.4796009
3.1433933 0.87300682 2.494606
3.1659534 0.87428331 2.4803953
3.2026224 0.86111391 2.4819577
3.12852 0.92265129 2.4877648
3.1673007 0.93511206 2.4729159
3.2074184 0.91735625 2.4707994
3.0983639 0.96098018 2.496747
3.1310914 0.97954029 2.4978721
3.1751809 0.97991431 2.4750047
3.2095308 0.98211575 2.4540596
3.1375556 1.0282439 2.490813
3.1794596 1.0239611 2.4686894
3.232688 1.0261137 2.4607363
3.1181207 1.0826046 2.4895389
3.1668611 1.0746984 2.4717374
3.2245965 1.0634303 2.4588943
3.1297033 1.1294672 2.4877174
3.1653571 1.1170861 2.4648504
3.0942354 1.1539376 2.4977298
3.1165683 1.1699995 2.4899566
3.1639423 1.1721214 2.4701724
3.1416521 1.2266227 2.4900415
3.1746726 1.2195159 2.471694
3.2048593 1.2490542 2.463021
3.1349931 1.2711406 2.4931979
3.1727149 1.2752167 2.4751914
3.2081397 1.2876304 2.4518926
3.1308479 1.3103238 2.491607
3.1783214 1.3279135 2.4777298
3.1129136 1.3796608 2.4992957
3.1800959 1.3749865 2.4726369
3.2097425 1.3708107 2.456038
3.1392767 1.4477329 2.4971685
3.1674948 1.4179026 2.4899507
3.1830928 1.4549778 2.4840145
3.2024589 1.4784861 2.4754174
3.1334651 1.5732349 2.4966314
3.1398454 1.636673 2.4865851
3.1214244 1.6559535 2.4948661
-2.6001999 2.3241811 2.4972231
-2.5642715 2.3275735 2.4820616
-2.5395958 2.3288956 2.4710543
-2.4036291 2.3368957 2.4759357
-2.3761072 2.3370509 2.473196
-2.3271501 2.3338041 2.4797566
-2.2778475 2.3388197 2.4785831
-2.125756 2.3392088 2.4680698
-2.0740705 2.336247 2.4733608
-2.0222981 2.3380299 2.4651358
-1.9999871 2.3402078 2.4977152
-1.8589735 2.3371949 2.4601612
-1.817367 2.3371937 2.4729166
-1.7754716 2.3360956 2.4804103
-1.7297583 2.3418689 2.4805241
-2.2719908 2.3602467 2.4751682
-2.0160339 2.3747234 2.472434
-1.9971809 2.3737998 2.4904199
-1.7898906 2.3596799 2.4576728
-1.7352537 2.3550315 2.4838402
1.7864168 2.3778195 2.4875669
1.8348515 2.3961864 2.4855053
1.8707757 2.3898833 2.4804981
1.9147038 2.3831978 2.4763422
1.9713674 2.3903656 2.4715223
2.0124135 2.3902907 2.4863272
2.0714176 2.3887532 2.4728816
2.1263807 2.3925195 2.4775779
2.1699467 2.3922248 2.468873
2.2254262 2.3945842 2.4563031
2.2648358 2.3900797 2.4874251
2.3961558 2.3938844 2.4914713
2.433444 2.3941801 2.4653163
2.4631205 2.395715 2.4697881
2.0474701 2.400326 2.4791501
2.2336717 2.404191 2.4886327
2.2931833 2.4007139 2.4856796
2.3376012 2.4088347 2.4683204
2.3708684 2.4055631 2.4842367
0.076462574 -0.5500865 2.5234113
-0.16540715 -0.50550324 2.5237916
-0.12795551 -0.517111 2.5277779
-0.076581486 -0.52736032 2.5350835
-0.037556797 -0.5330112 2.5226729
0.0092896484 -0.54128861 2.541975
0.12518232 -0.53707522 2.5201659
0.15121496 -0.54287952 2.5465181
0.21981251 -0.52313012 2.5295966
0.2771154 -0.52361405 2.5078073
0.30702528 -0.5226891 2.5010433
-0.20272478 -0.46601504 2.5044692
-0.18446821 -0.47299773 2.5319085
-0.2062382 -0.42203608 2.5101261
-0.19257836 -0.41989264 2.5366828
-0.20784941 -0.37684742 2.5133836
-0.18734995 -0.37039036 2.5423112
2.7913256 -0.37021276 2.5461307
2.8503203 -0.35641003 2.5382116
2.9902682 -0.36286217 2.5000312
-0.20832813 -0.32008561 2.5137117
-0.1899578 -0.32010424 2.543936
2.7878671 -0.31072432 2.5497084
2.8221893 -0.31732112 2.5261347
2.8508117 -0.32043758 2.5109394
2.992192 -0.34572908 2.5036597
3.0241675 -0.32991356 2.5002677
3.0608833 -0.31439725 2.5002933
-0.20211253 -0.27151728 2.515378
-0.19201545 -0.27435902 2.5421054
2.8315859 -0.27787527 2.5296059
2.8680766 -0.27040586 2.5153503
2.9045689 -0.25434226 2.5012796
2.9807777 -0.2579053 2.5026729
3.0278969 -0.27790064 2.5084934
-0.20374818 -0.2235997 2.5087528
-0.18910345 -0.2262218 2.5390162
2.8328869 -0.23568834 2.5344136
2.8735428 -0.22312896 2.5209107
2.9366829 -0.20417698 2.501061
2.9884889 -0.20653228 2.5130947
3.0320244 -0.22579359 2.516187
3.0667033 -0.22226331 2.5049081
-0.20396797 -0.17810839 2.5138125
-0.18889722 -0.17247966 2.5389285
2.911675 -0.18770593 2.5442007
2.9751024 -0.17165476 2.5197706
3.0186663 -0.16706383 2.5194218
3.0510814 -0.15583053 2.5041647
-0.2050276 -0.13001586 2.5089061
-0.18739168 -0.12966362 2.5422156
2.9853046 -0.12911555 2.5467072
3.018975 -0.1206311 2.527179
3.0629544 -0.125495 2.5071743
-0.20090923 -0.077975318 2.5089707
-0.18558083 -0.077875838 2.5347974
3.0258286 -0.068388589 2.5344563
3.0680876 -0.072982982 2.5129907
-0.20460747 -0.043886531 2.505677
-0.18616317 -0.034200303 2.5275404
3.0195312 -0.024546541 2.5297694
3.0568194 -0.024562076 2.5125158
-0.20053138 0.019997926 2.5049198
-0.1843721 0.024196574 2.5308127
3.0194218 0.0191734 2.5296342
3.061842 0.014907093 2.5085301
-0.20028146 0.059838321 2.5013881
-0.18378803 0.078406319 2.5220633
3.0269382 0.071790971 2.5350375
3.0638709 0.072000742 2.5092747
3.1045058 0.090393238 2.5177903
-0.20077266 0.1079444 2.5064471
-0.17812808 0.12691894 2.5266309
2.9887476 0.14124873 2.5485892
3.0270922 0.12434924 2.5333433
3.0652068 0.12474102 2.508559
-0.17682846 0.17448555 2.5217886
3.0259686 0.17687553 2.52967
3.0727234 0.17346331 2.5122316
-0.21306585 0.24017797 2.5033107
-0.17299013 0.21588328 2.5238101
3.0308015 0.22977054 2.5300601
3.0643394 0.23038276 2.509515
3.104496 0.23213141 2.5100431
2.9886672 0.28088588 2.5384233
3.0249138 0.28242028 2.5313137
3.0631964 0.27427804 2.504858
3.1086547 0.25018466 2.5119772
3.030515 0.32721347 2.5369139
3.06758 0.31959262 2.5201108
3.1244104 0.34061775 2.5159967
3.0305836 0.3717393 2.539865
3.070142 0.37287632 2.5161018
3.1220961 0.37600693 2.5099385
3.0354676 0.42970583 2.5362685
3.0672948 0.42574453 2.509943
3.0370524 0.46696612 2.5348094
3.0743649 0.4864302 2.5143576
3.0407324 0.52160949 2.5399909
3.0728455 0.52506423 2.5120807
3.0387504 0.56958556 2.5405939
3.0674927 0.57005817 2.5158322
3.0340233 0.61957318 2.5321662
3.0737872 0.62911081 2.5096149
3.1010149 0.6283828 2.516607
3.0379655 0.6747511 2.5382826
3.0726449 0.68517751 2.5214288
3.1071463 0.6744771 2.5121264
3.0416269 0.73289019 2.5303762
3.070014 0.72584379 2.5181465
3.1817477 0.71015006 2.5011308
3.0334201 0.75017512 2.5300236
3.0735166 0.78263658 2.5240777
3.1002531 0.75789481 2.5202577
3.0744171 0.82660359 2.5230815
3.1010966 0.83016616 2.5026484
3.0781279 0.87961853 2.5292976
3.1181958 0.87098449 2.5066435
3.0362318 0.92852396 2.5346816
3.0808704 0.92077798 2.5170662
3.0442128 0.98803484 2.5409737
3.0681584 0.97804826 2.5149088
3.0412595 1.0283045 2.5367424
3.0810833 1.0275806 2.5111406
3.1171265 1.0032369 2.500675
3.0402613 1.0744984 2.5434568
3.0723794 1.0762559 2.5213099
3.106426 1.0604053 2.5066969
3.0706558 1.1245005 2.5204146
3.0454659 1.1744316 2.5481763
3.0734057 1.1788362 2.5284791
3.0709829 1.2268316 2.5359178
3.1129339 1.2197354 2.508862
3.0400772 1.2715019 2.5413258
3.0739315 1.27415 2.5206363
3.1146441 1.2703382 2.5089602
3.075706 1.3289826 2.5362263
3.1287637 1.3312585 2.5165465
3.0823383 1.3737485 2.524631
3.1269178 1.3630872 2.502027
3.1556118 1.3903285 2.5013824
3.0802295 1.4278264 2.5394177
3.1193969 1.4317861 2.5078139
3.0913072 1.4797566 2.5429552
3.1249332 1.4824061 2.5217767
3.0796134 1.530431 2.5303195
3.1319835 1.5235809 2.5110424
3.093806 1.5943528 2.5309007
3.1103008 1.5599849 2.508913
3.0833771 1.6207762 2.5321767
3.1108713 1.6363347 2.5111609
3.0895712 1.6591439 2.533159
3.0871584 1.7256033 2.5359881
3.132103 1.7293941 2.5082116
-2.5728078 2.3249431 2.5191472
-2.5466154 2.3268328 2.5423357
-2.4961271 2.3338215 2.5444145
-2.4245417 2.329335 2.5170717
-2.3755577 2.331533 2.5215802
-2.3241084 2.3307681 2.5224912
-2.2706017 2.3409679 2.5215657
-2.079735 2.3353844 2.5221913
-2.035445 2.33728 2.5263424
-1.9932396 2.3441005 2.5299063
-1.8500093 2.3412089 2.5128448
-1.8298987 2.3376341 2.519805
-1.7830032 2.3405521 2.5261281
-1.7240322 2.3372397 2.5230467
-1.6912531 2.3478289 2.5383883
-2.2547054 2.3706164 2.5052969
-2.2381544 2.3540838 2.5334792
-1.9843121 2.3681953 2.5252182
-1.8232607 2.3513663 2.5453653
1.722178 2.3841538 2.5354199
1.7687025 2.385879 2.5304079
1.8351572 2.3860962 2.5206594
1.8837799 2.3905275 2.5279076
1.9321223 2.3893101 2.5370071
1.9759388 2.3936551 2.5297
2.0236173 2.3962643 2.5309908
2.0720475 2.3931043 2.5367813
2.1335115 2.393683 2.5399947
2.1814899 2.3972681 2.5279284
2.2188742 2.3993971 2.5353694
2.2911847 2.3994026 2.5299606
2.4575458 2.399123 2.5028811
1.9762514 2.4000065 2.5254803
2.0627315 2.40028 2.5115352
2.1157706 2.4019856 2.5219381
2.2206984 2.4005909 2.5138288
2.2661295 2.4015641 2.5286806
2.3191869 2.4093766 2.527436
2.3750386 2.4099951 2.5348387
2.4271054 2.4122131 2.5325031
2.5378492 2.4022417 2.5449011
-0.12555175 -0.50842577 2.576298
-0.077956393 -0.52448398 2.5829711
-0.017619526 -0.53369147 2.5767496
0.01804989 -0.53833359 2.5765061
0.067781568 -0.54444098 2.5682633
0.10914391 -0.54843879 2.5740485
0.18149044 -0.53489143 2.5833771
0.2195652 -0.52426857 2.5765507
0.27936047 -0.52407002 2.5877643
0.31692615 -0.52693725 2.5830982
0.9017235 -0.50040287 2.5551682
-0.16288559 -0.47172329 2.5714664
-0.1468893 -0.48140258 2.5899985
-0.17329627 -0.42621079 2.5698805
2.680176 -0.41685078 2.5919387
2.7221787 -0.40135324 2.5716558
-0.16906677 -0.38531142 2.5837934
2.6703207 -0.36307141 2.557889
2.7295182 -0.37550434 2.5821414
2.7697074 -0.36435845 2.5636063
-0.17006806 -0.33038205 2.5771496
2.6825929 -0.339755 2.572578
2.7188849 -0.31454602 2.5915492
2.7642195 -0.31940028 2.5741694
-0.16974962 -0.27791685 2.5762727
2.7208698 -0.27878621 2.5948908
2.7695181 -0.2802459 2.5777876
-0.16854137 -0.22782406 2.5781212
2.7729726 -0.20125568 2.576822
-0.16941026 -0.1786827 2.5766404
2.8855026 -0.17968228 2.5856075
-0.16660556 -0.12792124 2.5732284
2.8829737 -0.12368174 2.5940535
2.9231083 -0.1197167 2.5736406
2.9676883 -0.11170219 2.5645146
3.0009854 -0.10351507 2.5610626
-0.16587958 -0.082966655 2.5726049
2.8916581 -0.0677104 2.5955479
2.9174519 -0.067656122 2.5701947
2.9803843 -0.064769074 2.5637772
3.0019772 -0.086020574 2.5624263
-0.16628358 -0.028235188 2.5701361
2.8948812 -0.024506519 2.5990496
2.9299269 -0.024514422 2.5818057
2.9894888 -0.027550161 2.5635407
-0.16291651 0.024623465 2.5751052
-0.14563641 0.018632181 2.5963876
2.8954999 0.018770106 2.5995805
2.9264901 0.018864937 2.5787208
2.9828641 0.01473112 2.5713198
3.0047395 0.027944688 2.5656483
-0.16261858 0.079842523 2.5697336
-0.14548564 0.086734317 2.5927689
2.8958254 0.053402025 2.5993927
2.9353895 0.071098737 2.5856647
2.9842772 0.06723807 2.5716906
3.0061908 0.080631122 2.5658379
-0.15666798 0.12908112 2.5713179
-0.14522237 0.12986094 2.5868611
2.8974962 0.14006104 2.5979404
2.9336221 0.1231862 2.5823231
2.9791498 0.12381819 2.5626624
3.0029802 0.10684637 2.5622413
-0.15653256 0.17809623 2.5671527
-0.14260924 0.18036677 2.582561
2.9346192 0.17544048 2.5805171
2.9851549 0.17306416 2.5631585
3.0050857 0.19467208 2.55948
-0.16008799 0.22447097 2.556062
-0.14048892 0.22048151 2.5870626
2.934303 0.22425206 2.5801361
2.9799337 0.23382398 2.5755064
3.0068846 0.22990869 2.558439
2.9384687 0.28096831 2.5919726
2.9685311 0.28179798 2.577683
3.0071707 0.26506084 2.5557673
2.9313107 0.31514326 2.5821695
2.9737744 0.31693864 2.5705471
3.0097311 0.33038747 2.5622861
3.0169506 0.37292939 2.5722523
3.0152822 0.42221346 2.5642426
3.0235696 0.48366398 2.5621693
3.0195119 0.52491212 2.5649889
3.0297923 0.57613653 2.5780942
3.031142 0.6276418 2.5808191
3.0180426 0.67045432 2.568326
3.0291243 0.72322214 2.5746944
3.0281608 0.77658182 2.5658543
3.0405474 0.82659495 2.5641506
3.0423143 0.86980146 2.5744424
3.0566626 0.86877888 2.5537195
3.0250006 0.91839731 2.5700767
3.0373201 0.97656715 2.5639782
3.021503 1.0181226 2.5704169
3.0175161 1.0637338 2.5601184
3.0420644 1.1181498 2.565088
3.0334396 1.1705041 2.5643024
3.0344105 1.2286822 2.5641949
3.0320282 1.2758335 2.567302
3.0341592 1.3221661 2.5725596
3.0403821 1.3616748 2.5772362
3.0541279 1.3747621 2.5616863
3.041239 1.4176786 2.5726957
3.0510874 1.4413226 2.5544746
3.0268173 1.4711585 2.5709198
3.0657172 1.4764426 2.5544007
3.0364053 1.520453 2.5682626
3.0558662 1.5373067 2.5536277
3.0446622 1.56947 2.5639937
3.0676782 1.5875158 2.555562
3.0393541 1.6334417 2.5655704
3.0350509 1.6721334 2.5704701
3.029774 1.7446444 2.5764265
3.0570984 1.7248058 2.5597596
3.0580347 1.7691497 2.5578475
-2.6091478 2.3279345 2.5972466
-2.5892122 2.329258 2.5645337
-2.5281146 2.3263066 2.5798936
-2.4710088 2.3272176 2.5750051
-2.3764145 2.3273153 2.5723386
-2.3248084 2.3314316 2.5699604
-2.2814972 2.3387492 2.5792155
-2.2316442 2.3419678 2.5778415
-2.1948941 2.3479595 2.5989015
-2.1008494 2.341068 2.5615063
-2.0758505 2.3433001 2.5822854
-2.0222874 2.3409312 2.570178
-1.9755855 2.3368304 2.5725007
-1.9493145 2.3461492 2.5833638
-1.8061422 2.3342817 2.570147
-1.774385 2.3355265 2.5708425
-1.7265151 2.3424406 2.5794508
-1.6831037 2.3431809 2.5756216
-1.5245221 2.3454487 2.5876548
-1.9591912 2.3746979 2.5662882
-1.8691164 2.3700292 2.5877786
-1.6807542 2.3571043 2.558305
1.5787991 2.3632057 2.5850537
1.6280409 2.3726916 2.5721145
1.6754291 2.3826051 2.5798917
1.7211145 2.3876677 2.5711758
1.7761202 2.3857784 2.5763302
1.8242065 2.384079 2.5755315
1.8727846 2.3812268 2.5617793
1.9246976 2.388732 2.5724406
1.9775594 2.3861482 2.5734513
2.0270584 2.3929667 2.5664907
2.0710454 2.3946874 2.583823
2.1252327 2.3955755 2.5710521
2.1766722 2.3937004 2.5699494
2.2309549 2.3943961 2.5788734
2.2700539 2.3971198 2.5714571
2.3456037 2.399281 2.583612
2.4018149 2.3993301 2.5906453
-1.6660284 2.4026437 2.5945051
2.3236978 2.4020193 2.5729525
2.3925459 2.4089146 2.567096
2.4193933 2.4075108 2.5689573
2.4506357 2.4103031 2.5751138
2.5417128 2.4047806 2.5953786
2.7390954 2.4123015 2.5879595
2.7575018 2.4014027 2.5785666
0.13119395 -0.55007446 2.6429617
-0.11643888 -0.50373352 2.6071815
-0.081791781 -0.51370764 2.6213691
-0.041161925 -0.52630621 2.6248341
0.028502893 -0.53759313 2.6163573
0.073178038 -0.54381692 2.6301384
0.12418266 -0.54738623 2.6302023
0.16492522 -0.53585726 2.6203389
0.23851945 -0.52138782 2.6257415
0.26901871 -0.52204096 2.6106873
0.32083532 -0.52077705 2.6168578
-0.12964152 -0.47462502 2.6236653
-0.13847408 -0.42641926 2.6280894
-0.15947866 -0.3690607 2.6029134
-0.14184088 -0.3720617 2.624696
2.6894004 -0.36797228 2.6074059
-0.15936099 -0.32503369 2.6047866
-0.13673253 -0.32006451 2.6309304
-0.14150716 -0.27056947 2.6269641
2.7135315 -0.25958174 2.6106043
-0.14047036 -0.22266281 2.6271198
2.7274106 -0.2186103 2.6272392
-0.15884262 -0.19936 2.6044176
-0.14080615 -0.17525181 2.6187665
2.7379425 -0.18552333 2.6396339
2.7746119 -0.1790608 2.6177449
2.8327851 -0.17057124 2.6183801
2.8657591 -0.17095071 2.6004395
-0.14099549 -0.12533216 2.6243715
2.7779746 -0.11856639 2.6494625
2.8245313 -0.11615824 2.6292026
2.863034 -0.10787449 2.6114776
-0.15853034 -0.062153999 2.6036782
-0.13726479 -0.076481119 2.626622
2.8247631 -0.069639288 2.6347945
2.8676233 -0.063369237 2.6141541
-0.13584045 -0.027517345 2.624208
2.8218451 -0.024516242 2.6448102
2.8665133 -0.024536286 2.6217115
-0.13148367 0.025083214 2.6244273
2.8247187 0.01857505 2.6394262
2.8759928 0.018726828 2.6181715
-0.13163692 0.072314583 2.6197259
2.8380768 0.070477277 2.6429975
2.8700352 0.070678294 2.6240106
2.9052422 0.079633608 2.6072092
-0.12467481 0.12667617 2.62479
2.8294098 0.12211598 2.6412225
2.8717258 0.12269849 2.6237848
2.9028277 0.1142742 2.6038594
-0.12114978 0.172332 2.625879
2.8233783 0.17376776 2.6410153
2.8692949 0.17453377 2.6189139
2.9052384 0.17518716 2.6029603
-0.11637866 0.21406837 2.6314075
2.8389118 0.22606426 2.6358826
2.8728123 0.22674108 2.6185672
2.908247 0.22754101 2.6020648
2.8342938 0.27469566 2.640384
2.8777397 0.27924463 2.6185815
2.914099 0.28027251 2.6027913
2.8481236 0.3135162 2.6365831
2.8839421 0.31463569 2.6207709
2.9203377 0.31580377 2.6048765
3.0348577 0.70521808 2.609616
3.0548325 0.88767922 2.6157074
3.0495234 0.99239594 2.6143553
3.0505996 1.1095678 2.611975
-2.6295328 2.3169944 2.6371031
-2.5784771 2.316222 2.6314545
-2.5281103 2.3249943 2.6189988
-2.4780397 2.3231502 2.6361876
-2.4498274 2.32446 2.6100004
-2.3805864 2.3309271 2.624285
-2.3238437 2.3304298 2.6163743
-2.2723334 2.334501 2.6291664
-2.2206342 2.3315637 2.6290858
-2.1926126 2.3369305 2.6271935
-2.0686123 2.3476398 2.6392808
-2.0257041 2.3373034 2.6057043
-1.9676048 2.3311176 2.618794
-1.9445279 2.3349981 2.6328402
-1.7675409 2.3328967 2.6185279
-1.7194315 2.3346136 2.6219549
-1.6714081 2.3383794 2.614815
-1.6324345 2.3412473 2.6274519
-1.4886229 2.3472722 2.6275179
-1.4295664 2.3428664 2.6312547
-2.1827397 2.3545899 2.6190333
-2.0577514 2.3534338 2.6116633
-1.9306854 2.3613427 2.6200891
-1.5579606 2.3704975 2.6063423
-1.5164043 2.3566587 2.6334114
-1.4702561 2.3537092 2.6268902
1.5290014 2.3788517 2.6336963
1.5748374 2.3766208 2.6357455
1.6304783 2.3695445 2.6210899
1.672812 2.3774681 2.6334121
1.7217951 2.38486 2.6168334
1.7698039 2.3847926 2.6296742
1.8209041 2.3860514 2.6289532
1.8790811 2.3895097 2.6234584
1.9273298 2.3872242 2.6323521
1.9765285 2.3898365 2.6377814
2.0067642 2.3828347 2.6067619
2.0678599 2.3937771 2.6287727
2.1231394 2.3959219 2.6253493
2.1692393 2.3940771 2.6210918
2.2235332 2.3873315 2.6023595
2.267638 2.3959234 2.6329899
2.306706 2.3977034 2.6085365
2.7948465 2.3939757 2.639425
1.9703698 2.4004633 2.6155736
2.0394921 2.4001522 2.6138086
2.1304348 2.402673 2.6017079
2.2092342 2.4018908 2.6375937
2.2753363 2.4040339 2.6419201
2.3646247 2.4094265 2.6355994
2.494457 2.4154158 2.600749
2.5127218 2.4137669 2.633389
2.7441461 2.4441345 2.6196687
2.7786322 2.4084988 2.6280243
0.11870168 -0.55147702 2.6500981
-0.07661806 -0.50529826 2.6709528
-0.029027382 -0.522825 2.6734905
0.01872159 -0.52919006 2.6723211
0.080734432 -0.53858882 2.6688373
0.13033101 -0.54161984 2.6792762
0.19004355 -0.52809715 2.6622744
0.22306524 -0.52338254 2.6704583
0.27008438 -0.52046245 2.6866293
0.32240134 -0.52095288 2.6853852
-0.10509737 -0.46706662 2.6775358
-0.087349281 -0.48891905 2.6857655
-0.11000577 -0.42364168 2.6766319
-0.11659757 -0.37965599 2.673943
-0.099936746 -0.37411532 2.6867008
2.6900344 -0.39101407 2.6850522
2.7114229 -0.37086412 2.6736665
-0.1106816 -0.334553 2.6828458
2.4930851 -0.33690482 2.6895571
2.7332451 -0.32383069 2.6717045
-0.11806536 -0.27459034 2.6667123
-0.099922806 -0.26441699 2.6947513
2.7422798 -0.27342808 2.6854146
-0.11807446 -0.22349726 2.6698256
-0.099647239 -0.22512282 2.6895599
2.7404842 -0.23036298 2.687114
2.7540178 -0.20498964 2.6860969
-0.11789389 -0.17212376 2.6680386
-0.099481538 -0.17335016 2.6875346
2.732935 -0.1527535 2.684371
2.7546639 -0.17015055 2.6727333
-0.1176471 -0.12089211 2.6643035
-0.099307992 -0.12180285 2.6846445
2.6957593 -0.10956167 2.6971674
2.7244759 -0.10964069 2.677794
2.7635314 -0.10705054 2.6573131
-0.11567393 -0.065849036 2.6692476
-0.099482216 -0.07060755 2.6905186
2.7365437 -0.067308538 2.690799
2.7758553 -0.067368269 2.6648815
-0.11178103 -0.025540711 2.6776416
-0.09919817 -0.025595108 2.6833408
2.7382164 -0.024500117 2.6930296
2.780653 -0.024511939 2.6700811
-0.11399708 0.015348109 2.6700196
-0.099175155 0.019225521 2.682713
2.7267964 0.018313065 2.6977777
2.771791 0.018444356 2.6775095
2.8113694 0.018536428 2.6510315
-0.11358516 0.068604685 2.6595762
-0.093814336 0.069654681 2.6864276
2.7277012 0.052581515 2.6982579
2.7720342 0.070024587 2.6769152
2.8149912 0.070297919 2.6536198
-0.11097015 0.10790223 2.6567969
-0.094875731 0.11736927 2.6805115
2.7362916 0.13266654 2.6934872
2.7753105 0.11950569 2.6744666
2.8131866 0.121957 2.650178
-0.093651377 0.17560568 2.6785216
2.7389393 0.17267142 2.6886778
2.7852952 0.17348225 2.6693687
-0.094187051 0.21548519 2.6812024
2.734097 0.21582794 2.6972427
2.7737048 0.22774683 2.6798599
2.8133194 0.22246253 2.6573539
2.7776885 0.2749292 2.6798096
2.8159122 0.29000604 2.6626976
2.7850819 0.31314036 2.6903005
2.8233013 0.31359994 2.6619759
-2.6191516 2.3152139 2.6675153
-2.5630941 2.3278377 2.6833563
-2.517674 2.3231449 2.6569839
-2.4773715 2.3307874 2.6767869
-2.4280405 2.3298197 2.6862478
-2.375427 2.3254192 2.6667278
-2.3337729 2.3278131 2.668937
-2.2835319 2.3274479 2.6720161
-2.2272327 2.326649 2.6784508
-2.1800368 2.3391631 2.6749363
-2.0178151 2.3413639 2.6621482
-1.9792118 2.3386188 2.6824808
-1.9238583 2.3383574 2.6877129
-1.7540135 2.340121 2.6514747
-1.676847 2.3392501 2.6734002
