ply
format ascii 1.0
comment PCL generated
element vertex 1561
property float x
property float y
property float z
element camera 0
property float view_px
property float view_py
property float view_pz
property float x_axisx
property float x_axisy
property float x_axisz
property float y_axisx
property float y_axisy
property float y_axisz
property float z_axisx
property float z_axisy
property float z_axisz
property float focal
property float scalex
property float scaley
property float centerx
property float centery
property int viewportx
property int viewporty
property float k1
property float k2
end_header
-1.1964597 1.1713629 4.0420885
-1.2215124 1.2240745 4.0216799
-1.197 1.2126604 4.0355015
-1.2200273 1.2766079 4.0268135
-1.2265692 1.31805 4.0251355
-1.2506742 1.3797675 4.033916
-1.2237659 1.3784525 4.035634
-1.2545066 1.4149952 4.0386419
-1.2363708 1.4385626 4.0462055
-1.230559 1.4778017 4.0414987
-1.2393044 1.5249572 4.0340853
-1.2263865 1.5815746 4.0354972
-1.2150035 1.6065962 4.0433459
3.0333171 1.9708586 4.0373383
3.0632515 1.9881436 4.0142899
3.0323501 2.0147934 4.0446787
3.0542634 2.0253644 4.0204873
3.0441272 2.0716627 4.0391874
3.0665021 2.0702579 4.0205059
3.0683 2.1289978 4.0249419
3.0798669 2.1864045 4.0172338
3.0720618 2.2357306 4.0381289
3.0718803 2.2728627 4.019825
-1.9927789 2.3440821 4.0464969
-1.9151335 2.3309479 4.0210633
-1.8730826 2.3323972 4.0115433
-1.8013486 2.3274226 4.0277743
-1.7201545 2.3470893 4.0397224
-1.6661308 2.334548 4.0330095
-1.6319484 2.3380549 4.0149808
-1.5757984 2.339529 4.0176358
-1.5195005 2.338532 4.0327158
-1.4599638 2.3323255 4.0380135
-1.4367628 2.3307035 4.0413914
-1.3555239 2.327697 4.0059605
-1.2692722 2.3306282 4.0331573
-1.1808664 2.3297446 4.0187254
-1.1277055 2.3324625 4.0187745
-1.0705563 2.341754 4.0312285
-1.0220698 2.3306594 4.0207286
-0.97245377 2.3259461 4.0377502
-0.92370862 2.3344076 4.0131478
-0.86886144 2.3321099 4.0183396
-0.82826424 2.3393605 4.0377274
-0.75232565 2.3389382 4.0481777
-0.72535026 2.3434529 4.0122938
-0.62831974 2.3422809 4.0225782
-0.57486343 2.3431854 4.0301356
-0.52168977 2.3458347 4.0401907
-0.46685091 2.3404894 4.0359073
-0.42996335 2.341676 4.0254989
-0.38029853 2.3437538 4.0328746
-0.32229558 2.3443782 4.0223107
-0.29338694 2.3481464 4.0150504
-0.20882577 2.3358181 4.0438819
-0.17987262 2.3448701 4.0297661
-0.11703014 2.3373752 4.0147724
-0.07965032 2.3388114 4.0064616
-0.015885904 2.3398211 4.0087614
0.23990428 2.3456495 4.0134459
0.58636546 2.3457751 4.0335131
0.82303572 2.3458128 4.0023236
3.0636299 2.3278193 4.0272651
-0.72912097 2.3555779 4.0330973
-0.67494255 2.3550496 4.0392575
-0.36861533 2.3515267 4.0162096
-0.26187497 2.3525414 4.0242081
-0.21894196 2.3508067 4.0231485
-0.058680851 2.3503315 4.0264711
-0.037325878 2.3507614 4.0273981
0.18697301 2.3502674 4.023448
0.21961616 2.3567119 4.0332842
0.27348495 2.359498 4.0356016
0.32644248 2.3547006 4.0244083
0.38130301 2.3630877 4.0352407
0.42429852 2.3633542 4.0324898
0.45573023 2.3593082 4.0229688
0.73004889 2.3582358 4.0377064
0.77448571 2.3617702 4.0376697
0.80455703 2.3546968 4.0207934
3.0591683 2.3663318 4.0395241
2.0292242 2.4290257 4.0309196
2.0664182 2.4320517 4.0215473
2.1279624 2.4262867 4.0422387
2.4826505 2.43028 4.0047216
2.5387177 2.4259286 4.0303731
2.5903015 2.4164524 4.0475965
2.6333239 2.4227309 4.0381842
2.682683 2.4236283 4.0124288
2.7267113 2.406203 4.0153565
2.7728119 2.4100256 4.0204434
2.8387461 2.4152827 4.0405035
2.8849397 2.4230981 4.0309067
2.9820752 2.417088 4.0282478
3.019784 2.4023728 4.0422554
3.0573382 2.4024508 4.0178342
2.785094 0.54309434 4.0911617
2.8126452 0.5893479 4.0813227
2.8193889 0.62480557 4.0870962
2.821543 0.67070943 4.0845222
2.8296499 0.71819115 4.0901289
2.8350306 0.76520503 4.0913434
2.8480647 0.84895378 4.0976014
2.8591034 0.94430774 4.0974226
2.8467176 0.98605025 4.0710096
2.8614955 0.96813339 4.0965533
-1.1725508 1.1780664 4.0714521
2.8586352 1.1605951 4.0999303
-1.1758089 1.2224345 4.0742922
-1.1811845 1.2732275 4.0751796
-1.2101375 1.3392805 4.0546937
-1.1820004 1.3282402 4.0819702
-1.2815086 1.3908926 4.061831
-1.2109137 1.3607568 4.0524473
-1.1855757 1.3775852 4.0756931
-1.2170528 1.4194698 4.0604134
-1.190833 1.4176736 4.0718021
-1.2121059 1.4726932 4.0690203
-1.1871076 1.4751766 4.0982876
-1.2140374 1.5287309 4.0695086
-1.1889009 1.5193179 4.0935898
-1.2094222 1.5711529 4.0736184
-1.1914093 1.5645294 4.0909395
-1.2278551 1.6446985 4.0800977
-1.1961379 1.6023586 4.0984406
-1.2586011 1.664605 4.0640645
-1.2276341 1.6760098 4.0700102
-1.2650187 1.726054 4.0687637
-1.2307343 1.7225251 4.0674992
2.9932563 1.9764891 4.0796871
2.9758568 2.0177948 4.0890827
3.0114603 2.0171151 4.0648899
2.9757428 2.0751355 4.0925355
3.0152235 2.0770109 4.0731802
2.9897699 2.1219249 4.0957112
3.0185838 2.1162357 4.0614891
2.9955621 2.1631112 4.0870581
3.0357027 2.1653652 4.0677361
2.9861412 2.2136896 4.0862341
3.0250885 2.2263467 4.0695095
3.0554755 2.2078493 4.0524697
2.9932594 2.2790713 4.08706
3.0288756 2.2778039 4.0610256
-2.0250957 2.3318701 4.0667386
-1.9803684 2.3335304 4.0879402
-1.8869388 2.326834 4.0518112
-1.8017571 2.3346102 4.098309
-1.7612979 2.3341963 4.0553594
-1.7181549 2.3371232 4.0757966
-1.6257577 2.3297405 4.0636897
-1.5746099 2.3299906 4.0709138
-1.5480901 2.34268 4.0855565
-1.4879754 2.3366838 4.0913181
-1.3723143 2.3342941 4.0655155
-1.3291222 2.3364983 4.0807014
-1.2177582 2.3371263 4.0574303
-1.1573471 2.3264344 4.0511789
-1.1287793 2.3354337 4.073936
-1.0831369 2.3319087 4.0768671
-1.0250876 2.3250418 4.0755959
-0.92050505 2.3319745 4.0578814
-0.87726557 2.3328848 4.0667524
-0.82587057 2.3416901 4.0906892
-0.73155612 2.341759 4.0560451
-0.66887188 2.3390915 4.0834389
-0.62356448 2.3377321 4.0743771
-0.58171254 2.3494151 4.0877156
-0.52432692 2.3360982 4.0700126
-0.47189197 2.344141 4.0889478
-0.41587281 2.3450704 4.0715418
-0.37260509 2.3338971 4.0785809
-0.34014988 2.3441958 4.0752845
-0.27465025 2.3436689 4.066257
-0.23178129 2.3405194 4.0745211
-0.13087603 2.3396482 4.0684628
-0.069726452 2.3417187 4.0576639
-0.026838243 2.3460765 4.0655966
0.28545541 2.3482785 4.0620594
0.45801908 2.3495917 4.0525651
2.9781666 2.3240397 4.0980906
3.0158706 2.324264 4.0747786
-0.77973616 2.3563457 4.0752082
-0.7135815 2.3539715 4.0801063
-0.56048566 2.3516018 4.0937929
-0.49100757 2.3533807 4.0562267
-0.16699257 2.3501184 4.0701261
0.0054668654 2.3555193 4.0820365
0.19963114 2.352176 4.0726228
0.23203102 2.3525848 4.0720482
0.26450166 2.3534837 4.0721478
0.31855765 2.354079 4.0702929
0.3732425 2.3583827 4.0742955
0.42693037 2.3564219 4.0669713
0.59464985 2.3570838 4.0999398
0.62544549 2.3606155 4.0788636
0.66953635 2.3627558 4.0773516
0.70977736 2.3602409 4.0757804
0.78399199 2.3687954 4.0967999
1.4213409 2.3826547 4.0917244
2.9245703 2.3959832 4.0867186
2.9732666 2.3684216 4.0874038
3.0233402 2.3676171 4.0661383
1.803175 2.4204113 4.0998707
1.9873347 2.4253345 4.0982256
2.0229673 2.4261246 4.0856538
2.0715237 2.4421818 4.0984087
2.1039913 2.4255207 4.0509486
2.1701686 2.4476027 4.0675116
2.2173266 2.4371443 4.0854006
2.2702518 2.431263 4.0798264
2.53163 2.4180293 4.082324
2.562341 2.4128449 4.0545177
2.6026309 2.4036682 4.0790315
2.672194 2.4117413 4.0592761
2.7344146 2.4223475 4.0832548
2.7570348 2.4083803 4.0725064
2.8285754 2.4276688 4.0760751
2.8810022 2.4157557 4.0881357
2.9270196 2.4126761 4.0523405
2.9688487 2.4015706 4.0728559
2.1979477 2.4523656 4.065002
2.7304096 0.52296513 4.1485038
2.7694085 0.52299595 4.1285882
2.7750113 0.57828981 4.127367
2.8037317 0.5922308 4.1135845
2.7800982 0.63165754 4.1351066
2.8044019 0.62650609 4.1105714
2.7805517 0.6744988 4.1382351
2.8122783 0.67389584 4.1164312
2.7835565 0.7209543 4.1366477
2.8136604 0.71990633 4.1123486
2.7847641 0.76425886 4.140224
2.814007 0.77157515 4.1210017
2.7844555 0.80454189 4.1494722
2.8262782 0.81391096 4.1267781
2.8524592 0.82730174 4.107655
2.8299108 0.86536658 4.1381149
2.859832 0.8754831 4.1106811
2.8330142 0.92403507 4.1327329
2.8643045 0.91143239 4.1111054
2.8270435 0.97788286 4.1376357
2.8236885 1.0329123 4.1458664
2.8595517 1.0217041 4.1308055
2.8452456 1.083114 4.1447048
2.8646483 1.0816751 4.1263437
2.8329687 1.1294026 4.1401458
2.8695033 1.1300719 4.1233258
-1.152359 1.1992242 4.1129375
-1.1432571 1.1798682 4.1237049
2.8356967 1.1770955 4.1337676
2.8625762 1.1854278 4.1002316
-1.1544909 1.2325158 4.1141376
-1.1387249 1.2170774 4.1403894
2.833142 1.2276251 4.142581
2.8535275 1.2263639 4.1254196
-1.155722 1.2752982 4.1096959
-1.1415809 1.2722943 4.1398172
2.8393664 1.2771689 4.1403074
2.8573585 1.2747655 4.1195316
-1.1601132 1.3217685 4.1161103
-1.1440126 1.3376869 4.1348529
2.8376896 1.3307902 4.1406674
2.8667283 1.325853 4.121078
-1.158287 1.3730117 4.1254563
-1.1416148 1.3557408 4.1214156
2.8344069 1.3721153 4.1413093
2.8622043 1.3782735 4.1166968
-1.1707661 1.4231989 4.133069
2.8442993 1.4260969 4.1339436
2.8621495 1.4408993 4.1328015
-1.1646777 1.4776336 4.130197
2.8448801 1.4796019 4.1450343
2.8654451 1.4780263 4.1273508
-1.1624459 1.5258529 4.1176314
2.8350675 1.5280138 4.140564
-1.1683904 1.5760086 4.1274257
2.8337588 1.581257 4.1481004
2.8531747 1.5788679 4.1285319
-1.2031223 1.6329225 4.1163845
-1.1720418 1.6233566 4.1285343
2.8411055 1.6210977 4.1476173
2.8665147 1.6339511 4.1326456
-1.2030523 1.6752487 4.103838
-1.1875472 1.6726749 4.1311884
2.8584049 1.6822418 4.138536
-1.2061622 1.7220947 4.1017761
-1.1906466 1.7197545 4.1293402
2.853595 1.7239871 4.1341367
-1.2627333 1.784499 4.1253266
-1.213631 1.7541521 4.1206298
2.8659658 1.7675233 4.1394954
-1.3177745 1.8335295 4.1431208
-1.2932543 1.8186995 4.1425686
2.8605163 1.863777 4.1496716
2.8799059 1.9495152 4.1498804
2.9037275 1.9491796 4.1349607
2.880198 1.9862669 4.1357775
2.9158695 1.9735314 4.118001
2.9579575 1.9772869 4.1038532
2.8763227 2.0286617 4.1399145
2.9235499 2.0153835 4.113903
2.8812118 2.068856 4.1316938
2.9306679 2.0680707 4.1133041
2.9526641 2.0884202 4.1043253
2.8941307 2.1487246 4.1487088
2.922899 2.1292889 4.1305308
2.96141 2.1192508 4.1057634
2.8992586 2.1772759 4.1451569
2.9385388 2.1676443 4.12147
2.9746311 2.1658545 4.107583
2.8810713 2.2318079 4.146853
2.9139414 2.2161837 4.124332
2.9536314 2.2181437 4.105433
2.8924389 2.2779839 4.1459494
2.9277363 2.275522 4.1310925
2.9626882 2.2852216 4.1093578
-2.023556 2.3336043 4.1304684
-1.977614 2.3344221 4.1499667
-1.9327822 2.3318245 4.1026096
-1.8611611 2.328809 4.122694
-1.7700019 2.3379838 4.1160326
-1.7073469 2.3420391 4.1169758
-1.6769898 2.336041 4.1426544
-1.6282951 2.3383393 4.1070924
-1.5616304 2.3404429 4.1313782
-1.5282186 2.343188 4.1283827
-1.4762049 2.3422825 4.1323137
-1.4137819 2.3439684 4.1256471
-1.3632683 2.3346202 4.1208382
-1.3173653 2.3328021 4.1288204
-1.2825514 2.3418374 4.1282673
-1.2354312 2.33409 4.1160049
-1.1712854 2.3321881 4.1300821
-1.1206192 2.3423414 4.1392155
-1.0726638 2.3350103 4.1351957
-1.030279 2.3387651 4.1334672
-0.86538792 2.3379107 4.126967
-0.82261431 2.3416312 4.1403036
-0.78284651 2.3438361 4.1009336
-0.7200681 2.3423393 4.1313334
-0.69493896 2.3427825 4.1109033
-0.62885988 2.3415184 4.1165423
-0.57556009 2.3469305 4.1320562
-0.52058518 2.3462152 4.1362181
-0.47529554 2.3391111 4.127583
-0.4333781 2.3488193 4.1483235
-0.37759823 2.3430371 4.1420722
-0.33227652 2.3430707 4.121098
-0.29843619 2.34513 4.1028533
-0.21301495 2.3389606 4.1435332
-0.1790404 2.3454266 4.1085186
-0.14639995 2.3439844 4.1069608
-0.081455812 2.3483679 4.115983
-0.027079614 2.3446171 4.1099315
0.016350348 2.3454442 4.1114259
0.24542615 2.3341565 4.1337023
0.30985078 2.3483756 4.1079621
0.35354051 2.3497832 4.1078176
0.41851535 2.348208 4.1005077
0.61960816 2.3471437 4.1277642
0.66412717 2.3494775 4.1267738
2.8814809 2.3281457 4.1422582
2.9193699 2.340214 4.1249499
2.9540999 2.3247275 4.1148024
-1.4410038 2.3516297 4.1330953
-0.99228615 2.3512065 4.129765
-0.7639538 2.3530951 4.1202388
-0.74186283 2.3527589 4.122663
-0.54338878 2.350029 4.1408405
-0.42960313 2.3501225 4.1029768
-0.25562775 2.3507385 4.1148458
-0.10351602 2.3556705 4.1284194
0.27772993 2.3525934 4.1170597
0.33195367 2.3509526 4.1112089
0.38739872 2.3573956 4.1189275
0.44162914 2.3555508 4.1116314
0.64378065 2.3553486 4.1396852
0.68967021 2.3617771 4.14568
1.4741464 2.3954496 4.1012764
2.8221159 2.3936076 4.1422868
2.8772926 2.3897855 4.124723
2.9145589 2.3730061 4.1102371
2.9548554 2.3503308 4.1036491
1.3542076 2.4056113 4.1000562
1.6878564 2.4202082 4.1382604
1.7362902 2.4235106 4.1287913
1.7673757 2.4345591 4.1398234
1.8262717 2.4242589 4.1274042
1.8772906 2.4186633 4.1264572
1.9195324 2.4279919 4.1294904
2.0321102 2.4276626 4.1439242
2.0852637 2.4347346 4.1369686
2.1898894 2.4341807 4.1218853
2.2487061 2.4346426 4.127553
2.3133583 2.4285781 4.1478653
2.5196426 2.4176004 4.1206722
2.5742455 2.4111338 4.1111178
2.6963158 2.4199479 4.1339035
2.7147655 2.4144294 4.1107721
2.7879772 2.410552 4.1306539
2.8248365 2.4102335 4.1084127
2.8804498 2.4007373 4.1251702
2.6757445 0.47788268 4.1842918
2.7217522 0.47800976 4.1626339
2.6806219 0.52431244 4.1876884
2.708869 0.52319527 4.1617298
2.6849501 0.58214796 4.1886492
2.729898 0.58204651 4.1648974
2.6782823 0.6288628 4.1965704
2.7253151 0.62920326 4.1759171
2.7687521 0.6172958 4.1506052
2.6794116 0.66340774 4.1942754
2.7271426 0.6753704 4.1731791
2.7246881 0.72349387 4.1868048
2.7548776 0.72241455 4.1629534
2.7297757 0.77082843 4.1882463
2.7602849 0.76973867 4.164691
2.7380364 0.81429023 4.1868644
2.7748234 0.82153702 4.1635842
2.735965 0.86980599 4.1909103
2.7756927 0.86902189 4.1652989
2.7339761 0.91402078 4.1965318
2.7689779 0.92443991 4.1694198
2.8015065 0.93657482 4.1538639
2.7401249 0.9740172 4.1957469
2.7701468 0.98394942 4.168613
2.810554 0.99755961 4.15662
2.7446094 1.0336494 4.1917367
2.7757761 1.0323181 4.1682329
2.7735443 1.0823338 4.1790862
2.8194227 1.0821121 4.1535501
2.7754705 1.1296513 4.1722417
-1.1150477 1.1832697 4.1684666
2.7361596 1.1676137 4.1999235
2.7715995 1.1794996 4.1798539
2.8035297 1.1782353 4.1567802
-1.1173087 1.2275106 4.168529
2.7764537 1.2283447 4.176477
2.8104043 1.2278767 4.1561747
-1.1246077 1.2730834 4.1764269
2.7779443 1.2813808 4.1812243
2.8177817 1.2779795 4.1557755
-1.130764 1.3215468 4.1727419
2.7739556 1.3261745 4.1837959
2.8125849 1.3279328 4.1599693
-1.1230476 1.3712445 4.1746602
2.7722588 1.3781918 4.1828699
2.8059416 1.3774226 4.1616101
-1.1536989 1.4333268 4.1500473
-1.1259181 1.4276702 4.1729374
-1.0999994 1.4458294 4.1983643
2.7820554 1.4303322 4.1849399
2.8226788 1.4250698 4.1587477
-1.1573608 1.4590219 4.1580267
-1.1312324 1.4769053 4.1821909
2.7784271 1.481809 4.1800284
2.8220787 1.4800335 4.1593313
-1.1343352 1.5270989 4.1730232
2.7720904 1.5261272 4.1774459
2.8056221 1.5431614 4.1655583
-1.1335931 1.5757983 4.1660881
2.7784967 1.5835729 4.1866779
2.8112013 1.5819156 4.1629686
-1.1398451 1.6273224 4.177454
2.7825723 1.6335775 4.1779737
2.8191199 1.6340702 4.1597018
-1.1660304 1.679032 4.1625915
-1.136018 1.6695291 4.1957932
2.7700584 1.6817352 4.185667
2.8166952 1.6754684 4.1686835
2.8502073 1.650203 4.1531997
-1.1673578 1.7219771 4.1703525
-1.1318269 1.7207588 4.1947551
2.7699335 1.71847 4.1912637
2.8237207 1.7156507 4.1671362
-1.2473886 1.7933356 4.1505232
2.7822714 1.7556969 4.1909266
2.8261235 1.7720648 4.1679983
-1.2636179 1.822794 4.1592035
-1.2370977 1.820771 4.1900854
2.7815952 1.8232503 4.1935873
2.8246617 1.8206413 4.1700306
2.8546691 1.8358138 4.1501031
-1.2580324 1.8522228 4.1720304
2.7927971 1.879112 4.1929131
2.827904 1.8783031 4.1710072
2.8696723 1.8940241 4.1538386
2.8267334 1.9281638 4.1779537
2.8673441 1.9370642 4.1610336
2.7852459 1.9757559 4.1992249
2.820996 1.9699215 4.189239
2.8563375 1.9744052 4.1554093
2.7984533 2.0341415 4.1997819
2.8292775 2.0177102 4.1754923
2.860559 2.001735 4.1518059
2.7876358 2.0719607 4.1937294
2.8288579 2.074141 4.1688027
2.8238537 2.1298866 4.1768475
2.872962 2.1174974 4.1537886
2.7959507 2.1861262 4.1898127
2.8241875 2.1765218 4.186646
2.8693979 2.171356 4.1725345
2.8232841 2.2235394 4.1839728
2.8631582 2.2141829 4.1619096
2.8287082 2.2766876 4.1798024
2.863028 2.2743602 4.1539874
-1.9705293 2.3280585 4.1691651
-1.9284717 2.3314128 4.1620655
-1.8595399 2.3326173 4.1893449
-1.8219595 2.3376381 4.1546221
-1.7528863 2.3380599 4.1788149
-1.6761702 2.3279057 4.182838
-1.6345001 2.3407679 4.165328
-1.5980164 2.3377223 4.1702991
-1.4728456 2.343719 4.1629663
-1.4376719 2.3419886 4.169064
-1.3838487 2.3279166 4.1557922
-1.2224841 2.344305 4.1728697
-1.1385419 2.3339295 4.1712928
-1.0816107 2.3321424 4.1793604
-0.99651003 2.3389359 4.1568618
-0.8275227 2.333379 4.174367
-0.78748471 2.3428638 4.1809373
-0.72563535 2.3419449 4.170979
-0.67989492 2.3444881 4.164813
-0.61438334 2.3476379 4.1780853
-0.59259826 2.3490522 4.182981
-0.52440625 2.341186 4.1755147
-0.45814967 2.3413033 4.1815333
-0.4140375 2.3416028 4.1854777
-0.31328014 2.342608 4.1694741
-0.26634437 2.3447177 4.1837444
-0.23556186 2.3458557 4.1548705
2.7999263 2.3210318 4.1964226
2.8277338 2.334301 4.1692085
-1.7472581 2.3536317 4.1551938
-0.77063727 2.3514934 4.1657205
-0.6615923 2.3580654 4.1915936
-0.57182693 2.3547509 4.1954226
-0.48237637 2.3517575 4.1983595
-0.30186909 2.3501413 4.159307
-0.28005889 2.3513899 4.1626554
-0.1819035 2.3605425 4.1829166
-0.12638421 2.3534458 4.171824
-0.082311265 2.3510721 4.1684589
-0.02740236 2.3519778 4.1705923
0.027536824 2.3517606 4.1701913
0.28100887 2.3579888 4.1743488
0.36959231 2.3610888 4.1747532
0.40206426 2.35745 4.1660662
0.47960827 2.3596315 4.1638527
0.5571835 2.3614051 4.1598463
0.60194743 2.3639083 4.1596737
0.71395683 2.3691456 4.1558151
0.75887239 2.3711636 4.1534748
2.7779427 2.3841796 4.1737175
2.8269308 2.3727098 4.1615477
2.857656 2.3775291 4.155448
1.418866 2.4167047 4.1562881
1.6755042 2.4357371 4.1722121
1.726482 2.418997 4.1791148
1.7560619 2.4277563 4.1865811
1.8068221 2.4332852 4.1803427
1.8684385 2.4256082 4.1722603
1.9266638 2.4135723 4.1558003
1.952961 2.4171412 4.1531711
2.0444684 2.4187069 4.1802578
2.0849922 2.4245114 4.1760602
2.1327796 2.4384148 4.18538
2.1737401 2.4308045 4.152297
2.2272816 2.426373 4.1816483
2.2818866 2.4334426 4.1725612
2.5849497 2.4080825 4.1662788
2.6349924 2.4202399 4.1678228
2.6773112 2.4159808 4.1815829
2.7305365 2.4146018 4.1726532
2.7683737 2.4150946 4.1526361
2.5817559 0.47935745 4.246273
2.6275966 0.47943178 4.2254734
2.5838838 0.52541518 4.2456112
2.6223621 0.52203405 4.2267289
2.6522622 0.5368309 4.2123394
2.5832899 0.58229458 4.2390027
2.616066 0.58199573 4.2207389
2.652729 0.5825597 4.2084169
2.5874095 0.62893331 4.2407856
2.623208 0.6293202 4.2272148
2.6548605 0.62871772 4.206737
2.5915818 0.6642701 4.2436447
2.6253009 0.67557943 4.225215
2.6676867 0.67953616 4.2053132
2.5992508 0.73509914 4.2475338
2.6356797 0.72419918 4.2360821
2.6801553 0.72383624 4.2116642
2.5978131 0.75763458 4.2420993
2.636446 0.77036822 4.2310839
2.6820788 0.77029383 4.208375
2.6332743 0.80737215 4.245029
2.6737571 0.81633186 4.2221351
2.7204208 0.83245432 4.2123356
2.6396656 0.86709857 4.2465563
2.6732345 0.8667748 4.2281208
2.7106695 0.86768603 4.215477
2.6411126 0.90225911 4.2433267
2.683099 0.92250097 4.2301979
2.7134829 0.9148913 4.2122293
2.6821601 0.97944278 4.2286048
2.7166996 0.97391444 4.2070618
2.6691933 1.0358524 4.2415013
2.7136259 1.035086 4.215312
2.6711528 1.0831773 4.235559
2.7167978 1.0828493 4.2110667
2.6796694 1.1333554 4.2395291
2.7263064 1.1333506 4.216177
-1.0891588 1.1789503 4.2118778
2.6457162 1.1805238 4.2484121
2.6835666 1.1817777 4.2357059
2.7258291 1.1854382 4.2124667
-1.1132462 1.224401 4.2112622
-1.0871748 1.2241007 4.2309713
2.6848452 1.2270466 4.2362785
2.7294078 1.2336948 4.2141433
-1.0832571 1.2753038 4.2225609
2.687921 1.2830036 4.2455454
2.7203393 1.2816767 4.2234011
2.7508731 1.2677661 4.2009954
-1.1104015 1.3393013 4.2203426
-1.0899699 1.3190181 4.2319841
2.6838989 1.3358892 4.2430859
2.7246618 1.3308116 4.2185869
-1.1007768 1.3617418 4.2212033
-1.0892332 1.3792992 4.2309556
2.6810188 1.3777237 4.2449613
2.7269161 1.3849907 4.2239985
-1.1087842 1.412567 4.2119918
-1.0861275 1.4236114 4.2386317
2.6837225 1.4463724 4.2491016
2.7265308 1.4321574 4.2212224
-1.1050308 1.4844911 4.209703
-1.0855966 1.4657207 4.2263193
2.6896925 1.4852402 4.248796
2.7226744 1.4838187 4.2266598
2.7517416 1.4684888 4.201653
-1.1095884 1.5335011 4.2162356
-1.0915424 1.527545 4.2360635
2.6971815 1.5370181 4.24716
2.7288189 1.5347559 4.2226334
-1.107847 1.5632168 4.2012734
-1.089703 1.567911 4.2178569
2.6732769 1.5726818 4.2485666
2.7245476 1.584368 4.2271624
-1.1153491 1.627717 4.21521
-1.0974747 1.6331711 4.2334118
2.6827843 1.626094 4.24933
2.7213719 1.6174197 4.2295575
2.7513802 1.6362594 4.2039852
-1.1184108 1.6754229 4.2147131
2.7223504 1.6642656 4.2256403
-1.112056 1.7147508 4.2244906
2.6972706 1.7190182 4.2457132
2.7299182 1.7169256 4.2219005
-1.2210641 1.7965502 4.2248535
-1.1682756 1.7610924 4.2081175
2.7286036 1.7718961 4.228713
2.767328 1.7856028 4.2094288
-1.2098552 1.8162795 4.2353001
2.6881216 1.837346 4.2449498
2.7243185 1.8252621 4.2303634
2.7606711 1.8253685 4.2114449
2.6948781 1.8783398 4.2427015
2.7347248 1.8807676 4.2292218
2.768141 1.8787844 4.2054029
2.7181222 1.9347367 4.2360268
2.7641361 1.9316826 4.2160845
2.7262731 1.9771407 4.2349272
2.7720332 1.9628227 4.2089682
2.7342439 2.0196509 4.2330647
2.7788479 2.0154212 4.2102323
2.723403 2.0799711 4.2376018
2.7593257 2.0680721 4.2114286
2.7307432 2.126647 4.2321811
2.7788916 2.133096 4.2106628
2.7257543 2.1767924 4.2414708
2.7605381 2.1750197 4.2180347
2.7178149 2.2175093 4.2389388
2.7686384 2.2185917 4.214179
2.7315924 2.278574 4.2384529
2.7830384 2.2799635 4.2138624
-1.9132851 2.3322034 4.2287111
-1.8801079 2.3348298 4.2459645
-1.8332083 2.3319421 4.2264562
-1.7151438 2.3497419 4.2147431
-1.666057 2.346102 4.2227263
-1.6193351 2.3456807 4.2359757
-1.5963676 2.34604 4.2434435
-1.5226417 2.3433387 4.2217107
-1.4757515 2.3436098 4.2165928
-1.4268806 2.3388181 4.2200928
-1.3476503 2.3405306 4.2433219
-1.280072 2.3447728 4.2135878
-1.2348551 2.3452721 4.2247963
-1.1154318 2.3335547 4.2275171
-1.0529033 2.3430429 4.2053933
-1.0191791 2.3431041 4.2117481
-0.98524594 2.342823 4.217299
-0.92033142 2.3495765 4.2409024
-0.89694965 2.347491 4.2407565
-0.76566601 2.3367906 4.214663
-0.70921117 2.3462009 4.2141132
-0.66332752 2.341943 4.2118683
-0.6347692 2.3387182 4.2259755
-0.5296604 2.3424921 4.2268853
-0.48587447 2.3464627 4.2380152
-0.415876 2.3298101 4.2131834
-0.37228769 2.335 4.2255926
-0.31737429 2.3396091 4.2373095
-0.27325571 2.3433311 4.2463393
-0.23783961 2.3464041 4.2042308
-0.18311396 2.3427761 4.2242398
-0.14942007 2.3480465 4.2101846
-0.060867455 2.3493445 4.2141466
-0.016530177 2.3465543 4.2094426
0.049881481 2.347223 4.2104516
2.6991696 2.3325763 4.2435002
2.733855 2.3296793 4.2298484
2.7685204 2.339211 4.2099462
-1.3992436 2.3501391 4.2493639
-1.1806281 2.3506126 4.2467585
-0.96676844 2.3526599 4.2389264
-0.94472712 2.3540885 4.2453218
-0.68823004 2.3508382 4.2252007
-0.57673514 2.3525546 4.2407079
-0.50905102 2.3503163 4.2430344
-0.43912247 2.3577082 4.2125921
-0.21605814 2.3502059 4.2119255
-0.19397245 2.3511896 4.2144861
-0.11689042 2.3620889 4.2361307
-0.08314918 2.3528223 4.2201042
-0.038724165 2.3502865 4.2160301
0.005625268 2.3561685 4.2267118
0.31815076 2.3666058 4.2366571
0.37522399 2.3746383 4.2476501
0.49413431 2.3542922 4.2019701
0.57547557 2.3693624 4.2214985
0.63274276 2.3744895 4.2246919
0.67774367 2.375392 4.2210989
2.6482537 2.3939705 4.2390184
2.6833601 2.3873479 4.2283874
2.7191999 2.3813212 4.2185178
2.7571359 2.3770301 4.2114825
1.6951078 2.4407597 4.2317338
1.7977704 2.4292431 4.2327104
1.8342242 2.4306986 4.2232094
1.9041342 2.4210281 4.2376819
1.9789355 2.4255028 4.2194195
2.0070529 2.4307809 4.2195921
2.1257832 2.4338365 4.2400227
2.1721902 2.4198093 4.2224302
2.2236981 2.4246066 4.2421942
2.277092 2.4298878 4.2304244
2.3527255 2.4209843 4.2416735
2.5748637 2.4211504 4.2241464
2.6248116 2.4088373 4.2160234
2.5302739 0.48037362 4.28123
2.5599713 0.47953439 4.2583208
2.4972525 0.52631068 4.2942982
2.5275388 0.52550256 4.2724996
2.5682554 0.52567971 4.255887
2.4964402 0.57184851 4.2885313
2.5246749 0.58578098 4.2764978
2.5637486 0.58303368 4.2548518
2.5291901 0.63261759 4.2791739
2.5676355 0.62967104 4.2563486
2.5242555 0.67497236 4.2856665
2.5748477 0.68305784 4.2622108
2.5217676 0.72440231 4.2902327
2.5640604 0.72339267 4.2635689
2.6025732 0.7130549 4.2559557
2.5411196 0.77275628 4.2923498
2.573235 0.77204978 4.2726574
2.6088674 0.78389823 4.2569523
2.5447731 0.82004166 4.2920179
2.5818598 0.82084298 4.2804222
2.6225271 0.82419091 4.2574677
2.5783854 0.8659029 4.282712
2.6197131 0.86813295 4.262599
2.5791605 0.91642302 4.2861195
2.6131194 0.9186582 4.2599678
2.6507473 0.9287563 4.2549481
2.570297 0.96380466 4.2881737
2.6206882 0.96529931 4.2731614
2.6560764 0.96550512 4.2574921
2.5815372 1.0092463 4.291151
2.6262281 1.0255822 4.271739
2.6559341 1.0003277 4.2510428
2.5864825 1.0786831 4.2901659
2.6301243 1.0854323 4.266963
2.5876949 1.1339216 4.2864842
2.6319754 1.1328908 4.260541
-1.0554167 1.1883495 4.2528777
-1.0420375 1.1973511 4.2887106
2.5842898 1.184449 4.2959175
2.6140814 1.1820477 4.2707124
-1.0576158 1.2227216 4.2554922
-1.0413299 1.2179041 4.2816491
2.5875297 1.2328808 4.2910919
2.6214082 1.2322843 4.2723751
2.6555791 1.2318372 4.2538686
-1.0612614 1.2695925 4.2615304
-1.0475786 1.2789586 4.2965293
2.5780041 1.2809232 4.2895174
2.6273108 1.2820938 4.2712207
2.6631732 1.2823994 4.2551632
-1.0698632 1.3323765 4.2611618
-1.0473871 1.3324428 4.284431
2.5970182 1.319868 4.2878075
2.6267555 1.3347889 4.2733684
2.6654382 1.3188012 4.2503295
-1.0620979 1.3831164 4.2725186
-1.0384021 1.3562554 4.2889023
2.6225088 1.3799419 4.2757869
2.6516445 1.3945386 4.2597966
-1.0608284 1.4220315 4.2742767
2.6268325 1.4357846 4.284997
2.6669044 1.4300312 4.2594924
-1.0628891 1.4680237 4.2724738
2.5983379 1.4991468 4.2977633
2.6308365 1.4837502 4.2882333
2.6690252 1.4869357 4.2655201
-1.0686855 1.5194271 4.2850971
2.5985498 1.5230628 4.2915444
2.6315434 1.5317621 4.2761431
2.6730485 1.5368134 4.2585649
-1.0707442 1.5767312 4.2795005
2.6273263 1.573666 4.2746925
2.653568 1.5989646 4.2599139
-1.0806243 1.6186824 4.2620459
2.6232886 1.6142647 4.2827659
2.6698182 1.6135346 4.2573099
2.6329067 1.6681857 4.283875
2.6794367 1.6673183 4.2578688
-1.1058863 1.7001873 4.2506313
-1.0880065 1.7172589 4.2668381
2.6219513 1.7261086 4.2920189
2.664588 1.7211645 4.2692304
-1.1644019 1.7885257 4.278038
2.6203394 1.7718813 4.2835207
2.6727982 1.7747591 4.2665253
2.7078702 1.7619687 4.2504764
-1.1908472 1.8283701 4.2792645
2.6278262 1.82532 4.2795215
2.6708698 1.820438 4.2568674
2.6332655 1.8763685 4.2815266
2.6648209 1.8839296 4.2612796
2.6339154 1.9353468 4.2808552
2.66487 1.9302388 4.2637253
2.6291695 1.9652219 4.2899785
2.6796024 1.9675411 4.2580781
2.6345856 2.017242 4.2906756
2.672492 2.0191727 4.2639236
2.7019534 2.0351741 4.2544889
2.6335533 2.0759501 4.2857533
2.6697705 2.0754993 4.2661242
2.7074521 2.0638874 4.2534432
2.631983 2.1337442 4.2896314
2.6807058 2.1333256 4.2636747
2.59887 2.1739626 4.2992849
2.6347075 2.1730022 4.2788773
2.6850457 2.1738205 4.255156
2.7249546 2.1514223 4.2506561
2.6220295 2.2125766 4.2882218
2.6698587 2.2187955 4.2673583
2.6305203 2.2771645 4.2877779
2.683893 2.280277 4.2680335
-1.9597954 2.3218884 4.2504349
-1.9382521 2.3244452 4.2636847
-1.895858 2.3306041 4.2917442
-1.679528 2.3417246 4.2670016
-1.6061361 2.3370218 4.2793283
-1.5864953 2.3425097 4.2960978
-1.5083855 2.3303506 4.2931376
-1.4744835 2.3368604 4.2589717
-1.4333047 2.3451438 4.2861948
-1.371652 2.3400853 4.2731528
-1.3320943 2.3304923 4.282094
-1.2718992 2.3488827 4.2772856
-1.2371464 2.3484659 4.2842059
-1.1633033 2.3388209 4.2811637
-1.0755887 2.3454452 4.2579126
-1.0415411 2.3456414 4.2646542
-0.98216933 2.3398061 4.2641335
-0.92578989 2.3407633 4.2753425
-0.86935008 2.3416872 4.2859302
-0.82023185 2.3425193 4.2688465
-0.72660708 2.3439479 4.2583961
-0.66843581 2.3374987 4.25352
-0.62364429 2.3380566 4.2595887
-0.55670077 2.3400893 4.270195
-0.35432002 2.340616 4.2870431
-0.3198382 2.3355732 4.279748
-0.02785401 2.3462882 4.25811
0.016833503 2.3482628 4.2617388
2.6254961 2.333533 4.2840528
2.6662385 2.3369942 4.2595391
-1.566401 2.3533437 4.2666731
-1.2061647 2.3559332 4.2515087
-1.1766591 2.3539445 4.2807789
-1.0215491 2.3520274 4.2804003
-0.85375321 2.3528214 4.2573466
-0.83127904 2.3532245 4.2614141
-0.76305902 2.3521214 4.2688546
-0.69475293 2.3505149 4.274528
-0.60588121 2.356385 4.2953877
-0.51404226 2.3507552 4.293829
-0.47867298 2.3546081 4.2786617
-0.44295833 2.3558645 4.2586207
-0.23036942 2.3609815 4.2802801
-0.16254497 2.3558412 4.2732372
-0.11773737 2.3566184 4.2757292
-0.072827078 2.3561361 4.2755919
0.050532829 2.3554032 4.2745152
0.37802884 2.3698168 4.288662
0.42188025 2.3628097 4.2728863
0.47994646 2.3716884 4.2845635
0.61332983 2.3635707 4.2571158
2.577424 2.3850851 4.2893648
2.6136365 2.3839939 4.2685509
2.6521094 2.3724773 4.2568769
1.4825369 2.4148815 4.2989888
1.541234 2.4268074 4.2783194
1.714198 2.4445069 4.2900562
1.7742624 2.4335732 4.2781267
1.8137051 2.4269745 4.2809248
1.8869431 2.429431 4.2608151
2.0170429 2.4189236 4.2515664
2.070888 2.4279549 4.280303
2.1291227 2.4272516 4.2868428
2.1665812 2.4162998 4.2798514
2.2258241 2.4158208 4.2859316
2.2660441 2.4197011 4.2772093
2.3286846 2.4216607 4.275723
2.3780992 2.42237 4.2988853
2.4368982 2.4317691 4.2927871
2.4862916 2.4315975 4.2689857
2.5423956 2.4129879 4.2674379
2.5765789 2.421766 4.2705493
2.4248157 0.51645875 4.3426986
2.4673324 0.52721512 4.3166242
2.3882484 0.59615642 4.3451633
2.4250379 0.57384712 4.3377094
2.4680648 0.58467126 4.3123817
2.3935626 0.64340699 4.3499675
2.4265845 0.63157797 4.334518
2.4737592 0.6319297 4.3174915
2.5067992 0.62011695 4.3015289
2.4289896 0.67814577 4.3336606
2.4780371 0.67902189 4.3196955
2.4338808 0.72555828 4.3368316
2.4819753 0.72618222 4.3209376
2.4287763 0.76207554 4.3486657
2.4746282 0.7735464 4.327127
2.5184298 0.77285647 4.3031673
2.4292111 0.83146262 4.3399405
2.4659793 0.82065922 4.3307476
2.5116425 0.82051021 4.3098993
2.4337196 0.86770964 4.3428917
2.4708493 0.86857939 4.3324938
2.5200291 0.86960828 4.3173881
2.5553856 0.88140875 4.3012052
2.4782531 0.9176234 4.338305
2.5239816 0.91737628 4.3168821
2.5604961 0.90639985 4.3061337
2.4778862 0.96391571 4.3300343
2.5254779 0.96439022 4.3117442
2.4844103 1.0130183 4.3333998
2.5329266 1.013826 4.3163276
2.5722609 1.0272425 4.305912
2.4814167 1.0749465 4.3429217
2.526648 1.0743458 4.3199177
2.5736818 1.0511588 4.3039727
2.5197973 1.1348794 4.3220363
2.5534618 1.1342616 4.3039227
-1.0464429 1.1809415 4.3109279
2.4868667 1.1902717 4.3478255
2.5295451 1.1862228 4.3290935
2.5639529 1.1858687 4.3118916
-1.0218449 1.2319001 4.3153896
2.4833848 1.2218009 4.3436704
2.5279822 1.2382216 4.3310442
2.5652804 1.2334529 4.3039627
-1.0306928 1.2846999 4.3193979
2.5285103 1.2855936 4.3321142
-1.0232791 1.3214343 4.3287983
2.4826491 1.3216121 4.3470469
2.5225186 1.3358113 4.3363447
2.5685802 1.3352063 4.3129268
-1.0211285 1.381215 4.3231101
2.5252359 1.3727419 4.3324971
2.5725698 1.384621 4.308053
-1.024415 1.421924 4.3287907
-0.99798721 1.4183081 4.3463326
2.4973767 1.4481268 4.3437457
2.5321023 1.4239222 4.3323884
2.5746481 1.4313465 4.3089347
-1.038991 1.4691479 4.3156118
2.4984696 1.4725065 4.3394742
2.5223892 1.4805506 4.3270268
2.5786507 1.4797323 4.3106828
-1.0367093 1.5163571 4.3280311
2.5211811 1.5162364 4.3336382
2.5657878 1.5366919 4.3098254
-1.0363303 1.5796353 4.3276076
2.524756 1.5645763 4.336307
2.572855 1.5767456 4.311573
-1.068138 1.6437664 4.3001599
-1.0349101 1.6197065 4.3280435
2.4934227 1.6271691 4.3431077
2.5317743 1.6168152 4.3346276
2.5777984 1.615685 4.3094006
-1.0530394 1.6765461 4.3259454
-1.0328033 1.6573827 4.3433781
2.497889 1.6540531 4.3438234
2.5371716 1.6669044 4.3395143
2.5785584 1.6710857 4.3109283
2.5267942 1.7268243 4.3392739
2.5670013 1.7201996 4.3134823
2.6045997 1.7091861 4.3027329
-1.0811535 1.7525367 4.3277459
2.5363929 1.7817539 4.3403606
2.5754712 1.7741508 4.3122296
-1.1739589 1.8366139 4.3029718
2.5343199 1.8275088 4.3309436
2.5835972 1.8281686 4.3097281
2.5354934 1.8857772 4.3428545
2.5692885 1.8838394 4.3212442
2.6046765 1.8830993 4.3020878
2.5421879 1.9273441 4.3415565
2.5791569 1.9276576 4.3249636
2.6135595 1.9260787 4.3037872
2.5341589 1.9671692 4.3412166
2.5843 1.9681847 4.3203268
2.6299543 1.9872295 4.3128266
2.5203898 2.0253818 4.3425612
2.5666111 2.0224056 4.325242
2.6028974 2.0220511 4.3067751
2.523397 2.0761478 4.3396239
2.5751288 2.0782866 4.3207645
2.6115584 2.0779662 4.3021345
2.5215876 2.1218004 4.3491235
2.5710852 2.1343462 4.3211427
2.5311337 2.1793692 4.3458099
2.5648546 2.1765087 4.3224001
2.5370827 2.2217479 4.3407016
2.5749414 2.2223344 4.3239322
2.6126533 2.2351692 4.3012509
2.5384901 2.2842371 4.338439
2.5824373 2.2786038 4.3153028
-1.729107 2.3377872 4.3019629
-1.6733022 2.3423078 4.3283181
-1.6228563 2.3377333 4.3337493
-1.5792984 2.3393154 4.3300395
-1.5221487 2.3280942 4.3420115
-1.4808888 2.3302801 4.3288031
-1.4326736 2.3398328 4.3319092
-1.3308136 2.336812 4.3226604
-1.2941257 2.3452809 4.3200121
-1.2251484 2.3465388 4.3376412
-1.1245266 2.3420935 4.322247
-1.0876595 2.3487258 4.3151441
-1.0273539 2.3424785 4.3141861
-0.95839351 2.3422093 4.3255372
-0.92088366 2.3343902 4.3166413
-0.78584462 2.3448846 4.3213749
-0.7233476 2.3473797 4.3167233
-0.67637652 2.3424852 4.3131461
-0.48308969 2.3424273 4.3321648
-0.41497946 2.3429966 4.3384089
-0.3355076 2.3438766 4.3450985
-0.17485343 2.3478854 4.3085294
-0.10706993 2.3463404 4.3073201
2.4982591 2.3310843 4.3404608
2.5267107 2.3343632 4.334753
2.5635686 2.3338819 4.3157511
2.6005182 2.320992 4.3021388
-1.2520421 2.3534372 4.3453808
-1.2113342 2.3539157 4.3276172
-0.98511744 2.3512037 4.3382921
-0.81694865 2.3544862 4.3177004
-0.74843568 2.354629 4.3271723
-0.46917897 2.3524239 4.3006926
-0.42547402 2.3608627 4.3195605
-0.38009012 2.3609223 4.3228135
-0.27805468 2.3614969 4.329565
-0.23191944 2.354377 4.3184724
-0.19760455 2.350028 4.3117442
-0.13045232 2.3612962 4.3343167
0.0057264916 2.3527431 4.320055
0.38054472 2.3627396 4.32616
0.41597724 2.3706141 4.3382821
0.47272444 2.3806319 4.3269329
2.5205197 2.3821504 4.3218837
2.5540659 2.3740728 4.3100653
1.095476 2.4116931 4.3265114
1.1198155 2.414192 4.3265133
1.1681379 2.4181542 4.3243232
1.3407739 2.4127944 4.3304882
1.4140776 2.41803 4.3227587
1.5165288 2.4318135 4.3228059
1.6304892 2.4197845 4.3238564
1.6739013 2.4311371 4.3335547
1.8289386 2.4233584 4.3275046
1.9365559 2.4259803 4.3260765
2.0247629 2.4184856 4.3087502
2.0793545 2.4156005 4.344142
2.1024899 2.4141726 4.332202
2.1523843 2.4154818 4.3153358
2.2279837 2.419096 4.3242884
2.2784777 2.4084268 4.3119402
2.3184876 2.4117301 4.3018975
2.3773012 2.4093442 4.3367386
2.424583 2.4193823 4.315515
2.4694674 2.4017501 4.3452444
2.5036416 2.4235744 4.3104362
2.5562923 2.4011595 4.3023844
2.3629072 0.48343319 4.3861132
2.336174 0.51709127 4.3852048
2.3800087 0.51666051 4.363236
2.3361757 0.56778568 4.3893237
2.3729308 0.57509422 4.3706303
2.3371763 0.62938505 4.3850675
2.372802 0.63249874 4.3644681
2.3359232 0.68109232 4.394618
2.3741603 0.6778878 4.3724422
2.4007499 0.69140136 4.3577785
2.3373957 0.71615577 4.3933344
2.3745737 0.72850615 4.3829527
2.4048514 0.72720051 4.3610191
2.3779168 0.77581584 4.3832107
2.4185889 0.7791298 4.3623462
2.3447213 0.82264268 4.3935895
2.3836193 0.8240779 4.3874445
2.4209273 0.81847334 4.3612905
2.3499389 0.85927206 4.3984437
2.3783672 0.8734374 4.3863649
2.4153044 0.86938226 4.3609858
2.3685615 0.92240196 4.3887711
2.4239192 0.91900182 4.36937
2.3810453 0.96695781 4.3875799
2.4280961 0.9671666 4.3693733
2.3853068 1.0153519 4.3875546
2.4185402 1.0146266 4.370048
2.4512999 1.0137315 4.3515234
2.3916144 1.0648293 4.3908525
2.4247816 1.0640043 4.3729672
2.4608266 1.0761291 4.3578186
2.3964508 1.1138604 4.3910027
2.4337189 1.1148479 4.3802733
2.4817238 1.1270936 4.3600655
-1.0123922 1.1913894 4.3561387
-0.94752562 1.1915121 4.3665957
2.4263589 1.1756146 4.3814478
2.4728904 1.1577874 4.3643584
-1.0135914 1.2253356 4.3550873
-0.98086488 1.2250739 4.359252
2.4150531 1.2169783 4.3878517
2.4611835 1.2400731 4.3612933
-1.0151284 1.2814887 4.350935
-0.98692423 1.2679629 4.3616824
2.4247024 1.2631335 4.3873229
2.4706032 1.2860848 4.3597908
-0.9950394 1.3271056 4.3524857
2.3940272 1.3365533 4.394784
2.4293563 1.3246795 4.3824673
2.4725711 1.3403939 4.3601203
-1.0186689 1.351346 4.3524418
2.3969014 1.3736806 4.3917551
2.4346435 1.3749671 4.3809419
2.4811428 1.3863517 4.356132
-1.000236 1.4433737 4.3511248
2.4279368 1.4075654 4.3880024
2.4752281 1.4252915 4.3629336
-1.0054474 1.4948611 4.3634686
2.4204392 1.4636447 4.3875751
2.4677312 1.4635112 4.3667665
-0.96885639 1.5284599 4.3985128
2.4279108 1.5159152 4.3887029
2.4714661 1.5133818 4.3608494
-1.0120895 1.5932535 4.3703942
2.435514 1.5685401 4.3895006
2.4806814 1.566861 4.3640423
2.430867 1.6157128 4.3843775
2.4774959 1.6112194 4.3548012
2.420177 1.6702424 4.3880086
2.4650707 1.6681435 4.3616781
2.5064342 1.6837631 4.3514662
-1.0009482 1.7004256 4.3988237
2.4278047 1.7237223 4.3873582
2.473515 1.7220235 4.3620057
2.5098534 1.7101448 4.3500476
2.4324319 1.7742091 4.3909931
2.478049 1.7810459 4.3700809
2.5198398 1.7653105 4.3521857
2.4225218 1.8353592 4.391088
2.4760556 1.830281 4.3738174
2.5067279 1.8459836 4.3586726
2.4214244 1.8699586 4.3874693
2.4766345 1.8750334 4.3779979
2.5126259 1.8746725 4.3607163
2.4297705 1.912963 4.3902202
2.4802806 1.9143822 4.371932
2.5173428 1.9147841 4.3562784
2.43277 1.9633523 4.3892198
2.4789662 1.9703743 4.3677549
2.4360969 2.025836 4.3944626
2.4708934 2.0242071 4.3745666
2.501503 2.0069914 4.3517146
2.4345648 2.0847344 4.3902907
2.4757926 2.0773864 4.3648472
2.4449399 2.1194413 4.378026
2.4735827 2.1352561 4.3692207
2.4296312 2.1647115 4.3913441
2.4703898 2.1803403 4.3763685
2.5119808 2.1605666 4.3555336
2.4460678 2.2416241 4.3960452
2.4799666 2.2261128 4.3781872
2.5130429 2.2224131 4.3537025
2.4362273 2.2814422 4.3908052
2.4740548 2.2818928 4.3747144
2.5112433 2.2817216 4.357089
-1.7637788 2.3325834 4.3697691
-1.6748734 2.3373284 4.3766375
-1.5545897 2.3415546 4.3607249
-1.4701202 2.3388035 4.3774147
-1.4204693 2.3464749 4.376833
-1.3777002 2.3457956 4.3573728
-1.3308789 2.3459275 4.3686399
-1.2115756 2.3419588 4.3868523
-1.1761162 2.3412702 4.3927088
-1.06093 2.3429055 4.3629184
-1.0251408 2.3405867 4.3647833
-0.98088163 2.345582 4.3820305
-0.92369533 2.347744 4.3954453
-0.87592119 2.3442702 4.3959813
-0.80498475 2.3404202 4.398581
-0.36208236 2.3458929 4.3991623
-0.26794404 2.3499265 4.3597908
-0.23325762 2.3452299 4.3525052
2.429776 2.3245726 4.3914065
2.4647076 2.3347044 4.3645558
-1.2878166 2.3529387 4.3923111
-1.1702799 2.3529763 4.3615913
-1.0895731 2.3546922 4.3805838
-0.89446151 2.3552051 4.3605309
-0.83564806 2.3521075 4.3632669
-0.76654619 2.3522549 4.3729286
-0.45206115 2.3584778 4.3645744
-0.37171203 2.357008 4.3673873
-0.31442711 2.3563967 4.3695588
-0.29122335 2.3537204 4.3657565
-0.20028263 2.3589766 4.3792772
-0.10900288 2.3657398 4.394206
-0.085971981 2.3638871 4.3911376
-0.028521579 2.3660183 4.3699274
0.37448952 2.3737361 4.3984261
0.44045013 2.3797128 4.3532758
0.46671399 2.3971114 4.3833451
1.1000036 2.3983684 4.3541017
2.3847611 2.3878269 4.3746853
2.4199853 2.3697555 4.3766761
2.4695749 2.3768334 4.3566647
1.2539935 2.4142916 4.3806343
1.3254237 2.4039891 4.3724074
1.4266299 2.4158032 4.3712001
1.4808549 2.4270794 4.3795099
1.5333611 2.4110477 4.3911862
1.6384755 2.4253771 4.3905926
1.6796961 2.4329462 4.3937244
1.7203406 2.4393692 4.3944669
1.7820774 2.4277222 4.3714585
1.8203744 2.4198472 4.3829279
1.8708423 2.4226282 4.3719468
1.9175111 2.4203665 4.3513746
1.9737457 2.4300489 4.3516264
2.02056 2.4311767 4.3782682
2.0561588 2.4169919 4.3558764
2.1142018 2.4170878 4.3973036
2.1732082 2.4142392 4.3680735
2.2347858 2.415205 4.3778086
2.2809205 2.4123681 4.3851728
2.336719 2.4187155 4.3755059
2.3570445 2.4017885 4.3958783
2.2422535 0.48463637 4.4455752
2.2754638 0.48435888 4.4301677
2.318413 0.48372558 4.4068294
2.2411184 0.51896304 4.4404678
2.2740717 0.51860636 4.424571
2.3082378 0.51853728 4.4108739
2.2452219 0.56609201 4.4444871
2.2763023 0.57675022 4.4236927
2.3158903 0.57658231 4.4069986
2.2405763 0.62989527 4.4425721
2.2772861 0.63465691 4.4198389
2.3103428 0.63425374 4.403821
2.2399445 0.6784156 4.4406815
2.2815874 0.68207896 4.4231272
2.3136754 0.68133056 4.4051018
2.2799432 0.72765964 4.4308996
2.3252842 0.73257875 4.4036045
-1.6012583 0.77027988 4.4461865
-1.570402 0.77720606 4.4262977
2.2879372 0.77411336 4.4336948
2.3285725 0.77940857 4.4112115
-1.6049256 0.82797176 4.4493761
-1.5832723 0.82445246 4.4341598
2.2777326 0.83016729 4.4425602
2.3161383 0.82480371 4.4188309
-1.6062318 0.88462853 4.4454608
-1.5786417 0.88171321 4.4364185
2.2747223 0.87315512 4.439683
2.3190799 0.87235785 4.4178419
-1.5829031 0.91765738 4.4436564
2.2832699 0.91769934 4.4409757
2.324595 0.92104739 4.4213424
2.3554263 0.9078123 4.4017787
2.2832549 0.96987534 4.442059
2.328197 0.96915817 4.4207921
2.3616037 0.96851468 4.4040675
2.2861667 1.006196 4.441967
2.3268352 1.0206608 4.4260612
2.3640945 1.016247 4.4008636
2.3230019 1.0653065 4.4328632
2.3652089 1.0708712 4.411613
-1.5481358 1.1488338 4.446888
2.3212557 1.1171153 4.4366918
2.3638611 1.1150552 4.4099774
2.2907648 1.1783159 4.4482331
2.3254404 1.1662288 4.4356585
2.3717284 1.1658584 4.415524
2.3287787 1.215075 4.4325528
2.3766828 1.215477 4.415206
2.3350165 1.2656323 4.4345145
2.3789034 1.2638515 4.4093227
2.3257263 1.3143699 4.4336486
2.3764794 1.318922 4.4063983
2.3194599 1.3649957 4.438201
2.3589666 1.3666524 4.41254
2.3249545 1.4158076 4.4374809
2.3708208 1.4148183 4.4152889
2.408731 1.4280533 4.4018874
2.3328917 1.4683859 4.4409208
2.3735032 1.4640146 4.4084821
2.324506 1.5184416 4.4402375
2.3740585 1.518939 4.4128332
2.321151 1.5653852 4.4406343
2.3755829 1.5684503 4.4143353
2.3387251 1.6239555 4.4415035
2.3708727 1.6212963 4.4195509
2.4066875 1.6331768 4.4008646
-0.97966176 1.6575041 4.4192448
2.3438587 1.6757405 4.4375415
2.3771181 1.6737206 4.4173985
2.3331516 1.7238957 4.4412384
2.3766954 1.7292598 4.4180322
2.3313007 1.7809837 4.4403963
2.3745251 1.7783247 4.4226332
2.4026136 1.7921256 4.4041395
2.3392961 1.8235556 4.4442272
2.3742394 1.8345697 4.4225326
2.4055955 1.8185972 4.4018679
2.3438282 1.863637 4.441082
2.3806505 1.880991 4.4106278
2.3341959 1.9137044 4.4455314
2.3737996 1.9230233 4.4232683
2.3313534 1.9588611 4.4451761
2.373054 1.9667461 4.4191456
2.4043915 1.9830693 4.405242
2.34234 2.0296047 4.44455
2.3782203 2.0287781 4.4273086
2.413137 2.0271587 4.4080181
2.3488817 2.0722744 4.443583
2.384706 2.0712786 4.4258757
2.4174092 2.0676551 4.4022727
2.3700366 2.1171849 4.4411774
2.4130986 2.119303 4.4160304
2.341588 2.1871705 4.4495382
2.3768666 2.1729569 4.4349928
2.4074616 2.1669948 4.4068537
2.345053 2.2277558 4.4413967
2.3808942 2.2264071 4.4228387
2.4282408 2.2238967 4.4079099
2.3713949 2.2812722 4.4258046
2.4124885 2.2825346 4.4039907
-1.8289188 2.3340769 4.4442425
-1.5810292 2.3395138 4.4078484
-1.450254 2.3402781 4.4434929
-1.4195766 2.3409586 4.4233551
-1.3763679 2.3388097 4.4196668
-1.3377091 2.3402004 4.4314113
-1.274284 2.3478096 4.4416394
-1.1509942 2.3381424 4.4474802
-1.0858426 2.3484998 4.4242749
-1.0462612 2.3387513 4.4122233
-0.86603504 2.3438323 4.4327998
-0.29322219 2.3468668 4.4047441
2.3347061 2.3293667 4.4438944
2.3673029 2.3245263 4.418704
2.403837 2.3236337 4.4007182
-1.1220328 2.3505514 4.4215908
-1.0282336 2.3509893 4.4394064
-0.90259629 2.3533211 4.4094691
-0.83233857 2.3522551 4.4176307
-0.58848429 2.3781188 4.4421558
-0.50327194 2.3610322 4.4175763
-0.46647406 2.3505163 4.4006748
-0.42232698 2.3612065 4.4241028
-0.38700786 2.3576603 4.4197931
-0.32890242 2.355361 4.4188914
-0.27120894 2.3554683 4.4219666
-0.2364181 2.3538065 4.4202871
-0.16783588 2.3744779 4.4351521
-0.10996141 2.3633816 4.4419208
-0.06337022 2.3767807 4.4153762
0.052248102 2.3656645 4.4469881
0.46982992 2.3899033 4.4218755
2.2287402 2.3982008 4.44135
2.2533712 2.3978529 4.4306269
2.324105 2.3688965 4.4368567
2.3661432 2.3608558 4.4118643
1.162979 2.4090967 4.4170403
1.2942166 2.4100394 4.4474053
1.3674588 2.4369171 4.4267454
1.4203202 2.4217169 4.4412298
1.4749134 2.4130108 4.4103642
1.5873626 2.4168134 4.4268174
1.7158705 2.425941 4.4280071
1.7692318 2.4326801 4.4254665
1.8364571 2.4168077 4.432097
1.8735833 2.417486 4.421349
1.9311087 2.4285312 4.4250507
1.9818841 2.4306035 4.4117069
2.022624 2.4254789 4.4492111
2.0846827 2.4257627 4.4271331
2.1338868 2.4146872 4.4490299
2.1878901 2.419425 4.4384851
2.2176762 2.4111583 4.4085107
2.2812166 2.4008968 4.4259973
2.318953 2.401165 4.4107819
2.1323154 0.48580733 4.4972844
2.1654677 0.48547834 4.482254
2.212388 0.48565984 4.467555
2.1391683 0.51934654 4.4806948
2.1767488 0.52006793 4.474905
2.2109952 0.51999211 4.4618936
2.1682889 0.56707311 4.4812398
2.2123969 0.56653875 4.4606194
2.1386511 0.63795149 4.4970665
2.1715205 0.62582296 4.4823289
2.2114301 0.62006521 4.4590082
2.1421881 0.68545663 4.4995718
2.1718314 0.68383819 4.4768591
2.2151101 0.68797112 4.4630084
2.1434622 0.73233902 4.4969563
2.1766379 0.73180062 4.4814415
2.2217875 0.73138565 4.4623547
2.2575891 0.74332887 4.4502649
-1.6676787 0.7917915 4.4921913
-1.6359767 0.7761932 4.4744849
2.1832688 0.78060472 4.4893904
2.226136 0.77932471 4.4653625
2.261838 0.77963054 4.4542599
-1.6463493 0.81503791 4.4986672
2.1912735 0.83263326 4.4898906
2.2337902 0.82867515 4.4745822
2.2670584 0.8163898 4.4599652
-1.8922654 0.89225006 4.4733009
-1.6270769 0.86740696 4.472043
2.1877539 0.87012547 4.477325
2.2304821 0.87402159 4.4614758
-1.915908 0.93838012 4.4614911
-1.8817328 0.92700839 4.473897
-1.6368361 0.91789114 4.4927263
2.2246776 0.92305905 4.4705791
2.2709048 0.93454689 4.4506788
-1.8841298 0.97400868 4.4726577
2.1881151 0.98599845 4.4990916
2.2211597 0.97334319 4.4840384
2.2509866 0.97105199 4.4606266
-1.8718103 1.0079194 4.4686141
2.1903436 1.0222464 4.4979115
2.223423 1.0212749 4.4809408
2.2628057 1.023558 4.4572997
-1.9005613 1.0799403 4.4639168
-1.8905582 1.0693321 4.4729304
2.195178 1.071592 4.4998159
2.2313433 1.0720216 4.4888163
2.2733219 1.0696415 4.4614
-1.9083802 1.130518 4.4740829
-1.8901581 1.113493 4.4748397
2.1980433 1.120144 4.497262
2.2290468 1.1179641 4.4757395
2.2753048 1.1176056 4.4567208
-1.9097499 1.1659607 4.4708805
-1.8921423 1.1577538 4.4930577
-1.6363016 1.1749461 4.4843645
-1.5646522 1.1753089 4.4549437
-1.5130445 1.1790986 4.4830427
2.2375689 1.1694977 4.4839706
2.2748373 1.162492 4.4567962
-1.9184685 1.217669 4.4823828
-1.8964708 1.2300147 4.4900136
-1.633947 1.228265 4.4913449
-1.55829 1.2243923 4.4632659
-1.5307389 1.2189828 4.4799533
2.2301836 1.2191355 4.4878864
2.2740276 1.2173023 4.4634337
-1.9177181 1.2867122 4.4665499
-1.8909626 1.2766197 4.4831085
-1.5763146 1.2645013 4.4603257
-1.5421324 1.2637403 4.4810476
2.2226396 1.2689281 4.4911652
2.2654781 1.2663872 4.4645452
2.3019848 1.2669542 4.4530363
-1.8835615 1.3281851 4.4765348
2.232774 1.3160394 4.4928541
2.2735898 1.3184246 4.4703183
-1.8962297 1.3690681 4.4601684
2.2331519 1.370221 4.4915905
2.2781763 1.3686841 4.4686513
2.2373433 1.4205394 4.4889641
2.2820916 1.4187086 4.4651604
2.2302728 1.4714856 4.4916878
2.2751982 1.4696331 4.4679675
2.235353 1.5227928 4.489934
2.2694016 1.5215323 4.4726233
2.3005261 1.5064172 4.4525781
-1.8852744 1.5628371 4.4859314
2.241117 1.5748007 4.489037
2.2740736 1.5726815 4.4692726
2.3097057 1.5844406 4.4514022
-1.9312967 1.6070706 4.4909124
2.2391224 1.6312498 4.4900584
2.28178 1.6261913 4.4713669
2.3171721 1.6256914 4.4558697
-1.9113632 1.6575283 4.4943585
2.2341754 1.6737757 4.4881268
2.277951 1.679281 4.4665885
2.3231082 1.6781439 4.4536204
-1.9062579 1.700331 4.4692655
-1.8866335 1.7039206 4.4861207
2.2347219 1.7205871 4.4969106
2.2705913 1.73238 4.4785948
2.3037939 1.7300458 4.4583797
2.2419214 1.7869093 4.4933434
2.274579 1.7839563 4.4718857
2.3089228 1.7823952 4.4536457
2.2320769 1.8252592 4.4914093
2.2769318 1.8222411 4.4652472
2.3138697 1.8226585 4.4518509
2.246531 1.8514862 4.4837289
2.2781434 1.8680999 4.4724207
2.3210907 1.8649232 4.4540358
