ply
format ascii 1.0
comment PCL generated
element vertex 1545
property float x
property float y
property float z
element camera 0
property float view_px
property float view_py
property float view_pz
property float x_axisx
property float x_axisy
property float x_axisz
property float y_axisx
property float y_axisy
property float y_axisz
property float z_axisx
property float z_axisy
property float z_axisz
property float focal
property float scalex
property float scaley
property float centerx
property float centery
property int viewportx
property int viewporty
property float k1
property float k2
end_header
-0.81507677 2.3504856 3.1778979
-0.76162225 2.354151 3.1938756
-0.72100168 2.352596 3.1749742
-0.62011468 2.3546247 3.1829309
-0.58419687 2.3557611 3.1899984
-0.52381831 2.3543768 3.1727283
-0.42736983 2.3581474 3.1776698
-0.36323532 2.3507767 3.1740408
-0.31813082 2.3548453 3.1717882
-0.28172812 2.3564103 3.1650074
-0.22868779 2.3592625 3.1781416
-0.17390458 2.3558056 3.1588163
-0.12455781 2.3599148 3.1801434
-0.076163538 2.3668287 3.1767416
-0.027701104 2.3566258 3.1775777
0.018825117 2.35518 3.1757023
0.080604017 2.3589492 3.1747751
0.1342476 2.3579364 3.1719658
0.17496191 2.3599334 3.1817944
0.21975754 2.3594065 3.1788404
0.27852666 2.3677385 3.1776621
0.32766503 2.3658841 3.1714149
0.37324589 2.3569336 3.1815624
0.41865477 2.3593645 3.1803255
0.47335628 2.3628531 3.1789246
0.52867061 2.3683064 3.1793709
0.57222223 2.361495 3.1639218
0.61966044 2.3617022 3.1749191
0.67640418 2.3613043 3.1830423
0.73144847 2.3632343 3.175849
0.77719581 2.364069 3.168179
0.82596779 2.3644781 3.177109
0.87030315 2.3661745 3.1760628
0.92596567 2.361397 3.1781278
0.97631347 2.3637607 3.1823878
1.0249858 2.3672502 3.177412
1.0801032 2.3594966 3.1733356
1.1237835 2.359349 3.1702418
1.1799507 2.3653746 3.1720006
1.2229598 2.3630884 3.1648622
1.2720484 2.3673892 3.1711693
1.3195865 2.3677113 3.1795843
1.3698059 2.3616295 3.1659677
1.4265162 2.3579502 3.17696
1.4750581 2.3628531 3.1765227
1.5178292 2.3610125 3.1775951
1.5704488 2.3667145 3.1822159
1.6203387 2.3714211 3.1838124
1.6715273 2.3710775 3.1715326
1.7165095 2.3715475 3.1815128
1.7661371 2.3754623 3.1797342
1.8041202 2.3675284 3.1937168
1.9919269 2.3856454 3.1756716
2.0325141 2.3883367 3.1825695
2.0794814 2.3759387 3.1747019
2.1317022 2.3829744 3.1740723
2.1811764 2.3901315 3.1749549
2.2107575 2.3799176 3.1894741
2.2551315 2.3946853 3.1904242
2.3680236 2.38503 3.1709511
2.4118819 2.3875601 3.183568
2.5123291 2.3934078 3.1833482
2.2661564 2.405185 3.1509252
2.4466214 2.4013216 3.187942
2.4930944 2.4059565 3.1655796
2.5552454 2.4042184 3.175683
2.6065695 2.4127781 3.1568985
1.509789 -0.47018257 3.2281449
1.5846668 -0.4208324 3.2242231
1.6197233 -0.42443934 3.2318532
1.662852 -0.41681343 3.2287292
1.7380843 -0.42458567 3.2401245
1.5937124 -0.36777648 3.2373703
1.6622387 -0.36997643 3.2355807
1.7274522 -0.38817945 3.223407
1.5910945 -0.32540628 3.2352412
1.6381726 -0.30966365 3.2319741
1.6573842 -0.33532298 3.2288151
1.5883454 -0.28312281 3.232419
1.6393367 -0.28401136 3.2260952
1.6564108 -0.25638798 3.2255087
1.6723403 -0.21759164 3.2261856
1.384185 -0.19690187 3.2475681
1.6756202 -0.16763484 3.2346201
1.4950163 -0.11567635 3.246207
1.6884229 -0.11960308 3.2303789
1.6929538 -0.070284404 3.2356541
1.7016714 -0.050066907 3.2294545
1.5947974 -0.016256899 3.214571
1.6251509 -0.016301967 3.216496
1.6812382 -0.033196576 3.2289996
1.5772467 0.0086591067 3.2381957
1.6190516 0.016967705 3.2238729
1.6751713 0.027171766 3.2249718
1.72893 0.033853639 3.2046871
1.6880585 0.067700095 3.2416079
1.7235314 0.066024192 3.2183037
1.7501463 0.084311336 3.2055926
1.6898184 0.11835077 3.2438977
1.7197999 0.11810526 3.224009
1.7589737 0.1213987 3.2058358
1.6906748 0.16898888 3.2438793
1.7218225 0.16874626 3.2261243
1.760288 0.16521521 3.2067668
1.6915845 0.21970695 3.2433875
1.7220074 0.21929711 3.2242138
1.76131 0.22254197 3.2060342
1.6942927 0.27076104 3.2457616
1.7251716 0.27032894 3.2272997
1.7557235 0.26983872 3.2081547
1.6932416 0.31281555 3.2409713
1.7255336 0.31255886 3.2251666
1.7611542 0.31636399 3.2055297
2.6018484 0.69725269 3.2034917
2.5412338 0.73364699 3.2286191
2.5826879 0.73745835 3.226644
2.6256659 0.72092694 3.2171955
2.6677761 0.73592418 3.2244024
2.6367419 0.76383609 3.235569
2.6842139 0.76926768 3.2386012
2.7124004 0.78379244 3.2271907
2.7274168 0.81685454 3.2263455
2.7652078 0.83402562 3.2125001
2.748307 0.85716188 3.2436035
2.7688198 0.87867105 3.2210431
2.7685444 0.92882907 3.2327509
2.8149858 0.92480469 3.2100136
2.7414582 0.9686566 3.2468052
2.7744577 0.96997237 3.2297902
2.8076186 0.97132427 3.2124214
2.7479649 1.0003494 3.2469127
2.7740979 1.0223929 3.2349732
2.8158724 1.0300684 3.2166159
2.7723336 1.0746166 3.2379434
2.8152332 1.0760058 3.2126741
2.7345686 1.100831 3.2411973
2.7734153 1.128871 3.2319331
2.8084536 1.1265786 3.2089913
2.776366 1.179033 3.2317455
2.8280385 1.1780676 3.2043507
2.8537185 1.1965449 3.203999
2.7704921 1.2204078 3.2310927
2.8178496 1.223803 3.210186
2.778383 1.2636766 3.2270672
2.8160934 1.2772434 3.2102215
2.7764535 1.3249782 3.2403092
2.8156252 1.3315936 3.2110422
2.8552232 1.3260679 3.2024016
2.7823637 1.3749038 3.2343664
2.8353441 1.381227 3.2186787
2.7834187 1.4206905 3.2396939
2.8211186 1.4245031 3.2254989
2.8598804 1.4288087 3.2118022
2.7899778 1.471311 3.2431629
2.8338706 1.4715257 3.2241673
2.869369 1.4741782 3.2063742
2.7884226 1.5453876 3.2397742
2.824297 1.5194244 3.2276275
2.8553257 1.5385202 3.2041404
2.8233125 1.5781034 3.2244174
2.7838123 1.6154704 3.2473364
2.8063486 1.616711 3.2343972
-2.3829947 2.3173089 3.2258024
-2.3253171 2.321641 3.2165852
-2.2693236 2.316654 3.2236967
-2.224885 2.3126705 3.2251127
-2.1677179 2.3257465 3.2148786
-2.1240947 2.3319094 3.2178676
-2.0798492 2.3274529 3.2345514
-2.0196915 2.3256361 3.2308791
-1.9758834 2.3304811 3.2304025
-1.9217311 2.3236973 3.230155
-1.8806286 2.3203094 3.2289021
-1.8284308 2.3246522 3.2231038
-1.7717634 2.329289 3.2234764
-1.7343117 2.3308294 3.224478
-1.6822139 2.3280723 3.2281229
-1.6246444 2.3246284 3.2251453
-1.5757816 2.3214805 3.2292447
-1.5223414 2.3280396 3.2248597
-1.4795539 2.3376665 3.240129
-1.4309534 2.3304288 3.2255516
-1.3770581 2.32915 3.2221153
-1.3262157 2.3324187 3.2244413
-1.2735577 2.3318253 3.2207112
-1.2257669 2.3397222 3.2281146
-1.1785269 2.3344893 3.22455
-1.1174364 2.343307 3.2360334
-1.0173693 2.3483875 3.2284336
-0.97556686 2.3450284 3.2179811
-0.86315382 2.3456933 3.2355165
-0.83563155 2.343714 3.2259474
-0.7999717 2.3413558 3.2049887
-0.71972895 2.3480184 3.2298698
-0.69272429 2.349705 3.2370489
-0.61928892 2.3495779 3.2488141
-0.55993205 2.3498619 3.221385
-0.42298883 2.3478417 3.2352464
-0.37179697 2.3448107 3.2271047
-0.31122327 2.3465314 3.207912
1.1191334 2.3479259 3.2263124
-1.0782523 2.3534701 3.2327511
-1.021538 2.3518291 3.245404
-0.92550266 2.3563581 3.2275505
-0.88105232 2.3580198 3.2211695
-0.77630484 2.3527505 3.2260511
-0.72782856 2.353545 3.2178106
-0.67296737 2.3585961 3.2254035
-0.62422228 2.3519523 3.2147965
-0.59026527 2.3619838 3.2340612
-0.5200392 2.3590865 3.2306147
-0.47386461 2.3565505 3.232769
-0.42961323 2.3525143 3.205199
-0.39373782 2.3543084 3.2113955
-0.27920663 2.3614197 3.2189293
-0.22609869 2.3568935 3.2189806
-0.17653954 2.3640156 3.2223866
-0.11769342 2.3591385 3.2266912
-0.076937459 2.3645203 3.2262087
-0.036120981 2.3560274 3.2239797
0.034790616 2.3646343 3.2328079
0.073466577 2.3645167 3.2298226
0.12220716 2.3627298 3.2226667
0.16810961 2.3631995 3.2393382
0.22240444 2.3602791 3.2327192
0.27313891 2.3669426 3.2245946
0.33109984 2.3619516 3.2216899
0.37699008 2.3622797 3.2240443
0.42740801 2.3602931 3.2252204
0.47842717 2.3624415 3.2278717
0.52082855 2.3633206 3.2214317
0.57126856 2.3679488 3.2270501
0.62865311 2.3684037 3.2373428
0.67277551 2.3621526 3.2213788
0.72163165 2.36501 3.2316303
0.77705145 2.3640134 3.2235384
0.82487941 2.3600895 3.2269435
0.8686164 2.3564219 3.2273769
0.92010725 2.3587577 3.2229881
0.96931171 2.3567593 3.2273102
1.025288 2.3575108 3.2142208
1.070756 2.3619771 3.2379498
1.1427122 2.3515213 3.2117193
1.1761779 2.3625107 3.2183256
1.2263063 2.3641028 3.2152305
1.2717646 2.3647375 3.2318325
1.3262722 2.3599381 3.2224884
1.3813127 2.366996 3.2253039
1.4082069 2.3526714 3.2067552
1.4849261 2.3614953 3.2199156
1.5351391 2.3572378 3.2217724
1.5891888 2.3582187 3.2301908
1.6220756 2.3639073 3.2256851
1.6755776 2.3711197 3.2142837
1.7272061 2.3692896 3.2330208
1.7854242 2.3707511 3.2236869
1.815774 2.3631167 3.2268424
2.0229321 2.3805828 3.2231359
2.0808387 2.3803728 3.2322557
2.1431241 2.3837397 3.2369151
2.1715107 2.3926039 3.2370343
2.2242699 2.3739793 3.2222595
2.2799096 2.3894522 3.2179852
2.3177562 2.3866248 3.2426391
2.3729985 2.3901343 3.2143035
2.4374318 2.3918564 3.2310212
2.4860485 2.3983612 3.2115786
2.5195403 2.3891613 3.226963
2.3451843 2.4036853 3.2044275
2.5973878 2.4026341 3.2006888
1.5767446 -0.41392744 3.2798684
1.6346691 -0.4051441 3.2571692
1.5900303 -0.38975525 3.2891061
1.62781 -0.37009248 3.2714853
1.5898119 -0.31339946 3.294394
1.6259626 -0.32628879 3.2660208
1.3438094 -0.27266473 3.280019
1.3617901 -0.26909304 3.2640841
1.5938561 -0.2635197 3.2854111
1.6278721 -0.26578245 3.2576852
1.3416905 -0.23092282 3.2770112
1.3645115 -0.23090506 3.2696285
1.5908763 -0.22391966 3.2914696
1.6225197 -0.21879585 3.265327
1.6586958 -0.21912162 3.2580235
1.3468609 -0.19039387 3.2914674
1.3659625 -0.19270895 3.2778189
1.5008632 -0.15106615 3.2999067
1.5973568 -0.1691616 3.2969475
1.6248035 -0.168484 3.2720675
1.6581033 -0.16842635 3.2589862
1.5182016 -0.13429134 3.2961094
1.6256006 -0.11790379 3.2752626
1.6645263 -0.11439397 3.2575104
1.5961503 -0.067432836 3.2969754
1.6259887 -0.067251541 3.2769902
1.6677008 -0.067215152 3.2607086
1.5896194 -0.025018424 3.2838864
1.6161318 -0.02915347 3.2674479
1.666065 -0.033407435 3.2578893
1.5374453 0.025558412 3.2975268
1.5686769 0.021933824 3.2810824
1.6219717 0.034019511 3.2691889
1.655625 0.034031976 3.2569706
1.5955476 0.068023719 3.2956145
1.6255962 0.067887038 3.276082
1.665656 0.067810021 3.256587
1.597605 0.10200766 3.2992358
1.6281737 0.11872791 3.2802074
1.665784 0.11841664 3.2557557
1.5983998 0.16990013 3.2988093
1.6291858 0.16958845 3.2806013
1.6672751 0.16916867 3.257019
1.5988022 0.21234576 3.2978659
1.6301522 0.22049412 3.2803366
1.669045 0.22005941 3.258249
1.5994569 0.27183405 3.2960408
1.6307619 0.27140552 3.278805
1.6700006 0.27091837 3.2573073
1.5414325 0.3212418 3.2948375
1.5795364 0.32213283 3.2923632
1.6256647 0.31441751 3.2858677
1.6657385 0.31399336 3.2659175
2.5817356 0.76725948 3.2947598
2.6215107 0.78096175 3.2801728
2.6740112 0.79112685 3.2589743
2.6207116 0.82361627 3.2907159
2.674546 0.82391948 3.2641799
2.7203 0.83505195 3.2515347
2.640743 0.87314779 3.2937591
2.6722 0.87395674 3.2770176
2.7176664 0.87612581 3.2581053
2.6725924 0.92593223 3.2847984
2.7267928 0.92786807 3.2576089
2.6755714 0.97497422 3.2879241
2.7116997 0.9782474 3.2645783
2.6791527 1.029587 3.2870452
2.7228949 1.0247351 3.2630203
2.6789935 1.0667646 3.2833881
2.7249892 1.0757339 3.2675698
2.6757641 1.1276985 3.2910576
2.7165916 1.1252017 3.2702067
2.7505918 1.1270436 3.2543764
2.683661 1.1773472 3.2910252
2.7261355 1.1786573 3.2668009
2.6725085 1.229221 3.2935631
2.7229309 1.2212495 3.2693856
2.6761601 1.2751901 3.2864125
2.7251353 1.271718 3.2675245
2.7561862 1.2870877 3.2512615
2.684119 1.3240813 3.2920418
2.7209604 1.3292668 3.2634265
2.6890888 1.3732491 3.2957497
2.7243459 1.3708761 3.2699668
2.7525816 1.3850408 3.2532451
2.6849339 1.4264462 3.291611
2.7253847 1.4166186 3.2672577
2.7603531 1.4191508 3.2511282
2.6860363 1.482811 3.2932124
2.7264791 1.4716902 3.2743948
2.7703569 1.4545786 3.2513063
2.6821821 1.5165565 3.2960179
2.7242703 1.5333503 3.2846904
2.773257 1.5260128 3.262728
2.6888683 1.5871161 3.2990849
2.7252102 1.5750151 3.2835362
2.7694478 1.5824234 3.2631278
2.6906044 1.6085004 3.2926662
2.7238452 1.6101441 3.2741137
-2.4740012 2.3127036 3.2697716
-2.4152646 2.3176494 3.2616878
-2.370609 2.3149071 3.2660725
-2.3294373 2.32567 3.2770371
-2.2279329 2.3270512 3.2872086
-2.1822515 2.3266892 3.2734978
-2.1347561 2.3347244 3.2773206
-2.0762806 2.3250947 3.2658968
-2.0300333 2.3184078 3.2783725
-1.9792309 2.3211772 3.2730432
-1.8699806 2.3225131 3.2699718
-1.8178458 2.3291421 3.2832327
-1.7858744 2.3251593 3.2832966
-1.7226228 2.3273268 3.2771823
-1.6639686 2.3237576 3.2738943
-1.6303983 2.3273821 3.2719164
-1.5785735 2.3324652 3.2795792
-1.5329092 2.3221052 3.2804172
-1.474975 2.3263748 3.2663183
-1.4237962 2.3327851 3.2815208
-1.3795538 2.3304057 3.2651272
-1.3314412 2.3298032 3.2806752
-1.2755501 2.3339171 3.2642021
-1.2295423 2.3365734 3.2828748
-1.1754682 2.3329277 3.2732475
-1.1251352 2.335968 3.2722957
-1.0710105 2.3403506 3.2779598
-1.0253552 2.341862 3.2684939
-0.96735007 2.3421612 3.2736011
-0.93927574 2.3467824 3.2774732
-0.8782528 2.3448906 3.2818682
-0.81764621 2.3439844 3.2677975
-0.77839398 2.3463173 3.276403
-0.71295846 2.3375194 3.2531121
-0.67882532 2.3467212 3.2721999
-0.63229251 2.3454585 3.2778759
-0.58720946 2.3497043 3.2906799
-0.47198737 2.3470833 3.2650158
-0.41559693 2.3392153 3.2600086
-0.38880184 2.3429265 3.2678614
-0.28844354 2.3451834 3.2792926
-0.2155887 2.3496628 3.2900188
0.48493871 2.3466713 3.2996502
1.2646152 2.3487053 3.2911777
-0.91917467 2.352459 3.271163
-0.87202507 2.3511357 3.2796638
-0.75491452 2.3536019 3.2687848
-0.73564816 2.3512335 3.268892
-0.66973644 2.3563335 3.268995
-0.61644179 2.3560982 3.2708266
-0.5729571 2.3542101 3.2745011
-0.52894062 2.3557799 3.2703371
-0.47394699 2.356822 3.2785206
-0.43684965 2.3552995 3.2805161
-0.36302078 2.3536901 3.2853973
-0.32581553 2.359726 3.2788343
-0.2664724 2.3563583 3.2747715
-0.22717887 2.3550866 3.2729561
-0.17395777 2.3587072 3.2775655
-0.12331352 2.3585348 3.270159
-0.068555914 2.3610706 3.2749546
-0.022802673 2.3586061 3.2720609
0.018315647 2.3620384 3.2678757
0.077960871 2.3656869 3.2812026
0.12360676 2.3621829 3.2752478
0.16947861 2.3633492 3.2752254
0.22441582 2.3629627 3.2720697
0.27933943 2.363394 3.2693121
0.31506002 2.3564904 3.2571464
0.37151828 2.3578694 3.272434
0.4240796 2.3627191 3.277802
0.47656313 2.3603604 3.2711287
0.52446628 2.3606017 3.2686491
0.57810158 2.3684843 3.2817943
0.63243121 2.3642652 3.267751
0.67558509 2.3619323 3.2798562
0.72747397 2.3591518 3.272532
0.77483582 2.3576093 3.2709341
0.8201437 2.3544877 3.257447
0.89187253 2.3635023 3.2745128
0.92317134 2.3625124 3.2852385
0.97969401 2.3585398 3.275754
1.0230261 2.3567882 3.2760513
1.0792294 2.3571491 3.2776015
1.1308202 2.3569183 3.2830467
1.1747186 2.3596897 3.2705123
1.2208067 2.3616323 3.2737873
1.2796144 2.3554966 3.2661159
1.3267313 2.3573644 3.2845466
1.3732361 2.3668392 3.2697246
1.4293901 2.3639169 3.2696042
1.4753373 2.3663003 3.2777641
1.532043 2.3628571 3.2756488
1.5800663 2.3702593 3.2832479
1.6275133 2.3665447 3.2722065
1.6780722 2.3689194 3.2544582
1.7394259 2.379776 3.2912588
1.7832319 2.3742945 3.2772675
1.8322034 2.3774819 3.2910094
1.8693427 2.3866925 3.2892573
2.0844767 2.3864679 3.2752616
2.1329846 2.3849559 3.270741
2.1838553 2.3856266 3.2686439
2.2964234 2.396821 3.2759418
2.3664415 2.3836408 3.2791622
2.2209816 2.4035842 3.2810664
1.5448925 -0.41673833 3.3164976
1.5530781 -0.40815777 3.3136718
1.5315372 -0.36983728 3.3232527
1.5676171 -0.37191042 3.3109009
1.5301869 -0.32014903 3.3185654
1.5671957 -0.32926485 3.3079464
1.5283018 -0.26908717 3.3244755
1.5663702 -0.27621672 3.3096175
1.5288715 -0.21995452 3.3160739
1.570895 -0.21671644 3.3056443
1.4889073 -0.17687175 3.3152132
1.5297136 -0.17108363 3.3146122
1.5715023 -0.16913061 3.3046978
1.5458432 -0.11829 3.314214
1.5808357 -0.11835514 3.3051405
1.5435972 -0.067380048 3.3103664
1.5732731 -0.067549624 3.3109453
1.5438666 -0.025090216 3.3113418
1.5714865 -0.025126282 3.3075871
1.5396138 0.00028561728 3.3022752
1.5598801 0.00029240525 3.3038576
1.5416561 0.067875452 3.3060901
1.5715297 0.068068817 3.3071506
1.545849 0.11887421 3.3140278
1.5798411 0.12117679 3.3079748
1.54739 0.16987783 3.3157222
1.5752498 0.1701384 3.3123057
1.5475537 0.22074868 3.3139088
1.5745984 0.22098942 3.308748
1.6011748 0.23814499 3.3015056
1.5470442 0.26307273 3.3106003
1.572544 0.27462965 3.3104348
1.5728029 0.31061268 3.3101692
1.604533 0.30674335 3.3043613
2.4414678 0.6146704 3.3364298
2.4540102 0.64629894 3.3492448
2.4918528 0.76605624 3.3437212
2.5274248 0.77777767 3.3333964
2.5662622 0.78212446 3.315469
2.5347626 0.81633836 3.3423927
2.5727458 0.82215536 3.3213546
2.5356264 0.85088801 3.3494444
2.5775368 0.86976838 3.3303862
2.6183558 0.88721275 3.3123887
2.5781951 0.92342234 3.3339424
2.6231189 0.92560697 3.316463
2.5749054 0.96885598 3.3382699
2.6266997 0.97996742 3.316586
2.5732837 1.0263357 3.3416169
2.6209118 1.0254694 3.3163466
2.6505525 1.0396614 3.3054411
2.5819433 1.0689991 3.3426225
2.6208503 1.0689261 3.3167291
2.6560147 1.071275 3.3042998
2.5876102 1.1153468 3.344655
2.6255229 1.1255387 3.3224604
2.6601732 1.1024652 3.3012793
2.5922675 1.1761521 3.3474288
2.6221895 1.1763101 3.3284013
2.6521029 1.1764635 3.3089614
2.5966423 1.2078139 3.3442152
2.6242816 1.2249367 3.3233109
2.6567631 1.2181309 3.3026075
2.6263561 1.2757292 3.3290279
2.5991459 1.3380291 3.347739
2.6262836 1.3266717 3.3277297
2.6557765 1.3265026 3.3070679
2.6226096 1.3699291 3.3370869
2.6617527 1.3762298 3.3122385
2.6256032 1.4217657 3.3314941
2.6587186 1.4208035 3.3094454
2.6250679 1.478138 3.3356273
2.6625643 1.4809403 3.3031325
2.6208301 1.5261804 3.3326759
2.6615915 1.5317341 3.3107293
2.629508 1.5717909 3.327512
2.6712906 1.5711727 3.30914
2.6064339 1.6066844 3.3449359
2.6595004 1.6081123 3.3132453
-2.4532833 2.3116977 3.339139
-2.445704 2.325707 3.3158987
-2.3630338 2.3172588 3.3224843
-2.3282545 2.3139508 3.3277569
-2.2653732 2.3203743 3.323679
-2.2167885 2.3162947 3.326009
-2.1627853 2.3233333 3.3176579
-2.1294928 2.3308685 3.3248434
-2.0731862 2.3240204 3.3165786
-1.9628265 2.3222587 3.3206944
-1.9344157 2.3298445 3.3161154
-1.8705595 2.3268273 3.3135402
-1.8302094 2.327718 3.3463392
-1.7724597 2.3246694 3.3198533
-1.7246206 2.3235593 3.3159647
-1.674991 2.3332379 3.331104
-1.6166854 2.3302035 3.3274391
-1.5654976 2.3224523 3.3123331
-1.5229836 2.3285036 3.3243427
-1.4769948 2.3281577 3.3227539
-1.4168801 2.3338311 3.3285854
-1.3719859 2.3342834 3.3269901
-1.3133004 2.3292787 3.3278031
-1.2766308 2.3335452 3.3212619
-1.225733 2.3326631 3.3293035
-1.1657931 2.3356209 3.3276176
-1.1280873 2.33318 3.3276393
-1.0756258 2.3321855 3.3199794
-1.0260248 2.336586 3.3195689
-0.97595477 2.3346627 3.3189344
-0.91860896 2.342124 3.3237987
-0.86954099 2.3415236 3.3238339
-0.82113266 2.3469417 3.322376
-0.77317488 2.3437963 3.3269477
-0.72736472 2.3471761 3.3401668
-0.68468958 2.348361 3.3111668
-0.62852967 2.3473675 3.3185971
-0.5538016 2.346379 3.3277359
-0.49761254 2.3447738 3.3324466
-0.41048566 2.3439293 3.3036702
-0.37386647 2.3457041 3.3096414
-0.34656 2.3483229 3.3157325
-0.23466896 2.3385692 3.3096142
0.48938638 2.3495345 3.3403594
1.0748856 2.3493853 3.3067613
1.1297803 2.3460884 3.3270292
1.1785957 2.3484168 3.3168411
1.2934262 2.3472538 3.3212438
-0.72338223 2.3530378 3.3113811
-0.66819513 2.3558948 3.3248329
-0.63008922 2.3531797 3.3267689
-0.57259148 2.3530781 3.3224528
-0.52553052 2.3541136 3.3239169
-0.47487885 2.3539436 3.3259895
-0.43953726 2.3512723 3.3112016
-0.31992191 2.3565161 3.3294997
-0.27335012 2.3545732 3.3299971
-0.21841215 2.3618391 3.3435452
-0.1840874 2.3586001 3.3259621
-0.12093339 2.3576086 3.31955
-0.069130555 2.3573596 3.3149273
-0.023095915 2.3606672 3.3291805
0.023171229 2.3603952 3.3287866
0.078612849 2.3576627 3.3242652
0.12497222 2.3602271 3.3267999
0.17141646 2.3628659 3.3288639
0.22725403 2.365556 3.3300121
0.26994297 2.3635833 3.3186743
0.31996804 2.3653145 3.3236663
0.37643614 2.3610857 3.3313656
0.42306131 2.3621602 3.3284874
0.46341828 2.3562572 3.3281767
0.52675235 2.3611691 3.3302002
0.5739888 2.3618314 3.3287396
0.62041873 2.36094 3.3207941
0.67892212 2.3603063 3.3295896
0.72730613 2.365509 3.3290343
0.77900136 2.3610353 3.3226757
0.82707232 2.358897 3.3159308
0.87111413 2.3596497 3.3214967
0.93027061 2.3617589 3.321409
0.97877431 2.3598239 3.3335264
1.03039 2.3558772 3.3281174
1.0939481 2.3510442 3.3444726
1.1228213 2.3574984 3.3196957
1.2197022 2.3540711 3.3134809
1.2619619 2.3547132 3.3291442
1.3277521 2.3569779 3.3255672
1.3749592 2.3586347 3.3229136
1.4239516 2.3578997 3.3260677
1.4814036 2.3672225 3.3312249
1.517489 2.3625059 3.309844
1.5747086 2.3556662 3.3202908
1.6384488 2.3655679 3.3260872
1.6752725 2.3730707 3.3080611
1.7175782 2.3757648 3.3287892
1.7760158 2.3712437 3.3221273
1.8249618 2.374052 3.3359609
1.8689886 2.3789361 3.3237107
2.1265376 2.3912756 3.3293998
2.1616428 2.3744907 3.3125362
2.2255044 2.3884053 3.3290465
2.3340309 2.3931942 3.3001432
2.2584901 2.4007325 3.3065891
2.4368699 0.62592965 3.3812375
2.4401386 0.67886233 3.3815782
2.4713116 0.73976886 3.3771725
2.4498098 0.77083874 3.3989322
2.4739816 0.77782518 3.3869202
2.5064914 0.78980505 3.3597202
2.4869995 0.82176149 3.3841395
2.5107384 0.82007366 3.3597393
2.4866593 0.87333184 3.3927526
2.5220838 0.87547123 3.3690703
2.4945734 0.92474186 3.3930686
2.5276711 0.92213565 3.3697331
2.5500798 0.93347859 3.3514891
2.4980688 0.95526206 3.3912191
2.5220096 0.97800863 3.3754632
2.5606821 0.99590915 3.3514838
2.4888766 1.0374711 3.3981988
2.525667 1.0267792 3.3737698
2.4899244 1.067278 3.3921497
2.5239451 1.0697836 3.3669231
2.5513844 1.0782754 3.3571792
2.4985986 1.1004509 3.3962505
2.5216827 1.127273 3.382
2.5672755 1.1222873 3.3577232
2.4987915 1.1594695 3.3803046
2.529387 1.1745492 3.3717542
2.5670161 1.1736089 3.3529296
2.4947498 1.2458202 3.3903348
2.5239069 1.2258575 3.3774326
2.5634379 1.2228884 3.3576717
2.4960039 1.2662256 3.3859556
2.5294774 1.2830701 3.3805809
2.5780151 1.2756259 3.354136
2.52424 1.3253245 3.3887179
2.575048 1.325953 3.3670001
2.5309162 1.3737018 3.3783984
2.5715284 1.3691794 3.3599217
2.5257034 1.4299448 3.3940334
2.579159 1.4300362 3.3660214
2.5349617 1.4827018 3.3937013
2.5765409 1.4834805 3.3696752
2.5377975 1.5247437 3.38236
2.58798 1.5305957 3.3692179
2.5414944 1.5736657 3.3915331
2.5759292 1.5761423 3.3772502
2.6025596 1.5738432 3.3523369
2.5484862 1.6085259 3.3887112
2.5771852 1.6074187 3.3666143
-2.4363158 2.3258061 3.3798933
-2.3238373 2.3094771 3.3584015
-2.2667632 2.3152249 3.3855736
-2.2315459 2.3217034 3.3824325
-2.1732371 2.3249323 3.3679135
-2.124989 2.3278608 3.3738954
-2.0862908 2.3296394 3.3719838
-2.0335317 2.3266773 3.36835
-1.9768705 2.3305359 3.3790734
-1.9127185 2.3247972 3.3750589
-1.8645582 2.3254876 3.3746662
-1.7784458 2.3256035 3.366112
-1.7253793 2.3315275 3.3763807
-1.6817069 2.3364472 3.3800969
-1.6254269 2.3272741 3.3871272
-1.5836586 2.3278635 3.3743315
-1.5298396 2.32283 3.371335
-1.4805171 2.332375 3.3834872
-1.4238162 2.3299608 3.3775215
-1.3731718 2.3344586 3.3733642
-1.3272026 2.3344932 3.3741741
-1.2780066 2.333358 3.3878138
-1.2194586 2.3337674 3.3640938
-1.1704079 2.332093 3.3755543
-1.1072103 2.3399169 3.364125
-1.076928 2.3365674 3.3668337
-1.0224103 2.3370585 3.3712015
-0.97772646 2.337678 3.37287
-0.91998571 2.346066 3.3787203
-0.87040448 2.340945 3.3814104
-0.81782013 2.3419008 3.3802912
-0.78464371 2.3436768 3.37621
-0.73352337 2.3481178 3.3790309
-0.67712665 2.3494802 3.3903937
-0.62576258 2.343915 3.370821
-0.58834511 2.3449497 3.3776917
-0.52965879 2.3445268 3.3657217
-0.36987486 2.3481355 3.3752897
-0.34949929 2.3495893 3.354223
-0.27002332 2.3486671 3.3835042
0.24771851 2.3465092 3.3755593
0.70498675 2.3473647 3.3828261
0.8260293 2.344475 3.3696311
0.86694646 2.3462145 3.3771584
1.0335933 2.3458564 3.3788993
1.0709665 2.3443143 3.3806
1.1008595 2.3466525 3.3764958
1.1976236 2.347914 3.3516107
1.2450638 2.3455625 3.37549
1.3549895 2.3488128 3.3886912
-0.95145822 2.353205 3.3826447
-0.83871639 2.351151 3.3639941
-0.75310087 2.3501389 3.3786244
-0.71607453 2.3529835 3.3892629
-0.67929244 2.3546124 3.3687963
-0.56900895 2.3521633 3.3718324
-0.50427741 2.3573163 3.3875115
-0.47492313 2.3519998 3.3830807
-0.42707467 2.3568714 3.3763764
-0.38770759 2.3552039 3.3590009
-0.32608971 2.3536484 3.374377
-0.27562368 2.3553281 3.3678489
-0.21947141 2.3545809 3.3700342
-0.17264915 2.353076 3.3700323
-0.13081127 2.3614137 3.3742061
-0.070115559 2.3651779 3.3754456
-0.023382232 2.3616924 3.385798
0.02344133 2.357975 3.3804543
0.079840094 2.3658321 3.3910491
0.12639779 2.3595767 3.3809862
0.17274772 2.3531563 3.3701489
0.21992368 2.3585637 3.3757758
0.27655685 2.3628402 3.3786869
0.32827935 2.3593361 3.3792925
0.37629816 2.3576698 3.3785808
0.42204031 2.3578479 3.3821054
0.47031978 2.3566759 3.381038
0.5251171 2.3580363 3.3735197
0.57252187 2.3662722 3.392103
0.63278842 2.3569369 3.3794777
0.67854756 2.3557165 3.3738558
0.72722942 2.3571067 3.3704095
0.77251571 2.3607609 3.3716946
0.80351222 2.3588459 3.3825097
0.87821102 2.355197 3.3621321
0.92109638 2.3582585 3.3773177
0.97472101 2.3562057 3.3720403
1.0206071 2.3581522 3.374114
1.0670109 2.3547969 3.3573
1.2305636 2.3557246 3.3541777
1.2830517 2.3619633 3.3901343
1.3304495 2.3596261 3.3713224
1.383141 2.3565984 3.370451
1.4261317 2.3532324 3.3718019
1.4754002 2.3694234 3.380954
1.5211947 2.3666387 3.3704937
1.5826328 2.3624735 3.3735445
1.6290817 2.3723807 3.371805
1.6829498 2.3781092 3.3592734
1.7236328 2.3728824 3.3793883
1.7668835 2.3770044 3.3676302
1.821888 2.3761156 3.3889861
1.8768296 2.3814764 3.3729136
1.9086952 2.3754666 3.3959799
2.1351011 2.3805032 3.3651118
2.1824341 2.3732448 3.368866
2.2046435 2.368283 3.3822734
2.2877657 2.389534 3.3759348
2.4150448 0.59370786 3.4157612
2.4224098 0.624313 3.4220729
2.4382694 0.67071998 3.4225621
2.4385056 0.71994305 3.4174747
2.4524477 0.7331146 3.4094534
2.4388719 0.76714301 3.4129701
2.443671 0.81370306 3.4211478
2.4573739 0.82691282 3.412339
2.4619696 0.87487537 3.4159181
2.4492421 0.92963445 3.4454713
2.4677837 0.92561752 3.4135916
2.4478266 0.95842087 3.4369903
2.4682698 0.97983772 3.417026
2.4692237 1.0273126 3.4202442
2.4671097 1.0700802 3.418628
2.4694541 1.1260357 3.4228477
2.4723942 1.1754001 3.4188721
2.4458339 1.2312169 3.4460213
2.4789748 1.22236 3.4152806
2.4765255 1.2764428 3.4205639
2.4798112 1.3280197 3.4178939
2.4462128 1.3615755 3.4492567
2.4785635 1.3729161 3.4314356
2.5049691 1.3709462 3.4083614
2.4696615 1.4139179 3.4341063
2.5070398 1.4178213 3.4173069
2.473954 1.472257 3.4337118
2.501375 1.4706131 3.4115791
2.4770751 1.5303428 3.4308994
2.5093291 1.5258191 3.4037881
2.4826906 1.5698507 3.4340281
2.516578 1.5783844 3.4101067
2.5253947 1.6132475 3.4180148
-2.3785741 2.3214376 3.4065812
-2.3233805 2.3194129 3.4354014
-2.2322865 2.3232892 3.4399362
-2.1732497 2.3158746 3.4305358
-2.1280315 2.3220375 3.4225674
-2.0799315 2.3145254 3.4244325
-2.0220988 2.3231945 3.4317493
-1.9859592 2.3327234 3.429409
-1.9356058 2.3217988 3.433315
-1.8778563 2.3229022 3.4251342
-1.8325022 2.3336737 3.4206812
-1.7788862 2.3323658 3.4259326
-1.7146152 2.3252058 3.4247563
-1.6729538 2.3220038 3.428421
-1.6371113 2.3240001 3.4229851
-1.5796758 2.3231225 3.4208317
-1.5273491 2.329293 3.4282939
-1.4683646 2.3264914 3.4298508
-1.4251651 2.3285489 3.4186373
-1.3693565 2.3320634 3.4256229
-1.3166627 2.3307252 3.4142728
-1.2671312 2.3297169 3.4278204
-1.2318836 2.3380847 3.4093492
-1.1811692 2.3291748 3.4200902
-1.1257949 2.339889 3.4251053
-1.0774957 2.3393669 3.4119394
-1.0274956 2.3356123 3.418438
-0.97439069 2.3409057 3.4228878
-0.92329061 2.3384037 3.43032
-0.87588185 2.3364861 3.4131529
-0.82928282 2.3401182 3.4279835
-0.77450031 2.3451118 3.4325831
-0.7288121 2.3444917 3.4133158
-0.68174279 2.3464158 3.423907
-0.62433434 2.3456151 3.4313028
-0.56354761 2.3497634 3.4072037
-0.53902704 2.3477547 3.4458737
-0.47673663 2.3420382 3.4061997
-0.44922394 2.3463144 3.4154553
-0.3830983 2.3467596 3.4224129
-0.33544949 2.3443851 3.4228444
-0.26946473 2.3458447 3.4295335
-0.24148211 2.3496201 3.4367149
0.23171541 2.3456955 3.4315083
0.51582801 2.3477206 3.4101987
0.87048531 2.3476048 3.4314399
0.90975666 2.3496294 3.4264839
0.97401106 2.3444757 3.4286678
1.0189688 2.3380184 3.4243984
-0.75985765 2.3520968 3.419446
-0.70226026 2.3512619 3.4279273
-0.6619426 2.3533335 3.4179163
-0.60187405 2.3514793 3.404573
-0.58733022 2.3501725 3.4433005
-0.52707815 2.356055 3.4210768
-0.42156425 2.350297 3.4240813
-0.36433759 2.3575058 3.4208484
-0.31682193 2.3558474 3.422123
-0.2982257 2.358387 3.4271436
-0.2182097 2.3553588 3.4236557
-0.17439917 2.3580618 3.4144597
-0.13145593 2.3580828 3.4310536
-0.070858277 2.3637836 3.4256496
-0.023544574 2.357547 3.4171391
0.023701003 2.3598363 3.4298644
0.085122526 2.3594799 3.4285762
0.12767632 2.3546412 3.4299769
0.17515238 2.3575394 3.4325473
0.21883999 2.355684 3.4216337
0.28794646 2.3605001 3.4120221
0.32669699 2.3578863 3.4244378
0.37535399 2.3569951 3.4382038
0.42276752 2.356447 3.4330683
0.47897145 2.3527112 3.4217596
0.53527844 2.3500185 3.4112418
0.57597053 2.3566825 3.4255466
0.62639362 2.3537328 3.4174526
0.68085283 2.3602841 3.4319775
0.72309381 2.3566561 3.4327164
0.77139097 2.3578568 3.4261758
0.81910968 2.3536708 3.4375238
0.8610602 2.3576746 3.4288011
0.93982768 2.352623 3.4246075
1.0068471 2.351588 3.4077237
1.1280496 2.3740478 3.4328785
1.1709795 2.381886 3.4335854
1.2846543 2.3633611 3.4345996
1.3222604 2.3602564 3.4178421
1.4208852 2.3672578 3.4186683
1.4698519 2.3605366 3.4273627
1.5299677 2.3715637 3.4240351
1.5712938 2.3669994 3.4158344
1.6269922 2.3638232 3.4038448
1.6736096 2.3692174 3.4252737
1.7279396 2.3792248 3.419986
1.7839482 2.3796456 3.4122891
1.8133631 2.3712025 3.4324222
1.8630598 2.3824873 3.4301212
1.9213781 2.3706264 3.4307511
2.1199253 2.3881204 3.4141273
2.2006555 2.3655224 3.433042
2.4587851 1.0793195 3.4654522
2.4566019 1.1080272 3.4547617
2.4494188 1.2131399 3.4568362
2.4665713 1.2716987 3.4663029
2.4674053 1.3121717 3.4551773
2.4533935 1.3856506 3.4527817
2.4551179 1.4993358 3.4605458
2.455451 1.5198015 3.4536498
2.4703784 1.590198 3.4516237
-2.3506632 2.3145261 3.4661269
-2.2738113 2.3230393 3.4714472
-2.2205615 2.3119142 3.4785256
-2.1351409 2.3208814 3.4878111
-2.0608037 2.3176258 3.4665456
-2.0249095 2.3123522 3.4742875
-1.9799417 2.3182261 3.473156
-1.9307976 2.3201418 3.483072
-1.8838512 2.3228028 3.4761727
-1.8193634 2.322644 3.4757752
-1.7773511 2.3233166 3.4585924
-1.7363009 2.3228674 3.4751644
-1.6738719 2.3069975 3.4720316
-1.6327603 2.3262746 3.475409
-1.5769856 2.328625 3.4775248
-1.524279 2.3351381 3.4850295
-1.4680048 2.3256969 3.4885864
-1.4330572 2.337786 3.4759865
-1.3715311 2.3349593 3.4914029
-1.3213047 2.3317366 3.4687891
-1.271992 2.3370371 3.481545
-1.2264537 2.3355484 3.4707637
-1.1670221 2.3315675 3.4736624
-1.1226208 2.3343153 3.4756694
-1.0848379 2.3434091 3.4719028
-1.0371137 2.3380234 3.4610882
-0.97856355 2.3376489 3.4740665
-0.92893988 2.335402 3.4813144
-0.87152004 2.3352282 3.4765182
-0.82795733 2.344373 3.4748452
-0.76986414 2.3443019 3.4852622
-0.72317523 2.3427246 3.4667764
-0.68081409 2.3395154 3.4660256
-0.6295079 2.3458984 3.4701176
-0.57176089 2.345556 3.4774415
-0.53172618 2.3385346 3.4718215
-0.47058192 2.346962 3.4758422
-0.42389104 2.3441586 3.453089
-0.39465448 2.3403146 3.4500813
-0.21460475 2.3475127 3.4731202
-0.14762531 2.3443382 3.4711387
0.023921316 2.3497555 3.4815478
0.19563933 2.3477275 3.4743452
0.22429562 2.3480282 3.4734368
0.53401721 2.3482237 3.4862528
0.56282991 2.347995 3.4823747
0.78062415 2.3473232 3.4881446
0.83640391 2.3405783 3.4675076
0.87069374 2.3369739 3.4653225
1.0341768 2.3311942 3.4511111
1.0634865 2.3334641 3.4893
-1.013256 2.3504226 3.4863732
-0.80762231 2.3608363 3.4638085
-0.63104534 2.3516057 3.4786031
-0.56932598 2.3547084 3.4524703
-0.51299196 2.3500443 3.4719181
-0.49256474 2.3537107 3.4602282
-0.4381097 2.3503199 3.4997759
-0.36838043 2.3548102 3.4739106
-0.32053283 2.3547866 3.4775555
-0.27295119 2.3569427 3.4839368
-0.24388677 2.3538809 3.4810793
-0.17635441 2.3558078 3.4679632
-0.11629021 2.3587506 3.4806926
-0.071497843 2.3615525 3.4697948
-0.023815202 2.3579373 3.4745648
0.023902208 2.3562245 3.4719834
0.071580455 2.3565321 3.4719539
0.11979305 2.357295 3.4911678
0.16737121 2.352829 3.4830456
0.27266353 2.3633468 3.4742632
0.3170079 2.3577707 3.4694893
0.36881649 2.3571069 3.4773219
0.42630219 2.3571396 3.4722416
0.47462022 2.3591609 3.4703758
0.52140111 2.3538711 3.4571943
0.58058977 2.3547869 3.4642131
0.62194645 2.3581045 3.4799414
0.67481327 2.3574767 3.4712529
0.72850943 2.3549678 3.468791
0.7763446 2.353688 3.4586163
0.82085019 2.3514128 3.4872155
0.9294523 2.3558521 3.4724565
1.1362618 2.3614931 3.4596202
1.1855756 2.3817987 3.492939
1.2141466 2.3794796 3.4812853
1.2729844 2.3585031 3.4732869
1.3321213 2.3630373 3.4773104
1.3673329 2.3666432 3.4720976
1.417044 2.3742013 3.4757371
1.4590579 2.3674965 3.4725785
1.5306817 2.3733246 3.472151
1.5820403 2.3664207 3.4718676
1.6350782 2.3700094 3.4576342
1.6711082 2.3721526 3.4941206
1.721921 2.3769019 3.469913
1.78241 2.3843908 3.4695432
1.8253458 2.3796566 3.4911115
1.8768183 2.3794034 3.4675908
1.9166249 2.379926 3.4752226
-2.3499923 2.3134942 3.521956
-2.2087767 2.3217921 3.5049946
-2.1804805 2.3256426 3.5278933
-2.1246521 2.3221631 3.5318873
-2.0867712 2.3256798 3.522186
-2.0317209 2.3111343 3.5209587
-1.9773525 2.3187346 3.5270574
-1.9246328 2.316927 3.53087
-1.8723689 2.324656 3.5182817
-1.8341136 2.3287408 3.542711
-1.7733682 2.3220241 3.5230505
-1.7382975 2.321022 3.5356958
-1.6104218 2.3175344 3.5155177
-1.5688244 2.3278306 3.5335419
-1.522476 2.32763 3.5187163
-1.4741112 2.3311007 3.541476
-1.4227351 2.328542 3.5200491
-1.3725212 2.3336842 3.5336418
-1.3226038 2.3291616 3.5265214
-1.2761412 2.3276129 3.5259051
-1.2139596 2.3326719 3.5199287
-1.177312 2.3354704 3.5273342
-1.1228443 2.3356445 3.5202234
-1.0727565 2.3440466 3.52509
-1.0207604 2.3401718 3.5268543
-0.97144538 2.3335798 3.5245354
-0.93106258 2.3457286 3.5385795
-0.87918109 2.3387613 3.537957
-0.82340425 2.3395047 3.5086823
-0.78183216 2.3414237 3.5293341
-0.72614974 2.3400736 3.5263929
-0.66431814 2.3461413 3.5319338
-0.63030529 2.3469827 3.5246994
-0.57724947 2.3436728 3.5233595
-0.47940004 2.3445475 3.5261452
-0.42146111 2.3456764 3.5336087
-0.37498704 2.3442547 3.522445
-0.32773393 2.3483405 3.5296707
-0.26555699 2.34758 3.5286701
-0.2370946 2.3430979 3.5429931
-0.17914563 2.3446536 3.5479822
0.04347783 2.3457017 3.5333543
0.21659006 2.348891 3.5137241
0.32730713 2.3479669 3.531812
0.38483086 2.3448808 3.5226085
0.41246262 2.3489628 3.5395162
0.54616052 2.3397491 3.5113411
0.57559121 2.3414931 3.510335
0.60608214 2.3472252 3.5151243
0.67739922 2.3493028 3.5282555
0.7250061 2.3488846 3.5134504
0.78544438 2.3324497 3.5249867
0.82636517 2.3378327 3.5260594
0.87729931 2.3334131 3.5299757
1.0968857 2.3433273 3.5394189
1.3092977 2.3484514 3.5334904
-0.70063746 2.352617 3.5499463
-0.6746819 2.3500845 3.5096464
-0.52926606 2.3510003 3.5304689
-0.41941026 2.353462 3.5062926
-0.38039452 2.350724 3.5055919
-0.30365992 2.3531635 3.5151114
-0.28425667 2.3521683 3.5148761
-0.22645326 2.3524723 3.5185614
-0.17822412 2.3519478 3.5199411
-0.13018593 2.3545578 3.5254672
-0.072172388 2.3575552 3.5157318
-0.024069242 2.3557482 3.5290689
0.014518797 2.3579831 3.5324597
0.072438903 2.3554249 3.5280795
0.12052834 2.3522646 3.5223119
0.17844236 2.3536618 3.5225079
0.23668279 2.357305 3.5253487
0.2755295 2.359252 3.5260594
0.3140102 2.3577578 3.5213497
0.36121944 2.3506603 3.5071492
0.42383373 2.3530328 3.5184181
0.47013974 2.3559687 3.5248268
0.51612598 2.3560731 3.5265954
0.63687134 2.353488 3.5204666
0.68547982 2.3535097 3.5133591
0.73689318 2.3528395 3.5243969
0.76944667 2.352988 3.5394461
0.93043935 2.3636322 3.5255988
1.1869743 2.3647251 3.507906
1.2286167 2.3877635 3.5337856
1.3216928 2.3600338 3.5195951
1.3895839 2.366636 3.5241821
1.4301798 2.3659179 3.5247707
1.4770856 2.3763051 3.5265591
1.5229567 2.3724513 3.5193517
1.5814623 2.3756568 3.5345485
1.6299123 2.371686 3.5094247
1.6637832 2.370358 3.5414698
1.7181206 2.3743865 3.5270081
1.7689726 2.3733351 3.504113
1.8308932 2.3820267 3.5260141
1.8803991 2.3780754 3.5302546
1.903847 2.3795638 3.5055325
3.8305204 2.3580935 3.5359581
3.7985544 1.9853547 3.5792718
3.7491419 2.034966 3.5998995
3.7762637 2.0238724 3.5860925
3.8060775 2.0141518 3.5746436
3.7751732 2.0797391 3.5838008
3.7846861 2.1224298 3.5744147
3.784071 2.1541228 3.5841739
3.8140361 2.1784942 3.5735149
3.7811022 2.2297106 3.5951433
3.8215153 2.2295678 3.5743105
3.7982438 2.2777777 3.5917096
3.841737 2.2685323 3.5703504
-2.2696426 2.3196433 3.5798266
-2.1789756 2.3254261 3.5835059
-2.1222727 2.3211291 3.5764146
-2.0550017 2.3163307 3.5730155
-2.0181184 2.3105745 3.5793748
-1.9773012 2.3211358 3.5664294
-1.9297844 2.3147573 3.5758877
-1.8786292 2.3192286 3.5687017
-1.8196398 2.3273218 3.5798225
-1.7935582 2.3227041 3.5987747
-1.7190949 2.3252733 3.567548
-1.6798228 2.3255239 3.5671768
-1.6331494 2.3295951 3.5761766
-1.5896721 2.3263135 3.5862985
-1.5255851 2.3276079 3.5640774
-1.4777849 2.3326309 3.5892262
-1.4286295 2.3293407 3.5765438
-1.3721857 2.3250127 3.575429
-1.3342768 2.3345907 3.5920231
-1.2602131 2.3304987 3.5618238
-1.2224151 2.3349411 3.5797527
-1.1666381 2.3340805 3.5712438
-1.1266274 2.3305695 3.5684261
-1.0747432 2.3403172 3.5826404
-1.0258518 2.3418312 3.5822124
-0.96317881 2.3322046 3.5520525
-0.93209952 2.3355317 3.5807805
-0.8769871 2.3394067 3.5811009
-0.83041412 2.3437929 3.5759497
-0.71359611 2.3434172 3.5743828
-0.67351162 2.3409066 3.5764949
-0.61873198 2.3423254 3.5701523
-0.56951517 2.3375604 3.57178
-0.52780867 2.3416004 3.5662022
-0.47420454 2.3474541 3.5710154
-0.42952818 2.3386736 3.5718894
-0.38618407 2.3473601 3.5790744
-0.34693617 2.346441 3.5807645
-0.27837217 2.345324 3.5836542
-0.2156771 2.3425982 3.5696087
-0.1654478 2.3415446 3.5733447
-0.12205738 2.3453472 3.5904102
-0.063206032 2.3473144 3.5748253
-0.03416463 2.3468525 3.5942001
0.0049419119 2.3479517 3.5960081
0.072743155 2.3459573 3.5528829
0.1216509 2.3463628 3.5721874
0.176054 2.3462055 3.5662637
0.20925288 2.3459816 3.5685172
0.28796697 2.3430209 3.5795691
0.41562852 2.3474185 3.5766666
0.47525349 2.3454225 3.5812438
0.51394945 2.3498926 3.5705905
0.58812672 2.3464375 3.5833766
0.62629867 2.3478642 3.5941389
0.67451638 2.3440452 3.5813417
0.72341973 2.3430018 3.5722814
0.7526685 2.3421543 3.5662401
0.83772749 2.3402324 3.589895
0.8764081 2.3376117 3.5784135
3.8267455 2.3254218 3.5754995
-0.77582109 2.352988 3.5793386
-0.74575973 2.3516917 3.582298
-0.3673206 2.351794 3.5874262
-0.31827849 2.3513947 3.5904171
-0.28715238 2.3566523 3.5607216
-0.12146585 2.3531625 3.5627632
-0.072928026 2.3556724 3.5675585
-0.024254169 2.3549559 3.567018
0.014641376 2.3566155 3.5695739
0.073490813 2.3506341 3.5995364
0.11181401 2.3526258 3.5622079
0.23298804 2.3529053 3.5845716
0.27270168 2.3525131 3.565243
0.32815659 2.3512101 3.589488
0.37211353 2.3551264 3.5822301
0.43574226 2.3504269 3.5794499
0.49457774 2.3508658 3.5742102
0.53531772 2.3577857 3.5803492
0.56490159 2.3582931 3.577595
0.62298405 2.3550546 3.5650735
0.66157711 2.3527467 3.5560708
0.71170253 2.3564947 3.5543485
0.94075656 2.3599148 3.5803733
0.9711383 2.385885 3.5801456
1.1541289 2.3593276 3.5945113
1.22806 2.3759313 3.5803175
1.269262 2.3803473 3.5834675
1.3442149 2.3543923 3.5776954
1.3754467 2.3682671 3.5765619
1.4264894 2.3732092 3.583904
1.475631 2.3683381 3.5778267
1.5152663 2.3651311 3.5711603
1.5635635 2.3745551 3.586189
1.6178335 2.3785956 3.5734413
1.6940706 2.3778241 3.5912416
1.7198213 2.3702583 3.5675125
1.7743932 2.3877206 3.5767746
1.834155 2.3764534 3.5810287
1.8632824 2.3734188 3.5628166
3.7784317 2.3792667 3.5845137
3.8096478 2.3607922 3.5620527
3.7292972 2.4086359 3.5956242
3.6757362 1.9724456 3.6432858
3.7343192 1.9774847 3.6091375
3.7751284 1.986017 3.6026559
3.6791809 2.0199175 3.6424615
3.7272549 2.015497 3.617135
3.6756127 2.0725343 3.6476326
3.7211695 2.0772703 3.6234169
3.7372842 2.1237333 3.6206539
3.6746657 2.1734407 3.6493328
3.7228911 2.1673212 3.6338415
3.7611358 2.1678152 3.6017866
3.6992257 2.2382741 3.6477799
3.7200229 2.2231827 3.6284127
3.7553034 2.2292805 3.6164641
3.7226949 2.2701058 3.6344156
3.7686446 2.2751129 3.6095572
-2.2296944 2.3231375 3.6084278
-2.1651514 2.3121107 3.6191754
-2.1206999 2.3205075 3.6032176
-2.0776322 2.3203855 3.6240473
-2.021904 2.305747 3.6215007
-1.9819328 2.3302686 3.6346896
-1.9149427 2.3138452 3.6328092
-1.850119 2.3202662 3.621299
-1.8249559 2.3284869 3.647377
-1.7631803 2.3215916 3.625797
-1.720731 2.3232038 3.6288593
-1.6691792 2.3304992 3.6127305
-1.6285121 2.3318517 3.6303229
-1.5778379 2.3287816 3.6189818
-1.5288112 2.3275976 3.6100521
-1.4770576 2.3271329 3.6265962
-1.4221699 2.3421059 3.6238227
-1.3731885 2.3183222 3.6208272
-1.3216133 2.3378775 3.6241007
-1.2639821 2.3358943 3.6145124
-1.2186315 2.3268547 3.6115942
-1.1809721 2.3323097 3.6307147
-1.1250811 2.3418088 3.6164925
-1.0809065 2.3336046 3.613492
-1.023181 2.3395438 3.6364963
-0.98471004 2.3413904 3.6191559
-0.91263074 2.3347487 3.6088662
-0.87289006 2.3351419 3.6171515
-0.82713842 2.3441303 3.6259995
-0.77410746 2.3446884 3.6359866
-0.73928857 2.342756 3.6106212
-0.66975355 2.3424761 3.6206808
-0.62022829 2.3428245 3.628077
-0.55244678 2.3499882 3.6478572
-0.51684439 2.3455017 3.6311233
-0.48210779 2.3438675 3.6185942
-0.43176174 2.3433244 3.6498787
-0.37915319 2.344732 3.6158178
-0.34976527 2.3458602 3.6198606
-0.27020812 2.3398552 3.6157465
-0.22108571 2.3396072 3.6179409
-0.17178245 2.3375456 3.6167829
-0.12316094 2.3465219 3.6322281
-0.063889913 2.3415866 3.6257553
-0.024524774 2.3413997 3.6258364
0.034566186 2.3475771 3.6353436
0.13324088 2.3486652 3.6352916
0.16261777 2.3454762 3.6294451
0.23179305 2.3475356 3.6297522
0.27094901 2.345082 3.6238666
0.32028031 2.3456631 3.6216912
0.39071813 2.344717 3.6352334
0.42783099 2.3411798 3.6061525
0.45736438 2.3412771 3.6035211
0.52896369 2.3436408 3.6200616
0.55956328 2.3475738 3.6227379
0.63046694 2.3436761 3.6281385
0.6796006 2.3418701 3.6184103
0.79940945 2.3242621 3.6129458
3.7234955 2.3162775 3.6382358
3.7705054 2.3219442 3.6142464
-0.7914198 2.3501856 3.6138659
-0.71357822 2.3561263 3.6359029
-0.5288372 2.3534398 3.6148942
-0.4208383 2.3575473 3.6322122
-0.32151747 2.3556504 3.6370702
-0.2501379 2.3553309 3.6006231
-0.086778812 2.3527603 3.6159344
-0.014658523 2.3542421 3.6056199
0.024583897 2.3543799 3.6191444
0.064364821 2.3553994 3.6471608
0.12293359 2.3543613 3.6175916
0.18337213 2.3589785 3.6496193
0.20265831 2.3528023 3.6392624
0.32158208 2.3553267 3.6365709
0.37056851 2.3521256 3.6280441
0.47928932 2.3523502 3.6185884
0.58315361 2.3529754 3.6489615
0.60256392 2.3509316 3.6432934
0.94891274 2.3502684 3.6268849
0.97879034 2.3711698 3.6259067
1.276106 2.3787251 3.6385415
1.3840839 2.3675885 3.6336284
1.4264551 2.3696089 3.6238289
1.5021685 2.3710036 3.6484754
1.5866463 2.373014 3.6228192
1.6306701 2.3765805 3.6130655
1.6828351 2.3809633 3.625627
1.7197096 2.3779583 3.6305361
1.7692529 2.3762786 3.6244476
1.8201047 2.3877175 3.6244767
1.8853457 2.38025 3.6167417
1.9250202 2.3899734 3.6174452
3.6734192 2.3797777 3.6475253
3.7291305 2.3800812 3.6294518
3.7633743 2.3634622 3.6100714
3.5281944 2.4252582 3.6441145
3.64253 2.4013593 3.6492634
3.6288915 1.986006 3.6823778
3.6537607 1.9985027 3.6556678
3.6236815 2.0269628 3.682632
3.6315448 2.0667505 3.6823685
3.6619203 2.0912085 3.6740792
3.6304958 2.1336582 3.6835301
3.6818974 2.1311827 3.6620827
3.6339197 2.1713858 3.6779556
3.63569 2.2049582 3.6902225
3.6690555 2.2226219 3.6707506
3.629282 2.2918532 3.690897
3.6740944 2.2837405 3.6726613
-2.2214863 2.3269041 3.6773491
-2.1322594 2.3233027 3.6583488
-2.0752082 2.3201427 3.6794934
-2.016731 2.3243663 3.660727
-1.9542294 2.3267498 3.693522
-1.9257022 2.3183191 3.6894786
-1.881493 2.3249154 3.6685636
-1.8357252 2.3209591 3.680088
-1.7894262 2.3235567 3.6525936
-1.7262295 2.3237283 3.6777191
-1.6784934 2.3319178 3.6734695
-1.6211069 2.3302791 3.679038
-1.5729741 2.3299215 3.6628716
-1.5245686 2.3319883 3.6670074
-1.4701073 2.3282554 3.6781631
-1.4231995 2.3332398 3.670311
-1.3616937 2.3224392 3.6700037
-1.3210148 2.3370581 3.6764319
-1.2802516 2.3322306 3.664242
-1.2239293 2.335968 3.6706505
-1.1674823 2.3391752 3.6756279
-1.1314112 2.3418255 3.6740932
-1.0742851 2.3428602 3.6744068
-1.024971 2.3455737 3.6753397
-0.96850562 2.3384135 3.6790533
-0.92117286 2.344245 3.6763678
-0.87437618 2.3459585 3.6772652
-0.82191294 2.3404815 3.677696
-0.78060955 2.3476305 3.675019
-0.72904468 2.3437927 3.6769624
-0.69626111 2.3450587 3.6627662
-0.62564611 2.3432612 3.6697044
-0.55429053 2.3378456 3.6698873
-0.4669874 2.3473079 3.6666381
-0.41419864 2.3463278 3.6768465
-0.37793732 2.3430753 3.6643403
-0.32375178 2.3421917 3.6772442
-0.27308699 2.3445978 3.6635816
-0.23325975 2.3436525 3.6642327
-0.17351632 2.3415661 3.6634722
-0.12415448 2.3355947 3.6761067
-0.074478395 2.3372235 3.6755893
-0.028123705 2.3401282 3.6779308
0.0050229505 2.3459399 3.6734915
0.11109222 2.3408654 3.6779058
0.22876416 2.3422573 3.6725101
0.27338535 2.3462598 3.6662235
0.32328478 2.3477581 3.6654811
0.36442214 2.3464999 3.6811881
0.42485866 2.3459313 3.6821969
0.47450882 2.347898 3.6737802
0.52444601 2.3379929 3.6735268
0.63733947 2.3490701 3.6775355
0.68732452 2.3484049 3.6695261
0.71088517 2.3398294 3.6946101
0.95823622 2.3327725 3.6828258
1.2102309 2.3496399 3.6525357
3.6476767 2.328789 3.6960304
3.6855414 2.328824 3.6638341
-0.66843784 2.352953 3.6794188
-0.58597642 2.3547144 3.6721365
-0.53754395 2.3519747 3.6943572
-0.49723139 2.3514111 3.6977911
-0.31416422 2.3547382 3.6770105
-0.21443334 2.3549643 3.6828487
0.034929264 2.3528323 3.6841521
0.0779863 2.3554971 3.6742287
0.14441282 2.3501546 3.6779397
0.17450222 2.3530869 3.68153
0.32382163 2.3517499 3.6716726
0.43363827 2.3529372 3.6648841
0.50290084 2.3505661 3.6543498
0.58862263 2.3549044 3.6931212
0.60861909 2.3544228 3.6898563
0.66827571 2.3519819 3.6779778
0.72175789 2.3725967 3.6820505
0.75495136 2.3920343 3.6866579
0.98032284 2.3574193 3.6753502
1.0124408 2.3759127 3.6843948
1.2737057 2.372776 3.6745958
1.3158351 2.3744159 3.6655226
1.3799741 2.3678503 3.6584473
1.4292812 2.3707638 3.6716022
1.4827119 2.3772538 3.6816671
1.5272102 2.3745167 3.6780655
1.5626512 2.3753328 3.6673934
1.6126971 2.3752251 3.6656835
1.6830518 2.379441 3.6968138
1.7262372 2.3804471 3.6823077
1.7630497 2.3871646 3.6802375
1.8136115 2.3836432 3.6534126
3.587234 2.3980525 3.6865795
3.6374614 2.3698056 3.6783206
3.6779578 2.357362 3.6659124
3.712811 2.3634825 3.6537647
3.4647131 2.4157317 3.670692
3.5468295 2.4129231 3.6775792
3.5798001 2.4182827 3.6648381
3.6180294 2.4018059 3.6712155
3.5283048 1.9900889 3.7339358
3.5674047 1.9791563 3.7114351
3.5736408 2.0264978 3.7236466
3.5434167 2.0550933 3.7498281
3.5758381 2.0719838 3.7312942
3.6012135 2.0847635 3.7051148
3.5738873 2.1278081 3.7281518
3.6083453 2.1137617 3.7001963
3.54511 2.1702776 3.7493818
3.5637102 2.1865485 3.7391758
3.6001246 2.1734905 3.7132831
3.5703011 2.215641 3.7332621
3.6157665 2.2299223 3.7235606
3.5842445 2.2730229 3.7316065
3.6164451 2.2790627 3.7078545
-2.1681049 2.328434 3.7073283
-2.1158452 2.3192542 3.7139022
-2.0740108 2.3200419 3.7074442
-2.0077152 2.3172483 3.704859
-1.9764872 2.3186898 3.7216053
-1.9252276 2.3206129 3.7297316
-1.877275 2.3247142 3.7223921
-1.8276281 2.3279715 3.731514
-1.7776463 2.3284616 3.7176313
-1.7298243 2.3215809 3.7230082
-1.6723862 2.3298686 3.7260869
-1.6144769 2.3300045 3.7303119
-1.570365 2.3361952 3.7239664
-1.5253901 2.3319473 3.7312367
-1.4768304 2.3358667 3.721638
-1.4284716 2.3345866 3.7264421
-1.3749729 2.3325553 3.7386837
-1.3264309 2.3259912 3.7292719
-1.2736154 2.3371646 3.7206576
-1.2230253 2.3333149 3.7119803
-1.1871377 2.3439755 3.739502
-1.1147933 2.3434296 3.7106342
-1.072844 2.3415403 3.7171166
-1.0267625 2.3310869 3.7245443
-0.97619319 2.3313768 3.7207272
-0.87142283 2.3449852 3.7195826
-0.8077355 2.3376403 3.718627
-0.77729005 2.3377342 3.7237749
-0.72742867 2.3407443 3.7364533
-0.67426103 2.3429294 3.7262294
-0.62614363 2.3394561 3.7227283
-0.52036774 2.3450282 3.7271936
-0.46974361 2.3444796 3.7314668
