ply
format ascii 1.0
comment PCL generated
element vertex 1454
property float x
property float y
property float z
element camera 0
property float view_px
property float view_py
property float view_pz
property float x_axisx
property float x_axisy
property float x_axisz
property float y_axisx
property float y_axisy
property float y_axisz
property float z_axisx
property float z_axisy
property float z_axisz
property float focal
property float scalex
property float scaley
property float centerx
property float centery
property int viewportx
property int viewporty
property float k1
property float k2
end_header
1.0306391 -0.45518434 1.0224842
1.0654155 -0.46176529 1.0301322
1.1091576 -0.46451229 1.0027177
1.1680146 -0.46214503 1.0232143
-1.320464 -0.54840982 1.0619237
-1.2802705 -0.54270679 1.0869303
-1.1690949 -0.51597625 1.0831107
-1.1278013 -0.51144606 1.068581
-1.0926174 -0.50364947 1.068164
-0.77733558 -0.50098294 1.0655781
-1.065137 -0.49796468 1.0714512
-1.0226054 -0.49652576 1.0707818
-0.9711113 -0.49320838 1.0704429
-0.9236148 -0.49452856 1.075312
-0.87587929 -0.49436215 1.0758747
-0.82561398 -0.49580631 1.071494
-0.77272737 -0.49673966 1.0778148
-0.72094184 -0.4963806 1.0759692
-0.67355132 -0.4963339 1.0774354
-0.62505227 -0.49420899 1.077409
-0.57798713 -0.49468601 1.0735437
-0.52667147 -0.49374089 1.0752161
-0.47332048 -0.49304909 1.0736169
-0.42646998 -0.49304855 1.0720757
-0.37611911 -0.49290004 1.0731282
-0.32467702 -0.49139419 1.0729203
-0.27347454 -0.49174967 1.0747343
-0.22291544 -0.49000126 1.0750344
-0.17578286 -0.48943883 1.0742991
-0.12516466 -0.48959243 1.0762656
-0.074977338 -0.48906472 1.0736533
-0.027407361 -0.48860109 1.0747902
0.02328511 -0.48890796 1.0746676
0.073225021 -0.48782617 1.0733958
0.12558043 -0.48648235 1.0751408
0.17656876 -0.48505554 1.0742887
0.22499911 -0.4841789 1.0758249
0.27626577 -0.48287621 1.0739425
0.32596302 -0.48188055 1.0750148
0.37526208 -0.48020515 1.0725436
0.41020405 -0.4767127 1.0818911
1.1714877 -0.47192046 1.0734361
1.2276051 -0.47493911 1.0896473
-1.3321062 -0.55126071 1.1178927
-1.3085929 -0.54716837 1.1036024
-1.2065582 -0.52272832 1.1295791
-1.1642737 -0.51441413 1.1264187
-1.128518 -0.51237744 1.127534
-1.0676267 -0.50145006 1.1242253
-1.0429662 -0.50038224 1.1126719
-0.82559931 -0.50125349 1.1210976
-0.77418733 -0.50152683 1.1401496
-0.7239663 -0.50069314 1.1345958
-1.0691711 -0.4982895 1.1462183
-1.021992 -0.49705613 1.1317534
-0.97690934 -0.49637479 1.1274496
-0.92069042 -0.49338531 1.1230923
-0.8736369 -0.49678266 1.126331
-0.8268165 -0.49794757 1.1304277
-0.77813041 -0.4968113 1.1232316
-0.7278977 -0.49719724 1.1248641
-0.67457432 -0.49634284 1.1253033
-0.62261969 -0.49526921 1.1259711
-0.57605618 -0.49507421 1.1264025
-0.52733338 -0.49497265 1.1269518
-0.47740597 -0.49334168 1.123822
-0.42575139 -0.49328002 1.1244349
-0.37440366 -0.4929691 1.1219711
-0.32355532 -0.49264273 1.1247265
-0.2764062 -0.49146593 1.1221901
-0.22478758 -0.49079996 1.1254941
-0.17453994 -0.4899025 1.124494
-0.12657864 -0.48916683 1.125109
-0.075247914 -0.48910147 1.1237713
-0.026790988 -0.48839325 1.1223963
0.024119822 -0.48787323 1.120226
0.075568512 -0.48705921 1.122209
0.1247324 -0.48613906 1.1244291
0.17417184 -0.48571196 1.1251519
0.22460108 -0.48475102 1.1270238
0.27323034 -0.48348081 1.1253541
0.32442176 -0.48238578 1.1268694
0.37610915 -0.48100704 1.1256363
0.42199656 -0.47675011 1.1290054
1.1905591 -0.4717871 1.1012347
1.2205261 -0.47244859 1.1268839
1.2714852 -0.46428576 1.1314235
1.2448127 -0.43431962 1.1484978
1.2700726 -0.42895103 1.1381437
1.3069774 -0.43685478 1.139871
-1.2244812 -0.52604103 1.1638427
-1.1314155 -0.51330286 1.1787122
-1.083488 -0.5027321 1.185555
-0.87495494 -0.50127041 1.172441
-0.83691263 -0.50097853 1.1919069
-0.78958738 -0.50017464 1.1744457
-0.74965143 -0.50063467 1.1967452
-0.65816379 -0.50124532 1.1958811
-1.0635518 -0.49746761 1.180117
-1.0250989 -0.49538913 1.1753983
-0.97506756 -0.49397334 1.1773288
-0.92478335 -0.49660265 1.1785886
-0.87017405 -0.49747494 1.1724049
-0.82316202 -0.49747133 1.1641779
-0.77546698 -0.49682358 1.1745746
-0.72453153 -0.49687153 1.1675091
-0.67576963 -0.49625388 1.1734436
-0.62495744 -0.49636179 1.1733407
-0.57120126 -0.49538919 1.1776153
-0.52319634 -0.4945043 1.1739335
-0.47719574 -0.49358863 1.174648
-0.4243136 -0.49334726 1.1772922
-0.37499306 -0.49368179 1.1717193
-0.32449922 -0.49248591 1.1764749
-0.27504492 -0.49175379 1.1720656
-0.22572882 -0.49055609 1.1741798
-0.1746906 -0.48916945 1.1732645
-0.12491165 -0.4894596 1.1762058
-0.074616238 -0.48865891 1.1748891
-0.0244911 -0.48821017 1.174777
0.025119491 -0.4873119 1.1725875
0.07499446 -0.48693427 1.1749874
0.12577964 -0.4858298 1.1730689
0.17664987 -0.48532891 1.1712397
0.2241012 -0.48486698 1.1756086
0.27539441 -0.4831492 1.1747823
0.32274032 -0.48185888 1.1707306
0.3748771 -0.48045611 1.1784102
0.42358294 -0.47742072 1.1748958
0.4629468 -0.47282755 1.1815124
1.1920907 -0.46339875 1.1859082
1.2230029 -0.4606213 1.168676
1.2614719 -0.45977658 1.1574025
1.0919127 -0.41759729 1.1941882
1.1360353 -0.43519935 1.1959882
1.1767074 -0.42651674 1.185889
1.2229717 -0.42407045 1.1634426
-1.2407241 -0.53192145 1.2121469
-1.1616948 -0.51485038 1.2068133
-1.1295496 -0.51022184 1.2237521
-1.0742553 -0.50324959 1.2281532
-0.95396763 -0.50346541 1.2491505
-0.91615152 -0.50234747 1.2394962
-0.87076998 -0.50107479 1.220744
-0.82819098 -0.50103199 1.220866
-0.77012277 -0.50056601 1.2100565
-0.73252326 -0.5005036 1.2047174
-0.6401183 -0.50050747 1.2338463
-1.06031 -0.49639031 1.2331767
-1.0265087 -0.49667576 1.2223437
-0.97166705 -0.49364111 1.2158641
-0.93620032 -0.49763584 1.2195358
-0.87834698 -0.49778411 1.2232021
-0.82570332 -0.49812728 1.2229658
-0.77828717 -0.49783283 1.2272922
-0.72277576 -0.49620208 1.2237508
-0.67486238 -0.49638027 1.2270875
-0.62109673 -0.49646312 1.2216121
-0.57762372 -0.49527964 1.2290142
-0.52482313 -0.49516854 1.2254801
-0.47322041 -0.49473816 1.2264575
-0.4254171 -0.49448431 1.2260395
-0.37540355 -0.49412489 1.2259554
-0.32602307 -0.49272043 1.2256745
-0.27363843 -0.49143568 1.2221838
-0.22481824 -0.49101594 1.2235807
-0.17600508 -0.48969787 1.2273086
-0.12226897 -0.48848152 1.2251879
-0.075533435 -0.48710033 1.2286004
-0.026593853 -0.48688692 1.2268658
0.021867435 -0.48622674 1.2233214
0.074027985 -0.48535112 1.2223356
0.12454926 -0.48547098 1.2224938
0.17470983 -0.48459816 1.2223544
0.2259599 -0.48384294 1.2249887
0.27487332 -0.48226163 1.2261089
0.32688218 -0.48091283 1.222213
0.37413117 -0.47896448 1.2263912
0.42550817 -0.47771499 1.2293293
0.47311285 -0.47395965 1.2253097
0.50900656 -0.46840993 1.2276161
1.1698949 -0.45729348 1.2053584
1.1275079 -0.41681838 1.2046225
1.1543078 -0.40528572 1.2035615
1.1071014 -0.39798799 1.2032609
1.6399376 0.52991611 1.2454438
1.6379353 0.57378107 1.2360878
1.6393368 0.62292862 1.2408936
1.6431046 0.66714144 1.244241
-1.1256143 -0.50821072 1.275016
-1.0769225 -0.50283891 1.2754453
-1.023386 -0.50261807 1.2784953
-0.97485304 -0.50194204 1.2757233
-0.91841274 -0.50049907 1.2699636
-0.87242365 -0.50117308 1.2769926
-0.8246848 -0.50142276 1.2738334
-0.79190147 -0.50026 1.273374
-0.61956632 -0.50032318 1.2859664
-0.59442705 -0.50004292 1.2826594
-1.0577903 -0.49655288 1.2720777
-1.0214573 -0.49748355 1.2692884
-0.9679516 -0.49834934 1.271619
-0.92052126 -0.49889889 1.2699465
-0.892542 -0.4986183 1.2830658
-0.82651788 -0.49781385 1.2715771
-0.77538878 -0.49764261 1.2728189
-0.72848171 -0.49735975 1.2786571
-0.67758572 -0.49696356 1.2740191
-0.62784374 -0.49567586 1.2696621
-0.5727756 -0.49490994 1.2792777
-0.52674115 -0.49551922 1.2710134
-0.47561318 -0.49534684 1.2740017
-0.42713222 -0.49460176 1.2735054
-0.37733847 -0.49278677 1.2752417
-0.32367948 -0.49266544 1.2752479
-0.27499846 -0.49145994 1.2750071
-0.2253591 -0.49032062 1.274278
-0.17249902 -0.48921102 1.2761452
-0.12541178 -0.48767567 1.2737703
-0.074652836 -0.48595265 1.2712388
-0.026535675 -0.48571754 1.2751769
0.024725361 -0.48631489 1.2713964
0.075052336 -0.48513606 1.2772201
0.12613678 -0.48519361 1.2746055
0.17489317 -0.48335823 1.270418
0.22673632 -0.48254669 1.2758914
0.27527899 -0.48190081 1.2746841
0.32320234 -0.48026115 1.2763842
0.3738398 -0.47835678 1.2783711
0.42581317 -0.47601667 1.2780505
0.47723669 -0.47423103 1.2768927
0.52073979 -0.47081408 1.2742443
0.57043046 -0.46440792 1.2811838
0.61300081 -0.45998755 1.2910807
1.6427567 0.49137315 1.2765585
1.6414605 0.52614015 1.2753065
1.643353 0.57994086 1.2747121
1.6517118 0.55733472 1.2990301
1.6437966 0.62785709 1.2752401
1.6505264 0.60840064 1.298586
1.6407677 0.67542356 1.2715628
1.6450951 0.72560394 1.2805248
1.6429994 0.77349466 1.2844924
1.6457396 0.82137078 1.2946755
-1.766623 -0.58946496 1.3349344
-1.7301173 -0.58793306 1.3429942
-1.7501742 -0.546422 1.3278959
-1.741098 -0.53369147 1.3238904
-1.1208217 -0.50575328 1.3271301
-1.0797035 -0.50438929 1.3321885
-1.0119747 -0.50265849 1.322118
-0.97370577 -0.50490367 1.3267421
-0.9282642 -0.50430387 1.3331344
-0.86811548 -0.50215143 1.3234941
-0.82327169 -0.50069112 1.3128606
-0.76644713 -0.500911 1.3269209
-0.72374177 -0.50041872 1.3305825
-1.0657191 -0.49782521 1.3148454
-1.0274389 -0.49865499 1.3162262
-0.97521675 -0.4977811 1.3067529
-0.93227041 -0.49887601 1.3054781
-0.88226956 -0.49864921 1.3178536
-0.82159168 -0.49720654 1.3201119
-0.77614909 -0.49753937 1.3225433
-0.72082388 -0.49651161 1.327041
-0.67158574 -0.49577287 1.3216847
-0.62454134 -0.49546111 1.3199073
-0.57500273 -0.49581409 1.330247
-0.52106076 -0.49465537 1.3174714
-0.47545993 -0.49492031 1.3206239
-0.42527509 -0.49382547 1.325606
-0.37423924 -0.49296653 1.3228023
-0.32577911 -0.49106383 1.3252628
-0.27758428 -0.4911842 1.333191
-0.22454104 -0.4888362 1.3257097
-0.17555612 -0.48813975 1.3266745
-0.12418543 -0.48623005 1.3194807
-0.076594494 -0.48587877 1.321023
-0.024330804 -0.4847478 1.3222471
0.025643023 -0.48416668 1.3268976
0.075283587 -0.48298484 1.3259432
0.12601453 -0.4821091 1.3239082
0.17607945 -0.48282692 1.321946
0.22594623 -0.48131242 1.3276731
0.27585751 -0.48005381 1.3217702
0.32702211 -0.47722289 1.3229308
0.37393221 -0.47638741 1.3224759
0.42670307 -0.47454888 1.3211398
0.47586638 -0.47317314 1.3247519
0.52419156 -0.47064608 1.3208115
0.57747877 -0.46877769 1.3255196
0.62701303 -0.4645237 1.330561
0.67447889 -0.46243009 1.327317
1.6489835 0.49892035 1.3146739
1.6566037 0.49302495 1.3321464
1.6452184 0.51997322 1.3160797
1.653371 0.54337442 1.3319197
1.6441712 0.56760627 1.3066412
1.6597598 0.57632208 1.3360494
1.6458093 0.62471509 1.306408
1.6557945 0.62938136 1.3261627
1.6478748 0.67115098 1.3154439
1.6554102 0.68044639 1.3240998
1.6470939 0.72079194 1.3075643
1.6594766 0.73546004 1.3323594
1.6434677 0.77554238 1.3073171
1.6547519 0.76544142 1.324708
1.6453925 0.82448125 1.3117129
1.658162 0.82664299 1.3397542
1.64566 0.87824124 1.3193985
1.6547508 0.87681937 1.3376304
1.645943 0.92043012 1.3353448
1.6449748 0.96434194 1.3424946
-1.7771487 -0.57973748 1.3715076
-1.7217515 -0.59198511 1.37116
-1.8048571 -0.54297566 1.3753113
-1.7876635 -0.54600424 1.3782887
-1.2229221 -0.52462256 1.3740991
-1.1502542 -0.50889117 1.3759922
-1.1257802 -0.5086816 1.3856808
-1.0721685 -0.50677395 1.373747
-1.0128106 -0.50771219 1.376953
-0.97102046 -0.50529397 1.3783875
-0.92349499 -0.50265998 1.377118
-0.87602979 -0.50408721 1.3702368
-0.82907361 -0.50227821 1.3777553
-0.79005015 -0.50234568 1.3898687
-0.72305197 -0.50051421 1.3838458
-0.64630932 -0.50067276 1.3864437
-0.85840428 -0.49821237 1.3802247
-0.83220357 -0.498184 1.3754191
-0.77236634 -0.49780235 1.3679823
-0.73169982 -0.49677533 1.3787334
-0.67324364 -0.49664629 1.3757428
-0.6173476 -0.49589586 1.3683578
-0.57551837 -0.49605763 1.3756638
-0.52762216 -0.49510771 1.3724133
-0.48027661 -0.49513051 1.3730848
-0.42478257 -0.49396691 1.3706695
-0.37455401 -0.49232608 1.3698847
-0.32775956 -0.49147499 1.3802726
-0.27675691 -0.48777384 1.3756938
-0.22502154 -0.48710805 1.3753097
-0.17364131 -0.48606238 1.3759904
-0.12514703 -0.48472321 1.3751185
-0.072196491 -0.48312885 1.3713396
-0.025186965 -0.48226553 1.3731966
0.024049439 -0.47989887 1.3727164
0.076945074 -0.48003718 1.3776498
0.12379074 -0.4792406 1.3748286
0.17533202 -0.47962728 1.3742044
0.22451146 -0.47823036 1.3733983
0.27267063 -0.47733405 1.3683565
0.32274988 -0.47663003 1.3711418
0.37428701 -0.4751927 1.3722253
0.42334038 -0.47409427 1.3711182
0.47568816 -0.47319627 1.3759862
0.52503419 -0.47108689 1.3713852
0.57089078 -0.46955189 1.3744277
0.62378591 -0.46807432 1.3764764
0.67624646 -0.46677557 1.3742479
0.72308517 -0.46237528 1.3778555
0.76045477 -0.46018618 1.3972305
1.5693376 -0.48636952 1.3912988
1.6047804 -0.4816983 1.3900411
1.6628722 0.52363729 1.3557968
1.6657878 0.8329311 1.3545946
1.657724 0.87734103 1.3553016
1.6552131 0.92520076 1.3596973
1.6426078 0.97585297 1.3542331
1.6539555 0.95091403 1.3658992
1.6480511 1.0224315 1.3697884
1.6416084 1.1082898 1.3948224
-1.8829249 -0.55575806 1.4378182
-1.8167803 -0.56760943 1.425617
-1.7815346 -0.58162606 1.421689
-1.7398087 -0.5933429 1.4273918
-1.8847014 -0.54556841 1.4421467
-1.2084098 -0.52205181 1.4316152
-1.1565508 -0.51071942 1.4184937
-1.1236749 -0.50650203 1.4223632
-1.0664638 -0.5069052 1.4169359
-1.0224068 -0.50773013 1.425881
-0.97317576 -0.50563049 1.4366285
-0.92066902 -0.50439173 1.4217632
-0.88029933 -0.50372833 1.4241333
-0.82558537 -0.50224376 1.4213769
-0.78089911 -0.5019145 1.4209553
-0.72796398 -0.50109375 1.4321626
-0.6238364 -0.50114304 1.4345959
-0.8256982 -0.49817759 1.429992
-0.78262466 -0.49762201 1.4271359
-0.72284687 -0.49722016 1.4173667
-0.67427039 -0.49685973 1.4223571
-0.62383473 -0.4976711 1.4231682
-0.57242364 -0.49608526 1.4251896
-0.5256573 -0.49562743 1.424619
-0.47558039 -0.49515325 1.4186251
-0.42889744 -0.49465987 1.4248079
-0.3761571 -0.49306527 1.421218
-0.32588613 -0.49063045 1.4215945
-0.27458945 -0.48797446 1.426353
-0.22453921 -0.4853462 1.4202427
-0.17493771 -0.48409766 1.4212645
-0.1229872 -0.48270556 1.4279608
-0.074553281 -0.48116234 1.4245867
-0.02643173 -0.48004451 1.4277576
0.023710288 -0.47936478 1.4257569
0.069448747 -0.47929615 1.4293708
0.12394023 -0.47867671 1.4276793
0.17399661 -0.47846174 1.4263985
0.22445552 -0.47789842 1.4262402
0.27612603 -0.47771072 1.4229409
0.32227448 -0.47675419 1.423442
0.37544087 -0.47567332 1.4260778
0.42503956 -0.47327125 1.4247545
0.47284651 -0.47219113 1.4257665
0.52552861 -0.47024918 1.4219797
0.57937688 -0.47011599 1.4223959
0.62445641 -0.46829316 1.4207202
0.67219609 -0.46714553 1.4152789
0.72335529 -0.46693188 1.4235188
0.77923971 -0.46300864 1.4350752
1.544614 -0.48769006 1.4220939
1.5758016 -0.48713773 1.4348789
1.6033815 -0.48569554 1.415485
1.6408373 1.1302435 1.4207336
1.6337337 1.1727384 1.4284008
1.6333097 1.2258825 1.4402585
1.630721 1.264034 1.4490404
-1.8742148 -0.56303948 1.4772835
-1.8199644 -0.57794058 1.4643881
-1.7755567 -0.58453608 1.4770467
-1.7263989 -0.59083003 1.4726067
-1.6868806 -0.58798206 1.4948446
-1.9214444 -0.52864313 1.4850661
-1.887849 -0.5496394 1.463187
-1.1701843 -0.51962286 1.4880186
-1.1217 -0.51292115 1.4822655
-1.0813407 -0.51146352 1.4698718
-1.0303017 -0.51054764 1.4728065
-0.96821386 -0.50691122 1.4728799
-0.92366016 -0.50629175 1.4722319
-0.87500721 -0.50397712 1.4793047
-0.82453281 -0.5016712 1.4731483
-0.77107334 -0.50155789 1.4700963
-0.72862667 -0.50186896 1.4788039
-0.68210566 -0.5011766 1.470289
-0.51467079 -0.50126421 1.4787569
-1.9293764 -0.48719949 1.494838
-0.81644201 -0.49889851 1.485979
-0.77062565 -0.49800265 1.4807997
-0.72725707 -0.49917996 1.4910221
-0.67509812 -0.49647155 1.4737065
-0.62694257 -0.49613813 1.4739357
-0.57251519 -0.49516881 1.4728245
-0.52695161 -0.49494994 1.4744811
-0.47672525 -0.49498656 1.4712573
-0.42178586 -0.49573195 1.4773022
-0.37296519 -0.49225736 1.4693565
-0.32682124 -0.48939303 1.4740332
-0.27532089 -0.48955649 1.4787519
-0.22549537 -0.48549873 1.4701718
-0.17331541 -0.48294723 1.4719445
-0.12821306 -0.48198232 1.4677762
-0.076796308 -0.47919732 1.4734863
-0.028308865 -0.47881964 1.4800123
0.022748642 -0.47813615 1.4779691
0.076885805 -0.47813675 1.4746629
0.12602477 -0.47723404 1.4716526
0.17616224 -0.47859037 1.4740486
0.22300927 -0.47692573 1.4673243
0.27342287 -0.47639421 1.4719409
0.32458869 -0.47565523 1.4739602
0.37812126 -0.47427067 1.4746405
0.42103672 -0.47251943 1.4729527
0.47474396 -0.47070169 1.4764682
0.52559811 -0.47000957 1.4732946
0.57346779 -0.46892032 1.4731743
0.62548774 -0.46804672 1.4672662
0.67592007 -0.46693981 1.4695547
0.72661662 -0.46656039 1.4671952
0.77426428 -0.46452704 1.4753443
0.82400066 -0.4627946 1.4821945
1.4920224 -0.47670463 1.4639063
1.5189149 -0.47892591 1.4784476
1.5734525 -0.48671222 1.4802086
1.6326687 -0.482375 1.4783764
1.6686922 -0.46465227 1.4746032
1.481894 -0.40842333 1.4801323
1.5107766 -0.42341018 1.4884782
1.6748631 -0.42380628 1.472998
1.4865786 -0.3913826 1.4829615
1.5298233 -0.38110337 1.4902533
1.6728556 -0.37519386 1.4732496
1.7023834 -0.38352787 1.4680953
1.6715927 -0.3255817 1.470665
1.6716399 -0.27703449 1.4747624
1.6393883 1.176946 1.4754988
1.6525229 1.1562558 1.47129
1.6325355 1.2240621 1.4756532
1.6302452 1.2737983 1.4703779
1.635488 1.322992 1.4858773
1.635042 1.3598459 1.493172
-1.9044349 -0.55316973 1.5370798
-1.8768948 -0.56574076 1.5206128
-1.8334974 -0.57775462 1.5273212
-1.7728046 -0.58642524 1.5248146
-1.7236137 -0.58841628 1.5211242
-1.6822588 -0.59369493 1.5289166
-1.9195402 -0.52847153 1.5239607
-1.1716408 -0.5173161 1.518181
-1.1181227 -0.51551861 1.5298735
-1.0657839 -0.51192993 1.5189447
-1.0254315 -0.51294684 1.5243877
-0.96527833 -0.50946653 1.5298105
-0.91850251 -0.50689274 1.5277262
-0.87990665 -0.50490868 1.5230501
-0.82277727 -0.50294912 1.530355
-0.78707516 -0.50268888 1.5275676
-0.70486724 -0.50017989 1.5024462
-0.66599888 -0.50083053 1.517616
-0.62876922 -0.50287104 1.5360639
-0.58699054 -0.5012964 1.542511
-0.54336178 -0.5020479 1.5281255
-0.48326233 -0.50077415 1.5381227
-1.9311291 -0.47367689 1.5246671
-0.92002207 -0.49887085 1.54072
-0.8640064 -0.4994252 1.5331497
-0.82404375 -0.4979206 1.5193181
-0.77220756 -0.49787319 1.5208889
-0.72847563 -0.496822 1.5201224
-0.66526484 -0.49763381 1.5314316
-0.62567729 -0.49742582 1.5292386
-0.57140481 -0.4970541 1.5202044
-0.52439934 -0.49664795 1.5304027
-0.47408834 -0.49606967 1.5275277
-0.42806926 -0.49418682 1.52634
-0.37937865 -0.49195555 1.5259949
-0.32523605 -0.48960847 1.5212021
-0.27537817 -0.48710349 1.5261914
-0.22221108 -0.48444921 1.5219603
-0.17676584 -0.48309913 1.5264864
-0.12445881 -0.48015371 1.5193774
-0.073354967 -0.47776935 1.5279945
-0.022096865 -0.47449225 1.5263116
0.022916436 -0.47588387 1.525578
0.074043579 -0.47470635 1.5199975
0.12480015 -0.47586522 1.5233622
0.17278609 -0.47550094 1.521342
0.22475493 -0.47579759 1.5247157
0.27472958 -0.47616616 1.5273226
0.32748005 -0.47536683 1.5295427
0.37526178 -0.47414616 1.5257007
0.42777601 -0.47135252 1.526957
0.47537485 -0.47090775 1.5316188
0.52303916 -0.47039133 1.5246161
0.57679355 -0.46833843 1.5331821
0.62290204 -0.46763697 1.5220912
0.67903644 -0.46690959 1.5301734
0.72490686 -0.46685907 1.5204915
0.76937532 -0.46395853 1.5240451
0.82347262 -0.46425837 1.5283842
0.87208182 -0.46819684 1.5462459
1.5246508 -0.47004104 1.5158498
1.5823786 -0.48258081 1.5098066
1.6300009 -0.48192823 1.5164871
1.6767281 -0.46342981 1.5368088
-1.9362532 -0.42701986 1.5232856
1.5012761 -0.44410631 1.5013933
1.6476336 -0.42830667 1.5414072
1.6694559 -0.42696753 1.5225065
-1.9373984 -0.37699416 1.5344148
1.4918222 -0.38367993 1.5056798
1.5071138 -0.37547514 1.5051084
1.6691672 -0.37633342 1.5253111
-1.9354193 -0.32365263 1.5333412
1.6678742 -0.32409784 1.5246848
-1.9392303 -0.27464819 1.5439105
1.6730678 -0.27974486 1.5179492
-1.9324741 -0.2242527 1.5448558
-1.92729 -0.13044181 1.5491992
-1.9214029 -0.03166179 1.5484539
-1.9189947 0.077560619 1.5448967
-1.9202409 0.12680438 1.5431674
-1.918987 0.17039956 1.5386455
1.6427052 1.1877601 1.5158193
1.6620684 1.1865386 1.5377561
1.638435 1.2281454 1.5298719
1.6379285 1.2760154 1.5219339
1.6347446 1.3246505 1.5225711
1.6305139 1.3754431 1.5250075
1.6338786 1.4279792 1.5376816
1.637565 1.4822812 1.547558
-1.8766012 -0.56040609 1.5723648
-1.8265191 -0.57384413 1.5740523
-1.7790978 -0.58517003 1.5744852
-1.7289617 -0.59314853 1.5716251
-1.6957731 -0.59538662 1.5838253
-1.9200355 -0.5257054 1.5744724
-1.2232251 -0.52476716 1.5608062
-1.1826869 -0.51913565 1.5614518
-1.1181688 -0.519131 1.5790811
-1.0810534 -0.51558197 1.5746019
-1.0156246 -0.51297766 1.5692383
-0.98338377 -0.51076734 1.572583
-0.92397177 -0.50683802 1.5701565
-0.86969966 -0.50415707 1.5702208
-0.82580978 -0.50224316 1.573107
-0.7766881 -0.5042277 1.5808574
-0.72784859 -0.50338674 1.5727168
-0.68953967 -0.50284523 1.5675073
-0.6284129 -0.50096524 1.5590954
-0.57418823 -0.50153589 1.5686426
-1.9320709 -0.47783163 1.5741558
-0.80419016 -0.49851292 1.5540484
-0.79933584 -0.49753714 1.585706
-0.71359766 -0.49748421 1.5666615
-0.67454308 -0.49672565 1.5786005
-0.62514025 -0.49674508 1.5755156
-0.58128524 -0.49713978 1.577637
-0.52286732 -0.49590746 1.5722983
-0.47227627 -0.49531248 1.568979
-0.42433 -0.49325976 1.5779516
-0.37637594 -0.48943564 1.5766786
-0.32530007 -0.48920712 1.5720667
-0.27915424 -0.48558539 1.5798399
-0.22512779 -0.4821181 1.5757101
-0.17009735 -0.48246607 1.5733147
-0.12632337 -0.47817591 1.5800551
-0.073888324 -0.4760198 1.5771215
-0.027064467 -0.47264132 1.5786403
0.023757197 -0.47283801 1.5761251
0.077374309 -0.47255072 1.5709082
0.12311435 -0.47247237 1.5698889
0.1760731 -0.47199371 1.5700595
0.22710022 -0.47057536 1.570827
0.27736586 -0.47389457 1.5758538
0.32829994 -0.47294697 1.578306
0.37578627 -0.47117299 1.5798256
0.42392579 -0.4699297 1.5746353
0.4736746 -0.46780777 1.5777745
0.52481014 -0.46686116 1.5686413
0.57782477 -0.46804872 1.5811646
0.62609619 -0.46658117 1.5768837
0.67463374 -0.46459559 1.5825621
0.73012716 -0.46609193 1.5790958
0.77858329 -0.46306637 1.5781679
0.8256796 -0.46395445 1.573272
0.86681956 -0.46495968 1.5643295
1.6698496 -0.47548324 1.5517881
-1.9356314 -0.42905939 1.5728604
1.6582 -0.40945068 1.5642334
-1.9380308 -0.37424833 1.573296
1.6635461 -0.37633279 1.5737492
-1.9371636 -0.32387179 1.5768272
1.6667001 -0.3269704 1.5673916
-1.9353528 -0.27486011 1.5757438
-1.9363683 -0.22666353 1.5781013
-1.9368858 -0.17619978 1.5735565
-1.9338533 -0.12570044 1.5767994
-1.9311076 -0.076247647 1.5752182
-1.9275719 -0.0259811 1.5754218
-1.9269286 0.023164283 1.5729827
-1.9188167 0.075707525 1.5737973
-1.9190074 0.12472042 1.5735184
-1.9144311 0.17189409 1.5749965
1.6442313 1.2366729 1.5703772
1.6531878 1.2200246 1.5804735
1.6338058 1.2705289 1.5730507
1.6353849 1.3252846 1.5746239
1.6363344 1.3817897 1.5741076
1.6345137 1.4262313 1.5800105
1.6355413 1.4733187 1.5776383
1.6346068 1.5171876 1.5789766
1.6395411 1.5652421 1.5917375
-1.9040637 -0.55170894 1.6001726
-1.8723855 -0.55693102 1.6263093
-1.8310575 -0.57005638 1.6243744
-1.7788935 -0.58080262 1.6238641
-1.7267786 -0.59002054 1.6224632
-1.6807507 -0.59686923 1.6200949
-1.6471461 -0.59521812 1.6263915
-1.9170108 -0.52529103 1.6264238
-1.2087049 -0.52942008 1.6350015
-1.169636 -0.522542 1.6275157
-1.1255794 -0.52229774 1.608983
-1.0245664 -0.51457876 1.6162812
-0.97276247 -0.51304519 1.6244805
-0.92677832 -0.51047188 1.6196214
-0.86856759 -0.50553387 1.6246866
-0.82375216 -0.50456643 1.6322652
-0.77470887 -0.50241715 1.6172788
-0.72548401 -0.50485933 1.638689
-0.68832541 -0.50288069 1.6233482
-0.63459367 -0.50251216 1.6246663
-0.57098567 -0.50224102 1.6248527
-0.49292061 -0.50314051 1.6304351
-1.9318376 -0.47468543 1.6222568
-0.78962719 -0.49897271 1.6291033
-0.6289832 -0.49785417 1.627296
-0.5780735 -0.49688625 1.6274192
-0.52481967 -0.49791312 1.6235958
-0.47510996 -0.49682599 1.6304804
-0.42569464 -0.49219063 1.6249657
-0.37230727 -0.48753473 1.6206025
-0.33041432 -0.48777413 1.6234313
-0.2778829 -0.48113424 1.6195103
-0.22701839 -0.48204368 1.6247557
-0.17967762 -0.48182094 1.6233373
-0.12111075 -0.47519371 1.6226776
-0.075896196 -0.47431394 1.6266528
-0.025024403 -0.4692336 1.6206324
0.02987529 -0.4719941 1.6272045
0.073143549 -0.47146937 1.625807
0.12440457 -0.47046655 1.6188819
0.17594773 -0.47129744 1.6271266
0.22237235 -0.47398838 1.6299976
0.27380952 -0.47172725 1.6241641
0.31868219 -0.47318882 1.628328
0.37671155 -0.47037679 1.6311153
0.42806658 -0.46648839 1.6207067
0.47654876 -0.46734455 1.6212721
0.52616292 -0.46632221 1.6266702
0.57262343 -0.46437994 1.6201422
0.6293934 -0.46272108 1.624462
0.6751231 -0.46251106 1.6293304
0.72509587 -0.46208447 1.6193352
0.77596033 -0.46087566 1.618065
0.8267616 -0.46043545 1.6269801
0.87316293 -0.46462464 1.6128929
0.91173589 -0.46880192 1.6364825
-1.9364704 -0.42238826 1.6229603
-1.9365829 -0.38064414 1.6230465
1.644951 -0.39547217 1.6156062
1.66064 -0.3780157 1.6228219
-1.9369198 -0.32688707 1.6265986
-1.9356918 -0.27423817 1.6273228
-1.9364318 -0.22690189 1.6245251
-1.9361223 -0.1731282 1.6245228
-1.9312971 -0.12239487 1.6283324
-1.9281802 -0.074759744 1.6227585
-1.9257342 -0.024697747 1.6292588
-1.9234639 0.022357255 1.6238812
-1.9207276 0.075483017 1.6207575
-1.9176718 0.12382142 1.6209396
-1.9159313 0.17447291 1.6272761
1.6432408 1.2489094 1.6000223
1.6409092 1.285993 1.626271
1.6589977 1.269784 1.6363063
1.6331904 1.3247373 1.6207801
1.6339743 1.3748668 1.6158462
1.63379 1.4218524 1.6257347
1.6346267 1.4742557 1.6266947
1.6317537 1.5235503 1.6250621
1.6334883 1.5777713 1.6204817
1.6348213 1.6260264 1.632032
1.6292874 1.6591668 1.6411963
-1.9013388 -0.55287266 1.6844804
-1.867752 -0.56469709 1.6779069
-1.8137207 -0.57697546 1.6717261
-1.774341 -0.58582401 1.679693
-1.7228013 -0.59267658 1.6828821
-1.6828454 -0.59547812 1.6709739
-1.6208266 -0.58862394 1.6731615
-1.5960732 -0.58940864 1.6976314
-1.9185053 -0.52150714 1.6724408
-1.8998038 -0.54906726 1.6619632
-1.2418762 -0.53007376 1.6634767
-1.1723665 -0.52491307 1.680742
-1.0562817 -0.51970065 1.6758299
-1.0412544 -0.52147305 1.670153
-0.96734351 -0.51258403 1.6741824
-0.93222934 -0.51156902 1.6758384
-0.87494379 -0.507963 1.6735679
-0.82468218 -0.50660986 1.6818405
-0.77505016 -0.50397617 1.6729671
-0.72652864 -0.50454831 1.6771194
-0.67137957 -0.50497627 1.682695
-0.61667418 -0.50268924 1.6790624
-0.57588154 -0.50028098 1.6969436
-0.51763791 -0.50263172 1.6857916
-1.931922 -0.47336489 1.6764076
-0.71669716 -0.49921766 1.6659952
-0.67008102 -0.49750996 1.6963366
-0.6225183 -0.49961323 1.6828465
-0.57448751 -0.49831635 1.6572489
-0.52670228 -0.49647242 1.677928
-0.47432014 -0.49426064 1.6693748
-0.4258095 -0.49070272 1.6770148
-0.38141671 -0.48480606 1.6650383
-0.32743061 -0.48482144 1.6726367
-0.2718761 -0.48259631 1.6700789
-0.22410287 -0.48149589 1.6724052
-0.17452298 -0.47899389 1.6675735
-0.12747914 -0.47420081 1.670216
-0.079618894 -0.47034723 1.667156
-0.0252429 -0.46738598 1.6769991
0.018492373 -0.46927184 1.6766703
0.071578592 -0.47183129 1.672729
0.12803967 -0.4692255 1.6675191
0.17079887 -0.46963686 1.6724992
0.22000229 -0.47214237 1.6782936
0.27533215 -0.47277004 1.678149
0.32758337 -0.46961367 1.6757865
0.37262827 -0.46948212 1.675854
0.42213711 -0.46673816 1.6771854
0.47744566 -0.46762127 1.6769636
0.52143103 -0.46434304 1.6728401
0.58304334 -0.46393386 1.672861
0.62620693 -0.46038458 1.6744384
0.67473841 -0.46255755 1.6743244
0.72184688 -0.4619267 1.6743615
0.77447462 -0.46175542 1.6742592
0.82186377 -0.45883694 1.6701689
0.88069749 -0.46566117 1.6704553
0.92484796 -0.46777013 1.6772057
-1.9332561 -0.42545778 1.6717522
-1.9379334 -0.37080154 1.6750915
-1.9352144 -0.32577515 1.6713814
0.99553126 -0.31867564 1.6997885
-1.9345294 -0.2759071 1.675891
-1.9347612 -0.22228204 1.6727613
-1.9334332 -0.17552127 1.674491
-1.9294349 -0.12566392 1.6762207
-1.9310275 -0.071336612 1.6768432
-1.9257673 -0.029630154 1.6793998
-1.9251834 0.024497023 1.6761192
-1.9207302 0.073063768 1.6713681
-1.9179406 0.12836385 1.6769714
-1.9179723 0.1766917 1.6707259
1.6455199 1.289342 1.6579602
1.6580949 1.2781153 1.6566265
1.6436862 1.3258058 1.6732146
1.6395301 1.3759183 1.679904
1.6344584 1.4220178 1.6703237
1.6328622 1.4700557 1.6697397
1.6303512 1.5240402 1.6776322
1.6304016 1.5730265 1.673618
1.6328446 1.6260067 1.6752055
1.6285796 1.677726 1.6727831
1.6332589 1.7343048 1.6770698
1.6367693 1.7714801 1.6990638
-1.9074686 -0.55393338 1.7237757
-1.8742931 -0.5609715 1.7226431
-1.8287677 -0.57426471 1.7174867
-1.7853125 -0.58376098 1.7250304
-1.739625 -0.59211785 1.7289399
-1.6788315 -0.59661001 1.7260023
-1.6189246 -0.59057033 1.72402
-1.5444927 -0.58214623 1.7020707
-1.9190009 -0.52415776 1.7229526
-1.3129735 -0.54597646 1.741533
-1.2756959 -0.5339222 1.7278631
-1.2154799 -0.52573586 1.7059619
-1.0576395 -0.51790893 1.7095078
-1.020879 -0.51836681 1.7284646
-0.97464806 -0.51475185 1.7335485
-0.91932547 -0.50922072 1.7333305
-0.87574631 -0.50778991 1.7115914
-0.82672358 -0.50708288 1.7256657
-0.78407288 -0.50673497 1.7241131
-0.7160911 -0.50341374 1.7173878
-0.66930711 -0.50441545 1.7227287
-0.62643194 -0.50393081 1.7206713
-0.57689458 -0.50201082 1.7142925
-0.53873974 -0.50125527 1.7427976
-0.47746184 -0.50114632 1.721168
-1.9325218 -0.4750317 1.7267846
-0.61150086 -0.49960184 1.7197586
-0.56941748 -0.49731767 1.7213155
-0.51787341 -0.49823639 1.7192838
-0.47789064 -0.49510959 1.7240123
-0.43047535 -0.49126241 1.7212852
-0.37033194 -0.48693365 1.7247214
-0.3274329 -0.48356175 1.7305816
-0.27506015 -0.48179713 1.7302574
-0.22740786 -0.48027739 1.7294012
-0.17413272 -0.47888851 1.7270198
-0.12611042 -0.47411108 1.7179312
-0.072777197 -0.47284323 1.7210563
-0.034946907 -0.4667232 1.7252314
0.028467331 -0.46699819 1.7231404
0.073148973 -0.47141114 1.7193383
0.1271953 -0.47091681 1.729131
0.17954059 -0.46968788 1.7229118
0.22901726 -0.47066945 1.7282147
0.2744568 -0.47071108 1.7224537
0.32166132 -0.4697395 1.7299087
0.37967068 -0.46890581 1.7302268
0.42149067 -0.46782851 1.7252779
0.47218052 -0.46609607 1.7191758
0.52755648 -0.46324596 1.7252325
0.57090706 -0.46336234 1.7217317
0.61820394 -0.4605166 1.7162116
0.67820758 -0.46179566 1.7195032
0.72847033 -0.46319559 1.7271646
0.78231305 -0.46214056 1.7190657
0.81856352 -0.462782 1.7231098
0.87312222 -0.45998669 1.7048591
0.92784506 -0.4670814 1.7150937
0.97149384 -0.47310862 1.7329029
-1.9342725 -0.42492598 1.7247317
-1.9355316 -0.37420827 1.7260395
-1.9355966 -0.32317665 1.7245055
0.98622155 -0.32007176 1.7133093
1.0115163 -0.3119373 1.7186322
-1.9353342 -0.27572238 1.7207556
1.0375376 -0.29951799 1.7450525
-1.9347079 -0.22458844 1.7243185
-1.9311074 -0.17797291 1.7256997
-1.9328527 -0.12613145 1.7311035
-1.9316856 -0.075925976 1.7289382
-1.930506 -0.027868226 1.7326211
-1.920866 0.023937004 1.7238947
-1.9179658 0.075494066 1.7199311
-1.9167941 0.12167013 1.7272409
-1.9183778 0.17163754 1.7248549
1.6413919 1.3275093 1.7187854
1.6382093 1.3735182 1.7291099
1.6353679 1.4250236 1.7238184
1.6317532 1.4794416 1.732136
1.6331049 1.5210321 1.7231063
1.6304165 1.5679821 1.7281059
1.6337029 1.6168559 1.7284371
1.6352053 1.674018 1.7300644
1.6379468 1.7243907 1.7225345
1.6344593 1.7658665 1.7250144
1.6330897 1.8064122 1.7213579
-1.9047465 -0.55417025 1.7664461
-1.8730577 -0.56297928 1.7736921
-1.8247685 -0.57347888 1.7698334
-1.7832339 -0.58491373 1.7673655
-1.7250196 -0.59210795 1.7684156
-1.6690184 -0.58992547 1.760698
-1.6286594 -0.59217852 1.764232
-1.5970745 -0.59101313 1.7632105
-1.5386447 -0.58551443 1.7797037
-1.3570669 -0.55572611 1.7597251
-1.9194887 -0.5238353 1.7799304
-1.3596882 -0.54579306 1.7800289
-1.3349166 -0.54481643 1.7732508
-1.2675376 -0.53809446 1.7814871
-1.1744665 -0.52824229 1.7867546
-1.1210421 -0.52463722 1.7741108
-1.0962039 -0.52939492 1.7844107
-1.0233577 -0.51817966 1.7619883
-0.97644013 -0.51691413 1.7696495
-0.92616206 -0.51436305 1.7722864
-0.86722583 -0.51002407 1.7696171
-0.81910396 -0.50885105 1.7683799
-0.77420211 -0.51283479 1.7795714
-0.72453356 -0.50780314 1.7810713
-0.68154716 -0.50553077 1.7754104
-0.62534392 -0.50554329 1.774169
-0.52562463 -0.50313413 1.7787521
-1.9297608 -0.47691795 1.7738266
-0.57070303 -0.49787599 1.7651529
-0.53256929 -0.49683344 1.7712423
-0.4708927 -0.49480963 1.7785437
-0.42478362 -0.49088722 1.7794957
-0.37847653 -0.48612615 1.7725699
-0.32209361 -0.48195809 1.7758824
-0.28836983 -0.47785646 1.7782103
-0.22523528 -0.4788624 1.7743355
-0.17656949 -0.47965816 1.7809926
-0.13264558 -0.47840434 1.7788377
-0.072411276 -0.47539502 1.7767166
-0.022324003 -0.47121203 1.7778729
0.02239765 -0.47016993 1.7739553
0.083811305 -0.47235888 1.7728903
0.1247334 -0.47065523 1.7768257
0.16876662 -0.46921912 1.7679219
0.22201063 -0.47312886 1.78253
0.2768926 -0.46873194 1.7743115
0.33001593 -0.4697333 1.7683069
0.37426782 -0.46862903 1.7766887
0.42804173 -0.46839875 1.7692393
0.4779858 -0.46672145 1.7734818
0.52432567 -0.46391279 1.781258
0.56880325 -0.46019655 1.7565041
0.61543208 -0.46196306 1.7528551
0.68871319 -0.46349537 1.7795531
0.71752673 -0.46148396 1.7745644
0.78494442 -0.46434835 1.7650657
0.82398051 -0.46659112 1.7937415
0.94642502 -0.4671092 1.7514192
0.98478729 -0.47203043 1.7581953
1.0170798 -0.46400416 1.7739978
-1.9333957 -0.42392734 1.7769496
0.99530047 -0.4242118 1.7696564
1.003716 -0.41586661 1.7738342
-1.9361624 -0.37409943 1.7720547
1.0181816 -0.38987514 1.7756616
-1.9353489 -0.32306856 1.7776814
1.0127996 -0.3037945 1.7523793
-1.9329834 -0.27331644 1.7735772
1.0260129 -0.28518173 1.767006
1.0513798 -0.28325972 1.7605939
-1.9321334 -0.22921491 1.7740897
-1.9315529 -0.17438038 1.7698872
-1.9299482 -0.12116076 1.7758415
-1.930946 -0.075003505 1.7752573
-1.927649 -0.026321974 1.7769871
-1.922394 0.023340879 1.7759789
-1.9223276 0.079019204 1.7734255
-1.9165105 0.12139377 1.7775154
-1.9504439 0.19983931 1.7513394
-1.9167211 0.16758569 1.7764368
1.6384134 1.3418022 1.7784587
1.6596429 1.3313916 1.7799329
1.6374314 1.3812996 1.7739271
1.6337267 1.4228921 1.7722696
1.6309627 1.472681 1.7746428
1.6302518 1.5251971 1.7786325
1.6342316 1.5788701 1.7753452
1.6327686 1.6289334 1.7734951
1.6337316 1.6788095 1.774065
1.6403847 1.733897 1.7743256
1.6395329 1.7798129 1.778664
1.6376164 1.8307148 1.7704337
-1.7222954 -0.60130388 1.8420022
-1.8712238 -0.55835682 1.8229622
-1.8285006 -0.57308155 1.8213117
-1.7757778 -0.5862096 1.8155761
-1.7355446 -0.59026974 1.8375273
-1.6866481 -0.59691644 1.8468816
-1.6282396 -0.59167719 1.8197635
-1.5422823 -0.58012921 1.8076507
-1.9143661 -0.5230394 1.8210739
-1.8928328 -0.54925621 1.8247855
-1.4150954 -0.54727864 1.843093
-1.3931766 -0.54614627 1.8235515
-1.32559 -0.53884667 1.8286747
-1.2819114 -0.53825545 1.8246673
-1.2282295 -0.53296471 1.8290941
-1.1597167 -0.53020883 1.8271652
-1.1182169 -0.52646703 1.8380684
-1.0727127 -0.52732134 1.8314414
-1.0150164 -0.5183031 1.8245831
-0.97907823 -0.51996332 1.838957
-0.92447072 -0.51424587 1.8185132
-0.88204813 -0.51511896 1.8227433
-0.82674038 -0.51053095 1.8228236
-0.7836377 -0.51049042 1.8160901
-0.74076462 -0.50876337 1.8187703
-0.66173345 -0.50602502 1.8229856
-0.62388188 -0.50389355 1.821843
-0.57410419 -0.50442582 1.825992
-0.53280044 -0.50299132 1.8217103
-1.9299421 -0.471461 1.8281786
-0.56905431 -0.49753687 1.8303519
-0.50919318 -0.49770522 1.8245969
-0.47373617 -0.49406707 1.8231401
-0.42254734 -0.48646471 1.8207053
-0.37467203 -0.48698044 1.8297219
-0.33001316 -0.48494571 1.8216169
-0.27044806 -0.48284489 1.8152186
-0.22433972 -0.48167676 1.8198793
-0.18154173 -0.48104021 1.8326712
-0.12562522 -0.47781414 1.8186464
-0.079165302 -0.4764162 1.8197917
-0.028023552 -0.47443867 1.8298576
0.024442669 -0.47062796 1.8222594
0.071378216 -0.47479334 1.8161602
0.12154341 -0.46917373 1.8277056
0.19765523 -0.47066268 1.8154305
0.22526297 -0.47267953 1.8211052
0.26947165 -0.47018296 1.8146961
0.32645136 -0.47141591 1.8242861
0.37544441 -0.46744618 1.8207153
0.41219807 -0.46833423 1.8189483
0.47457138 -0.46756217 1.8182696
0.5211885 -0.46418869 1.8214706
0.55658084 -0.46329072 1.8106016
1.0254217 -0.47073531 1.829288
-1.9293032 -0.42699099 1.8277756
1.0390702 -0.42600116 1.8018562
-1.9307537 -0.3747544 1.8229356
-1.931946 -0.3283129 1.8252293
-1.9293299 -0.27852401 1.8230807
-1.9293327 -0.22374801 1.8264855
-1.9296399 -0.17320143 1.8217044
-1.9282838 -0.12410722 1.8275849
-1.9291531 -0.073679127 1.8242283
-1.9230766 -0.030265611 1.8259149
-1.9230245 0.025527075 1.8293611
-1.9222479 0.075402334 1.8262211
-1.9133658 0.12285587 1.8257211
-1.9204605 0.17432688 1.8280753
1.6515652 1.349889 1.8290921
1.6387962 1.3775215 1.8243461
1.6337994 1.4269238 1.8234785
1.62967 1.4738756 1.8250359
1.6327255 1.5208864 1.8262135
1.6362253 1.5734909 1.827042
1.6340052 1.6213694 1.8249775
1.6339207 1.668848 1.8216715
1.6399151 1.7243147 1.822804
1.6371595 1.7657765 1.8300762
1.6421646 1.8183901 1.8232021
1.6467609 1.871336 1.8278787
-1.7096761 -0.60095471 1.8502178
-1.8719977 -0.55899727 1.8781959
-1.8250458 -0.57764232 1.8827839
-1.7667366 -0.58122706 1.8759221
-1.7330848 -0.59158212 1.8803703
-1.6727986 -0.59385449 1.8842983
-1.636796 -0.59766912 1.8886402
-1.5805135 -0.5874725 1.8769044
-1.4487284 -0.55605489 1.8657193
-1.9121042 -0.52680576 1.8739564
-1.8863761 -0.54587704 1.8891611
-1.4381788 -0.54947442 1.8970327
-1.3706098 -0.53879529 1.883921
-1.3267605 -0.53769851 1.8762308
-1.2729788 -0.53575999 1.8696188
-1.2282879 -0.53535533 1.8783491
-1.179024 -0.53258723 1.8724022
-1.1047764 -0.52798313 1.8667192
-1.0789454 -0.52524179 1.8754755
-1.0054957 -0.52391857 1.890709
-0.96965814 -0.51563281 1.8684349
-0.93409777 -0.51895243 1.8666626
-0.87744594 -0.51725298 1.8723001
-0.82624006 -0.51347303 1.8660718
-0.77017558 -0.51167655 1.8757758
-0.73147732 -0.51450092 1.8575119
-0.68236464 -0.51104307 1.8970757
-0.61534488 -0.50397289 1.8747206
-0.57515818 -0.50435185 1.8751982
-0.53727198 -0.50202215 1.8674437
-0.48931643 -0.50083709 1.8589751
-1.9218483 -0.48132169 1.875097
-0.57081097 -0.49789602 1.8699821
-0.5186795 -0.49743521 1.8785396
-0.47290054 -0.49368018 1.8718994
-0.42685801 -0.48854694 1.8745941
-0.38270673 -0.48860851 1.8735889
-0.32371259 -0.48809132 1.8713877
-0.27054837 -0.48592752 1.8686241
-0.22449808 -0.48292437 1.8685087
-0.16892511 -0.47941881 1.8699609
-0.12918258 -0.48045748 1.8723892
-0.083836965 -0.48003259 1.8799474
0.048341863 -0.47375286 1.8899522
0.075681604 -0.47638607 1.8807169
0.11771991 -0.46741536 1.868925
0.22582932 -0.47444803 1.8650231
0.25716007 -0.47321379 1.8574282
0.3275139 -0.47367546 1.8904759
0.38070735 -0.47066888 1.8714647
0.41692507 -0.47007009 1.873824
0.4796198 -0.46778366 1.8843099
0.55620486 -0.46922341 1.8759929
-1.9246578 -0.42913088 1.8760084
-1.9281303 -0.37722889 1.8762902
-1.930117 -0.32348594 1.8783841
-1.9276891 -0.27510145 1.8722596
-1.9256213 -0.22142041 1.8712159
-1.9248097 -0.17329168 1.8747582
-1.9263762 -0.1253486 1.8795297
-1.924728 -0.07945361 1.8733056
-1.9237602 -0.029155204 1.8802851
-1.9214443 0.024844877 1.877977
-1.916435 0.078577727 1.8717176
-1.9153714 0.12843782 1.8814385
-1.9135035 0.171547 1.8744605
-2.0535765 0.24882771 1.8629239
-2.0569448 0.26164883 1.8644807
-2.0476313 0.28066474 1.8767375
-2.1281404 0.33732617 1.8716531
-2.0624669 0.32717437 1.8918961
-2.121753 0.35529205 1.8629875
-2.0527649 0.35203454 1.8946569
1.6357318 1.3806038 1.8745365
1.6290355 1.4214334 1.8730993
1.6326647 1.4703326 1.8734202
1.633006 1.5294796 1.8769566
1.6391087 1.5879755 1.877583
1.6345049 1.6273222 1.8731216
1.6366661 1.6679343 1.8751618
1.6400915 1.7254785 1.8743907
1.637295 1.7741777 1.8770839
1.6442645 1.8227075 1.8740803
1.6464491 1.8716084 1.8669534
1.6510279 1.8846307 1.8845468
1.6484258 1.9185016 1.8907087
1.6529876 1.9146565 1.8656076
-1.8648186 -0.55642736 1.9343174
-1.8274449 -0.57155329 1.9282354
-1.7753018 -0.58195138 1.9325173
-1.7332667 -0.59086323 1.927422
-1.6801283 -0.59054303 1.9154148
-1.6306869 -0.59233701 1.9284134
-1.9102434 -0.52405232 1.9293535
-1.8751729 -0.54796213 1.912096
-1.380742 -0.53972155 1.9398953
-1.3196448 -0.53590286 1.9319799
-1.2725945 -0.5331949 1.9106977
-1.2397963 -0.53564817 1.9216408
-1.1782219 -0.53219634 1.9213921
-1.1269495 -0.53309178 1.9286294
-1.0519001 -0.52697814 1.9328803
-1.0349367 -0.52888596 1.9481838
-0.97855294 -0.52098268 1.9347279
-0.91951585 -0.51799613 1.9274324
-0.82438719 -0.5147593 1.9149029
-0.76053286 -0.5151301 1.9351494
-0.74207163 -0.51478702 1.9246516
-0.6693216 -0.50971091 1.9207499
-0.62859553 -0.50821018 1.9313867
-0.57546663 -0.50282586 1.9290423
-0.53875756 -0.5024606 1.9348459
-0.49968335 -0.50202483 1.9402528
-1.9186586 -0.47526497 1.9233663
-0.50435895 -0.49711359 1.9195756
-0.46462962 -0.49550295 1.9198889
-0.41795337 -0.49671632 1.9320259
-0.37727165 -0.49342927 1.9244823
-0.32769188 -0.48941159 1.9278327
-0.28803307 -0.48706084 1.9094825
-0.21462162 -0.4906567 1.9301925
-0.19598746 -0.4911755 1.9335793
-0.13110273 -0.48426154 1.9098295
-0.067645222 -0.482692 1.9155617
0.086469658 -0.47647014 1.9192415
0.22797137 -0.47693837 1.9234366
0.3253403 -0.46797407 1.9071784
0.38608417 -0.47233954 1.931604
0.41208389 -0.47269365 1.9155869
0.49376991 -0.47236672 1.9011199
0.50841272 -0.4721137 1.9396307
-1.9214451 -0.4201296 1.9232543
-1.9218602 -0.37455705 1.9250252
-1.9222121 -0.32548186 1.9274133
-1.9247605 -0.27159855 1.9264317
-1.9229176 -0.2239942 1.9231403
-1.9249232 -0.17776161 1.9237431
-1.9229009 -0.12675552 1.9213432
-1.9223269 -0.078141905 1.9229326
-1.9246302 -0.029563138 1.9263567
-1.9196614 0.027324004 1.9243811
-1.9186668 0.079637825 1.9189738
-1.9106756 0.13232566 1.9272856
-1.9555581 0.19796218 1.9368274
-1.9155642 0.17288044 1.9283072
-2.0598752 0.31549928 1.9070396
1.637271 1.3913431 1.9222494
1.6266228 1.4183786 1.9289045
1.6286281 1.4724824 1.9213538
1.6299018 1.525281 1.9239017
1.6338297 1.5723892 1.9209548
1.6330773 1.6231053 1.92152
1.6377739 1.6788324 1.9182765
1.6408089 1.7203184 1.9270393
1.6507118 1.7440794 1.916661
1.6436151 1.7787985 1.9253378
1.6540318 1.7620935 1.9461007
1.6462835 1.8384771 1.9288616
1.6529398 1.824285 1.9342364
1.6488202 1.8990246 1.9254644
1.6531922 1.8710873 1.9273497
1.6475737 1.9127054 1.9313864
1.6629553 1.9447795 1.9384557
1.6424713 1.9514823 1.9293562
1.6612071 1.9569385 1.9254584
-1.8543379 -0.55456531 1.9710088
-1.8301579 -0.57129645 1.9752642
-1.7720456 -0.58285522 1.9760952
-1.7248886 -0.58932757 1.9768797
-1.6694553 -0.59169066 1.9756464
-1.6199175 -0.59913236 1.9712237
-1.5819883 -0.58425421 1.9832454
-1.5314627 -0.57049793 1.9764204
-1.4432694 -0.55310452 1.9716783
-1.9060048 -0.51265091 1.962087
-1.8930266 -0.53632706 1.9756583
-1.459644 -0.54795748 1.9966054
-1.4257483 -0.54160798 1.9833333
-1.3585547 -0.53082669 1.9656284
-1.3012606 -0.53007013 1.9920062
-1.2703991 -0.53512526 1.9758923
-1.2207022 -0.53014165 1.9760735
-1.1655897 -0.53313959 1.962477
-1.1254152 -0.52767336 1.9651756
-1.0511115 -0.53181499 1.9548278
-0.91863644 -0.52248704 1.9862016
-0.87234563 -0.52273053 1.978758
-0.83723992 -0.51582974 1.9599974
-0.77144349 -0.51923931 1.9935335
-0.70787793 -0.5115267 1.9557136
-0.67879575 -0.51088333 1.9818799
-0.62180769 -0.50525248 1.9713157
-0.57323283 -0.50611675 1.9850023
-0.5328607 -0.50563103 1.9801098
-0.49212959 -0.50418085 1.9502701
-0.37999591 -0.50008553 1.9916797
-1.9142386 -0.47663826 1.97563
-0.5864895 -0.49904829 1.9962063
-0.47520226 -0.49706 1.9653574
-0.42377138 -0.49771988 1.9759878
-0.37638324 -0.49536845 1.9728543
-0.315649 -0.49149597 1.9642692
-0.26099265 -0.49759689 1.9943615
-0.22444353 -0.49223238 1.9755992
-0.19910102 -0.48938331 1.9659033
0.13562575 -0.4756754 1.9541186
0.39762574 -0.47219673 1.9573914
0.4119541 -0.47763303 1.9785789
-1.9147186 -0.42741171 1.9691336
-1.9200491 -0.37634778 1.9798396
-1.9197845 -0.32286453 1.9772038
-1.9217355 -0.27771142 1.9760032
-1.9197674 -0.22837642 1.975484
-1.9212139 -0.17649899 1.9759117
-1.9188118 -0.12856485 1.974449
-1.9203453 -0.079238102 1.9735596
-1.9191706 -0.029960949 1.9734743
-1.9158596 0.019228587 1.9747254
-1.9163647 0.076406263 1.9755992
-1.9133682 0.12750676 1.9731029
-1.9156997 0.17099248 1.9772451
1.639565 1.393899 1.9668092
1.6303502 1.4190675 1.9832653
1.6303509 1.4663414 1.9693537
1.6350596 1.5299265 1.9777856
1.6352847 1.5768955 1.9787937
1.6401659 1.6212161 1.9764271
1.6400154 1.6705736 1.9712448
1.640617 1.7207981 1.968563
1.6451881 1.7782743 1.9719948
1.651667 1.7743038 1.9692433
1.6418982 1.8134893 1.9575847
1.6437817 1.8731792 1.9539484
1.6546568 1.8697162 1.9919494
1.6596701 1.9361075 1.9773083
1.6571499 1.9715673 1.9840986
-1.8711902 -0.55270612 2.0272117
-1.8287212 -0.56829381 2.0228446
-1.7751234 -0.58050334 2.0189042
-1.7337416 -0.5863958 2.0245497
-1.6720352 -0.59197778 2.0290103
-1.6348976 -0.59716505 2.015209
-1.5170182 -0.5592503 2.0213468
-1.90453 -0.50914711 2.0137036
-1.8911685 -0.53320783 2.0259306
-1.5156339 -0.54850817 2.0297797
-1.4194098 -0.54333472 2.0163674
-1.277295 -0.53392744 2.0231025
-1.2048349 -0.52903861 2.0330105
-1.1744887 -0.52999175 2.0234427
-1.1286843 -0.5302217 2.0173364
-1.0905223 -0.52489632 2.0081148
-0.95755017 -0.52497894 2.0325379
-0.92558688 -0.52189696 2.029428
-0.85471749 -0.51627076 2.0028324
-0.77170777 -0.51684558 2.0175006
-0.73284662 -0.51778066 2.0431025
-0.69248676 -0.51098847 2.023778
-0.60720241 -0.50379199 2.0120823
-0.56857914 -0.5068081 2.0325203
-0.53224689 -0.50689685 2.0286598
-1.9097639 -0.47006962 2.0236106
-0.5058288 -0.49828362 2.0079932
-0.47910556 -0.4964067 2.0045564
-0.38647103 -0.49860591 2.0271475
-0.32362679 -0.49531636 2.0316541
-0.22388688 -0.4921183 2.0166349
-1.9156662 -0.42612532 2.0243523
-1.9149227 -0.37358674 2.0250652
-1.9174167 -0.32579371 2.0268643
-1.9182339 -0.27455944 2.0197282
-1.9182681 -0.2279862 2.0230339
-1.9182096 -0.17729247 2.0302327
-1.9197295 -0.12799659 2.0320125
-1.9175959 -0.080415271 2.0264606
-1.9170233 -0.030450244 2.026937
-1.9170774 0.019545173 2.0340431
-1.9112966 0.069348112 2.0269003
-1.9085767 0.12413858 2.0239995
-1.9214054 0.17595132 2.0240901
-1.8997642 0.15000434 2.022445
1.6350187 1.4212019 2.0259757
1.636933 1.4774749 2.0206792
1.6353136 1.5189109 2.0281487
1.6400917 1.5781801 2.0288661
1.6394565 1.6318204 2.0263588
1.6433747 1.6757283 2.0248909
1.6458094 1.7129867 2.0213027
1.6522223 1.7478871 2.0272939
1.6455107 1.7833799 2.012785
1.6512908 1.7608923 2.0158689
1.6468006 1.8146538 2.0432837
1.656267 1.8386105 2.0253725
1.6465998 1.8650298 2.0243568
1.651728 1.8932934 2.033257
1.6483269 1.9275968 2.0396972
1.6545988 1.9253577 2.0145912
1.6491611 1.9792048 2.0012593
1.6576118 1.9675367 2.0285649
1.6600069 2.0136855 2.0249796
-1.8625135 -0.55319047 2.0787554
-1.8245927 -0.56016195 2.0689373
-1.7899716 -0.57689917 2.0772274
-1.7259823 -0.58557236 2.0685658
-1.673537 -0.58895111 2.080338
-1.6263044 -0.5839169 2.0670946
-1.5753435 -0.56247544 2.0687046
-1.5190262 -0.55619323 2.0688624
-1.4903843 -0.55656719 2.0874708
-1.9055724 -0.50991029 2.0638332
-1.8891501 -0.52909684 2.0779467
-1.309628 -0.5383907 2.0885477
-1.1863608 -0.52697062 2.0875428
-1.1464951 -0.53013986 2.0635235
-0.92251146 -0.5227437 2.0715742
-0.87069851 -0.52172989 2.0704541
-0.83525699 -0.51955318 2.0711222
-0.7739144 -0.52112091 2.0947073
-0.72602063 -0.51992583 2.0894423
-0.67292523 -0.51562285 2.0713451
-0.63714337 -0.51580203 2.0568027
-0.57604516 -0.51010293 2.0815754
-0.54241109 -0.5037747 2.0696793
-1.9051567 -0.47790045 2.0698709
-1.908182 -0.42464218 2.0731974
-1.9116272 -0.37787738 2.0776808
-1.9126778 -0.32278436 2.0754428
-1.9142915 -0.27383855 2.0729876
-1.914185 -0.22168927 2.0723348
-1.9124445 -0.17225307 2.0743797
-1.9146379 -0.11951588 2.0759063
-1.9138819 -0.071576796 2.0786281
-1.9109548 -0.028123019 2.0728946
-1.9099542 0.019672897 2.0734954
-1.9071958 0.070079304 2.0695064
-1.9057624 0.11957904 2.0777881
-1.9131027 0.16677366 2.0710149
-2.02595 0.20897882 2.0789223
1.6335922 1.444201 2.0555973
1.6340542 1.4808452 2.0673859
1.6321834 1.5212784 2.0725062
1.6383983 1.5724055 2.0624583
1.6408038 1.6178938 2.0601516
1.640859 1.8380358 2.0524781
1.6485019 1.8771926 2.0788035
1.6519068 1.8955575 2.0720432
1.6444179 1.9139458 2.07236
1.64731 1.9506769 2.0603805
1.6579707 1.9867373 2.0762684
1.649858 2.0184894 2.0966663
1.6563931 2.0232551 2.0649939
1.6629744 2.0645003 2.0895929
