ply
format ascii 1.0
comment PCL generated
element vertex 1495
property float x
property float y
property float z
element camera 0
property float view_px
property float view_py
property float view_pz
property float x_axisx
property float x_axisy
property float x_axisz
property float y_axisx
property float y_axisy
property float y_axisz
property float z_axisx
property float z_axisy
property float z_axisz
property float focal
property float scalex
property float scaley
property float centerx
property float centery
property int viewportx
property int viewporty
property float k1
property float k2
end_header
-2.4416208 -0.12252734 4.0721874
-2.4505212 -0.064629003 4.0726008
-2.4383197 -0.085933298 4.0520415
-2.4486332 -0.032007582 4.0697117
-2.4525383 0.022331087 4.0761847
-2.4619884 0.087923646 4.0912008
-2.4493515 0.065747686 4.0705271
-2.4583492 0.10959825 4.0847402
-2.4417677 0.1305166 4.0566902
-2.4557924 0.17484295 4.0786991
-2.4400125 0.15341416 4.0992322
-2.4526727 0.22898692 4.0714707
-2.4514594 0.27236831 4.067409
-2.4564977 0.32736647 4.07268
-2.4494536 0.32646406 4.0610423
-2.4546337 0.38159567 4.0660119
-2.4568412 0.42551672 4.0663786
-2.4545093 0.46864039 4.058876
-2.4675803 0.52587944 4.0753818
-2.4722407 0.58169794 4.0774279
-2.4604356 0.62255919 4.0530338
-2.4613774 0.65555304 4.0506563
-2.5034509 0.79298431 4.0553637
-2.5173988 0.90808135 4.0600944
-2.5071578 0.97912115 4.0780439
-2.5245385 1.0260937 4.07442
-2.5183122 1.0728418 4.0787945
-2.2592707 2.3606477 4.0885406
-2.1353445 2.3645568 4.0899363
-2.0951054 2.3587465 4.0946026
-2.0098279 2.3641365 4.0811157
-1.9758036 2.3649654 4.0961685
-1.9361738 2.3650582 4.0729742
-1.8647501 2.3648901 4.0801897
-1.8120921 2.3789692 4.0708504
-1.7310677 2.3775532 4.0960083
-1.6819861 2.3567863 4.0714321
-1.6265297 2.3626153 4.0643115
-1.5258299 2.3656228 4.0827146
-1.4636199 2.3673258 4.0773234
-1.4351729 2.3686218 4.0613823
-1.3804191 2.370517 4.079627
-1.2725204 2.3791323 4.0713487
-1.2152581 2.3758225 4.0787435
-1.1770515 2.3659277 4.0692158
-1.1197572 2.361846 4.07409
-1.0660108 2.3712943 4.0691261
-1.0149286 2.3707697 4.0616574
-0.9701435 2.384799 4.0787778
-0.91966116 2.3797834 4.0949817
-0.88493007 2.3799663 4.0686622
-0.81203032 2.3769376 4.0586834
-0.77061296 2.3836179 4.0765157
-0.72792649 2.387033 4.0884199
-0.65061092 2.3845646 4.0939116
-0.6154862 2.3974469 4.0728078
-0.58266723 2.3968561 4.0754299
-0.52698362 2.3913748 4.07166
-0.38708392 2.3997908 4.0978918
-0.3214581 2.3983536 4.0996647
-0.28069517 2.3942833 4.076262
-0.22107504 2.3952613 4.0528207
-0.17523403 2.3930471 4.0816588
-0.12440646 2.3925028 4.0743775
-0.080863439 2.3960037 4.0579977
-0.026986498 2.3913634 4.073822
0.02281706 2.3904259 4.07687
0.070597075 2.3877809 4.0905051
0.12115232 2.3931363 4.0832925
0.17814152 2.3966753 4.0568027
0.23250137 2.3897657 4.0661812
0.26685104 2.396184 4.0988979
0.32043552 2.3897367 4.0849528
0.3746011 2.3887179 4.0797429
0.42875868 2.3881097 4.074728
0.47219208 2.3883877 4.0716114
0.52680635 2.3899291 4.0692277
0.57867283 2.3875902 4.0756888
0.62554967 2.3937037 4.0652552
0.67061156 2.3883004 4.0742331
0.72533822 2.378211 4.0733609
0.78156865 2.3834143 4.0746746
0.82221365 2.3777912 4.0748429
0.86725438 2.3785801 4.0530186
0.90222877 2.3845363 4.0577521
-0.18942873 2.4044075 4.0695367
-0.059415169 2.4013543 4.0673404
0.13544762 2.4049664 4.0721116
0.28648388 2.400007 4.0578494
-2.4307764 -0.50424016 4.1099815
-2.4310293 -0.47135779 4.1132922
-2.4393024 -0.42891347 4.130847
-2.4290848 -0.39423198 4.1159773
-2.4451442 -0.33060759 4.1474652
-2.4357131 -0.27436805 4.1344013
-2.4360723 -0.23040688 4.1369715
-2.4401255 -0.17459971 4.1146159
-2.440459 -0.12014478 4.1244307
-2.452693 -0.065276831 4.1224957
-2.4440694 -0.086918399 4.1077194
-2.4463196 -0.032280631 4.1120338
-2.4458835 0.02244924 4.1112828
-2.455009 0.077459827 4.1260958
-2.4467115 0.12097923 4.1113238
-2.4455881 0.18660441 4.1075439
-2.4546216 0.22023298 4.1214828
-2.4451184 0.24126224 4.1045895
-2.4554501 0.27525753 4.1203456
-2.4675894 0.32079887 4.1382933
-2.4594469 0.36370659 4.1218719
-2.4451704 0.39799711 4.142446
-2.4641638 0.44161725 4.1240702
-2.4657309 0.46396559 4.1248565
-2.4563186 0.51501387 4.120111
-2.4631672 0.5626781 4.1111779
-2.4681978 0.63008332 4.1122761
-2.4697189 0.66364896 4.1108541
-2.2805336 2.3590317 4.1382232
-2.2194977 2.3566654 4.1288762
-2.1592152 2.3544095 4.1191268
-2.1383505 2.3573396 4.1342101
-2.0842097 2.3729074 4.1288486
-1.9984726 2.3548632 4.1253114
-1.9132645 2.3592968 4.1083403
-1.8880342 2.3566542 4.1122642
-1.7967111 2.3811283 4.1368971
-1.7175421 2.3675363 4.1364131
-1.6203833 2.382776 4.1416917
-1.596297 2.3810041 4.1455641
-1.5276335 2.3632793 4.1314049
-1.4885607 2.3666615 4.1221676
-1.428811 2.3727059 4.1234255
-1.3810425 2.3683453 4.127738
-1.328854 2.3781781 4.1071773
-1.2844956 2.3791034 4.1197615
-1.2370073 2.3740511 4.1215324
-1.0660459 2.3896196 4.1356339
-1.0204154 2.387326 4.1402135
-0.97292781 2.380276 4.1360774
-0.92492247 2.3786614 4.1249566
-0.8652643 2.3816667 4.1072893
-0.82254875 2.3855858 4.1208844
-0.78047085 2.3920321 4.1384993
-0.72353172 2.3868496 4.1370654
-0.68670905 2.3960514 4.1095796
-0.62409395 2.3873522 4.117887
-0.57680994 2.3960266 4.1222048
-0.52250206 2.398859 4.1325297
-0.33403277 2.388495 4.1291213
-0.26822352 2.38766 4.1312461
-0.22511786 2.3952639 4.1463537
-0.1806744 2.3883548 4.1359906
-0.14790672 2.3900304 4.1398759
-0.07447461 2.3924615 4.1141305
-0.016399365 2.3935878 4.147985
0.0055428958 2.3882787 4.1388073
0.092952922 2.3937039 4.1238756
0.12636569 2.3947144 4.14853
0.16954401 2.394877 4.1240511
0.21923837 2.39467 4.1337438
0.27996373 2.3934231 4.1407018
0.32410836 2.395149 4.141305
0.36819774 2.3960681 4.1401587
0.42241558 2.3921967 4.1295462
0.4776336 2.3939822 4.1281834
0.52054501 2.3891575 4.1158948
0.57602525 2.3847692 4.1187119
0.62112802 2.389694 4.1224117
0.67231625 2.3818309 4.1186118
0.72238332 2.3825438 4.1296835
0.77636224 2.3790045 4.1160107
0.84607184 2.3782468 4.1288929
0.87892967 2.3884778 4.1173434
0.92106438 2.3777983 4.1242051
-0.52312744 2.401747 4.1375504
-0.49780178 2.4078374 4.1027889
-0.43544576 2.4041421 4.1493049
-0.34370431 2.4014854 4.1036959
-0.22375654 2.4025135 4.1116385
0.28945658 2.4030523 4.1095438
-2.4293194 -0.51960689 4.1536527
-2.4376316 -0.4769631 4.171793
-2.4421692 -0.42219782 4.1839538
-2.4550133 -0.3762742 4.1614318
-2.4456661 -0.36232224 4.1781983
-2.4426701 -0.31748703 4.1757131
-2.4417737 -0.26642865 4.1926875
-2.4548635 -0.17676534 4.1708684
-2.4456782 -0.19818652 4.1545415
-2.4451184 -0.11033551 4.179677
-2.4511247 -0.087967999 4.1665282
-2.4447398 -0.077085465 4.179544
-2.45504 -0.043773111 4.1736655
-2.4490182 -0.021552268 4.1635385
-2.4598267 0.02279634 4.1818395
-2.465544 0.067354135 4.1911945
-2.4415193 0.088744096 4.1500278
-2.466789 0.13421182 4.1920571
-2.4489591 0.11112807 4.1622591
-2.4648824 0.16749093 4.1878815
-2.4606597 0.22278367 4.1787105
-2.457581 0.27793652 4.1709757
-2.4580493 0.32243073 4.1693463
-2.4703951 0.35748598 4.1882405
-2.4496999 0.37661278 4.1516819
-2.4581935 0.43343738 4.1619754
-2.4555759 0.47730637 4.1538725
-2.4765539 0.57089269 4.1808491
-2.4789605 0.61613774 4.1801085
-2.4747293 0.67098802 4.1664524
-2.3538232 2.3609591 4.1730685
-2.2793155 2.358079 4.1685314
-2.2026162 2.3520889 4.157445
-2.1644518 2.3622487 4.1956105
-2.1193366 2.3623989 4.1529021
-2.0722051 2.3624916 4.1721921
-1.8657602 2.3872366 4.182478
-1.8174261 2.3699899 4.1644363
-1.7704254 2.3807619 4.173543
-1.7004973 2.3758168 4.1583557
-1.6798961 2.3792882 4.1717873
-1.6313639 2.3759191 4.1801634
-1.5820158 2.3940187 4.1750894
-1.4636574 2.3700464 4.1623693
-1.4189744 2.3714099 4.1769233
-1.3731259 2.3823633 4.1829062
-1.3198175 2.3798056 4.1647506
-1.2781334 2.3720238 4.1776032
-1.2241484 2.384917 4.1792502
-1.1835308 2.3865955 4.1740189
-1.1442792 2.3908079 4.1729112
-1.0887239 2.3925998 4.1874886
-1.0310247 2.3821907 4.1666965
-0.97784132 2.3699384 4.166678
-0.88101906 2.3848147 4.1765161
-0.83086473 2.3874106 4.1722569
-0.77455121 2.3856797 4.1772609
-0.7200557 2.3898215 4.1920071
-0.68440557 2.393409 4.1782737
-0.61590081 2.3978469 4.1695743
-0.58136797 2.3928638 4.1644707
-0.53789657 2.3964524 4.1751614
-0.31599212 2.3958888 4.1910362
-0.25902158 2.381948 4.1694765
-0.22701122 2.3933837 4.1909194
-0.1828444 2.3951166 4.1955614
-0.13830364 2.3916276 4.1907086
-0.06082781 2.3920705 4.1928635
-0.031180019 2.389662 4.1728969
0.032062285 2.3925214 4.1746993
0.079187304 2.3919907 4.176517
0.12756228 2.3952956 4.1974077
0.17155999 2.3901932 4.1872988
0.22642814 2.3856337 4.1773496
0.28191727 2.3879843 4.1789932
0.32621706 2.3887434 4.1779375
0.37020838 2.3871017 4.1723285
0.42610097 2.3907804 4.1748195
0.49332601 2.3948073 4.1764345
0.52526784 2.3888021 4.1629305
0.56022799 2.385365 4.1778746
0.62760109 2.392339 4.1748862
0.68615496 2.3879402 4.1929684
0.7387982 2.3778565 4.1681938
0.77263653 2.3793988 4.1663537
0.81853932 2.3836293 4.1673813
0.8856672 2.3844476 4.1585169
0.94806552 2.3790278 4.188601
-0.66156971 2.4024818 4.172534
-0.50547004 2.40047 4.1852756
-0.42692411 2.4070373 4.1791186
-0.37076429 2.4137228 4.1706433
-0.30310351 2.4038594 4.157589
-0.11558271 2.4016559 4.1607828
-0.060491841 2.4008627 4.1602879
0.47281769 2.403245 4.1930614
-2.4302242 -0.52410454 4.235815
-2.4344091 -0.48595691 4.2301445
-2.4409666 -0.42589107 4.2300363
-2.4399595 -0.36965102 4.232173
-2.4425378 -0.32513782 4.239336
-2.4418068 -0.29001063 4.2157168
-2.4550107 -0.22314243 4.2172818
-2.4425974 -0.23529243 4.2437587
-2.446003 -0.16660136 4.2036915
-2.452112 -0.13350239 4.2150588
-2.4405863 -0.11166582 4.2439008
-2.4447074 -0.077816844 4.2274303
-2.4567461 -0.033020295 4.2244005
-2.4568989 0.045330901 4.2245216
-2.4480205 0.011709544 4.2094407
-2.4561086 0.078881979 4.2227564
-2.4650247 0.12412733 4.237246
-2.4568863 0.16845672 4.2220697
-2.4623394 0.22497366 4.2294335
-2.4700387 0.28190225 4.2401285
-2.4753246 0.32761401 4.2467556
-2.4684415 0.37172025 4.2321444
-2.4764886 0.4180488 4.2427721
-2.4786816 0.47486696 4.2420168
-2.473278 0.53019512 4.2277608
-2.4759035 0.57588029 4.2277966
-2.4776459 0.61015123 4.2271996
-2.4853117 0.67998558 4.2324505
-2.3176143 2.3489494 4.2277579
-2.627815 2.3619165 4.2439852
-2.2842755 2.363704 4.2106385
-2.2065015 2.3578432 4.2313304
-2.1860287 2.3616946 4.2483115
-2.1161354 2.3615389 4.2139173
-2.0888774 2.3576744 4.216557
-2.0286772 2.3680446 4.2213554
-1.9521307 2.3600152 4.2131267
-1.9175835 2.3610501 4.2278371
-1.8787689 2.374408 4.2248478
-1.8240436 2.370404 4.2209129
-1.7674172 2.3807869 4.2031345
-1.7315371 2.3795385 4.2123346
-1.6737556 2.3803194 4.2321053
-1.5813999 2.3874676 4.2177706
-1.5323013 2.3831325 4.2233443
-1.4818056 2.3763514 4.2240548
-1.4020047 2.377867 4.2479134
-1.3665018 2.379319 4.2054996
-1.3313029 2.3777261 4.2111006
-1.268481 2.3670995 4.2057266
-1.2285696 2.3780091 4.2353902
-1.1757956 2.3864555 4.2100625
-1.1089598 2.3893063 4.2291212
-1.0758289 2.3914509 4.2395701
-1.0414683 2.3910286 4.2452779
-0.97736138 2.3902204 4.2380939
-0.93113154 2.3821967 4.2226286
-0.86935836 2.3788893 4.2010689
-0.82769603 2.3881457 4.2241931
-0.77302647 2.3932648 4.2412596
-0.72437078 2.3817263 4.226748
-0.66651279 2.3980176 4.2133074
-0.56393778 2.3905592 4.2111416
-0.52046776 2.3961439 4.2252655
-0.35272384 2.3972886 4.2401628
-0.33067256 2.3998144 4.2459688
-0.27435818 2.3975401 4.2448902
-0.22961725 2.3982561 4.2481279
-0.1732022 2.3923471 4.2396045
-0.11315242 2.3908575 4.2222571
-0.076173879 2.3963373 4.2325821
-0.027886558 2.3931117 4.2435312
0.016849127 2.3921607 4.24189
0.072612949 2.387408 4.2330117
0.12864366 2.3930759 4.2421036
0.17306349 2.388957 4.2336302
0.21783984 2.3899593 4.2338848
0.27323985 2.386663 4.2256389
0.32926458 2.3885202 4.2260036
0.37412858 2.3900208 4.2259092
0.42315495 2.3862588 4.2322159
0.47399604 2.3869731 4.2130256
0.52919853 2.384376 4.2035279
0.58674723 2.3919823 4.2114382
0.62200582 2.3875813 4.2246394
0.66254884 2.3817289 4.2177672
0.71689039 2.3887031 4.223743
0.77195007 2.3895934 4.2348061
0.82574517 2.3821797 4.213737
0.87263167 2.3874936 4.2163324
0.93209934 2.3843091 4.2264886
0.95765525 2.380414 4.2405963
-0.6230517 2.4032421 4.2275805
-0.48797297 2.4126921 4.232933
-0.42023042 2.421473 4.2292476
-0.3739624 2.4065769 4.2185073
-0.2836124 2.4034801 4.2060971
-2.4242408 -0.52177531 4.2916112
-2.4334133 -0.47522578 4.2786503
-2.4362757 -0.41776127 4.2715473
-2.4344912 -0.37224755 4.2714729
-2.435113 -0.3271707 4.2752595
-2.454639 -0.27030674 4.2632303
-2.4454086 -0.28315693 4.2956843
-2.4446242 -0.21815483 4.2806439
-2.4450049 -0.16885638 4.2747512
-2.4457011 -0.13501763 4.2768307
-2.4402959 -0.074719399 4.2765422
-2.4517159 -0.033274449 4.2641706
-2.4463031 0.023054512 4.2547383
-2.4501934 0.090674497 4.260808
-2.4411476 0.075844288 4.2778916
-2.4543874 0.12469186 4.2674289
-2.4416556 0.13650911 4.2940125
-2.4526515 0.16969469 4.2632203
-2.459132 0.22669397 4.2724743
-2.4567304 0.2829549 4.2657733
-2.4665627 0.32945907 4.2803979
-2.465256 0.37459439 4.2753243
-2.4574511 0.42371753 4.2747145
-2.4774084 0.46994886 4.2730198
-2.4740288 0.52386075 4.2788434
-2.4873619 0.58386052 4.2963686
-2.4800682 0.62775522 4.2789211
-2.4806025 0.67352986 4.2746124
-2.8781147 2.3497872 4.2988081
-2.648699 2.3556244 4.2892303
-2.1190748 2.3541784 4.2591743
-2.0725229 2.3558514 4.2810516
-2.0311484 2.3616219 4.2782602
-1.9759618 2.3649549 4.275106
-1.9253833 2.361454 4.2860012
-1.8809986 2.3635147 4.28579
-1.8252271 2.3766177 4.2723899
-1.7940052 2.3810325 4.2820115
-1.7400167 2.3719828 4.2809792
-1.6763731 2.3637774 4.2744365
-1.6220559 2.3782644 4.2721086
-1.5758934 2.3772814 4.2740893
-1.5228038 2.3812807 4.2780261
-1.4688697 2.3835394 4.2784619
-1.4352499 2.3831615 4.2772741
-1.3729591 2.3876159 4.2739964
-1.3209006 2.377213 4.2664785
-1.2177426 2.3785474 4.2923183
-1.1828891 2.3856955 4.277595
-1.1328063 2.3928401 4.2835779
-1.0842924 2.3873901 4.2828007
-1.0162849 2.3880084 4.2790437
-0.9531514 2.3750801 4.2831779
-0.81369585 2.3906553 4.2817984
-0.7783429 2.3870027 4.2799792
-0.71998435 2.3818407 4.2781272
-0.67886907 2.393775 4.2668366
-0.62776124 2.3987565 4.2690611
-0.55962741 2.3976352 4.2740736
-0.52603161 2.3990993 4.2798691
-0.49219182 2.3996115 4.2837877
-0.31817886 2.3882713 4.2921824
-0.27532992 2.3834624 4.2691126
-0.23051471 2.3851233 4.2740545
-0.17359795 2.3757327 4.2591672
-0.11769728 2.378036 4.2647295
-0.072892524 2.3802316 4.2694082
-0.027965996 2.3776331 4.2651405
0.01689765 2.378099 4.2660208
0.072956361 2.3778157 4.2650628
0.12913224 2.379725 4.2675295
0.17375895 2.3762448 4.2601185
0.21927524 2.3835168 4.2716312
0.27520555 2.3814375 4.265492
0.33121359 2.3802977 4.2605238
0.37748843 2.3886776 4.2727599
0.41169453 2.3913462 4.2752404
0.46647415 2.3831825 4.2563581
0.52441365 2.3910942 4.2656155
0.63762963 2.3928285 4.2573209
0.81453466 2.3926799 4.2854843
0.89377719 2.3914127 4.2713346
0.91281796 2.3816884 4.2503638
-0.60617888 2.4028854 4.278842
-0.58291698 2.4004188 4.2767887
-0.46912068 2.4086475 4.2769547
-0.42345417 2.4175076 4.2712989
-0.30878353 2.4039724 4.2545776
0.58418745 2.4050937 4.2851577
0.85163581 2.4009826 4.2953973
-2.4135668 -0.52436304 4.322567
-2.3970182 -0.54867059 4.3412375
-2.4333963 -0.47204459 4.3290162
-2.4350634 -0.42144039 4.318985
-2.4463434 -0.37758738 4.3420715
-2.4365091 -0.33043349 4.3273253
-2.4362164 -0.27331778 4.3296704
-2.4449761 -0.22743645 4.3222523
-2.4408023 -0.17093535 4.3416319
-2.4473231 -0.11302453 4.3047042
-2.4424183 -0.090985805 4.3462253
-2.4554894 -0.022245232 4.3200459
-2.4481258 -0.044899438 4.3069792
-2.4515591 0.00054326997 4.3131528
-2.4420991 0.034689702 4.3211894
-2.4487619 0.11417884 4.3070178
-2.4544523 0.16000499 4.3159189
-2.4483891 0.18233404 4.3045726
-2.4557295 0.21708307 4.316267
-2.4569104 0.27419838 4.3158793
-2.4523938 0.3305878 4.304965
-2.4650283 0.37805146 4.3243246
-2.4476004 0.37888265 4.3435812
-2.4668233 0.41266644 4.3251324
-2.4622812 0.4690578 4.3127837
-2.468976 0.52758628 4.3195376
-2.4669189 0.57562447 4.3365479
1.0190418 0.58089817 4.3229752
-2.47528 0.63234073 4.3201723
0.9757489 0.62246263 4.3208485
-2.4714184 0.6657719 4.309556
0.97696531 0.66550601 4.3219995
0.96554697 1.0350325 4.3208799
-2.8518798 2.3491833 4.3120079
-2.0713387 2.3440678 4.3186607
-1.8635648 2.3498182 4.3434739
-2.8266745 2.3621545 4.3207035
-2.7947536 2.3695216 4.3188543
-2.7225032 2.3510723 4.3122272
-2.6205182 2.364095 4.3237672
-2.3059893 2.3623884 4.3287926
-2.151897 2.3529265 4.3066483
-2.1302683 2.3558104 4.3215494
-2.0133061 2.3568146 4.3055387
-1.9752154 2.354372 4.3142376
-1.9378427 2.3527243 4.3240871
-1.8714306 2.3565564 4.3247366
-1.8181373 2.361475 4.3226485
-1.7671893 2.3690381 4.3250837
-1.7247561 2.3716626 4.3142943
-1.6625822 2.3675306 4.3247623
-1.6174856 2.3707783 4.3445415
-1.568807 2.374604 4.3085456
-1.5211124 2.373549 4.3195443
-1.4631596 2.3747506 4.3372726
-1.4230602 2.3783793 4.3266287
-1.3708963 2.3809826 4.3166342
-1.3100896 2.3764448 4.3221741
-1.2746861 2.3872027 4.3236246
-1.23823 2.384254 4.3260074
-1.165 2.3888111 4.3229609
-1.1165323 2.3841553 4.3237286
-1.0661836 2.3913891 4.329248
-1.0372896 2.3882682 4.3463545
-0.98601764 2.3995035 4.3233266
-0.89305317 2.3976116 4.3348947
-0.76468349 2.392592 4.3438101
-0.73902476 2.3955417 4.3266678
-0.65662467 2.3989193 4.3169632
-0.62198812 2.3974876 4.3181381
-0.58764952 2.3970754 4.3209605
-0.33462521 2.3831065 4.3154621
-0.27764136 2.3811209 4.3148193
-0.23267987 2.3844092 4.322752
-0.17651916 2.3931468 4.3405571
0.017102193 2.3875308 4.3330045
0.051271737 2.3898444 4.3370185
0.17693628 2.3967555 4.3471351
0.22198874 2.3906455 4.3345184
0.25613797 2.3904755 4.3328366
0.32500383 2.3946135 4.3369374
0.38121033 2.3898079 4.3248405
0.41561195 2.3913162 4.3252635
0.48446938 2.3940387 4.3249402
0.52974534 2.3926239 4.3184357
0.57105047 2.3930154 4.3280177
0.63233376 2.3928976 4.3086982
0.66886938 2.38989 4.3248529
0.76907182 2.3972893 4.3174777
0.82163239 2.3906651 4.3325725
0.86962557 2.3961639 4.3358374
0.92573565 2.3924592 4.3202157
0.97440934 2.3989844 4.3244405
-0.92448443 2.4070542 4.33008
-0.87686908 2.4078412 4.3041286
-0.84198391 2.40645 4.306788
-0.68116999 2.4049377 4.325161
-0.56630826 2.4033666 4.3345613
-0.53310513 2.408411 4.3468719
-0.48568794 2.4007602 4.3370295
-0.42558077 2.406858 4.3020864
-0.37026197 2.4163055 4.3228831
0.4408595 2.4048369 4.3480525
0.50910479 2.4027264 4.3386979
0.69262105 2.4044638 4.3230171
0.7268607 2.4041309 4.3182163
0.87780571 2.4100728 4.3082108
-2.3853722 -0.55127865 4.3710709
-2.4101901 -0.51717812 4.3681622
-2.3988073 -0.53126431 4.3977656
-2.4213369 -0.4680095 4.3754444
-2.4307671 -0.42470673 4.3616347
-2.4344363 -0.37929863 4.3712997
-2.4289742 -0.33255649 4.3642025
-2.4319973 -0.26391807 4.3730392
-2.4510028 -0.20610666 4.3587189
-2.4392865 -0.21861388 4.3879719
-2.4366286 -0.17229342 4.3846579
-2.4418657 -0.12587209 4.3698549
-2.45806 -0.068541862 4.3743501
-2.4387023 -0.091717452 4.3901134
-2.4394841 -0.033902042 4.3667374
-2.4433105 0.00053249515 4.3737211
-2.4559438 0.092567742 4.3701205
-2.4435093 0.081069946 4.3734312
-2.4517746 0.12686002 4.3620243
-2.4395835 0.127406 4.3908505
-2.4506249 0.18419912 4.3584337
-2.4456444 0.17322168 4.3752151
-2.446126 0.21506687 4.36623
-2.4547896 0.28799868 4.3616157
-2.4477603 0.25396711 4.3760538
-2.4609058 0.33485574 4.3700171
-2.4457343 0.32434973 4.3943143
-2.4607196 0.42705238 4.3636699
-2.4480169 0.44039512 4.3909321
-2.4622846 0.47343603 4.3628893
-2.4630899 0.51970893 4.3603926
1.0224837 0.52472097 4.3901701
-2.4413695 0.55464494 4.3692331
1.0170679 0.5630123 4.3796086
-2.4689524 0.62652493 4.3732376
1.0154414 0.63408625 4.398181
-2.4729004 0.67240036 4.3623729
1.0161879 0.67756939 4.3970971
-0.099860266 0.73657757 4.3693705
0.9859851 0.72496408 4.3561382
1.0157065 0.72023165 4.3904076
-0.10047947 0.76231885 4.3940673
0.99146438 0.78257746 4.3741245
1.0168928 0.77488589 4.3893385
0.99548221 0.8287943 4.386507
1.0168352 0.82864392 4.3824615
0.99872488 0.87467778 4.395134
1.0187874 0.87335908 4.385211
1.010632 0.91887641 4.3923416
1.0117579 0.96760035 4.3803344
0.9801448 1.0831534 4.3808355
1.0049545 1.0865638 4.3912768
0.98118383 1.1168385 4.379899
1.0053197 1.1304365 4.3853755
0.98628902 1.1771568 4.3929324
1.0086912 1.166954 4.3942156
1.011188 1.2135785 4.3969784
1.0146693 1.2945409 4.3970723
1.0121074 1.313159 4.3814888
0.96345311 1.3718476 4.3522673
-3.5578544 1.4428836 4.3970051
0.9680258 1.4002384 4.3681135
1.0044849 1.5762928 4.3922663
1.0064394 1.6016066 4.3951764
0.95587879 1.6798996 4.3510246
0.96655095 1.7210085 4.3934736
0.95586717 1.9459356 4.3907928
0.41998017 1.9711976 4.3910904
0.4540734 1.984517 4.3897781
-2.8385367 2.3442254 4.3830166
-2.6641626 2.3410807 4.3910856
-2.6353545 2.3380702 4.3980436
-2.3536198 2.33604 4.3824973
-2.2681198 2.3494833 4.3821177
-2.225975 2.344141 4.3873034
-2.0449769 2.3450272 4.3941212
-1.9647269 2.3464875 4.3630843
-1.9299338 2.3482816 4.3791208
-1.8762711 2.3417239 4.3832073
-1.8157049 2.3499026 4.3594337
-1.7918016 2.3499813 4.3672829
-2.7533059 2.3521035 4.3725357
-2.3237762 2.355809 4.373024
-2.1676054 2.3589699 4.3781919
-2.1190667 2.3595657 4.3983545
-2.0190697 2.3534727 4.3586287
-1.8398478 2.3501313 4.3520222
-1.7760481 2.3608966 4.3951755
-1.7248902 2.3643465 4.3582201
-1.6832689 2.3593724 4.3803391
-1.6302052 2.3655019 4.3886342
-1.5789266 2.3701394 4.3735623
-1.5202758 2.3669858 4.3637819
-1.4715741 2.3647881 4.3721046
-1.4182583 2.3690703 4.3751483
-1.3781346 2.3756399 4.3790278
-1.3252099 2.3802667 4.3817573
-1.2772509 2.3787169 4.389473
-1.2116997 2.3773203 4.3730612
-1.1785245 2.3772659 4.3705831
-1.1299404 2.3894074 4.3854012
-1.0795424 2.3815622 4.3798313
-1.0252208 2.3805857 4.3697281
-0.98648733 2.3884885 4.3735061
-0.9316299 2.3848438 4.3577366
-0.87478995 2.3876467 4.3717718
-0.81790739 2.3906496 4.385622
-0.72116685 2.3892512 4.3692503
-0.67331982 2.3948479 4.3591952
-0.61420268 2.3887486 4.3543825
-0.57056534 2.3983691 4.376544
-0.53017336 2.3923051 4.3820558
-0.28213295 2.3962851 4.3933463
-0.23523358 2.3880053 4.3801541
-0.15433757 2.3795712 4.3673134
-0.124011 2.3976791 4.3671761
-0.028643761 2.3893495 4.3871918
0.086298227 2.3923612 4.3921762
0.13571274 2.3923521 4.3741899
0.18906248 2.3829265 4.3724957
0.22374415 2.3865023 4.3778582
0.27033365 2.3925023 4.3869648
0.31616324 2.3914528 4.3827872
0.37806034 2.3810163 4.3805981
0.43128496 2.3807495 4.3816853
0.47801229 2.3959675 4.3803277
0.52314883 2.3918581 4.3689432
0.58181357 2.3966293 4.3722992
0.62832373 2.39258 4.3730664
0.71075213 2.3926773 4.3770237
0.78352213 2.39153 4.3920202
0.81717682 2.3881404 4.3811045
0.93208838 2.3856299 4.3592663
0.96700358 2.3860612 4.3543906
-0.86182022 2.4069438 4.356987
-0.81453007 2.403955 4.358202
-0.64098901 2.4030821 4.3780556
-0.59560645 2.4063911 4.3889093
-0.45487884 2.4192636 4.3732252
-0.41923702 2.4128518 4.3641667
-0.36111721 2.4084561 4.3600116
-0.074322343 2.4039485 4.3623552
-0.02852563 2.4036121 4.3621435
0.086083889 2.4088664 4.3711314
0.12027132 2.4045014 4.362628
0.28037554 2.4031289 4.3547344
0.46422964 2.4072874 4.3507247
0.69850308 2.4017813 4.3691993
0.74425089 2.4004037 4.3610406
0.79106307 2.4024208 4.3586664
0.88033593 2.4023461 4.3987818
-2.374043 -0.55401105 4.4018455
-2.3293808 -0.55440992 4.4228301
-2.2671309 -0.55333388 4.4357977
-2.2168386 -0.5590381 4.4346499
-2.1786013 -0.55140889 4.4491725
-2.0647516 -0.56841439 4.4316039
-2.0068402 -0.58754975 4.4170928
-2.4027026 -0.50897014 4.4068956
-2.3812611 -0.52650243 4.4353962
-2.3263965 -0.53325087 4.4456024
-2.2730045 -0.53163826 4.4493561
-2.2302394 -0.52974057 4.4460211
-2.1356304 -0.51489604 4.4463987
-2.0810437 -0.51274067 4.443181
-2.0304332 -0.53423011 4.4453077
-1.976963 -0.52078742 4.4428577
-1.9192942 -0.51747775 4.4284382
-1.8657116 -0.52364111 4.4310412
-1.8199215 -0.51487154 4.4323826
-1.7676544 -0.51271963 4.426331
-1.7154026 -0.51045966 4.4188519
-1.6671652 -0.50930339 4.4204655
-1.6210295 -0.5149442 4.4152908
-1.5829113 -0.50717801 4.421401
-2.4132717 -0.47631472 4.4290934
-2.3939114 -0.47710732 4.4455633
-2.0171821 -0.4883095 4.448565
-1.9773828 -0.48690471 4.4465151
-1.9232277 -0.47341105 4.4409833
-1.8716193 -0.48304346 4.438323
-1.8229229 -0.48205814 4.4422879
-1.7692914 -0.47971368 4.4330029
-1.7195854 -0.47830677 4.432169
-1.6695962 -0.4767583 4.4294219
-1.620735 -0.47545758 4.4285536
-1.5852214 -0.47476313 4.4303455
-2.4221704 -0.42930776 4.4229259
-1.9637446 -0.42975384 4.4489594
-1.9278817 -0.41346261 4.446094
-1.8727078 -0.42708227 4.4448714
-1.818006 -0.42483839 4.434195
-1.7670779 -0.42336246 4.4313464
-1.7194902 -0.42264616 4.4357948
-1.6706727 -0.43267298 4.4354057
-1.6288468 -0.43608308 4.4425464
-2.4217229 -0.38277975 4.4252243
-1.9680878 -0.36878335 4.4431071
-1.9190487 -0.3710992 4.4380488
-1.8698037 -0.37027368 4.4414649
-1.8182508 -0.36894211 4.4382935
-1.7657303 -0.36734632 4.4313855
-1.7179703 -0.36667955 4.4352708
-1.6703047 -0.37708139 4.4378581
-2.4502523 -0.30068225 4.4042625
-2.4236474 -0.32496706 4.4320388
-2.0111842 -0.31689775 4.4460897
-1.9764954 -0.33126056 4.4447765
-1.919114 -0.32608613 4.4406357
-1.8688414 -0.32519352 4.441608
-1.8189948 -0.32431692 4.4424992
-1.7663093 -0.32288602 4.4352045
-1.7145709 -0.32155815 4.4288192
-1.6681601 -0.32119444 4.4351759
-1.6345744 -0.31004551 4.4433265
-2.4213479 -0.26658934 4.430645
-1.9206073 -0.28128019 4.4462147
-1.865416 -0.27978098 4.4355645
-1.8176284 -0.27934211 4.4412642
-1.7656565 -0.27821141 4.4356246
-1.7147022 -0.27718782 4.4311962
-1.6644439 -0.27622813 4.4272866
-1.6304173 -0.27609742 4.4334955
-2.425169 -0.22400463 4.4306703
-2.0363669 -0.20383646 4.4489112
-1.9581819 -0.21410069 4.4470911
-1.9160082 -0.22018127 4.4438047
-1.8677691 -0.22404051 4.4433169
-1.8150047 -0.22308742 4.4369721
-1.7666208 -0.22262084 4.4401855
-1.7145723 -0.23277837 4.4326081
-1.6665239 -0.2322776 4.4345303
-1.618948 -0.23182593 4.4368234
-1.5729513 -0.22053365 4.4430361
-1.5342439 -0.21974097 4.4347916
-1.4727426 -0.21878582 4.4278755
-2.4203331 -0.17362344 4.4320989
-1.9200125 -0.17984605 4.4484482
-1.8631191 -0.16753173 4.4339628
-1.8156619 -0.16730246 4.4402781
-1.7677323 -0.16701064 4.4446449
-1.7170597 -0.17754339 4.4407368
-1.6664869 -0.17691903 4.4361291
-1.6159018 -0.1762343 4.4301343
-1.5669571 -0.17571004 4.4273691
-1.5188235 -0.17525208 4.4257331
-1.4722341 -0.17492475 4.4276414
-1.4255829 -0.17457777 4.4284358
-1.3807588 -0.16982155 4.4268503
-1.330857 -0.16279595 4.4227424
-1.2750179 -0.17075066 4.4280033
-1.2283762 -0.16218899 4.4248581
-2.4196303 -0.12714146 4.4318981
-1.9626111 -0.12736383 4.4400182
-1.9189613 -0.12346964 4.4473252
-1.8672677 -0.12304729 4.4448099
-1.8152012 -0.12257225 4.4400969
-1.765645 -0.12225098 4.4403725
-1.716171 -0.12191521 4.4397125
-1.6661028 -0.12150951 4.4363785
-1.617626 -0.12120971 4.4361138
-1.568979 -0.12088382 4.4342847
-1.5186167 -0.12038515 4.4263492
-1.4717749 -0.12015806 4.4274797
-1.4259288 -0.11999911 4.4307203
-1.3774586 -0.11959207 4.4247656
-1.3284585 -0.1191107 4.4156823
-1.2747523 -0.11917076 4.4282169
-1.2173077 -0.11885983 4.426836
-1.1874197 -0.10828838 4.4425693
-2.4514802 -0.069015846 4.4134073
-2.4242709 -0.080867693 4.4411287
-1.9195523 -0.078476042 4.4493599
-1.8644848 -0.078073733 4.4388542
-1.8148825 -0.07788644 4.4400134
-1.7651986 -0.077674761 4.4399185
-1.7175634 -0.077537395 4.4439716
-1.6674505 -0.077297121 4.4406033
-1.6181676 -0.077070445 4.4382401
-1.5679665 -0.076786645 4.4320822
-1.5187008 -0.076538354 4.4272285
-1.4703182 -0.07631404 4.4237061
-1.4238768 -0.076171324 4.4249802
-1.3776928 -0.076034635 4.4261599
-1.3320129 -0.075923249 4.4281168
-1.2731466 -0.075683467 4.4232659
-1.2177553 -0.075614452 4.4290771
-1.1842904 -0.075559668 4.4312792
-2.4276657 -0.03825232 4.4390831
-2.0609639 -0.02233083 4.4487629
-1.9188514 -0.033427514 4.4480982
-1.8666289 -0.03330978 4.4443169
-1.8147517 -0.033194624 4.4400368
-1.7645645 -0.033107337 4.4386673
-1.7176441 -0.033080671 4.4445429
-1.6674569 -0.032973062 4.4409614
-1.6168442 -0.032861486 4.434947
-1.5672572 -0.032758076 4.4304094
-1.5189387 -0.032669701 4.4282722
-1.4707 -0.032585002 4.4251909
-1.4246463 -0.032546043 4.4277039
-1.3765869 -0.032459103 4.4229007
-1.3286344 -0.032350849 4.4172239
-1.2738758 -0.032352809 4.4260402
-1.2170881 -0.032296408 4.42696
-1.1829699 -0.043058153 4.4266143
-2.4395318 0.028350214 4.4228501
-1.9558073 0.045439154 4.4449601
-1.9145244 0.022840856 4.4478855
-1.8671594 0.022744119 4.4455762
-1.8174769 0.022670351 4.446703
-1.766117 0.022573153 4.4425468
-1.7174462 0.022512132 4.444016
-1.6689264 0.022443598 4.44487
-1.6182523 0.022348994 4.438807
-1.5690747 0.022276884 4.4355569
-1.5212746 0.022207772 4.4350667
-1.4735827 0.022138456 4.4338341
-1.4245116 0.022031864 4.4272814
-1.3794228 0.022014886 4.4320359
-1.3309445 0.021928539 4.4248581
-1.2729887 0.021840351 4.4229994
-1.2170216 0.021802619 4.4267278
-1.1845993 0.043435141 4.432651
-2.4365208 0.077829994 4.4203587
-1.9807373 0.068075135 4.4430742
-1.9183261 0.079101175 4.4463806
-1.8669932 0.078817971 4.4447126
-1.8168249 0.078574255 4.4446468
-1.764895 0.0782426 4.4390135
-1.717227 0.078085922 4.4429922
-1.6697197 0.077929124 4.4465389
-1.6197782 0.077650219 4.4425445
-1.5716488 0.077446491 4.4423795
-1.5233729 0.077226236 4.4407368
-1.4735475 0.076913521 4.433291
-1.4255991 0.076687105 4.4302154
-1.3790463 0.076503932 4.4303956
-1.3314793 0.076276518 4.4262428
-1.2737198 0.076063633 4.4250717
-1.218948 0.076028071 4.4333124
-1.1846023 0.065073624 4.4324703
-2.4331579 0.12827757 4.4304962
-1.9551884 0.13558272 4.4421964
-1.9314637 0.13549213 4.4463778
-1.805264 0.12326929 4.4461632
-1.7670648 0.12293169 4.4437189
-1.7176628 0.12257731 4.4433985
-1.667625 0.12215645 4.4402304
-1.6188896 0.12181438 4.4393988
-1.5707873 0.12149809 4.4392405
-1.5232143 0.12120885 4.4395795
-1.4750359 0.12086038 4.4370837
-1.4265501 0.12045775 4.4324765
-1.3800331 0.12021802 4.4328885
-1.3323798 0.11983841 4.4285383
-1.2747747 0.11952937 4.4281154
-1.2195852 0.11942324 4.4349551
-1.1872655 0.11942483 4.4416389
-2.4283497 0.17241906 4.4309921
-1.9571522 0.15828124 4.4461174
-1.914313 0.16533028 4.4451938
-1.8679831 0.16861176 4.4452682
-1.8224994 0.16447122 4.4466434
-1.7696 0.16777354 4.4490728
-1.7190889 0.16719295 4.4460502
-1.6670052 0.17329335 4.4438396
-1.6271623 0.17185381 4.4443293
-1.5677061 0.17211875 4.4360876
-1.5226302 0.17614646 4.436583
-1.4746474 0.17564763 4.434618
-1.42834 0.1753621 4.4367619
-1.381701 0.17497759 4.4369831
-1.3291363 0.17752863 4.4328547
-1.2743038 0.17137279 4.4352818
-1.2204025 0.17373188 4.4366741
-1.1874832 0.17371024 4.4412055
-2.4374878 0.22474681 4.4182973
-1.968037 0.22635023 4.4492326
-1.8152059 0.20925982 4.4478474
-1.708377 0.20061825 4.4491506
-1.6714065 0.22238652 4.4475594
-1.6357219 0.23315497 4.4492788
-1.5726029 0.2320084 4.441267
-1.523867 0.23130137 4.4384384
-1.4759002 0.23067831 4.4366536
-1.4296522 0.23028031 4.4391384
-1.3792626 0.23342907 4.4397526
-1.3238708 0.22902532 4.4357128
-1.2693261 0.23195185 4.4326539
-1.2269677 0.22585973 4.4341927
-1.1864101 0.22772181 4.4355335
-2.4329734 0.2734527 4.4252591
-1.9213054 0.28206223 4.4473867
-1.8830584 0.27015293 4.447557
-1.8339453 0.29196587 4.4496012
-1.7570957 0.29036853 4.4443245
-1.7236032 0.28230432 4.4430461
-1.6598617 0.26674697 4.447587
-1.6228364 0.27720436 4.4453325
-1.5737164 0.27635026 4.4426732
-1.5238817 0.27531835 4.4367213
-1.4777522 0.27491859 4.4405179
-1.4301393 0.27420735 4.4389071
-1.3769538 0.27583268 4.4406571
-1.3221409 0.27097067 4.4438124
-1.2671878 0.27213192 4.4370389
-1.2221276 0.27177575 4.4395952
-1.1872485 0.271247 4.437007
-2.4351854 0.32601964 4.426579
-1.9177262 0.32341054 4.4469223
-1.8706179 0.32614982 4.4452939
-1.8338754 0.32560396 4.4477706
-1.7668656 0.32054576 4.446671
-1.7257098 0.3198159 4.4466972
-1.6775517 0.3265276 4.4486194
-1.6238011 0.32171088 4.4458876
-1.5739036 0.32056844 4.4411526
-1.5257065 0.31971541 4.4399891
-1.4797046 0.31929401 4.4443579
-1.4291259 0.32229581 4.4457164
-1.3736318 0.317633 4.4430466
-1.3153901 0.32769281 4.4418235
-1.2687005 0.32690787 4.4398198
-1.2236718 0.32650921 4.4427147
-1.1905818 0.32637846 4.4469666
-2.4606929 0.38451809 4.4177179
-2.4471657 0.38603324 4.4448867
-1.9711576 0.3700839 4.4494362
-1.9099981 0.36094764 4.4466839
-1.8709956 0.35993665 4.4443817
-1.8331956 0.35912642 4.4443026
-1.7180548 0.37177762 4.4452577
-1.673466 0.36723822 4.4463472
-1.623412 0.37704393 4.4417882
-1.575438 0.37617636 4.442452
-1.5297731 0.37086558 4.4421382
-1.4803787 0.37447003 4.4433913
-1.4321008 0.3733511 4.4400077
-1.3727965 0.37213644 4.4374466
-1.3167071 0.38266951 4.4433155
-1.2688854 0.38141951 4.4374876
-1.2228315 0.38064033 4.4367394
-1.1897209 0.38046992 4.440836
-2.4582283 0.41898394 4.4109402
-2.4450958 0.44405803 4.4370837
-1.8285049 0.44202587 4.4479647
-1.7104801 0.42376187 4.4436378
-1.6786331 0.40836802 4.4467816
-1.6209326 0.42908838 4.4428144
-1.5772507 0.43194664 4.4440989
-1.530772 0.43130621 4.4482841
-1.4819081 0.42995867 4.4445539
-1.433674 0.42870247 4.4414921
-1.3744482 0.42735794 4.4394031
-1.3170155 0.42647481 4.4416265
-1.2686462 0.42490488 4.4339523
-1.2245212 0.42471945 4.4402409
-1.1910118 0.4135226 4.443686
-2.4589076 0.47723556 4.4077444
-2.4443355 0.47892427 4.4329858
-1.6152785 0.47766948 4.446063
-1.5905757 0.46582046 4.4454098
-1.5314871 0.46469265 4.4480639
-1.4840755 0.46368927 4.4487762
-1.42853 0.47532463 4.444201
-1.3721734 0.46970052 4.4442821
-1.3235563 0.47488391 4.4473834
-1.2705334 0.46918213 4.4375796
-1.2248958 0.46839428 4.4385724
-1.1923031 0.47931191 4.4440579
-1.1101719 0.48555711 4.4482269
-1.063684 0.47696292 4.443212
-1.025301 0.4809081 4.4452791
-0.97814417 0.49736577 4.4431915
-0.91768301 0.49141484 4.4470954
-0.87893653 0.48547858 4.4477625
-0.81283373 0.49541387 4.4475217
-0.78003317 0.49508965 4.4484525
-0.73620075 0.49455577 4.4485331
-0.68161845 0.49394482 4.4487309
-0.62599218 0.49240437 4.4400711
-0.57167697 0.48637429 4.439013
-0.51886582 0.49230108 4.448267
-0.4752863 0.48080453 4.4447861
-0.43440342 0.48245469 4.4297338
-0.37824106 0.49030569 4.4394574
-0.32500824 0.49040258 4.4431324
-0.28177649 0.48935974 4.4356003
-2.4564931 0.52099335 4.4169917
-2.4458086 0.53759497 4.4306917
-1.7156205 0.53680587 4.4485803
-1.617739 0.53398818 4.4484549
-1.5807883 0.53276563 4.4465575
-1.5429491 0.53119135 4.441505
-1.4258375 0.51774341 4.4472723
-1.3644743 0.52276802 4.4455938
-1.3193973 0.52581263 4.4424472
-1.2726309 0.52457744 4.4407449
-1.225901 0.52328807 4.4380341
-1.1911603 0.52236575 4.4364491
-1.1104016 0.53639698 4.4452052
-1.0693791 0.53218168 4.4471998
-1.0241091 0.53122568 4.4459805
-0.982337 0.52651024 4.443068
-0.92346382 0.5272547 4.4453778
-0.86764294 0.52831662 4.4432678
-0.82364607 0.52774626 4.443922
-0.7791729 0.52679443 4.4410954
-0.72457069 0.52400631 4.4419112
-0.67043614 0.52580059 4.4443569
-0.62720466 0.51480877 4.4470882
-0.5679701 0.52643281 4.4407039
-0.51861596 0.52415311 4.4437122
-0.47558951 0.52387553 4.4444871
-0.43233716 0.52328527 4.4422665
-0.37819946 0.52224976 4.4367375
-0.32481775 0.52204156 4.4378748
-0.2812717 0.52033901 4.4252882
-0.24250247 0.5242238 4.4294701
-2.4578698 0.57752609 4.4315906
-1.7747196 0.57633942 4.448442
-1.6676964 0.55807418 4.4498496
-1.6307147 0.55686283 4.4487944
-1.5800848 0.55470788 4.4426975
-1.5330235 0.57585829 4.4435658
-1.479249 0.58239651 4.4484887
-1.4123973 0.58799881 4.4484611
-1.3746049 0.57209241 4.4478588
-1.3222296 0.58180869 4.4473248
-1.2742903 0.57996255 4.4419241
-1.2271821 0.57837391 4.4380941
-1.1931973 0.57776272 4.4394722
-1.1198126 0.57371074 4.4374919
-1.0693525 0.5755983 4.4434261
-1.0249647 0.57505125 4.4461169
-0.97662514 0.57787603 4.4467802
-0.9096939 0.56943685 4.4471359
-0.86908078 0.5723871 4.4470334
-0.83608705 0.5719707 4.4479809
-0.77451056 0.56543964 4.432157
-0.72586495 0.57012469 4.4461932
-0.67460179 0.57280284 4.4441047
-0.62122941 0.57856333 4.4378977
-0.57531655 0.57168514 4.4364381
-0.51831597 0.57730144 4.436687
-0.47575918 0.57753283 4.4417238
-0.4221186 0.57727551 4.4432812
-0.36825123 0.57664078 4.4415154
-0.32508734 0.57578999 4.4373622
-0.27418485 0.57794738 4.4352193
-0.22252743 0.57148492 4.4317617
-0.17548899 0.57469171 4.4342885
-0.13599293 0.58681327 4.4183927
-2.4634619 0.60626084 4.4041719
-2.4482107 0.61992967 4.4270811
-1.9697754 0.61347759 4.446723
-1.7190911 0.62749887 4.4493766
-1.5244353 0.62115383 4.4493456
-1.4642854 0.61914527 4.4477487
-1.3586763 0.61634022 4.449172
-1.3270091 0.62257725 4.4466267
-1.2641344 0.61315799 4.4438243
-1.2294711 0.62317741 4.4423919
-1.196226 0.61200255 4.4477749
-1.1125828 0.6245839 4.4462562
-1.0706099 0.61975825 4.4447002
-1.0251198 0.61854494 4.4428635
-0.98131174 0.61828023 4.4475451
-0.91440225 0.63865954 4.445734
-0.86888772 0.62622672 4.4411621
-0.82564944 0.62618625 4.446342
-0.78378153 0.62119383 4.4467998
-0.72344351 0.62413526 4.4432516
-0.67121083 0.62309355 4.4411826
-0.62953722 0.62649965 4.4386468
-0.5708369 0.62463588 4.4420528
-0.51944971 0.63212729 4.4416051
-0.47609395 0.63144386 4.4400053
-0.426166 0.62826234 4.4361544
-0.37457201 0.63201618 4.4351258
-0.32494509 0.62886333 4.4306903
-0.28234619 0.6289081 4.4329877
-0.22874026 0.62806863 4.4291101
-0.17565532 0.62852162 4.4339123
-0.13291466 0.62787861 4.4301929
1.0152878 0.60175759 4.4005704
-2.4612029 0.66706973 4.4195833
-1.4140519 0.66960412 4.4458337
-1.3843124 0.6841591 4.4496222
-1.3129935 0.67049122 4.4470258
-1.2785892 0.68070799 4.4473858
-1.2208271 0.66814798 4.4484482
-1.1962457 0.66663909 4.4425077
-1.1176288 0.65444839 4.4484587
-1.0716345 0.65299416 4.4458103
-1.0264996 0.67370671 4.4435239
-0.98039591 0.66902161 4.4486799
-0.93161833 0.66642869 4.4455166
-0.87042862 0.67059839 4.4448118
-0.82637721 0.66995919 4.4460936
-0.7939797 0.69157225 4.4478621
-0.71675313 0.6792444 4.4475451
-0.66180158 0.67816108 4.4459972
-0.62821984 0.67676806 4.4399085
-0.57448858 0.6767078 4.4444003
-0.52023274 0.67599463 4.4441218
-0.47651574 0.67485261 4.439743
-0.4221853 0.67359978 4.4350886
-0.36885363 0.67380649 4.4396505
-0.3259148 0.67349207 4.439796
-0.27223742 0.67289108 4.4381318
-0.21822116 0.6710223 4.4277511
-0.175751 0.67150402 4.4322267
-0.13324648 0.67212999 4.4373636
-2.5015991 0.70364177 4.410244
-1.409412 0.72986591 4.4496703
-1.3851037 0.70662743 4.4497991
-1.3393863 0.74989474 4.4488487
-1.2905787 0.70321673 4.4464116
-1.2230073 0.746131 4.4480972
-1.1980855 0.71144992 4.4447289
-1.0402025 0.71911836 4.4494224
-0.82344574 0.72095966 4.4448357
-0.75106215 0.73507744 4.4499784
-0.68370622 0.71084511 4.4429603
-0.62604415 0.71775657 4.4461327
-0.5749808 0.72029281 4.4437232
-0.52042395 0.71917784 4.4412503
-0.4772349 0.7187773 4.4420042
-0.42271528 0.7172876 4.4363575
-0.36909333 0.72778064 4.4370527
-0.32622409 0.72764105 4.4383464
-0.27248463 0.726969 4.4367127
-0.21879077 0.72613454 4.4335494
-0.17592902 0.72553736 4.4311967
-0.13337785 0.72617483 4.4361296
-1.4737678 0.7917406 4.4458756
-1.2816458 0.78135967 4.4468889
-0.81766289 0.7583285 4.4494925
-0.77301455 0.76783848 4.445693
-0.61989665 0.76568186 4.4490194
-0.5978111 0.75423449 4.4483347
-0.5195564 0.77045816 4.4468937
-0.47602445 0.77824581 4.4443517
-0.42853904 0.77790052 4.4455833
-0.37383351 0.7801525 4.4451027
-0.33032605 0.77882284 4.439754
-0.27332023 0.78281254 4.4442782
-0.21930841 0.78134173 4.4379129
-0.17669922 0.78227502 4.4444923
-0.12707052 0.78212166 4.4323978
-1.4713871 0.8220678 4.4469767
-1.3421063 0.81770664 4.4498758
-1.2258048 0.82478869 4.4488969
-1.0313039 0.81875002 4.4482479
-0.86306077 0.80359352 4.4496264
-0.62100255 0.84266239 4.4478579
-0.59898216 0.83128649 4.4480715
-0.46828258 0.81842935 4.4485879
-0.41025284 0.8244198 4.445004
-0.37097752 0.82829618 4.4484682
-0.33878624 0.83924192 4.4498649
-0.26949191 0.82924575 4.4465442
-0.21984012 0.82621485 4.4438429
-0.17650615 0.8136524 4.4365096
-0.12294201 0.8236751 4.4326959
-1.5828005 0.87284571 4.4496584
-1.2270355 0.85865772 4.4492111
-0.37135279 0.86143315 4.4488916
-0.20956123 0.8709814 4.448266
-0.17713651 0.87017989 4.4450936
-0.12319991 0.86836082 4.4369664
-0.080031201 0.86545503 4.4227123
-1.2206569 0.91073602 4.4470644
-0.26390481 0.92679894 4.4490213
-0.2097778 0.9256984 4.4456525
-0.1775324 0.92056322 4.448422
-0.12357243 0.92488343 4.4437594
-0.080546618 0.92477846 4.443964
-0.18863976 0.9707436 4.4493136
-0.12378282 0.98033172 4.4437585
-0.080634162 0.97959423 4.4411249
-0.12393279 1.0138674 4.4442978
-0.08071816 1.0237234 4.43926
1.0075876 1.0240649 4.4134235
1.0068158 1.0668052 4.4030433
1.0080684 1.1117289 4.401166
0.99150234 1.2271892 4.4079833
0.99393183 1.2741625 4.4101944
1.0146648 1.261627 4.4036212
-3.5584559 1.3382323 4.4256792
0.99542475 1.3310472 4.405653
0.99930894 1.3693756 4.4158549
1.0005022 1.3931248 4.4163461
0.98811382 1.4243569 4.4047384
1.0000637 1.4367237 4.4045854
0.979904 1.4727923 4.4091377
1.003226 1.474537 4.4108715
-3.5605338 1.5075285 4.4359779
-0.082372032 1.5394566 4.4336839
0.98436028 1.5239985 4.4186802
1.0050073 1.5215797 4.4081955
-3.5801806 1.5632281 4.419363
0.98359978 1.5672772 4.4043999
1.0051494 1.5551175 4.4007063
-3.575635 1.6201122 4.422977
0.99004591 1.6223143 4.4219432
0.9944644 1.6745117 4.4299212
0.9965831 1.7231284 4.4271841
0.982364 1.7658396 4.4215598
1.0022806 1.7896173 4.4366312
0.98535395 1.8164711 4.4220958
1.0012037 1.8329589 4.4187117
0.98267567 1.8747404 4.4306335
1.0036583 1.8714776 4.4193687
0.98448765 1.9237311 4.4248514
0.18671608 1.9911335 4.4470525
0.28622299 1.9752338 4.4077225
0.33093232 1.9742756 4.4033651
0.37617669 1.9762655 4.4052544
0.47936788 1.9851927 4.4181981
0.77632982 1.9721609 4.4170804
0.83293307 1.9720993 4.4095845
0.88142055 1.9791287 4.4189749
0.93301547 1.9922055 4.4414501
0.98115206 1.9855511 4.4487715
0.18700494 2.0168846 4.4467273
0.22402185 2.0254738 4.4262967
0.2762942 2.0185077 4.4183731
0.3327958 2.0192921 4.4173727
0.37798181 2.0195761 4.4154015
0.42407313 2.0242541 4.4227543
0.47494602 2.0359995 4.4353709
0.71442056 2.0348589 4.4485788
0.87185937 2.0258353 4.4434361
0.92879802 2.034667 4.4431906
0.98384273 2.0370197 4.4459438
0.23229769 2.073369 4.4262733
0.2728048 2.0690486 4.4209671
0.32725799 2.0744481 4.4186692
0.38049579 2.0784969 4.4299183
0.42545819 2.0762906 4.4222693
0.45989656 2.0781202 4.4237356
0.66922051 2.0593145 4.4495702
0.99586409 2.0726278 4.4348731
0.23385236 2.1329045 4.4404783
0.26761219 2.1293099 4.4316139
0.32460937 2.1297083 4.4297085
0.38103947 2.1269863 4.4208584
0.42730308 2.1308243 4.4258342
0.46236685 2.123524 4.4359078
0.99946189 2.1032329 4.4430127
0.23476502 2.1755712 4.4459252
0.26873982 2.17272 4.4386959
0.32638741 2.1757879 4.442194
0.38672388 2.1793876 4.4277596
0.42522416 2.1814568 4.4294467
0.47125801 2.1598327 4.4367929
0.22772944 2.2196577 4.4444423
0.26962978 2.2142069 4.4408746
0.3191624 2.2168539 4.4347491
0.37293145 2.2203627 4.4342537
0.43461129 2.2210076 4.4360433
0.46559936 2.2188721 4.4385996
0.23596193 2.2672765 4.4396067
0.27037793 2.2664018 4.4364772
0.32057676 2.2728603 4.4377589
0.37390843 2.2663498 4.4309182
0.43227464 2.2709761 4.4361744
0.4679293 2.2646494 4.4481821
-3.2981584 2.3391583 4.4251103
-3.0540826 2.349684 4.4341145
-3.019577 2.3433609 4.4373832
-2.9883654 2.3395057 4.4450336
-2.86414 2.32881 4.4070716
-2.8313074 2.3336835 4.4371099
-2.785866 2.3381872 4.421319
-2.7258711 2.3468797 4.4486527
-2.6568956 2.3315575 4.4450908
-2.5679879 2.346096 4.4499378
-2.326153 2.3459029 4.4169827
-2.2538795 2.3355973 4.4233265
-2.2331464 2.3398843 4.4414735
-2.1700516 2.3379116 4.4286199
-2.1324434 2.3369298 4.429852
-2.0877843 2.3412292 4.4344058
-2.0003088 2.3499031 4.4209108
-1.9632318 2.3348982 4.4012384
-1.9333768 2.3429208 4.4289632
-1.8817158 2.3392987 4.438416
-1.7234451 2.3471322 4.443018
-1.5144752 2.3473454 4.4417548
0.23701176 2.3236258 4.442059
0.27133512 2.3206556 4.4349627
0.31797916 2.3240414 4.4392076
0.374928 2.3188403 4.4259605
0.43419576 2.3273308 4.4383445
0.47047725 2.3467093 4.4461293
-2.5998397 2.3518674 4.4487782
-2.2965002 2.3538377 4.4476213
-2.0772207 2.3539062 4.4016976
-2.0310588 2.3572032 4.4258628
-1.8838326 2.3511329 4.4008789
-1.825896 2.354495 4.4269676
-1.7680937 2.3555801 4.4270229
-1.7252008 2.3572156 4.4031229
-1.6619835 2.3528214 4.4126525
-1.61594 2.3556175 4.4315438
-1.5674921 2.3570244 4.4280224
-1.5316383 2.3608465 4.40626
-1.4826076 2.3586631 4.4145832
-1.4247475 2.3614569 4.4346576
-1.364725 2.3617961 4.4304771
-1.3325702 2.3689058 4.4330163
-1.2746034 2.3721187 4.4332643
-1.2234777 2.3729019 4.4268918
-1.1757712 2.3759108 4.4331965
-1.1374818 2.3818579 4.4244208
-1.0755367 2.3752053 4.4230351
-1.01534 2.3718295 4.4271069
-0.96613073 2.3779757 4.4198961
-0.92260998 2.3804305 4.422411
-0.87087762 2.3737097 4.426405
-0.82321292 2.3828325 4.4235301
-0.78112918 2.3928766 4.4303932
-0.72377324 2.3834996 4.4198279
-0.6811198 2.3876128 4.4237223
-0.63480151 2.3886094 4.4306951
-0.57388258 2.3891151 4.4113073
-0.51566935 2.3880663 4.4146261
-0.47048914 2.3940151 4.4294329
-0.42435282 2.3959236 4.4364109
-0.37785435 2.3959589 4.4395614
-0.33153206 2.3974032 4.4449625
-0.28346819 2.3843455 4.4231033
-0.22595622 2.3883343 4.4329276
-0.16824098 2.3917036 4.4410877
-0.11758617 2.3918893 4.4252949
-0.07886783 2.3952167 4.4147878
-0.025017761 2.3783755 4.4359999
0.017409615 2.3918881 4.4177489
0.069648579 2.3937161 4.4337482
0.13366832 2.3936872 4.4456491
0.17566617 2.3930509 4.4260554
0.22575469 2.3731029 4.4307318
0.27119812 2.3656232 4.4148703
0.31734794 2.3656256 4.4126306
0.36911252 2.3589551 4.4102349
0.43366927 2.3592341 4.4196243
0.48120269 2.3770657 4.4232774
0.52788198 2.3900108 4.4172535
0.57652485 2.3878565 4.4351811
0.61060381 2.3844638 4.4255261
0.66735029 2.3911386 4.4054508
0.72803503 2.3883305 4.4196386
0.76585817 2.3855772 4.4364452
0.82447851 2.3802156 4.431921
0.88555402 2.3813763 4.4389844
0.93349284 2.3840046 4.436759
0.98024964 2.383508 4.4283142
1.0163664 2.3738861 4.4310374
-0.76379502 2.4029505 4.4159741
-0.60034937 2.4022284 4.433239
-0.46874511 2.408273 4.4037032
-0.42228106 2.4073858 4.405529
-0.37548292 2.4040532 4.4025097
-0.32965526 2.4069257 4.4104929
-0.20193377 2.4015136 4.406208
-0.17902721 2.4039297 4.4113746
0.84473991 2.4005997 4.4006886
0.91799903 2.409421 4.4064174
-2.3702559 -0.51198781 4.45121
-2.3303552 -0.5109117 4.455102
-2.274817 -0.50891125 4.4548502
-2.2179935 -0.51508737 4.4590716
-2.1755261 -0.51418 4.4644799
-2.0325356 -0.5120213 4.4518127
-2.370435 -0.47709024 4.4543381
-2.3325825 -0.47650084 4.462172
-2.2793014 -0.47511303 4.4663672
-2.2232809 -0.47308993 4.4639034
-2.1685433 -0.47125387 4.4626498
-2.0773015 -0.46554893 4.4557858
-2.0337608 -0.46677628 4.4579992
-1.9779081 -0.45303544 4.4502239
-2.3825903 -0.4305799 4.4541388
-2.3303518 -0.42956546 4.4612842
-2.2771981 -0.42832655 4.4655957
-2.2223797 -0.42672253 4.4654374
-2.1693943 -0.42539763 4.4676466
-2.1175861 -0.41968572 4.4621749
-2.0807307 -0.42604437 4.4584093
-2.0335498 -0.42115092 4.4606948
-1.9826704 -0.4154664 4.4538045
-1.9131963 -0.42858791 4.4505577
-2.3821917 -0.38390717 4.4564543
-2.3300953 -0.38302761 4.4638386
-2.2794218 -0.38234121 4.4729586
-2.2233212 -0.38070819 4.4702816
-2.1713624 -0.37970912 4.4746528
-2.113606 -0.37764537 4.4657679
-2.0734334 -0.37660652 4.4647465
-2.0317879 -0.3752616 4.4596753
-1.9899116 -0.38515687 4.4526567
-2.3814065 -0.32557514 4.4583144
-2.3322861 -0.32522941 4.4713035
-2.2761402 -0.32390219 4.4697452
-2.2206879 -0.33411151 4.467597
-2.1720541 -0.33699271 4.4692578
-2.1275363 -0.33222419 4.4696736
-2.0863404 -0.3311373 4.4666467
-2.0348248 -0.33339214 4.4590993
-1.9614483 -0.31620216 4.4503369
-1.6385137 -0.33300981 4.4529471
-2.3811541 -0.26731053 4.4606376
-2.3295102 -0.26676148 4.4687223
-2.2753346 -0.2658723 4.4709063
-2.2237232 -0.27680907 4.4764652
-2.1828909 -0.2760317 4.4760547
-2.1227686 -0.27425554 4.4623604
-2.0857134 -0.27390513 4.4679885
-2.0325727 -0.27715778 4.46065
-1.9749485 -0.2825917 4.4532914
-2.416733 -0.20913431 4.4503636
