ply
format ascii 1.0
comment PCL generated
element vertex 1444
property float x
property float y
property float z
element camera 0
property float view_px
property float view_py
property float view_pz
property float x_axisx
property float x_axisy
property float x_axisz
property float y_axisx
property float y_axisy
property float y_axisz
property float z_axisx
property float z_axisy
property float z_axisz
property float focal
property float scalex
property float scaley
property float centerx
property float centery
property int viewportx
property int viewporty
property float k1
property float k2
end_header
-0.94281411 -0.50132751 0.83020461
-1.0635573 -0.49158356 0.83740693
-1.0210778 -0.49484059 0.82804525
-0.97606862 -0.49689278 0.82558185
-0.9285776 -0.4971787 0.82361162
-0.87320226 -0.49625126 0.82254493
-0.82429266 -0.49521551 0.82335043
-0.77457327 -0.49363384 0.82492948
-0.72776657 -0.4918896 0.82462871
-0.67373854 -0.48942909 0.8259142
-0.62451595 -0.48697835 0.82719845
-0.57351524 -0.48463646 0.82260126
-0.52380145 -0.48315507 0.82349539
-0.47356698 -0.48135668 0.82451779
-0.42407218 -0.48049372 0.82496017
-0.37410218 -0.47972551 0.82417661
-0.32476184 -0.47893977 0.82604039
-0.2747159 -0.47828239 0.82468188
-0.2243937 -0.47726718 0.82384104
-0.17476082 -0.47689387 0.82434452
-0.12348048 -0.47592467 0.82455522
-0.073960163 -0.47527495 0.82235456
-0.025047544 -0.47490463 0.82406408
0.023973301 -0.47524825 0.82548839
0.07511998 -0.47459483 0.82500458
0.12423561 -0.47395641 0.82382387
0.17525895 -0.47333363 0.82504565
0.22568491 -0.47284696 0.82474506
0.27471742 -0.47256163 0.82427937
0.32445014 -0.4723517 0.82359594
0.3750076 -0.47261348 0.82541531
0.42374825 -0.47295934 0.82487214
0.47501275 -0.47364509 0.82435173
0.52535379 -0.47486505 0.82497191
0.57454622 -0.47565278 0.82354665
0.62506878 -0.47753403 0.82559603
0.6763584 -0.47906771 0.82554108
0.7246787 -0.4808735 0.82533711
0.7730478 -0.4812308 0.82643747
0.82451111 -0.48433286 0.82827657
0.87476605 -0.48553213 0.82555175
0.92643738 -0.48174161 0.82232732
0.97300905 -0.4662765 0.82648569
1.0014575 -0.45049298 0.83813989
0.99401212 -0.43038979 0.81549513
1.0066137 -0.42013413 0.83329087
0.9974947 -0.36707222 0.81040239
1.012225 -0.37991899 0.8308323
0.99551135 -0.32877591 0.80511343
1.0131396 -0.31978425 0.83438724
0.99297184 -0.27188516 0.81160551
1.0133286 -0.27612853 0.83968222
0.99350131 -0.22396678 0.8194043
1.0112467 -0.23700354 0.84749556
0.98874623 -0.17642824 0.81344491
1.0046413 -0.17062131 0.84037834
0.98982799 -0.12615286 0.81778175
1.0021803 -0.11579956 0.83852136
0.98361588 -0.073376924 0.81128734
1.0041364 -0.075220965 0.84386843
0.98600894 -0.024447534 0.82061911
1.0028369 -0.043115322 0.84472322
0.98399425 0.022995332 0.82323635
0.98313749 0.075447612 0.8309105
0.97213799 0.12458749 0.82542509
0.96538728 0.17524828 0.82600212
0.94839525 0.2457597 0.80935168
0.96130508 0.22322042 0.82781619
0.94335604 0.25712469 0.80529791
0.95922971 0.25532046 0.8314274
-0.96324062 -0.50002968 0.85372531
-1.1614329 -0.4888342 0.8996076
-1.1211183 -0.49051613 0.88195324
-1.0767478 -0.49349588 0.87333047
-1.0278183 -0.49577335 0.87651521
-0.97703946 -0.49493682 0.87362951
-0.92590076 -0.49564099 0.87550116
-0.87438411 -0.49526548 0.87195158
-0.82178992 -0.49353307 0.87303984
-0.77462143 -0.49284711 0.87567818
-0.72379446 -0.49124166 0.87447143
-0.673558 -0.48891643 0.87603486
-0.62413824 -0.48718628 0.8752808
-0.57599884 -0.48509651 0.87274998
-0.52552032 -0.48293358 0.8746112
-0.47404262 -0.48185158 0.87435114
-0.42523092 -0.48053485 0.8766132
-0.37535059 -0.48002613 0.87465483
-0.32570565 -0.47924188 0.87674761
-0.27526391 -0.47869623 0.87384373
-0.22622319 -0.4777694 0.87512118
-0.17488085 -0.4772847 0.87473863
-0.12504788 -0.47700122 0.87380821
-0.075330973 -0.47633126 0.87340933
-0.0259443 -0.4761118 0.87449449
0.024117284 -0.4757199 0.87497342
0.074629851 -0.47479674 0.87412894
0.12513258 -0.47437024 0.87471944
0.17509097 -0.47367704 0.87485993
0.22432344 -0.47306839 0.87507749
0.27430308 -0.47291324 0.87429833
0.32638368 -0.47311541 0.87402618
0.37529367 -0.4728933 0.87677068
0.42579406 -0.47326607 0.87467939
0.47598201 -0.47389036 0.87437642
0.52543515 -0.47480819 0.87386155
0.5736748 -0.47581044 0.87419897
0.6255945 -0.47772998 0.87694758
0.67387778 -0.47930062 0.87635809
0.72609746 -0.48175034 0.87463564
0.77468002 -0.48291808 0.87924403
0.82498634 -0.48384944 0.87758732
0.87546498 -0.48205361 0.86989456
0.92187822 -0.4820314 0.8748126
0.97753316 -0.47606733 0.8746134
1.0163785 -0.4637295 0.88349938
1.0273501 -0.42484713 0.87208694
1.0371038 -0.37433034 0.87426728
1.0383732 -0.32497188 0.87692034
1.0515395 -0.34514627 0.88990122
1.0284063 -0.2748653 0.87180901
1.0274037 -0.22140244 0.87885058
1.0232036 -0.17825012 0.8758316
1.0241019 -0.1257614 0.87345928
1.0191543 -0.074205749 0.87226725
1.0165266 -0.026280208 0.87320966
0.9986797 0.038451999 0.85195482
1.0127041 0.025767092 0.87430316
0.99465364 0.073539108 0.85730183
1.0132787 0.068654694 0.88047522
0.99121612 0.12947759 0.86060083
1.0080154 0.11911669 0.88556594
0.99273139 0.17596041 0.87404484
1.0040714 0.16532855 0.89551669
0.9874447 0.22661608 0.87508523
0.98228985 0.25659695 0.87478513
-1.2588888 -0.49169102 0.94910693
-1.2132956 -0.49013543 0.93182909
-1.1729193 -0.49023691 0.92261285
-1.1246994 -0.49233365 0.92575312
-1.0727538 -0.49278641 0.92643291
-1.0264038 -0.49466124 0.92686868
-0.97468132 -0.49344367 0.92573541
-0.9250108 -0.49308786 0.92434192
-0.87727594 -0.49426943 0.92238379
-0.82540166 -0.49291477 0.92111057
-0.77323085 -0.49182525 0.92485428
-0.72619522 -0.49219704 0.92604607
-0.67601252 -0.48996249 0.92727411
-0.62463355 -0.48820665 0.92323369
-0.5738377 -0.48520273 0.92496854
-0.52412313 -0.48337421 0.92421848
-0.47532654 -0.48232505 0.92556423
-0.42506352 -0.48067239 0.92484438
-0.37546477 -0.4806582 0.92630833
-0.3243266 -0.47994944 0.92692226
-0.27545938 -0.47903502 0.92522037
-0.22465318 -0.47839192 0.92587662
-0.17392512 -0.47702909 0.92283273
-0.12442436 -0.47693551 0.92519164
-0.075332306 -0.47616389 0.92320883
-0.025607165 -0.47640014 0.92367864
0.024959976 -0.47576952 0.92423028
0.074981935 -0.47529656 0.92616254
0.12528534 -0.47477007 0.92469007
0.17486933 -0.47403949 0.92523634
0.22639538 -0.4733285 0.9234491
0.27503583 -0.47316825 0.92393452
0.32420194 -0.47337008 0.92463523
0.37511608 -0.47327119 0.92549473
0.42483076 -0.4735058 0.92463434
0.47457531 -0.47421938 0.92419463
0.52381539 -0.47524807 0.92522383
0.57402724 -0.47668484 0.92427069
0.62290865 -0.47784615 0.92326087
0.67389184 -0.47886893 0.92211962
0.72569376 -0.47984001 0.923347
0.77346355 -0.48191893 0.92508763
0.82645106 -0.48395619 0.92576116
0.87706012 -0.4846603 0.9257521
0.9285748 -0.48273185 0.9243713
0.97201264 -0.47617975 0.91911298
1.0251441 -0.46694094 0.92419636
1.0531145 -0.45279381 0.94093162
1.0429431 -0.4296425 0.90400988
1.0570754 -0.42722544 0.92905343
1.0642805 -0.37834844 0.92508978
1.0477488 -0.33968827 0.90003586
1.0650431 -0.32705551 0.92650384
1.0478795 -0.27507025 0.90625942
1.0586593 -0.27683038 0.92797816
1.0488597 -0.22936535 0.91776419
1.0595334 -0.22458626 0.93556786
1.0433298 -0.17310824 0.91140211
1.0572876 -0.16695793 0.93676108
1.0421479 -0.12849218 0.909199
1.0563827 -0.12150545 0.9375549
1.0416081 -0.075870678 0.91390622
1.0561402 -0.074262723 0.94135284
1.0396941 -0.025216108 0.91758204
1.0557411 -0.035705753 0.94441211
1.0396436 0.023234244 0.92217678
1.0526246 0.0089187939 0.94499922
1.0344014 0.077175677 0.9242186
1.0291135 0.1264707 0.92719668
1.022285 0.17547001 0.92686385
0.99847794 0.2436974 0.90160209
1.0143809 0.22210459 0.92420661
0.99524736 0.26268339 0.90553617
1.0104063 0.25645369 0.92902547
-1.3138572 -0.48907462 0.99206334
-1.2668185 -0.48955452 0.97525275
-1.2224075 -0.49045163 0.97410911
-1.1699089 -0.48901489 0.97426677
-1.12335 -0.49190781 0.97477937
-1.0721364 -0.49206841 0.97553688
-1.0234387 -0.49195099 0.97642916
-0.9747017 -0.49292636 0.97537094
-0.92194474 -0.49305379 0.97481316
-0.87637746 -0.49336097 0.97359151
-0.82229012 -0.49164438 0.97251427
-0.77480173 -0.49201524 0.97359288
-0.72608429 -0.49097767 0.9755609
-0.67750883 -0.48904356 0.97496241
-0.62623203 -0.48880467 0.97444081
-0.57499617 -0.48600048 0.97569281
-0.5242787 -0.48465648 0.97374475
-0.47385076 -0.48288679 0.97659993
-0.42322427 -0.48229232 0.97690654
-0.37483117 -0.48120531 0.9750461
-0.32376456 -0.48020273 0.97485274
-0.27344915 -0.47937119 0.97507411
-0.22567895 -0.47869354 0.97687066
-0.17508918 -0.47781038 0.97334987
-0.12440418 -0.47739303 0.97838992
-0.075331412 -0.47710013 0.97548687
-0.026791552 -0.47712827 0.9736104
0.024015844 -0.476648 0.97434467
0.07554777 -0.47627154 0.9754054
0.12458261 -0.47545108 0.97420806
0.1749794 -0.47437066 0.97622681
0.22405413 -0.47376633 0.97345847
0.27487984 -0.47395998 0.97435337
0.32364228 -0.47353756 0.97431004
0.37444714 -0.47378275 0.97398889
0.42525047 -0.47415996 0.97561026
0.47512195 -0.47478059 0.97654259
0.52568716 -0.47599894 0.97421759
0.57485801 -0.47675142 0.97299933
0.62384027 -0.47897896 0.97374672
0.67547518 -0.4799718 0.97849339
0.72369963 -0.48028907 0.97442168
0.77307457 -0.48076665 0.97268188
0.82139444 -0.48160699 0.97673953
0.87320721 -0.48265916 0.97924793
0.92147052 -0.48402303 0.97330236
0.97365057 -0.48064035 0.97046643
1.0241275 -0.47291771 0.9772982
1.0609261 -0.46129784 0.97476554
1.0818106 -0.42627767 0.97351658
1.0877919 -0.37547222 0.9710542
1.1036437 -0.36669138 0.99730325
1.0853024 -0.32428491 0.97048914
1.1028467 -0.31690893 0.99783683
1.0830544 -0.27092627 0.97449309
1.080225 -0.22343343 0.97712642
1.0744692 -0.17822702 0.97249782
1.0744785 -0.12560081 0.97484756
1.0750133 -0.074441969 0.97804713
1.0693512 -0.024473544 0.97556639
1.0630816 0.025118256 0.97394824
1.0483338 0.050967168 0.95167238
1.0621425 0.073128 0.97891879
1.042908 0.11299615 0.95611447
1.0580623 0.12831362 0.98415583
1.042177 0.17703012 0.96477205
1.0566704 0.17221485 0.99007636
1.0349203 0.22634237 0.9671427
1.0531281 0.21216124 0.99130666
1.0290807 0.2557725 0.97282726
-1.3647829 -0.48725843 1.0276538
-1.3200315 -0.48674732 1.0253339
-1.2784134 -0.48905471 1.024582
-1.2230216 -0.48980626 1.0253357
-1.171845 -0.49117979 1.0268155
-1.1263348 -0.49032545 1.0279392
-1.0779773 -0.49005547 1.0232019
-1.0262938 -0.48954538 1.0243385
-0.97635251 -0.49089333 1.0222046
-0.92669737 -0.49130321 1.0219988
-0.87220544 -0.49101993 1.0238966
-0.82639819 -0.49169609 1.0256115
-0.77304077 -0.49061948 1.0223444
-0.72720134 -0.4906202 1.0279133
-0.67512 -0.48975173 1.0246539
-0.62553841 -0.48821452 1.0266907
-0.57464975 -0.48745561 1.0270967
-0.52263665 -0.48498499 1.0215727
-0.47509208 -0.48387951 1.0269438
-0.4262051 -0.48346123 1.0266913
-0.37382028 -0.48202533 1.026577
-0.32625577 -0.48064458 1.023091
-0.27557012 -0.47990146 1.0239315
-0.22432679 -0.47883373 1.0247695
-0.17475627 -0.47827911 1.0239679
-0.12491982 -0.47817633 1.0250746
-0.074070126 -0.47769424 1.0258234
-0.0240885 -0.47844964 1.0246377
0.02470902 -0.47757715 1.0237336
0.074333653 -0.47722337 1.0212752
0.12590644 -0.47628248 1.0269388
0.17450871 -0.47583008 1.0246677
0.22551517 -0.47454581 1.0243809
0.27486074 -0.4745003 1.0259306
0.32400739 -0.47504666 1.0269297
0.3731803 -0.47516498 1.0239581
0.42541391 -0.47506434 1.0276695
0.47678977 -0.47601238 1.0303937
0.52406323 -0.47712862 1.0253692
0.57399285 -0.4778792 1.0237064
0.62548 -0.47927687 1.0267129
0.67395443 -0.48010516 1.0267602
0.72253776 -0.47970501 1.0248164
0.77242124 -0.48050421 1.028338
0.82310498 -0.48020387 1.0253686
0.8770358 -0.48078045 1.0252022
0.92679614 -0.48164973 1.0230817
0.97584587 -0.48067963 1.0227476
1.0277658 -0.47602612 1.0290987
1.0728325 -0.4632639 1.0195221
1.1058654 -0.45510983 1.0423628
1.0963167 -0.44411328 1.0128334
1.1137633 -0.42255276 1.0288945
1.113744 -0.37566072 1.020017
1.1158303 -0.33037391 1.0257341
1.096199 -0.26466227 1.0043039
1.1076851 -0.2781398 1.020977
1.0968877 -0.24468751 1.0093068
1.1076792 -0.22348954 1.030338
1.0912528 -0.16222873 1.0055418
1.1035699 -0.17522745 1.0279646
1.095808 -0.12489167 1.0170962
1.1073322 -0.12608556 1.0377091
1.0922346 -0.075348929 1.0176252
1.1049869 -0.073948905 1.0398153
1.091776 -0.026182503 1.0230364
1.087798 0.02473549 1.0255049
1.1014706 0.00051655562 1.0387043
1.0823915 0.075371929 1.0238969
1.0815552 0.12645271 1.0288893
1.0702158 0.17655057 1.021886
1.0493015 0.23623896 1.001458
1.0640622 0.2244643 1.0239962
1.060576 0.25521258 1.0257655
-1.4226539 -0.49562699 1.089197
-1.3821392 -0.49102467 1.0734366
-1.3219715 -0.48600537 1.0749723
-1.2699585 -0.48665261 1.0728307
-1.2243323 -0.48604766 1.0759786
-1.1781985 -0.48878136 1.0739034
-1.1292953 -0.48824492 1.0765678
-1.0740174 -0.48752028 1.0777389
-1.0234278 -0.49017555 1.0692972
-0.97236776 -0.48906597 1.0716468
-0.92531371 -0.48979563 1.0727688
-0.8741712 -0.49058759 1.0728917
-0.82515007 -0.49048498 1.0744243
-0.77933925 -0.49015036 1.0764458
-0.72423881 -0.48948225 1.0762265
-0.67705441 -0.49012923 1.0768119
-0.62340826 -0.48856589 1.0756426
-0.57342976 -0.4871355 1.076
-0.52642405 -0.48583663 1.0756977
-0.47413519 -0.48454523 1.0739887
-0.42398787 -0.48389402 1.0763173
-0.37555337 -0.48348099 1.0780706
-0.32512721 -0.48244819 1.076106
-0.27379021 -0.48163515 1.0775679
-0.22370957 -0.48002559 1.0750085
-0.17382281 -0.47989243 1.0753759
-0.12436473 -0.47927058 1.0700219
-0.07489267 -0.47911391 1.0734932
-0.024237517 -0.47882551 1.0739108
0.024710994 -0.47826803 1.0729179
0.074596584 -0.47847685 1.0736541
0.1243632 -0.47772092 1.0782901
0.17610377 -0.47667044 1.0722889
0.22332802 -0.47589216 1.0741235
0.27423269 -0.47509325 1.0730271
0.32428765 -0.47543976 1.0738243
0.37469673 -0.47566873 1.0756525
0.42389226 -0.47555214 1.0739549
0.47183338 -0.47641742 1.0772316
0.52539998 -0.4775115 1.0773739
0.57508808 -0.47851807 1.0753864
0.62471056 -0.47978681 1.0762795
0.67476082 -0.47924209 1.0697784
0.7240988 -0.479431 1.0759286
0.77296853 -0.4789305 1.0766124
0.82564533 -0.48027122 1.0753827
0.87427515 -0.48002613 1.072493
0.92402089 -0.47918931 1.0755677
0.97654492 -0.47980309 1.075611
1.0258822 -0.47698951 1.0736473
1.0777179 -0.46961513 1.0726482
1.1136171 -0.45816129 1.0808703
1.13383 -0.42790604 1.0738963
1.139871 -0.37580431 1.0689796
1.1518148 -0.37952423 1.0932379
1.1324351 -0.31965321 1.0625746
1.1518377 -0.33573389 1.0961751
1.1319777 -0.27405694 1.0703788
1.131633 -0.22557789 1.0772078
1.1233259 -0.17644951 1.0692434
1.1223105 -0.12584244 1.0739492
1.1205639 -0.075716533 1.0738102
1.1154263 -0.027079301 1.0708268
1.116341 0.022876373 1.0824838
1.0984437 0.092465304 1.0574813
1.1100599 0.073626965 1.0775615
1.093684 0.12301382 1.0564067
1.1076398 0.12462419 1.0836613
1.0946951 0.17680168 1.0679146
1.1063503 0.16299725 1.0881027
1.0883607 0.22725095 1.0713645
1.1011764 0.21757853 1.0965285
1.0880222 0.25728139 1.0820111
-1.4898947 -0.5075022 1.1175345
-1.5025324 -0.49758524 1.1468735
-1.4624387 -0.49266747 1.1136646
-1.4200245 -0.48993281 1.1205275
-1.373475 -0.48880073 1.1152455
-1.3295244 -0.48703259 1.1290591
-1.2764136 -0.48626301 1.1219891
-1.2229216 -0.4848668 1.1245228
-1.1745119 -0.48544496 1.1295936
-1.1268268 -0.48568308 1.1215366
-1.0712717 -0.4876312 1.1261721
-1.0225062 -0.48868269 1.1207232
-0.97641033 -0.48952529 1.1267179
-0.92314792 -0.48856014 1.1257545
-0.87296736 -0.48899141 1.1204972
-0.82191938 -0.48895085 1.1221055
-0.77415133 -0.48941949 1.1264173
-0.72602022 -0.49002001 1.1289538
-0.67812657 -0.48937029 1.1272837
-0.62694955 -0.48814663 1.1232214
-0.57422942 -0.48806313 1.124423
-0.52366042 -0.48690242 1.1272728
-0.47298726 -0.48558772 1.1256988
-0.42431703 -0.48458195 1.1266279
-0.37458137 -0.48401979 1.1266338
-0.32251313 -0.48315242 1.1259848
-0.27618575 -0.48151019 1.12672
-0.22554506 -0.48032603 1.1228843
-0.17506354 -0.48079762 1.1237895
-0.12714313 -0.48106071 1.1230183
-0.074758857 -0.47980168 1.1203606
-0.027712835 -0.4806155 1.1264529
0.025199711 -0.48001158 1.1251446
0.074994557 -0.47919938 1.1247706
0.12543224 -0.47935408 1.1256241
0.17566508 -0.47759667 1.1213053
0.22449504 -0.47696748 1.1227927
0.27295801 -0.47658688 1.1223179
0.32367194 -0.47721204 1.1245536
0.37767804 -0.47581109 1.1233543
0.4254581 -0.47661042 1.1232986
0.47785732 -0.47667733 1.1250914
0.52452284 -0.47754326 1.12561
0.57442868 -0.47896895 1.1252046
0.6262275 -0.47905302 1.1229308
0.67533046 -0.4789876 1.1230254
0.72536546 -0.47788972 1.1258681
0.77543831 -0.47843117 1.1223248
0.82623678 -0.47724044 1.1233273
0.87126374 -0.47652009 1.1231201
0.92603582 -0.47723806 1.1229943
0.9777416 -0.47679767 1.1235449
1.0235126 -0.47758061 1.1278268
1.0758023 -0.47445241 1.1247118
1.1253357 -0.46337909 1.1244419
1.153726 -0.45564851 1.1340369
1.1447737 -0.440431 1.1071203
1.1641444 -0.42502862 1.1274469
1.169505 -0.3726134 1.1275092
1.164865 -0.32367933 1.1209549
1.147266 -0.26601946 1.1079264
1.1662744 -0.27862066 1.1316528
1.147509 -0.22937268 1.1084419
1.159362 -0.21562064 1.1318749
1.1449848 -0.17332119 1.1078677
1.1551384 -0.17253375 1.1299747
1.1438527 -0.12369124 1.1124661
1.1526881 -0.12012889 1.1350521
1.1421936 -0.077190138 1.1174108
1.1559582 -0.075736336 1.1416117
1.1403395 -0.026958 1.1207645
1.1523026 -0.042908613 1.139452
1.1340868 0.025346471 1.1216724
1.1291666 0.08032617 1.1206607
1.128195 0.12733632 1.1251258
1.1208684 0.17462032 1.120312
1.113584 0.22453971 1.1203542
1.0994862 0.26253399 1.1131605
1.1087192 0.25576305 1.1289278
-1.5232879 -0.50154352 1.195599
-1.4705535 -0.4926849 1.1515433
-1.4153025 -0.4922902 1.1738722
-1.3561716 -0.48483637 1.1736847
-1.3229383 -0.48775837 1.1758057
-1.2744274 -0.48453704 1.1698179
-1.224371 -0.48304993 1.1743085
-1.1654797 -0.48337725 1.1720036
-1.1208615 -0.48707533 1.17557
-1.0749199 -0.48703352 1.1761018
-1.0257012 -0.48690468 1.171448
-0.97388178 -0.48737633 1.1731529
-0.92274994 -0.48771858 1.1777174
-0.87713617 -0.48916447 1.1754032
-0.82579535 -0.4896169 1.1787194
-0.77240163 -0.48954633 1.1772534
-0.72127312 -0.48860404 1.1764368
-0.67336673 -0.48955742 1.1784636
-0.6235742 -0.48915267 1.1737639
-0.57509726 -0.48929983 1.1768836
-0.52507466 -0.48793399 1.177735
-0.47726202 -0.48588583 1.1734353
-0.42368013 -0.48615837 1.1785433
-0.37518013 -0.4847213 1.17377
-0.32571697 -0.48362598 1.1739869
-0.27446148 -0.48148993 1.1757306
-0.22442056 -0.4813576 1.1747835
-0.17585546 -0.48142096 1.1727906
-0.12445537 -0.48131579 1.1759683
-0.077946506 -0.48171258 1.1724889
-0.02550292 -0.48008662 1.177803
0.021687757 -0.48115498 1.1763796
0.07610213 -0.47992337 1.1758957
0.12551774 -0.47971222 1.1743543
0.17507172 -0.47806785 1.1709186
0.22852321 -0.47827014 1.1727678
0.27741939 -0.4770346 1.1701975
0.32610035 -0.47639036 1.1738327
0.37441209 -0.47686127 1.1723708
0.42285818 -0.4762516 1.170379
0.47352332 -0.4765639 1.1738737
0.52464193 -0.47737402 1.1776249
0.57462865 -0.47793916 1.1743574
0.62332672 -0.47786024 1.1759008
0.67460078 -0.47708035 1.1767745
0.72307581 -0.47801596 1.1769242
0.77580583 -0.47717139 1.1768465
0.82452381 -0.47655362 1.1726016
0.87260443 -0.47529778 1.1752573
0.91957128 -0.47461361 1.1723006
0.97312832 -0.47530037 1.1782966
1.025743 -0.47576085 1.1710242
1.0772182 -0.47546616 1.1723573
1.1263511 -0.47129083 1.177236
1.1648326 -0.45831564 1.1718233
1.1889886 -0.42587507 1.1754764
1.2036164 -0.40254536 1.1909404
1.1947185 -0.37788391 1.1732122
1.2048717 -0.37474564 1.1924679
1.1845971 -0.32714596 1.1609918
1.202171 -0.32220602 1.1924099
1.1822274 -0.2715953 1.1673179
1.1837082 -0.22781034 1.1745311
1.1784738 -0.17867887 1.1741674
1.1765807 -0.12630281 1.1792278
1.1717293 -0.073212907 1.1776013
1.1678456 -0.025429243 1.1759402
1.1490939 0.044198647 1.156459
1.1615622 0.018039111 1.1712577
1.1459562 0.07701426 1.1585532
1.1614068 0.072815061 1.1787217
1.1481441 0.11267575 1.1627769
1.159454 0.12545446 1.1803876
1.143958 0.18072255 1.1639891
1.1590703 0.17077565 1.1887552
1.1364322 0.23032907 1.1630048
1.1532819 0.22479011 1.1913071
1.1336865 0.25857764 1.1714077
1.3220628 0.42529163 1.1834538
1.3192021 0.47036371 1.1958519
1.365387 0.4552713 1.1829406
1.309376 0.52425712 1.1988422
-1.4621204 -0.49736434 1.2313199
-1.418286 -0.49252927 1.2157537
-1.3707547 -0.48843932 1.2083516
-1.3197664 -0.4836688 1.2238641
-1.2732266 -0.48334631 1.223823
-1.2247081 -0.48469293 1.221705
-1.1721605 -0.48541716 1.2228979
-1.12173 -0.48481929 1.221975
-1.072028 -0.48712793 1.222916
-1.0248268 -0.4867242 1.2241852
-0.97287178 -0.48759699 1.2238148
-0.92391783 -0.48885795 1.2302645
-0.87188244 -0.48924065 1.2236993
-0.82907212 -0.49012765 1.2304921
-0.77573657 -0.4886215 1.2275219
-0.72505736 -0.48981005 1.2254111
-0.67453957 -0.48874903 1.2267685
-0.62706226 -0.48946089 1.2267842
-0.57799649 -0.48825118 1.2241738
-0.52576721 -0.48817056 1.2269781
-0.47392851 -0.48752823 1.2237459
-0.42670402 -0.48621154 1.2254571
-0.37330779 -0.48574132 1.2237314
-0.32471994 -0.48303947 1.2253805
-0.27673173 -0.48265886 1.228976
-0.22500822 -0.48152977 1.2226237
-0.17557229 -0.48169044 1.2236979
-0.12647238 -0.48218152 1.2289946
-0.073834993 -0.48265406 1.2271203
-0.024669075 -0.4817574 1.2291906
0.026032394 -0.48145062 1.2230978
0.073543265 -0.48102245 1.2298787
0.12409554 -0.48055553 1.2273186
0.17451927 -0.48112968 1.2254301
0.22481556 -0.47942331 1.2237509
0.27195987 -0.47811317 1.2245777
0.3253752 -0.47745669 1.2262053
0.37356344 -0.47719133 1.2238322
0.42526168 -0.47684184 1.2236582
0.47645092 -0.47599381 1.2230245
0.52451253 -0.47684428 1.2267199
0.57300913 -0.47743043 1.2250214
0.62730575 -0.47691467 1.2270702
0.67625743 -0.47748843 1.2295949
0.72417092 -0.47707239 1.2292988
0.77243066 -0.47474545 1.2233272
0.82339203 -0.4742111 1.2209928
0.87458009 -0.47366878 1.22182
0.92339617 -0.4725157 1.2230555
0.97205275 -0.47367379 1.2283093
1.0230736 -0.47510833 1.2243623
1.0745519 -0.47765431 1.2280047
1.1292235 -0.47518888 1.2316195
1.1763352 -0.46286944 1.2266644
1.2018975 -0.45236203 1.2360294
1.2159824 -0.42763889 1.2266999
1.2183459 -0.37631184 1.2204168
1.2154541 -0.32320321 1.2192684
1.2163206 -0.27668443 1.227579
1.1960015 -0.2316249 1.2069947
1.2108126 -0.22708179 1.229483
1.1937115 -0.16737075 1.2108769
1.2088838 -0.17003536 1.2339591
1.1888899 -0.13264066 1.2124538
1.2045575 -0.11762554 1.2361183
1.1943653 -0.073901683 1.2187616
1.2043272 -0.074155703 1.2373151
1.1923941 -0.026273035 1.2255137
1.2011166 -0.011111413 1.2455096
1.1862186 0.025848093 1.2226686
1.2005018 0.0082258359 1.2448683
1.1829917 0.075103745 1.2290301
1.1780429 0.12809952 1.2203795
1.178775 0.17621723 1.2253718
1.1707535 0.22608365 1.2225677
1.1638464 0.25727379 1.2211103
1.3137877 0.48446074 1.2016337
1.3150215 0.51686937 1.2076898
1.307919 0.56871241 1.2048967
-1.4855709 -0.49796996 1.2619749
-1.4185827 -0.49753281 1.2731066
-1.3834718 -0.49075755 1.2706033
-1.3130878 -0.4845787 1.2792414
-1.2673067 -0.48449224 1.2788663
-1.2221693 -0.48556837 1.2726196
-1.1776621 -0.48530197 1.2783052
-1.1254948 -0.48650092 1.2702695
-1.0768713 -0.4862273 1.2747557
-1.0188857 -0.48618752 1.2730972
-0.97311723 -0.48534602 1.2745968
-0.92867202 -0.48888093 1.275956
-0.87437278 -0.48957676 1.2722498
-0.8268916 -0.48992765 1.271661
-0.77329332 -0.49014166 1.2765421
-0.72334516 -0.4897536 1.2728664
-0.67499858 -0.4891167 1.2769023
-0.62608522 -0.48915216 1.2747535
-0.57754672 -0.48980328 1.2772671
-0.52313 -0.48754817 1.2757478
-0.47177261 -0.4865078 1.266978
-0.42541489 -0.48729363 1.2758929
-0.37509382 -0.48569956 1.2741395
-0.32651198 -0.48357832 1.2784123
-0.27378333 -0.48242986 1.2740072
-0.22628166 -0.48199463 1.2673895
-0.17530118 -0.48371732 1.2759795
-0.12330636 -0.4836691 1.2772628
-0.077008203 -0.48242232 1.2731981
-0.028373262 -0.48287079 1.2751486
0.023438998 -0.48291412 1.2735895
0.075318597 -0.48361626 1.2823818
0.12507373 -0.48103881 1.2773085
0.17450103 -0.48018274 1.2760452
0.2232568 -0.47942421 1.2741537
0.27385128 -0.47842926 1.2739931
0.3234573 -0.47747502 1.2727302
0.37416193 -0.47633389 1.2733914
0.42602363 -0.47572175 1.2729769
0.47433466 -0.47650602 1.274287
0.52570379 -0.4759236 1.274945
0.57621026 -0.47599578 1.2745233
0.62578666 -0.47502962 1.2744853
0.67559254 -0.47487703 1.2735692
0.72211063 -0.47336981 1.2694812
0.7755149 -0.47397688 1.2728935
0.82503366 -0.47350648 1.2720888
0.87478203 -0.47345766 1.276232
0.92337698 -0.47382289 1.2718954
0.97580528 -0.47182474 1.2807002
1.0239227 -0.47334436 1.2727071
1.0728979 -0.47559473 1.2717309
1.1238637 -0.47558081 1.2750539
1.1763054 -0.46782458 1.2768477
1.2279326 -0.45704642 1.2806888
1.2369347 -0.42595375 1.2678938
1.2516806 -0.42422682 1.2930925
1.2425835 -0.36768901 1.2645153
1.2533929 -0.379738 1.2828611
1.2450645 -0.32929647 1.2753129
1.2562757 -0.32326934 1.299293
1.2417715 -0.27317697 1.2780263
1.2514241 -0.29962155 1.2833153
1.2275459 -0.22030605 1.2661862
1.2262968 -0.17529254 1.2695324
1.2223799 -0.12745479 1.2710989
1.2163409 -0.077516146 1.2700846
1.216367 -0.028165931 1.2771798
1.1998838 0.0082639968 1.2587371
1.2133408 0.026082329 1.2799526
1.1969516 0.094206594 1.2671201
1.2125446 0.070584968 1.2850189
1.1978576 0.11400982 1.2548563
1.2119222 0.12849076 1.2828828
1.1966546 0.1865989 1.2607448
1.2120794 0.16497581 1.2854482
1.1965193 0.21791978 1.2681046
1.202577 0.22836283 1.2838608
1.1901019 0.25623953 1.2699072
-1.4444587 -0.50238633 1.3239988
-1.4457012 -0.49969044 1.3085762
-1.3181517 -0.48102376 1.3255141
-1.2752094 -0.48534235 1.3250743
-1.2163107 -0.4837997 1.3259716
-1.1733859 -0.48392844 1.3310686
-1.1249901 -0.48620951 1.3252828
-1.0748556 -0.4851284 1.3268459
-1.0295826 -0.48344237 1.3244982
-0.97675985 -0.48618212 1.3276311
-0.92533052 -0.48952168 1.3236382
-0.87641752 -0.48975435 1.3255118
-0.82206905 -0.4908981 1.3265572
-0.77416039 -0.49042007 1.3260269
-0.72362792 -0.48935932 1.3220414
-0.6754657 -0.49071902 1.3310159
-0.6237098 -0.48966888 1.3229547
-0.57720566 -0.48940587 1.3233234
-0.52373528 -0.4883917 1.3241967
-0.47473678 -0.48785886 1.3246592
-0.42394173 -0.4862892 1.3236974
-0.37665534 -0.48571825 1.3250051
-0.32550338 -0.4839426 1.3246601
-0.27514195 -0.48178506 1.3255467
-0.22470118 -0.48336592 1.3183676
-0.17646489 -0.48365217 1.3231519
-0.1270366 -0.48400244 1.3260622
-0.075754665 -0.48296541 1.3219386
-0.024240144 -0.48241454 1.3224964
0.025088655 -0.48352051 1.3218093
0.07716544 -0.48213115 1.3235631
0.12639958 -0.48201129 1.3267473
0.17598535 -0.48129252 1.3270203
0.22482361 -0.47927931 1.3203622
0.27689523 -0.47949344 1.325139
0.3249805 -0.4775252 1.3211499
0.37255132 -0.47722948 1.3249063
0.42338812 -0.47623548 1.3246186
0.47566426 -0.47622973 1.3273833
0.52264184 -0.47339335 1.3215414
0.57283837 -0.47310919 1.3213931
0.62446386 -0.47486612 1.3215905
0.67599648 -0.47502476 1.3253598
0.72841662 -0.47395465 1.3220832
0.78049546 -0.4732295 1.3228835
0.82881117 -0.47340068 1.3195105
0.86812758 -0.47136962 1.3223876
0.92625719 -0.47257015 1.320369
0.97738045 -0.47061336 1.3254339
1.0254283 -0.47302231 1.3283573
1.0754662 -0.47341698 1.3276638
1.12471 -0.47550926 1.3215146
1.1795523 -0.47190887 1.3224558
1.2176241 -0.4622007 1.3290485
1.2595739 -0.45510235 1.3345288
1.2497528 -0.42082334 1.3000544
1.2638402 -0.42555329 1.3201407
1.267576 -0.37923574 1.3213289
1.2700387 -0.32335502 1.3267398
1.2592506 -0.27935001 1.3158246
1.2490462 -0.21138768 1.3112381
1.2577106 -0.22711125 1.3267754
1.2436172 -0.1723794 1.312445
1.2592616 -0.17978178 1.3417017
1.2379473 -0.12475643 1.3087782
1.2559825 -0.12736419 1.3432485
1.2389998 -0.071420349 1.3189862
1.254024 -0.087378599 1.3438592
1.2371984 -0.030153565 1.3228043
1.2326818 0.02622574 1.3257371
1.2334388 0.07736364 1.3303407
1.2363855 0.12679787 1.3295196
1.2386175 0.1757489 1.332577
1.2280716 0.23069318 1.3283303
1.2197087 0.2570501 1.3256803
-1.3228459 -0.48523387 1.3903477
-1.2760669 -0.486011 1.3741627
-1.2239587 -0.48563626 1.3796513
-1.1673332 -0.4840031 1.3721358
-1.1257465 -0.48184285 1.3739771
-1.0692835 -0.4811053 1.3699405
-1.0274962 -0.48464584 1.3823737
-0.98065621 -0.48876286 1.3812814
-0.92808485 -0.48851722 1.3751048
-0.8792513 -0.48801255 1.3735828
-0.82300621 -0.4901185 1.3753151
-0.76837343 -0.49051732 1.3737649
-0.72314 -0.49206224 1.3825349
-0.67992318 -0.48925027 1.3725806
-0.62468183 -0.49020746 1.3736682
-0.56969988 -0.48885778 1.3736461
-0.52471709 -0.48872122 1.376382
-0.47586623 -0.48752126 1.3731757
-0.42569888 -0.48608577 1.3697088
-0.3795554 -0.48589998 1.3793672
-0.32369912 -0.48414281 1.3749105
-0.27475721 -0.48236814 1.3787476
-0.22628574 -0.4834213 1.3694526
-0.172943 -0.48434278 1.373481
-0.1207068 -0.48451987 1.3771911
-0.072036095 -0.48443538 1.3762459
-0.025893601 -0.4834913 1.3746735
0.025107156 -0.48288956 1.3716713
0.074811533 -0.4830797 1.3766159
0.12393367 -0.4827224 1.3750032
0.17414448 -0.48091072 1.3695687
0.22279644 -0.48028556 1.3723713
0.27140373 -0.48031807 1.3750842
0.32198548 -0.4782173 1.3733437
0.37735352 -0.47774166 1.3789601
0.42489663 -0.47613347 1.3773479
0.47223908 -0.47410166 1.3705709
0.52506584 -0.47447789 1.3740059
0.57784826 -0.47407806 1.3712767
0.62636751 -0.47323108 1.3717111
0.67399681 -0.47365171 1.3735428
0.72192967 -0.4718855 1.3723633
0.77219182 -0.47252551 1.3738395
0.82462704 -0.47228271 1.3761711
0.8770752 -0.47388244 1.3806851
0.92224157 -0.47296283 1.3774669
0.97459686 -0.47163397 1.3769475
1.0238823 -0.46847802 1.379593
1.0754255 -0.4712826 1.3747334
1.133895 -0.47375509 1.3762077
1.1821444 -0.47534385 1.3806366
1.21664 -0.46643299 1.3750552
1.2703366 -0.45939004 1.3713465
1.2865427 -0.42900768 1.3698214
1.2922914 -0.3766886 1.3677986
1.3032522 -0.37240684 1.3895756
1.2883803 -0.32741234 1.3660089
1.3063804 -0.34723052 1.3987135
1.2863035 -0.27218628 1.3726556
1.2819809 -0.22742188 1.3785763
1.2715257 -0.17323415 1.3795489
1.2692077 -0.13194874 1.3768731
1.2638643 -0.076712079 1.3758578
1.249733 -0.016042717 1.3569665
1.2589004 -0.026403269 1.3737233
1.2461655 0.019021183 1.3529638
1.2588454 0.017194407 1.3823528
1.2458746 0.083406493 1.3660171
1.2561129 0.071746059 1.3830837
1.2461807 0.14148207 1.3622047
1.2592586 0.11774898 1.3759323
1.2498257 0.19181409 1.3608873
1.2634598 0.17505269 1.3824435
1.2492784 0.2083628 1.3581672
1.25962 0.22309111 1.3835843
1.2445631 0.25066 1.3625708
1.2545445 0.25858453 1.3886733
-1.3618437 -0.49209943 1.4426098
-1.3093193 -0.48514742 1.4008963
-1.272828 -0.48777696 1.4228191
-1.2266204 -0.48470873 1.4170684
-1.1771555 -0.48419517 1.4156716
-1.1221515 -0.47732052 1.4285181
-1.0793252 -0.4795765 1.4233387
-1.0242257 -0.48257151 1.4240153
-0.97466999 -0.48540717 1.4215811
-0.92382872 -0.4876911 1.4265411
-0.8703472 -0.48972556 1.4228663
-0.82584524 -0.48985845 1.4271369
-0.77959114 -0.4896436 1.4247068
-0.72741061 -0.49148899 1.4260983
-0.67195719 -0.4916316 1.4251748
-0.62231231 -0.49087605 1.4268534
-0.57576585 -0.49155691 1.4281645
-0.52827293 -0.48945117 1.4246832
-0.47471228 -0.48912582 1.4183455
-0.4272435 -0.48750547 1.4248478
-0.37146914 -0.48446262 1.4241019
-0.32248846 -0.48208088 1.422851
-0.27397862 -0.48178908 1.4233339
-0.22362429 -0.48349965 1.4225019
-0.1779079 -0.48480994 1.4274423
-0.12695451 -0.48530322 1.4260516
-0.075941034 -0.48382467 1.4263798
-0.026500013 -0.4850522 1.4312241
0.022949141 -0.48303923 1.4253314
0.072031893 -0.48359346 1.4281213
0.12300571 -0.48233566 1.423133
0.17523772 -0.48122004 1.4229085
0.22545364 -0.4803544 1.4258518
0.27636641 -0.48015055 1.4237024
0.32714203 -0.47822696 1.4242631
0.37410876 -0.47726914 1.4234885
0.42505702 -0.47669038 1.4302931
0.4776198 -0.47469854 1.4263804
0.52508014 -0.47502118 1.4250789
0.57572913 -0.47459963 1.4237933
0.62010533 -0.47363332 1.4215049
0.67474324 -0.47275493 1.4252861
0.72804993 -0.4721159 1.4300556
0.7713654 -0.47102126 1.4220088
0.82158244 -0.47152832 1.4278405
0.87628716 -0.47128496 1.4323571
0.92100251 -0.46914545 1.431886
0.97300643 -0.4671315 1.424644
1.0232302 -0.46710929 1.4298137
1.0751575 -0.46859187 1.432354
1.1249002 -0.4707205 1.4224091
1.1684815 -0.47216657 1.4297154
1.2282302 -0.46867284 1.4273013
1.2712802 -0.46052265 1.423931
1.3038599 -0.45543373 1.4208298
1.3172153 -0.4232136 1.4260024
1.3145586 -0.37152168 1.4171517
1.3162023 -0.32255957 1.422341
1.2975612 -0.28445405 1.4009471
1.316003 -0.277289 1.4347384
1.2939788 -0.22010693 1.4114597
1.3086234 -0.23625006 1.4374647
1.2885547 -0.17625268 1.4181346
1.3089437 -0.18365438 1.4443022
1.2885127 -0.12091907 1.420583
1.2877152 -0.072213247 1.4235303
1.2815714 -0.028140644 1.4206519
1.2738559 0.00047723507 1.4150034
1.2670182 0.083564281 1.4131813
1.2816641 0.12503617 1.4261819
1.2815993 0.17768052 1.4208443
1.2793683 0.22975603 1.4274068
1.2732739 0.25556636 1.4269738
-1.3713461 -0.4913078 1.4814472
-1.3044709 -0.49118963 1.4828256
-1.2862768 -0.48433709 1.4620399
-1.2347697 -0.48478499 1.4710671
-1.1924824 -0.4791449 1.4584774
-1.1074524 -0.47822052 1.4775498
-1.0621164 -0.48030734 1.4706253
-1.0238205 -0.48522314 1.4815593
-0.97367305 -0.48753133 1.4763181
-0.91580743 -0.48589727 1.4761186
-0.8732729 -0.48720926 1.4772981
-0.82350695 -0.48864436 1.4768687
-0.77775455 -0.49240568 1.4753501
-0.72381294 -0.49122992 1.4791734
-0.67342722 -0.49218267 1.4708905
-0.62436414 -0.49099523 1.4797089
-0.57698262 -0.49217933 1.4779693
-0.52359086 -0.49196258 1.476396
-0.47376281 -0.48868972 1.4681828
-0.42301446 -0.48863038 1.4753817
-0.37514222 -0.48567867 1.4715184
-0.32315111 -0.48243055 1.4769515
-0.27345178 -0.48279008 1.4743289
-0.22654782 -0.48351288 1.4732496
-0.17239302 -0.48711511 1.4781526
-0.12119042 -0.48601729 1.4764119
-0.076058403 -0.48463479 1.4727677
-0.02727942 -0.48428586 1.4752382
0.023654085 -0.48357892 1.4731352
0.075826183 -0.48380178 1.4760438
0.12960815 -0.4835785 1.4782413
0.17917098 -0.48321676 1.4805213
0.22426844 -0.48151875 1.4804472
0.27572602 -0.48135936 1.4755456
0.32880098 -0.47826812 1.4779723
0.37365457 -0.47636375 1.4710633
0.42836788 -0.47449914 1.4732465
0.47501314 -0.47428665 1.4770877
0.52463323 -0.47362489 1.4762353
0.57415432 -0.47245145 1.4738953
0.62309879 -0.47213823 1.4767158
0.67474085 -0.47241452 1.4783292
0.72158408 -0.4709239 1.4732012
0.77122551 -0.47066319 1.4770088
0.82336974 -0.46877387 1.4721066
0.87603915 -0.46988145 1.4774417
0.92705345 -0.46492851 1.4836406
0.97660631 -0.46509564 1.4739342
1.0271456 -0.46311054 1.4752824
1.0776274 -0.46568829 1.4747772
1.1286477 -0.46775368 1.4826986
1.179818 -0.4685739 1.4733895
1.220242 -0.46877274 1.4715648
1.2810787 -0.46324646 1.479483
1.3238403 -0.45815507 1.4760342
1.3383622 -0.42912576 1.4744864
1.354903 -0.40429282 1.4939477
1.3421595 -0.37402233 1.468102
1.3544117 -0.38575697 1.4975567
1.3360108 -0.30484104 1.466125
1.3515598 -0.33220285 1.4874783
1.325074 -0.27657488 1.4669081
1.3231454 -0.22523013 1.4763805
1.3104695 -0.17524223 1.4658997
1.2962058 -0.13940583 1.4506973
1.3220301 -0.13326682 1.4802924
1.2989106 -0.078371845 1.4575397
1.3032289 -0.078653812 1.4623621
1.2987486 -0.034561932 1.4587369
1.293776 0.11886185 1.4615119
1.3060892 0.14240114 1.4779118
1.2974818 0.15802516 1.4501172
1.3136172 0.17551483 1.4778328
1.2964301 0.2205992 1.4585563
1.3068402 0.22287251 1.4757271
1.3161699 0.26148415 1.4926188
-1.3108953 -0.48960319 1.5188365
-1.2797698 -0.48600212 1.5230519
-1.2439252 -0.48439038 1.5164311
-1.1108493 -0.47786519 1.5048746
-1.0830387 -0.4824245 1.5210822
-1.0260433 -0.48462951 1.5245665
-0.9749493 -0.48582405 1.5264226
-0.92498928 -0.48468062 1.5305247
-0.86402816 -0.48566586 1.5209777
-0.82703334 -0.48955312 1.5222248
-0.76848048 -0.48982358 1.5218048
-0.72220522 -0.49218401 1.5199221
-0.67834997 -0.49226722 1.5216454
-0.62522465 -0.49210584 1.5293018
-0.57254463 -0.49088132 1.5240829
-0.52069992 -0.49039361 1.5227211
-0.47471079 -0.49123994 1.5250843
-0.42839861 -0.48789859 1.5208861
-0.37676939 -0.4857325 1.5232561
-0.32627156 -0.48205471 1.5281582
-0.27823657 -0.48316577 1.5243726
-0.22618279 -0.48532569 1.5257666
-0.17374055 -0.48738927 1.5284965
-0.12569755 -0.48737374 1.5270525
-0.071500249 -0.48799807 1.529112
-0.024429254 -0.48581254 1.5290862
0.024477633 -0.4852246 1.5262738
0.074598745 -0.48502913 1.5255536
0.12042417 -0.48221475 1.5181209
0.17032821 -0.48197064 1.520818
0.22535257 -0.48084879 1.527867
0.27356952 -0.48081684 1.5234138
0.32176015 -0.47930267 1.5218183
0.37631837 -0.47798386 1.5259216
0.42433357 -0.47667691 1.5290291
0.47348258 -0.47629794 1.5292133
0.52531022 -0.4743343 1.5367835
0.57276666 -0.4732348 1.527964
0.62914687 -0.47157606 1.5302099
0.67858005 -0.47061598 1.5241596
0.72625518 -0.4691771 1.526877
0.77637732 -0.46746489 1.5256914
0.82411611 -0.46521762 1.5243809
0.87276042 -0.465561 1.5172554
0.91952503 -0.46304739 1.5283397
0.97533876 -0.46259099 1.523572
1.0225351 -0.46006289 1.5257869
1.0745877 -0.46153808 1.5232199
1.1246574 -0.4615989 1.5253533
1.1716498 -0.46643957 1.5228024
1.2234057 -0.46582702 1.5226263
1.2806437 -0.46691352 1.5301317
1.3291298 -0.46091023 1.529037
1.3520575 -0.45554593 1.5143723
1.362021 -0.42601842 1.5234336
1.3622475 -0.37191442 1.5156536
1.3497459 -0.33861178 1.501824
1.3644558 -0.319132 1.522439
1.3486651 -0.2605128 1.5137099
1.3616875 -0.2809355 1.534464
1.34254 -0.22546071 1.5157315
1.3533469 -0.2262131 1.5411818
1.3376889 -0.17221664 1.5116463
1.3315021 -0.14418504 1.5071291
1.3248147 -0.03550544 1.5048529
1.3356618 0.11955556 1.5362197
1.3534985 0.14856844 1.5489039
1.3343574 0.18421781 1.5165051
1.352999 0.17163663 1.546277
1.3375069 0.22853613 1.5294813
1.3390477 0.25400233 1.537879
-1.3231394 -0.48830214 1.5533327
-1.1283554 -0.48223421 1.5569721
-1.0704068 -0.48475072 1.5797348
-1.0241061 -0.48392239 1.5740801
-0.97727561 -0.48286486 1.5785251
-0.92278779 -0.48154148 1.5790216
-0.8762114 -0.48598096 1.5705509
-0.82697672 -0.48713303 1.5694674
-0.77857357 -0.49010548 1.57871
-0.72753078 -0.49102077 1.5730909
-0.67231154 -0.4919295 1.5729494
-0.62392986 -0.49165779 1.5732946
-0.57259279 -0.49175245 1.5679935
-0.5268392 -0.49196741 1.5744447
-0.47644901 -0.4902887 1.575024
-0.42590553 -0.48628685 1.5747781
-0.37805036 -0.48443711 1.5723908
-0.32766312 -0.48256201 1.5751194
-0.27314898 -0.48490813 1.5803841
-0.21790533 -0.48816586 1.581707
-0.17367578 -0.48780182 1.5814643
-0.12673296 -0.48933658 1.5826656
-0.079615921 -0.48779079 1.5797647
-0.024933511 -0.48662451 1.5826885
0.024644027 -0.48530313 1.5758212
0.075695746 -0.48480272 1.5769397
0.12592594 -0.48475561 1.5723323
0.17847191 -0.4837572 1.577908
0.22278318 -0.48364037 1.5828099
0.27390355 -0.48118672 1.5764009
0.32702994 -0.48020127 1.5752999
0.37532794 -0.47889072 1.5824776
0.4205181 -0.47675472 1.5715048
0.47178364 -0.47764608 1.5761216
0.52214348 -0.47478819 1.5812632
0.57459408 -0.47196904 1.576208
0.62515801 -0.46930107 1.574828
0.67605662 -0.47066361 1.5779436
0.72190517 -0.46619195 1.5760127
0.77604407 -0.4641397 1.5765446
0.82505482 -0.46378502 1.5775446
0.87675595 -0.46118718 1.5748017
0.93028259 -0.46076155 1.5720873
0.98319405 -0.46272141 1.5879735
1.0261601 -0.45651627 1.5733703
1.0762991 -0.45602211 1.5708828
1.1228799 -0.45771158 1.5781289
1.1732605 -0.46135655 1.5837172
1.2272902 -0.46427318 1.5791565
1.2713737 -0.46656603 1.5685999
1.3303211 -0.46428162 1.578285
1.3670281 -0.45589745 1.5791773
1.3907607 -0.43178385 1.5761032
1.4037951 -0.42134696 1.5942216
1.3931516 -0.3740111 1.5682471
1.3908511 -0.3260043 1.569993
1.4028505 -0.33517364 1.5824515
1.3762805 -0.2732113 1.5705634
1.3738188 -0.22934009 1.5795296
1.3721673 0.13746122 1.5890895
1.3633727 0.16762908 1.5733713
1.3454084 0.21353497 1.5505757
1.369593 0.23105831 1.5887483
1.3599851 0.25976288 1.5796466
-1.1538708 -0.47676572 1.6057724
-1.1289506 -0.48671883 1.6157575
-1.0687702 -0.48276478 1.6352396
-1.0337911 -0.48466611 1.6259727
-0.97208655 -0.48177361 1.6242756
-0.92012697 -0.48288023 1.6237539
-0.88164443 -0.48484415 1.6267778
-0.82359022 -0.4849 1.6209452
-0.7769559 -0.4875966 1.6212384
-0.72845858 -0.49070826 1.6228899
-0.67561448 -0.4915069 1.6246936
-0.62588763 -0.49188569 1.6282629
-0.57552254 -0.49128568 1.6244729
-0.52472389 -0.48994577 1.6246682
-0.47366878 -0.48791704 1.626965
-0.42233577 -0.48450446 1.624802
-0.37584129 -0.4838737 1.6253685
-0.32397601 -0.48114726 1.62178
-0.27304974 -0.48305735 1.6157125
-0.23048572 -0.4874112 1.6285496
-0.17521326 -0.48903975 1.635741
-0.12474412 -0.48964167 1.6210371
-0.072390102 -0.48902619 1.6229471
-0.022842627 -0.48732105 1.6308235
0.024250966 -0.48687091 1.6292901
0.07721436 -0.48518783 1.6278822
0.1248927 -0.48623222 1.6319015
0.17136587 -0.48227 1.6217911
0.22544684 -0.48333442 1.6228714
0.27865943 -0.48133451 1.6289164
0.32004675 -0.47907245 1.6234418
0.36850688 -0.47992358 1.6277251
0.42470127 -0.47941217 1.6238359
0.47985625 -0.4784511 1.6198685
0.52571702 -0.4734796 1.6238394
0.58422631 -0.47110689 1.6240267
0.62074369 -0.46645859 1.6228371
0.67668259 -0.46657315 1.6260056
0.72386438 -0.4630419 1.628364
0.77955371 -0.46143878 1.6234093
0.82515776 -0.45975798 1.6187737
0.87716824 -0.45961657 1.6265403
0.91961211 -0.45719245 1.6211663
0.97505742 -0.45724034 1.6293609
1.0254303 -0.45608172 1.6215426
1.0725057 -0.45124012 1.6194896
1.1159528 -0.45605317 1.6197687
1.18112 -0.45851523 1.6311799
1.2268467 -0.46441755 1.6366081
1.276217 -0.46708095 1.6297807
1.3271461 -0.46675676 1.6210272
1.3764992 -0.45741263 1.6190968
0.89959216 -0.44844422 1.6431193
1.1408488 -0.44953525 1.6211264
1.1715927 -0.44860563 1.648268
1.3985263 -0.44852793 1.6102198
1.4132648 -0.42220259 1.6246152
1.4237448 -0.37863633 1.6258067
1.4129523 -0.32096791 1.6200225
1.3963408 -0.26086351 1.6233454
1.4086015 -0.28655708 1.6250269
1.3917629 -0.24069744 1.6205274
1.3887181 0.12276855 1.6335675
1.3903395 0.15470679 1.6271281
1.4055084 0.18239687 1.6425629
1.3843573 0.22130007 1.6134651
1.3853295 0.25676334 1.6286035
-1.1714377 -0.48905683 1.6778635
-1.1193193 -0.49107581 1.6736495
-1.0883708 -0.4937515 1.6749387
-1.0259295 -0.48247752 1.6695591
-0.97005016 -0.48266408 1.6696968
-0.92945904 -0.48434442 1.6826304
-0.86916989 -0.48259926 1.6704652
-0.82134366 -0.48331752 1.6771255
-0.77424854 -0.48762107 1.6760349
-0.71961778 -0.48938334 1.6701522
-0.67517167 -0.48947892 1.673124
-0.62474954 -0.49186453 1.6816944
-0.57582068 -0.490426 1.6773953
-0.52301615 -0.48875001 1.6817367
-0.47531113 -0.48569423 1.6737443
-0.42367628 -0.48561114 1.6794833
-0.37387639 -0.48436356 1.6786747
-0.32205179 -0.48404646 1.6769407
-0.2722168 -0.48537722 1.6729188
-0.22260623 -0.48702058 1.6692116
-0.17301936 -0.48925102 1.675594
-0.12578382 -0.4906911 1.6796681
-0.075810336 -0.4879669 1.6722879
-0.029873859 -0.48629728 1.6705332
0.021815229 -0.48713127 1.6734703
0.07043086 -0.48863569 1.6777388
0.12707749 -0.48601028 1.6851268
0.17825297 -0.48410273 1.6762495
0.22686726 -0.48331416 1.6755344
0.26807258 -0.48372036 1.6775858
0.32662481 -0.48384386 1.6789343
0.37079191 -0.48096824 1.6732378
0.42168942 -0.48091942 1.6797286
0.47544277 -0.47873381 1.6690147
0.52540338 -0.47662035 1.6764275
0.57452768 -0.47092554 1.6731334
0.62809062 -0.46521223 1.6728617
0.67542773 -0.46205029 1.6751643
0.72927976 -0.46001542 1.6795951
0.77504218 -0.46075433 1.6679397
0.82504153 -0.45670354 1.6721553
0.87598968 -0.45687532 1.6750076
0.93941337 -0.45782244 1.668836
0.97506762 -0.45426196 1.6801817
1.0061572 -0.45395392 1.6648712
1.0781997 -0.45025742 1.658049
1.1882784 -0.45138344 1.6530924
1.2229878 -0.45579225 1.6688058
1.2759335 -0.46278468 1.6710361
1.3322809 -0.46846259 1.6728268
1.377261 -0.46435779 1.6742356
1.4155951 -0.45507669 1.6727604
0.8881647 -0.44946182 1.6941192
1.4345022 -0.40498108 1.6637795
1.4433271 -0.37349203 1.6709195
1.4598844 -0.38670465 1.6982681
1.431976 -0.3320286 1.6550369
1.4167458 -0.26654419 1.6656713
1.3985391 -0.21428481 1.6501489
1.4088947 -0.22815111 1.6609551
1.4201444 -0.18790554 1.6785873
1.410905 0.099665508 1.692259
1.4112332 0.13350415 1.6719246
1.4131424 0.18512902 1.6653461
1.42705 0.22463153 1.6825409
-1.2208658 -0.48503599 1.703545
-1.1690482 -0.49478671 1.7301568
-1.123135 -0.49180982 1.726504
-1.0753996 -0.4888939 1.7154064
-1.0351521 -0.4832176 1.7197145
-0.969428 -0.48331523 1.7270045
-0.91900331 -0.48338643 1.7227962
-0.88210291 -0.48242152 1.730093
-0.82701689 -0.48202172 1.7149346
-0.77071112 -0.48599663 1.7211337
-0.7218914 -0.48848638 1.7256876
-0.67044693 -0.48993716 1.725037
-0.62798822 -0.49006137 1.725167
-0.57509601 -0.4879449 1.7263594
-0.53056628 -0.48523876 1.7267745
-0.47271496 -0.48594016 1.7197173
-0.4274601 -0.48527825 1.7221079
-0.36864096 -0.48413005 1.7289112
-0.32562643 -0.4866941 1.7258286
-0.27675545 -0.48559034 1.7311934
-0.22691712 -0.4877035 1.7240293
-0.18068068 -0.48910609 1.7231735
-0.12454974 -0.48795775 1.7239195
-0.080177732 -0.48734573 1.723519
-0.027015077 -0.48810735 1.729964
0.023279009 -0.48618177 1.7284793
0.073995017 -0.48588768 1.726463
0.12274931 -0.48394418 1.7208542
0.17628138 -0.48375261 1.7274165
0.22125012 -0.48230189 1.7130716
0.27991697 -0.48171651 1.7240279
0.32723066 -0.48045507 1.7138051
0.3830862 -0.48107085 1.7303356
0.42617556 -0.48024291 1.7295991
0.47350985 -0.47988304 1.7275665
0.52816135 -0.47681871 1.718377
0.57697898 -0.4690333 1.723766
0.62798601 -0.46451145 1.7224572
0.67331952 -0.46143231 1.7293109
0.72355199 -0.45648974 1.7218444
0.76538563 -0.45947009 1.7198179
0.81794202 -0.45693821 1.7113818
0.87635988 -0.45033449 1.7025954
0.93050432 -0.45351183 1.7285956
0.97271854 -0.45258465 1.7181293
1.2768303 -0.45916414 1.7166479
1.3241484 -0.46421656 1.7206903
1.3837361 -0.46496618 1.7354771
1.4210354 -0.45589343 1.7233946
1.4563645 -0.45310041 1.7202704
0.8880899 -0.44723237 1.7271433
0.93370163 -0.44938695 1.719313
1.2650169 -0.44693506 1.7465615
1.4738264 -0.40869707 1.7309942
1.4725841 -0.3772884 1.727438
1.4625986 -0.32706428 1.7193967
1.4606811 -0.28456369 1.7316811
1.4386289 -0.20681472 1.7180513
1.431402 -0.19068931 1.7108642
1.4252319 0.12076167 1.7083136
1.4521245 0.13320224 1.7399139
1.4412614 0.16802213 1.7127657
1.4539452 0.17084102 1.7392802
1.4392443 0.23101981 1.7239914
1.4549791 0.2050723 1.7374785
1.4368111 0.25698277 1.7160867
-1.1785877 -0.50011235 1.7999663
-1.2197305 -0.49551097 1.7815397
-1.1828729 -0.49560267 1.7760239
-1.1367401 -0.49071309 1.7760305
-0.97046047 -0.48381543 1.772609
-0.93098646 -0.48355564 1.7582059
-0.87509847 -0.48098591 1.7964863
-0.81464201 -0.48284578 1.7714005
-0.76883209 -0.48600164 1.7748892
-0.72201389 -0.48609132 1.7800184
-0.67286474 -0.48803994 1.7786304
-0.61885381 -0.48895249 1.7727275
-0.57266855 -0.4876883 1.7847424
-0.52308178 -0.48605555 1.7813177
-0.47495902 -0.48351648 1.7778211
-0.42396462 -0.48623177 1.7745113
-0.38101146 -0.48720866 1.7878366
-0.32540447 -0.48578277 1.7684562
-0.27270392 -0.48840562 1.7781473
-0.22344936 -0.48855981 1.7765894
-0.17114282 -0.48939043 1.776836
-0.12551554 -0.49014172 1.7754482
-0.06461966 -0.48873493 1.7715691
-0.025976922 -0.48861766 1.7735754
0.025780929 -0.48493519 1.7772824
0.076276124 -0.48552352 1.7820933
0.12812717 -0.48644611 1.7750546
0.17358556 -0.48131284 1.7704942
0.22422105 -0.48311996 1.7733523
0.26997882 -0.4839642 1.776491
0.32168171 -0.48304018 1.7732487
0.36483413 -0.48110741 1.7602389
0.42316699 -0.48186183 1.7877281
0.47153011 -0.4780522 1.7736042
0.52172458 -0.47782898 1.7712625
0.57239687 -0.47133297 1.7784964
0.62134725 -0.46194437 1.7707003
0.67548078 -0.45866358 1.7760112
0.70747393 -0.46092063 1.7633917
1.3805897 -0.46400249 1.7724023
1.4300408 -0.45791194 1.767269
1.4746913 -0.45157355 1.7640827
1.4468079 -0.44057402 1.7824318
1.4662448 -0.43423966 1.7822375
1.4836328 -0.37228808 1.7643012
1.4766757 -0.31688786 1.7664852
1.4687562 -0.29062921 1.764522
1.4447185 0.11299502 1.7515728
1.4722439 0.13599157 1.7836891
1.463733 0.18182103 1.7811564
1.460705 0.22276418 1.7741559
-1.205134 -0.49276078 1.8014543
-1.1785948 -0.49858713 1.843503
-1.1315725 -0.49707365 1.8088088
-1.077924 -0.4831593 1.8168087
-1.0135597 -0.48565757 1.8322685
-0.98502541 -0.48619923 1.82288
-0.94847208 -0.48001018 1.8091851
-0.869232 -0.48297295 1.8072505
-0.81963837 -0.48768777 1.8272396
-0.77252162 -0.49126047 1.8317349
-0.71498436 -0.48690513 1.8234216
-0.67000377 -0.48907167 1.8209817
-0.6236223 -0.48769513 1.8171332
