ply
format ascii 1.0
comment PCL generated
element vertex 1471
property float x
property float y
property float z
element camera 0
property float view_px
property float view_py
property float view_pz
property float x_axisx
property float x_axisy
property float x_axisz
property float y_axisx
property float y_axisy
property float y_axisz
property float z_axisx
property float z_axisy
property float z_axisz
property float focal
property float scalex
property float scaley
property float centerx
property float centery
property int viewportx
property int viewporty
property float k1
property float k2
end_header
-1.3234628 -0.49782032 1.5511806
-1.1158234 -0.48655996 1.583926
-1.0567366 -0.48501477 1.5674527
-1.0231367 -0.48595858 1.5755973
-0.98324621 -0.48369187 1.575229
-0.92805773 -0.48204651 1.5738958
-0.87364197 -0.48690978 1.5760976
-0.82213837 -0.48753363 1.5730567
-0.7770434 -0.487757 1.5681708
-0.71996462 -0.48997039 1.5722544
-0.67720568 -0.49077395 1.5803713
-0.6226005 -0.49063134 1.5699733
-0.57307833 -0.49229917 1.5784858
-0.52137685 -0.49116188 1.5729452
-0.47553679 -0.48938659 1.5721744
-0.42925459 -0.48742715 1.5747805
-0.37503234 -0.48531744 1.5784564
-0.32415405 -0.48039442 1.5671927
-0.27326357 -0.4844285 1.5745724
-0.22387253 -0.48671812 1.5736529
-0.17093909 -0.48872682 1.5802037
-0.12627758 -0.48894259 1.5723813
-0.074620932 -0.48858768 1.5855523
-0.027676843 -0.48738071 1.5802765
0.024570979 -0.48577368 1.5799228
0.07865952 -0.48458952 1.5734575
0.12512274 -0.48307222 1.5701798
0.17415513 -0.48276201 1.5694751
0.22523628 -0.48368639 1.5802838
0.27603051 -0.48244488 1.5776401
0.32465756 -0.48173985 1.5805632
0.37532985 -0.47939143 1.571105
0.42433569 -0.4783169 1.5746064
0.48035881 -0.47733995 1.5766664
0.52939677 -0.4751668 1.5747157
0.5731433 -0.47183552 1.5789096
0.62675899 -0.47036508 1.5734098
0.67197496 -0.46724015 1.576517
0.72527778 -0.46733183 1.5741676
0.78013802 -0.46478853 1.5834994
0.82675189 -0.46419609 1.5685203
0.87250143 -0.46279106 1.5727223
0.92303771 -0.4601444 1.5745885
0.97412944 -0.46002206 1.5802482
1.0221025 -0.45708764 1.5744574
1.076515 -0.45623258 1.5773849
1.1253 -0.45568672 1.5743303
1.1751469 -0.46326736 1.5743395
1.2162758 -0.46670541 1.5780805
1.2691979 -0.46740696 1.5760312
1.3340904 -0.46680126 1.5785993
1.3641331 -0.45651704 1.5741104
1.3807912 -0.42868015 1.5648285
1.3929509 -0.37339804 1.5714692
1.3901335 -0.31982186 1.5732788
1.3764248 -0.26992938 1.5682144
1.3733107 -0.23173979 1.5780426
1.3725523 -0.1695946 1.5873263
1.3403794 0.11121491 1.5538425
1.3649641 0.12523773 1.5859284
1.3709114 0.17786841 1.5841306
1.3468491 0.20448944 1.5533012
1.3637471 0.2290622 1.5792092
1.3707005 0.26656699 1.5914268
-1.168014 -0.48648578 1.6438876
-1.1276534 -0.4869127 1.6292886
-1.07682 -0.48849717 1.6262058
-1.0185872 -0.48324624 1.6201782
-0.97040939 -0.48410606 1.6293503
-0.92508143 -0.48317805 1.622806
-0.87259477 -0.48506472 1.6253656
-0.82209885 -0.48330212 1.6200581
-0.77619356 -0.48686615 1.6222123
-0.73153985 -0.49035096 1.6263683
-0.66926283 -0.49015933 1.620629
-0.63211298 -0.49153867 1.6285491
-0.57787699 -0.49093127 1.6252691
-0.52636111 -0.48944539 1.619712
-0.47447065 -0.48678607 1.6214448
-0.42497078 -0.48512891 1.62304
-0.37406474 -0.48367867 1.6311053
-0.32649714 -0.48183817 1.6256062
-0.27489802 -0.48365709 1.6308202
-0.22854501 -0.48597729 1.62193
-0.18170446 -0.48994789 1.6297456
-0.12546082 -0.48841015 1.6195019
-0.074019313 -0.48850879 1.6306442
-0.022842832 -0.48806417 1.6270304
0.026735397 -0.48597395 1.616816
0.073673263 -0.48473215 1.6205902
0.12491851 -0.48427945 1.6272746
0.1755113 -0.4823494 1.6178163
0.2249597 -0.48425919 1.6241786
0.2744149 -0.48105669 1.6221204
0.32545501 -0.4809804 1.6277317
0.37525555 -0.47992724 1.6178483
0.42893624 -0.47915909 1.6233395
0.47212735 -0.47722641 1.6231844
0.52234608 -0.47484347 1.6269897
0.57566744 -0.47019824 1.6322643
0.62180614 -0.46945238 1.6258433
0.67710495 -0.46686575 1.6269931
0.7235229 -0.46491131 1.6240689
0.77040839 -0.46279171 1.6320678
0.82801652 -0.46115223 1.6288564
0.87795591 -0.45793173 1.6265111
0.92409992 -0.45820999 1.6264398
0.97500449 -0.45647547 1.6282779
1.028024 -0.45461196 1.6133983
1.0762116 -0.4519214 1.6118248
1.1226479 -0.4526256 1.6149517
1.1821555 -0.45824599 1.6205655
1.2352921 -0.46398321 1.6266483
1.2627606 -0.46388933 1.6217066
1.3232681 -0.46875435 1.6306288
1.366226 -0.46217206 1.6243846
1.0934647 -0.44708225 1.6345737
1.1410764 -0.44962496 1.6214498
1.3923228 -0.44810957 1.6122839
1.4168293 -0.42766133 1.6290618
1.4232452 -0.36699024 1.6269143
1.416087 -0.31974655 1.622942
1.3982909 -0.25940043 1.6074185
1.4138054 -0.27743635 1.638036
1.381729 -0.23896214 1.6088442
1.3811635 -0.17185207 1.615267
1.3750459 0.12443089 1.6113104
1.3932028 0.17892221 1.6238334
1.4054649 0.16125262 1.6444235
1.3900137 0.21252567 1.6211694
1.3784887 0.25650427 1.6143135
-1.1747308 -0.48907906 1.6879979
-1.1302007 -0.48839933 1.673659
-1.0767281 -0.48811585 1.6730769
-1.0215858 -0.48193863 1.6620255
-0.97569501 -0.48146382 1.6654831
-0.92377299 -0.48233205 1.6701808
-0.87910008 -0.48345396 1.6688781
-0.83124715 -0.48448721 1.6783558
-0.77846259 -0.48753363 1.68063
-0.72005224 -0.4896625 1.6711423
-0.67968965 -0.4917919 1.6719172
-0.62155849 -0.49022579 1.6745306
-0.57544076 -0.49026802 1.6755958
-0.52580875 -0.49001354 1.6782365
-0.47087696 -0.48551536 1.6739507
-0.42718378 -0.48531711 1.6839347
-0.37561783 -0.48675972 1.6868318
-0.32197082 -0.48452806 1.6760905
-0.27925336 -0.48384675 1.6737051
-0.22806752 -0.48682475 1.6716431
-0.17294574 -0.48899725 1.6723619
-0.12507059 -0.48911878 1.6756252
-0.076096632 -0.48883429 1.6782687
-0.030815335 -0.48810732 1.6778468
0.022555286 -0.48725429 1.6709286
0.073359981 -0.48659968 1.6706394
0.12726885 -0.48528057 1.6720895
0.17740189 -0.48468551 1.6783445
0.22698911 -0.48254877 1.6693988
0.27672932 -0.48055997 1.667464
0.32974863 -0.48029819 1.6808439
0.37932497 -0.47904214 1.6676744
0.42229894 -0.48011839 1.6727744
0.47778669 -0.47765854 1.6763505
0.52536726 -0.4756611 1.6773255
0.57114488 -0.47038779 1.6778659
0.62485349 -0.46605244 1.6766979
0.67026013 -0.46383482 1.6753906
0.7190358 -0.46061671 1.6743289
0.77523166 -0.45848069 1.6764175
0.82693076 -0.45575443 1.6762187
0.87423033 -0.45543966 1.6726032
0.92476338 -0.45313853 1.6696345
0.97530544 -0.45439357 1.6807463
1.0052845 -0.45356017 1.6634269
1.1865871 -0.45252687 1.6599628
1.2341583 -0.45883805 1.6754665
1.2791996 -0.46138304 1.6642578
1.3174874 -0.46612751 1.6699039
1.3658864 -0.4655346 1.6719406
1.4085727 -0.4581137 1.6741185
0.91111588 -0.4496814 1.6860471
0.97973305 -0.44733772 1.6903462
1.1872259 -0.44511557 1.672298
1.4287477 -0.41833004 1.6539606
1.4539478 -0.40542522 1.6873677
1.4426737 -0.37951118 1.6592555
1.4551463 -0.38918716 1.6822118
1.4445019 -0.3255997 1.6774465
1.4233366 -0.27119768 1.6729398
1.4118247 -0.2311044 1.664175
1.4165068 0.12896538 1.6784942
1.4225004 0.17921856 1.6817014
1.4146008 0.22518042 1.6675543
1.4260371 0.26115194 1.6960146
-1.1721523 -0.49188799 1.7389758
-1.1346638 -0.49494806 1.7299162
-1.075694 -0.48966789 1.7224756
-0.97786903 -0.48367846 1.7249995
-0.92434931 -0.48264143 1.7214669
-0.88216287 -0.48096099 1.7306032
-0.8319239 -0.48222777 1.7141186
-0.77150929 -0.4864285 1.7169726
-0.72597134 -0.48748323 1.722286
-0.67343456 -0.49115154 1.7198119
-0.62099785 -0.48815078 1.7221525
-0.57453948 -0.48920837 1.7241977
-0.52369475 -0.48809353 1.7237015
-0.47766337 -0.48451063 1.7156422
-0.42037091 -0.48479486 1.725618
-0.37533686 -0.48360932 1.7186756
-0.32593095 -0.48348439 1.7250336
-0.27217489 -0.48544914 1.7187835
-0.22060198 -0.48895553 1.718486
-0.17028341 -0.48788604 1.7226433
-0.12082893 -0.49035493 1.7299231
-0.078249902 -0.48864666 1.7281924
-0.025843481 -0.48822194 1.7293905
0.021535676 -0.4858903 1.7243096
0.075957194 -0.48641998 1.726913
0.12622775 -0.48466083 1.7186458
0.17482281 -0.48340505 1.7158848
0.22713275 -0.48538944 1.7288461
0.27225325 -0.48351854 1.7241784
0.33236179 -0.48085639 1.7255424
0.37287882 -0.4835434 1.725798
0.43006766 -0.48049057 1.7318779
0.47296694 -0.47927031 1.727236
0.52537596 -0.47873902 1.7267406
0.57666409 -0.46987075 1.719902
0.62710571 -0.46269473 1.7255543
0.67805821 -0.46081671 1.7233628
0.71797889 -0.45728794 1.7185575
0.77155983 -0.45774513 1.7104741
0.8207767 -0.45598429 1.7062557
0.88402992 -0.45195669 1.7178819
0.93769598 -0.45131743 1.7267054
0.96888763 -0.45511976 1.7316664
1.2796409 -0.45960543 1.7188624
1.3211846 -0.46239617 1.7220373
1.368811 -0.46615413 1.7220902
1.4256588 -0.46012756 1.7290131
1.4573375 -0.45340312 1.7214197
0.88482547 -0.44562447 1.7209353
0.91811621 -0.44850555 1.7214385
1.2245241 -0.44604746 1.7275063
1.4645822 -0.40612987 1.7201378
1.4695169 -0.37820211 1.7182136
1.4652946 -0.32763323 1.7230415
1.4414132 -0.28521875 1.7316729
1.4562312 -0.28442672 1.7302656
1.4258666 0.10573645 1.7099407
1.4592841 0.13386099 1.7485175
1.4428383 0.17294884 1.7257302
1.4385988 0.22669803 1.7185911
1.4412277 0.25469571 1.7250254
-1.2006497 -0.49679488 1.7724234
-1.1811481 -0.49698409 1.7835712
-1.1376487 -0.49291646 1.7699413
-0.96972549 -0.48639923 1.7733996
-0.90522885 -0.47695905 1.7677374
-0.87956721 -0.48286238 1.7818346
-0.8161906 -0.48720852 1.7775789
-0.77115768 -0.48786563 1.7773602
-0.72097385 -0.48939013 1.7762377
-0.67909801 -0.48979011 1.7731259
-0.6307472 -0.48864967 1.7717369
-0.57583946 -0.48621064 1.7676429
-0.51796174 -0.48458132 1.7700189
-0.4752593 -0.48625121 1.7789711
-0.42701229 -0.48438001 1.7650176
-0.37995815 -0.48775247 1.7751485
-0.31957665 -0.48465359 1.7691971
-0.27991229 -0.48574424 1.7675209
-0.22794026 -0.4894188 1.7702255
-0.18024108 -0.48940626 1.7717917
-0.12569471 -0.48843661 1.7714826
-0.07210847 -0.4894563 1.7771542
-0.022745414 -0.48665851 1.7747898
0.028275298 -0.48702738 1.7764983
0.073045664 -0.48822567 1.7789069
0.12517351 -0.48575079 1.7802418
0.1688731 -0.48521739 1.7817942
0.21610202 -0.48361799 1.7734901
0.27852592 -0.4828054 1.7704185
0.32568043 -0.4832657 1.7702043
0.37616459 -0.48023689 1.7739367
0.42161012 -0.47871554 1.7714078
0.47890356 -0.47775716 1.776325
0.52767414 -0.47679785 1.7741303
0.57802296 -0.47097427 1.7713052
0.61825538 -0.46015948 1.7688919
0.67596054 -0.45883098 1.7746893
0.70769352 -0.45813298 1.75144
1.3808646 -0.46234992 1.7627519
1.419781 -0.45803753 1.7589912
1.4796093 -0.45307952 1.7699658
1.2384578 -0.44813868 1.7682357
1.2745483 -0.44703507 1.7706552
1.4390987 -0.43801272 1.7884755
1.4684606 -0.43315199 1.7806728
1.4879622 -0.37370896 1.7675769
1.4842663 -0.33322605 1.7706338
1.4723148 0.13832401 1.7787032
1.4672667 0.18657517 1.7869405
1.4624003 0.22707266 1.7704409
-1.2665642 -0.50110847 1.8098187
-1.192587 -0.50018203 1.8443412
-1.2376534 -0.49772942 1.8087779
-1.1727397 -0.49611473 1.8342569
-1.1361285 -0.49627465 1.8276575
-1.0225558 -0.48522964 1.8266619
-0.98917055 -0.48584214 1.8195943
-0.94757289 -0.48914874 1.8055662
-0.86701787 -0.48230028 1.826828
-0.82110113 -0.48502621 1.8252568
-0.77547878 -0.49009931 1.825985
-0.72829247 -0.48903048 1.8218218
-0.67670345 -0.4881773 1.8256916
-0.62100655 -0.48824668 1.8311876
-0.57585657 -0.48732433 1.8266875
-0.52907932 -0.48426071 1.8241415
-0.47914886 -0.4847236 1.8213508
-0.41846088 -0.48522964 1.8208672
-0.37013161 -0.48972076 1.8257645
-0.3218669 -0.48755741 1.8266277
-0.27407899 -0.48824883 1.8242652
-0.21867682 -0.48642603 1.8188629
-0.17307501 -0.4865424 1.8169359
-0.12591283 -0.48944062 1.8202965
-0.07810808 -0.48888761 1.8288053
-0.023010254 -0.48654971 1.8240174
0.026093284 -0.48604071 1.8260226
0.07704252 -0.48594385 1.8231316
0.1231373 -0.48426592 1.8318839
0.18029171 -0.48296976 1.8192924
0.2293079 -0.4841415 1.8245904
0.27288446 -0.48297688 1.8205364
0.32708931 -0.48256293 1.8310814
0.37319538 -0.48189697 1.83046
0.42329979 -0.48099637 1.8300974
0.47347319 -0.47710407 1.8230776
0.5232442 -0.47653055 1.8216854
0.57554811 -0.47148025 1.8158263
0.6132738 -0.46178126 1.8237619
1.4391536 -0.4182179 1.8183961
1.4649339 -0.42129597 1.8095446
1.4460665 -0.39218882 1.8218317
1.4750358 0.1801088 1.81718
1.4794912 0.21488234 1.8162042
-1.2708448 -0.50479621 1.8805982
-1.2385708 -0.50453335 1.8960388
-1.1882097 -0.50265837 1.8585975
-1.172546 -0.49736989 1.8928641
-1.121989 -0.49610513 1.858584
-1.0219609 -0.48710346 1.8594794
-0.84120923 -0.4846814 1.868096
-0.77073544 -0.49272889 1.880803
-0.72083038 -0.49093169 1.8787817
-0.67420191 -0.48787567 1.8724717
-0.63081014 -0.48780739 1.875837
-0.57992184 -0.48647752 1.8788069
-0.52321428 -0.48192683 1.8677961
-0.4755162 -0.48392063 1.8714377
-0.43547601 -0.48777971 1.8702123
-0.37636745 -0.4899182 1.8783388
-0.32558367 -0.4892008 1.8809679
-0.27378368 -0.48768511 1.8751662
-0.22586252 -0.4879103 1.8750123
-0.17384827 -0.48961687 1.8721936
-0.12805311 -0.49078009 1.8771052
-0.07232137 -0.49002457 1.8720676
-0.024977315 -0.48814392 1.8681576
0.019211553 -0.48859921 1.8796526
0.07404653 -0.48685396 1.878178
0.12240262 -0.48476163 1.8683568
0.17428419 -0.48432896 1.8807744
0.22372706 -0.48288175 1.8750437
0.27243435 -0.48216847 1.866376
0.31926546 -0.48185739 1.8799654
0.37247968 -0.48103547 1.8755541
0.4203907 -0.47946727 1.8770881
0.47340813 -0.47836438 1.8728857
0.52002925 -0.47565153 1.8691787
0.57647645 -0.47203419 1.8653769
0.61353815 -0.4641664 1.884119
1.3997203 -0.45437747 1.8963226
1.4291799 -0.45685315 1.8935486
1.4423056 -0.41849691 1.8541744
1.460357 -0.40789694 1.8759735
1.4780049 -0.39144617 1.8743386
-1.0705112 -0.49500859 1.9267502
-1.0371128 -0.48899832 1.9117255
-0.85610521 -0.48620197 1.9156477
-0.8018986 -0.49029541 1.9050258
-0.7782073 -0.4921577 1.9111938
-0.70723855 -0.48930562 1.9270144
-0.66799098 -0.48944166 1.9250289
-0.60653019 -0.48706743 1.9411706
-0.56262553 -0.48611942 1.9209464
-0.53044385 -0.48165417 1.9196186
-0.47393805 -0.49074116 1.9395981
-0.42420155 -0.49308258 1.9245619
-0.37415007 -0.48947203 1.9090524
-0.32528567 -0.48872131 1.9290832
-0.27819914 -0.48752302 1.9298466
-0.22682916 -0.48676914 1.9268699
-0.17786211 -0.48982707 1.9216486
-0.1225679 -0.49229643 1.9324219
-0.074772142 -0.49082112 1.918631
-0.027238056 -0.49041629 1.924265
0.025753457 -0.48924139 1.922821
0.077136435 -0.48579711 1.9178717
0.12356032 -0.48578888 1.9308896
0.17912197 -0.48323986 1.9199245
0.22902213 -0.48458934 1.9312068
0.2762785 -0.48508251 1.927388
0.3226302 -0.48022717 1.9176716
0.37644115 -0.48286739 1.9218515
0.42957211 -0.4808892 1.9198452
0.47623754 -0.48133522 1.9252517
0.5277878 -0.47750989 1.9165646
0.57314497 -0.47466305 1.9167516
0.60872585 -0.4752081 1.9332216
1.4198329 -0.45735896 1.9022537
1.5710936 -0.41409755 1.9218849
1.5894619 -0.38475037 1.9207288
-2.5281491 0.66343176 1.9495405
-2.5534275 0.74276704 1.9494233
-2.5453062 0.71866953 1.9492594
-2.551559 0.78580832 1.9353848
-2.5448167 0.77554566 1.9414078
-2.5569811 0.82388717 1.9285579
-2.5442824 0.82787883 1.9374157
-2.5619769 0.88148278 1.9251668
-2.5436218 0.87779391 1.9394481
-2.5569313 0.92465419 1.9266998
-2.5462885 0.91048616 1.9442279
-2.5566752 0.96808195 1.9269388
-2.5477037 0.98266327 1.9471809
-2.5567443 1.0306032 1.9378746
-2.5492506 1.0054178 1.9403546
-2.5457454 1.0617776 1.9431388
-0.76918066 -0.50094694 1.9608442
-0.18062259 -0.50096554 1.9733562
-1.1320999 -0.49815193 1.9688245
-1.0631468 -0.49325389 1.9734755
-0.82037109 -0.49007347 1.9710674
-0.77046555 -0.49446496 1.9702407
-0.73700261 -0.49451175 1.9642491
-0.67073703 -0.48500854 1.9617764
-0.62846422 -0.48935288 1.9712182
-0.57949722 -0.48792398 1.979648
-0.51607293 -0.48890877 1.9812509
-0.4717066 -0.49234465 1.9826059
-0.43351391 -0.49441615 1.9750625
-0.35756955 -0.49297735 1.9793597
-0.32123312 -0.49130422 1.987697
-0.26801479 -0.48771179 1.9741395
-0.22711334 -0.48764575 1.9567828
-0.17612539 -0.49239728 1.9794949
-0.12344623 -0.4926492 1.9681314
-0.071209349 -0.49102381 1.9716572
-0.029553644 -0.49149123 1.9742532
0.02635918 -0.48880005 1.970076
0.077915125 -0.48716661 1.9741936
0.12995657 -0.48723057 1.988176
0.1722784 -0.4861435 1.9788907
0.21948022 -0.48545781 1.9757913
0.27557078 -0.487618 1.9937346
0.32440674 -0.48684046 1.9787003
0.37475157 -0.48389539 1.97448
0.41954607 -0.48231557 1.9729072
0.47529307 -0.48125228 1.968293
0.5250693 -0.47855148 1.9642807
0.56927669 -0.47831726 1.9660481
0.62219334 -0.47302541 1.9744774
-2.4667902 -0.42195046 1.9784864
1.5912001 -0.41377923 1.9624217
1.6011872 -0.40187925 1.9547483
-2.4772453 -0.37307268 1.9819367
1.5968363 -0.39215004 1.9732655
1.6133558 -0.39335027 1.9715406
-2.4747345 -0.32329187 1.9868374
-2.4789517 -0.27809852 1.9879398
-2.4840825 -0.22462869 1.9923382
-2.4837351 -0.18224531 1.9954761
-2.4839694 -0.13985653 1.9983851
-2.4797769 -0.04086294 1.9984461
-2.4736257 0.07183674 1.9925367
-2.483397 0.10745023 1.999028
-2.4885008 0.17139573 1.9993923
-2.4884939 0.24220644 1.9932841
-2.5026033 0.28630996 1.9999266
-2.4956889 0.27842551 1.9951344
-2.5067034 0.33671701 1.9968271
-2.4987698 0.31431568 1.9933581
-2.5080447 0.37972292 1.9916525
-2.5117884 0.42320037 1.9876114
-2.5118775 0.47718889 1.9883648
-2.5111089 0.52458543 1.9808342
-2.5217373 0.57722992 1.9781829
-2.4995363 0.59141421 1.9956983
-2.5186467 0.62394989 1.9750776
-2.5244536 0.67711633 1.9743426
-2.5226071 0.72764409 1.9802374
-2.524842 0.77066034 1.9730735
-2.5192883 0.82573408 1.974751
-2.5297472 0.88216347 1.974817
-2.528574 0.92934442 1.9757913
-2.5312476 0.97744 1.9748271
-2.532057 1.0250969 1.9716996
-2.5302544 1.0762267 1.9745649
-2.529165 1.123827 1.9766053
-2.5303886 1.1714382 1.9755384
-2.5253603 1.22277 1.9859276
-2.5314331 1.2811184 1.9921051
-0.40695205 -0.50926983 2.0256252
-0.86269099 -0.48981631 2.0270758
-0.82533741 -0.4944604 2.0347328
-0.77651101 -0.49237821 2.0223007
-0.72728473 -0.49320504 2.0149643
-0.67495841 -0.48770401 2.0186853
-0.6247251 -0.49063855 2.0196152
-0.5741272 -0.49013898 2.0392079
-0.51247907 -0.48992813 2.0154233
-0.48331487 -0.49080163 2.0240045
-0.32122859 -0.49040508 2.000751
-0.27311713 -0.49154964 2.0316987
-0.22035645 -0.49018496 2.0302696
-0.1759257 -0.48877352 2.0181623
-0.12516525 -0.49100447 2.017694
-0.076223306 -0.49000499 2.0222642
-0.026794884 -0.48854151 2.0100131
0.026479717 -0.48909444 2.0244195
0.079668596 -0.48912337 2.0256681
0.13556561 -0.48758489 2.0244994
0.1734391 -0.4883301 2.004303
0.2285378 -0.48324046 2.0147758
0.27900311 -0.48537192 2.0195868
0.32767567 -0.48270339 2.0105674
0.37436339 -0.48583674 2.0184402
0.41256914 -0.47994223 2.0325391
0.47349447 -0.48286229 2.0272746
0.52325201 -0.48282146 2.0278873
0.5783481 -0.48013723 2.0174773
0.62308389 -0.47632113 2.0265038
-2.4434121 -0.42410454 2.0235713
1.5285137 -0.41557375 2.015269
-2.4570558 -0.37163606 2.012964
-2.4443524 -0.37736106 2.0362852
1.5632796 -0.38959181 2.0205679
1.6692504 -0.38898784 2.0427291
-2.4568624 -0.32472751 2.0237367
-2.463115 -0.27321246 2.0244546
-2.4616797 -0.22526009 2.0257051
-2.4670079 -0.17580402 2.0275199
-2.4751077 -0.12435405 2.0210421
-2.4783895 -0.076556347 2.0223007
-2.47805 -0.025181523 2.0262656
-2.4768274 0.022708146 2.02192
-2.4799719 0.072441868 2.0267015
-2.4807739 0.1250885 2.0270491
-2.4809661 0.17194487 2.0223334
-2.5023389 0.22219238 2.0064189
-2.4836981 0.21982113 2.0260785
-2.5013325 0.27192819 2.0005441
-2.4857056 0.27250302 2.0267508
-2.4824929 0.32294527 2.030987
-2.506382 0.37372863 2.0085766
-2.4849854 0.37189701 2.0336354
-2.5036824 0.43135789 2.0056751
-2.4866092 0.42212421 2.0281024
-2.5064609 0.46053797 2.0027556
-2.4856255 0.47759342 2.0272584
-2.5035799 0.5419178 2.0103464
-2.4849839 0.51795983 2.0295219
-2.5048752 0.5710355 2.0049703
-2.4889324 0.57229042 2.0310116
-2.4907696 0.62620777 2.0254793
-2.5056906 0.67610532 2.006367
-2.490021 0.67429495 2.0316761
-2.5033658 0.74499863 2.0121489
-2.4909937 0.72627878 2.0298226
-2.504885 0.77465397 2.0046871
-2.4922769 0.77748269 2.0334797
-2.5037916 0.82933122 2.023205
-2.4980655 0.81926519 2.0303609
-2.5075555 0.87018985 2.0150898
-2.4913492 0.871418 2.0371218
-2.5071912 0.92487109 2.0125833
-2.4947922 0.92336965 2.0364077
-2.5064876 0.97274059 2.0133181
-2.4882593 0.97890759 2.0367405
-2.5090089 1.0329742 2.0094433
-2.4923186 1.027621 2.0335667
-2.5094638 1.0789355 2.0130534
-2.492358 1.0811834 2.0381684
-2.5060596 1.1235926 2.0129519
-2.4946048 1.1305971 2.034528
-2.509234 1.1814948 2.0104442
-2.4936433 1.1768978 2.0356967
-2.5099804 1.2341994 2.0128343
-2.4934089 1.223913 2.0368562
-2.5132759 1.2757756 2.0137024
-2.4958882 1.2593744 2.0382457
-2.5121448 1.3222792 2.0227838
-2.4985793 1.3068643 2.0490181
-2.5093014 1.3742918 2.0287282
-2.5070517 1.4309754 2.0388772
-2.5128956 1.471524 2.0455058
-0.4508481 -0.50489765 2.0892882
-0.42551744 -0.51269054 2.080653
-0.39037368 -0.50904012 2.0849085
-2.0749114 -0.4719879 2.0936608
-0.85193038 -0.49569473 2.0576849
-0.82409978 -0.49801287 2.0763903
-0.7763992 -0.49129099 2.0582559
-0.73224187 -0.4897905 2.0626516
-0.68173075 -0.48977444 2.0623572
-0.6244002 -0.49106488 2.0927451
-0.59830976 -0.49720669 2.0772469
-0.31863013 -0.49394304 2.0770729
-0.271929 -0.48795792 2.0828712
-0.24998491 -0.49492803 2.0696187
-0.17593336 -0.49485484 2.0743372
-0.13372691 -0.49474385 2.0759614
-0.075491689 -0.49151796 2.075407
-0.031157305 -0.49277183 2.0777433
0.017672 -0.49103233 2.0742102
0.071756579 -0.488437 2.0767057
0.12355407 -0.488076 2.0736349
0.17255583 -0.48857832 2.0677459
0.22429869 -0.48576862 2.0682621
0.29225248 -0.48774511 2.0801525
0.33036721 -0.48520941 2.0768623
0.37436426 -0.48875591 2.075731
0.48190844 -0.48434409 2.0881886
0.53435755 -0.48515785 2.0831995
0.56946361 -0.4864586 2.0826938
0.625247 -0.48197117 2.0840299
-2.4229167 -0.42473894 2.0685496
-2.3930874 -0.43828985 2.0696485
-2.0918684 -0.42610252 2.0944369
1.5365878 -0.40925711 2.0504074
1.5763962 -0.4122802 2.092839
1.6451173 -0.41446567 2.0661893
1.6682775 -0.40509444 2.0739779
-2.4204416 -0.37652087 2.077451
-2.0921307 -0.39946958 2.0992656
1.5840515 -0.39177614 2.0711529
1.6382351 -0.39623031 2.071934
1.6768988 -0.38755864 2.0760403
-2.4302707 -0.32781231 2.0717018
-2.4294233 -0.27611688 2.0719182
-2.3917646 -0.25385362 2.094296
-2.3419011 -0.25007302 2.0764964
-2.4313383 -0.2264923 2.0786142
-2.3924935 -0.23975654 2.0963418
-2.3420942 -0.23613496 2.0780513
-2.4536972 -0.15485999 2.0504835
-2.4357095 -0.17962021 2.0808568
-2.4575548 -0.12664844 2.0552616
-2.440594 -0.12693533 2.0803444
-2.4576044 -0.076873161 2.0572495
-2.4393024 -0.077021547 2.0811992
-2.4593041 -0.02710616 2.0596559
-2.4425833 -0.02720868 2.0849938
-2.4555275 0.025119575 2.0651395
-2.43959 0.020338394 2.0867877
-2.4590669 0.069074757 2.0650072
-2.4445996 0.075591125 2.0881524
-2.4576666 0.12157246 2.0663509
-2.4430497 0.12422427 2.0900221
-2.4583867 0.17264278 2.0657072
-2.4435389 0.17305391 2.0927098
-2.4607038 0.22281487 2.0634997
-2.4454689 0.22333558 2.0901966
-2.4643576 0.27322617 2.0614262
-2.4465077 0.2735773 2.0859435
-2.4573805 0.32720238 2.073436
-2.4472816 0.30233866 2.0832183
-2.4575326 0.37429467 2.0660126
-2.4410224 0.37468487 2.087718
-2.4593103 0.42870325 2.0693154
-2.4437122 0.41165188 2.0908616
-2.4614913 0.47569776 2.0713274
-2.4597089 0.52156258 2.0705755
-2.4455943 0.5303663 2.0969126
-2.4643235 0.57657313 2.073575
-2.4488633 0.55285054 2.0949459
-2.4683824 0.62541366 2.071353
-2.4636064 0.67305118 2.0787163
-2.467092 0.72361124 2.070339
-2.4473372 0.74997795 2.0975027
-2.4640718 0.78131193 2.072176
-2.4493327 0.76528877 2.0947802
-2.4752491 0.82789719 2.0714512
-2.4679267 0.87479526 2.0771582
-2.4709694 0.92221195 2.0730221
-2.4716389 0.97091699 2.0750089
-2.4701006 1.0222921 2.0791647
-2.4735422 1.0666292 2.0723116
-2.4733503 1.1194711 2.0760272
-2.473959 1.1698692 2.0748572
-2.4779677 1.2198347 2.0754766
-2.4807506 1.2748317 2.0749123
-2.480195 1.329671 2.0750999
-2.4869981 1.3713101 2.0724907
-2.5004451 1.4252836 2.0547249
-2.4881761 1.4208289 2.0792038
-2.5056891 1.4843082 2.0618107
-2.487179 1.4763298 2.081279
-2.5059652 1.5206397 2.0591059
-2.4901485 1.5253555 2.0856156
-2.5051472 1.5742865 2.0773377
-2.4960816 1.575284 2.0874627
-2.4970033 1.6374099 2.0980482
-0.51225454 -0.50432777 2.1239951
-0.42747444 -0.5140729 2.1316028
-0.1267729 -0.50151974 2.1274667
-0.069174796 -0.50240415 2.1102681
-2.068615 -0.46591723 2.1052511
-0.83791184 -0.49447811 2.1211281
-0.72970647 -0.49165928 2.122438
-0.67421466 -0.48633868 2.1102915
-0.62815857 -0.48873955 2.1060889
-0.55163723 -0.4914307 2.1082687
-0.31742588 -0.49544516 2.1109619
-0.2832346 -0.49224627 2.1158583
-0.22374232 -0.49422234 2.1269491
-0.17237243 -0.49419132 2.1166985
-0.11644974 -0.49693942 2.131042
-0.080340646 -0.49791327 2.1363363
-0.02322606 -0.49363521 2.1343143
0.023151502 -0.48900458 2.1186993
0.053788979 -0.49132714 2.1086254
0.12651457 -0.48841539 2.1247725
0.18200731 -0.48970875 2.1277645
0.2223921 -0.48871309 2.1247296
0.27107769 -0.48912948 2.1169722
0.32064623 -0.49041486 2.1262276
0.37346941 -0.48736513 2.1163871
0.42122531 -0.49171996 2.1297691
0.47367275 -0.48825583 2.1231906
0.53409988 -0.48878139 2.1487708
0.57562417 -0.48464766 2.1309125
0.61546862 -0.47952813 2.1215789
0.66199327 -0.47839785 2.1272068
-2.4020326 -0.41395614 2.1087005
-2.3899114 -0.42574763 2.1293821
-2.1467268 -0.40727368 2.1284893
-2.0795496 -0.43038556 2.1127186
1.6191882 -0.41415769 2.1269495
-2.4037316 -0.37603489 2.1161788
-2.3971355 -0.37552473 2.1305375
-2.1502066 -0.39430755 2.1341546
-2.1096044 -0.3691543 2.1220796
-2.0873041 -0.38709787 2.1152802
1.6810887 -0.39425516 2.1279716
-2.4071672 -0.32440177 2.1227019
-2.3947699 -0.31471521 2.1434779
-2.4104373 -0.28223196 2.118495
-2.3942144 -0.25722227 2.1495225
-2.4095502 -0.22004883 2.1132474
-2.3912909 -0.22753713 2.1362939
-2.4117825 -0.17226619 2.1100252
-2.3919702 -0.17703484 2.1275854
-2.4123137 -0.12739839 2.1220403
-2.4147785 -0.077445552 2.1261761
-2.4188871 -0.027387856 2.12745
-2.4198349 0.021931063 2.1226873
-2.4237139 0.075016573 2.1262314
-2.4220159 0.1225434 2.1279178
-2.4205234 0.17338818 2.1259077
-2.422893 0.22383668 2.1238291
-2.427623 0.27463105 2.1228352
-2.4303179 0.32535955 2.118943
-2.4254653 0.37866664 2.1262867
-2.4249225 0.4231813 2.123503
-2.4305627 0.47447708 2.1244695
-2.432796 0.52226251 2.1222446
-2.4322786 0.5768491 2.1238258
-2.4501355 0.64408553 2.1016905
-2.4335742 0.62489504 2.1251407
-2.4343684 0.67794567 2.1258209
-2.4359457 0.72155678 2.1231906
-2.4332595 0.77590549 2.1270635
-2.4548883 0.8383199 2.105319
-2.4370093 0.82616252 2.1312678
-2.4377255 0.88100803 2.1279991
-2.4520442 0.9243207 2.1015978
-2.4383607 0.92423874 2.1252942
-2.451067 0.98199785 2.1083498
-2.4351895 0.97368419 2.133116
-2.4523463 1.004995 2.1008244
-2.438849 1.0272125 2.1288598
-2.454941 1.0726146 2.1060078
-2.4376223 1.0748993 2.1317499
-2.4543753 1.1321192 2.1103892
-2.4435449 1.1265258 2.1314578
-2.4570723 1.1561687 2.1028795
-2.4408088 1.1782271 2.1276848
-2.457572 1.2305437 2.10813
-2.4410498 1.2256678 2.1337304
-2.4551957 1.2814083 2.1203756
-2.441648 1.2746255 2.1395669
-2.4605963 1.3207384 2.116982
-2.4435639 1.3106468 2.1401744
-2.4613757 1.3746767 2.1201725
-2.4458506 1.3670774 2.1468003
-2.4690745 1.4265665 2.1210585
-2.4638317 1.4694504 2.126452
-2.444993 1.4870195 2.148782
-2.470938 1.5250177 2.1272614
-2.4796474 1.5752698 2.1271083
-2.4823728 1.6215532 2.1257658
-2.4776485 1.6705586 2.1284747
-2.4767332 1.713361 2.1366613
-2.4832711 1.7613307 2.1446042
-0.56263703 -0.50004727 2.1954782
-0.52503407 -0.50099015 2.1556587
-0.49322081 -0.51184005 2.1598687
-0.41383761 -0.51800436 2.1739931
-0.3908622 -0.51752102 2.1985421
-0.31759438 -0.50173539 2.1859682
-0.26344913 -0.50029624 2.1843991
-0.061170507 -0.50030434 2.1943572
-2.2988842 -0.47081512 2.1907454
-0.33086458 -0.49762386 2.1664767
-0.26269385 -0.49360117 2.1791983
-0.23420326 -0.49206313 2.1624103
-0.17639302 -0.4932175 2.1670864
-0.12226778 -0.49446332 2.1750481
-0.073831923 -0.49633384 2.1766372
-0.023486869 -0.49200159 2.1583729
0.029099423 -0.49111998 2.1784248
0.081289165 -0.494147 2.1806436
0.11125851 -0.49041235 2.1656232
0.1714009 -0.48918515 2.1704891
0.21880385 -0.4915359 2.1781657
0.27521479 -0.48832574 2.1790531
0.31674781 -0.48959762 2.1810765
0.38155344 -0.48489919 2.1694717
0.43171057 -0.48979685 2.1563163
0.46204609 -0.48590541 2.1721835
0.57016903 -0.48473787 2.1750066
0.62794471 -0.4891476 2.1850152
0.65511149 -0.47826359 2.1811607
-2.3660188 -0.42299053 2.1781349
-2.2202911 -0.44651631 2.1703544
-1.8515235 -0.44343069 2.1998177
-1.8360895 -0.41913366 2.1931565
-2.3775685 -0.37400508 2.1736786
-1.8393092 -0.37565354 2.1953242
-2.3766699 -0.32518184 2.1770918
-2.1510477 -0.34212402 2.1686795
-2.3846366 -0.27415735 2.1692615
-2.017266 -0.2707029 2.1803124
-1.9710299 -0.26425678 2.1883516
-2.3819826 -0.22121683 2.1776049
-2.3845992 -0.17422 2.1719797
-2.3847504 -0.12831001 2.177495
-2.3842297 -0.07794372 2.1789684
-2.4113321 -0.027523248 2.150846
-2.385483 -0.027611835 2.1810973
-2.4087949 0.027635835 2.1618245
-2.3845463 0.020983659 2.1869276
-2.4101467 0.069658719 2.1621602
-2.3924475 0.073238917 2.1796761
-2.4069526 0.13092995 2.1634324
-2.3887367 0.12482536 2.1846962
-2.4025776 0.17411655 2.1635029
-2.3878362 0.1745782 2.1904871
-2.4075236 0.22500642 2.1637957
-2.3912673 0.2254746 2.1894965
-2.4075704 0.27911717 2.1691468
-2.3911722 0.27291694 2.1914434
-2.4070981 0.3266888 2.1610038
-2.3933859 0.32741705 2.1846206
-2.4092877 0.37536344 2.1633859
-2.3961186 0.37936458 2.1889212
-2.4050045 0.42930138 2.1616244
-2.3958569 0.41870791 2.1755018
-2.4043911 0.47289595 2.1648679
-2.3911324 0.47667751 2.189574
-2.4098799 0.52906579 2.166661
-2.3965878 0.52081251 2.1915874
-2.4087169 0.57038778 2.1723905
-2.3896689 0.58856827 2.197984
-2.4104459 0.62502885 2.1669779
-2.3940766 0.62646145 2.1930895
-2.4114902 0.67877072 2.1681821
-2.3977757 0.66426754 2.1870816
-2.4101603 0.72476512 2.1682806
-2.39275 0.72614974 2.1936047
-2.4084902 0.77092296 2.1672909
-2.3955026 0.76403928 2.1852171
-2.4134483 0.82340187 2.1680889
-2.395592 0.82098669 2.1965659
-2.4140201 0.87420523 2.1725993
-2.3991158 0.85205591 2.1900043
-2.4134808 0.92898566 2.1705904
-2.3981225 0.91710377 2.1959839
-2.4117014 0.98316532 2.1773276
-2.3958595 0.9823879 2.1994412
-2.4149127 1.0283511 2.175488
-2.4122605 1.0806339 2.1692526
-2.3974333 1.0729014 2.1955912
-2.4201207 1.1286573 2.1700411
-2.4126928 1.1693697 2.1755157
-2.4187889 1.2206432 2.1770093
-2.4262371 1.2699804 2.175436
-2.4306142 1.3291032 2.1758809
-2.4310241 1.3785671 2.1772804
-2.4511168 1.4339303 2.1512408
-2.4363897 1.4213632 2.1820228
-2.4385178 1.4725943 2.1759069
-2.4552639 1.5300045 2.154675
-2.4402652 1.5187426 2.1788318
-2.4569817 1.56801 2.1528013
-2.442066 1.5759962 2.176682
-2.4584408 1.630219 2.1620991
-2.4435472 1.6255879 2.1882064
-2.4560025 1.6690235 2.1625581
-2.4459519 1.6800528 2.1861234
-2.4573891 1.7283703 2.1760223
-2.4496751 1.7196399 2.1940854
-2.466682 1.7777468 2.1726308
-2.464103 1.8278536 2.1787915
-2.4609346 1.8690335 2.1793411
-2.4589784 1.912415 2.1980166
-0.49643108 -0.50993615 2.2001667
-0.40401807 -0.51666987 2.242686
-0.3734521 -0.50972748 2.2280371
-0.32730991 -0.50187337 2.235446
-0.1385857 -0.5000937 2.2404785
-2.3114712 -0.46575391 2.2224362
-1.8599781 -0.46513849 2.2064703
-0.27396485 -0.49363664 2.228545
-0.21801493 -0.49528342 2.2146301
-0.17360102 -0.49679837 2.2240283
-0.12713413 -0.49754548 2.2294371
-0.074357882 -0.49280825 2.2181151
-0.024225466 -0.49528491 2.2216258
0.0081046652 -0.49612194 2.2254763
0.074091211 -0.4927457 2.2296386
0.1315455 -0.4935824 2.2115164
0.15231998 -0.49148783 2.2012389
0.23205864 -0.4911617 2.228862
0.27411598 -0.48853025 2.2305908
0.31641573 -0.48660725 2.2180233
0.37882826 -0.48819995 2.2188847
0.47575259 -0.483886 2.2391462
0.51303703 -0.48846275 2.202023
0.58004618 -0.48831037 2.2438207
0.60659456 -0.48292801 2.2131534
-2.32827 -0.4261519 2.2275517
-2.2875633 -0.43841779 2.2398596
-1.8577572 -0.41871828 2.2114868
-1.836737 -0.4212532 2.2103856
-2.3576148 -0.37548673 2.2091806
-2.3353169 -0.3780075 2.2341607
-2.3595469 -0.32031697 2.2130046
-2.3382008 -0.32516506 2.2382679
-2.2150598 -0.31697261 2.2377586
-2.3605268 -0.27360255 2.2111843
-2.3473461 -0.27463278 2.2393427
-2.1328962 -0.26270032 2.2372756
-2.070183 -0.26010606 2.2479513
-1.9857259 -0.26804838 2.2298551
-2.359998 -0.22294469 2.2155247
-2.3450356 -0.22363828 2.2419577
-2.3584716 -0.17224753 2.2179704
-2.3455672 -0.17292581 2.2463253
-2.3585677 -0.12484078 2.2226634
-2.3439667 -0.11485955 2.2479391
-2.3593006 -0.075242363 2.2213607
-2.3425367 -0.071341574 2.2480683
-2.3587925 -0.027795626 2.2237084
-2.3422613 -0.02788836 2.2485566
-2.3612123 0.021986326 2.2214324
-2.3418841 0.030027989 2.2481163
-2.3684497 0.073445462 2.2181773
-2.3687804 0.12135355 2.2219646
-2.3462558 0.11712145 2.2496803
-2.362833 0.17711355 2.2269797
-2.3650229 0.22823639 2.2301831
-2.3489225 0.20439652 2.2466447
-2.3664455 0.27740371 2.2290807
-2.3702712 0.3215524 2.2274842
-2.3712876 0.37270322 2.2213683
-2.3765624 0.42465648 2.2182343
-2.3742054 0.47806391 2.22493
-2.3712051 0.52633297 2.224503
-2.370858 0.57463092 2.2249513
-2.372649 0.62370229 2.2264957
-2.3746746 0.6757918 2.2206321
-2.3734417 0.72926009 2.2308729
-2.3765452 0.77487618 2.2206175
-2.3734083 0.82357341 2.2314365
-2.3794355 0.87066752 2.2222257
-2.373594 0.91917622 2.2289379
-2.379842 0.96576983 2.2224174
-2.3856919 1.0247517 2.2259886
-2.3831866 1.0691031 2.227602
-2.3866482 1.1200807 2.2256846
-2.3895278 1.1750755 2.2274077
-2.4047544 1.2212963 2.2012951
-2.38974 1.2215525 2.2247393
-2.4116914 1.2873137 2.210227
-2.3905907 1.2767076 2.2319956
-2.408926 1.3200798 2.2126465
-2.3941648 1.3260047 2.2356048
-2.4077752 1.3646123 2.2163441
-2.3917294 1.3705671 2.2350886
-2.4144139 1.4311979 2.2201066
-2.3983686 1.4288366 2.2383103
-2.4148321 1.4737099 2.2183206
-2.397259 1.4646759 2.2348633
-2.4162748 1.5238928 2.2172241
-2.3991671 1.5157038 2.2438102
-2.4218838 1.576148 2.2199852
-2.4189389 1.6246436 2.225945
-2.4308941 1.6764004 2.2224584
-2.4336474 1.7256523 2.2220321
-2.4323406 1.7750727 2.2292113
-2.4534824 1.8287191 2.2052772
-2.4398592 1.8276184 2.2233012
-2.4562776 1.893544 2.2058024
-2.4413195 1.8749254 2.2237251
-2.4553683 1.9395455 2.2126489
-2.4387703 1.926231 2.2343516
-2.4557562 1.9719532 2.2114608
-2.442395 1.974218 2.2342732
-2.4412324 2.0212309 2.2404089
-1.5148668 -0.52040452 2.2970643
-1.4738348 -0.51900977 2.2717924
-0.53399581 -0.51436001 2.2657526
-0.47723672 -0.52462953 2.2684736
-0.41302654 -0.51555824 2.2621493
-0.37977237 -0.50998944 2.266705
-0.31714246 -0.5074212 2.2615101
-0.29918161 -0.50329733 2.2966306
-0.07515832 -0.50130504 2.2995164
0.024599005 -0.5019049 2.2513437
-0.30821246 -0.49980116 2.2796998
-0.21566054 -0.49205285 2.2721615
-0.1724112 -0.49124029 2.2731483
-0.12740569 -0.49413243 2.2755587
-0.070454635 -0.49478677 2.2696445
-0.024588026 -0.49349207 2.2643654
0.024886554 -0.49682647 2.2796531
0.057855558 -0.49544108 2.2729375
0.1241555 -0.49205875 2.2766221
0.17883062 -0.49089998 2.267576
0.22460482 -0.4878374 2.2836874
0.27379677 -0.48653895 2.2740283
0.32265308 -0.48526135 2.2637324
0.50292867 -0.48889232 2.259089
-2.2970273 -0.41131771 2.2538548
-2.3113332 -0.37362391 2.2628706
-2.2774544 -0.3671087 2.2680044
-2.3137295 -0.32585496 2.2688632
-2.2865388 -0.32120937 2.2885914
-2.322669 -0.27519289 2.2698166
-2.213222 -0.2708118 2.2946582
-2.1259503 -0.26357839 2.2559805
-2.0529218 -0.25967732 2.2548409
-2.0167987 -0.25859478 2.266088
-2.3241031 -0.22445112 2.2760065
-2.3236966 -0.17351098 2.2794311
-2.3252962 -0.12425482 2.2794948
-2.3283932 -0.071610272 2.2750747
-2.3330836 -0.028033588 2.2745764
-2.3340714 0.022180956 2.2701788
-2.3501806 0.066460222 2.2553298
-2.3344605 0.075856701 2.2747934
-2.3509564 0.14642794 2.2526515
-2.3321702 0.12597899 2.2763321
-2.3507447 0.1682165 2.2510705
-2.3340116 0.17815243 2.280899
-2.3325951 0.22737552 2.2834041
-2.3343892 0.2787101 2.2801523
-2.3375199 0.32298559 2.2780788
-2.3508761 0.38134527 2.2555838
-2.3380406 0.37264496 2.2811179
-2.3536222 0.42573833 2.2512617
-2.3385012 0.42694029 2.2778265
-2.3564308 0.46630561 2.2562783
-2.3375204 0.47439489 2.2825592
-2.3505642 0.54556507 2.2534885
-2.3369813 0.52201509 2.2753763
-2.3512785 0.56045556 2.250989
-2.3332355 0.57935905 2.2815704
-2.3505037 0.63783872 2.2605975
-2.3347535 0.62139589 2.2805338
-2.3526537 0.67550492 2.2531204
-2.3265839 0.67407709 2.2813175
-2.3514636 0.74651623 2.2613165
-2.330488 0.72575122 2.2806106
-2.3549347 0.77750164 2.255779
-2.3287485 0.77618575 2.2832901
-2.3564098 0.84308422 2.2663901
-2.3406906 0.82692742 2.2793939
-2.3575621 0.87360018 2.2574751
-2.3387754 0.87497449 2.2814875
-2.35291 0.93035829 2.262754
-2.3393896 0.92441636 2.2852752
-2.3589673 0.97601718 2.2603097
-2.3429651 0.97100145 2.2856324
-2.3606942 1.0234349 2.2671325
-2.3412387 1.0248814 2.2909713
-2.363209 1.0738156 2.265337
-2.3449295 1.0759243 2.2904761
-2.3616424 1.1263536 2.2730286
-2.3431921 1.1362699 2.2948751
-2.362854 1.1760726 2.2727056
-2.3649373 1.2270174 2.2757587
-2.3671529 1.2691817 2.2796853
-2.3736687 1.3241683 2.2776136
-2.3744216 1.3783959 2.2752891
-2.4075282 1.4389677 2.2613332
-2.3776906 1.4242243 2.2750909
-2.3850012 1.4804522 2.2734094
-2.3828678 1.5252954 2.2797465
-2.4020948 1.5600617 2.2576866
-2.3857241 1.5732889 2.2813256
-2.3919339 1.6229941 2.2720511
-2.4114866 1.6751225 2.2663085
-2.3931785 1.6836159 2.2904701
-2.4121914 1.7254674 2.2646456
-2.396863 1.7322061 2.2940845
-2.4120269 1.7704619 2.2738986
-2.4184282 1.8224168 2.2758257
-2.4194565 1.8750831 2.2758346
-2.418782 1.9242653 2.2742305
-2.4161642 1.9754097 2.2727063
-2.4194503 2.0282493 2.2776194
-2.4529128 2.0961461 2.2602596
-2.4269431 2.0794117 2.2809067
-2.4337814 2.1274266 2.2813458
-2.4256301 2.1700768 2.2882302
-2.1499977 2.399811 2.2858236
-2.2015243 2.4007699 2.2929595
-2.1743858 2.4076154 2.2816589
-2.1349134 2.4023509 2.2997997
-1.552904 -0.50111663 2.3199129
-1.525674 -0.50867385 2.3295586
-0.56471437 -0.50962228 2.3485358
-0.52185398 -0.51323909 2.3163195
-0.47638902 -0.53047973 2.320941
-0.42885169 -0.52253723 2.3178062
-0.38707697 -0.51607835 2.3470836
-1.5225446 -0.47099918 2.327956
-0.28028131 -0.49828741 2.328949
-0.21298899 -0.48849607 2.3426206
-0.18504494 -0.48852026 2.3257887
-0.12661336 -0.49233019 2.3234479
-0.078342892 -0.49321336 2.3262703
-0.025259973 -0.49507517 2.3248503
0.025328452 -0.49388337 2.3192415
0.075738318 -0.49319863 2.3153
0.13015361 -0.48972392 2.3287807
0.1749357 -0.48878852 2.3350196
0.22532044 -0.48632696 2.3313882
0.27142909 -0.48612136 2.327143
-1.5275136 -0.43630567 2.3392205
-1.5303783 -0.37020409 2.3304269
-2.3013606 -0.29076096 2.3017707
-2.285322 -0.27184954 2.3148339
-2.3015573 -0.21784766 2.3088381
-2.2849808 -0.22789414 2.3276663
-2.3009005 -0.18132898 2.3108828
-2.2859015 -0.17226624 2.3314011
-2.3014226 -0.10113584 2.3155589
-2.2905908 -0.12762621 2.3307948
-2.3078525 -0.071921758 2.3092303
-2.2861743 -0.069229916 2.3392925
-2.3088586 -0.028183555 2.3109949
-2.2923398 -0.028278021 2.3353288
-2.3103106 0.022904914 2.312397
-2.2851808 0.022890963 2.3416359
-2.3112166 0.074019961 2.3123147
-2.2850749 0.074084193 2.3405511
-2.1338224 0.085748799 2.3284581
-2.3078935 0.12022027 2.3117571
-2.2908907 0.13034232 2.3397093
-2.1672163 0.11887135 2.3434341
-2.1226647 0.11833534 2.3236916
-2.3116167 0.1734806 2.3106647
-2.2977457 0.17689174 2.3348563
-2.3066628 0.22568147 2.3218005
-2.2901864 0.22118078 2.3444228
-2.3077857 0.27251026 2.3230975
-2.292995 0.28391927 2.3413594
-2.3104639 0.32427183 2.319967
-2.2958972 0.32529649 2.3465717
-2.3158355 0.37657073 2.3184509
-2.2967553 0.37703046 2.3406126
-2.3139327 0.43065318 2.3187075
-2.2975748 0.4140552 2.3360059
-2.3116529 0.47171658 2.3208654
-2.291219 0.47480094 2.3473272
-2.3111334 0.5261479 2.3160574
-2.2854965 0.53137255 2.3399649
-2.308531 0.57450897 2.3103328
-2.2834041 0.57835704 2.3326883
-2.3092613 0.62380964 2.3070042
-2.2843039 0.62602723 2.3289773
-2.3025532 0.68553597 2.3133397
-2.2849336 0.66850895 2.3311408
-2.3044002 0.72334599 2.3051307
-2.2811842 0.72631121 2.3275568
-2.3080904 0.784244 2.3137493
-2.2792494 0.7795732 2.3348372
-2.3140798 0.82897043 2.3141198
-2.290858 0.82628703 2.341315
-2.3145478 0.8805691 2.3194218
-2.2961042 0.87116039 2.3405309
-2.3176441 0.92632848 2.324688
-2.2981348 0.9463312 2.3478363
-2.3244565 0.9819172 2.325707
-2.3252628 1.0276625 2.3271658
-2.3262115 1.0824854 2.3251059
-2.3275893 1.1272271 2.325825
-2.3285873 1.1727581 2.3258367
-2.3345478 1.2214397 2.3277493
-2.3542099 1.2905511 2.3031886
-2.3394284 1.2753422 2.3253314
-2.3530989 1.3381736 2.3120265
-2.3388195 1.3279546 2.332715
-2.3546436 1.3753984 2.3123131
-2.3401999 1.3705595 2.3388388
-2.3553381 1.4267393 2.3124137
-2.3410938 1.4261765 2.3373489
-2.3643646 1.4753851 2.3175185
-2.3484914 1.4678046 2.3426344
-2.3600154 1.5219566 2.3227863
-2.3478322 1.5262176 2.3454962
-2.3672128 1.5743468 2.3270609
-2.3676209 1.6203531 2.3239703
-2.3686244 1.6741762 2.3259146
-2.3774312 1.7232774 2.3238437
-2.3821149 1.7743276 2.3266983
-2.401257 1.8354326 2.3118608
-2.3860512 1.8282423 2.3322639
-2.4041018 1.8544765 2.3041444
-2.3873994 1.8780456 2.3221488
-2.406357 1.9202895 2.3041463
-2.3902912 1.9363631 2.3280079
-2.4021654 1.9647208 2.3081405
-2.3857591 1.9808605 2.3316009
-2.4046907 2.0239305 2.3126609
-2.3946514 2.0299737 2.3328838
-2.4080951 2.0682955 2.3151596
-2.3971217 2.0816393 2.3426418
-2.4071882 2.1259983 2.3189893
-2.3934846 2.1122468 2.336854
-2.4126339 2.1768947 2.3196924
-2.4101572 2.2222931 2.3300762
-2.4067116 2.2539086 2.323724
-2.3907745 2.2730358 2.3402443
-2.3729765 2.3262117 2.3443778
-2.3315911 2.3741946 2.3476365
-2.2749178 2.3882027 2.3325627
-2.2317491 2.3972929 2.3214436
-2.1686552 2.3942938 2.3252425
-2.1219366 2.3941922 2.3259711
-2.0976593 2.3994551 2.3200645
-2.2018971 2.4026957 2.3365564
-2.0812178 2.4004941 2.3325658
2.1777887 2.4408755 2.3315947
2.221616 2.4369016 2.3267405
-0.52582926 -0.52870804 2.3878915
-0.47464824 -0.53568798 2.3716164
-0.4049046 -0.51265758 2.3849046
-0.34626353 -0.51211047 2.3884435
-1.5094198 -0.47368753 2.363265
-0.17833216 -0.48621675 2.3762977
-0.12309951 -0.49250984 2.3661683
-0.07426361 -0.49785438 2.3931997
-0.01998847 -0.49275684 2.3694074
0.025736084 -0.49183097 2.3648963
0.077645235 -0.48871514 2.3778327
0.10532655 -0.48933741 2.3514891
0.27954066 -0.48399654 2.3735271
-1.5181634 -0.43795973 2.3555281
-1.5473452 -0.38235313 2.3686538
-1.4902884 -0.36763778 2.3648474
-1.5141513 -0.34827822 2.373893
-1.4989909 -0.34927747 2.3900313
-2.2620111 -0.26302809 2.3603778
-2.2260892 -0.26316312 2.3909695
-2.2639005 -0.22656029 2.3655341
-2.2385724 -0.23004867 2.3915684
-2.1786194 -0.2101218 2.3984697
-2.2636607 -0.17517447 2.3690007
-2.2470551 -0.17562981 2.3927538
-2.1749012 -0.17345129 2.3967896
-2.2667983 -0.12141184 2.3704956
-2.2464705 -0.12411807 2.3948085
-2.1654561 -0.12213257 2.3889518
-2.2684109 -0.074604705 2.372503
-2.2468326 -0.072659068 2.3969634
-2.1691284 -0.071637318 2.3947074
-2.2692957 -0.028403662 2.3663559
-2.2414446 -0.028464919 2.3919511
-2.1419787 -0.027829235 2.3654377
-2.2622395 0.022914931 2.3726878
-2.2300956 0.022837223 2.3934484
-2.1944666 0.037224904 2.3958349
-2.2621043 0.074242622 2.3715842
-2.2304358 0.070338167 2.3861425
-2.1800458 0.072898902 2.3657627
-2.2672122 0.12270285 2.3668296
-2.2314768 0.12960191 2.3836143
-2.1607811 0.14417055 2.3553934
-2.2722375 0.17883667 2.3689325
-2.231046 0.17391579 2.3916945
-2.186697 0.17881398 2.3884292
-2.1469789 0.1656992 2.365911
-2.2651241 0.22191922 2.380388
-2.271317 0.27227026 2.3780279
-2.273273 0.32623112 2.3784735
-2.1583948 0.31281102 2.3930585
-2.2751617 0.37362593 2.3715498
-2.2736192 0.42747003 2.3755529
-2.2693172 0.4763841 2.3802388
-2.2788994 0.51235217 2.355629
-2.2567656 0.78961772 2.3657789
-2.2676907 0.82958984 2.3713591
-2.2483954 0.80969846 2.3950515
-2.2746902 0.87452871 2.3753626
-2.2836416 0.92450821 2.3730745
-2.3080595 0.97811395 2.3583698
-2.2863948 0.96788609 2.3805745
-2.3049831 1.017086 2.3611166
-2.2876427 1.0196146 2.3866737
-2.3059881 1.0710791 2.3624649
-2.2918391 1.0714864 2.3877356
-2.3065805 1.1233559 2.3768046
-2.2915146 1.1333055 2.3946371
-2.3061218 1.1778066 2.3694069
-2.2924483 1.175539 2.3888254
-2.3149736 1.2275903 2.3666356
-2.2974584 1.2307796 2.3929191
-2.3148224 1.2752262 2.3667545
-2.3146434 1.3236548 2.3773499
-2.3186507 1.3798066 2.3792315
-2.3225465 1.4217997 2.3743453
-2.329154 1.4767079 2.3782225
-2.333627 1.5238761 2.3691967
-2.3516204 1.5884223 2.3519077
-2.330394 1.5719039 2.3785501
-2.3504493 1.6316955 2.362052
-2.3381891 1.6198229 2.3762167
-2.3549721 1.6757469 2.3674486
-2.3337789 1.6613035 2.3829501
-2.3596869 1.731511 2.3659616
-2.3418863 1.7215629 2.3903091
-2.358372 1.7694627 2.3662581
-2.3448157 1.7718483 2.3831453
-2.3615236 1.8246541 2.3687904
-2.3480234 1.8293914 2.3909719
-2.3621333 1.8820589 2.3711977
-2.3472207 1.87614 2.3995481
-2.368984 1.9237614 2.3706203
-2.3675685 1.9750855 2.3669784
-2.3728395 2.0291851 2.3718085
-2.3718877 2.0761812 2.3742874
-2.3765454 2.1243286 2.3733761
-2.4026136 2.196862 2.355778
-2.3830843 2.1730044 2.3821008
-2.3846376 2.2225504 2.3717811
-2.3701532 2.2755828 2.3819578
-2.3636832 2.3273602 2.3793797
-2.3308513 2.3736155 2.3772981
-2.2744277 2.3884761 2.3756528
-2.2306283 2.3975508 2.3712475
-2.1754544 2.3946929 2.3832207
-2.1266193 2.3972716 2.3787494
-2.0842795 2.3965678 2.364908
-2.0432522 2.3966672 2.3517406
-1.9711262 2.393245 2.3937447
-2.1319757 2.4033198 2.384769
-2.0688934 2.4077375 2.3722789
-2.0230508 2.4035416 2.3756306
-1.9977603 2.404475 2.3936398
2.0830784 2.4229827 2.366698
2.1340854 2.4387057 2.3709109
2.1735699 2.433672 2.3744447
2.2235785 2.4362481 2.3759954
2.2662487 2.4353707 2.3876939
-0.52645218 -0.5292713 2.4250171
-0.47792745 -0.5342257 2.4202559
-0.44827551 -0.53433013 2.4245539
-0.16696206 -0.48620832 2.4212015
-0.1233353 -0.49372122 2.4301255
-0.079112083 -0.48790637 2.4265406
-0.020491071 -0.4912411 2.4199359
0.014636136 -0.49019885 2.4148312
-1.4968227 -0.37790483 2.4105871
-2.1869395 -0.26202756 2.4034188
-2.1410575 -0.26003829 2.4070535
-2.2192717 -0.22257766 2.4091651
-2.180485 -0.24295658 2.4163163
-2.2283382 -0.17593323 2.4140184
-2.2243659 -0.12413804 2.4123509
-2.2259052 -0.072723724 2.4157748
-2.2211499 -0.02852899 2.4113452
-2.204802 0.0081523554 2.4073958
-2.1558805 0.008074698 2.4352975
-2.1483455 0.029868746 2.4266229
-2.1399045 0.080962658 2.4433513
-2.1317739 0.12432337 2.4324226
-2.2232127 0.22377253 2.4103546
-2.1850181 0.21241465 2.4048109
-2.2264233 0.27413544 2.4172695
-2.2340324 0.32691655 2.4199629
-2.1919792 0.3397775 2.4277194
-2.2517457 0.37930518 2.4046392
-2.2255502 0.37045854 2.4276133
-2.2544484 0.409477 2.4032724
-2.231602 0.4169665 2.4213338
-2.2390406 0.47779843 2.4178798
-2.1868641 0.47730467 2.4111714
-2.2473352 0.78664154 2.400547
-2.2390847 0.82464457 2.4219074
-2.2524743 0.87764806 2.4093189
-2.2382445 0.8699311 2.4340851
-2.2596264 0.92411727 2.4103618
-2.2453341 0.91979599 2.4363883
-2.2639136 0.97412753 2.4177892
-2.2493138 0.95788622 2.4409325
-2.2673175 1.0243303 2.4235396
-2.2716622 1.0766042 2.4250798
-2.2747018 1.1287773 2.4243331
-2.2751172 1.1721661 2.4232237
-2.2802012 1.2224805 2.4317949
-2.3025079 1.2897441 2.4061248
-2.2824636 1.2706468 2.4269783
-2.3061316 1.3297881 2.4146965
-2.2894709 1.3261708 2.431704
-2.2898459 1.3706897 2.4308927
-2.305083 1.430461 2.409687
-2.2906563 1.425131 2.4340789
-2.3068936 1.4681028 2.4163296
-2.2971108 1.4783847 2.445317
-2.3078985 1.5209886 2.4194682
-2.2986333 1.5475484 2.4468596
-2.308522 1.5742899 2.421519
-2.2992139 1.5644101 2.438374
-2.3162487 1.6264632 2.423218
-2.2978463 1.6078805 2.4493127
-2.318058 1.6745851 2.421452
-2.320642 1.7254976 2.4249828
-2.3221037 1.7744913 2.4250355
-2.3282108 1.8225744 2.4269695
-2.3300061 1.8684956 2.4257374
-2.3550534 1.9478796 2.4054351
-2.3397102 1.9165006 2.4220572
-2.357306 1.9829042 2.4063301
-2.3412478 1.9665639 2.4325294
-2.3579948 2.0168421 2.4054201
-2.3384106 2.0224094 2.432272
-2.358078 2.0756764 2.4075174
-2.3379297 2.0810676 2.4338903
-2.3597302 2.1279769 2.4166687
-2.3415766 2.1357832 2.4379754
