ply
format ascii 1.0
comment PCL generated
element vertex 1486
property float x
property float y
property float z
element camera 0
property float view_px
property float view_py
property float view_pz
property float x_axisx
property float x_axisy
property float x_axisz
property float y_axisx
property float y_axisy
property float y_axisz
property float z_axisx
property float z_axisy
property float z_axisz
property float focal
property float scalex
property float scaley
property float centerx
property float centery
property int viewportx
property int viewporty
property float k1
property float k2
end_header
0.39062595 1.5730079 2.2945008
0.42869613 1.5755409 2.2773955
0.46885383 1.5703162 2.2590852
0.38898516 1.620641 2.2975087
0.42422107 1.6269265 2.2801099
0.47077513 1.6225806 2.259871
0.3933084 1.6841621 2.296972
0.42184952 1.6749545 2.2842419
0.47354436 1.675643 2.2597675
0.39656183 1.7309179 2.2962668
0.42797163 1.7255388 2.2843308
0.474262 1.7238373 2.2584279
0.42927232 1.7742728 2.2868159
0.47414654 1.7765915 2.2653284
0.50720567 1.7839731 2.2543137
0.43209705 1.8223054 2.2876725
0.47479916 1.826826 2.2682693
0.50580192 1.8188301 2.2524133
0.43976992 1.8536527 2.2955256
-2.1682978 2.3825812 2.2667542
-2.13376 2.3816864 2.2685599
-2.0638897 2.3706098 2.2978404
-0.95274985 -0.50158662 2.3431056
-0.92980379 -0.50753194 2.3172836
-0.86668313 -0.50175786 2.3051779
-0.91313481 -0.49629331 2.326643
-0.89777154 -0.49761668 2.3376758
-2.1144264 -0.40862608 2.3049173
-2.1089287 -0.37942168 2.3029902
-2.0690162 -0.379886 2.3381338
-2.0373333 -0.36018863 2.3041904
-2.1258824 -0.3235026 2.3023124
-2.0359657 -0.33220932 2.306119
-0.47286692 -0.30574951 2.3302689
-0.44883335 -0.30483004 2.3262196
-0.38756141 -0.31682417 2.3375647
-2.1137545 -0.25240701 2.3097475
-2.0957255 -0.27908421 2.3004591
-0.46293369 -0.27259731 2.3416436
-0.42136049 -0.27144501 2.3365538
-0.39327857 -0.27158928 2.3411093
-2.1142747 -0.22432618 2.312741
-2.0753701 -0.22392142 2.3355782
-0.41135943 -0.24962339 2.3471456
-2.1300344 -0.17185645 2.3205228
-2.0672183 -0.19511169 2.3285189
-0.4732765 -0.15676811 2.3133991
-0.41509375 -0.15809286 2.3406641
-2.1342089 -0.12657982 2.3275537
-0.47240865 -0.12856159 2.3103261
-0.40940675 -0.12358263 2.3317225
-0.39238697 -0.12980635 2.3436451
-2.134732 -0.075066246 2.3275359
-2.1378434 -0.027449636 2.3209264
-2.13939 0.022057977 2.3225622
-2.1387973 0.075116135 2.3242073
-2.1411769 0.12425689 2.3235097
-2.15046 0.19924495 2.3138149
-2.1437099 0.1750655 2.3233917
-2.1573822 0.23332982 2.322974
-2.1394534 0.20729306 2.3412685
-2.1626549 0.27188754 2.3239067
0.29391694 0.38630116 2.31338
0.31330603 0.38425416 2.3062186
-2.3608339 0.43744749 2.326833
0.29448366 0.403862 2.3159397
0.31877273 0.42533317 2.3057258
-2.3598425 0.47980535 2.3326943
0.3278119 0.47520399 2.3015254
-2.459619 0.53673863 2.3357155
-2.3761549 0.51163316 2.3291204
-2.4763813 0.62516344 2.333065
-2.6211591 0.73619944 2.3187411
-2.6576886 0.78959286 2.3312495
-2.6439126 0.76491326 2.3301747
0.39864627 0.7915259 2.3291159
0.41292399 0.78549373 2.3092685
-2.6630061 0.8234458 2.3264017
0.33894283 0.84594828 2.3109698
0.38597617 0.80102378 2.3215084
-2.6648312 0.87641716 2.3235369
0.28978199 0.88401747 2.3323686
0.31858853 0.87652373 2.3136232
-2.6621227 0.92162812 2.3226485
-2.6485636 0.93970716 2.322011
0.29118189 0.9184441 2.3280313
0.32393828 0.92815781 2.3095825
-2.7026608 0.96953648 2.3337696
-2.6766474 0.9832713 2.322284
0.29814434 0.9742105 2.3285654
0.32345632 0.97524422 2.3103118
-2.674212 1.0219862 2.3251359
0.31979346 1.0233833 2.3166864
-2.6806371 1.0690315 2.3237536
0.32708246 1.076671 2.3135614
-2.6765943 1.1196835 2.325449
0.29334474 1.1432147 2.3398848
0.3250207 1.1250908 2.3173926
-2.6743846 1.1756924 2.3238969
0.27821526 1.1767949 2.3393986
0.32237482 1.1752526 2.3153896
0.3539156 1.1754559 2.3039131
-2.6731544 1.2301712 2.3232319
0.24803972 1.2249516 2.3487225
0.27958566 1.2249357 2.3379178
0.32483974 1.2267509 2.3170569
0.35387433 1.2220883 2.3049948
-2.6844313 1.279367 2.3234959
0.27812108 1.2762064 2.3389916
0.32791674 1.2752575 2.3135076
0.35624588 1.2729414 2.3033938
-2.6851237 1.3214014 2.3188183
0.27993691 1.3237376 2.3373187
0.32701498 1.32731 2.3157275
0.36189657 1.3251143 2.3017387
-2.708519 1.3751528 2.3063207
-2.69397 1.3699875 2.3349199
0.27510747 1.3714105 2.3401847
0.32341784 1.373432 2.3201268
0.35877401 1.376591 2.3042524
-2.7075007 1.425639 2.3153064
-2.6945331 1.4341993 2.3394203
0.27543113 1.4235177 2.3426805
0.32224563 1.4238673 2.3211548
0.35662442 1.4167993 2.3043518
-2.7039557 1.4812912 2.330168
-2.6967218 1.4721026 2.3494546
0.27826527 1.4695868 2.3430924
0.32464659 1.4722713 2.3203681
0.36261293 1.4633092 2.3039055
-2.7165694 1.5254806 2.3249989
0.28428477 1.5207802 2.3418148
0.32682565 1.5283195 2.3269727
0.36379483 1.5187697 2.3039529
0.28525025 1.5693412 2.3432987
0.33040345 1.5761399 2.3221867
0.36694521 1.5796626 2.3068006
0.28634059 1.6239696 2.3466487
0.3202965 1.6257546 2.3297911
0.36702478 1.6259186 2.3080411
0.29238853 1.682403 2.3452673
0.32217291 1.6770802 2.332238
0.37183106 1.6756892 2.3065574
0.29035726 1.7270336 2.3469167
0.32847443 1.7283776 2.3296564
0.36900121 1.7239802 2.3089855
0.29445511 1.7839394 2.3474543
0.32737646 1.7769622 2.33741
0.37345892 1.7775655 2.3131342
0.40179724 1.7869999 2.3059335
0.32606286 1.8179022 2.3388569
0.37163162 1.8270217 2.3204253
0.41126052 1.8261397 2.3036861
0.33630213 1.8688257 2.3422875
0.37097448 1.8628336 2.3224454
0.40666208 1.8557265 2.3032386
-2.2989686 2.3950443 2.3411715
-2.1098652 2.3959057 2.3467991
-2.0613804 2.378885 2.3322914
-2.2232907 2.4067852 2.3285789
-1.0233697 -0.50079805 2.3839262
-0.98564768 -0.50026882 2.3922367
-0.8832233 -0.50281584 2.3683758
-0.23698062 -0.50254291 2.3521764
-1.0298067 -0.49799728 2.3668771
-0.98305535 -0.49895534 2.3859847
-0.91423327 -0.49467334 2.3823087
-2.1006191 -0.43010086 2.38116
-2.0944369 -0.41020498 2.3814535
-0.24017651 -0.42829192 2.3943639
-2.0719318 -0.37534469 2.3622456
-2.0376184 -0.36780995 2.3837998
-1.9702244 -0.37026465 2.3827381
-2.0805418 -0.32679006 2.3761091
-2.0273569 -0.32692379 2.3818955
-1.9707484 -0.33535877 2.3876173
-0.37165084 -0.31720546 2.3712473
-0.45732358 -0.25306985 2.3747098
-0.43598825 -0.25072896 2.3548536
-0.3830362 -0.27024239 2.3708508
-2.0808024 -0.22418793 2.3845019
-0.42331147 -0.22574 2.3787277
-0.39263409 -0.22643113 2.3805096
-2.107451 -0.16269571 2.3627062
-2.0958078 -0.17536998 2.3889666
-0.46001878 -0.17354795 2.3934424
-0.42278513 -0.16987538 2.3727815
-2.1116116 -0.12740001 2.3691604
-2.0950472 -0.12772021 2.3906171
-0.43646148 -0.10264796 2.3645527
-0.37986618 -0.11685522 2.3809586
-2.1145577 -0.07995639 2.3696592
-2.0980456 -0.085024305 2.3955905
-0.42243949 -0.07457009 2.3917205
-0.38869199 -0.063306212 2.3934469
-2.1203284 -0.02771694 2.3681762
-0.41640481 -0.023033032 2.3957112
-2.121264 0.022190198 2.3691871
-2.0999916 0.015068767 2.3989401
-0.42063829 0.003909064 2.397541
-2.1221006 0.072189018 2.3725848
-2.1222365 0.12165027 2.371695
-2.126508 0.17234996 2.3696213
-2.1284685 0.22469893 2.3704591
-2.1563103 0.28882805 2.3659945
-2.1334531 0.2661604 2.3699162
-2.373606 0.41485327 2.3577266
-2.5152547 0.5645327 2.3853328
-2.6065705 0.72214711 2.3774719
-2.5987754 0.71995145 2.3704193
-2.6289141 0.77446294 2.3696759
-2.6529078 0.84397072 2.3572457
-2.6368492 0.82639611 2.3820457
-2.6517167 0.87871802 2.3609903
-2.6348462 0.87030208 2.3784378
0.28631741 0.88563669 2.3541646
0.33527017 0.86639708 2.3680167
0.35728526 0.85044146 2.3572688
-2.6532845 0.93897629 2.3587108
-2.6443102 0.92242706 2.3807163
-2.6591618 0.97849149 2.3617642
-2.6445274 0.97739476 2.3848119
-2.6608546 1.0158651 2.3635941
-2.6470697 1.0225248 2.3875065
0.30316943 1.0446382 2.351413
-2.6608727 1.0742413 2.366312
-2.6422999 1.0766997 2.3950768
0.30443716 1.073144 2.3535101
-2.6565981 1.1254467 2.3582885
-2.644861 1.1333789 2.3839386
0.29023677 1.1426792 2.3686233
-2.652097 1.1803961 2.3642423
-2.6455736 1.176528 2.3921971
0.24795368 1.1938961 2.3593163
0.26090547 1.1748787 2.3733587
-2.6566055 1.2263438 2.3720949
-2.6435115 1.2006059 2.3799198
0.22972153 1.2279273 2.3720684
-2.6645911 1.2774322 2.3698924
-2.6496422 1.2614225 2.3943496
0.18749639 1.2781779 2.3903661
0.22268175 1.2751576 2.3700595
0.25082421 1.28827 2.3557236
-2.6726325 1.3275559 2.3733587
0.1803696 1.3224235 2.3893352
0.2231296 1.3260645 2.3667264
0.25205857 1.3257793 2.3545103
-2.6787288 1.3748709 2.37554
0.17413487 1.3742272 2.3903642
0.22321348 1.3741241 2.3666103
0.25428033 1.3876908 2.3537571
-2.6793115 1.4203584 2.3754725
0.1772421 1.4285845 2.3900766
0.22480822 1.4251014 2.3652141
0.25498876 1.410449 2.3518975
-2.6804869 1.4772625 2.3806517
0.18051991 1.4764885 2.3881433
0.22727753 1.4771068 2.3663876
0.26420683 1.4835273 2.3508744
-2.7060871 1.538458 2.3622673
-2.6878974 1.5231301 2.3723214
0.18000065 1.5286663 2.3908899
0.22858821 1.5263553 2.3683589
0.25982884 1.527119 2.3538711
-2.7177343 1.5624419 2.3636785
0.18220167 1.5753443 2.3913224
0.22867008 1.5759922 2.3690102
0.26261088 1.5921578 2.3542051
0.17986386 1.6175991 2.3914609
0.21983568 1.6304953 2.3762136
0.26433274 1.6297932 2.3550289
0.18360551 1.6679058 2.3908596
0.22347488 1.6736578 2.3736441
0.26479393 1.6729916 2.3573191
0.18780805 1.7307718 2.3952417
0.22176744 1.72366 2.3805933
0.26876435 1.7239187 2.3569989
0.19263647 1.7711681 2.3978121
0.23053811 1.7724113 2.3802457
0.26925591 1.7718972 2.3589897
0.22800282 1.824502 2.3874655
0.27430347 1.8290895 2.3631957
0.30623481 1.8400822 2.3568494
0.23111156 1.8657875 2.3882563
0.27344677 1.8789433 2.3712223
0.3106631 1.878161 2.3570771
0.23879457 1.9107946 2.3920999
0.25893086 1.9061971 2.3845608
-2.3998446 2.3885624 2.3890698
-2.3038261 2.3821712 2.358952
-2.2297759 2.3972902 2.3925042
-2.1738443 2.3832121 2.3657956
-2.1051731 2.3928893 2.3862202
-2.078167 2.3907938 2.3804443
-2.1612289 2.4064507 2.3700256
-2.1416636 2.4120746 2.3508921
-2.0662041 2.4060042 2.3917043
-0.91215742 -0.50015676 2.411952
-0.23688862 -0.50306165 2.4113717
-2.1099489 -0.45108148 2.4304755
-1.9868201 -0.4575347 2.4458401
-1.923305 -0.45273727 2.447969
-0.89127505 -0.49871355 2.4097238
-0.25559124 -0.49357957 2.4226696
-0.23848075 -0.48880041 2.4300802
-2.1086915 -0.44770256 2.4016545
-2.0834973 -0.42352381 2.4143009
-2.0015938 -0.40034512 2.4449723
-0.25380859 -0.40844673 2.4157798
-0.2345002 -0.41665021 2.4094586
-2.0730486 -0.3742044 2.4251561
-2.009294 -0.37563938 2.4097314
-1.9739026 -0.37660864 2.433002
-1.9393625 -0.3574934 2.4321809
-2.0615449 -0.32794079 2.403451
-2.0267909 -0.32343557 2.4085836
-1.9704392 -0.32738104 2.4258628
-1.9325795 -0.3314755 2.4482737
-0.37875235 -0.26427466 2.4340518
-2.0716584 -0.21865067 2.423748
-0.45932484 -0.21541463 2.4294701
-0.43898693 -0.20928 2.4060986
-0.38443676 -0.22886038 2.4343638
-2.0869148 -0.16944866 2.4241424
-0.46598434 -0.18870218 2.4134285
-0.41662294 -0.1884191 2.4074678
-0.387492 -0.1841751 2.4280047
-2.0776722 -0.1284602 2.4244585
-0.36741695 -0.1041142 2.4064729
-2.1015496 -0.056522939 2.400291
-2.0783353 -0.078236513 2.4269202
-0.46537375 -0.077630244 2.4371302
-0.38517475 -0.075259261 2.4078486
-2.1043959 -0.027925974 2.4039063
-2.0852704 -0.028049821 2.4325061
-0.42160597 -0.023101479 2.4029131
-0.39292517 -0.01159279 2.4200213
-2.1046572 0.022315385 2.4109223
-2.0884495 0.020538941 2.432817
-0.41957664 5.3805757e-05 2.4027147
-0.38834423 5.0477876e-05 2.428596
-2.1064548 0.072531007 2.405344
-2.0899165 0.072790861 2.4326718
-2.1058233 0.12514476 2.4026964
-2.0924938 0.12320486 2.4280722
-2.1075132 0.17370273 2.4156294
-2.0970011 0.17459236 2.4442894
-2.106585 0.22671975 2.4153023
-2.0975044 0.21811168 2.4418893
-2.110266 0.26863891 2.4250362
-2.5046487 0.54995853 2.4077158
-2.5824826 0.68282133 2.4359195
-2.6031501 0.73785275 2.4114239
-2.5934329 0.72336113 2.4263229
-2.61233 0.77903748 2.4145591
-2.6104062 0.82402426 2.4312885
-2.6221263 0.8724823 2.4318292
-2.6231506 0.92232978 2.4257607
-2.6309929 0.9719131 2.4253898
-2.625457 1.0281508 2.42414
-2.6266487 1.0764153 2.4247804
-2.6258888 1.1215942 2.4264846
-2.6278288 1.1713771 2.4253571
0.27022532 1.1740849 2.4057474
-2.6503284 1.2449309 2.4022942
-2.6369193 1.2255884 2.4241049
-2.6361616 1.2711991 2.4297581
0.1735291 1.2872008 2.4153118
-2.6552222 1.3293629 2.4131982
-2.6411476 1.3272547 2.435792
0.092848442 1.3444088 2.4386232
0.128043 1.3310045 2.4233484
0.1548228 1.3206874 2.4071794
-2.650696 1.36324 2.4185224
-2.6442089 1.3771082 2.4279273
0.02914477 1.3973577 2.4493792
0.07447993 1.3749574 2.4415681
0.12262662 1.3751373 2.4160848
-2.6598797 1.4263446 2.4132619
-2.6408694 1.4208001 2.4414887
0.07437738 1.4232726 2.437536
0.12521249 1.4258227 2.4126828
0.15626203 1.4031519 2.4002233
-2.6617827 1.4724736 2.4142256
-2.6439075 1.4781252 2.4378932
0.076706357 1.4726918 2.4377587
0.12634346 1.47746 2.4166987
0.15801616 1.4705682 2.4039831
-2.6693068 1.524754 2.4148839
-2.6430154 1.5158073 2.4419351
0.07724876 1.521427 2.4375293
0.12709695 1.5255207 2.4128907
0.15859948 1.5018717 2.4008045
-2.6621161 1.5529268 2.4462066
0.080088839 1.5770561 2.4384222
0.13082978 1.5755942 2.4156604
0.16075076 1.5879062 2.4010932
0.084944881 1.624029 2.4350779
0.12855743 1.6212082 2.4162772
0.16192156 1.6325576 2.4014072
0.082149789 1.6719677 2.441421
0.12377633 1.6728141 2.4221344
0.15815996 1.679232 2.4086149
0.088732764 1.7242228 2.4436526
0.12491012 1.7222804 2.4263277
0.16256611 1.7190373 2.4066794
0.09246736 1.7739643 2.4461946
0.12773533 1.7698605 2.429209
0.16964288 1.7764891 2.4096308
0.20713383 1.793196 2.4002354
0.099706732 1.8015964 2.4436591
0.11981649 1.8243929 2.4378903
0.17327365 1.8250313 2.4130156
0.12169985 1.8711904 2.4417179
0.17864068 1.8768785 2.4150128
0.21540916 1.8894521 2.4021931
0.13893174 1.9101448 2.4421852
0.17524685 1.9239018 2.4245012
0.21909584 1.9201238 2.4054074
-2.3748498 2.3816948 2.4393518
-2.3341258 2.3957324 2.4476917
-2.2785525 2.3844986 2.4235861
-2.2254076 2.3931634 2.4101179
-2.153734 2.392101 2.4361196
-2.1062648 2.3964849 2.4330084
-2.0795527 2.3949764 2.4276083
-2.0136371 2.3955936 2.410202
-2.1278999 2.4009159 2.425524
-2.0641561 2.4064589 2.4351857
-2.0460539 2.4044225 2.4232888
-1.9640518 2.4164972 2.4340079
-1.909456 2.402751 2.4480596
-1.023373 -0.50673109 2.4855728
-0.99480706 -0.50512105 2.4848933
-0.92620772 -0.50219381 2.48739
-0.16575535 -0.51836783 2.4889855
-0.14148092 -0.51787841 2.487628
-1.9748837 -0.45810157 2.4583776
-1.9227343 -0.45782846 2.460206
-1.0327897 -0.4546212 2.4810345
-2.114933 -0.42588952 2.468246
-1.9709682 -0.42945722 2.4654648
-1.9175822 -0.42742878 2.4638972
-1.03431 -0.4181726 2.4662328
-1.9602304 -0.39924899 2.4618506
-1.9313433 -0.37813881 2.4778676
-2.0133071 -0.31741101 2.4833732
-1.9723029 -0.32149291 2.4726934
-1.9319344 -0.33083689 2.4817932
-2.0152357 -0.27461597 2.4944556
-1.9706285 -0.26497585 2.4896662
-1.9256395 -0.27600396 2.4721334
-2.0599148 -0.22375174 2.4660285
-2.0410802 -0.22704327 2.4934521
-1.944042 -0.2428396 2.4987977
-0.47959441 -0.21439415 2.4615664
-0.37607574 -0.22349797 2.4844444
-2.0725753 -0.17290765 2.4570494
-2.0390003 -0.16712992 2.4800451
-0.37920994 -0.1791247 2.4810476
-2.054395 -0.12095616 2.4632447
-2.0425487 -0.12393723 2.4863977
-2.0552735 -0.071496464 2.4650738
-2.0415862 -0.071715787 2.4854946
-0.38709247 -0.088595554 2.45716
-2.0602295 -0.028220491 2.4685605
-2.0420902 -0.028323727 2.4936435
-0.38655108 -0.011754227 2.454705
-2.0661862 0.024418376 2.4702992
-2.0440996 0.022466006 2.4960663
-0.42357516 0.011904076 2.4602132
-2.0694361 0.073260061 2.4742634
-2.0455213 0.073348433 2.4969575
-0.93049437 0.083231077 2.4797912
-2.0698423 0.12396893 2.469578
-2.0469191 0.12430182 2.4969208
-0.92584902 0.12934661 2.4634526
-2.0738358 0.17504555 2.4717164
-2.0475888 0.17526631 2.4951746
-0.93000609 0.17656185 2.4699528
-0.069870338 0.17630883 2.4956701
-0.044657879 0.19080114 2.494133
-2.0707598 0.22669776 2.4754736
-0.93830204 0.22314425 2.4738588
-0.068136014 0.2096103 2.480798
-0.044706468 0.20294493 2.4962254
-2.0787704 0.27013907 2.4704235
-2.4907289 0.49370858 2.4946089
-2.4679675 0.50494653 2.4690187
-2.5633326 0.58875895 2.4741888
-2.5143898 0.55729067 2.4614761
-2.566385 0.62977171 2.4683726
-2.5656528 0.67496288 2.4648719
-2.5696747 0.73664623 2.471823
-2.6020727 0.78319937 2.450429
-2.585314 0.77107126 2.4788415
-2.6024106 0.83741254 2.4670932
-2.5882943 0.81637418 2.4777315
-2.6063316 0.87153983 2.4608107
-2.5834727 0.87209749 2.4849844
-2.6075957 0.92422074 2.4616232
-2.5924149 0.92189503 2.4820945
-2.6088912 0.98299265 2.4727321
-2.59062 0.97965884 2.4904392
-2.6107512 1.0282845 2.4703112
-2.5948033 1.0260081 2.4953775
-2.6080301 1.078073 2.474051
-2.5987127 1.052593 2.4900479
-2.6068063 1.1229339 2.472276
-2.5962541 1.1175328 2.4851916
-2.6086545 1.180352 2.4648602
-2.5935044 1.1797409 2.4913185
-2.6113017 1.2249606 2.4698529
-2.5983131 1.2182791 2.4923606
-2.6122334 1.2759303 2.473654
-2.5956726 1.2760016 2.4993348
-2.6202834 1.3224326 2.4722736
0.042186126 1.3489218 2.4766011
0.080668367 1.3422176 2.463572
0.12610805 1.3327081 2.473629
0.15738586 1.3104105 2.4597783
-2.6234519 1.371152 2.4711938
-0.025853481 1.3768134 2.4873946
0.022703759 1.3716094 2.4675415
0.059269208 1.3531414 2.464838
-2.623244 1.4273856 2.4764013
-0.067135014 1.4362508 2.4977951
-0.030161642 1.4248761 2.4871256
0.022241041 1.4265853 2.4618094
-2.6262727 1.4762595 2.4778264
-0.029262433 1.4747895 2.4870327
0.022981966 1.473762 2.4611297
0.055743292 1.4814559 2.4528239
-2.6294916 1.5229659 2.4765358
-0.05682959 1.5291685 2.4963579
-0.02829528 1.5218225 2.4882176
0.02137924 1.5242996 2.465441
0.056252979 1.5479921 2.4506273
-2.6394684 1.5600661 2.4883287
-0.053851232 1.5765893 2.4958971
-0.023474507 1.5711844 2.487643
0.025170844 1.5729767 2.4654107
0.056519032 1.5752919 2.452553
-0.021999869 1.6261833 2.4904048
0.024157846 1.6232529 2.4684701
0.056991342 1.6287289 2.4529498
-0.019280223 1.6730007 2.4878428
0.02314464 1.6750165 2.4717538
0.05745538 1.6758436 2.455328
-0.017163424 1.7199321 2.4929001
0.024735074 1.7237415 2.4740973
0.062414315 1.7202673 2.4566128
-0.014985487 1.7657537 2.494693
0.021437237 1.7742199 2.4828701
0.065339185 1.7744848 2.460983
0.029875206 1.8261588 2.4844191
0.072822474 1.8245163 2.4619553
0.029360197 1.8724495 2.4861467
0.073572762 1.871563 2.4707086
0.03493008 1.9290617 2.4948306
0.076126523 1.9245752 2.4752882
0.11365221 1.928799 2.4599252
0.041901261 1.9720479 2.4967716
0.071361005 1.9659389 2.4771051
0.1239647 1.9554812 2.4554243
-2.6077824 2.3499293 2.4918878
-2.414067 2.3655448 2.4736733
-2.3684685 2.3752525 2.462729
-2.3411887 2.3846173 2.4683216
-2.2755868 2.3734276 2.4954202
-2.2364049 2.3879366 2.4734638
-2.1839952 2.3888836 2.482137
-2.1357145 2.3925335 2.4634137
-2.0689523 2.3951833 2.4701297
-2.0199814 2.3991847 2.4949777
-2.1212428 2.415941 2.4970603
-2.0282938 2.4068239 2.4735975
-1.9773463 2.4128406 2.474597
-1.9308195 2.4120078 2.4895248
-1.8796778 2.4091434 2.4766359
-0.20420858 -0.51210433 2.5173435
-0.17394918 -0.51289767 2.522728
-0.14456558 -0.51686358 2.54353
-0.17594627 -0.45871973 2.5407281
-0.14026453 -0.46289572 2.5468771
-1.9341538 -0.42593533 2.5220809
-0.26674658 -0.41700226 2.5402637
-0.23285782 -0.4113138 2.5075643
-0.16572767 -0.42360044 2.5479918
-0.13678627 -0.41475886 2.548526
-0.25469398 -0.36825141 2.5481796
-0.24193767 -0.36752409 2.543926
-0.15610537 -0.3735185 2.5466855
-0.13752013 -0.37295064 2.5435367
-2.0304565 -0.30552673 2.5059049
-1.9887389 -0.30810046 2.5041761
-1.9340725 -0.31515524 2.5070231
-0.16530709 -0.31911409 2.5459325
-0.13717636 -0.32320502 2.5413659
-2.0349979 -0.27668846 2.5095997
-1.9818636 -0.28815076 2.5019679
-1.9360691 -0.27238503 2.5136497
-0.9370985 -0.2539863 2.5429618
-0.16172609 -0.27467573 2.5465391
-0.13699384 -0.27406132 2.5416873
-2.018625 -0.23023267 2.5209033
-1.9855582 -0.24529433 2.5103765
-0.9505294 -0.24146046 2.5424926
-0.93391991 -0.24046172 2.5351753
-0.37680802 -0.22260229 2.5114083
-0.16145688 -0.22545281 2.5453227
-0.13646078 -0.22444499 2.5348554
-2.1234908 -0.19333515 2.5446513
-2.088378 -0.19218791 2.5445387
-2.040621 -0.17461526 2.5147815
-0.37150958 -0.19327897 2.5103335
-0.15542197 -0.19506679 2.5483317
-0.12806731 -0.17750548 2.5315249
-2.0353742 -0.12834114 2.5198352
-0.11784289 -0.10879232 2.5314696
-2.0278184 -0.071887463 2.5029948
-0.1278245 -0.089648932 2.5375373
-2.031224 -0.028402902 2.5078642
-2.0340204 0.022490855 2.5112867
-0.11442661 0.023124522 2.5238845
-0.09331578 0.036145132 2.5240886
-2.0339146 0.073432691 2.5103173
-0.94309312 0.054336354 2.5052671
-0.11494565 0.080716826 2.5209179
-0.090493128 0.081589431 2.5120802
-2.0357115 0.12449276 2.510803
-0.11501243 0.12408987 2.5211277
-0.084821172 0.12786296 2.5087898
-2.0407705 0.17593925 2.514488
-0.11121579 0.17445862 2.5157833
-0.090525366 0.1727924 2.5096602
-2.0549567 0.21969689 2.5012629
-2.0436203 0.22541244 2.5240281
-0.1116043 0.21125449 2.5224152
-0.08107049 0.21468699 2.5125597
-0.045577668 0.21906856 2.5441976
-2.0572054 0.27254191 2.520678
-2.0469139 0.26560867 2.5342562
-2.4926953 0.37597501 2.5297277
-2.5088723 0.42523527 2.5243616
-2.5052071 0.47258553 2.5131803
-2.5515668 0.5834896 2.5097423
-2.5463295 0.57786083 2.5365644
-2.5552726 0.62157875 2.5179892
-2.5474467 0.60249513 2.5326858
-2.5567489 0.65770143 2.5198181
-2.5563545 0.73747027 2.5263629
-2.5665205 0.77328134 2.5277202
-2.5663092 0.82250315 2.5137661
-2.5486002 0.83293986 2.5401552
-2.5589855 0.8749097 2.5227563
-0.17003942 0.88442761 2.5435345
-0.1442039 0.8930828 2.5432932
-2.5747201 0.93005991 2.5226173
-0.17437674 0.91559917 2.5472853
-0.14873976 0.91187108 2.5444624
-2.5731039 0.97484523 2.5267019
-2.578218 1.0249746 2.5309331
-2.5861919 1.074464 2.518513
-2.5842171 1.1312287 2.5287218
-2.5817971 1.1761695 2.5253468
-2.5830545 1.2230313 2.5247977
-0.16073802 1.2471352 2.5474954
-2.5852799 1.2758653 2.5223517
-0.16114004 1.2765365 2.5443428
-0.13188612 1.2830497 2.5408587
-2.6013501 1.3386629 2.5134494
-2.5833406 1.3188577 2.5275364
-0.16482852 1.322919 2.542872
-0.12129903 1.3245062 2.5294464
-0.079231955 1.3343359 2.520267
-0.049324941 1.3430791 2.5244989
-2.6058929 1.3776662 2.5098205
-2.5939043 1.3811501 2.5327299
-0.16147318 1.3668301 2.5415416
-0.12241852 1.3767538 2.5256956
-0.074096583 1.3717803 2.5081346
-0.033403657 1.3545116 2.5103807
0.0033410804 1.3593327 2.5254405
-2.6049421 1.4272182 2.5122149
-2.5898697 1.4197594 2.5336955
-0.16406177 1.4202384 2.5437768
-0.1213787 1.4243296 2.5261035
-0.079852082 1.4163485 2.5105689
-2.6079493 1.4683573 2.5140967
-2.5904107 1.4731312 2.5451956
-0.15840904 1.470224 2.5441179
-0.12419055 1.4738766 2.5300071
-0.076652676 1.4760048 2.5087557
-2.6110635 1.5262232 2.5222244
-2.587676 1.5114834 2.5411272
-0.15956202 1.5216941 2.5447121
-0.1245611 1.5247898 2.5330286
-0.081682131 1.5225844 2.5108922
-2.6208613 1.5698251 2.5347207
-0.16102196 1.5767205 2.5491643
-0.12689324 1.5754029 2.5380137
-0.081643283 1.5698646 2.5125556
-0.12201677 1.6249447 2.5386286
-0.071614996 1.6241322 2.5142491
-0.037369665 1.6326581 2.500284
-0.11666151 1.6733876 2.5419204
-0.071641915 1.6746907 2.5180376
-0.037827577 1.6939207 2.5096426
-0.11646567 1.7193172 2.5397518
-0.075713836 1.7258186 2.5226092
-0.034538236 1.7326542 2.5042768
-0.10907578 1.7603158 2.5497108
-0.071362264 1.7783964 2.5301795
-0.033751406 1.7849474 2.51248
-0.074367903 1.8237418 2.5361233
-0.022568369 1.823537 2.509958
0.0035480796 1.8439171 2.5027153
-0.067890614 1.8773724 2.5393631
-0.026662137 1.8798826 2.5201097
0.01064652 1.8837596 2.5014033
-0.061271269 1.9261403 2.5430899
-0.022233117 1.9289787 2.5223405
0.0083290813 1.9147619 2.5056651
-0.061725341 1.9692415 2.5436161
-0.027400369 1.9737681 2.5280025
0.013929116 1.9783744 2.5102077
-0.07680665 2.0130596 2.5433688
-0.025498522 2.0121679 2.5291464
-2.6643426 2.345154 2.5388105
-2.6357696 2.3474774 2.5151525
-2.7613523 2.3597243 2.5444741
-2.7150984 2.3643308 2.5377915
-2.6169665 2.3562286 2.5459187
-2.3364949 2.3709567 2.5391335
-2.2771668 2.3753953 2.52035
-2.2199688 2.3814774 2.5259271
-2.1806211 2.3934472 2.5362747
-2.1382418 2.3989143 2.5449162
-2.0691531 2.3972723 2.5017936
-2.0006959 2.3973258 2.5047128
-1.9787937 2.387532 2.5316379
-2.1759167 2.4004736 2.5217004
-2.1185889 2.4050918 2.5245476
-2.0693033 2.4183095 2.5357828
-1.9669284 2.4082403 2.5229859
-1.9179004 2.411664 2.5220869
-1.8685988 2.4110916 2.5274308
-1.8198302 2.412039 2.5283484
-1.7768326 2.4114611 2.5433562
-0.20829487 -0.50991499 2.5693605
-0.17715812 -0.50979578 2.5702674
-0.17609933 -0.48360214 2.566179
-0.1390927 -0.47918901 2.5609856
-1.9647248 -0.41962245 2.5781076
-0.2652638 -0.4119457 2.5872462
-0.21819887 -0.41938317 2.5675013
-0.17868847 -0.42517617 2.5568159
-0.14050908 -0.43907011 2.5540981
-1.9699254 -0.37491792 2.5761323
-0.26795566 -0.37567773 2.5696366
-0.22457056 -0.37781811 2.5698273
-0.18134737 -0.37501702 2.5558684
-1.9816477 -0.34015062 2.5956042
-0.2681852 -0.33227044 2.586369
-0.22528914 -0.32711691 2.5680785
-0.18621029 -0.33126885 2.554096
-1.9783233 -0.28780907 2.5962405
-0.95568591 -0.25555521 2.5554361
-0.91311765 -0.25617284 2.5727158
-0.88583386 -0.25387451 2.5541735
-0.26597822 -0.27873391 2.5852141
-0.22513916 -0.27754331 2.5700831
-0.18673478 -0.275547 2.5534828
-2.0244789 -0.22962964 2.5895028
-1.9720414 -0.24083188 2.5633235
-0.95776778 -0.218381 2.5728588
-0.91998792 -0.23810518 2.5606289
-0.87905777 -0.24105996 2.5552669
-0.26542813 -0.22719997 2.5831301
-0.22475676 -0.22782275 2.5689416
-0.18662556 -0.22641462 2.555079
-0.12054541 -0.21645364 2.5852523
-2.0506532 -0.19146496 2.5543354
-2.0313971 -0.17580648 2.5772035
-0.96130776 -0.19275786 2.5742929
-0.40502042 -0.17310472 2.5682909
-0.26574996 -0.18197821 2.588526
-0.22819473 -0.18194708 2.5725594
-0.17906781 -0.19195716 2.5716166
-0.12874702 -0.18078843 2.5649812
-2.0309005 -0.12513782 2.5750306
-0.25683957 -0.14232925 2.5844302
-0.24074651 -0.14465596 2.5899746
-2.0533712 -0.073322259 2.5625799
-2.0345707 -0.073463611 2.5812788
-0.39118281 -0.098526597 2.5624542
-0.14469832 -0.086247481 2.5788405
-2.0552244 -0.028971264 2.5655663
-2.0385931 -0.02905832 2.5870528
-2.0556135 0.020408923 2.566031
-2.0410159 0.023743562 2.5853925
-0.13190657 0.028716058 2.5708141
-2.0525272 0.07463 2.5613229
-2.0391483 0.074930757 2.5868979
-0.1315946 0.067361966 2.5642633
-2.0535016 0.14177978 2.5743244
-2.0437455 0.11737644 2.5812824
-0.2767109 0.13066219 2.5955925
-0.13123223 0.14049415 2.5552197
-2.0570095 0.18260986 2.5694485
-2.0449522 0.17946471 2.5899792
-0.27793807 0.17796232 2.5968099
-0.13272828 0.16061242 2.5836365
-0.058035094 0.17124638 2.5592411
-2.055568 0.22412387 2.5791574
-2.0430341 0.20981389 2.5999582
-2.0536196 0.26902199 2.5802317
-2.0424628 0.26950058 2.5946336
-2.0639291 0.32780904 2.5934205
-2.0497179 0.32293105 2.5989294
-2.5049481 0.38831514 2.5712583
-2.4835341 0.36639234 2.5871108
-2.0726936 0.37688342 2.5932868
-0.27856827 0.38197857 2.5966673
-2.514576 0.42221555 2.5766373
-2.0633919 0.41864491 2.5978951
-0.27266213 0.41025522 2.5977023
-2.5153553 0.47095773 2.5700052
-2.0579035 0.46720991 2.5912769
-0.28610423 0.46967506 2.5985253
-2.5241368 0.52139908 2.5707016
-2.0678937 0.522425 2.5954819
-0.28647932 0.50386804 2.5977819
-2.5317562 0.57192618 2.5692828
-2.0768445 0.57785934 2.5973175
-2.5513723 0.64004672 2.5601783
-2.5396376 0.62413251 2.5774729
-2.5509448 0.65632451 2.556093
-2.5377681 0.67477852 2.5785849
-0.28308895 0.68091053 2.5989795
-2.5341532 0.72407168 2.5697258
-0.27826166 0.72179705 2.5955398
-2.5549564 0.78545892 2.5603344
-2.5378582 0.77785808 2.5814221
-0.27252677 0.77244335 2.5893326
-2.551986 0.80929703 2.550571
-2.542352 0.82240486 2.5850923
-0.30487174 0.8153944 2.5956535
-0.27202758 0.82587963 2.5878136
-0.23471868 0.83722335 2.5760136
-2.5555704 0.87386727 2.5683851
-2.5444276 0.86740798 2.5908477
-0.30705076 0.89235538 2.5982075
-0.26968756 0.87667871 2.5854816
-0.22267352 0.87368429 2.5695117
-0.18494542 0.86703724 2.5586772
-0.14334142 0.8861025 2.5693715
-2.5561805 0.92400217 2.5536313
-2.5399318 0.92152852 2.5825617
-0.27454165 0.9267537 2.5901315
-0.21860735 0.92387003 2.5633962
-0.18367364 0.93893796 2.5538409
-2.5585382 0.98116267 2.5709186
-2.544668 0.96810764 2.5846524
-0.26607782 0.97531933 2.5879033
-0.22396711 0.97521299 2.5717931
-0.18199217 0.97021294 2.572571
-2.5580802 1.0289305 2.5674398
-2.546464 1.0283363 2.591593
-0.27065039 1.0281024 2.5913463
-0.22511102 1.0220608 2.5750654
-2.568193 1.0768552 2.5617721
-2.5470524 1.074199 2.5930083
-0.27196935 1.075055 2.5920682
-0.23410363 1.073753 2.5808024
-2.5594437 1.1181997 2.573895
-0.26861152 1.1230472 2.589246
-0.23920567 1.1276574 2.5789914
-2.5619693 1.1740636 2.572458
-0.27085775 1.1783191 2.5894163
-0.22866654 1.1794759 2.5768778
-2.5663836 1.2270097 2.5701041
-2.5455463 1.2335029 2.5989165
-0.27259645 1.2258704 2.5928388
-0.22803722 1.2264136 2.5725782
-0.17801942 1.2262732 2.5646265
-2.5626523 1.2720693 2.5737207
-2.5494893 1.2525672 2.5957453
-0.265982 1.2768217 2.5899358
-0.22745182 1.272649 2.5728326
-0.18835407 1.2760772 2.5576742
-0.14146455 1.2507937 2.5558143
-2.5701842 1.3274808 2.5704958
-0.26389188 1.3215842 2.5885246
-0.22381438 1.3232186 2.5709758
-0.19174959 1.3261911 2.5579834
-2.5695443 1.3721226 2.579664
-0.26040652 1.3735784 2.587883
-0.22545651 1.373331 2.5744381
-0.1879469 1.3816988 2.557554
-0.063556254 1.3526163 2.572542
0.016729893 1.3752961 2.5550606
-2.5720897 1.4300215 2.5755014
-0.26213625 1.4235438 2.5888238
-0.22671928 1.4216802 2.5727005
-0.19212699 1.4297299 2.5593879
-2.5719895 1.4775084 2.5754972
-2.1080287 1.4910551 2.5991282
-0.26234156 1.4760956 2.5976231
-0.22185016 1.4781872 2.5765793
-0.17954411 1.477663 2.5559747
-2.5763147 1.5198988 2.5710821
-0.26351628 1.5103345 2.5974224
-0.22389702 1.5298516 2.5840831
-0.17951809 1.5268614 2.5582073
-2.5842867 1.5513122 2.5729926
-0.21995732 1.5767261 2.5844002
-0.17995232 1.5709053 2.5626371
-0.22546345 1.6258986 2.5885832
-0.17670512 1.6221308 2.5637531
-0.14863977 1.6254992 2.55621
-0.22180708 1.6694173 2.5923159
-0.17322958 1.6786366 2.5699031
-0.14496066 1.6708474 2.5557525
-0.21620062 1.7090516 2.596096
-0.17130473 1.7247827 2.5708442
-0.13687094 1.7276248 2.5568361
-0.1718262 1.7830026 2.5839331
-0.12696068 1.7825038 2.564239
-0.1727334 1.8192314 2.5832007
-0.12299979 1.8243598 2.5598972
-0.17753807 1.8702481 2.5897012
-0.12601748 1.8755569 2.5664196
-0.091921262 1.8680925 2.5527344
-0.16676569 1.924161 2.5882528
-0.12933126 1.9244595 2.5728414
-0.090581089 1.9288473 2.5599256
-0.16827263 1.9710426 2.5938418
-0.12605904 1.9735096 2.5692604
-0.092602916 1.9728251 2.5558519
-0.16342105 2.0178301 2.5955851
-0.13256328 2.0240555 2.5808508
-0.077230476 2.0233347 2.5562789
-0.17576291 2.065253 2.591105
-0.1303934 2.0571845 2.5831311
-2.6286535 2.3475058 2.5702119
-2.5878446 2.3452621 2.5965686
-2.7782774 2.3628469 2.58921
-2.7233944 2.3604975 2.5747061
-2.6992607 2.3563957 2.5849144
-2.5761175 2.353817 2.5718398
-2.4123204 2.3629279 2.5639114
-2.3227558 2.3602567 2.576721
-2.2910528 2.3717346 2.5730071
-2.2218661 2.3749681 2.5585442
-2.184803 2.3927989 2.5696733
-2.098851 2.3590181 2.5934711
-1.9516715 2.3846121 2.5587049
-1.8787659 2.3975606 2.5623393
-2.1562233 2.4007418 2.5802875
-2.0782633 2.4210825 2.5780423
-2.033262 2.4133534 2.5805736
-1.9675311 2.4219484 2.5653594
-1.9206567 2.4080811 2.5733969
-1.8762614 2.4086764 2.574218
-1.8257648 2.4143369 2.5725718
-1.7658327 2.4145272 2.5787632
-1.724028 2.4230666 2.59163
-1.9730377 -0.41818023 2.6283143
-1.9821953 -0.37410262 2.6362307
-0.61690086 -0.36770776 2.6259534
-1.983819 -0.3241998 2.6174536
-0.56415331 -0.33780766 2.6192894
-0.28489754 -0.31307158 2.6033981
-1.9852095 -0.27041772 2.6261055
-0.28614497 -0.27669424 2.617559
-2.0673008 -0.21098638 2.6314082
-2.0442772 -0.21018694 2.6308298
-1.9876072 -0.2380594 2.6269836
-0.96550965 -0.20932077 2.623256
-0.28531566 -0.23825903 2.6123798
-2.0052969 -0.17863113 2.6251857
-0.40669858 -0.16392213 2.6203556
-0.39356145 -0.16423203 2.6266129
-0.28380871 -0.17464142 2.6017673
-0.21534471 -0.16853577 2.6083198
-0.18404181 -0.18717571 2.6078267
-0.14604799 -0.17404088 2.6001294
-2.0092659 -0.12333711 2.624244
-0.38896006 -0.10115436 2.632009
-0.27356288 -0.13017806 2.6139457
-0.23755179 -0.13935392 2.6471643
-2.0104506 -0.07398399 2.6215255
-0.40223673 -0.050629262 2.6357875
-0.3931689 -0.084278166 2.6320381
-2.0146995 -0.029285112 2.6277273
-0.40327927 -0.031697672 2.642797
-0.3930544 -0.021079578 2.6322317
-2.017658 0.021018453 2.6289535
-0.40601563 0.025424628 2.6328652
-0.39219141 0.022232484 2.6333852
-2.017586 0.0754859 2.6306067
-0.40634599 0.066181988 2.6454303
-0.39119402 0.070027091 2.6476641
-2.024533 0.12038088 2.6238532
-0.40854013 0.10618304 2.6476438
-0.39128098 0.11459087 2.6472323
-2.0249681 0.16957359 2.6260877
-2.0342255 0.22750559 2.6197453
-2.0343335 0.27095842 2.6211379
-2.1568682 0.33787623 2.6155365
-2.1103606 0.33472249 2.6092489
-2.035516 0.32134709 2.619354
-2.4779587 0.37741679 2.6205678
-2.1821454 0.36509728 2.6435695
-2.1262281 0.37478447 2.6172409
-2.0569603 0.37673411 2.6022398
-2.0351229 0.37978083 2.6282554
-0.37117612 0.38256425 2.6373353
-0.3255493 0.37937605 2.6191306
-0.29538673 0.3740654 2.6067944
-2.5063374 0.42489934 2.6137936
-2.4960327 0.42590749 2.6335914
-2.1693678 0.42764756 2.6496973
-2.1242082 0.42939374 2.6225169
-2.0914311 0.43341744 2.6098733
-2.0361342 0.42377943 2.6277456
-0.36679912 0.42752644 2.6351688
-0.32572123 0.42385137 2.615979
-0.28817734 0.42855525 2.608211
-2.5051258 0.47512686 2.6204615
-2.1527643 0.49724939 2.6486845
-2.1223991 0.47390419 2.6315713
-2.0396543 0.47259769 2.6225727
-0.3687433 0.47756791 2.6357865
-0.3263959 0.47547606 2.6156614
-0.29016051 0.46981236 2.6024559
-2.5104225 0.52528316 2.6177745
-2.4995687 0.54461807 2.6497192
-2.1548474 0.51326478 2.6487682
-2.1185379 0.52370137 2.6308098
-2.0617025 0.52770114 2.6042354
-2.0394247 0.52342498 2.6300161
-0.40917614 0.5285424 2.6465902
-0.37414584 0.52581567 2.6361871
-0.32069048 0.52717626 2.6146791
-0.28760672 0.53114837 2.6046383
-2.5152979 0.57903695 2.6249452
-2.1332314 0.5737744 2.6409807
-2.0575557 0.58155906 2.6087027
-2.0396714 0.57544148 2.6265354
-0.37767473 0.57403409 2.6388996
-0.32119086 0.57891816 2.6116796
-0.28822342 0.57664257 2.6039147
-2.5157993 0.62543523 2.6240768
-2.1375859 0.62150806 2.6375418
-2.0708857 0.62619781 2.610091
-2.0385418 0.63054323 2.6387725
-0.37598407 0.62697327 2.6373293
-0.32057777 0.6270749 2.6115408
-0.28536597 0.63465995 2.6083505
-2.5203254 0.67983693 2.6291792
-2.1535466 0.68868357 2.6442313
-2.1328068 0.66894531 2.636862
-2.0648959 0.67251617 2.6077447
-2.040199 0.67441863 2.6350932
-0.37052843 0.67716521 2.6363661
-0.32414588 0.67271554 2.6104858
-0.28309369 0.66183639 2.6023729
-2.5178716 0.72880775 2.6149337
-2.1626153 0.73085272 2.6464748
-2.1367478 0.73518449 2.6427796
-2.0699077 0.72398221 2.6143818
-2.0440474 0.71923655 2.6382191
-0.40075094 0.72353786 2.6476288
-0.37406927 0.72366345 2.6356533
-0.32395911 0.72504163 2.610348
-0.26684406 0.70754099 2.6249037
-2.5223114 0.76961708 2.6150193
-2.1508155 0.78722614 2.6487315
-2.1295774 0.77087402 2.63501
-2.0703881 0.76779437 2.612263
-2.0422971 0.77528739 2.6381378
-0.40211621 0.78051752 2.6461174
-0.37383935 0.77388102 2.6340096
-0.32358381 0.77459025 2.6103551
-0.27274209 0.7832045 2.6044354
-2.5245962 0.81906408 2.6316299
-2.1265726 0.82169199 2.6311529
-2.0695462 0.81783324 2.6100886
-2.0424352 0.81928301 2.6350775
-0.40366739 0.83383483 2.6458802
-0.37540373 0.82279891 2.6355412
-0.33138615 0.82380611 2.6152799
-0.23601115 0.83462703 2.6177757
-2.5265429 0.86980408 2.619488
-2.1400428 0.86789179 2.6447902
-2.0705285 0.87314188 2.6178272
-2.0441761 0.86188275 2.6420202
-0.37705716 0.8723731 2.6371171
-0.32756016 0.87265164 2.6146178
-0.29388398 0.86579245 2.6031349
-0.21796493 0.85918146 2.6305544
-0.15337083 0.88802582 2.6361289
-2.5274708 0.92337972 2.6211004
-2.1120381 0.9334479 2.6197519
-2.0661099 0.91831481 2.6212091
-2.0418081 0.93775707 2.6491973
-0.37135127 0.92664903 2.635329
-0.32629439 0.92132002 2.6138184
-0.2946375 0.9068799 2.600724
-2.5286329 0.97735453 2.6220107
-2.1383021 0.96885985 2.6450298
-2.0717788 0.97148669 2.6230426
-2.0462635 0.96329284 2.6478896
-0.3755734 0.97523594 2.6369722
-0.3244063 0.97679567 2.6150451
-0.29347396 0.97858047 2.6031222
-2.5357656 1.0223243 2.6152673
-2.1177011 1.0300477 2.6295173
-2.0703516 1.0191742 2.6253183
-0.41149759 1.044117 2.6496191
-0.37171102 1.0246319 2.6349595
-0.32606059 1.0278651 2.61604
-0.29463071 1.0184553 2.6037397
-2.5327039 1.0703622 2.6290495
-2.1351223 1.0624785 2.6430147
-2.0770307 1.0729331 2.623369
-0.3726328 1.0724177 2.636353
-0.32367885 1.0738193 2.6143453
-0.29962552 1.0759605 2.6040668
-0.21471068 1.077338 2.6195045
-2.5514295 1.1428708 2.6070955
-2.5383263 1.1263293 2.6267931
-2.102447 1.1418965 2.6354027
-2.0785499 1.1234983 2.6327753
-0.40078178 1.1252393 2.6474686
-0.37406686 1.125859 2.6408072
-0.32288653 1.1251172 2.6147914
-0.28782117 1.1318394 2.6024504
-0.22250994 1.1296064 2.6192033
-2.5524983 1.1604072 2.6015618
-2.5401678 1.1793712 2.6284492
-2.1327929 1.1737878 2.6331522
-2.0854645 1.1821091 2.6251948
-0.37453175 1.1745331 2.64044
-0.3242375 1.1734987 2.6168132
-0.28912631 1.1746669 2.60238
-0.21622908 1.171627 2.6118717
-2.5368586 1.2238792 2.6278501
-2.1268651 1.2278519 2.6379483
-2.0797679 1.2266964 2.6264987
-0.37105918 1.2220012 2.638689
-0.32795244 1.2229958 2.6204884
-0.29106537 1.2316449 2.6036692
-2.541527 1.2742965 2.6269341
-2.1091616 1.2834365 2.6238747
-2.08634 1.2777565 2.6360521
-0.36680651 1.2799333 2.6407824
-0.32202676 1.2712833 2.6156516
-0.29250655 1.2780867 2.6026037
-0.13092282 1.2897893 2.6037991
-2.5534637 1.3235202 2.6059246
-2.5418103 1.3243544 2.6364667
-2.1192751 1.3280793 2.6317909
-2.0895832 1.3176197 2.6389649
-0.36477891 1.3223814 2.6398642
-0.32310691 1.3245889 2.6188245
-0.29110593 1.3307817 2.6045737
-2.5528178 1.3844146 2.6141613
-2.5402467 1.3716296 2.6316798
-2.18187 1.3921844 2.64921
-2.1278944 1.3733302 2.630692
-2.0964279 1.3769143 2.6353698
-0.36724555 1.3694016 2.6415246
-0.32567003 1.3762072 2.6241019
-0.28931549 1.3755718 2.6049938
-2.5516415 1.4098754 2.6007693
-2.5435669 1.4299537 2.6305578
-2.1530595 1.4337282 2.62288
-2.1034093 1.4292842 2.6312559
-0.3644619 1.4166858 2.6448455
-0.33020556 1.4267476 2.6315274
-0.29164669 1.4278488 2.6097496
-2.5541115 1.4910573 2.6020434
-2.5413451 1.4687128 2.6189716
-2.1141148 1.4707317 2.6188464
-2.0964346 1.4780052 2.6246767
-0.3599492 1.4682881 2.6466534
-0.32082558 1.4736367 2.6290226
-0.28078362 1.476868 2.6075721
-2.5623879 1.5363395 2.6091442
-2.541153 1.5241717 2.6318033
-2.1146283 1.5334475 2.6166394
-2.0951786 1.5099616 2.6067872
-0.3618848 1.5042815 2.6491997
-0.32528731 1.5232743 2.6357956
-0.27749175 1.5333675 2.6100583
-2.5737324 1.5608816 2.611609
-2.5454547 1.5597941 2.632277
-2.1521697 1.5724685 2.6277905
-2.1086764 1.5671486 2.6183486
-0.31877378 1.5716957 2.6348891
-0.2764703 1.5753791 2.612505
-0.2480309 1.5866477 2.6038027
-2.113055 1.6169914 2.6316204
-0.31770903 1.6239607 2.638705
-0.28092197 1.627709 2.6203954
-0.24871901 1.6120703 2.6012514
-2.1284842 1.6618698 2.6394205
-0.31738567 1.6742367 2.6423371
-0.27133161 1.6783196 2.6231034
-2.1196797 1.7343667 2.6444795
-0.31876105 1.7231525 2.6438732
-0.27960843 1.7283417 2.629669
-0.22791964 1.7280436 2.6024902
-0.30918655 1.7757912 2.6462643
-0.26955405 1.7789465 2.6286459
-0.22869277 1.7746623 2.6133821
-0.19689801 1.7693095 2.6013472
-0.30866137 1.8209559 2.644747
-0.27608544 1.8314397 2.6349351
-0.22634186 1.8239529 2.6107209
-0.19896536 1.8385431 2.60112
-0.30516022 1.8537542 2.6438315
-0.27620149 1.8787593 2.6381195
-0.23246826 1.8770812 2.6162775
-0.30875665 1.9202653 2.6497405
-0.27789381 1.9199589 2.6373577
-0.22472966 1.9234165 2.6171515
-0.18805265 1.9477974 2.6094937
-0.26564005 1.9792639 2.6405439
-0.22094178 1.9745623 2.6208107
-0.18867633 1.9764739 2.6046562
-0.27541015 2.0266137 2.6428199
-0.22324269 2.0285974 2.6193044
-0.18522252 2.0247672 2.6058121
-0.26973176 2.0749006 2.6401749
-0.22274037 2.0770407 2.617384
-0.18009049 2.0644014 2.6040678
-0.27161691 2.1126029 2.644042
-2.637975 2.3450422 2.6090221
-2.5678833 2.3445301 2.6101642
-2.8711107 2.3594403 2.6167266
-2.8349338 2.3641839 2.6275856
-2.7659318 2.3577039 2.6407659
-2.7390738 2.3628953 2.6191604
-2.6913359 2.3566866 2.6172304
-2.6231198 2.3577263 2.6451907
-2.5646877 2.3592112 2.640995
-2.5377226 2.3520851 2.647444
-2.1817536 2.3920445 2.6389279
-2.2125442 2.405405 2.6408114
-2.1574709 2.4041638 2.6305432
-2.1154423 2.4063392 2.6174405
-2.0793023 2.4055276 2.61799
-2.0122437 2.4091022 2.6239157
-1.96664 2.4113748 2.624243
-1.9209949 2.4130242 2.6234636
-1.8674631 2.4109197 2.6321251
-1.8135263 2.4116838 2.617135
-1.77248 2.4060986 2.6192086
-1.7280254 2.4127493 2.6244752
-1.678659 2.4164147 2.6176169
-1.62208 2.4149058 2.6365368
-1.9613338 -0.42120257 2.6797857
-1.9620252 -0.37898341 2.6782722
-0.65298152 -0.37393889 2.6830888
-0.62315208 -0.36539799 2.6729717
-1.9714359 -0.32586405 2.6734896
-0.66426384 -0.34023866 2.6764479
-0.61535114 -0.31794789 2.6819623
-0.57237464 -0.32023552 2.6695263
-1.9699497 -0.27341428 2.6704745
-0.66634339 -0.27565408 2.6898205
-0.53274751 -0.27449629 2.69767
-2.0214694 -0.2109756 2.6590996
-1.9788799 -0.22909102 2.6829596
-0.55844402 -0.20895249 2.6958139
-0.53910106 -0.21946192 2.6658535
-1.9848869 -0.17731985 2.6736274
-1.9839711 -0.12526177 2.6690969
-0.57112098 -0.13047959 2.6953869
-0.52303958 -0.10262551 2.6561334
-0.27047223 -0.10818221 2.6584048
-1.9878712 -0.074849457 2.678484
-0.52447861 -0.077161558 2.6639841
-0.39195117 -0.050940473 2.6531782
-1.9929116 -0.031757586 2.6775372
-0.56148326 -0.0258938 2.6831937
-0.53904551 -0.02575645 2.6713266
-0.39196965 -0.025445545 2.653527
-2.003998 0.030733583 2.6641154
-1.9897221 0.026511872 2.6857553
-0.55084777 7.0228903e-05 2.6642814
-0.51349038 0.015206493 2.6764262
-0.46865913 0.035385169 2.6646953
-0.43198839 0.032056663 2.6603377
-2.0028088 0.076035537 2.6690722
-1.994372 0.076290846 2.6870267
-0.50645638 0.070291623 2.6943073
-0.47476971 0.071131505 2.680191
-0.43320954 0.072215043 2.6599786
-2.0076079 0.12424537 2.6622925
-1.9964585 0.12181878 2.6884537
-0.50419587 0.123702 2.6951773
-0.47549739 0.12297988 2.6830361
-0.42962211 0.1252735 2.6623178
-0.39206755 0.12333717 2.6522667
-2.0073328 0.18208446 2.670898
-1.9979151 0.15982902 2.6888041
-0.5054931 0.19576536 2.6992927
-0.47638497 0.17507188 2.6860836
-0.42634448 0.17317417 2.6619136
-0.39287969 0.1725716 2.6559467
-2.0109806 0.22785228 2.6729093
-0.50587422 0.24814066 2.6984594
-0.47593775 0.22669435 2.6878126
-0.42694342 0.22477928 2.6630645
-0.393062 0.2237778 2.6546435
-2.0128567 0.27355659 2.671931
-0.47563127 0.28100488 2.6874022
-0.42605889 0.27510089 2.662533
-0.39324558 0.27505931 2.6526909
-2.0168166 0.32247671 2.669838
-0.47099283 0.3281785 2.6836467
-0.43263417 0.32347178 2.6759515
-2.472373 0.3882966 2.6646302
-2.3528657 0.37216663 2.6961045
-2.3146002 0.36185867 2.6982911
-2.2771091 0.36681902 2.6885681
-2.2410688 0.3802397 2.6839218
-2.194598 0.39057153 2.655865
-2.0141039 0.37243697 2.6737328
-0.47315606 0.37237433 2.6844761
-0.42096522 0.37857342 2.6627123
-0.39434275 0.38484818 2.6511128
-0.26535198 0.39657268 2.6530597
-2.4818006 0.43059641 2.6708057
-2.2546015 0.44616178 2.6919084
-2.2268651 0.42361957 2.6791978
-2.1693461 0.40435073 2.6527405
-2.0169466 0.42768207 2.6758468
-0.47265506 0.4238601 2.6840565
-0.42414626 0.42361706 2.6626086
-0.39484468 0.42387381 2.6505635
-2.5013142 0.49553481 2.6600313
-2.4865818 0.477036 2.6781876
-2.2573347 0.46263087 2.6929026
-2.2233675 0.47467116 2.6798928
-2.1942043 0.47180304 2.6744595
-2.0116956 0.47399652 2.6773741
-0.47393715 0.47730109 2.685487
-0.42367688 0.47231269 2.6624806
-0.39583871 0.4678688 2.6524079
-0.28074399 0.49066338 2.6670101
-2.4929008 0.52688569 2.6718009
-2.2696772 0.52922308 2.6976647
-2.2234049 0.52209562 2.6724987
-2.1808062 0.52657264 2.6611168
-2.0211949 0.52302253 2.6768341
-0.51094919 0.52758658 2.6989477
-0.47364932 0.52644533 2.6866786
-0.42573932 0.52457523 2.6615334
-0.39647758 0.50300169 2.6525249
-2.5028665 0.56183511 2.6502059
-2.4924555 0.58165503 2.6825769
-2.2503555 0.57640684 2.6966376
-2.2249658 0.56797862 2.6818438
-2.1797209 0.58100247 2.6609559
-2.02353 0.57414424 2.6747754
-0.47783273 0.57325822 2.6877635
-0.42465517 0.57698214 2.6626825
-2.5068562 0.63295925 2.6725409
-2.4976215 0.62648916 2.695668
-2.2117255 0.61806804 2.6713905
-2.1831539 0.63017839 2.663646
-2.020879 0.62561423 2.6759388
-0.47273442 0.62504351 2.6851974
-0.42859441 0.62377965 2.6646709
-0.39838809 0.60909837 2.6507452
-0.28393582 0.6398868 2.6770713
-2.5057085 0.68104303 2.6738286
-2.4989314 0.65186298 2.6919174
-2.2584209 0.65872473 2.690727
-2.2228267 0.67803985 2.6809196
-2.1947756 0.6730836 2.6697004
-2.0228698 0.68218029 2.6778617
-0.50135773 0.66868669 2.6995628
-0.47069103 0.67614716 2.6850104
-0.4261134 0.6748901 2.6620097
-0.39976057 0.66971791 2.6503644
-2.5066178 0.72227228 2.6719093
-2.2596934 0.72675771 2.69853
-2.2261581 0.72109252 2.6888263
-2.1700962 0.7097351 2.6610537
-2.143059 0.71385098 2.6559799
-2.0246463 0.72851896 2.67922
-0.5031662 0.73996735 2.6971204
-0.47483703 0.72403264 2.6859477
-0.429517 0.72808045 2.6614559
-2.5105083 0.77324015 2.6675746
-2.4957247 0.76447296 2.6950033
-2.22842 0.75570643 2.6943581
-2.1793714 0.77614218 2.6574297
-2.0268362 0.77463394 2.6755664
-0.50453413 0.77540606 2.6980371
-0.47343528 0.77507204 2.6825266
-0.42859182 0.77703995 2.6633902
-2.5100634 0.81960332 2.6725924
-2.2205992 0.82806593 2.6820426
-2.180645 0.83804297 2.6751549
-2.0303965 0.82694864 2.6795571
-0.50649959 0.82764596 2.6985137
-0.47807199 0.82431209 2.6846848
-0.43051335 0.82515073 2.6620564
-2.5151317 0.87743664 2.6706722
-2.2568166 0.87923902 2.699327
-2.2187908 0.87071151 2.6844425
-2.182487 0.88420498 2.6729872
-2.037874 0.87693328 2.6770289
-0.50850725 0.88929933 2.6964636
-0.4773677 0.8752358 2.6850374
-0.42600089 0.87714934 2.6618395
-2.5153847 0.92641002 2.6732819
-2.21416 0.92379683 2.6959815
-2.1537225 0.91312623 2.6503615
-2.0341351 0.92469031 2.6785715
-0.47540954 0.92565376 2.6857071
-0.42324018 0.92588049 2.6587889
-2.514328 0.97194403 2.6781936
-2.2234256 0.97470713 2.6847095
-2.1812112 0.97476071 2.6772738
-2.0347774 0.97686338 2.6762943
-0.47389653 0.97340691 2.6842179
-0.42413723 0.97542381 2.6610065
-2.5197005 1.0224795 2.6719933
-2.2067361 1.033201 2.6852417
-2.1796095 1.0174446 2.6754436
-2.0531754 1.0452194 2.6648974
-2.0427763 1.0257893 2.6760185
-0.50082123 1.0292003 2.6977305
-0.47439003 1.0235914 2.6859474
-0.42574888 1.0220693 2.6599467
-0.39741409 1.0289167 2.6500385
-2.5171492 1.0781798 2.6768878
-2.2549856 1.089313 2.6982281
-2.232435 1.0659615 2.6924827
-2.1763899 1.0669149 2.6656647
-2.0573635 1.0790944 2.6595974
-2.0424216 1.0776745 2.6801572
-0.50253874 1.0669458 2.6976316
-0.47292614 1.0754247 2.6843014
-0.42568478 1.0769538 2.6632483
-0.39914188 1.0736547 2.6503775
-2.5218439 1.1230326 2.6663952
-2.2571933 1.1068947 2.6950676
-2.2164931 1.1259987 2.6870608
-2.1659303 1.1244788 2.6731992
-2.1480513 1.1498036 2.664202
-2.06196 1.1255875 2.6670971
-2.0466504 1.1303153 2.6939182
-0.47561222 1.1225868 2.687665
-0.42956439 1.1227325 2.6664333
-2.5244584 1.1777084 2.6807775
-2.226058 1.1904393 2.6905718
-2.1915157 1.172539 2.6833026
-2.1493857 1.1667187 2.6598015
-2.0631578 1.1698411 2.6742508
-0.47683746 1.1726142 2.6915419
-0.42386663 1.1731362 2.6618972
-2.525672 1.2188096 2.6696854
-2.2199588 1.224593 2.6861367
-2.1833296 1.220965 2.6738391
-2.0632229 1.2245518 2.6700332
-0.4690108 1.2216722 2.6883667
-0.42128646 1.2242751 2.6656587
-0.39215404 1.2348373 2.6517792
-2.5236084 1.2696385 2.6824312
-2.2296689 1.2703894 2.6876326
-2.1812031 1.2803582 2.6727731
-2.1459923 1.2551929 2.6550708
-2.066381 1.2756208 2.6765132
-0.46764892 1.2763703 2.6898685
-0.42404503 1.2736602 2.6691985
