ply
format ascii 1.0
comment PCL generated
element vertex 1439
property float x
property float y
property float z
element camera 0
property float view_px
property float view_py
property float view_pz
property float x_axisx
property float x_axisy
property float x_axisz
property float y_axisx
property float y_axisy
property float y_axisz
property float z_axisx
property float z_axisy
property float z_axisz
property float focal
property float scalex
property float scaley
property float centerx
property float centery
property int viewportx
property int viewporty
property float k1
property float k2
end_header
0.92499155 -0.50870788 0.77090436
0.9723193 -0.51225471 0.78495246
1.0048664 -0.51295632 0.79168141
-1.0132722 -0.49343717 0.79491156
-0.97338074 -0.49416903 0.78283948
-0.92476928 -0.49391207 0.77502167
-0.87246382 -0.49472669 0.77334303
-0.82661712 -0.49636745 0.77776259
-0.77490211 -0.4948262 0.77246314
-0.72629064 -0.49332693 0.77290404
-0.67671436 -0.49215722 0.77349186
-0.62516057 -0.49091992 0.77421129
-0.57564116 -0.48969448 0.77717459
-0.52598494 -0.48900422 0.77358979
-0.47460759 -0.4881869 0.77425605
-0.42476425 -0.4873586 0.77395356
-0.37366518 -0.48602223 0.77319753
-0.32490852 -0.48542735 0.77352577
-0.27589211 -0.48532274 0.77449769
-0.22565955 -0.48557401 0.77522898
-0.17546934 -0.48590726 0.77470326
-0.12445027 -0.48763475 0.77314717
-0.074459784 -0.48950693 0.7735585
-0.025852121 -0.49146578 0.77342492
0.023892654 -0.49326605 0.77400339
0.074457489 -0.49313828 0.77461857
0.12406174 -0.49159291 0.77340132
0.17483841 -0.49134329 0.77391452
0.22455008 -0.49216846 0.77437568
0.27580893 -0.49281424 0.77427483
0.32520607 -0.4930332 0.7737487
0.37450725 -0.49351934 0.77532256
0.42321596 -0.49322468 0.77352548
0.47370228 -0.49512079 0.77389902
0.52325332 -0.4972128 0.77107298
0.56911248 -0.49882695 0.7702899
0.0011398637 -0.50004023 0.84839052
0.33864385 -0.50011063 0.84887779
0.3783901 -0.50070757 0.8452608
0.42665404 -0.50133693 0.84591234
0.48190451 -0.50210792 0.83878434
0.52500677 -0.50227803 0.82600403
0.57279325 -0.50401318 0.82425046
0.62380415 -0.5070042 0.8245371
0.6763643 -0.50974435 0.82531637
0.72508955 -0.51259214 0.82631856
0.77321422 -0.51409614 0.82355088
0.82354176 -0.51440299 0.8256501
0.87370569 -0.51133096 0.82571828
0.92592549 -0.50820708 0.8252914
0.97329694 -0.5083704 0.82449323
1.0215285 -0.50931406 0.8251009
1.0687264 -0.50857222 0.83898765
-1.0663412 -0.49115202 0.83546591
-1.0286877 -0.49413112 0.82688987
-0.97658747 -0.49351782 0.82598829
-0.92163271 -0.49332643 0.81959385
-0.87505597 -0.49405184 0.82380778
-0.82633913 -0.4951008 0.82838058
-0.77447289 -0.49398947 0.82236415
-0.72257209 -0.49234909 0.82338649
-0.67316377 -0.49171424 0.82495534
-0.62401086 -0.49099612 0.82504278
-0.57417232 -0.48972753 0.8254993
-0.52442819 -0.48902172 0.82346302
-0.47503388 -0.48829249 0.82375741
-0.42488247 -0.48783994 0.82472932
-0.37544814 -0.48700523 0.82257175
-0.32445553 -0.48659542 0.82388502
-0.27302986 -0.4864482 0.82419604
-0.22366238 -0.48705989 0.82428199
-0.1757814 -0.4884775 0.82517308
-0.12549537 -0.4907015 0.823273
-0.075383335 -0.49264035 0.82307553
-0.026312165 -0.4949466 0.82539886
0.025737559 -0.4963586 0.82326323
0.074169852 -0.49544075 0.82431185
0.1249299 -0.49474603 0.82315207
0.17592992 -0.49497765 0.8245486
0.2261821 -0.49604085 0.82492673
0.27472645 -0.4967995 0.82580543
0.32503474 -0.49643686 0.82233298
0.37560141 -0.49701548 0.82215947
0.42846546 -0.49788743 0.82121354
0.47346041 -0.49792919 0.81243432
0.52584386 -0.4998315 0.81821954
0.057841346 -0.50026757 0.89739478
0.23668317 -0.50073379 0.88504243
0.27906412 -0.50095248 0.88056809
0.32693511 -0.50102115 0.88081944
0.37467822 -0.50192887 0.88215721
0.42255026 -0.50335354 0.87478179
0.47425079 -0.50480163 0.87483567
0.52751201 -0.50615978 0.87468255
0.57503051 -0.50888294 0.874219
0.62211806 -0.51098895 0.87396008
0.6729449 -0.51323068 0.8767913
0.72658551 -0.51554447 0.87329161
0.77738494 -0.51662809 0.87411988
0.82557267 -0.5178327 0.87496918
0.87442648 -0.51536006 0.87633228
0.92650265 -0.50947118 0.87270719
0.97600085 -0.50498855 0.87390083
1.0267988 -0.50449723 0.87117344
1.0719624 -0.50368273 0.87319529
1.1137233 -0.50245374 0.86942393
-1.1548176 -0.48798352 0.88755649
-1.1229973 -0.49045458 0.8800801
-1.076094 -0.48962635 0.87527359
-1.0283504 -0.49274737 0.87326682
-0.9729889 -0.49366307 0.87382823
-0.92199934 -0.49318069 0.87516272
-0.8750335 -0.4944213 0.87757033
-0.82310295 -0.49346423 0.87616748
-0.77457541 -0.4931978 0.87413979
-0.72241086 -0.49243644 0.8743493
-0.67526877 -0.49163201 0.87711626
-0.62371713 -0.49088284 0.8752982
-0.57374245 -0.49002141 0.87446505
-0.52395415 -0.48905897 0.87394834
-0.47460115 -0.48915297 0.87349439
-0.42382133 -0.48884133 0.87607282
-0.37487653 -0.48834345 0.87423462
-0.3245303 -0.48750225 0.87370116
-0.2762467 -0.48771495 0.87421525
-0.22641705 -0.48864165 0.87500453
-0.17457646 -0.49043 0.8748619
-0.12519033 -0.49417496 0.87428784
-0.074093893 -0.49600857 0.87245482
-0.024443706 -0.49750954 0.87430346
0.023888459 -0.49768677 0.87396878
0.07611791 -0.49691585 0.87383783
0.12549578 -0.49627843 0.87424779
0.17363527 -0.49689728 0.87415832
0.22148885 -0.49851727 0.87301415
0.27143273 -0.49814892 0.87053144
0.3241725 -0.49907905 0.86939806
0.37318018 -0.49892923 0.85988873
0.41591257 -0.49937254 0.85522103
0.98853475 -0.49906883 0.87661624
1.0208468 -0.49935514 0.88673139
1.0870575 -0.49916402 0.892847
1.1267992 -0.49674538 0.89175707
1.1623347 -0.49453944 0.89244252
-0.10970347 -0.50056434 0.94327879
-0.083825633 -0.50009745 0.92785257
-0.02588298 -0.50045776 0.92420924
0.0090041254 -0.50026685 0.9285059
0.18918628 -0.50041646 0.9170289
0.22777063 -0.50200999 0.92668855
0.27383715 -0.50346559 0.92730182
0.32581651 -0.50428498 0.92524099
0.37647936 -0.50529051 0.92320538
0.42475677 -0.50697607 0.92281598
0.47556558 -0.50851834 0.92334569
0.52473307 -0.51023549 0.92554152
0.57525742 -0.5120514 0.92660934
0.62752318 -0.51549077 0.92662948
0.6757673 -0.51773983 0.92681289
0.72621983 -0.51838487 0.92442596
0.77586091 -0.51901096 0.92264658
0.82466054 -0.51865393 0.92933917
0.87257534 -0.51629597 0.92497176
0.92552781 -0.51130325 0.92542058
0.97597522 -0.50460273 0.92540312
1.0243022 -0.50101459 0.90256852
1.0601189 -0.50237185 0.90188295
-1.2204517 -0.48906291 0.93483847
-1.1794091 -0.48956397 0.92602503
-1.1270249 -0.48974466 0.92657256
-1.0728052 -0.48948747 0.92449385
-1.0271695 -0.49248028 0.9232384
-0.97368371 -0.49249241 0.92531931
-0.92452204 -0.49129117 0.92837435
-0.8767882 -0.49251977 0.92404956
-0.82822621 -0.4920679 0.92485029
-0.77478927 -0.49190265 0.92083001
-0.72479165 -0.49256274 0.92369276
-0.67552555 -0.49204791 0.92976558
-0.6243006 -0.49136397 0.92631608
-0.57624847 -0.4907676 0.92628062
-0.52744377 -0.49002987 0.92642719
-0.47415665 -0.4897466 0.92486328
-0.42643228 -0.48972264 0.92456293
-0.37595922 -0.48918653 0.92538112
-0.32538253 -0.48849869 0.92267877
-0.2752223 -0.48900804 0.92338085
-0.22551617 -0.49007282 0.92493999
-0.17564385 -0.4927538 0.92561507
-0.12453912 -0.49700537 0.92324364
-0.073706836 -0.49852178 0.92325407
-0.024618065 -0.49851736 0.92542648
0.026735963 -0.49782735 0.92407471
0.075787723 -0.49559039 0.92520225
0.12486757 -0.49444035 0.92369169
0.1743926 -0.49582332 0.92403138
0.2103195 -0.49887043 0.92179871
0.26566496 -0.49962777 0.90105546
0.99479049 -0.49922964 0.94882858
1.0250902 -0.4965443 0.92554247
1.078011 -0.49445844 0.92797863
1.1236653 -0.4903048 0.92305553
1.1768125 -0.48728511 0.92542481
1.2169946 -0.48103565 0.93510711
1.256855 -0.47868687 0.94583023
0.035194021 0.44161358 0.94922048
0.028096322 0.46161002 0.94981289
0.045786042 0.50481361 0.94819534
-0.12220554 -0.50055712 0.97226274
-0.084867306 -0.50042504 0.96596342
-0.04262932 -0.5006845 0.96754301
0.2314654 -0.50415015 0.97175783
0.27589384 -0.50739819 0.97426462
0.32328635 -0.50865906 0.9748373
0.37466061 -0.51272494 0.97462386
0.4244312 -0.51238823 0.97327209
0.47481272 -0.51402771 0.97557539
0.52652389 -0.51454127 0.97408068
0.57445699 -0.51574051 0.9752835
0.62726635 -0.51723391 0.97265124
0.67627245 -0.51874226 0.9738121
0.72551638 -0.51882613 0.97396356
0.77598405 -0.51884592 0.97251511
0.82359093 -0.51598442 0.97681934
0.8724919 -0.51213324 0.9732663
0.92331094 -0.50672758 0.97440249
0.96538842 -0.50297272 0.97319251
-1.3128425 -0.48569918 0.99006462
-1.2695255 -0.48656139 0.97706717
-1.2324597 -0.49061909 0.97866642
-1.1765033 -0.49058819 0.97774196
-1.1211708 -0.4883059 0.97679585
-1.0770065 -0.48942319 0.97244608
-1.0288856 -0.49042338 0.97346026
-0.9750998 -0.49024945 0.97523332
-0.92501527 -0.48968908 0.9738915
-0.87526488 -0.49055344 0.97310382
-0.82353723 -0.49102902 0.97526085
-0.77582896 -0.49203727 0.97208369
-0.72412312 -0.49248672 0.97496468
-0.67342448 -0.49247339 0.97940308
-0.62520576 -0.4918468 0.97782683
-0.57538432 -0.49202406 0.97660601
-0.52441096 -0.4917627 0.9782936
-0.47490823 -0.49084783 0.97403616
-0.4244394 -0.48969817 0.97420681
-0.3752695 -0.48973367 0.9752863
-0.32483599 -0.48924372 0.97397935
-0.27509809 -0.48935121 0.97366393
-0.22483161 -0.49028221 0.97461772
-0.1750599 -0.49490336 0.97515255
-0.12713648 -0.49834231 0.97466797
-0.07480377 -0.49878737 0.97612107
-0.025581235 -0.49812001 0.97534049
0.023969185 -0.49512714 0.97507441
0.074731007 -0.48936161 0.97513866
0.12561968 -0.47916198 0.9754501
0.1716233 -0.48208171 0.97684687
0.20670018 -0.49664232 0.97486627
0.98385948 -0.49707246 0.97951174
1.0279765 -0.48600954 0.97858757
1.07682 -0.48029774 0.97678053
1.123943 -0.48103085 0.97454274
1.1722445 -0.48094469 0.97464597
1.2244852 -0.47490144 0.9780556
1.2669581 -0.46366358 0.97234142
0.12607986 -0.42544836 0.988159
0.17036955 -0.42325941 0.98624796
1.0427347 -0.44941801 0.99759102
1.0711597 -0.42582396 0.99705523
1.2733612 -0.4265112 0.98190051
0.12648468 -0.37819216 0.99150646
0.16585767 -0.38076866 0.98905963
1.0664915 -0.36555925 0.99912566
1.2700093 -0.3777422 0.98663163
1.0679054 -0.3310037 0.99787647
1.2665985 -0.32905051 0.99077898
1.2652351 -0.28795025 0.99459714
-0.054604921 0.44722873 0.99841577
-0.022941053 0.42868951 0.97936791
0.023101559 0.4260917 0.96695739
0.070453495 0.42940363 0.98070508
0.10628533 0.44373736 0.99629021
-0.055685509 0.46498576 0.99380654
-0.025096418 0.47231531 0.96821988
0.023410313 0.47490963 0.95493227
0.071902268 0.47179833 0.96902829
0.10954365 0.46115616 0.99110931
-0.010214766 0.50483871 0.96686852
0.021324776 0.50804198 0.96307015
0.05539038 0.503232 0.96301776
-0.16720906 -0.50025505 1.0147581
-0.12385507 -0.50060189 1.0073466
-0.077704571 -0.50048685 1.0229481
0.23343481 -0.50591266 1.022298
0.27392623 -0.5114131 1.0227622
0.32746372 -0.51419467 1.0274059
0.37448871 -0.51542324 1.0208499
0.42442161 -0.51890492 1.0223805
0.47165751 -0.51833826 1.0261343
0.52395779 -0.51951653 1.0260299
0.57458174 -0.5197233 1.0236859
0.62493324 -0.51945746 1.0227075
0.67409223 -0.51901263 1.0240594
0.72437817 -0.51900226 1.0225407
0.77436751 -0.51647234 1.0262973
0.82476377 -0.51318812 1.0251372
0.87832743 -0.50724322 1.0253175
0.92016387 -0.50254941 1.0207726
-1.3737408 -0.49061909 1.032465
-1.329347 -0.48939151 1.0325366
-1.2748792 -0.48753655 1.0209926
-1.2239633 -0.4872998 1.0283067
-1.1717844 -0.48670277 1.024532
-1.1254368 -0.48722246 1.0223813
-1.0757546 -0.48760763 1.0294213
-1.0226263 -0.48778266 1.02265
-0.97295153 -0.48727316 1.0232453
-0.92576647 -0.48928374 1.021503
-0.87414801 -0.49009439 1.0259109
-0.82402241 -0.4908585 1.0239139
-0.77386045 -0.49061888 1.0249258
-0.72559851 -0.49136189 1.0232071
-0.67558962 -0.49138224 1.0254728
-0.62357265 -0.49209714 1.025649
-0.57324189 -0.49161652 1.0258698
-0.52296603 -0.49094066 1.0247662
-0.47369766 -0.49076566 1.023947
-0.42378566 -0.49030912 1.0252259
-0.37378713 -0.48970392 1.0243328
-0.32437634 -0.48906174 1.0239736
-0.27225262 -0.48842686 1.0237179
-0.22371927 -0.48987368 1.0253018
-0.17497791 -0.49552983 1.0260097
-0.12511586 -0.49764025 1.0262831
-0.074459687 -0.49681997 1.0253867
-0.024995131 -0.49428555 1.0248272
0.026394133 -0.48706764 1.0261372
0.075510755 -0.47408363 1.0252223
0.11538496 -0.47191331 1.0091318
0.18129647 -0.47594169 1.0117308
0.20936382 -0.48771101 1.0249578
0.93620378 -0.4953717 1.0324515
0.97806007 -0.48100233 1.0287644
1.0167557 -0.46990457 1.0127299
1.0803671 -0.46132699 1.0086716
1.1264304 -0.46741813 1.0089247
1.1748328 -0.47291189 1.0206399
1.2272552 -0.4739022 1.0296537
1.2702073 -0.46181622 1.0252274
0.037209108 -0.41850376 1.0428882
0.076124236 -0.4237102 1.0192169
0.10247961 -0.41687459 1.0008065
0.19572581 -0.42920163 1.0044354
0.20585667 -0.42324725 1.016796
0.99209797 -0.4261907 1.0440314
1.0237532 -0.42500001 1.0203556
1.0757252 -0.42686638 1.0064359
1.1065477 -0.42059532 1.0092739
1.2754942 -0.424171 1.0234373
0.034225106 -0.3771272 1.0428572
0.075169288 -0.37343627 1.0203784
0.11517305 -0.35869664 1.0054225
0.18027516 -0.36509115 1.015231
0.20244263 -0.39003792 1.0244516
0.99635166 -0.37367627 1.0470175
1.0248981 -0.37280285 1.0244144
1.0678164 -0.3779994 1.0034988
1.1135153 -0.37228012 1.018889
1.2762575 -0.37441537 1.0234575
0.045402896 -0.34745449 1.0493655
0.080832087 -0.3380909 1.0369731
0.12419418 -0.33825809 1.0257378
0.1610994 -0.34335357 1.0274085
0.99694413 -0.32516286 1.0476693
1.0252521 -0.324159 1.0260253
1.0636538 -0.32660511 1.0036224
1.1123281 -0.31816947 1.0200001
1.2769796 -0.32384333 1.0254668
0.99635684 -0.28941631 1.0483837
1.0243374 -0.27537253 1.0270569
1.0661585 -0.27966094 1.0047302
1.2802905 -0.27336621 1.0259743
0.99701446 -0.23206447 1.0486655
1.0246422 -0.22453682 1.0258721
1.0633937 -0.22565322 1.0049078
1.2802571 -0.22793977 1.0281891
0.99844486 -0.17223571 1.0476519
1.0249466 -0.17566495 1.0253289
1.0727497 -0.17347842 1.0076929
1.2831528 -0.18647696 1.034727
0.9956314 -0.12165437 1.047309
1.0252526 -0.12663491 1.0242463
1.0734725 -0.12621856 1.0079014
1.102173 -0.11714879 1.0135978
0.9944852 -0.074194655 1.0466688
1.0241476 -0.073988914 1.0228907
1.0733733 -0.076265857 1.0113741
1.1061409 -0.074415751 1.0190333
0.99281198 -0.023811879 1.0462815
1.0227232 -0.025413558 1.0234638
1.0654346 -0.027030325 1.0091841
1.1079109 -0.023447957 1.0237707
0.99202657 0.02295736 1.0443738
1.0220801 0.023032364 1.0214336
1.0650115 0.023418631 1.0100091
1.1076897 0.023458105 1.0241537
0.99170798 0.074588254 1.0439019
1.0218961 0.07470832 1.0203412
1.071288 0.076769792 1.0124774
1.1088698 0.071760699 1.0243343
0.99203682 0.11354595 1.0448639
1.0241725 0.11371588 1.0195013
1.0773252 0.12218509 1.0195843
1.1075358 0.12731606 1.0260134
1.1155689 0.16278213 1.0406265
-0.0090770843 0.39770976 1.0397412
0.019624479 0.3977097 1.0352693
0.053811945 0.39891195 1.0494863
-0.063099742 0.4329493 1.0283422
-0.029158296 0.40823051 1.0212116
0.027361577 0.40472302 1.0137829
0.075580433 0.41053823 1.0231742
0.11197404 0.43355152 1.0194867
-0.068736129 0.45780548 1.0206435
0.23823486 -0.50899136 1.074303
0.27510369 -0.51471722 1.0709449
0.32577366 -0.51807123 1.0715963
0.37685716 -0.51943916 1.0744584
0.42336613 -0.52343005 1.0742402
0.47700244 -0.52190113 1.0746075
0.52409643 -0.52163732 1.0757161
0.57619518 -0.52174848 1.0744714
0.62417394 -0.51962847 1.0748161
0.67474991 -0.51954377 1.0745091
0.7235164 -0.51777548 1.0736525
0.77342147 -0.51415032 1.0753292
0.82333052 -0.50727916 1.0755854
0.86469239 -0.50407147 1.0663092
-1.416087 -0.49117646 1.0739572
-1.3743623 -0.48965326 1.0709937
-1.3218987 -0.48962831 1.0773455
-1.2730478 -0.48783305 1.0775111
-1.2219454 -0.48358864 1.0784901
-1.1737702 -0.48349929 1.0711019
-1.1204232 -0.48617616 1.0753287
-1.07013 -0.48568389 1.0781137
-1.0257845 -0.48630619 1.0757384
-0.97376639 -0.48669311 1.0677252
-0.9245404 -0.48765826 1.075742
-0.8727349 -0.48851544 1.0698982
-0.8253482 -0.48973784 1.0732369
-0.77516317 -0.48886961 1.0748769
-0.72509152 -0.49035895 1.0768766
-0.67436141 -0.49176902 1.0741389
-0.627123 -0.49186152 1.0756553
-0.57509464 -0.4917793 1.0764192
-0.52418458 -0.4917495 1.0766488
-0.47349465 -0.49010053 1.073994
-0.42480853 -0.48995882 1.0753394
-0.3739768 -0.48859924 1.072799
-0.3265 -0.48875612 1.0734668
-0.27477658 -0.48677102 1.0737451
-0.22357893 -0.48760933 1.0768127
-0.1740734 -0.48854011 1.077823
-0.12642196 -0.4826076 1.0792832
-0.074977063 -0.48013955 1.0796257
-0.024723602 -0.47716737 1.0761893
0.022652784 -0.47569105 1.0721132
0.064300001 -0.48090681 1.0633204
0.21460417 -0.49501246 1.0642147
0.84320301 -0.49930614 1.0916628
0.88026798 -0.49533492 1.081811
0.92450583 -0.4770163 1.0763569
0.9599148 -0.46791705 1.056724
1.238955 -0.47384772 1.0789771
1.2782509 -0.46705157 1.0777725
-0.15297505 -0.41344747 1.0982565
-0.12440917 -0.42437714 1.0947086
-0.075404912 -0.42462826 1.0873309
-0.026321726 -0.42385659 1.0726248
0.014620082 -0.42845258 1.0575235
0.9346174 -0.42698357 1.0884253
0.96722859 -0.42351687 1.0647159
1.2933711 -0.42459193 1.071133
1.301994 -0.42932463 1.0900613
-0.15250745 -0.39293486 1.099786
-0.12005138 -0.37984693 1.094686
-0.073837541 -0.37456325 1.0854391
-0.025117259 -0.37374592 1.0696778
0.010404867 -0.36959752 1.0558138
0.18530482 -0.35451156 1.0691609
0.20925586 -0.38374773 1.0588742
0.93900341 -0.3742322 1.0913306
0.97191995 -0.37211695 1.0661391
1.2920766 -0.37292659 1.0694919
1.3035326 -0.37658775 1.0889039
-0.062019467 -0.34509876 1.0941229
-0.023054976 -0.33760777 1.0879735
0.027236661 -0.32733032 1.0769678
0.072751656 -0.31662008 1.0693783
0.11983593 -0.32067567 1.0753932
0.16470736 -0.34056503 1.0702281
0.93997687 -0.32455513 1.0925046
0.97259134 -0.32343939 1.0676169
1.2900758 -0.32489794 1.0631039
1.3034257 -0.3262018 1.0898548
0.049671602 -0.29517254 1.0988226
0.076595642 -0.29295948 1.0938534
0.93964231 -0.27615157 1.0921289
0.97333729 -0.27603614 1.0670815
1.2936366 -0.27851453 1.0677879
1.3028203 -0.27732745 1.0918468
0.93975419 -0.2251801 1.0918505
0.97222143 -0.22555484 1.0676005
1.2943538 -0.22050378 1.0711728
1.3049209 -0.23354143 1.0939503
0.93913257 -0.17544559 1.0917331
0.97181368 -0.17543164 1.0672783
1.2951199 -0.18807478 1.0704288
1.3118154 -0.18034066 1.085952
0.93877733 -0.12614299 1.0907528
0.97097278 -0.12607507 1.0661013
0.93595827 -0.073313482 1.0904953
0.96833086 -0.074345402 1.065734
0.93646711 -0.025465023 1.0876846
0.96990699 -0.025949953 1.062878
0.9348557 0.023415841 1.086646
0.96824396 0.022921098 1.0629909
0.93257242 0.074427091 1.0871596
0.96812803 0.074478894 1.0607806
0.93444526 0.11394685 1.0862609
0.96795505 0.11429287 1.0626997
1.3399533 0.1626143 1.0957692
1.3561077 0.18035175 1.0940416
1.1377054 0.23483497 1.0900666
1.2361724 0.24530619 1.092768
1.3645543 0.2153842 1.09447
0.12360057 0.28212488 1.0979825
0.12563005 0.30798933 1.0995352
-0.013660959 0.38904083 1.084456
0.026232425 0.38976768 1.0773017
0.062844113 0.38482717 1.0757849
1.4115088 0.37951455 1.0938489
-0.068280108 0.42689687 1.0696635
-0.036936648 0.4030557 1.0705596
0.082702063 0.40997374 1.0749738
0.11393975 0.42945942 1.0759332
1.4104766 0.42649972 1.086574
1.4175586 0.47593677 1.0864807
1.4214127 0.52382308 1.0848355
1.4167225 0.57330948 1.0889711
1.4120694 0.62257546 1.0931253
1.4080415 0.65922129 1.0961951
0.23904769 -0.5113706 1.1220329
0.27519879 -0.52019781 1.1271821
0.32520339 -0.52294195 1.1236819
0.37531298 -0.52197176 1.1237408
0.4279649 -0.5232808 1.1256968
0.47641611 -0.52480417 1.1246064
0.52743304 -0.52247697 1.1256362
0.57604164 -0.52147764 1.1244313
0.62362623 -0.51893508 1.1258103
0.67701167 -0.51674289 1.1252458
0.72595906 -0.51210415 1.1237369
0.77512449 -0.50650191 1.1222829
0.81740236 -0.50207669 1.1101505
-1.4213041 -0.49176249 1.1181277
-1.3791494 -0.49081945 1.1198907
-1.3269659 -0.48933673 1.1254569
-1.2801024 -0.4875038 1.1313026
-1.2167298 -0.48417971 1.12183
-1.171931 -0.485576 1.1206182
-1.1271529 -0.48481798 1.1210891
-1.0775416 -0.48502892 1.1278688
-1.0305059 -0.48697361 1.1286644
-0.97434139 -0.48582906 1.1206726
-0.92417502 -0.48628905 1.1246659
-0.87475216 -0.48788318 1.1231798
-0.82292426 -0.48783529 1.1243629
-0.77422673 -0.48976952 1.1260811
-0.72598249 -0.49046108 1.1277834
-0.67571491 -0.49090445 1.125785
-0.62320518 -0.49143544 1.1252277
-0.57256687 -0.49187928 1.1252366
-0.52379972 -0.49180844 1.1248846
-0.47644362 -0.49020821 1.1260232
-0.42522296 -0.48883653 1.1241857
-0.3762041 -0.4883393 1.122648
-0.32583088 -0.48654056 1.122507
-0.27599654 -0.48510686 1.1234921
-0.22360583 -0.48051432 1.126047
-0.17611775 -0.47024727 1.1159438
-0.12311184 -0.47716203 1.115961
-0.077495366 -0.48030743 1.1128803
-0.029900689 -0.48401925 1.1099269
0.0014142359 -0.47943404 1.1009943
0.79377002 -0.49848607 1.1370889
0.83438438 -0.48836017 1.1344273
0.87177682 -0.47291276 1.1219047
0.90281248 -0.46428213 1.1037487
1.2783169 -0.46432522 1.1137816
1.3063666 -0.45638081 1.1269215
-0.20680565 -0.42167315 1.1339564
-0.17536512 -0.42476791 1.1073396
-0.14645445 -0.43431774 1.1002718
0.84972596 -0.44388255 1.1497217
0.87785631 -0.42446482 1.1323092
0.91084701 -0.42408061 1.1072466
1.2902384 -0.41559055 1.1392491
1.309382 -0.42452136 1.1295573
-0.20379265 -0.38924906 1.1350547
-0.17355572 -0.37483323 1.1172111
-0.13446519 -0.35948873 1.1052715
-0.096481323 -0.35333699 1.1001929
0.88170022 -0.37417489 1.1360139
0.91384804 -0.37222326 1.1112846
1.2841779 -0.36456963 1.1330032
1.3064644 -0.37476015 1.1252918
-0.15950184 -0.34282961 1.1360073
-0.12227843 -0.33491454 1.1234028
-0.076482832 -0.32349369 1.1198181
-0.027341092 -0.31379953 1.1147612
0.012174786 -0.30669516 1.1067768
0.12964271 -0.31491461 1.1216968
0.16731854 -0.34220234 1.1224575
0.88407207 -0.32610279 1.1371524
0.91489822 -0.32322112 1.1120633
1.294559 -0.31076643 1.1414403
1.3079858 -0.32641715 1.125603
-0.061300933 -0.29395589 1.142866
-0.02333189 -0.28299841 1.1390232
0.02386827 -0.27604413 1.1255195
0.073056728 -0.26845923 1.1147523
0.10680655 -0.28086051 1.1279653
0.88431168 -0.27752033 1.1365956
0.91509539 -0.27563202 1.1119145
1.2887657 -0.29001307 1.1406509
1.3081355 -0.27473551 1.1288172
0.03270502 -0.23138686 1.1420883
0.071100533 -0.2259957 1.1353104
0.88296682 -0.22498085 1.1368165
0.91487962 -0.22573654 1.1118565
1.2964911 -0.22604431 1.1453176
1.3096327 -0.22606805 1.1301504
0.037353434 -0.17402305 1.1466466
0.068641774 -0.17856503 1.1431248
0.88245285 -0.17659947 1.1357375
0.91470861 -0.17629398 1.111171
1.282483 -0.19487306 1.1374789
1.3090953 -0.18510531 1.1279119
0.032665975 -0.13559112 1.1455833
0.067962937 -0.13535649 1.1425902
0.88026583 -0.12563935 1.1355933
0.91291904 -0.12746707 1.1107568
0.87719107 -0.07358408 1.1342336
0.91088033 -0.075366646 1.1090995
0.20812939 -0.042424738 1.1479801
0.84742153 -0.015900161 1.1483721
0.87610906 -0.025559992 1.1299675
0.91099674 -0.025505299 1.106177
0.84376836 0.027189612 1.1447175
0.87436777 0.022412539 1.1255587
0.90970594 0.021870917 1.1051334
0.84743202 0.071292721 1.1465787
0.87494349 0.074800864 1.1274099
0.90700293 0.07442221 1.105474
0.87527496 0.11353556 1.13059
0.91821635 0.11841202 1.1074268
1.060789 0.19226128 1.1360139
1.1905932 0.15980431 1.1471157
1.2817066 0.17465952 1.1307932
1.3228315 0.17650059 1.1151912
-0.0096889008 0.23387982 1.1474569
0.02622004 0.23250794 1.14245
0.075670384 0.22693054 1.1221422
0.11415789 0.22660308 1.1092194
0.95142192 0.23693517 1.1414467
1.0202311 0.23063718 1.1235248
1.0688175 0.22079335 1.1326689
1.1216848 0.23689455 1.1231612
1.2823434 0.21671887 1.1330767
1.3241416 0.21445593 1.1201203
1.3614663 0.22135843 1.1052161
-0.0091913603 0.2787022 1.1482508
0.025429934 0.27579442 1.1390327
0.074972756 0.27551749 1.1229397
0.11412852 0.27535275 1.1084371
-0.0086837364 0.33328134 1.1454257
0.021030288 0.3213464 1.1416788
0.076792814 0.31923258 1.126633
0.11701377 0.32451791 1.1145508
0.22078188 0.3305248 1.1491715
1.4430031 0.34265119 1.1296058
-0.019549992 0.38035387 1.122612
0.022778582 0.37656599 1.1082191
0.086671971 0.37431848 1.1350207
0.12626004 0.37482226 1.1288739
0.16945134 0.37498656 1.137408
0.21386036 0.36352617 1.1400417
1.4350202 0.37235987 1.1245087
1.453722 0.37360534 1.1462154
-0.065008655 0.4267287 1.118413
-0.035013959 0.4063102 1.1261955
0.045324869 0.40093103 1.1027205
0.085663229 0.40968016 1.1175652
0.12353777 0.41602734 1.1331222
0.15552287 0.40220419 1.1277055
1.4189907 0.42754859 1.110541
1.4521006 0.42006522 1.1477233
1.4353199 0.47583118 1.1314788
1.4555975 0.48270106 1.1475079
1.4173017 0.52378726 1.1107723
1.4572723 0.52864611 1.1494919
1.419383 0.57771713 1.1189412
1.4083261 0.62813342 1.1100931
1.4107083 0.67687076 1.1149445
1.3982031 0.72882611 1.1073
1.4071792 0.71432447 1.1150507
1.4188428 0.75703692 1.1320261
0.27816361 -0.52569598 1.1762972
0.32606161 -0.52699792 1.1770834
0.37443969 -0.52515131 1.1740149
0.4247041 -0.52402419 1.1782559
0.47498155 -0.52634728 1.1758573
0.52686137 -0.52169859 1.1748095
0.57355785 -0.51892966 1.174193
0.62543619 -0.5158481 1.1760244
0.67266333 -0.51180726 1.1752299
0.72117078 -0.50579798 1.1728767
0.75645322 -0.50178093 1.1621513
-1.4188904 -0.49088511 1.1681314
-1.3690785 -0.4883762 1.1668291
-1.3300933 -0.48764935 1.1809438
-1.2699864 -0.48909408 1.1771387
-1.2231121 -0.48798731 1.174142
-1.1750553 -0.48494443 1.1750834
-1.1268271 -0.48491469 1.1700222
-1.0759804 -0.48334971 1.1689328
-1.0274827 -0.48582447 1.170683
-0.97353619 -0.48541912 1.1757245
-0.92415243 -0.48648795 1.1769439
-0.87583369 -0.48636928 1.1752985
-0.8300184 -0.48681381 1.1754763
-0.77549821 -0.48849502 1.1710608
-0.72451627 -0.49057961 1.1763415
-0.67575049 -0.490536 1.1766053
-0.62902814 -0.49018699 1.1746372
-0.57951367 -0.4911294 1.1728117
-0.52817392 -0.49037433 1.1709896
-0.47584775 -0.48991373 1.1783835
-0.42459163 -0.48825896 1.1742495
-0.37536383 -0.48755017 1.1733578
-0.32477596 -0.48605955 1.17019
-0.27721563 -0.4842543 1.1731913
-0.23139946 -0.479884 1.1748244
0.73441768 -0.49687093 1.189662
0.78030372 -0.48272291 1.1818836
0.81944317 -0.46945429 1.1643888
0.79443425 -0.43167999 1.1967428
0.8250519 -0.42489529 1.1738492
0.85474801 -0.40942201 1.1535443
-0.21164505 -0.39158416 1.1515062
-0.19124229 -0.35947609 1.1595659
0.79862273 -0.39482048 1.1990882
0.825468 -0.3765029 1.1806693
0.85636586 -0.37197328 1.1555532
-0.16309093 -0.33610249 1.1551276
-0.12381853 -0.31654233 1.1609932
-0.092240408 -0.30368936 1.1620976
0.14080924 -0.3166129 1.1740316
0.15945017 -0.33782321 1.1701041
0.8275364 -0.32726592 1.1821785
0.85906321 -0.32391578 1.155746
-0.067183025 -0.27875742 1.1694813
-0.032440789 -0.26081696 1.1562089
0.0014163791 -0.25066483 1.1502198
0.11718073 -0.27475443 1.1713874
0.82766879 -0.27415073 1.1812114
0.85931444 -0.27433038 1.1566485
-0.052679308 -0.22863443 1.1924744
-0.0253049 -0.22599268 1.1687675
0.013531211 -0.21932022 1.1581365
0.094705522 -0.21283977 1.1547214
0.10534521 -0.22508131 1.1691328
0.82647842 -0.22477676 1.1814085
0.85749662 -0.22447917 1.157141
1.3012532 -0.21715727 1.1511644
-0.05038359 -0.18145075 1.19812
-0.022600057 -0.17639202 1.1782693
0.018640282 -0.17741279 1.1602446
0.081097119 -0.17187402 1.1547306
0.10668039 -0.17445812 1.1771145
0.82703143 -0.17406496 1.1802498
0.85805362 -0.17309682 1.1553507
1.327569 -0.17236662 1.1592327
-0.019552406 -0.12610559 1.1785001
0.016736779 -0.1194319 1.1627344
0.078923695 -0.1155735 1.1569046
0.10959966 -0.12104465 1.1766551
0.82571745 -0.12364323 1.1784832
0.85648316 -0.12968478 1.1540463
-0.011695456 -0.081125021 1.1905786
0.024474371 -0.07422062 1.1753665
0.073600903 -0.074832611 1.1645929
0.11425161 -0.072906584 1.1794372
0.18903193 -0.088063926 1.1869729
0.2074642 -0.058586955 1.1758168
0.79597765 -0.056529541 1.1981664
0.82401574 -0.075043105 1.1767471
0.85275596 -0.074480236 1.1537813
0.03009994 -0.03111906 1.1918112
0.074953623 -0.025382029 1.1836622
0.1161558 -0.027022814 1.1904874
0.18288085 -0.020702951 1.176712
0.2122051 -0.023341393 1.1625202
0.79592621 -0.025950888 1.1966196
0.82410306 -0.025890235 1.1717991
0.85014558 -0.041852422 1.1515886
0.047166221 0.0028725334 1.197166
0.076944083 0.0081668049 1.1960104
0.10865005 0.004929211 1.1974186
0.19708803 0.012036391 1.1815608
0.21515912 0.024566263 1.1711861
0.79495573 0.023054687 1.1951412
0.81966704 0.022085762 1.1703105
0.21859509 0.073425874 1.1841711
0.79495305 0.075301617 1.1934301
0.8224355 0.074869208 1.1686618
0.22303054 0.12466911 1.1780472
0.25143489 0.1453619 1.1955011
0.79509097 0.11228219 1.1947232
0.8240934 0.11444102 1.1702749
0.89700425 0.13292718 1.1573725
0.22574082 0.17141765 1.1786015
0.25134924 0.16568708 1.1932884
1.0803684 0.18854801 1.1596733
1.1368803 0.16637979 1.1892154
1.1765125 0.17313364 1.1753407
1.2036521 0.18026856 1.1572812
-0.068629198 0.23468758 1.1808823
-0.029228 0.23254126 1.1614569
0.014405239 0.22075692 1.1545101
0.057171371 0.21189174 1.1550336
0.22399303 0.22767207 1.1746889
0.25439695 0.23050095 1.1883153
0.77588195 0.23640102 1.1945429
0.82486439 0.2365945 1.1912003
0.87211466 0.23515409 1.1800696
0.92198545 0.23691818 1.1726185
0.9556675 0.23367985 1.1671504
1.0124931 0.23738553 1.1555722
1.0668849 0.22255635 1.1713786
1.305553 0.23488337 1.1512445
-0.066952519 0.27511826 1.178351
-0.027975371 0.27409777 1.1612262
0.0014243863 0.27460253 1.1531341
0.22281981 0.27449983 1.1641848
0.2582016 0.26260504 1.1856261
1.474025 0.26314676 1.1874365
-0.063525014 0.32392043 1.1720961
-0.029301262 0.32404417 1.1600132
0.032258287 0.3428444 1.1554375
0.062072396 0.34115264 1.1576614
0.17256211 0.33201182 1.1756537
0.2198915 0.3232626 1.1576719
0.25372019 0.31216353 1.1775155
1.4654057 0.34674436 1.1705538
1.5245953 0.34898731 1.1965045
-0.058677033 0.37908927 1.1813557
-0.028354574 0.37990239 1.1643581
0.032787867 0.3652201 1.1772053
0.072964042 0.36622936 1.1716139
0.10689098 0.36481601 1.1536815
0.18251306 0.36400479 1.1542699
0.2394207 0.35651141 1.164574
1.4680188 0.37698972 1.1731035
-0.053364396 0.4095619 1.1849295
-0.04233817 0.40315795 1.1789281
0.092219234 0.40746728 1.1651391
0.11094853 0.42427933 1.159151
1.4705789 0.424795 1.1765058
1.4451618 0.46511754 1.1593498
1.4684553 0.47596848 1.1796186
1.4713218 0.52646768 1.1791326
1.4688516 0.57652342 1.1752734
1.4630136 0.62325096 1.1729076
1.4650536 0.67181957 1.1803142
1.4721131 0.72714531 1.1838999
1.4784865 0.76183283 1.1920786
0.28345057 -0.52868021 1.2251205
0.3244352 -0.52798516 1.2247022
0.37523302 -0.52514422 1.2210647
0.42581245 -0.52308178 1.2271615
0.47622949 -0.52170491 1.2238905
0.52380627 -0.5171355 1.2234648
0.57769454 -0.51204824 1.2268522
0.62590605 -0.50803041 1.2275501
0.67217207 -0.50456405 1.2170742
0.71164924 -0.50009495 1.213365
-1.3823599 -0.48741049 1.2191002
-1.322284 -0.4886117 1.2242401
-1.2719855 -0.48572704 1.2220004
-1.2230091 -0.48340479 1.2210625
-1.172205 -0.48148426 1.226375
-1.1267004 -0.48390073 1.2179681
-1.0769187 -0.48470214 1.220855
-1.029054 -0.48602554 1.2208513
-0.97818786 -0.48564124 1.2245215
-0.91892624 -0.48481232 1.2219126
-0.87421012 -0.48652962 1.2258605
-0.82053459 -0.48693016 1.2235053
-0.77614671 -0.48886874 1.2245076
-0.72481436 -0.48875284 1.2201717
-0.67822623 -0.49027073 1.2238696
-0.62355101 -0.48989341 1.2220253
-0.5742687 -0.49076447 1.2223794
-0.52470779 -0.49011448 1.2213869
-0.47624016 -0.48828593 1.2270944
-0.42628732 -0.48792434 1.2270997
-0.37548906 -0.48689961 1.2245414
-0.32256314 -0.48579526 1.220322
-0.27382892 -0.48525119 1.226927
-0.23997585 -0.48191413 1.2210383
0.68397963 -0.49589968 1.2357383
0.72696322 -0.47729915 1.2299837
0.76171964 -0.46887362 1.2108692
0.73807883 -0.4272376 1.2419873
0.77012336 -0.4242751 1.2172806
0.74387854 -0.37449741 1.2439648
0.77537972 -0.37401506 1.2198862
0.80302966 -0.35664093 1.2011977
0.13989893 -0.306207 1.204175
0.74510318 -0.32915419 1.2462513
0.77501899 -0.32278714 1.2226126
0.80233598 -0.32742411 1.2017937
0.12492269 -0.27325112 1.207948
0.7458477 -0.27415699 1.2472295
0.77474153 -0.27463433 1.2229662
0.80200803 -0.27855903 1.2016001
-0.050563481 -0.20232692 1.2002888
0.74573857 -0.2223825 1.2459964
0.77500987 -0.22648522 1.2228172
0.80354011 -0.21515638 1.2003622
-0.050743941 -0.17499441 1.2073787
-0.044821434 -0.16781208 1.2049593
0.12049095 -0.16772272 1.2152987
0.74600381 -0.17339441 1.2450823
0.77549386 -0.17504084 1.2211522
0.80114537 -0.18149209 1.200966
-0.051141668 -0.12603292 1.2208818
-0.040779565 -0.12046682 1.2108943
0.12636405 -0.12647 1.2127672
0.20650946 -0.10347694 1.2376102
0.74352551 -0.12624805 1.2451074
0.77486563 -0.12538539 1.2197701
-0.050949235 -0.093203455 1.2182266
-0.031051131 -0.072306946 1.217101
0.1379503 -0.072647423 1.2151169
0.15082464 -0.065671802 1.2448893
0.22733699 -0.073070817 1.230119
0.74363822 -0.074275009 1.2425926
0.77405185 -0.076816335 1.2180904
-0.064303465 -0.012497251 1.2401466
-0.01800544 -0.028270435 1.2261211
0.013848268 -0.015916038 1.206822
0.14025874 -0.024371138 1.2124838
0.16043778 -0.027587516 1.2234563
0.24319087 -0.036212672 1.2195816
0.25135085 -0.033684332 1.229968
0.74330896 -0.026316524 1.2421815
0.77100343 -0.026114669 1.2182776
-0.12906328 0.011890219 1.2397128
-0.075772122 1.7149865e-05 1.2446012
-0.0097144116 0.015297601 1.2394015
0.024098543 0.02389198 1.2197559
0.075104356 0.033065513 1.2073119
0.12682457 0.024839295 1.2157542
0.16186328 0.026721025 1.2390059
0.7402845 0.025032707 1.2419146
0.76981068 0.023167295 1.2163838
-0.0044474085 0.05370266 1.2496178
0.030826498 0.06878335 1.2388332
0.074967623 0.073609717 1.2292078
0.11998955 0.071591236 1.2326196
0.15116359 0.053893071 1.2479837
0.21123844 0.085342318 1.2149066
0.73945528 0.076270372 1.2410958
0.76976502 0.0756943 1.2146246
0.081620507 0.1040146 1.2469138
0.10767142 0.10378982 1.2441802
0.19945359 0.11759618 1.2184048
0.21575738 0.10719893 1.2094909
0.25255042 0.13724519 1.2014942
0.74092412 0.11387399 1.2408931
0.77017969 0.11610736 1.2162803
0.085733816 0.19249384 1.249118
0.21225934 0.17614824 1.2183956
1.1255684 0.17746274 1.2196798
-0.083096489 0.22750884 1.2067256
0.1481491 0.20826998 1.2120594
0.19891168 0.23629837 1.2284551
0.21589082 0.21228962 1.2155272
0.25911236 0.21454518 1.2189956
0.68563491 0.23575753 1.2417774
0.72574538 0.2373478 1.2291886
0.76820153 0.23433106 1.2216135
0.83397752 0.2302928 1.2163649
0.86882031 0.23149243 1.2055424
1.0858535 0.23441629 1.2237655
1.1072541 0.20890522 1.2371826
-0.095769934 0.29807109 1.2492613
0.17472698 0.2806986 1.2247045
0.20108344 0.26127914 1.2009344
0.8196494 0.2524485 1.233139
1.4949949 0.28168198 1.2463747
1.5157897 0.28692698 1.2358872
-0.124082 0.31615916 1.2438337
-0.096429661 0.34912407 1.249347
0.18150142 0.31855223 1.2142076
1.5177604 0.32632264 1.2340776
1.5551325 0.33056971 1.2369032
-0.10536771 0.37658188 1.2404094
-0.086911842 0.38408619 1.2275407
0.041151941 0.38624689 1.216346
0.057495873 0.38896716 1.2275643
1.4958527 0.38739386 1.210577
1.5165973 0.3707259 1.2387719
1.5598036 0.35011306 1.2420297
-0.05231294 0.41875517 1.2053931
-0.046258584 0.42108887 1.2029411
1.4964459 0.44227082 1.2123413
1.5130816 0.42488191 1.2392137
1.4894907 0.48655409 1.2089937
1.5151274 0.47379547 1.2430557
1.4906 0.52942657 1.2124381
1.5127269 0.52545327 1.2428634
1.4855957 0.57938349 1.2066646
1.5097736 0.57673603 1.237538
1.4864581 0.62954164 1.2136569
1.5119321 0.61767036 1.2433155
1.483732 0.68794239 1.2127427
1.5037403 0.67902958 1.2367469
1.4835248 0.72465932 1.2105024
1.5119668 0.73521268 1.2476339
1.4919027 0.76120758 1.2180927
1.5031381 0.75617975 1.2380509
0.2926847 -0.52798676 1.2711112
0.32419395 -0.52611166 1.2769908
0.37610605 -0.52251363 1.2717018
0.4245849 -0.51917368 1.2776582
0.47609273 -0.5136649 1.2758071
0.52646893 -0.50836223 1.2751863
0.57087404 -0.50457019 1.2665818
0.61522073 -0.50275785 1.2537694
-1.3642086 -0.49090323 1.2731161
-1.3253133 -0.48631859 1.2696117
-1.2689079 -0.48091751 1.2685843
-1.2245916 -0.47897562 1.2721784
-1.1747553 -0.47933951 1.2758816
-1.1258973 -0.48484474 1.272621
-1.0695851 -0.48515475 1.2755574
-1.0277517 -0.48569483 1.2740443
-0.97561109 -0.48398286 1.2752078
-0.92227745 -0.48384371 1.2682978
-0.87605029 -0.48558849 1.2741126
-0.82656103 -0.48652768 1.2735289
-0.77384913 -0.48906183 1.276792
-0.72650838 -0.49022478 1.2739348
-0.67368275 -0.48967618 1.2718332
-0.62351209 -0.48895246 1.2734429
-0.57671702 -0.48933047 1.2738284
-0.52559102 -0.48851019 1.2720143
-0.47444233 -0.48696879 1.2741252
-0.42230725 -0.48662958 1.2758108
-0.37687057 -0.48633662 1.2771459
-0.32697758 -0.48599815 1.2745907
-0.2736007 -0.48399603 1.2760084
-0.24724413 -0.481659 1.2621397
0.54124403 -0.4983786 1.295126
0.58265203 -0.47876281 1.2907412
0.62240595 -0.47769389 1.2759753
0.6736027 -0.47468546 1.2702262
0.70734525 -0.46469083 1.2548922
0.59459573 -0.4365041 1.2969648
0.62053299 -0.42376328 1.2901936
0.67494428 -0.42761922 1.2855192
0.71553004 -0.42327008 1.2611243
0.62061304 -0.37391636 1.2929481
0.67708999 -0.37799242 1.2898844
0.71856886 -0.37536162 1.2646945
0.62353635 -0.32516479 1.2931392
0.68018079 -0.325726 1.2909868
0.7216121 -0.3262524 1.2651389
0.623532 -0.27612635 1.293986
0.6815697 -0.2731573 1.2922113
0.719818 -0.27531505 1.2672188
0.62337917 -0.22361086 1.2938895
0.68123627 -0.22367461 1.2915291
0.72227085 -0.22477306 1.2648138
0.61905134 -0.17426993 1.2927907
0.67953277 -0.17565259 1.2912606
0.71995628 -0.17437999 1.2651933
0.59923303 -0.11608174 1.2981017
0.61785698 -0.12714881 1.2917606
0.67872286 -0.12449162 1.2915097
0.71741265 -0.12505445 1.2666082
-0.10642405 -0.061435923 1.2693437
-0.08513625 -0.068313666 1.2832762
-0.04672651 -0.057289623 1.2631922
0.59255952 -0.069784574 1.2972083
0.61925673 -0.074973218 1.2892537
0.67792505 -0.073163278 1.2907697
0.71958166 -0.075017206 1.2628982
-0.11700948 -0.025288185 1.2725966
-0.083313778 -0.023349138 1.2757341
-0.040812101 -0.024183417 1.2670132
0.16598339 -0.024337562 1.2694452
0.58549243 -0.024243733 1.2950246
0.61868209 -0.026487762 1.2877109
0.67646581 -0.027069809 1.290271
0.71768332 -0.026485875 1.2624135
-0.11365107 0.022334088 1.2643796
-0.083880328 0.02559144 1.2733457
-0.026669217 0.026944974 1.2708623
0.16388445 0.034041457 1.267132
0.58201659 0.02005998 1.2946143
0.61620569 0.022256112 1.286319
0.67545575 0.023602691 1.289306
0.71538502 0.022299688 1.2625864
-0.11197282 0.076769814 1.2815645
-0.086323962 0.075454064 1.2893071
-0.014835488 0.072261676 1.2837001
0.013276785 0.086717531 1.2604827
0.14149947 0.089762487 1.2560172
0.16053325 0.07650543 1.273259
0.59256458 0.075522512 1.2952396
0.61618477 0.075564332 1.287945
0.67592305 0.073943987 1.2888041
0.71476048 0.074849047 1.261824
-0.11270966 0.12664023 1.2873372
-0.085772462 0.12819375 1.2905523
-0.0046183895 0.1084241 1.2954208
0.028882643 0.1201663 1.2756407
0.073224738 0.12872186 1.264554
0.12499036 0.12460196 1.268326
0.15591855 0.12103327 1.2906648
0.59486175 0.11278799 1.2969122
0.61649525 0.11185482 1.2908849
0.67755115 0.11087759 1.2882742
0.71901113 0.11556897 1.264588
-0.11342921 0.17555712 1.284539
-0.090058453 0.18238367 1.2921194
-0.0046403799 0.19605887 1.2947403
0.028067822 0.17887037 1.2709455
0.075407483 0.1742655 1.2605071
0.11591936 0.1812993 1.273461
0.21192582 0.15984035 1.2537578
1.0428389 0.19317123 1.2942291
1.0785177 0.18504401 1.2804952
1.1173376 0.18015751 1.2602301
-0.11446888 0.23182984 1.2857281
-0.09167923 0.20522158 1.2906117
-0.0045856447 0.20296744 1.278512
0.021954047 0.20978329 1.2792429
0.070586815 0.20937169 1.2780488
0.1190685 0.20508313 1.2814976
0.20447206 0.21214612 1.2665
0.27132592 0.21156389 1.2543838
0.58889467 0.23366961 1.297484
0.62679303 0.23544775 1.2753881
0.66926062 0.23678347 1.2614002
0.72763562 0.22942142 1.2620811
0.76685739 0.23042113 1.2512999
0.97978413 0.24252301 1.2899958
1.0298808 0.23015213 1.283846
1.0731747 0.22447067 1.2726604
1.1042821 0.21461499 1.2592067
-0.11612216 0.27563459 1.2752969
-0.095891222 0.29235786 1.2518044
0.17471169 0.27720958 1.2793615
0.74658835 0.28559354 1.2976477
0.78760731 0.28902361 1.2803037
0.82783371 0.28688148 1.2741312
0.8670103 0.29201484 1.2690949
1.4430921 0.28814176 1.2509575
1.4817541 0.28455973 1.2619162
-0.1122768 0.3214618 1.2607363
-0.096866354 0.32609063 1.2594179
0.18947223 0.31903711 1.2863652
0.91563559 0.30609593 1.2890255
1.4846911 0.32451677 1.2620358
1.5060301 0.33019421 1.2827502
1.5951608 0.32140946 1.2780031
-0.10935588 0.36136219 1.2544118
-0.096589625 0.35583842 1.250252
1.4921099 0.37472567 1.2659806
1.5047767 0.38099816 1.2528105
1.4898081 0.42671672 1.2654935
1.5078299 0.42469859 1.2650403
1.4915481 0.47682899 1.2717906
1.507154 0.47043753 1.261922
1.4921571 0.52248323 1.2723315
1.5059714 0.51945651 1.2620627
1.4951432 0.57271791 1.278605
1.5083658 0.57065099 1.2644893
1.4926609 0.62162983 1.2788569
1.5073192 0.61947691 1.2603645
1.4931774 0.6724726 1.2803675
1.5097463 0.67169476 1.2617953
1.4904635 0.72249472 1.2777684
1.5090387 0.72257727 1.2609584
1.4920795 0.75762266 1.2803273
1.5103106 0.76293153 1.2667984
0.29483694 -0.5174517 1.3169322
0.32625887 -0.51939267 1.3260305
0.37592864 -0.51606047 1.3250588
0.42419076 -0.50948906 1.3252794
0.470965 -0.50550544 1.3184228
0.51114208 -0.50238973 1.3084152
-1.3094157 -0.48298976 1.3123094
-1.2846155 -0.48399004 1.3234524
-1.2202625 -0.47784552 1.3169531
-1.1704932 -0.48074025 1.324689
-1.1215385 -0.48476774 1.3202837
-1.0690258 -0.47873172 1.3171023
-1.0264554 -0.48248309 1.3221618
-0.97369426 -0.48311627 1.3260638
-0.93214536 -0.48443663 1.3233128
-0.87559885 -0.48564517 1.3257231
-0.82641119 -0.48752761 1.3236707
-0.77533728 -0.4876239 1.3219802
-0.72441292 -0.48991972 1.3272808
-0.67317873 -0.48994145 1.3269106
-0.62644559 -0.48952866 1.3282151
-0.57584107 -0.48915154 1.3277724
-0.52841866 -0.48751932 1.3267651
-0.47398266 -0.48636201 1.3239183
-0.42343196 -0.48627147 1.3236817
-0.37162146 -0.48486137 1.3250028
-0.32379907 -0.48503757 1.3262211
-0.2786862 -0.48385862 1.3226771
0.44236827 -0.49946064 1.3468504
0.48089081 -0.47947955 1.339733
0.52517855 -0.4756434 1.3195568
0.55970472 -0.47035873 1.3056567
0.49368742 -0.42924044 1.3454937
0.52522063 -0.42693663 1.3316294
0.57115084 -0.42309552 1.310087
0.65073848 -0.400267 1.3006253
0.49811295 -0.38939396 1.3485693
0.5256055 -0.37655655 1.3358942
0.57479763 -0.375126 1.3129677
0.62476307 -0.37632394 1.3012668
0.6535424 -0.3661783 1.3010309
0.52487159 -0.32786801 1.337765
0.57523686 -0.32568482 1.3142188
0.60421228 -0.3214325 1.3015705
0.65456545 -0.31669393 1.3017309
0.49870116 -0.27563667 1.3486543
0.52486861 -0.27526703 1.3376273
0.57326418 -0.27743268 1.3150626
0.61371338 -0.27363592 1.3023052
0.65728498 -0.27435976 1.3013417
0.52640694 -0.22435142 1.3370634
0.57602376 -0.22494482 1.3130356
0.60552073 -0.23302501 1.3007452
0.65674299 -0.22252895 1.3014847
0.49432424 -0.1551232 1.3498459
0.52357519 -0.17501138 1.337307
0.57353926 -0.17380534 1.3127288
0.64933479 -0.16851971 1.3011392
0.65616107 -0.17672288 1.3007109
0.49736285 -0.10981905 1.347731
0.52466124 -0.12478725 1.3341221
0.57384676 -0.12720631 1.311178
0.64865661 -0.1245489 1.3032508
0.65533113 -0.12453462 1.3006952
-0.088586584 -0.06838654 1.3003871
0.49518386 -0.073783085 1.3467704
0.52668101 -0.074313983 1.3307607
0.56964022 -0.078332804 1.3089921
0.64635414 -0.084936194 1.3009012
0.65431941 -0.090696521 1.3007264
-0.12950549 -0.046791304 1.3038642
-0.093525179 -0.029400092 1.308006
0.49447197 -0.026739765 1.3460058
0.52540743 -0.025863629 1.3264768
0.56244236 -0.029770257 1.3054206
0.64547241 -0.023343243 1.300926
0.65348458 -0.006590256 1.3012567
0.1765916 0.037524793 1.3019972
0.49193484 0.025929868 1.3461759
0.52511638 0.022926852 1.3262388
0.55989146 0.028895026 1.305138
0.64556009 0.030311076 1.3009239
-0.074757069 0.087273695 1.3030119
-0.019185087 0.086223841 1.3040876
0.17760876 0.075529017 1.3083646
0.4914535 0.073498264 1.3454926
0.52532136 0.073885307 1.3279997
0.5679971 0.076555386 1.3071607
0.64617574 0.073982768 1.3008631
-0.13004555 0.1348028 1.3051896
-0.071052201 0.12443757 1.3095804
-0.013084121 0.11000266 1.3143994
0.015453582 0.13753213 1.3054527
0.1455202 0.14395534 1.3012152
0.16895017 0.11340963 1.3097624
0.49265748 0.11000014 1.3462738
0.52569145 0.1107209 1.3304321
0.57027978 0.11316286 1.3096915
0.64460784 0.10907865 1.3023226
0.65241235 0.11990011 1.3111011
-0.13046601 0.1593221 1.3076161
-0.07798408 0.17505255 1.3141352
-0.0078654578 0.18940966 1.3142903
0.0097170034 0.1632062 1.3165245
0.12353568 0.16319421 1.3202381
0.93935728 0.18968178 1.3465407
0.97586644 0.18905792 1.3326229
1.0228984 0.18735711 1.3159497
1.1104293 0.17868392 1.3088138
-0.11946666 0.22941205 1.3190722
-0.074930467 0.21314527 1.3180327
-0.01384805 0.20974018 1.3210386
0.0016080026 0.21816403 1.3134511
0.1221723 0.21549954 1.313024
0.15160601 0.22169688 1.3491164
0.49298662 0.23386595 1.3482389
0.52601457 0.23402315 1.3221295
0.57366616 0.23449655 1.3075515
0.60762244 0.23708074 1.3130054
0.88805175 0.24395542 1.3404378
0.93310821 0.22831134 1.3347096
0.97378612 0.22067617 1.3216457
1.0141102 0.21390368 1.3069474
0.17193215 0.25482032 1.3186219
0.68675077 0.28968638 1.3448226
0.72976118 0.29395437 1.3287762
0.77061146 0.2929213 1.3080558
0.19627468 0.32555348 1.3013906
1.5297018 0.33926299 1.3362553
1.536026 0.39119148 1.3299537
1.5521302 0.38137868 1.3473203
1.521965 0.40128314 1.3143098
1.5179487 0.45743048 1.312461
0.80944395 0.50125009 1.346278
1.5084854 0.50298572 1.3069179
1.5147102 0.62467456 1.3147031
1.5016309 0.68081808 1.3059322
1.4992131 0.72140676 1.3043933
0.86963743 0.78387737 1.346756
1.5075045 0.76780117 1.3113003
0.88857031 0.83005017 1.3456569
0.29804778 -0.50635046 1.362078
0.32593429 -0.50854719 1.377346
0.37231338 -0.50590682 1.3642234
0.41673693 -0.50177455 1.355669
-1.3051543 -0.48197615 1.3882014
-1.2711068 -0.48106706 1.3750516
-1.2271763 -0.48207808 1.3747382
-1.1712334 -0.48260593 1.3733138
-1.1233701 -0.48186764 1.373544
-1.0765545 -0.48295784 1.3795283
-1.0264843 -0.48204967 1.3780648
-0.97122073 -0.48097312 1.3706766
-0.92689234 -0.48496985 1.3746188
-0.87432402 -0.48679507 1.3754243
-0.82020909 -0.48666859 1.3748481
-0.77350694 -0.48965755 1.3751563
-0.72520649 -0.48924285 1.3780308
-0.67376769 -0.4895139 1.3802893
-0.62299562 -0.48766395 1.3758522
-0.57341218 -0.48638731 1.3728396
-0.5233798 -0.48599845 1.3747327
-0.47100124 -0.48624107 1.3718493
-0.4255428 -0.48512241 1.3711191
-0.37669608 -0.48372176 1.3714774
-0.32294723 -0.48524734 1.3799751
-0.28495836 -0.48565093 1.3764426
0.29345411 -0.49187875 1.3969928
0.34890309 -0.49576008 1.3995701
0.37777248 -0.4780409 1.3897524
0.42470321 -0.47528341 1.3687932
0.46023589 -0.46531284 1.3546088
0.3917754 -0.42861483 1.3967161
0.42479047 -0.42646459 1.3803537
0.46873644 -0.42206499 1.3590192
0.39459527 -0.39272538 1.3983992
0.42344204 -0.37633219 1.3857908
0.47362217 -0.37222555 1.3614628
0.39936599 -0.33475426 1.3991135
0.42534682 -0.32548767 1.3865148
0.4733758 -0.32362327 1.363483
0.50164896 -0.31491065 1.3509746
0.39693171 -0.27725714 1.398839
0.42615467 -0.27599758 1.3861964
0.47614744 -0.27336952 1.361545
0.39568153 -0.23721707 1.3993245
0.42437175 -0.22674493 1.3863304
0.47516841 -0.22475056 1.3619872
0.39397633 -0.18573031 1.3984323
0.42228675 -0.17538232 1.3867449
0.47300747 -0.17678684 1.3618827
0.39966631 -0.1200105 1.3976833
0.42684421 -0.12338699 1.3839891
0.47252801 -0.12668516 1.3603346
0.39747897 -0.073768839 1.3977542
0.42723593 -0.074842535 1.3829582
0.47068867 -0.074169137 1.3601804
0.39855459 -0.027313424 1.3969858
0.42649388 -0.027132863 1.3817338
0.46975428 -0.026871393 1.3586217
0.3955017 0.026919782 1.3970821
0.42621791 0.023833755 1.3808225
0.46773639 0.022465812 1.3589088
0.39184263 0.076300122 1.3961878
0.42603347 0.07474912 1.3789629
0.46727291 0.074394546 1.3589512
0.29999918 0.11528441 1.3969288
0.39019915 0.11017063 1.3952368
0.42728639 0.11122977 1.3793184
0.46762669 0.11242482 1.3599888
0.13927652 0.17695618 1.3614105
0.83745116 0.19039801 1.3944
0.87459147 0.1874889 1.3800453
0.91856575 0.18621628 1.3624308
-0.021149326 0.22155011 1.3537219
0.21875414 0.21367885 1.3998506
0.43354282 0.23153663 1.3916016
0.4780452 0.23233165 1.3714857
0.51363581 0.22734857 1.3681664
0.7889213 0.24521084 1.3961163
0.83178413 0.22740783 1.3882589
0.87528133 0.2222793 1.3689593
0.91337651 0.21901178 1.3538929
0.67390019 0.29597709 1.3574215
0.66754198 0.30406237 1.3899822
