ply
format ascii 1.0
comment PCL generated
element vertex 1426
property float x
property float y
property float z
element camera 0
property float view_px
property float view_py
property float view_pz
property float x_axisx
property float x_axisy
property float x_axisz
property float y_axisx
property float y_axisy
property float y_axisz
property float z_axisx
property float z_axisy
property float z_axisz
property float focal
property float scalex
property float scaley
property float centerx
property float centery
property int viewportx
property int viewporty
property float k1
property float k2
end_header
0.2249696 -0.48218295 0.62373734
0.2746827 -0.48223847 0.62410724
0.32465145 -0.48223487 0.62550169
0.37457538 -0.48097596 0.62466478
0.42469528 -0.48509142 0.62484169
0.47443727 -0.48089001 0.6253767
0.52465063 -0.472094 0.62479079
0.55630153 -0.4587231 0.62635463
0.56902337 -0.42517635 0.62476361
0.57615769 -0.37530121 0.62512916
0.57686275 -0.32482767 0.6243754
0.57529056 -0.27504036 0.62362689
0.57094395 -0.2250497 0.62563342
0.56476235 -0.17417334 0.62399137
0.55993682 -0.12468921 0.62525886
0.5488342 -0.059439261 0.60550576
0.55606723 -0.076190047 0.62781596
0.54684377 -0.020574836 0.61286998
0.55396169 -0.031195031 0.63463044
0.54426092 0.026246214 0.62070739
0.55121124 0.015714502 0.64326781
0.54093283 0.074741438 0.6238448
0.53700048 0.12501946 0.62392527
0.53217345 0.17483976 0.62369996
0.5262168 0.2249326 0.62417382
0.52522177 0.25803506 0.62600344
0.55317861 0.28231063 0.63549453
-0.82123965 -0.4935897 0.68681389
-0.77729243 -0.49206048 0.67621988
-0.72723657 -0.49069241 0.67529356
-0.67583764 -0.48954174 0.67429268
-0.62376571 -0.48919788 0.67754167
-0.57493186 -0.48855829 0.67566657
-0.52524126 -0.486653 0.67412752
-0.47540778 -0.48527184 0.67464852
-0.42546976 -0.48383582 0.67444068
-0.3742806 -0.48281842 0.67306656
-0.32482472 -0.48232535 0.67494082
-0.27545857 -0.48213255 0.67366379
-0.22527206 -0.48215717 0.67432582
-0.17462631 -0.48189861 0.67399657
-0.12518024 -0.481657 0.67495114
-0.075067386 -0.48129901 0.67415559
-0.025323285 -0.48116314 0.67581952
0.024342956 -0.48138168 0.6759274
0.074606568 -0.48156628 0.6738469
0.12491048 -0.48188427 0.67389476
0.17443354 -0.48161593 0.67414898
0.22422557 -0.48120779 0.67400932
0.27539822 -0.48083827 0.67398936
0.3243959 -0.48012626 0.67482281
0.3743071 -0.4799588 0.67430353
0.42580351 -0.47939363 0.67370749
0.47436184 -0.47862247 0.67586201
0.52511936 -0.47220963 0.67404497
0.56424206 -0.46273372 0.67900443
0.57674843 -0.4248251 0.67265743
0.58382082 -0.37447223 0.67561334
0.58613718 -0.32496899 0.67455471
0.58434153 -0.27520198 0.6741569
0.580356 -0.22397588 0.67517614
0.57534683 -0.17426631 0.67390049
0.57079917 -0.12439102 0.67518228
0.56688994 -0.074389838 0.67614365
0.56227595 -0.025540877 0.67505783
0.54994345 0.030901937 0.65267968
0.55691928 0.024332218 0.67400825
0.54847598 0.078143992 0.65652454
0.55505657 0.073605224 0.67972988
0.54640687 0.12580206 0.66010582
0.55297691 0.12330747 0.68539542
0.54374397 0.1754315 0.67070889
0.55183506 0.16545336 0.69285053
0.53932899 0.22456236 0.67577672
0.53476268 0.2551105 0.67444617
-0.9169932 -0.49634203 0.74104452
-0.87187386 -0.49573874 0.72585088
-0.82650191 -0.49385187 0.72729164
-0.77505177 -0.49154174 0.72317123
-0.72583377 -0.49029195 0.72572201
-0.67615384 -0.48887208 0.72454119
-0.62513441 -0.48760369 0.72371966
-0.57617891 -0.48673114 0.72440451
-0.52541679 -0.48502234 0.72467333
-0.4754872 -0.48390117 0.72470146
-0.42512175 -0.48298022 0.72404534
-0.37577325 -0.48250693 0.72328538
-0.32507539 -0.48189339 0.72511584
-0.27372837 -0.48191762 0.72565222
-0.2240037 -0.48199064 0.72406155
-0.17485593 -0.48216316 0.72458446
-0.12409203 -0.48144501 0.72500139
-0.074614048 -0.48098651 0.72395563
-0.025476964 -0.48120543 0.72521544
0.024769586 -0.4811345 0.72590619
0.075193644 -0.4811177 0.72385627
0.12488881 -0.48137495 0.72423285
0.17533557 -0.48074901 0.72378659
0.22552532 -0.48032746 0.72525561
0.27421826 -0.47955382 0.72417158
0.32436872 -0.47856173 0.72483391
0.37529731 -0.47779387 0.72541189
0.42478037 -0.47684658 0.72745115
0.47474486 -0.47353822 0.72412771
0.52398694 -0.47122639 0.72472048
0.5675056 -0.46221972 0.72454828
0.58206439 -0.42572638 0.72364879
0.59127569 -0.37470412 0.72422087
0.59493744 -0.32584694 0.72416359
0.60030925 -0.31406972 0.74807668
0.59297055 -0.27376136 0.72296149
0.58939594 -0.22408228 0.72373879
0.5854156 -0.17542332 0.72466934
0.58132762 -0.12533168 0.7244311
0.5772236 -0.074673973 0.72443098
0.57290298 -0.025586838 0.72288966
0.56850076 0.023357682 0.72352278
0.56462348 0.073845774 0.72353822
0.56249654 0.12493402 0.72441745
0.54697442 0.19722715 0.70287275
0.55810225 0.17411338 0.72515869
0.54731166 0.23669443 0.71321625
0.55401021 0.21977061 0.73077399
0.54700607 0.25996214 0.72587788
0.55322284 0.26149589 0.73529708
-1.0172617 -0.50093055 0.79754728
-0.97591066 -0.5020355 0.78126925
-0.93767267 -0.50048989 0.76660967
-0.96971142 -0.49910358 0.78326464
-0.92573196 -0.49747321 0.77501297
-0.87452644 -0.49560639 0.77597773
-0.82026309 -0.49270168 0.77487493
-0.77607256 -0.49139306 0.77347726
-0.725609 -0.4897396 0.77694434
-0.67424095 -0.4881258 0.77240664
-0.62386 -0.48704624 0.77434641
-0.57490063 -0.48624778 0.77488369
-0.52547419 -0.4843367 0.77592784
-0.4739539 -0.48304057 0.77359247
-0.42466292 -0.48176578 0.7740559
-0.37377641 -0.48181954 0.77416956
-0.32328156 -0.48169625 0.77389681
-0.27428213 -0.48167193 0.7759822
-0.22480735 -0.48151737 0.77336615
-0.17522402 -0.48163211 0.7747162
-0.12577669 -0.48110354 0.77497268
-0.075289257 -0.48100361 0.7737745
-0.026456015 -0.48087943 0.77375728
0.024307707 -0.48073542 0.77491033
0.075404994 -0.48088148 0.77411568
0.12409841 -0.48028603 0.77498585
0.17436296 -0.47987702 0.7752074
0.22450382 -0.47915787 0.77544516
0.2756463 -0.47802371 0.77386075
0.3256121 -0.47686192 0.77512568
0.37338996 -0.47295463 0.77268487
0.42537484 -0.4723793 0.77473372
0.47500888 -0.47157469 0.77252632
0.52611935 -0.46603942 0.77586293
0.5672763 -0.46016335 0.7725299
0.58554071 -0.42361626 0.77511138
0.59692907 -0.38277844 0.76478356
0.60235012 -0.36722043 0.7841993
0.59929812 -0.31934896 0.7567392
0.60343111 -0.32670578 0.77755946
0.5989933 -0.27533373 0.7571137
0.60323071 -0.27627149 0.78211123
0.5969153 -0.22439261 0.76330119
0.60162091 -0.22673997 0.78631037
0.5942626 -0.1743414 0.77199048
0.60031885 -0.18732588 0.79624778
0.5903368 -0.12384011 0.77221566
0.58738738 -0.076242499 0.77275419
0.58398086 -0.026136156 0.77372968
0.57961321 0.024369758 0.77423561
0.57594436 0.076055296 0.77332771
0.57369155 0.12471592 0.77314216
0.56944305 0.17536514 0.77304286
0.56420451 0.22599307 0.77480268
0.54811221 0.25838411 0.75856131
0.55894047 0.25733739 0.77292776
-1.072991 -0.50268304 0.83926857
-1.0260952 -0.50185645 0.82515675
-0.98548651 -0.50191593 0.82876229
-0.92976522 -0.50154549 0.81986725
-1.0170103 -0.49821079 0.8196997
-0.98024768 -0.49793249 0.82238925
-0.92704731 -0.49738732 0.82670194
-0.8703196 -0.49482381 0.82500392
-0.82354617 -0.49184227 0.82239538
-0.77599317 -0.49062803 0.82348102
-0.72351533 -0.48896915 0.82300705
-0.67369008 -0.48729908 0.82382852
-0.62532407 -0.48646221 0.82388562
-0.57304221 -0.48452047 0.82398486
-0.52426684 -0.48335019 0.82455176
-0.47443819 -0.48216182 0.8236087
-0.42427474 -0.48106858 0.82419163
-0.37524825 -0.48096487 0.82302648
-0.32391676 -0.48123577 0.82384956
-0.27409765 -0.48111275 0.82548863
-0.22421868 -0.48131216 0.82432681
-0.17357887 -0.48112899 0.82371724
-0.12356777 -0.48086303 0.82596362
-0.074530631 -0.4803451 0.82365042
-0.024758164 -0.48045769 0.82336211
0.025292609 -0.48000041 0.82522011
0.07639005 -0.47972038 0.82426941
0.12587075 -0.4791328 0.82508194
0.17512111 -0.47776687 0.82726556
0.22491319 -0.47678748 0.82358843
0.27381799 -0.47606263 0.82243931
0.324837 -0.4747045 0.82379228
0.37475199 -0.47112668 0.82437617
0.42445767 -0.46960658 0.82086855
0.47439867 -0.468835 0.82381111
0.52363193 -0.46578392 0.82526982
0.56907493 -0.4567984 0.82254064
0.58489019 -0.42706904 0.82781798
0.60216343 -0.40833443 0.83201301
0.59920108 -0.39678299 0.80632102
0.60796517 -0.37502819 0.82625526
0.61075932 -0.32449952 0.82465047
0.61098868 -0.27552959 0.82580298
0.6074605 -0.2250776 0.82219768
0.59921277 -0.15333787 0.80510283
0.6052497 -0.17589338 0.82740372
0.59836119 -0.12441225 0.81192994
0.60382849 -0.12826306 0.83625895
0.59579313 -0.071284369 0.81517792
0.60159951 -0.075399585 0.83864725
0.59470278 -0.023600241 0.82525194
0.60095996 -0.046686891 0.8405928
0.59049463 0.024423558 0.82450253
0.58742964 0.074271344 0.82474977
0.58519655 0.12581256 0.82394886
0.58120197 0.1748226 0.82365048
0.57667154 0.22491269 0.82575995
0.57099259 0.25681633 0.82504094
-1.1621771 -0.50274146 0.8949663
-1.119386 -0.50321835 0.87896323
-1.0749687 -0.50309581 0.87589896
-1.0258137 -0.50274795 0.87632531
-0.97604966 -0.50254977 0.87964404
-0.93690377 -0.50094885 0.86455339
-1.1425171 -0.49903774 0.88417482
-0.96232206 -0.4975886 0.86207533
-0.9215377 -0.49744412 0.87718803
-0.87075394 -0.49310791 0.87442833
-0.82133639 -0.48983529 0.87207514
-0.77572805 -0.48998013 0.87194246
-0.72503358 -0.48773548 0.87473017
-0.67595077 -0.48729283 0.87557173
-0.62445885 -0.48521519 0.87254626
-0.57638389 -0.48446459 0.87423915
-0.5234229 -0.48257953 0.87456673
-0.47541782 -0.48210979 0.87467247
-0.42421865 -0.48041689 0.87475163
-0.37326533 -0.4806363 0.87415653
-0.32460681 -0.48067379 0.8743822
-0.27429229 -0.48018852 0.87436277
-0.22500867 -0.48057824 0.87631148
-0.1754135 -0.48072487 0.87382138
-0.12519848 -0.48030621 0.87655342
-0.075359084 -0.47958764 0.8763144
-0.025556091 -0.47880101 0.87555242
0.023861982 -0.47828168 0.87547272
0.073416293 -0.47742859 0.87365675
0.12507708 -0.47654009 0.87300813
0.17520641 -0.47570285 0.87655795
0.22474942 -0.47505984 0.87488174
0.27513885 -0.47479001 0.87373918
0.32436144 -0.47337613 0.87500656
0.37421292 -0.47052923 0.87463558
0.42439586 -0.46752042 0.87143344
0.47883648 -0.46500319 0.87487537
0.52610141 -0.45887241 0.87148464
0.5676195 -0.45606431 0.8729493
0.53828627 -0.43503469 0.8872512
0.58029556 -0.42810431 0.87265509
0.60476011 -0.41144314 0.87867045
0.58739114 -0.38964164 0.88480073
0.61381453 -0.3771939 0.87777686
0.61924011 -0.32652974 0.87482381
0.61972308 -0.27574149 0.87484151
0.61733413 -0.22615638 0.87452215
0.61424005 -0.17589867 0.87586868
0.61088645 -0.12459491 0.87425417
0.60789233 -0.075951017 0.87314504
0.59928793 -0.0045818961 0.85776687
0.60464364 -0.027792675 0.87383926
0.59714389 0.025537658 0.86122781
0.60344833 0.021960232 0.88383168
0.59628761 0.076720923 0.86855233
0.60190833 0.076132648 0.89133
0.59565878 0.12684508 0.87438864
0.60111642 0.10448674 0.88756561
0.58810955 0.17657004 0.87717164
0.57982802 0.22071242 0.86791337
0.5817548 0.25491017 0.87573719
-1.212391 -0.50404721 0.93492383
-1.1734014 -0.50337708 0.92662525
-1.1250352 -0.50404054 0.92232043
-1.0752127 -0.50410408 0.92192972
-1.0250055 -0.50507271 0.92475551
-0.97774428 -0.50212657 0.92973644
-0.9611178 -0.49854347 0.91552907
-0.92251277 -0.49663356 0.92772126
-0.87307554 -0.4917143 0.9224773
-0.82545078 -0.49030748 0.92650008
-0.77278227 -0.48814887 0.92199385
-0.72615284 -0.48754761 0.92444301
-0.67437679 -0.48622569 0.92558235
-0.62361932 -0.48477381 0.92386043
-0.57414252 -0.4843404 0.92524964
-0.52492189 -0.4825384 0.92608708
-0.47468808 -0.48172045 0.92356092
-0.4249045 -0.48070961 0.92608666
-0.37596005 -0.48022908 0.92680347
-0.3259339 -0.48002642 0.92465854
-0.27504435 -0.48016426 0.92426163
-0.22476672 -0.47967473 0.92627227
-0.17412071 -0.47923151 0.92420578
-0.12574336 -0.47841474 0.9239378
-0.074569717 -0.47851253 0.92529923
-0.025208265 -0.47782969 0.92642879
0.02510331 -0.47750172 0.92518097
0.076267354 -0.47627467 0.92395842
0.12354022 -0.47573206 0.92445159
0.17496602 -0.47472051 0.92433292
0.22639716 -0.47367263 0.92493355
0.27573702 -0.47291392 0.92414433
0.32533932 -0.47138637 0.9249354
0.37277365 -0.46925834 0.92390639
0.42739174 -0.46812782 0.92604232
0.47403702 -0.46076626 0.92690521
0.52006191 -0.45614356 0.91993409
0.59367836 -0.45256835 0.90196204
0.49091345 -0.44307518 0.92596227
0.52897644 -0.43696132 0.91468275
0.57573158 -0.42709976 0.92528951
0.5747928 -0.39530599 0.93221879
0.61991352 -0.38081169 0.92433369
0.62253028 -0.32629105 0.91040152
0.62324858 -0.27460364 0.91122669
0.62186331 -0.22129546 0.9169935
0.61927485 -0.17366381 0.91920274
0.61644709 -0.12398117 0.92040074
0.61382484 -0.075470611 0.92074949
0.60910034 -0.027726179 0.91456157
0.60878664 0.024587903 0.92280591
0.6054818 0.07128112 0.92401654
0.60618526 0.1237883 0.92441553
0.59630924 0.17170425 0.90993512
0.60424674 0.15886347 0.93171906
0.60648024 0.23753956 0.94643056
0.59047353 0.25756752 0.90783465
0.60381985 0.25467619 0.93856817
-1.3162146 -0.50651538 0.994991
-1.2737283 -0.50823593 0.97644532
-1.2274097 -0.50743139 0.9776758
-1.1717 -0.50858778 0.97621727
-1.1232706 -0.50848424 0.97620279
-1.0747355 -0.50808853 0.97101456
-1.0262406 -0.50450504 0.97495961
-0.97639304 -0.50076276 0.96488142
-0.9689225 -0.49801371 0.97266972
-0.92160892 -0.49404863 0.97579765
-0.87504053 -0.48996246 0.97722578
-0.82208478 -0.4872663 0.97084677
-0.77496576 -0.48681122 0.97454393
-0.72596192 -0.48701099 0.97401899
-0.67503226 -0.48573142 0.97644609
-0.62541062 -0.48488295 0.97829676
-0.57656962 -0.48449808 0.97450453
-0.52394623 -0.48287386 0.97595757
-0.47570416 -0.48186123 0.97460538
-0.42522761 -0.48019931 0.97263801
-0.37506738 -0.48025855 0.97658306
-0.32447767 -0.47992653 0.97491384
-0.27478275 -0.47889435 0.97244906
-0.2266438 -0.47934872 0.97462749
-0.17558557 -0.4790276 0.97525078
-0.12445538 -0.47838336 0.97533303
-0.075844161 -0.47710338 0.97015542
-0.02534603 -0.47728199 0.97471297
0.024519827 -0.47646034 0.97305834
0.073990926 -0.47564617 0.97304916
0.1253271 -0.47446367 0.97403681
0.1734964 -0.47351304 0.97296542
0.2236232 -0.4723576 0.97421283
0.27451226 -0.47169304 0.97554052
0.32478327 -0.46985185 0.97435212
0.37638581 -0.46756735 0.97304535
0.42333353 -0.46229213 0.97014838
0.47475624 -0.45802331 0.97957975
0.52966374 -0.45641658 0.98331088
0.55112201 -0.4505794 0.98391819
0.54248446 -0.44028476 0.98360145
0.56299198 -0.42178887 0.9729355
0.61921865 -0.42278004 0.97893178
0.56373012 -0.38806936 0.96378487
0.63585812 -0.37978292 0.97227758
0.6506592 -0.35238987 0.99279433
0.64441365 -0.33107898 0.96921158
0.65559292 -0.32066953 0.98822689
0.64433205 -0.27256641 0.97552937
0.63777971 -0.22560209 0.97472095
0.63036823 -0.17378268 0.96695119
0.63360101 -0.12653376 0.97943521
0.6253199 -0.073341489 0.97614294
0.62132013 -0.024124894 0.96711314
0.61666226 0.016196106 0.97106081
0.61201209 0.082050763 0.96152806
0.61334175 0.12283886 0.95891958
0.61092407 0.15386027 0.95599985
0.61440277 0.23242614 0.97262967
0.60681421 0.25783604 0.96268708
-1.3820519 -0.51050854 1.0449328
-1.3245435 -0.51032788 1.0219527
-1.2774336 -0.51183355 1.0231274
-1.2332096 -0.51463383 1.0188406
-1.1720561 -0.51116937 1.0202338
-1.1354932 -0.51592594 1.0315379
-1.071818 -0.50777048 1.018271
-1.0206707 -0.50301337 1.0229031
-1.3442236 -0.49894354 1.0085906
-1.0101427 -0.49854556 1.0434355
-0.97085404 -0.49658355 1.0181302
-0.92425615 -0.49139872 1.0262522
-0.87275863 -0.48716301 1.0248635
-0.82483876 -0.48638254 1.0248666
-0.77355969 -0.48581928 1.0245955
-0.72334659 -0.48467234 1.0208719
-0.67535484 -0.48505005 1.0244173
-0.62363321 -0.48513114 1.0277878
-0.57203805 -0.48383051 1.0236109
-0.52289736 -0.48262677 1.0252796
-0.47388494 -0.48148727 1.0235932
-0.42465994 -0.48101076 1.0251666
-0.37430376 -0.48045823 1.0255852
-0.32597652 -0.47989881 1.026134
-0.27544558 -0.47947481 1.025799
-0.22393453 -0.47951236 1.0245752
-0.17546304 -0.47932702 1.027863
-0.12559512 -0.4782674 1.0254887
-0.073697306 -0.47710049 1.0254294
-0.026323602 -0.4763484 1.0261456
0.023984194 -0.47566545 1.023304
0.076052479 -0.47457293 1.0244174
0.12396637 -0.47400782 1.0228803
0.17498296 -0.47251999 1.0241485
0.22588421 -0.47157761 1.0236772
0.27505144 -0.47045043 1.025038
0.323798 -0.46917555 1.0257096
0.37641457 -0.46712074 1.0251868
0.4258849 -0.46317339 1.0251781
0.47432327 -0.46035218 1.0270675
0.52337843 -0.4583748 1.0257472
0.56739926 -0.45370382 1.0381014
0.4411841 -0.44785613 1.018492
0.4741987 -0.43821004 1.032632
0.52153242 -0.41222465 1.0281335
0.56284308 -0.42005014 1.0135945
0.63804442 -0.42495218 1.0335031
0.65108085 -0.42045832 1.0418609
0.52461267 -0.39671361 1.0249575
0.58651 -0.38436326 1.02935
0.64118081 -0.37621769 1.0178627
0.65456885 -0.36854348 1.0228972
0.66477001 -0.32587713 1.0228182
0.6620962 -0.27468151 1.0306472
0.64744282 -0.22402322 1.0044487
0.65670091 -0.22396205 1.0372883
0.64534229 -0.16693404 1.023057
0.65285051 -0.17973375 1.0365778
0.64238268 -0.12624677 1.0203019
0.63642627 -0.078995295 1.0159937
0.63376617 -0.027423011 1.007713
0.64499682 0.070116572 1.0405253
0.63929117 0.18201517 1.0325497
0.63492912 0.22688822 1.0314534
0.62829572 0.25807217 1.0242056
-1.4562013 -0.51257741 1.0869784
-1.4184215 -0.51039952 1.0784947
-1.3764757 -0.5160889 1.0818205
-1.3295454 -0.51572222 1.0647532
-1.2821977 -0.52438301 1.0764817
-1.2137417 -0.52326959 1.0785319
-1.1704285 -0.51866394 1.0760933
-1.1295846 -0.51497275 1.069157
-1.0736605 -0.50542361 1.0728729
-1.0342332 -0.50116801 1.0624198
-1.020263 -0.49797839 1.0787647
-0.97667468 -0.4930656 1.0765189
-0.92402577 -0.48823345 1.0716476
-0.87446028 -0.48604414 1.0752751
-0.82675159 -0.48587069 1.0739284
-0.77586871 -0.48466095 1.0752908
-0.72705817 -0.48457485 1.0720155
-0.67505097 -0.48384449 1.0718693
-0.62505358 -0.48376694 1.075415
-0.57452428 -0.48389643 1.0759331
-0.52527922 -0.48298314 1.073676
-0.47454032 -0.48180008 1.075112
-0.42567971 -0.48123318 1.077247
-0.37664449 -0.48096409 1.0776581
-0.32517803 -0.47940871 1.0729579
-0.27524644 -0.47975904 1.0755447
-0.22548439 -0.47917831 1.0751071
-0.17639273 -0.47889549 1.0758435
-0.12458801 -0.47831872 1.0740178
-0.075663649 -0.47663882 1.0774918
-0.025186535 -0.47573408 1.0745143
0.024680709 -0.47510818 1.0723455
0.074089043 -0.47439057 1.0744052
0.12505367 -0.47337499 1.0737371
0.17424418 -0.47298568 1.0746036
0.22461097 -0.4720476 1.0756021
0.27537289 -0.47043619 1.0732262
0.32452759 -0.46898803 1.0748546
0.37329325 -0.46733505 1.075621
0.42423046 -0.4613184 1.0713559
0.47380626 -0.46019873 1.0791711
0.52976173 -0.45688576 1.0690721
0.56081158 -0.45278338 1.0591379
0.53063357 -0.4399029 1.0713829
0.5653764 -0.44296205 1.06507
0.60010725 -0.40083724 1.057178
0.65987724 -0.41665959 1.0750598
0.5744068 -0.36652228 1.0574607
0.63202876 -0.38877296 1.0662868
0.66456068 -0.37867209 1.0689985
0.67265397 -0.32428196 1.0652084
0.67179996 -0.27525449 1.0748771
0.66204506 -0.22145389 1.0705541
0.6584726 -0.18278961 1.0592784
0.66715503 -0.089960858 1.0815418
0.66653979 0.011826844 1.0892555
0.66061735 0.083098456 1.0848072
0.64826494 0.14485168 1.0518172
0.65704232 0.12301586 1.074819
0.64700162 0.19059168 1.0562415
0.65579647 0.17260537 1.0802637
0.64487749 0.22721781 1.0642202
0.65263778 0.22175448 1.0879478
0.64013112 0.25795582 1.0626701
0.65158486 0.25725311 1.0912735
-1.5073601 -0.51342893 1.13063
-1.4726958 -0.51348525 1.126145
-1.4230356 -0.51830715 1.1236342
-1.3723346 -0.52672994 1.1274754
-1.3380814 -0.531923 1.1233597
-1.2766787 -0.53192973 1.1233327
-1.230718 -0.52807629 1.1304609
-1.1802026 -0.52018148 1.1191635
-1.1249734 -0.51296419 1.1232007
-1.0685768 -0.50346154 1.1262496
-1.0672436 -0.49739569 1.1441946
-1.02407 -0.49560151 1.1223079
-0.97788513 -0.48894992 1.1225569
-0.92564595 -0.48640192 1.1271456
-0.87174416 -0.48519909 1.1253229
-0.82100099 -0.48388144 1.1208426
-0.7742573 -0.48306853 1.126402
-0.72501993 -0.48337582 1.1240513
-0.6749959 -0.48341352 1.1248953
-0.62328959 -0.4833875 1.1266491
-0.57255691 -0.4833599 1.1240587
-0.52474719 -0.48188889 1.1237862
-0.47506186 -0.48127672 1.1235369
-0.42412502 -0.48092595 1.1285571
-0.37254342 -0.4797523 1.12326
-0.32472023 -0.47969353 1.1226413
-0.27588573 -0.47942635 1.1223922
-0.22548746 -0.47962451 1.1263593
-0.17494351 -0.47843093 1.1239517
-0.12395801 -0.47864765 1.1240237
-0.07317704 -0.4766379 1.1262065
-0.026130926 -0.4742803 1.1218504
0.023917854 -0.47447932 1.1224597
0.076654583 -0.4736824 1.122128
0.12520513 -0.47319394 1.1235374
0.17405185 -0.47210738 1.122954
0.22592717 -0.47194988 1.1260298
0.27512187 -0.47012281 1.1212854
0.32516053 -0.46950242 1.1218374
0.3757118 -0.46796322 1.1261712
0.42085359 -0.46444914 1.1273669
0.475954 -0.46054685 1.1238062
0.51802069 -0.45825994 1.131943
0.53492278 -0.44144598 1.1250864
0.59090054 -0.41531128 1.1430284
0.61447895 -0.43053383 1.1357015
0.67486811 -0.41570643 1.124017
0.64485085 -0.38821742 1.1043643
0.68581295 -0.38294283 1.1227533
0.70182818 -0.36011931 1.1339574
0.6987918 -0.32350412 1.1337657
0.70309329 -0.33719477 1.1415809
0.69188541 -0.25771809 1.1381611
0.68476844 -0.23786463 1.1260959
0.67027456 0.085486859 1.1135706
0.67307007 0.12768593 1.1245719
0.66717386 0.17292278 1.1230345
0.66476631 0.22770034 1.1308006
0.65893817 0.26175982 1.1255562
-1.5222095 -0.51577115 1.1740443
-1.4770018 -0.52074414 1.1720264
-1.4214944 -0.53287601 1.1722823
-1.3684775 -0.54130715 1.1852834
-1.3303635 -0.54369164 1.1827791
-1.2675259 -0.5324989 1.1745012
-1.2310606 -0.53206861 1.1715223
-1.1665523 -0.51698035 1.1709862
-1.1212584 -0.50946021 1.1790042
-1.0873437 -0.50451064 1.1897315
-1.0587265 -0.4983685 1.1710507
-1.0217407 -0.49234068 1.1795808
-0.96957934 -0.48619488 1.1686718
-0.92055422 -0.48268479 1.1762516
-0.87212867 -0.48198825 1.1736207
-0.82680827 -0.48245502 1.1710281
-0.77577984 -0.48168921 1.1729869
-0.72198492 -0.48212826 1.1740172
-0.67308056 -0.48387986 1.1784116
-0.62546831 -0.48171404 1.171847
-0.57640684 -0.4817422 1.1742394
-0.52254444 -0.48145416 1.1734518
-0.47381362 -0.48061082 1.1729212
-0.42332304 -0.48076162 1.1779944
-0.37531009 -0.48017487 1.172803
-0.32473192 -0.47922751 1.172197
-0.27447119 -0.47948647 1.1739999
-0.22373301 -0.47871193 1.1734023
-0.17576922 -0.47853163 1.1751903
-0.12478913 -0.47809926 1.1721193
-0.074640021 -0.47595817 1.1713624
-0.024865316 -0.47453934 1.1754552
0.024837514 -0.47476783 1.1714183
0.073111415 -0.4748227 1.1728551
0.12502462 -0.47418994 1.1757764
0.1756468 -0.4733052 1.1726907
0.22328688 -0.47299916 1.1755226
0.27535275 -0.47136542 1.1730909
0.32519394 -0.47006035 1.1743201
0.37408993 -0.46863076 1.1758366
0.42442173 -0.46662045 1.1790125
0.47400102 -0.45967433 1.1759976
0.52221984 -0.45665634 1.1713901
0.49392691 -0.4457415 1.1753494
0.54389393 -0.44538233 1.1707268
0.56912273 -0.42910641 1.1765091
0.62539053 -0.4321804 1.1763972
0.68354636 -0.40130162 1.1585385
0.58413643 -0.39647526 1.1585302
0.60273671 -0.38181329 1.1704876
0.69221407 -0.39639884 1.1669991
0.70881641 -0.37422436 1.1698608
0.69913948 -0.30658299 1.1941404
0.71019983 -0.32806101 1.1775808
0.69649887 -0.26779383 1.1648421
0.70553827 -0.2863619 1.1772823
0.686149 0.098841414 1.1566892
0.6872403 0.12616989 1.1732434
0.68292415 0.17679468 1.1752518
0.67944497 0.22528259 1.1769865
0.66885412 0.26207575 1.1703062
-1.6133407 -0.52607995 1.2228819
-1.5735582 -0.5251568 1.2301058
-1.5236332 -0.52841818 1.2244036
-1.4711432 -0.53516239 1.2252434
-1.4308025 -0.54131114 1.225098
-1.3790541 -0.54159302 1.2258732
-1.3207766 -0.53829283 1.2074775
-1.2770283 -0.53393674 1.2275327
-1.2367766 -0.53189266 1.2263523
-1.1200101 -0.50660056 1.2313303
-1.0911694 -0.50047362 1.2038736
-1.0689327 -0.49695143 1.2234329
-1.016929 -0.48503748 1.220193
-0.97609723 -0.48363692 1.2169725
-0.92771667 -0.48094884 1.2239563
-0.87856627 -0.48086125 1.2290837
-0.82501733 -0.48054886 1.2190788
-0.77892393 -0.48254412 1.2247056
-0.72656232 -0.48308551 1.2249535
-0.67321551 -0.48210189 1.2258748
-0.62687641 -0.48325089 1.2272649
-0.5751639 -0.48130959 1.2245797
-0.52446479 -0.4815585 1.2299883
-0.47230068 -0.47984058 1.2223458
-0.42544159 -0.48027977 1.2241921
-0.37443882 -0.47887707 1.2219318
-0.32391167 -0.47869545 1.2243065
-0.27514735 -0.47883371 1.2235587
-0.22703315 -0.47873965 1.2249721
-0.17235239 -0.4785459 1.2198344
-0.12499333 -0.47859433 1.2230796
-0.075234078 -0.4758074 1.2214856
-0.027555352 -0.47466096 1.2242409
0.023881255 -0.47567979 1.2212845
0.075189285 -0.47611725 1.2203084
0.12640232 -0.47459513 1.2250773
0.17431574 -0.47506279 1.2257875
0.2262843 -0.4743917 1.2298123
0.27232841 -0.47213018 1.2219244
0.32453001 -0.47095129 1.2217059
0.37399662 -0.46960282 1.2274965
0.42696038 -0.46575472 1.2235581
0.47109139 -0.45515579 1.213474
0.53234327 -0.45705479 1.2212489
0.55694997 -0.45328057 1.2419643
0.48012793 -0.44431427 1.2161914
0.5514679 -0.44099787 1.2051029
0.61640567 -0.43235648 1.2259051
0.6750254 -0.43183449 1.2258894
0.71377993 -0.42702156 1.2388787
0.7163313 -0.37554744 1.215881
0.71573538 -0.32995129 1.21426
0.73232555 -0.27463278 1.2442368
0.69759446 0.14837795 1.2134531
0.70594424 0.12396383 1.2284114
0.69255894 0.17805013 1.2136793
0.70250553 0.16798867 1.2417493
0.69084811 0.22368723 1.2222531
0.68748933 0.26146543 1.2243596
0.81429446 0.39071244 1.2218027
0.8126694 0.42130956 1.2233491
0.79236948 0.47671831 1.2166425
0.80563915 0.45419356 1.2231139
-1.6688346 -0.52406996 1.282495
-1.6168433 -0.52762747 1.2704868
-1.5681645 -0.52858502 1.2746375
-1.5261698 -0.53937036 1.2823056
-1.4740955 -0.54324281 1.2805049
-1.4220805 -0.54592431 1.2772725
-1.3686725 -0.54133326 1.2733638
-1.3301053 -0.54153913 1.275454
-1.2714062 -0.53133637 1.2808383
-1.2169955 -0.52482986 1.2627847
-1.1869003 -0.51973933 1.2680731
-1.1299361 -0.50531358 1.274228
-1.0740513 -0.49431494 1.2714597
-1.0125417 -0.48459521 1.2743208
-0.97600949 -0.48314279 1.2746146
-0.92156845 -0.47943899 1.2761471
-0.8773464 -0.47975436 1.2744364
-0.82916719 -0.48084286 1.2729508
-0.77644175 -0.48188931 1.2713587
-0.72550231 -0.48330504 1.2738171
-0.67551404 -0.48280972 1.2773216
-0.622949 -0.48228166 1.273172
-0.57467067 -0.48091006 1.2753537
-0.52456295 -0.48084944 1.2789817
-0.47621256 -0.48104551 1.2765911
-0.42622229 -0.48028386 1.2716919
-0.37651366 -0.4795199 1.2728599
-0.32474226 -0.47928944 1.2781545
-0.27657226 -0.4781456 1.2725724
-0.22339825 -0.4788703 1.272131
-0.17516957 -0.47914061 1.2739681
-0.12577824 -0.47766328 1.2732271
-0.0758681 -0.47658932 1.2747302
-0.022299893 -0.47681546 1.2728778
0.023729442 -0.47651309 1.2750415
0.07474678 -0.47692168 1.2739806
0.1221297 -0.47714034 1.2750063
0.17397562 -0.47561288 1.2731427
0.21963266 -0.47432154 1.2688272
0.27324724 -0.47456685 1.2734789
0.32503927 -0.47253492 1.2701154
0.37270996 -0.47220489 1.2737679
0.42715555 -0.46756724 1.2742221
0.4702104 -0.46022198 1.2745385
0.53984207 -0.45620292 1.2664063
0.56457442 -0.45957214 1.2870373
0.5310846 -0.44684723 1.2869296
0.61759436 -0.41263065 1.2516592
0.67758763 -0.41675505 1.2908974
0.72530061 -0.42588085 1.2791146
0.73920852 -0.38507891 1.2849472
0.75279093 -0.3437179 1.2988
0.73997951 -0.27087918 1.2673603
0.71560049 0.13420831 1.2682495
0.69961804 0.19957471 1.2551384
0.7115286 0.17307714 1.2782739
0.69888163 0.22708446 1.2576907
0.70531154 0.22898871 1.2787247
0.69490302 0.26137534 1.2605929
0.7071811 0.25700027 1.2920285
-1.7117397 -0.52772498 1.3183305
-1.6716996 -0.52613717 1.328415
-1.6243805 -0.52948952 1.3266424
-1.5777826 -0.53106934 1.3216184
-1.52642 -0.53695476 1.3167324
-1.4720311 -0.54210567 1.3212576
-1.4204149 -0.54050732 1.321418
-1.375887 -0.53957587 1.3266759
-1.3281775 -0.53594995 1.3237463
-1.2763245 -0.52955484 1.3299985
-1.2217499 -0.52083522 1.3125513
-1.1797532 -0.51417089 1.3193512
-1.1443751 -0.50359511 1.3193722
-1.1198055 -0.4965297 1.3350303
-1.073716 -0.4907712 1.322039
-1.0258629 -0.48553017 1.3255126
-0.97585005 -0.48222294 1.3307358
-0.92391938 -0.47997731 1.3191805
-0.87213212 -0.47905198 1.3231647
-0.82392681 -0.48275807 1.3295811
-0.77453893 -0.48320425 1.3263003
-0.72626895 -0.4835892 1.3210794
-0.6791054 -0.48260376 1.3236657
-0.62792796 -0.48176473 1.3197196
-0.57452518 -0.48064086 1.3253191
-0.52728659 -0.48048857 1.3242763
-0.47821665 -0.48014486 1.3228701
-0.4243786 -0.47982392 1.3202605
-0.37369454 -0.47911137 1.3208265
-0.32333186 -0.4790259 1.3226541
-0.27464655 -0.47884229 1.3218634
-0.22559109 -0.47864401 1.3234316
-0.17395952 -0.47771901 1.3248327
-0.12625612 -0.47822821 1.3275043
-0.074166343 -0.47810641 1.3253599
-0.025393212 -0.47856954 1.3226995
0.024798688 -0.47914109 1.3294894
0.074328579 -0.47876233 1.3271908
0.12414433 -0.47871718 1.3278906
0.17527229 -0.47927633 1.3214542
0.22535349 -0.47840902 1.3236005
0.27403525 -0.47748801 1.3241097
0.32416293 -0.47562069 1.3247488
0.37435806 -0.47324902 1.3175566
0.42156076 -0.47192129 1.324599
0.47286868 -0.46761891 1.3261815
0.51887995 -0.45952475 1.3273778
0.58186334 -0.46235228 1.3294153
0.62606353 -0.4567112 1.3341483
-1.6547304 -0.43251243 1.3483858
0.64067805 -0.43864101 1.3228468
0.67800552 -0.40664247 1.3150175
0.723463 -0.41365442 1.3149164
0.73532832 -0.39513204 1.3247871
0.76069289 -0.37086269 1.3291994
0.75952357 -0.34131807 1.3195722
0.76710325 -0.28589585 1.3350607
0.73539501 0.13264664 1.3233256
0.7236644 0.17481819 1.3214834
0.71871382 0.2255335 1.3246231
0.70917892 0.26260075 1.3148819
-1.7135508 -0.51762199 1.377362
-1.6665605 -0.5164246 1.3722376
-1.6264867 -0.52153432 1.373087
-1.5761948 -0.52933031 1.3770759
-1.5251491 -0.53729969 1.3748313
-1.4742795 -0.54243094 1.377866
-1.4096149 -0.5412268 1.381422
-1.3636944 -0.53814256 1.3741289
-1.3178115 -0.53351873 1.3778366
-1.2766155 -0.52748835 1.3835672
-1.2270807 -0.52059251 1.3786294
-1.7087883 -0.49634144 1.3791723
-1.6640455 -0.4755362 1.3572245
-1.6215502 -0.46974537 1.3748919
-1.1323993 -0.49398726 1.3702372
-1.0730876 -0.48537755 1.370279
-1.0269595 -0.48381034 1.367734
-0.96926087 -0.48392969 1.3760495
-0.92710036 -0.48375136 1.3807509
-0.87036735 -0.48644701 1.3844713
-0.82015669 -0.48406091 1.3780569
-0.77101904 -0.48468906 1.3805319
-0.72307938 -0.48430765 1.3697653
-0.67454004 -0.48381156 1.3789899
-0.62541199 -0.48338607 1.3749642
-0.57775736 -0.48185349 1.3807679
-0.52615082 -0.48144695 1.3749095
-0.47099546 -0.48020855 1.3695536
-0.42589054 -0.48010346 1.3718032
-0.3746801 -0.4792541 1.373718
-0.32545447 -0.477658 1.3682271
-0.27689001 -0.47801927 1.3726721
-0.225435 -0.47879991 1.374418
-0.17555937 -0.47841087 1.3775461
-0.12699755 -0.47953022 1.3770131
-0.074777715 -0.47893876 1.3679681
-0.026014084 -0.48022407 1.3757249
0.025653254 -0.48152357 1.3773007
0.077004112 -0.48221412 1.3779976
0.12553431 -0.48127684 1.3770307
0.17587459 -0.48080876 1.3709379
0.22239579 -0.48096025 1.3759741
0.27465731 -0.48005468 1.3760784
0.32196403 -0.47910485 1.3698044
0.37453881 -0.47722483 1.3736384
0.4256787 -0.47523382 1.376372
0.47755879 -0.47285989 1.3801017
0.51704955 -0.4648923 1.370124
0.5860889 -0.46266598 1.3649898
0.62409252 -0.45738402 1.3698646
-1.6777761 -0.41559917 1.3619232
-1.6237098 -0.42181548 1.3732735
-1.5930405 -0.42769051 1.3749316
0.65938103 -0.44447646 1.3669828
0.71163774 -0.40588686 1.3742496
-1.6660476 -0.38502419 1.3833189
-1.6331046 -0.39147803 1.3897326
0.72461343 -0.39933023 1.3578997
0.78030276 -0.38214302 1.3829185
0.74576783 0.14034387 1.3690014
0.75776964 0.12256996 1.3681066
0.73967552 0.17331697 1.3748246
0.7315703 0.22676185 1.3747596
0.72632831 0.26032865 1.3728056
-1.7801331 -0.51915681 1.4170049
-1.6252184 -0.5156334 1.4254723
-1.5727934 -0.52833104 1.4284374
-1.530459 -0.53622478 1.4234756
-1.4734526 -0.54334778 1.4297458
-1.4222304 -0.54302949 1.4316521
-1.3781326 -0.53973085 1.4338945
-1.3326855 -0.53152585 1.4230428
-1.2773159 -0.52497458 1.4252608
-1.2142051 -0.51334274 1.4197714
-1.1830517 -0.50499213 1.425275
-1.7778797 -0.49282533 1.4222571
-1.609359 -0.49574018 1.4084933
-1.5953647 -0.47008544 1.4275378
-1.1583261 -0.49928707 1.4069556
-1.1252066 -0.49966186 1.4309014
-1.0665098 -0.49051216 1.4288213
-1.01551 -0.48387578 1.4209096
-0.97381198 -0.48172033 1.4257632
-0.92347169 -0.48145008 1.4208802
-0.87634772 -0.48299238 1.4175224
-0.82398236 -0.48517466 1.4230217
-0.77734965 -0.48661757 1.4303012
-0.72709024 -0.48502651 1.4210373
-0.6728186 -0.48520741 1.4298725
-0.6234045 -0.4825305 1.422835
-0.56882238 -0.48127633 1.4327508
-0.53127819 -0.48224729 1.423568
-0.4748168 -0.48097736 1.4158733
-0.42409286 -0.47993413 1.4191656
-0.36939475 -0.47923371 1.4276301
-0.32380778 -0.4785336 1.4228626
-0.27353176 -0.47873154 1.4240952
-0.22445855 -0.47712228 1.4184196
-0.17506263 -0.47751448 1.4243401
-0.12236623 -0.47893119 1.4237001
-0.077795066 -0.48028603 1.4201064
-0.025890069 -0.48298216 1.4259962
0.0230332 -0.48412162 1.4285377
0.074340768 -0.48444274 1.4275419
0.12400529 -0.48346868 1.4239495
0.1713708 -0.48166761 1.4162377
0.22600141 -0.48447287 1.425413
0.27534962 -0.48276851 1.4255236
0.32744354 -0.4812102 1.4161928
0.37416431 -0.48070124 1.4313993
0.42250401 -0.47923201 1.4246113
0.47456616 -0.47610125 1.4143091
0.52727807 -0.47376141 1.4278288
0.57510698 -0.468366 1.426139
0.62201571 -0.45778009 1.4176114
0.65988451 -0.45336279 1.4100995
-1.6056037 -0.42228752 1.410915
-1.5946902 -0.42636755 1.4260713
0.79128009 -0.4136118 1.4232495
-1.7174855 -0.36109069 1.4384851
-1.6707157 -0.3635112 1.4274955
-1.6212496 -0.38360956 1.4249752
0.78608102 -0.38433433 1.4019594
-1.7848277 -0.064938538 1.4375038
-1.7806492 -0.030856149 1.4402267
-1.7940384 0.011279742 1.4459171
-1.8006988 0.072787486 1.4497207
-1.7890363 0.080019206 1.4445117
-1.7889854 0.11322501 1.4426234
0.76243651 0.14111021 1.416363
-1.8041854 0.16533427 1.4461555
0.74634391 0.18335222 1.4111264
0.75861949 0.16691104 1.4326777
-1.8059552 0.22974163 1.4402778
-1.7891668 0.23114911 1.4404099
0.74317628 0.22440369 1.4219962
-1.7967665 0.27574247 1.4366091
0.73729247 0.26014176 1.4156512
-1.7860655 0.32704625 1.4335929
-1.7786731 0.36041 1.4428804
-1.7390271 0.37568441 1.4339092
-1.6207608 -0.51291496 1.4783922
-1.5827814 -0.52699471 1.4742893
-1.5294092 -0.53538096 1.4742295
-1.4723631 -0.54011315 1.472869
-1.4363388 -0.54240787 1.4857607
-1.3679277 -0.53634566 1.4637357
-1.3229811 -0.53405678 1.4654611
-1.2721711 -0.52441317 1.4751326
-1.2062076 -0.50600302 1.4872466
-1.170411 -0.50163555 1.4636059
-1.148213 -0.5012325 1.4626505
-1.603826 -0.48304465 1.4925388
-1.5921508 -0.46436465 1.4730301
-1.1602927 -0.49776763 1.4804578
-1.1202794 -0.49398491 1.4755274
-1.0737211 -0.48864427 1.4739158
-1.0210474 -0.48608297 1.4740188
-0.97532064 -0.48352849 1.475906
-0.92598557 -0.48569024 1.4727668
-0.86852473 -0.48586726 1.4726677
-0.82364339 -0.48553157 1.4779885
-0.77561003 -0.48675233 1.4724026
-0.72730738 -0.48474789 1.4698004
-0.67822295 -0.48472595 1.4721652
-0.62901765 -0.48506704 1.4750048
-0.57687169 -0.48359421 1.4758973
-0.52060527 -0.48331133 1.471835
-0.47930411 -0.48160431 1.4699872
-0.42392954 -0.48142931 1.473389
-0.38118511 -0.48036546 1.4763411
-0.32705876 -0.47951165 1.4724436
-0.27396011 -0.48070204 1.4759955
-0.22291383 -0.47875819 1.472793
-0.17384073 -0.47945529 1.4776709
-0.12725686 -0.48070788 1.4750866
-0.073951975 -0.48285908 1.4685094
-0.028099597 -0.48692289 1.4766002
0.027093289 -0.48683909 1.4797318
0.071610011 -0.48778498 1.4782319
0.12698245 -0.48535314 1.4701513
0.1715302 -0.48705113 1.4730867
0.22295518 -0.48758298 1.476506
0.27340078 -0.48699501 1.4696789
0.32845995 -0.48667812 1.4803101
0.37436792 -0.48416615 1.4794416
0.42592648 -0.48146218 1.4704798
0.47025639 -0.48091602 1.462697
0.52758396 -0.48065364 1.4791113
0.57139003 -0.46960527 1.4611547
0.60762817 -0.4721446 1.4764321
-1.6028919 -0.40536937 1.454448
-1.5938599 -0.42580256 1.4758408
-1.7104428 -0.35168198 1.453017
-1.6574028 -0.35662085 1.4756362
-1.6181092 -0.37755075 1.4779477
-1.7148321 -0.32969898 1.4774473
-1.6808734 -0.33735979 1.4790574
-1.8062174 -0.10230529 1.4718977
-1.7969621 -0.10239287 1.4832244
-1.8027394 -0.080988869 1.4513353
-1.7867302 -0.073449925 1.4713837
-1.7805626 -0.022074759 1.4723287
-1.8037319 0.034097269 1.4760418
-1.7903682 0.017191099 1.4668691
-1.805953 0.071461357 1.4804373
-1.7962768 0.070562422 1.4696146
-1.8100617 0.13576156 1.4724171
-1.7922634 0.12275193 1.4681033
0.77864552 0.14277895 1.4610468
-1.8118926 0.17812653 1.468455
0.77290851 0.16590641 1.4776181
-1.8062328 0.2154398 1.4840858
-1.7912214 0.22581363 1.46641
0.76413852 0.22073683 1.4821613
-1.8027933 0.25008497 1.4727967
-1.7917482 0.27684954 1.4756913
0.76262331 0.26407334 1.483168
-1.7830756 0.3234283 1.4729102
-1.6824797 0.32377741 1.4888266
-1.7673851 0.36406153 1.4785758
-1.7383907 0.38992208 1.483772
-1.6297486 -0.51840305 1.5314596
-1.5721432 -0.52596802 1.5225359
-1.524217 -0.53615075 1.5241898
-1.4789424 -0.54047906 1.535346
-1.4256599 -0.542638 1.5210087
-1.3795341 -0.53889233 1.5145651
-1.3269638 -0.53300923 1.5265964
-1.2757334 -0.5174337 1.5214483
-1.246822 -0.51542652 1.5024395
-1.6058096 -0.48012191 1.523236
-1.5948286 -0.46108183 1.5399101
-1.1558634 -0.49845511 1.5284686
-1.1207663 -0.49089715 1.515998
-1.0757931 -0.49055725 1.5326046
-1.024881 -0.48548773 1.5245298
-0.97000223 -0.48574263 1.5274497
-0.92414463 -0.48585477 1.5226917
-0.87446362 -0.48591831 1.5203021
-0.82615852 -0.48475 1.526517
-0.77437466 -0.48507455 1.5151824
-0.72357225 -0.48648167 1.523198
-0.67825669 -0.48523927 1.5246861
-0.62455064 -0.48418155 1.5214953
-0.57388657 -0.4825252 1.5178467
-0.52997673 -0.48416695 1.5243835
-0.47219232 -0.48294461 1.5237819
-0.42468348 -0.48190126 1.5235136
-0.37262577 -0.482968 1.522929
-0.32425946 -0.48057014 1.5183059
-0.27319393 -0.48020715 1.5234966
-0.22535148 -0.48068967 1.5283055
-0.17591701 -0.47972825 1.5274689
-0.12504628 -0.48342639 1.5255289
-0.072058082 -0.48784214 1.5162433
-0.022777909 -0.49142614 1.5197788
0.020739367 -0.49118528 1.5257807
0.079319239 -0.49026403 1.5187126
0.12760752 -0.49294156 1.5285109
0.18235904 -0.49102741 1.5171553
0.22246584 -0.49068242 1.5208147
0.27422199 -0.49163321 1.5180001
0.30685955 -0.49164355 1.5268781
0.37656984 -0.48737511 1.5152743
0.4654392 -0.49059898 1.5359402
0.52434111 -0.48700485 1.5292176
0.56004417 -0.48347533 1.5248549
0.69251293 -0.47701058 1.5252067
0.72358578 -0.47657442 1.5277101
-1.6004021 -0.44999868 1.5172994
-1.5923243 -0.42485943 1.5298167
0.82885623 -0.43152672 1.5197368
-1.6213586 -0.36676452 1.5216701
-1.5945015 -0.39496034 1.5283839
-1.7233853 -0.30634302 1.501662
-1.6696625 -0.31975946 1.5231256
-1.6461914 -0.34414142 1.538281
-1.7220392 -0.27467594 1.5137645
-1.6829745 -0.27825624 1.5291404
-1.7203733 -0.22321074 1.5253192
-1.6858164 -0.23376887 1.5359936
-1.7655439 -0.16261584 1.5239892
-1.7219632 -0.17514074 1.5356331
-1.8207026 -0.11490984 1.5215082
-1.7753515 -0.12007829 1.5212234
-1.7343608 -0.1255437 1.5379797
-1.7750539 -0.071355432 1.5252395
-1.7380594 -0.092360429 1.5481637
-1.80015 -0.0094959484 1.5269897
-1.783367 -0.027684117 1.525416
-1.8137954 0.021247422 1.5334746
-1.7972533 0.00096529385 1.5439608
-1.8308773 0.070613071 1.5362651
-1.8470623 0.11330827 1.5432713
-1.8382823 0.17113484 1.5263991
0.78698826 0.17651574 1.5258777
0.80128646 0.15202957 1.5334296
-1.8201339 0.21427062 1.5280863
-1.7797455 0.22646812 1.5349132
-1.7418795 0.23972368 1.5372586
0.77501947 0.22311385 1.5219921
-1.8005092 0.25262502 1.5090803
-1.7794609 0.27269289 1.5243217
-1.7366735 0.2792753 1.5332128
0.76920611 0.27180004 1.5215553
-1.7726105 0.31898659 1.5130156
-1.7262056 0.32469851 1.5204066
-1.7538778 0.36475357 1.507095
-1.7260317 0.37400046 1.5271823
-1.7092427 0.40431851 1.5260993
-1.615201 0.42411011 1.527445
-1.5840749 0.4262366 1.5404311
-1.6163542 0.45613694 1.5303771
-1.5720509 0.46684134 1.5357233
-1.5338104 0.48667318 1.5038183
-1.5353214 0.51002055 1.5474734
-1.6358045 -0.51582175 1.5860286
-1.5793211 -0.52503306 1.5703154
-1.5186981 -0.5359661 1.5789942
-1.4666973 -0.54032469 1.5800892
-1.4290165 -0.54387534 1.56672
-1.3789366 -0.53972548 1.5679369
-1.3273993 -0.52692491 1.5607338
-1.2784274 -0.51831847 1.5622989
-0.013695464 -0.50194395 1.5930876
-1.6041464 -0.49044076 1.5696951
-1.5910525 -0.46751022 1.5791755
-1.1213036 -0.49198025 1.5624361
-1.0781329 -0.491741 1.5854963
-1.031459 -0.48788297 1.573071
-0.97753859 -0.48738971 1.5778874
-0.92146522 -0.48675206 1.5777211
-0.87842828 -0.48483336 1.5708314
-0.82720888 -0.48643932 1.5762104
-0.7735967 -0.4877319 1.5748596
-0.72965366 -0.48523182 1.5691097
-0.67862642 -0.48734611 1.5790424
-0.62485659 -0.48447973 1.5751116
-0.58125031 -0.4843612 1.5704508
-0.52728897 -0.48409012 1.5702901
-0.4776305 -0.48306423 1.5742407
-0.42393351 -0.4827424 1.5741165
-0.37748194 -0.48236597 1.5744495
-0.3257024 -0.48267427 1.5746567
-0.27742451 -0.48168793 1.5799953
-0.22579904 -0.48209196 1.5828288
-0.17589666 -0.48118895 1.5663779
-0.12490164 -0.48481315 1.576352
-0.071089149 -0.49214125 1.5705169
-0.029964145 -0.49618316 1.5635068
0.022038197 -0.4954257 1.5775807
0.079697691 -0.49496108 1.5771506
0.1217386 -0.49451226 1.5769179
0.16924599 -0.4931674 1.5749856
0.28955534 -0.49736491 1.5605034
0.31937838 -0.49538037 1.550141
0.40672928 -0.49498421 1.5619683
0.48216304 -0.49190915 1.564925
0.53501427 -0.4887619 1.5712364
0.55790257 -0.48774475 1.5620818
0.68708324 -0.48098508 1.562606
0.72935504 -0.47967896 1.5699025
0.75366336 -0.47882622 1.5648583
0.83538604 -0.45231253 1.5873547
-1.584213 -0.42538753 1.5767863
0.84040838 -0.44406852 1.5689675
0.85734183 -0.4358308 1.5839999
-1.6120602 -0.36299285 1.5703732
-1.5930722 -0.38737756 1.5779773
-1.6564991 -0.32045794 1.5746096
-1.6356723 -0.34178036 1.5796845
-1.6724337 -0.27750343 1.5751992
-1.703425 -0.21628144 1.5642538
-1.6844957 -0.22721212 1.5783684
-1.7034323 -0.15330784 1.551296
-1.6919862 -0.1748496 1.577343
-1.838796 -0.13816181 1.5548613
-1.7129148 -0.12054127 1.5737845
-1.6948395 -0.14454021 1.5924054
-1.7559695 -0.054815423 1.5591129
-1.7324307 -0.074867211 1.5748457
-1.7655965 -0.021982299 1.5676712
-1.7458712 -0.03274643 1.5883043
-1.8067869 0.039845202 1.5581746
-1.7803466 0.018988455 1.5762774
-1.8177677 0.080067627 1.5714861
-1.793689 0.059563391 1.5889702
-1.8288292 0.12313492 1.5808998
-1.7976787 0.14023784 1.5979831
-1.8566036 0.18446212 1.558654
-1.8189085 0.16770253 1.5663801
-1.7886467 0.17489146 1.5777649
0.79351366 0.17784326 1.5536175
0.80949259 0.16444914 1.579905
-1.8221456 0.20376045 1.5536201
-1.765583 0.20399594 1.5564976
0.79747516 0.20412669 1.5687313
0.80213618 0.23235787 1.5946424
0.78912556 0.26800269 1.5839771
-1.7148778 0.34752145 1.5832202
-1.7080183 0.37653685 1.575011
-1.6843462 0.39223075 1.5902102
-1.622409 0.38135669 1.5792149
-1.581677 0.38803026 1.5824453
-1.5192703 0.39594242 1.5591757
-1.6578852 0.40305504 1.5655199
-1.5633225 0.41656658 1.5612758
-1.5359145 0.4263216 1.5826789
-1.5539154 0.46885559 1.5562247
-1.5303066 0.47313243 1.581553
-1.5570056 0.50383109 1.5532988
-1.5327355 0.50744355 1.5750087
-1.6198223 -0.51275408 1.6250366
-1.5681676 -0.52144527 1.6184403
-1.526539 -0.52991253 1.6246976
-1.4736207 -0.53645861 1.6293567
-1.4238013 -0.54105633 1.6169685
-1.392777 -0.5368011 1.6189651
-0.078920856 -0.50199157 1.646769
-0.037832845 -0.50217658 1.6205307
0.026077289 -0.50479984 1.6291654
0.067698389 -0.50106204 1.6273782
0.11574546 -0.50337839 1.6498755
0.4321982 -0.50390071 1.6351738
0.53744841 -0.50172603 1.6464972
-1.6088014 -0.49824113 1.6128557
-1.5792291 -0.47043765 1.6250349
-1.0767298 -0.49135935 1.6266947
-1.0250338 -0.48933518 1.6253684
-0.97481632 -0.48598552 1.632398
-0.925946 -0.48593217 1.6340108
-0.87187058 -0.48682773 1.6220541
-0.82215917 -0.48864189 1.6330212
-0.77809507 -0.48621237 1.6247762
-0.72244418 -0.48625407 1.624028
-0.68221354 -0.4866519 1.6304293
-0.62654501 -0.48491198 1.6191865
-0.57661462 -0.4874593 1.6216133
-0.52730578 -0.48583356 1.6190592
-0.47488895 -0.48575881 1.6268116
-0.43320456 -0.48698321 1.6315147
-0.37194437 -0.48363358 1.6301308
-0.326704 -0.48189029 1.6232576
-0.27221704 -0.48300627 1.6223441
-0.22643971 -0.48280177 1.6274056
-0.17744313 -0.48347193 1.6215172
-0.12571467 -0.4914324 1.6350253
-0.082452752 -0.49753323 1.6209269
-0.046211541 -0.49856102 1.6363388
0.08866898 -0.4962967 1.6002133
0.11844228 -0.49746972 1.6302848
0.50840259 -0.49802795 1.6094875
0.58727151 -0.49670145 1.616613
0.60888535 -0.4970485 1.6440935
0.71863568 -0.48876682 1.6280636
0.77006882 -0.48519254 1.6279423
0.82217813 -0.46881998 1.6297894
0.86259651 -0.4539969 1.6418828
-2.0843778 -0.42560264 1.6373227
-1.5698217 -0.42079189 1.6257983
0.86812878 -0.43634102 1.6219214
-1.9758571 -0.37392125 1.6343184
-1.9369068 -0.36188254 1.6310579
-1.608403 -0.35553798 1.6249882
-1.5853132 -0.37952778 1.6253598
-1.6526265 -0.30459395 1.620204
-1.6357332 -0.32965752 1.6250627
-1.6676794 -0.27175823 1.625747
-1.6472161 -0.29162964 1.6365564
-1.6790829 -0.22385222 1.6255398
-1.9292754 -0.16742183 1.6295969
-1.6809483 -0.17841089 1.623641
-1.970096 -0.14714319 1.6448207
-1.7070353 -0.11274698 1.6237882
-1.6962627 -0.13577721 1.6294119
-1.7214876 -0.072982393 1.6216234
-1.7544742 -0.009724861 1.6042669
-1.7406691 -0.027167512 1.6291518
-1.764693 0.023766831 1.6233333
-1.7460436 0.00082636467 1.6361704
-1.8025472 0.092259839 1.6054301
-1.7900122 0.072349139 1.6242236
-1.807457 0.11550482 1.6206102
-1.7887013 0.13162865 1.6281801
-1.800216 0.1844472 1.6164471
-1.7750279 0.160643 1.6225371
0.82406223 0.17510025 1.6282504
0.80927604 0.22475083 1.6231909
0.80884039 0.25491643 1.6360627
-1.7067621 0.34905478 1.6051676
-1.6804777 0.34712869 1.6317276
-1.6218452 0.3443583 1.6400356
-1.6821965 0.36719176 1.6117235
-1.6261368 0.35979381 1.631649
-1.5713402 0.38180569 1.6202564
-1.5409081 0.39468926 1.6376251
-1.5187955 0.42507607 1.6234984
-1.510522 0.47509971 1.6249346
-1.5172954 0.50729686 1.6073229
-1.6129053 -0.51304662 1.6647974
-1.574646 -0.51158625 1.6770402
-1.5213054 -0.52305675 1.6744995
-1.4772443 -0.53426695 1.6778947
-1.4307909 -0.53563738 1.6777141
-0.10489596 -0.50194192 1.674351
-0.096708469 -0.50216186 1.6754169
0.025519019 -0.51021165 1.6796904
0.188959 -0.5147891 1.6829417
0.20677553 -0.51779675 1.6914525
0.30400449 -0.51142049 1.6898873
0.46933919 -0.509516 1.6881207
0.56066906 -0.50680166 1.6912041
0.6367498 -0.50482619 1.6817136
0.67322856 -0.50527889 1.6901021
-1.5645066 -0.47472906 1.6714262
-1.5470834 -0.46531165 1.6944807
-1.0530843 -0.49036181 1.6772555
-1.0231276 -0.48933545 1.6869403
-0.99421871 -0.48876491 1.697588
-0.92828673 -0.4876059 1.6795956
-0.87926745 -0.48662969 1.6733847
-0.83048886 -0.48847172 1.6759014
-0.77749455 -0.48552364 1.6723149
-0.73172826 -0.48651633 1.6789683
-0.67081481 -0.48700973 1.6711502
-0.62311554 -0.48838177 1.6689714
-0.57625353 -0.48845619 1.6718564
-0.52424943 -0.48594028 1.6739088
-0.47440702 -0.4848181 1.6788806
-0.42054302 -0.48587888 1.6669636
-0.37097165 -0.48562482 1.6782689
-0.32207859 -0.48536825 1.6769438
-0.27064493 -0.48479801 1.672873
-0.22946563 -0.48542753 1.6777261
-0.17000481 -0.48923692 1.6784347
-0.13285314 -0.49288568 1.6818126
-0.083638206 -0.49785578 1.6614913
0.5867973 -0.49977487 1.6596066
0.60203421 -0.49835539 1.6506124
0.69697797 -0.49734092 1.6534841
0.72770065 -0.49514437 1.6772301
0.77912408 -0.48659933 1.6680269
0.82591683 -0.47800139 1.679328
0.86836302 -0.46123785 1.6796122
-2.1229622 -0.43599558 1.6892157
-2.0649781 -0.41171944 1.6672982
-2.0403161 -0.40032834 1.6703798
-1.5561332 -0.42498279 1.6622083
-1.5438362 -0.42500508 1.6868316
0.88949472 -0.42816776 1.6750396
0.90007901 -0.41276586 1.6926427
-2.0539682 -0.36735514 1.6881387
-2.030654 -0.3759577 1.6774139
-1.9849757 -0.35711202 1.6524383
-1.5719061 -0.37254813 1.6732377
-1.5463667 -0.39440227 1.6888205
0.89847136 -0.38725111 1.6730181
0.90381265 -0.38360703 1.6840013
-2.018384 -0.32106534 1.676276
-1.9620432 -0.32944986 1.6543375
-1.6236849 -0.32538161 1.6663128
-1.5964205 -0.34535232 1.6837615
-2.0223634 -0.27541688 1.6798481
-1.9653658 -0.27240756 1.6593781
-1.9468209 -0.28394455 1.6524329
-1.6630977 -0.27601224 1.6700801
-2.0691128 -0.22062917 1.6922369
-2.0175853 -0.2227982 1.6735188
-1.9703561 -0.22326493 1.669741
-1.9483122 -0.24994238 1.6582887
-1.6828879 -0.22025065 1.6733816
-2.0748329 -0.1892989 1.6964216
-2.0251493 -0.17787309 1.6741738
