ply
format ascii 1.0
comment PCL generated
element vertex 1503
property float x
property float y
property float z
element camera 0
property float view_px
property float view_py
property float view_pz
property float x_axisx
property float x_axisy
property float x_axisz
property float y_axisx
property float y_axisy
property float y_axisz
property float z_axisx
property float z_axisy
property float z_axisz
property float focal
property float scalex
property float scaley
property float centerx
property float centery
property int viewportx
property int viewporty
property float k1
property float k2
end_header
1.4283643 2.4561615 4.5073261
-1.8220568 0.00030101018 4.5514908
-2.1118145 0.23311023 4.5541506
-2.1211882 0.35102513 4.5689735
-2.1246135 0.42183438 4.5720811
-2.1121712 0.52702254 4.5665212
1.6460934 0.59261543 4.5562654
1.5781997 1.6196294 4.5505772
1.5708823 1.8261895 4.5518398
1.5777817 1.8699722 4.5612497
1.5671854 2.0420144 4.5569701
-2.2084639 2.1652999 4.5907841
-2.215631 2.2354891 4.5821037
-2.2136052 2.2965329 4.5534477
-2.2009621 2.3351111 4.5791364
1.3362031 2.343416 4.595202
1.3858151 2.344799 4.5871077
1.4328721 2.3418941 4.5701809
1.4711943 2.3446853 4.5669026
1.5188463 2.3428779 4.5513339
-2.2070887 2.3670661 4.581614
1.2285625 2.3772407 4.5919104
1.2849681 2.3755488 4.5828743
1.3336312 2.3754568 4.5722909
1.3835305 2.3775177 4.565393
1.4270233 2.371475 4.5528321
1.4994375 2.3506918 4.5726156
-0.44874597 2.442121 4.5748739
-0.39958909 2.4343054 4.5634761
-0.2578249 2.4475889 4.5959353
-0.22132763 2.4421253 4.5870342
0.70236969 2.4495826 4.5656004
0.77958399 2.4418092 4.5970535
0.82901126 2.4450195 4.5968595
0.92554611 2.4443648 4.5819316
0.97590381 2.4492576 4.5836816
1.0871799 2.442071 4.5795259
1.1144083 2.4362993 4.5919905
1.1807175 2.427732 4.5857935
1.235934 2.4236417 4.5726123
1.2860105 2.4262378 4.5674262
1.3358179 2.4281845 4.5605545
1.3842292 2.4153214 4.5532494
-0.2320689 2.4529264 4.5528455
-0.17309049 2.4610598 4.5698738
0.065614343 2.4560239 4.5625815
0.1258067 2.4675519 4.583066
0.22027606 2.4524753 4.5524597
0.29178396 2.4532516 4.5509648
0.33970451 2.4553862 4.5525074
0.36514211 2.4662223 4.5712447
0.41260782 2.4637682 4.5637145
0.47345757 2.4570956 4.5740914
0.58485895 2.4602478 4.5979266
0.63220197 2.4568095 4.5868168
0.65513307 2.4525084 4.5763049
0.7268818 2.4512796 4.5659933
1.0151297 2.4561558 4.590703
1.0618944 2.4519086 4.5745878
1.1354783 2.4535999 4.5646782
1.1719356 2.4536541 4.5579009
-2.0982649 0.33139563 4.6380491
-2.1100733 0.35306823 4.6033611
0.42735493 0.39959577 4.6283188
-2.104048 0.42714903 4.6452851
0.42919159 0.43475354 4.6462183
1.6281011 0.60281199 4.64609
-2.2127316 2.3220785 4.6137571
1.0673914 2.3425534 4.6451817
1.1165462 2.3433337 4.6382799
1.165307 2.3432434 4.6292362
1.2247295 2.3402593 4.6116643
1.2764455 2.3375988 4.615766
1.3292947 2.3282735 4.6254678
1.422132 2.3399673 4.6296015
1.4714115 2.3400056 4.6181455
1.0244938 2.3875043 4.6456432
1.0668631 2.3779852 4.6291275
1.1167581 2.3804026 4.62535
1.1717472 2.3756649 4.6115036
-2.1665852 2.4040179 4.6123257
-0.47628272 2.4365926 4.6173048
-0.30880663 2.4473689 4.6482182
-0.28358886 2.4388418 4.6331453
0.054095376 2.4493043 4.6042147
0.63640779 2.448899 4.6267991
0.83544153 2.4395812 4.6420093
0.86547065 2.440593 4.6210084
0.92254955 2.4442468 4.6389446
0.97071409 2.4302125 4.6328955
1.0190969 2.4291463 4.6230874
1.0630126 2.4231832 4.6135902
1.1159513 2.4152865 4.6079435
1.153403 2.4171071 4.6047292
-0.30657381 2.4537296 4.6053104
-0.28234541 2.4521892 4.6035428
0.078606002 2.4650743 4.6336088
0.10267443 2.4628222 4.6290317
0.17486313 2.4595866 4.6213264
0.2346091 2.4541187 4.6091442
0.29454404 2.4524033 4.6034188
0.33194086 2.4623923 4.6203651
0.37996882 2.4605839 4.6142554
0.47948378 2.4521558 4.6468244
0.51546603 2.4501379 4.6401658
0.58971548 2.4563484 4.6455827
0.73404992 2.4511759 4.6205478
0.76106125 2.460062 4.634407
-2.0633683 -0.1423502 4.6882133
-2.0639191 -0.082889751 4.6904125
0.11799593 0.3144581 4.6993384
0.45392871 0.3810766 4.6732554
0.43266189 0.48324165 4.6808691
1.6119031 0.58214909 4.6738787
1.5892189 0.61730957 4.677969
1.6104681 0.6165005 4.6666174
1.5944111 0.66603613 4.6888371
1.6134111 0.67587131 4.6695557
1.5973666 0.71406984 4.6927748
1.6152012 0.7349807 4.6686544
1.6183286 0.78308618 4.6724396
0.93575013 2.3366442 4.6833959
0.96801329 2.3398724 4.6753578
1.0252305 2.3402395 4.6671929
1.0733783 2.3311367 4.6802387
1.1070921 2.3246756 4.6609931
1.1820829 2.3278387 4.6540456
-2.1753805 2.3717134 4.6731772
-2.1311235 2.396035 4.675519
0.84050971 2.3807292 4.6980057
0.87621188 2.3654857 4.6917019
0.92133343 2.3789275 4.6714935
0.97228962 2.3852384 4.6590719
1.0083289 2.3714771 4.6549745
1.3704847 2.356981 4.6771479
-2.1246767 2.4144757 4.6510334
-0.48038635 2.4332519 4.6664009
0.32373855 2.4432127 4.6954618
0.43385419 2.444375 4.6912365
0.49541014 2.4465978 4.6911068
0.53259349 2.4488544 4.6924906
0.59338081 2.4471359 4.6838527
0.6291272 2.4434423 4.6732759
0.68345833 2.4402368 4.680469
0.71255493 2.4363616 4.6507716
0.79270416 2.4337227 4.6933589
0.82562292 2.4243937 4.6823707
0.87655383 2.4154701 4.67524
0.92362094 2.4225817 4.6537223
-0.38208985 2.4512486 4.6516428
0.054747097 2.4544744 4.6689773
0.11588418 2.4629989 4.6843762
0.16418403 2.4561772 4.6703467
0.23755749 2.4604361 4.6761632
0.27437612 2.4630895 4.6797647
0.34692541 2.4588668 4.6682115
0.39614516 2.4622254 4.6717629
0.44317031 2.452703 4.6505089
0.5699932 2.4517717 4.6949444
0.74367863 2.4587338 4.69067
0.77936876 2.4550567 4.6792555
-2.0591094 -0.12722805 4.7200007
-2.0560358 -0.08356221 4.7343349
-2.0642834 -0.035509415 4.7225647
0.084403038 0.32609135 4.7049813
0.13406235 0.33211696 4.7367425
0.17525195 0.32781166 4.7283573
0.21967825 0.32662314 4.7098927
0.25383323 0.32710803 4.7157822
0.084950238 0.37342885 4.7325697
0.13033137 0.37381554 4.737072
0.17518581 0.37285596 4.7239938
0.21995801 0.37214452 4.713697
0.254154 0.37268215 4.7195373
0.41381049 0.38545597 4.7297225
-0.039636008 0.4087854 4.7479067
0.073930092 0.42031455 4.74891
0.13051313 0.4196893 4.741096
0.17543066 0.41861796 4.7279768
0.22044994 0.41818506 4.7218637
0.25412506 0.41780949 4.7165117
0.46072373 0.40952918 4.7419519
0.096609302 0.45423606 4.7450299
0.13052966 0.47645667 4.7380853
0.17568749 0.47586823 4.7313113
0.22089987 0.47567442 4.7279725
0.25460449 0.47516835 4.7218766
0.46138242 0.47845718 4.7445121
0.096809082 0.54620391 4.7485576
0.13069648 0.53385293 4.7401662
0.17594914 0.53331482 4.7344141
0.22102384 0.53258592 4.726757
0.25485569 0.53224236 4.7225828
0.096851304 0.58059514 4.747963
0.13096486 0.58043039 4.7460551
0.18000485 0.57579738 4.7384562
0.22087176 0.57749194 4.7198291
0.25509495 0.57808578 4.7235122
0.25557488 0.61323166 4.7295856
1.336964 0.61902714 4.7457266
1.422912 0.66773021 4.739408
1.4736228 0.68123502 4.7409563
1.5194308 0.68073177 4.7272797
1.5632204 0.67937779 4.7073479
1.4243393 0.70357019 4.7406855
1.465444 0.71048254 4.7248745
1.5143064 0.71144223 4.7211604
1.5645744 0.71512485 4.7077932
1.6023418 0.75151932 4.7036042
-2.1844227 2.2304258 4.7249556
-2.193969 2.2790012 4.731329
-2.1780674 2.341526 4.7427459
0.73189843 2.3373966 4.7408953
0.78117371 2.3376417 4.7357025
0.82917893 2.3342843 4.7228317
0.87704456 2.3309021 4.7095375
0.91442198 2.3324015 4.7074823
0.98976976 2.3364513 4.7047696
1.0143425 2.3364203 4.7008781
-2.1807356 2.396497 4.7282953
0.68871546 2.3850682 4.7441964
0.73235869 2.3758435 4.7306089
0.77980715 2.3704004 4.7140522
0.82412791 2.3643157 4.7060065
-0.31222451 2.4499569 4.7089982
0.20202509 2.4483149 4.7102299
0.3856765 2.4487312 4.7027016
0.49853495 2.4374011 4.7299757
0.53679061 2.4434752 4.7388105
0.58587837 2.4422934 4.7322645
0.63865614 2.4316773 4.725687
0.67922831 2.4215927 4.7209611
0.73270893 2.4262035 4.7145472
0.77703714 2.419589 4.7059054
-0.26417226 2.458674 4.7279367
-0.2272411 2.4577422 4.7275248
-0.19015291 2.4551315 4.7236977
0.079761527 2.4522133 4.7203794
0.11668375 2.4550533 4.7252817
0.16591311 2.457139 4.7282333
0.22703074 2.4540186 4.7203932
0.25250381 2.4631698 4.7370911
0.32476714 2.4509141 4.7102156
-2.0380874 -0.095842585 4.7555027
-2.0246899 -0.035907388 4.7883654
-0.13161562 0.29786214 4.7944398
-0.10814761 0.31911531 4.7691107
-0.085574694 0.34277096 4.780447
0.27955323 0.33087695 4.7689657
0.37070203 0.33075672 4.7636251
-0.085848801 0.37825418 4.7940407
0.28136495 0.36743975 4.7982278
0.38144052 0.37572819 4.75243
1.2966682 0.3991307 4.7941613
1.3283165 0.39807495 4.7749357
1.3630944 0.39798349 4.7671189
-0.07437221 0.42393321 4.7898316
-0.028460819 0.4341616 4.7759852
0.017200658 0.43357641 4.7695856
0.073977277 0.42063844 4.7525549
0.39667311 0.42539585 4.7959433
0.41905993 0.42478997 4.7877808
0.46238467 0.4338358 4.75771
1.2909939 0.43241614 4.7711082
1.3272097 0.43281609 4.7688265
1.3640957 0.43340552 4.768527
-0.070592672 0.46623871 4.7903562
-0.028502163 0.46913373 4.7809386
0.017220758 0.4683319 4.7728109
0.069531038 0.46909061 4.7568951
0.39708814 0.46036041 4.7988715
0.41987091 0.46010861 4.7949562
0.46180624 0.4560948 4.7503495
1.2925949 0.47978956 4.7739916
1.3261645 0.47921866 4.7620687
1.363425 0.46829888 4.7639341
-0.028561167 0.51579642 4.7861571
0.017223272 0.52559489 4.7702575
0.071283236 0.52122176 4.7562957
0.39735484 0.52976221 4.7974
0.42719606 0.5210411 4.7867389
0.46365821 0.51515818 4.7655401
1.2932777 0.52682328 4.7731724
1.3283681 0.52683473 4.7666178
-0.026297618 0.56932163 4.7889853
0.0172788 0.58461237 4.7813568
0.062943824 0.58295518 4.7675276
0.16530396 0.59254241 4.7503467
0.39768359 0.57631469 4.7978306
0.43156254 0.57539129 4.7882199
0.46617785 0.56401169 4.7880068
1.29515 0.57449585 4.7764177
1.3301359 0.57440287 4.7692924
0.17790905 0.61969411 4.7818279
0.22291373 0.61709487 4.7605076
0.39804 0.62295938 4.7983694
0.43151367 0.63286376 4.7830048
0.46553195 0.6321696 4.7756848
1.2902547 0.626679 4.7843289
1.3168974 0.62056482 4.7619972
0.39842927 0.69284999 4.7967987
0.42869243 0.67664367 4.7907348
0.46717972 0.68055177 4.7884083
1.229604 0.68260133 4.7981367
1.2752833 0.67012858 4.7858005
1.3308414 0.66852939 4.7635059
1.3799244 0.66959524 4.7620296
1.4768257 0.65917861 4.7535276
0.39822352 0.71557426 4.7920842
0.43744457 0.73223346 4.7966232
0.4684574 0.71710169 4.7981725
1.1812525 0.71710783 4.7973452
1.2272345 0.72434109 4.784657
1.2755443 0.71727645 4.7821369
1.3284185 0.71555513 4.7770052
1.380855 0.70529664 4.7617898
0.3991594 0.76352888 4.7986355
0.43023396 0.77165288 4.7985964
1.1581823 0.75265217 4.799356
1.226886 0.76327115 4.7791271
1.2771057 0.77464789 4.7663789
1.3292714 0.75975627 4.7634683
0.39964011 0.83394229 4.7967668
0.42952299 0.82431537 4.7848544
1.2708106 0.8329652 4.7827477
1.3141001 0.82517737 4.7760334
0.39961794 0.85705954 4.793798
0.43419075 0.86831069 4.788537
1.277797 0.88343191 4.7718301
1.3135514 0.87194371 4.7683549
0.43503225 0.91639525 4.7921162
0.43589437 0.95307046 4.797081
0.43274251 1.032303 4.7946935
0.44932783 1.0736367 4.799428
0.45009634 1.1456151 4.7968078
-2.1777513 2.2631407 4.7712383
-2.1689193 2.3155859 4.7800612
0.58258182 2.3387327 4.7784228
0.62409568 2.3359587 4.7789178
0.67783642 2.331347 4.770051
0.73368824 2.3184419 4.7612238
-2.1601448 2.3633449 4.7647591
-2.1282463 2.3714643 4.7946749
0.518866 2.3732605 4.7949376
0.57547486 2.3764148 4.7768984
0.63581204 2.3829644 4.7551003
0.67208356 2.3679197 4.7505255
0.12969548 2.4446335 4.7617788
0.22881469 2.4485562 4.7667327
0.27798134 2.4460161 4.7598882
0.31216002 2.4390337 4.7831893
0.36989555 2.4385073 4.7791705
0.41597533 2.4337535 4.7863617
0.46269315 2.4263768 4.7803483
0.51403832 2.4154778 4.7723641
0.56374896 2.4162188 4.7697678
0.61259222 2.4258437 4.755332
-0.36586753 2.4567089 4.776422
-0.29199541 2.4614127 4.789288
-0.21694911 2.4560537 4.7817307
-0.17557383 2.4637439 4.7787871
-0.093136773 2.461489 4.7952318
0.080881007 2.4617388 4.7958879
0.10543134 2.4545062 4.7814507
0.1672121 2.4518363 4.7749639
0.20434885 2.4516983 4.7736626
0.25393268 2.4523253 4.7731647
0.32833767 2.4531322 4.7714543
0.3528432 2.4512687 4.7665505
0.41495651 2.4526072 4.7655268
0.4766762 2.4515741 4.7593274
-0.16693377 0.29956758 4.8211732
-0.20196319 0.32337427 4.8307743
-0.16690528 0.33407173 4.8189383
-0.12455644 0.33758342 4.8149223
0.31647217 0.33371022 4.8085256
0.35055918 0.33330169 4.8012204
-0.20211709 0.38140857 4.8316903
-0.16699563 0.38034672 4.8190722
-0.12062179 0.37945414 4.8088012
0.2821297 0.39146242 4.8100729
0.3173295 0.38075811 4.8194132
0.35914016 0.38408411 4.8107338
-0.20273583 0.4289456 4.8439217
-0.16757345 0.42790973 4.8332181
-0.12072338 0.42579177 4.8101773
0.28253859 0.42661583 4.8151016
0.3176457 0.42731884 4.8215995
0.36340728 0.42682672 4.8139524
-0.20288838 0.47566015 4.8447142
-0.16757444 0.47415099 4.8302398
-0.12084686 0.47231737 4.812386
-0.086201794 0.48337314 4.8076315
0.28243989 0.47258145 4.8105865
0.3179478 0.47397023 4.8233805
0.37021202 0.47513685 4.8091626
0.42046899 0.48379949 4.8002939
-0.2029019 0.52208632 4.8418894
-0.16774778 0.52096659 4.8323002
-0.12095021 0.51881456 4.8132486
-0.074728556 0.51810974 4.8073215
0.28277177 0.51926041 4.8131142
0.31830028 0.52077305 4.8255467
0.37074116 0.51740211 4.8133335
-0.20316386 0.56923926 4.8446913
-0.16818205 0.56876075 4.8414602
-0.12122318 0.56627393 4.8212652
-0.074851476 0.56501961 4.811203
0.28292274 0.56571507 4.8122606
0.3183465 0.56715608 4.8229604
0.37080854 0.56830251 4.8103895
-0.11016912 0.60367239 4.8406644
-0.075147107 0.60194385 4.8272333
-0.040412717 0.60200679 4.828023
0.087146357 0.62682676 4.8385491
0.1332278 0.62523097 4.8255382
0.28400204 0.62584388 4.8258905
0.31876573 0.62585127 4.8245254
0.36926156 0.62776649 4.8112197
0.46797487 0.60082722 4.803699
0.18429196 0.67480832 4.8436794
0.22932681 0.67963415 4.8433485
0.27048698 0.67781979 4.8289733
0.31913882 0.6845811 4.8249211
0.37150314 0.68048286 4.809989
0.44518396 0.69374353 4.8003016
1.0353403 0.66806811 4.8389516
1.078231 0.67179739 4.8308454
1.1245201 0.67130041 4.8200569
1.1709735 0.67093688 4.8098936
1.2144765 0.66722029 4.8045163
0.16875984 0.72125918 4.8391943
0.22719371 0.7338255 4.8425646
0.27331477 0.73255575 4.832612
0.31906787 0.73084325 4.8194852
0.37185124 0.7320286 4.8092628
0.4221347 0.71698803 4.8002462
0.99715436 0.73173118 4.8437262
1.0328697 0.72015411 4.8414321
1.0785702 0.71916234 4.827827
1.1251602 0.71881413 4.8182201
1.1593459 0.71808946 4.8078165
0.27390778 0.78076923 4.8383708
0.3195878 0.77853918 4.8226776
0.37165564 0.77794898 4.8019166
0.44604799 0.78776485 4.8001699
0.99586153 0.75435346 4.835021
1.032558 0.7553283 4.8362751
1.081671 0.75670421 4.8381462
1.1267989 0.75525665 4.8216243
1.1828265 0.75337577 4.8000941
0.28619987 0.8292172 4.8435774
0.32033905 0.82693553 4.8287649
0.3727321 0.82205361 4.811512
0.44658557 0.81191111 4.8033977
0.27478158 0.87677532 4.8432169
0.32073238 0.87462115 4.8293953
0.36600226 0.87133741 4.809134
0.40057734 0.88233644 4.8025198
0.23234475 0.9291175 4.8472462
0.2712445 0.92085868 4.8445106
0.32124558 0.92274487 4.8314095
0.36706123 0.92045665 4.8172207
0.4009921 0.91812134 4.8031526
0.24041511 0.9613868 4.8482275
0.27540544 0.97249663 4.8423605
0.32161379 0.97054935 4.8307514
0.36747679 0.96816063 4.8166189
0.41950247 0.97292227 4.8076897
0.23297441 1.0255815 4.8478017
0.27576336 1.0207026 4.842268
0.32172418 1.0176604 4.8259277
0.36785519 1.015874 4.8152633
0.41003156 1.0103927 4.8059702
0.24107803 1.0580944 4.8486109
0.27614474 1.0573757 4.844059
0.32636297 1.0629326 4.8304424
0.36832267 1.0639594 4.8147297
0.4189699 1.0834004 4.8089371
0.45037517 1.0995343 4.807085
0.26460707 1.1052035 4.8411665
0.3234455 1.1172137 4.8380499
0.36954528 1.1143699 4.8234916
0.41326761 1.1285009 4.8087568
0.4500666 1.12216 4.8001814
0.32813907 1.1630634 4.8424568
0.37279135 1.1711709 4.82652
0.41635647 1.1844852 4.8085818
0.45147568 1.1843181 4.8057842
0.33694142 1.21754 4.8472028
0.37120762 1.225451 4.8281031
0.41805103 1.2363619 4.8200693
0.45283026 1.223143 4.8143005
0.28975973 1.2534026 4.8447824
0.32550383 1.2663246 4.8453736
0.36904913 1.2779924 4.8217745
0.41825348 1.2841054 4.8142033
0.45453519 1.2749448 4.8241749
0.33788621 1.3157933 4.8441815
0.37681958 1.3335085 4.8312283
0.41934216 1.3347235 4.8181562
0.45485866 1.3231376 4.8190823
0.33824718 1.3527923 4.8427763
0.37359971 1.3756433 4.8333683
0.41661301 1.3820065 4.8240552
0.33943534 1.4170978 4.8483109
0.37038037 1.4180288 4.8356214
0.42554414 1.4170457 4.8291516
0.34003738 1.455398 4.8497643
0.37541506 1.4657891 4.8403978
0.4226968 1.4644433 4.8333149
0.37641776 1.5174942 4.8433428
0.42325804 1.5141065 4.8298416
0.32921392 1.5680422 4.8438582
0.37710506 1.5681422 4.8417611
0.42448646 1.5663129 4.833437
0.34214917 1.6084999 4.8490076
0.37786561 1.6193166 4.8408432
0.42515907 1.6166914 4.8303022
0.4263857 1.669436 4.8331447
0.39254704 1.7391498 4.8476973
0.42756304 1.7101872 4.8378978
0.38491186 1.7813898 4.8434162
0.42537299 1.7819954 4.8427353
0.38150418 1.8286983 4.840076
0.41770679 1.8281281 4.8365197
0.38260159 1.8825452 4.8410988
0.41932601 1.8838488 4.8423595
0.38737234 1.9306692 4.8376961
0.41987526 1.9349912 4.8353624
0.38037837 1.9688945 4.843235
0.42087105 1.976184 4.8365312
0.38555899 2.019515 4.8441982
0.42240417 2.0201364 4.8435373
0.34993282 2.0748811 4.8466296
0.3862958 2.072397 4.8388457
0.42362404 2.0750828 4.8429732
0.32674628 2.1452365 4.8493028
0.37500802 2.1270254 4.8371725
0.42521551 2.1321878 4.8461027
0.32686612 2.1706975 4.8433342
0.36398494 2.1838148 4.8392425
0.4126679 2.1803122 4.8286805
-2.1606653 2.2463875 4.8095188
0.32784304 2.2143149 4.8459139
0.36429977 2.2227755 4.8315258
0.41443622 2.2267075 4.8372426
-2.1445227 2.2831128 4.831491
0.32036105 2.2651041 4.8430009
0.36543003 2.2668743 4.8342705
0.41490155 2.2663927 4.830409
-2.147275 2.3254595 4.8232288
0.33001924 2.3286626 4.844862
0.3661204 2.3208218 4.8266139
0.4157331 2.3205874 4.823245
0.46242556 2.3308449 4.8315921
0.51566887 2.3361645 4.8186345
0.55119038 2.3287396 4.8003712
-2.1275599 2.3721733 4.8323035
0.28111625 2.3736155 4.8496509
0.32235554 2.3790553 4.8389564
0.36780646 2.3812993 4.8312445
0.41659132 2.375216 4.8159828
0.46578544 2.3724728 4.8071589
0.50260174 2.3579679 4.8046498
-2.1032729 2.400876 4.8358841
-2.0922246 2.4145114 4.8003645
-2.043252 2.4186332 4.8259678
-0.34316388 2.4469121 4.8165064
-0.2175532 2.4380169 4.8042397
0.10608357 2.4447236 4.8201933
0.18107547 2.4470026 4.823081
0.22296135 2.4416733 4.8308043
0.26871863 2.4244196 4.834013
0.31451494 2.4161308 4.8350992
0.36749309 2.4167345 4.8139334
0.41654572 2.4122322 4.8020396
-0.31977409 2.459012 4.8415713
-0.28207171 2.4584727 4.8421893
-0.16885878 2.4532871 4.8357816
-0.12697214 2.4581616 4.8268638
-0.093951918 2.4579637 4.8464775
0.13150263 2.4536414 4.8373332
0.15633237 2.4504697 4.8305449
-0.22831824 0.4803471 4.8918428
-0.22818056 0.53859788 4.8848839
-0.22703934 0.57084203 4.8578219
-0.16941971 0.60797489 4.8740473
-0.13371889 0.60518843 4.8524351
-0.029176153 0.63292968 4.8861175
0.017597452 0.6308924 4.8704276
0.052601602 0.63008356 4.864028
0.029453296 0.66930789 4.8918138
0.076203421 0.66766137 4.8794389
0.13450438 0.66626394 4.8684678
0.18109474 0.66569638 4.8633499
0.21559143 0.65238619 4.8513618
0.88514829 0.68917531 4.8965983
0.91869205 0.67576051 4.8822274
0.96507907 0.67503619 4.8709054
1.0080258 0.6786831 4.8625493
0.076533794 0.71360707 4.896069
0.12792277 0.71797925 4.8817568
0.18116608 0.73024124 4.8592577
0.87282735 0.72446114 4.8921618
0.91777545 0.72245431 4.8728127
0.97101247 0.71919227 4.8599024
0.12348 0.77573723 4.8854623
0.18141147 0.78389627 4.8606462
0.22794615 0.78297299 4.8536415
0.88427168 0.7597087 4.8847098
0.90646225 0.7584185 4.8735094
0.96560794 0.7583549 4.8654737
0.070795327 0.83077395 4.8929119
0.12808022 0.83146334 4.8751841
0.18152705 0.83118302 4.8583927
0.22816908 0.8305223 4.8532043
0.26321194 0.83037424 4.8512111
0.068925731 0.88097477 4.8934298
0.12378869 0.88376552 4.8859868
0.18202704 0.88044143 4.8663363
0.22859167 0.87895155 4.8568668
0.069018118 0.9295972 4.8952041
0.12386621 0.93127626 4.8821325
0.18235371 0.92907125 4.86938
0.21686967 0.91406578 4.8527117
0.28759354 0.93887889 4.854445
0.077070035 0.99480379 4.8977327
0.12427977 0.98190421 4.8933463
0.18279517 0.97845924 4.8749695
0.22546631 0.98003864 4.8616166
0.12443793 1.0304774 4.8928504
0.18283837 1.0258847 4.8698483
0.2178369 1.0123147 4.8619976
0.13637803 1.0786254 4.8893466
0.18358284 1.0773776 4.8826504
0.22585802 1.0759374 4.8565507
0.27703425 1.0843325 4.8560982
0.31235421 1.0842009 4.8540916
0.13085659 1.1354461 4.8964424
0.18390489 1.1267473 4.8843017
0.23070213 1.1236358 4.8694849
0.28127369 1.1248684 4.8553519
0.13683952 1.1773415 4.8909168
0.18362953 1.1724329 4.8695722
0.23068453 1.1708622 4.8616247
0.27763093 1.1693256 4.8536372
0.31307012 1.1811856 4.8505168
0.14104295 1.2230425 4.8920898
0.18434189 1.2246141 4.8809295
0.23123872 1.2210734 4.8654518
0.27835721 1.2197884 4.858676
0.31376487 1.2193222 4.8554029
0.14140369 1.2819314 4.8951669
0.18487354 1.2757699 4.886518
0.23195392 1.2724724 4.8725328
0.27506626 1.2741408 4.8615642
0.13036337 1.3292975 4.8914442
0.18510692 1.3251102 4.8841085
0.23268902 1.3241744 4.8792477
0.27933025 1.3191304 4.8590302
0.31474802 1.3181622 4.8539815
0.14187659 1.3740467 4.8953571
0.18549687 1.3757626 4.885498
0.23316491 1.3747154 4.8804331
0.28045198 1.3721833 4.8697643
0.32354972 1.3733734 4.8573165
0.17407925 1.4281807 4.892158
0.23339301 1.4239345 4.8759699
0.28057709 1.4205395 4.8626122
0.31606239 1.4190601 4.8561583
0.1792023 1.476424 4.8916774
0.23392445 1.4751629 4.8774667
0.2816031 1.4737211 4.8709769
0.32471371 1.4739414 4.8559017
0.18683043 1.5303144 4.8918133
0.23457372 1.5273397 4.8809137
0.28195518 1.5235167 4.8669877
0.32932758 1.5206902 4.8559208
0.19129868 1.5781937 4.8936553
0.2349565 1.5781163 4.8787475
0.28249961 1.574551 4.8660059
0.19169973 1.6380925 4.8915744
0.23527664 1.628476 4.8744874
0.28332657 1.6273184 4.8692384
0.32713708 1.629455 4.8608737
0.17572044 1.6717179 4.8885159
0.23591785 1.6813226 4.876615
0.28429902 1.6813631 4.8749371
0.33181855 1.6770103 4.8602519
0.37981197 1.6758558 4.8544874
0.22471292 1.7243488 4.8874145
0.28507674 1.7344613 4.8766079
0.33274767 1.7301098 4.8622422
0.37649032 1.7232738 4.8531265
0.42929003 1.741232 4.8513784
0.22031227 1.7670329 4.8886328
0.28540501 1.7850308 4.8701448
0.33354726 1.7827801 4.8618937
0.36913067 1.7668235 4.852653
0.44197324 1.767809 4.8511815
0.17728226 1.8332753 4.8960009
0.2256092 1.8167936 4.8862467
0.28574899 1.8357958 4.8635125
0.33410925 1.8344026 4.8576431
0.17747012 1.8719387 4.8916035
0.22123536 1.8673723 4.8854256
0.27414122 1.8762816 4.8647594
0.33513606 1.8765779 4.8629045
0.17801359 1.9267802 4.8934174
0.21445243 1.9234573 4.883965
0.27536699 1.9212188 4.8761439
0.33577654 1.916826 4.8623343
0.4467212 1.9092067 4.8712983
-2.126235 1.9514086 4.893096
0.17844079 1.9683123 4.8950009
0.21501659 1.9778146 4.8835258
0.27082202 1.9702896 4.8697319
0.32903546 1.9716871 4.8572116
0.21579126 2.0342245 4.88694
0.26449844 2.0295422 4.8740039
0.3253701 2.0257897 4.8623672
0.17102623 2.0598085 4.8941503
0.21613124 2.0744166 4.8836317
0.26509044 2.0834401 4.8704305
0.31392962 2.0803714 4.8612113
0.17169225 2.1258926 4.8961968
0.21650074 2.115083 4.8808017
0.26560211 2.124557 4.8686938
0.31046006 2.1298742 4.857594
0.17218006 2.1817451 4.8947601
0.21713908 2.1709807 4.8799195
0.2661396 2.1660047 4.867012
0.30260259 2.1735613 4.8508554
-2.1360364 2.2224026 4.8697977
0.17246176 2.2267697 4.8893552
0.21779834 2.227308 4.8787956
0.26700726 2.222743 4.867034
0.30365801 2.218339 4.8558664
-2.1301746 2.2827308 4.8721981
0.18138014 2.2759531 4.8920169
0.2181168 2.2679725 4.8737679
0.26791805 2.2802501 4.8674269
0.30472195 2.2883089 4.8524041
-2.1288795 2.3208923 4.8549342
0.13190156 2.3354394 4.8962073
0.16926384 2.3188834 4.8911629
0.21910627 2.3158004 4.8832464
0.2726475 2.3308091 4.8619947
0.30554596 2.3319275 4.852809
0.48122945 2.3249447 4.8584819
0.51893353 2.3259306 4.8577666
-2.1252408 2.3578861 4.8715563
0.081965201 2.3938441 4.8963666
0.1197733 2.3941007 4.8963237
0.16992971 2.3783481 4.8931255
0.21956737 2.3711128 4.8768249
0.2563405 2.3630056 4.8588657
-2.0741765 2.4130754 4.8736124
-0.044049758 2.446821 4.8839335
0.031629294 2.4356437 4.891428
0.069389321 2.4324358 4.8846827
0.11960785 2.4289284 4.8769879
0.16973791 2.425832 4.8696966
0.21580012 2.4218416 4.8701749
-0.34751096 2.4526236 4.8867497
-0.27166575 2.4525669 4.8901029
-0.24580455 2.4593451 4.8749323
-0.19546993 2.4733124 4.8745704
-0.081873417 2.4580207 4.8762727
0.0064110351 2.4547935 4.8999896
-0.22882435 0.31706253 4.9115019
-0.23001984 0.36593074 4.9350009
-0.2296486 0.43600231 4.9232464
-0.22891302 0.51683658 4.9022331
-0.26192743 0.5832321 4.9280982
-0.21916778 0.61643285 4.9406176
-0.16008605 0.64084899 4.945612
-0.12426583 0.63967478 4.9372139
-0.07663922 0.63744676 4.9206514
-0.16028182 0.66539496 4.9495912
-0.12429717 0.67537922 4.9353442
-0.072910964 0.67108989 4.9338422
-0.029401176 0.67275214 4.9169903
0.0060002543 0.67238486 4.9145365
0.69837314 0.68048644 4.9412546
0.73287988 0.67929214 4.9290848
0.77961248 0.67848957 4.9184074
0.82788092 0.6790303 4.9171743
0.87210435 0.6754902 4.9156966
-0.11250234 0.71128827 4.934772
-0.077077404 0.72443098 4.9428687
-0.029499128 0.72173381 4.9247065
0.017778931 0.71922123 4.9076533
0.064922474 0.71919823 4.9071646
0.67464787 0.72243083 4.9406075
0.73569274 0.72184902 4.9168696
0.78541225 0.72380471 4.9252634
0.82930827 0.7279492 4.921237
-0.11290962 0.78524369 4.9454942
-0.077076025 0.77180982 4.9373279
-0.029504448 0.76974118 4.9243236
0.017842004 0.76901931 4.9197702
0.064967565 0.76677102 4.9051881
-0.077167317 0.82036549 4.9386048
-0.029590799 0.81948459 4.933701
0.017854864 0.81722504 4.9201484
0.053247623 0.81499785 4.9066124
-0.11316593 0.88241619 4.9460797
-0.077204682 0.86822391 4.9350376
-0.029574566 0.86665463 4.9264479
0.02022301 0.87180412 4.9145422
0.053315874 0.89884418 4.9034166
0.10046555 0.85024959 4.901082
-0.11326987 0.91902745 4.9462919
-0.077293649 0.91683364 4.9348478
-0.029619433 0.91548324 4.927949
0.013945248 0.91799885 4.919785
0.05343128 0.94820601 4.9081631
-0.12538511 0.96823716 4.9475107
-0.077540077 0.96760333 4.9449677
-0.02968758 0.96495092 4.9317245
0.017934393 0.97502941 4.920917
0.06141087 0.98124963 4.9110694
-0.077574253 1.0158252 4.9406881
-0.02975666 1.0150369 4.9372177
0.013989642 1.0321494 4.9212136
0.065489426 1.0346818 4.9135509
-0.073734052 1.0616666 4.9441299
-0.029818382 1.0652034 4.9416857
0.023985805 1.0753157 4.9314461
0.065699734 1.0856307 4.9221487
0.10116696 1.0821552 4.9059048
-0.029866308 1.1146827 4.9417968
0.01563929 1.1290867 4.9289541
0.065609723 1.1317779 4.9081106
0.11308987 1.1181726 4.9019604
-0.025893239 1.1592199 4.9376421
0.018038101 1.1844299 4.9216709
0.065733321 1.1816602 4.9098654
0.10136744 1.1796283 4.9010372
-0.066083729 1.2275794 4.9447951
-0.029963885 1.2143173 4.9420023
0.018071596 1.2347116 4.9234409
0.065898232 1.2324685 4.9142399
0.10959435 1.2345248 4.9053893
-0.030014515 1.2653013 4.9452138
0.022139506 1.2827874 4.9318218
0.06610664 1.2845032 4.9220343
0.10980561 1.2768561 4.9081964
-0.017999664 1.3154211 4.9440422
0.018167323 1.3251169 4.9330516
0.066143252 1.3332274 4.9160829
0.10204075 1.3194219 4.9112034
-0.018048795 1.3673704 4.948575
0.014166174 1.3677692 4.934742
0.066299744 1.384583 4.91889
0.11014973 1.3848587 4.9043803
-0.018071646 1.4175161 4.945507
0.018226698 1.4144673 4.9348135
0.070551924 1.4335384 4.9269319
0.11449409 1.4333377 4.911068
-0.018099118 1.4560394 4.9457846
0.018274643 1.4669758 4.9392781
0.066579118 1.4750483 4.9230599
0.11466904 1.4836799 4.9085331
0.15072642 1.4944519 4.9012127
0.018314241 1.5194731 4.9424057
0.062666826 1.5181665 4.9239497
0.11498678 1.524055 4.9145756
0.15124741 1.5359073 4.910573
-0.018180955 1.5722063 4.9450197
0.018344492 1.5704089 4.9393454
0.066810086 1.5649936 4.9220448
0.11277554 1.5704875 4.9143305
0.16344443 1.5852938 4.9029741
0.018400379 1.6234084 4.9417706
0.067055956 1.6197739 4.9303865
0.11943587 1.618506 4.9126449
0.15970346 1.616569 4.9060168
-0.018288113 1.6916589 4.9489784
0.022506967 1.6712533 4.9407272
0.067206472 1.672179 4.9302063
0.11569894 1.6674846 4.9157534
0.15192288 1.664281 4.9056349
0.20050594 1.6764121 4.9016066
-0.01833217 1.744817 4.949028
0.018464707 1.7278535 4.9385829
0.067535602 1.7289072 4.9413218
0.11597943 1.7203155 4.9161277
0.16448767 1.717308 4.9065785
0.022637703 1.7791442 4.9453206
0.067534797 1.7786874 4.9313784
0.11630644 1.7741673 4.9182243
0.16493012 1.7707578 4.9078012
0.022670232 1.831521 4.9415698
0.067681551 1.8313745 4.9287605
0.11664587 1.8285497 4.9205003
0.16109751 1.8182802 4.904057
-0.018445635 1.8790526 4.9479952
0.014483306 1.8678069 4.9421916
0.067793667 1.8836769 4.9241958
0.11689705 1.8815663 4.9180212
0.15329999 1.8755563 4.9016223
-0.018465994 1.9058355 4.9468017
0.018624708 1.9164729 4.9389672
0.071977802 1.9307623 4.9169564
0.12125227 1.9306618 4.9160457
0.15375648 1.930338 4.9030361
-2.1211908 1.9971576 4.9425149
-0.018525748 1.9615749 4.9491296
0.018678406 1.9708537 4.9377832
0.064069606 1.9732786 4.9321213
0.11323369 1.9669539 4.9157166
0.16248041 1.9901175 4.9040656
-2.1179349 2.0203302 4.9269457
0.018744074 2.0282478 4.9428711
0.068311699 2.0223842 4.9282818
0.11750619 2.0150871 4.909852
0.16680035 2.0255499 4.9007325
-0.043605786 2.0728939 4.9494638
0.018792765 2.0832367 4.9407835
0.068613172 2.0809455 4.9350471
0.11793321 2.0721292 4.9134426
0.1549408 2.081542 4.9020605
-0.018655498 2.1000757 4.9474039
0.018817494 2.1237214 4.9367504
0.07286647 2.1295545 4.9280701
0.11836793 2.129523 4.9164968
0.15517321 2.1094921 4.9019938
-0.018712778 2.1565669 4.9471889
0.018865796 2.165828 4.9358225
0.064734064 2.1691217 4.9322658
0.11862943 2.1842895 4.9122658
0.15568024 2.1662042 4.902781
-2.1191692 2.2329297 4.9398341
-0.018801153 2.242152 4.9464397
0.018949369 2.2268498 4.9443946
0.069136448 2.2227652 4.9350352
0.11904427 2.229327 4.9171481
-2.1173882 2.270915 4.9218473
0.023207396 2.2790835 4.9427629
0.069243595 2.2766104 4.92661
0.11919168 2.269778 4.9111557
0.15665326 2.2674782 4.9054527
-2.1184981 2.338526 4.9006791
-0.018897247 2.3293743 4.946373
0.019022517 2.3243475 4.9356785
0.069397077 2.3318498 4.9202642
0.11526471 2.3210733 4.9071293
-2.1055439 2.3804803 4.9315143
-0.018942416 2.3729215 4.9450402
0.019056713 2.3797741 4.9286308
0.065242968 2.3799088 4.9082828
0.11972213 2.3680198 4.9032745
-2.0995274 2.400351 4.9074965
-0.4765605 2.4409215 4.9155474
-0.28610349 2.4425402 4.9294481
-0.23525336 2.4429104 4.9321318
-0.18456185 2.4456077 4.9391375
-0.13358742 2.444602 4.9382868
-0.086815625 2.4332714 4.9363017
-0.035908639 2.4228411 4.9357548
0.0064144921 2.4177539 4.9154205
-0.53000671 2.4529762 4.9360552
-0.4018749 2.4505394 4.9398379
-0.36261144 2.4568987 4.9246364
-0.32488671 2.4600573 4.9328728
-0.22157641 2.4577677 4.9023142
-0.18365693 2.4589274 4.9057493
-0.13321112 2.4634693 4.9159927
-0.069565594 2.4572713 4.9045801
-0.31580898 0.31001759 4.9847231
-0.26757547 0.3212924 4.9758806
-0.26831037 0.36989129 4.9871998
-0.31286538 0.42268547 4.9960403
-0.26835835 0.4176673 4.9856958
-0.23080681 0.40269044 4.9500742
-0.35320529 0.47915024 4.9977455
-0.30502227 0.45478162 4.9967513
-0.26850101 0.46564183 4.9855299
-0.26600567 0.52036655 4.9801149
0.53271753 0.51477218 4.9817467
0.56488317 0.51099771 4.9819236
-0.30560431 0.59952122 4.9962854
-0.28046736 0.5731715 4.978478
0.53258878 0.56250209 4.9771261
0.55716074 0.57513571 4.9802151
-0.30560756 0.63550067 4.9933968
-0.2688086 0.63351738 4.9791875
-0.22072273 0.64463943 4.9733438
-0.18439856 0.642874 4.9606929
0.55846602 0.64853078 4.9860659
-0.30599052 0.67230624 4.9965553
-0.26981688 0.67189693 4.9948721
-0.22098055 0.68125719 4.9760218
-0.17658556 0.68299723 4.9606133
-0.089077383 0.68975997 4.9529591
0.567204 0.68143493 4.9891009
0.61409849 0.68011332 4.9756203
0.66510278 0.68308163 4.9634581
-0.26634398 0.73733455 4.9988818
-0.21724035 0.73383015 4.9765983
-0.17300409 0.72831547 4.9677515
-0.12890068 0.73041552 4.9555244
0.53340614 0.71917462 4.971519
0.6286841 0.71850044 4.9594407
-0.27041471 0.78160024 4.9955115
-0.22203091 0.78053886 4.9903278
-0.17324015 0.77713609 4.9697599
-0.12906291 0.77106166 4.9575753
-0.2587193 0.83076191 4.9971943
-0.22197285 0.82836908 4.9839787
-0.17340624 0.82574511 4.969449
-0.12521082 0.82352912 4.9570904
-0.25849232 0.86611068 4.9887652
-0.2220889 0.87686425 4.9812517
-0.17362934 0.87467498 4.9700427
-0.12927283 0.86786431 4.9553103
-0.27148902 0.94162524 4.9974165
-0.22262317 0.92708969 4.9872298
-0.17399263 0.92455578 4.9748759
-0.13740385 0.92082733 4.9554882
-0.32027686 0.97942293 4.9989495
-0.27156946 0.97811824 4.9941916
-0.22259493 0.97517473 4.9807143
-0.17422655 0.97392792 4.9756351
-0.12563136 0.96994972 4.9562073
-0.25987157 1.015848 4.9972577
-0.22323497 1.0262531 4.9885168
-0.17461713 1.0243188 4.9804077
-0.12589608 1.0200466 4.9605732
-0.30911943 1.0915173 4.9995022
-0.27235603 1.0778438 4.9954748
-0.22354665 1.0760498 4.9887452
-0.17460492 1.0723619 4.9729471
-0.12603405 1.0692619 4.9595432
-0.089954153 1.08081 4.956213
-0.21999569 1.1228546 4.9933491
-0.17517155 1.124279 4.982295
-0.12644467 1.1209563 4.9685254
-0.078059077 1.1183333 4.9576044
-0.21238145 1.1779251 4.996419
-0.17571944 1.1762849 4.9904099
-0.12684307 1.172803 4.9766173
-0.078229085 1.1689458 4.9609046
-0.041995607 1.1788595 4.9503555
-0.21241632 1.2266951 4.9894214
-0.17579542 1.2253766 4.9849768
-0.12704948 1.2231176 4.9767656
-0.082285412 1.2137184 4.9561253
-0.17628363 1.2773552 4.9902983
-0.1272874 1.2739305 4.9779444
-0.078516692 1.2700326 4.9633379
-0.030078545 1.2673299 4.9531355
-0.22157146 1.326149 4.9971204
-0.17260551 1.3249621 4.993907
-0.12753132 1.325045 4.9791327
-0.078635745 1.3203888 4.962338
-0.04221911 1.3181273 4.9541092
-0.17702249 1.3804661 4.993885
-0.12769993 1.3753889 4.9764748
-0.078805298 1.371799 4.9641781
-0.042295314 1.368948 4.9541683
-0.17722766 1.430938 4.9901776
-0.12791395 1.4265735 4.975997
-0.078951143 1.422996 4.9641891
-0.042386755 1.420449 4.9556189
-0.17352198 1.4789938 4.9923234
-0.12822801 1.4789554 4.9784985
-0.079115562 1.4746916 4.9648457
-0.034373868 1.4763165 4.9562087
-0.16563873 1.534829 4.99053
-0.12860295 1.5323352 4.9831257
-0.079394162 1.5287776 4.9722543
-0.030386828 1.5241365 4.9575553
-0.17820448 1.5741534 4.9903393
-0.12875038 1.5831606 4.9783678
-0.079514399 1.5800408 4.9692459
-0.042645261 1.5756404 4.955678
-0.17850786 1.6138432 4.9909821
-0.12896009 1.634886 4.9755917
-0.079709537 1.6332046 4.9711657
-0.030540694 1.6293273 4.9597473
-0.16652644 1.6665065 4.9903364
-0.12917289 1.6745043 4.9754004
-0.075728156 1.6807805 4.9685326
-0.034675047 1.6773196 4.9585719
0.0062293177 1.6928278 4.9524193
-0.16715503 1.7223518 4.9976778
-0.12969355 1.7183568 4.9868422
-0.084145628 1.7178534 4.9731693
-0.034726113 1.7288603 4.9540811
-0.16757928 1.7764099 4.9984369
-0.13010043 1.7732446 4.9902611
-0.080214769 1.7669237 4.9731908
-0.030707214 1.7741015 4.9561458
0.0062561566 1.7991441 4.9512234
-0.13016571 1.823809 4.9806452
-0.080421351 1.8211758 4.9741821
-0.03081467 1.8169928 4.9631271
-0.16820368 1.8827552 4.9918981
-0.13059196 1.8796462 4.9843745
-0.080657274 1.8754344 4.9739294
-0.034932435 1.8627323 4.9526362
-0.16832949 1.9215983 4.9857674
-0.13094164 1.93468 4.9847031
-0.080778062 1.9284558 4.9693985
-0.035072107 1.9284033 4.9578757
-0.17731458 1.9623085 4.9954677
-0.13127142 1.9770033 4.986866
-0.076820888 1.9790722 4.9695764
-0.035187069 1.9841045 4.9593887
-0.16960719 2.0367553 4.9958825
-0.13162151 2.0197992 4.9893513
-0.081156552 2.0252428 4.9691586
-0.031107083 2.0340745 4.9570265
-2.1093793 2.0638511 4.9688387
-0.18266463 2.0800023 4.9979591
-0.12783037 2.0804443 4.9889112
-0.085577369 2.0726869 4.9709721
-0.018637463 2.0731215 4.950119
-0.18293849 2.1336021 4.9904928
-0.1323299 2.1316345 4.9870071
-0.081565946 2.1231568 4.9679198
-0.035408638 2.1224163 4.9555392
-2.1120784 2.1861994 4.9766674
-0.13273615 2.176064 4.9906845
-0.081899926 2.1824045 4.9731369
-0.035579238 2.1822979 4.9624352
-2.1118364 2.212606 4.9671955
-0.13304931 2.2191634 4.9904199
-0.082045868 2.2242346 4.9702535
-0.035613608 2.2261064 4.9533582
-0.17179471 2.2667558 4.9986496
-0.12919986 2.2807598 4.9875216
-0.082314387 2.2695782 4.9743633
-0.03159387 2.2803278 4.9665174
-2.1130979 2.3084862 4.9782524
-2.0943079 2.3443253 4.9965124
-0.13374393 2.3328319 4.983716
-0.082588956 2.32774 4.9736571
-0.035813496 2.3146689 4.9565682
-2.0941985 2.3711498 4.9865704
-0.1812876 2.3731143 4.9948478
-0.13386764 2.3860881 4.9712639
-0.082746178 2.3833327 4.9662948
-0.044420008 2.3784688 4.9565024
-2.0718107 2.4033632 4.9962678
-0.60994244 2.4406157 4.9656444
-0.50657791 2.4376121 4.9678483
-0.4676376 2.4353724 4.9659886
-0.41698426 2.4387999 4.976263
-0.36643156 2.4439673 4.9897141
-0.31423125 2.4379659 4.9799781
-0.27506939 2.4320939 4.9696288
-0.2326767 2.4263124 4.979847
-0.18541545 2.4181666 4.9747491
-0.1336882 2.421113 4.9513235
-0.069958732 2.4202411 4.9504929
-0.31735921 0.33549789 5.0081506
-0.31775564 0.3719154 5.0129819
-0.35342407 0.41952997 5.0043817
-0.32947895 0.40756652 5.0064597
-0.35328013 0.45529214 5.0002809
-0.32160321 0.47165838 5.0048285
-0.35462153 0.51715446 5.0154095
-0.31844589 0.51698303 5.0152655
-0.3544305 0.56494325 5.0092869
-0.31832218 0.56483221 5.0099735
-0.28170833 0.55172199 5.0022869
-0.35496616 0.61395502 5.013123
-0.33044317 0.62514746 5.0063801
-0.35527134 0.67471331 5.0123105
-0.33126298 0.6748842 5.0147028
-0.27050468 0.69768047 5.0055399
-0.35522527 0.73485756 5.0060825
-0.31954002 0.72380757 5.0158582
-0.28285792 0.7225588 5.0085568
-0.23427269 0.72126001 5.0011926
-0.31933612 0.7836194 5.0065184
-0.35698658 0.83532357 5.0208845
-0.32005656 0.83372754 5.0126991
-0.28317431 0.83187312 5.0030212
-0.35721344 0.88433135 5.0185781
-0.32046309 0.88315809 5.0135899
-0.27582705 0.88632137 5.0098948
-0.35678616 0.93166572 5.0067663
-0.32036585 0.93129927 5.0063772
-0.27151543 0.91759086 5.0009847
-0.35751611 0.98209572 5.0108585
-0.32055479 0.98023403 5.0030556
-0.35794228 1.0318046 5.0103502
-0.32139704 1.031378 5.0099664
-0.2766856 1.0345201 5.0068073
-0.35964918 1.0733049 5.029151
-0.32312214 1.0734417 5.0314345
-0.32345751 1.1233934 5.0295429
-0.27336824 1.1304829 5.0068974
-0.23680151 1.1421487 5.0042229
-0.36099043 1.1752241 5.0332885
-0.32656193 1.1795775 5.0316734
-0.27441859 1.1835852 5.0184393
-0.23706463 1.1799167 5.0041218
-0.36107922 1.2367648 5.0247202
-0.32399261 1.2353442 5.0206499
-0.2744506 1.2325948 5.0114207
-0.23736699 1.2301395 5.0026617
-0.36277705 1.2794797 5.0421786
-0.32451099 1.2740798 5.0225706
-0.27511829 1.2845205 5.0153151
-0.22574255 1.2819371 5.0069108
-0.36360323 1.3070549 5.0494213
-0.32574114 1.3158069 5.0351954
-0.27169988 1.3325846 5.0197415
-0.2387469 1.347532 5.012733
-0.18933035 1.3445338 5.0029836
-0.36387503 1.3697271 5.0421877
-0.32644597 1.3679606 5.0373554
-0.28035203 1.3676344 5.0221548
-0.22657678 1.3847063 5.0078812
-0.36372885 1.4061859 5.0333056
-0.3272849 1.420893 5.0410314
-0.27687895 1.4158189 5.0250344
-0.2270143 1.4241886 5.0105286
-0.32775438 1.47241 5.0386615
-0.27747941 1.4682736 5.0264835
-0.22750822 1.4642369 5.0143476
-0.36554468 1.5247798 5.0364733
-0.32840464 1.5249784 5.0388336
-0.27851409 1.5232743 5.0352306
-0.2279451 1.5163324 5.0139818
-0.19054285 1.5130608 5.0042119
-0.36671501 1.5669659 5.0448489
-0.32512987 1.5745803 5.0428314
-0.27903578 1.5757457 5.0342822
-0.2282784 1.5679119 5.0109425
-0.32996416 1.6318389 5.0414777
-0.27918705 1.6262436 5.0262241
-0.22883876 1.6213224 5.0127134
-0.19182134 1.6346563 5.0140224
-0.36856085 1.6873442 5.0455217
-0.32638112 1.6804844 5.0403161
-0.27986941 1.6799974 5.0273438
-0.22967842 1.677009 5.0201159
-0.19210638 1.6742923 5.0130873
-0.36946759 1.7290845 5.0492468
-0.33563748 1.7185754 5.0464172
-0.28065696 1.7346172 5.0298362
-0.23013407 1.7301068 5.0185046
-0.19252734 1.7276763 5.0125399
-0.31926769 1.7661839 5.0412397
-0.28111222 1.7750006 5.0292635
-0.22627336 1.7779303 5.0138669
-0.19257951 1.7778747 5.0019636
-0.33297789 1.8227553 5.0463252
-0.28202808 1.8183976 5.0363464
-0.23560958 1.8191427 5.0274796
-0.18071054 1.8332074 5.0052176
-0.37155855 1.8648773 5.0469966
-0.32951286 1.8730038 5.0460777
-0.28283572 1.873894 5.0380149
-0.23156592 1.8660743 5.0188012
-0.19358861 1.8746659 5.0062041
-0.33032107 1.9365134 5.0430303
-0.28340313 1.9280224 5.0349207
-0.23214789 1.9209642 5.0182443
-0.19386891 1.9149408 5.0036092
-0.32245338 1.9735687 5.0430064
-0.28393489 1.982159 5.0307827
-0.23299646 1.9784008 5.0230303
-0.19464353 1.9854019 5.0066371
-0.28502473 2.0277047 5.0393972
-0.2334953 2.0330977 5.0196629
-0.18645966 2.0209038 5.0024276
-0.28523198 2.0673213 5.0324764
-0.22942601 2.080632 5.0095215
-0.14507557 2.0705929 5.0102668
-2.1098356 2.1173046 5.0330815
-0.36304566 2.1154914 5.0421519
-0.32567355 2.1466079 5.0496836
-0.28645492 2.1271448 5.0392218
-0.23934655 2.127701 5.0309634
-2.0833669 2.1980436 5.0163393
-0.3129673 2.1853957 5.0397162
-0.28275809 2.1781921 5.0354252
-0.23559093 2.1786871 5.027144
-0.18400878 2.1839802 5.0077066
-0.30052936 2.2262802 5.0341992
-0.27474454 2.2246599 5.0315666
-0.23615794 2.2351401 5.0237322
-0.18466923 2.2301991 5.0141225
-2.1137064 2.2740405 5.0193858
-0.35349292 2.2762246 5.0453186
-0.31442946 2.2726927 5.0392408
-0.27517027 2.2665215 5.0272236
-0.23645642 2.2761829 5.01758
-0.19773971 2.2722771 5.0101571
-0.14638773 2.2676473 5.0011897
-2.1087065 2.3061764 5.0499053
-2.095479 2.3186734 5.008842
-0.31519401 2.3296564 5.0347543
-0.26320794 2.325078 5.026958
-0.22437476 2.3220487 5.0217419
-0.18561201 2.3183396 5.0148201
-2.0828846 2.3890581 5.0328422
-0.35568592 2.3809195 5.046917
-0.31564784 2.3716779 5.0291533
-0.26381809 2.3819456 5.0213547
-0.2247424 2.377248 5.0128222
-0.19885044 2.3620567 5.0129838
-2.0504198 2.4099407 5.0184231
-2.0230315 2.4095516 5.0259504
-0.61769044 2.4455988 5.0378809
-0.56555283 2.445102 5.0412521
-0.52662933 2.4454641 5.0450234
-0.473744 2.4410481 5.0396147
-0.41713616 2.4303312 5.0418987
-0.36814329 2.4165201 5.0263371
-0.31624824 2.4150147 5.0256896
-0.26410139 2.4229941 5.0131822
-0.36175349 1.1163943 5.0532398
-0.36418468 1.333846 5.0531607
-0.36582556 1.4391044 5.057601
-0.36648259 1.4789724 5.0594091
-0.36748058 1.595162 5.050076
-0.34253067 1.5950251 5.0508332
-0.36807978 1.6227282 5.0529003
-0.36904296 1.6520051 5.0606008
-0.37052947 1.7717607 5.054791
-0.34502631 1.7698298 5.0505075
-0.37134308 1.8260205 5.0535698
-0.37251443 1.8949412 5.0534863
-0.34735784 1.8955146 5.0562582
-0.37340754 1.9248115 5.0589862
-0.34752214 1.921697 5.0520468
-0.3748194 1.9702257 5.0679331
-0.34901404 1.9807355 5.0601482
-0.36719927 2.0300124 5.0649605
-0.33262274 2.0177855 5.0596013
-0.36380973 2.0816045 5.0638199
-0.325068 2.0788696 5.058938
-0.32547495 2.1197593 5.0541663
-2.0991564 2.1876926 5.0631781
-0.40315688 2.151051 5.0562458
-0.36535016 2.1674128 5.0627222
-0.40699098 2.2232125 5.0886412
-0.36692524 2.228219 5.0686531
-0.3276903 2.2241726 5.0613904
-2.0845363 2.2686963 5.0793886
-0.40836072 2.2696071 5.093626
-0.38193101 2.2796104 5.0843577
-2.0915072 2.3308039 5.0777636
-0.47500086 2.3433213 5.0880518
-0.41762924 2.3292587 5.0826359
-0.3722136 2.3160007 5.0561204
-2.0803728 2.3745413 5.0737743
-0.51570046 2.3770175 5.0931616
-0.47477654 2.3812237 5.072629
-0.42164931 2.3751297 5.0629168
-0.3732239 2.3653958 5.0554776
-2.0451562 2.4085312 5.0907936
-1.9289187 2.4273186 5.0952044
-0.75220889 2.4340219 5.0642805
-0.63053995 2.4181802 5.0856476
-0.58689761 2.4269545 5.0864768
-0.52921534 2.4181907 5.08319
-0.47517973 2.422473 5.0640388
-0.43553373 2.4191566 5.0596304
-2.0829084 2.0904374 5.1317234
-2.0875556 2.1495206 5.1264491
-2.081017 2.1699126 5.1018491
-2.0798566 2.3346643 5.1293468
-2.0498776 2.3043525 5.1406288
-0.62303615 2.3355429 5.1256771
-0.58383119 2.3361118 5.1302099
-0.52965593 2.3286481 5.1178622
-0.47648418 2.3245168 5.1124315
-2.0684681 2.3785787 5.1250453
-0.72036934 2.379951 5.1477919
-0.6651237 2.3846445 5.1301632
-0.62381226 2.3778558 5.1191182
-0.58436573 2.3776879 5.1220303
-0.53392738 2.3631809 5.1053462
-2.0106657 2.4164352 5.1198587
-0.88221574 2.4417639 5.1309566
-0.81352717 2.4347413 5.1240969
-0.7693941 2.4258461 5.1318498
-0.71961695 2.4170549 5.1290989
-0.67653549 2.4179449 5.1025043
-0.57039946 2.4135826 5.1024876
-0.41628003 -0.43496269 5.1885242
-0.41638893 -0.38532001 5.1924133
-0.41620731 -0.33547086 5.1923637
-0.41614258 -0.28569347 5.1934605
-0.41418052 -0.23489794 5.1705599
-0.41495854 -0.19816308 5.1812711
-2.066232 2.0737817 5.1741214
-2.0694692 2.1043606 5.1740656
-2.0754838 2.1790278 5.1680064
-0.827833 2.3354931 5.195395
-0.77688605 2.3380346 5.1838989
-0.72138381 2.3302875 5.1721792
-0.66661078 2.3372283 5.1590881
-0.62895936 2.3312533 5.1829371
-2.0674677 2.3656158 5.1706076
-2.044919 2.3854191 5.1870551
-0.87543231 2.3797755 5.1978436
-0.82861823 2.3821418 5.1858759
-0.77601779 2.3751912 5.1650534
-0.72036588 2.353493 5.1564417
-2.014148 2.4095099 5.1777334
-1.9715035 2.4218969 5.1818151
-1.8939415 2.4250624 5.1734948
-1.8032587 2.4417193 5.1628385
-1.7811083 2.4489672 5.1852679
-1.1531196 2.4283533 5.1981196
-1.0917261 2.4387052 5.1621995
-0.95646262 2.4219613 5.1788492
-0.92040175 2.4253786 5.1797194
-0.8741703 2.4163849 5.1770558
-0.83624452 2.4140513 5.1652651
-0.78931898 2.4151592 5.1507273
-0.52220869 -0.45300049 5.2472553
-0.48279792 -0.4514479 5.2315903
-0.53364104 -0.41434932 5.2371092
-0.48254025 -0.41360232 5.2307377
-0.44364089 -0.42491168 5.2172775
-0.52997756 -0.36866367 5.2446823
-0.48218828 -0.36318776 5.2293158
-0.44269931 -0.38658902 5.2080703
-0.52129769 -0.31400397 5.2445955
-0.48287854 -0.31354985 5.2390785
-0.44266179 -0.33667287 5.2098541
-0.46995544 -0.26315868 5.2373629
-0.4432269 -0.27464458 5.2188344
-0.47098795 -0.22604457 5.2499995
-0.44422722 -0.21269977 5.2324896
-0.47054499 -0.17563 5.2462816
-2.0128002 1.0633148 5.2470326
-2.035641 1.5054494 5.2318292
-2.0451446 1.5934954 5.2390585
-2.0408535 1.6710007 5.2098737
-2.0377893 2.0728812 5.2220492
-2.0595844 2.1498818 5.2179728
-2.0361605 2.1266239 5.244895
-2.0615609 2.1795349 5.2144947
-2.0405247 2.1727109 5.2435427
-2.0620043 2.2075996 5.206986
-2.0434337 2.2173743 5.2381339
-2.0589261 2.2746644 5.2206211
-2.0491147 2.2513342 5.2438936
-2.0604312 2.3040748 5.2153058
-2.0375829 2.3374398 5.2267523
-0.97481072 2.3402448 5.234479
-0.91835034 2.3334367 5.2261887
-0.87729722 2.3312485 5.2262301
-2.0250604 2.3808393 5.2202716
-1.0751538 2.367409 5.2473259
-1.0338563 2.3792539 5.2450972
-0.97563589 2.3825581 5.2257109
-0.91790622 2.3725171 5.2106438
-0.87576795 2.353936 5.2085433
-1.8507639 2.440768 5.2219262
-1.8216118 2.4388535 5.2250881
-1.2275763 2.4423051 5.2167215
-1.1870623 2.4290814 5.228982
-1.1061417 2.4165962 5.2486744
-1.0770651 2.4258285 5.2388163
-1.0337217 2.4194705 5.2309966
-0.9889102 2.4225607 5.2097259
-0.90491694 2.4138587 5.20154
-0.66675317 -0.45716232 5.2852616
-0.62693465 -0.4559297 5.274035
-0.65520257 -0.43253008 5.2971115
-0.61553907 -0.41878051 5.2879262
-0.61966842 -0.37218547 5.2888794
-0.58166081 -0.36113867 5.2542276
-0.54760271 -0.35245889 5.2526884
-0.65475607 -0.3050825 5.2992063
-0.61949486 -0.31288567 5.2898021
-0.58256024 -0.31963369 5.2641072
-0.54767764 -0.31472713 5.2549381
-0.61511749 -0.26628143 5.2905903
-0.57509923 -0.26538634 5.2754745
-0.53587633 -0.26474655 5.2652478
-0.49684316 -0.26411334 5.2550807
-0.60266578 -0.21564053 5.2951593
-0.57583755 -0.21509486 5.2837172
-0.5355047 -0.21415669 5.2631035
-0.48836911 -0.20956641 5.2561016
-0.57608241 -0.17720182 5.286869
-0.53609276 -0.17653698 5.2695456
-0.49640498 -0.1758972 5.2528
-2.0019796 1.098528 5.291924
-1.9984841 1.0698689 5.2865362
-2.0030341 1.1259085 5.2907472
-2.0038276 1.153167 5.2887759
-2.0024533 1.2059648 5.2767119
-2.0078537 1.343552 5.2679634
-2.0056069 1.3688859 5.2571597
-2.0164089 1.4166977 5.2778597
-2.0260968 1.4913176 5.289937
