ply
format ascii 1.0
comment PCL generated
element vertex 1410
property float x
property float y
property float z
element camera 0
property float view_px
property float view_py
property float view_pz
property float x_axisx
property float x_axisy
property float x_axisz
property float y_axisx
property float y_axisy
property float y_axisz
property float z_axisx
property float z_axisy
property float z_axisz
property float focal
property float scalex
property float scaley
property float centerx
property float centery
property int viewportx
property int viewporty
property float k1
property float k2
end_header
-0.66900188 -0.47328424 0.58657378
-0.62237799 -0.47535491 0.57547599
-0.57485163 -0.4775185 0.57472658
-0.53147936 -0.47804761 0.56934506
-0.47196102 -0.48269024 0.57740897
-0.42500621 -0.48052347 0.57354516
-0.37466636 -0.48074642 0.57479489
-0.32439214 -0.48146528 0.57372385
-0.27468449 -0.48260936 0.57505584
-0.2251537 -0.48377812 0.57496995
-0.1743338 -0.4855217 0.57466871
-0.12479012 -0.48676458 0.57475299
-0.075349003 -0.48895213 0.57486939
-0.025946077 -0.49167904 0.57405144
0.024318893 -0.49455887 0.57630157
0.073337942 -0.49714616 0.57443511
0.11662823 -0.49906227 0.56717134
-0.50717753 -0.4290511 0.58683336
-0.48200122 -0.41759378 0.57108772
-0.70161772 -0.36345091 0.55411851
-0.67199272 -0.36402559 0.56921679
-0.64163828 -0.3598015 0.59276301
-0.50111228 -0.39669225 0.59625906
-0.48327798 -0.39461124 0.58152449
-0.66378492 -0.34420392 0.56757337
-0.64211917 -0.34225628 0.59210294
-0.71007228 -0.13364515 0.56735396
-0.66221684 -0.11142974 0.55259699
-0.6126641 -0.11485246 0.56742293
-0.59319621 -0.11386954 0.58333993
-0.51452625 -0.11948965 0.56123745
-0.48316589 -0.11763494 0.5776704
-0.4592728 -0.072440825 0.58170235
-0.43773955 -0.066198304 0.57643437
-0.33023554 -0.073123127 0.58714426
-0.51004046 -0.047621012 0.5866186
-0.47537085 -0.035702564 0.57858419
-0.43310821 -0.037349787 0.57927305
-0.37213954 -0.016858876 0.59187514
-0.32227391 -0.038348008 0.57882333
-0.41317412 0.030206284 0.56927103
-0.37924632 0.018334106 0.59278417
-0.30829108 0.022728737 0.57176429
-0.29617825 0.031495996 0.56508535
-0.4658595 0.072629936 0.57455367
-0.43844435 0.068507329 0.56921035
-0.30992109 0.071792059 0.57538778
-0.29837412 0.094516777 0.57186228
-0.30167186 0.10551096 0.58849382
-0.29325953 0.12658396 0.57268053
-0.6657666 0.19157442 0.57575142
-0.28845817 0.17453225 0.57303911
-0.65962261 0.21674937 0.57187539
-0.63095737 0.23006465 0.57518572
-0.59289366 0.23275678 0.55748791
-0.30003178 0.22412261 0.59319931
-0.28919214 0.22484779 0.57335186
-0.27282867 0.2740058 0.57394087
-0.25776088 0.31185198 0.5779407
-0.24534862 0.33482319 0.56808031
-0.23591571 0.37400728 0.57019025
-0.22270894 0.42480853 0.56998187
-0.21885872 0.46595061 0.57351828
0.042024598 -0.50090742 0.6303106
0.079335682 -0.50162542 0.62732434
0.12503695 -0.50343066 0.62482905
0.17501427 -0.50575107 0.6250518
0.22491321 -0.50868726 0.62537599
0.27447882 -0.51067919 0.62472904
0.32467824 -0.5129478 0.62522918
0.37497422 -0.51452875 0.62627649
0.42590967 -0.51570988 0.62556201
0.47508487 -0.51662058 0.62392366
0.52384853 -0.51716036 0.62490892
0.57470554 -0.5177815 0.62438816
0.62411189 -0.51724178 0.62501097
0.675062 -0.51853961 0.62639838
0.72464234 -0.51478297 0.63757068
0.75396854 -0.50849622 0.63838995
-0.76625526 -0.47306195 0.64103425
-0.72270942 -0.47364813 0.62735748
-0.67388409 -0.47383004 0.62436926
-0.62462574 -0.47398353 0.62415725
-0.57673204 -0.47476754 0.62442607
-0.51770455 -0.48161545 0.62635225
-0.4734154 -0.48116904 0.62452632
-0.42376208 -0.47906879 0.62435055
-0.37445414 -0.4794679 0.6254068
-0.32433021 -0.48049444 0.624569
-0.27551517 -0.48186755 0.6249907
-0.22515014 -0.48391461 0.62545913
-0.17478491 -0.4862099 0.62410563
-0.1246571 -0.48843372 0.62516767
-0.075137928 -0.49103311 0.62480116
-0.025567533 -0.49439156 0.62425941
0.024107138 -0.49741286 0.62612104
0.067375474 -0.49865463 0.61746788
0.11262459 -0.49995857 0.60113239
0.71996987 -0.4921225 0.6428501
-0.5174973 -0.40319309 0.62418926
-0.61797047 -0.35982215 0.61831784
-0.59228337 -0.35690606 0.64122683
-0.51226163 -0.38308105 0.62658358
-0.61777103 -0.33825856 0.62194169
-0.58877945 -0.33173814 0.6418767
-0.51175606 -0.3349404 0.64925289
-0.61408168 -0.16787679 0.63153601
-0.60643196 -0.11848457 0.62948781
-0.58387411 -0.10912994 0.61773205
-0.51434684 -0.11474055 0.63373041
-0.46744528 -0.11660731 0.61809731
-0.43384841 -0.11701705 0.63157433
-0.37590134 -0.11184242 0.63257915
-0.6099351 -0.094457678 0.64763743
-0.57541716 -0.077917159 0.62730169
-0.52659488 -0.078056529 0.62317073
-0.46021286 -0.090123385 0.61809886
-0.42538482 -0.070775405 0.6219644
-0.37401867 -0.072585344 0.61831272
-0.34571984 -0.067958787 0.60360754
-0.4735128 -0.044919163 0.60389549
-0.42157829 -0.037047114 0.61794198
-0.36822891 -0.02936987 0.61483675
-0.34242445 -0.020773513 0.60933614
-0.36318731 0.023094142 0.61702043
-0.33843845 0.025284559 0.6129725
-0.44746307 0.067512661 0.62254864
-0.36365327 0.050937023 0.64182091
-0.31651416 0.073125675 0.62483603
-0.29998273 0.097190328 0.6027084
-0.30323851 0.11910913 0.62995315
-0.29684368 0.13044274 0.61583185
-0.65395027 0.18861942 0.61191082
-0.64309555 0.19275722 0.62232149
-0.30191574 0.19399089 0.64790553
-0.29407546 0.17337272 0.62744695
-0.63954616 0.21426547 0.60933095
-0.30176401 0.23855279 0.64553589
-0.29507911 0.22272807 0.6229558
-0.30178326 0.25115797 0.64205915
-0.28502005 0.27678037 0.62439728
-0.26055166 0.32703912 0.62148607
-0.24866834 0.34449098 0.6071558
-0.25093168 0.36521634 0.64062947
-0.24238934 0.37753984 0.61737621
-0.23100249 0.42560837 0.6251533
-0.22146082 0.47097269 0.61890209
-0.0057627629 -0.50062567 0.68579233
0.028586296 -0.50164169 0.68042964
0.075816423 -0.50389022 0.67312324
0.12501201 -0.50633079 0.67541218
0.17554337 -0.50824106 0.67488295
0.22474951 -0.50943804 0.67512757
0.27509502 -0.51114178 0.67390341
0.32500079 -0.5127973 0.67524189
0.37537578 -0.5138346 0.67625034
0.42416716 -0.51400626 0.67498755
0.47390169 -0.51391703 0.67527306
0.52454263 -0.51365727 0.674366
0.57476246 -0.51340222 0.67514044
0.62406838 -0.51243848 0.67485917
0.6731593 -0.51117051 0.67396843
0.72341198 -0.50828987 0.6722641
0.77596468 -0.50573313 0.68037617
0.80985516 -0.50716913 0.68331772
-0.81469715 -0.47229367 0.67781395
-0.77337337 -0.4732601 0.67586285
-0.72494853 -0.47352353 0.6731171
-0.67506582 -0.47370514 0.67580706
-0.62461603 -0.47280666 0.673069
-0.58375591 -0.47258821 0.67059416
-0.52219915 -0.47910747 0.6760087
-0.475229 -0.47943628 0.67235112
-0.42373219 -0.47841996 0.6746192
-0.37471825 -0.4784112 0.67532766
-0.32455766 -0.47894618 0.67477053
-0.27444714 -0.48017493 0.67410523
-0.22503258 -0.48237878 0.67576891
-0.17572416 -0.48664799 0.67435163
-0.12495172 -0.48987943 0.67414427
-0.075531445 -0.49306795 0.6734823
-0.027251009 -0.49695483 0.67497271
0.011812592 -0.49829984 0.66434431
0.6804316 -0.4926165 0.67418909
0.70377147 -0.49482977 0.65262365
0.78419429 -0.49104586 0.69717383
0.82354516 -0.49237236 0.68774575
0.85785848 -0.49406371 0.69992441
-0.53067958 -0.44797906 0.69775468
-0.57541281 -0.3613776 0.66904503
-0.52779019 -0.35880151 0.66391736
-0.56838185 -0.32901415 0.66539109
-0.52459538 -0.32665405 0.67484492
-0.53380716 -0.27629578 0.69210452
-0.52761596 -0.22242334 0.68552983
-0.60911429 -0.17133719 0.67160952
-0.57839483 -0.17053416 0.68317378
-0.52520478 -0.18169974 0.68495566
-0.50268704 -0.12189054 0.68400711
-0.47868633 -0.1212674 0.66948849
-0.41382754 -0.11171889 0.65168297
-0.3905898 -0.1175202 0.65249157
-0.37555119 -0.026943237 0.68771011
-0.38247332 0.032767847 0.66991132
-0.38915545 0.053776272 0.67520654
-0.3228761 0.076244153 0.67102754
-0.31060618 0.12185972 0.67508155
-0.30651438 0.16886809 0.6808936
-0.29802099 0.18298559 0.66063774
-0.30394557 0.22719127 0.67363453
-0.29864198 0.21031582 0.66226262
-0.30591345 0.26545927 0.68397981
-0.29527229 0.28360918 0.66806751
-0.27944556 0.32496154 0.67231303
-0.26221991 0.36657983 0.67604965
-0.25780103 0.41003379 0.69445199
-0.23974888 0.42819947 0.66640896
-0.055465497 -0.50015122 0.73285818
-0.017511915 -0.5017606 0.7306717
0.023713756 -0.50425011 0.7250033
0.074329846 -0.50620788 0.72461295
0.12493872 -0.50830191 0.72527349
0.17472994 -0.51004845 0.72445822
0.22506694 -0.5108912 0.72464901
0.27457905 -0.51135248 0.7244283
0.32484674 -0.51133144 0.72570968
0.37444079 -0.51119572 0.72398412
0.42465058 -0.51000035 0.72352421
0.47502351 -0.50939465 0.72564101
0.52430159 -0.50837284 0.72509062
0.57476079 -0.50779361 0.72545564
0.62375581 -0.50682908 0.72411454
0.67423379 -0.50316477 0.72039878
0.72682798 -0.50274062 0.72075897
0.76762515 -0.50239503 0.71290761
-0.80775988 -0.47327679 0.71069056
-0.77534616 -0.47476214 0.72687835
-0.7268604 -0.47573087 0.72655118
-0.67552865 -0.47443351 0.72591203
-0.63188213 -0.47252709 0.72168279
-0.56316489 -0.46774331 0.72159249
-0.5248304 -0.47561976 0.72498161
-0.47361362 -0.4786123 0.72333789
-0.42515042 -0.47939584 0.72541946
-0.37452507 -0.4796524 0.72541457
-0.32586783 -0.47951409 0.72450656
-0.27499917 -0.4786993 0.72193456
-0.22288649 -0.47571716 0.72210824
-0.17681256 -0.48199752 0.72655427
-0.12578103 -0.49104452 0.72369742
-0.074965805 -0.49519613 0.72310865
-0.035552435 -0.49859515 0.71814513
0.63715923 -0.49148837 0.73004377
0.67370224 -0.49502638 0.71710688
0.72855109 -0.49560425 0.73246831
0.78204644 -0.49168709 0.72668236
0.82116592 -0.49103314 0.72148144
0.87213188 -0.49123123 0.73382336
0.9242878 -0.47535068 0.74281871
0.95290202 -0.45516327 0.74286133
-0.5595032 -0.43564627 0.73843187
-0.53993368 -0.4345918 0.71594334
0.94161391 -0.43427402 0.7483207
0.96020383 -0.42390203 0.74447209
-0.55385011 -0.39004961 0.74539602
-0.52952534 -0.36728662 0.73640209
-0.47451419 -0.35986128 0.73430783
-0.43549323 -0.36018801 0.74505228
0.93448323 -0.39366889 0.74972224
0.96971101 -0.37497669 0.74430633
-0.61220521 -0.31998575 0.74043411
-0.58637381 -0.31586051 0.71572667
-0.51816684 -0.32775137 0.72718418
-0.47769594 -0.33693999 0.73634684
-0.43941891 -0.34119207 0.74680096
0.94903415 -0.31339699 0.74999744
0.96718806 -0.32800835 0.74547958
-0.53433371 -0.27628854 0.71360308
0.94941455 -0.25545222 0.74677658
0.96239901 -0.27974027 0.74717212
-0.55654925 -0.20218 0.70272577
-0.53290766 -0.22800139 0.7140367
0.94808823 -0.24693762 0.74781513
0.95434862 -0.22579944 0.74819416
-0.58244306 -0.16915941 0.72701406
-0.53105462 -0.18577845 0.71914798
0.94227993 -0.1741814 0.74882996
0.93558329 -0.13823126 0.74923152
-0.40270412 -0.054785267 0.74949127
0.92780024 -0.085486807 0.74907768
-0.3904224 -0.0076704314 0.74541271
0.92293644 -0.02844727 0.74844414
-0.37845069 0.020770397 0.72441286
0.92293918 0.021598926 0.74851358
-0.33110711 0.077258579 0.71850431
0.92663592 0.076732069 0.74843299
-0.31900829 0.12681194 0.7191965
0.9277299 0.10761856 0.74823052
-0.3161689 0.16791765 0.72244066
-0.96303505 0.22804074 0.74870467
-0.9359833 0.23774926 0.73640746
-0.31150711 0.21965165 0.71539974
-0.31023207 0.27549753 0.7199012
-0.30352873 0.31464159 0.73306054
-0.29176885 0.32671019 0.72179884
-0.27703336 0.36814663 0.72248578
-0.26173109 0.41265842 0.71641207
-0.24385433 0.44613495 0.71305209
-0.24256051 0.48331007 0.73470634
-0.063465379 -0.50118142 0.78346825
-0.026348544 -0.50354469 0.7753675
0.025218258 -0.50678498 0.77438015
0.075303644 -0.50907171 0.77519625
0.12446973 -0.51033777 0.77492839
0.17438556 -0.51074725 0.77398735
0.22435196 -0.51092869 0.77503407
0.27470368 -0.51012748 0.77423215
0.3246122 -0.50869125 0.77583575
0.37472469 -0.50706714 0.77427119
0.42418593 -0.50569862 0.77360225
0.47342792 -0.50436819 0.76888591
0.52353925 -0.50329435 0.76451176
0.5753215 -0.50285965 0.76184249
0.61456704 -0.50177836 0.75723022
0.67227399 -0.5003441 0.75236005
0.70636725 -0.50026774 0.75738615
-1.0169485 -0.47223237 0.79236698
-0.97972006 -0.47139227 0.78117299
-0.94000244 -0.46424669 0.7856251
-0.80631137 -0.47764203 0.75031072
-0.76759344 -0.47509256 0.77258372
-0.72576928 -0.47551265 0.77398157
-0.67749017 -0.47347188 0.77592689
-0.64405441 -0.46791369 0.76347172
-0.56509513 -0.4720701 0.77738965
-0.5245316 -0.47835293 0.77604604
-0.47424927 -0.47938225 0.77560258
-0.42381567 -0.48061055 0.77550638
-0.37430435 -0.4815411 0.77441162
-0.32385868 -0.48225516 0.77436501
-0.2738913 -0.48166168 0.77254725
-0.2223779 -0.47370395 0.776577
-0.1729506 -0.4707934 0.77094156
-0.12530683 -0.49329489 0.77388388
-0.081417494 -0.497715 0.77111548
0.43601444 -0.48717341 0.79457468
0.47465363 -0.49105835 0.78881598
0.52591807 -0.49330527 0.78583467
0.57457787 -0.49235284 0.78375638
0.61989462 -0.48809749 0.7748493
0.67591715 -0.49245152 0.77129215
0.72732681 -0.4915714 0.78126967
0.77493155 -0.47902 0.77840334
0.82634348 -0.47283208 0.77435315
0.87302732 -0.46841109 0.76226336
0.91005021 -0.46342489 0.75450498
-0.80909753 -0.40743223 0.79846966
-0.79696536 -0.40796226 0.78908265
-0.57448506 -0.42770183 0.76866424
-0.204237 -0.43537271 0.78728735
-0.18876202 -0.44167715 0.77583683
0.79003316 -0.43145403 0.79734218
0.8250742 -0.42475432 0.78675848
0.87342745 -0.42372981 0.77074838
0.92090064 -0.42436308 0.75720477
0.95403922 -0.410777 0.75138539
-0.55274969 -0.39473101 0.75188011
-0.54433966 -0.37033629 0.75260562
-0.47396752 -0.37898278 0.75396192
-0.41559991 -0.36125872 0.75362188
-0.37397704 -0.36314207 0.7630654
-0.32536373 -0.37008047 0.77488804
-0.2760326 -0.38030976 0.78879035
-0.24193184 -0.38878846 0.79520255
0.79699922 -0.37233728 0.79885089
0.82471341 -0.37465355 0.78984272
0.87535888 -0.37507549 0.77306598
0.9240948 -0.37424004 0.75739241
0.95414543 -0.37707025 0.75103265
-0.63496506 -0.32359293 0.75948393
-0.52768987 -0.32540196 0.76772934
-0.46856657 -0.3342213 0.75914061
-0.42022085 -0.34634519 0.75916982
-0.38451979 -0.34588429 0.76188177
0.79805243 -0.34216326 0.79836762
0.82470739 -0.32486269 0.79107374
0.87486684 -0.32511637 0.77492791
0.92537284 -0.32452103 0.75843281
0.95158017 -0.3317892 0.75145245
-0.55337805 -0.27703774 0.75708181
-0.54762793 -0.26545298 0.75177675
0.79733431 -0.26842976 0.79851425
0.82578808 -0.27495354 0.79063058
0.8735587 -0.27460274 0.77436781
0.9231199 -0.27471852 0.75901008
0.95410222 -0.27783981 0.75144202
0.7947951 -0.2178141 0.79811573
0.82437503 -0.22485091 0.78996843
0.87403041 -0.22512111 0.77402866
0.92336452 -0.2251218 0.75800061
0.95401555 -0.21172911 0.75108248
-0.5744803 -0.17225276 0.76184613
-0.44764352 -0.16074881 0.79414582
0.79246294 -0.1742193 0.79798627
0.82397717 -0.17558736 0.78905278
0.87410772 -0.17438731 0.77244502
0.92418331 -0.17605834 0.75720114
-0.43241295 -0.10879932 0.79624224
0.79161072 -0.12321155 0.79741567
0.82526135 -0.12555505 0.78716296
0.87530708 -0.12440675 0.77103287
0.92029554 -0.12586261 0.75643975
-0.41821942 -0.071333751 0.78296345
0.78951371 -0.07498689 0.79673284
0.82519704 -0.072844811 0.78584409
0.87473524 -0.075795569 0.7695694
0.91490453 -0.073465899 0.75612897
-0.4163847 -0.041041605 0.78954279
-0.39406753 -0.011678954 0.75534606
-0.34563446 -0.005992935 0.79594088
0.78768808 -0.025597073 0.79605108
0.82391077 -0.026156904 0.78485471
0.87441868 -0.025342157 0.76820499
0.91187096 -0.025365977 0.75548714
-0.38284799 0.032513507 0.77242875
-0.34388301 0.0081373286 0.79713142
0.78402501 0.024022847 0.79664463
0.82250369 0.023191489 0.78441077
0.87195522 0.023703195 0.76774579
0.91093737 0.02451616 0.75506777
-0.36697304 0.058377579 0.78558564
-0.33744097 0.087192543 0.76681107
0.7830866 0.075650379 0.79519624
0.82408541 0.074061446 0.78266412
0.87420535 0.075264461 0.76621878
0.91284823 0.075206332 0.75405401
-0.32836607 0.12519 0.75885981
0.78350091 0.11013841 0.79533064
0.82442558 0.11260205 0.78320235
0.87480837 0.11399231 0.76807749
0.91642565 0.11380841 0.75414717
0.99178463 0.13642862 0.79508299
-0.95831507 0.1908876 0.77300644
-0.94886702 0.18949533 0.79594904
-0.32398865 0.16935106 0.75886357
-0.95625627 0.21695685 0.77154666
-0.93755209 0.235256 0.78276205
-0.32493621 0.23119688 0.76787221
-0.32328933 0.27675074 0.76563334
-0.31076634 0.32220748 0.78137529
-0.29501277 0.34246734 0.75542641
-0.27038103 0.42144525 0.77195954
-0.25567621 0.46853343 0.77666312
-0.24794824 0.47995999 0.77070445
-0.069014855 -0.50193381 0.82532614
-0.025741575 -0.50533468 0.82528365
0.02460235 -0.5082975 0.82374376
0.074632384 -0.51031798 0.82358187
0.12585947 -0.51143676 0.82431734
0.17457263 -0.5118044 0.82492757
0.22558537 -0.51028967 0.82497013
0.27447623 -0.50767988 0.82525122
0.32346687 -0.50406212 0.82501113
0.37111372 -0.5029068 0.81460381
0.40895873 -0.50270569 0.80593634
-1.1075001 -0.4698396 0.84455991
-1.0724205 -0.46700057 0.82464474
-1.0259212 -0.46891987 0.82549047
-0.97687477 -0.47270823 0.82513815
-0.94566059 -0.47294232 0.84636265
-0.75715911 -0.47662809 0.80735719
-0.72165745 -0.47351351 0.82106268
-0.68902475 -0.47173798 0.81670171
-0.60346138 -0.47432202 0.84206969
-0.57290101 -0.47622952 0.8261556
-0.52443475 -0.47892767 0.8245663
-0.47493532 -0.48076415 0.8237645
-0.42473269 -0.48202533 0.82506847
-0.37619781 -0.48405778 0.82590568
-0.32546213 -0.48567897 0.82567292
-0.27584097 -0.4863925 0.8242349
-0.23324953 -0.47717738 0.81611484
-0.16798779 -0.47412771 0.82025206
-0.12464556 -0.49588624 0.82400423
-0.088151284 -0.49880165 0.82084417
0.34401286 -0.4991776 0.84169036
0.37919334 -0.49192473 0.8340562
0.42179078 -0.49208125 0.81756079
0.47751188 -0.49380642 0.83388722
0.52610552 -0.49143076 0.83193117
0.57820165 -0.48622271 0.83197302
0.62486374 -0.47413307 0.83237863
0.67326897 -0.47300312 0.82230216
0.72312945 -0.46851403 0.8106634
0.76115572 -0.46212903 0.80322641
-0.82314432 -0.40933096 0.8258822
-0.25956851 -0.40153998 0.80268681
-0.21721847 -0.41665828 0.81715965
-0.18699461 -0.44770885 0.8074047
0.63672119 -0.42927414 0.84618241
0.67404586 -0.42512572 0.8353706
0.72495639 -0.42492458 0.81948268
0.76766783 -0.42198449 0.80629599
-0.2886813 -0.37271541 0.80273354
-0.23207939 -0.39150062 0.80773902
0.64533037 -0.37738514 0.84819001
0.67492539 -0.3747735 0.83934885
0.72524136 -0.37533951 0.82350975
0.77196503 -0.37425348 0.80756432
-0.55032843 -0.33163407 0.81378996
-0.54782242 -0.33347467 0.82997215
0.64489287 -0.32276115 0.84870809
0.67488116 -0.3247585 0.84021699
0.72497463 -0.32531244 0.82438415
0.77344668 -0.32388303 0.8087486
0.8016119 -0.30996332 0.80060863
0.63984782 -0.27324581 0.8471182
0.67303449 -0.27458337 0.83751833
0.72351128 -0.27516878 0.82263243
0.77328712 -0.27458769 0.80788255
0.64095277 -0.22294524 0.84576899
0.67512226 -0.22518449 0.8363443
0.72379696 -0.22503313 0.82094735
0.77023059 -0.22541483 0.80718505
-0.4535096 -0.16312701 0.83013684
-0.44867745 -0.1640617 0.82512367
0.6395784 -0.17498387 0.84549427
0.67556083 -0.17363799 0.83375764
0.72511321 -0.17524897 0.81960022
0.76842058 -0.17393303 0.80641258
-0.45605007 -0.14239098 0.84510493
-0.44093549 -0.11645546 0.82165354
0.63484269 -0.12080501 0.84536666
0.67423427 -0.12376167 0.83466852
0.72406256 -0.12576498 0.81951773
0.76696491 -0.12477392 0.80643779
-0.42528167 -0.070221737 0.81964153
0.63233805 -0.074034713 0.843705
0.67338663 -0.073431484 0.82654518
0.72497833 -0.076411307 0.81504399
0.76507521 -0.07760416 0.80509412
-0.35362166 -0.013299469 0.81684053
-0.34235179 -0.0085094338 0.82518804
0.63169742 -0.025237173 0.84325111
0.67385066 -0.02621635 0.82770067
0.72485375 -0.026643597 0.81468564
0.76296031 -0.026989305 0.80428046
-0.37540975 0.034097735 0.82103896
-0.34056801 0.015040902 0.82565451
0.62864804 0.02468859 0.84352112
0.67493927 0.023849795 0.82893467
0.72409832 0.025267277 0.81369501
0.76047099 0.023623854 0.80385071
-0.35239214 0.084728941 0.83601856
0.63004279 0.074364096 0.84269577
0.6742779 0.074782364 0.828924
0.72427028 0.076456755 0.81437153
0.76016986 0.073131934 0.80295932
-0.34743807 0.13775688 0.84807718
0.62954217 0.11285163 0.84280497
0.67618006 0.11377858 0.83101457
0.72444463 0.11356533 0.81600606
0.76373351 0.11743733 0.80594909
0.80236769 0.12791851 0.80382013
0.98248136 0.14565536 0.84937882
1.0312141 0.1489892 0.84188384
-0.93919647 0.19067642 0.82704628
1.0380147 0.17957346 0.84590369
1.0536548 0.17804377 0.83943647
-0.9321847 0.22390167 0.82351822
-0.33522522 0.24698938 0.82330352
1.0387188 0.22615004 0.84509784
1.0583524 0.23031546 0.83790874
-0.33171812 0.290225 0.81626791
1.0393896 0.27356461 0.84638679
1.0619063 0.27709982 0.83809131
1.0429679 0.32115671 0.84744024
1.0701494 0.32646343 0.83718526
-0.30155456 0.36241493 0.80248034
0.98417568 0.37784261 0.8454622
1.027496 0.37729767 0.83167857
1.0680393 0.37183729 0.82242757
-0.27696428 0.43650088 0.82355231
0.98716873 0.42515731 0.84577793
1.0238431 0.42493746 0.83204669
1.0636331 0.4220421 0.81560069
-0.26529655 0.46903077 0.83191586
0.98892784 0.47381994 0.84578472
1.024846 0.47374207 0.83132619
1.0563846 0.47308519 0.81828654
0.9873023 0.52442372 0.84569013
1.0234241 0.52326274 0.8313151
1.0526773 0.50139272 0.81884372
0.98672903 0.57512605 0.84466898
1.0160488 0.57243979 0.83387041
0.98624939 0.62659806 0.84387237
1.0079432 0.61628395 0.83499318
0.98295838 0.66969091 0.84486878
0.97158509 0.71814424 0.84724087
-0.1103916 -0.50097769 0.88132107
-0.074346751 -0.50382823 0.87568098
-0.024179181 -0.50788939 0.87373197
0.024111843 -0.51016688 0.87492001
0.074654087 -0.51133931 0.87461877
0.12383036 -0.51216584 0.87402028
0.17576319 -0.51142496 0.87548906
0.22565241 -0.50840122 0.87459159
0.27201536 -0.50317323 0.87154388
0.31670886 -0.50125325 0.85753906
-1.1711539 -0.46683237 0.89181107
-1.1212164 -0.46857113 0.87456769
-1.077997 -0.47214127 0.87862301
-1.0195544 -0.4711287 0.87655461
-0.98081207 -0.47445151 0.8761065
-0.93680334 -0.46976408 0.877056
-0.71769613 -0.47538471 0.85252374
-0.6102739 -0.4734745 0.87785381
-0.5739845 -0.4767279 0.87583756
-0.52384812 -0.47951823 0.87651753
-0.47377637 -0.48183361 0.87194735
-0.42507407 -0.48423621 0.87679303
-0.37330773 -0.48620924 0.87635118
-0.32514071 -0.48767909 0.87493473
-0.27421266 -0.48929328 0.87260807
-0.23787665 -0.48398069 0.87691325
-0.16980258 -0.48634022 0.87197286
-0.12836216 -0.49708292 0.87281603
-0.096886605 -0.49952215 0.88329971
0.28858599 -0.49783665 0.88874888
0.32829663 -0.49157992 0.88046229
0.37231618 -0.48792502 0.87358874
0.42634845 -0.48544449 0.87819558
0.47480601 -0.47475725 0.8796407
0.5240581 -0.47151577 0.87039149
0.57214409 -0.46569639 0.85859305
0.60390323 -0.45679462 0.85106719
-0.81635344 -0.42242503 0.85832256
0.48699716 -0.42789933 0.89594191
0.5251978 -0.42578673 0.8832612
0.57429808 -0.42486006 0.86749315
0.61481321 -0.42145118 0.85499173
-0.60365367 -0.37722453 0.89965796
-0.59208977 -0.3783116 0.89107561
0.49395928 -0.38020906 0.89760607
0.52517229 -0.37488872 0.88791543
0.57416558 -0.37464514 0.87120438
0.62046921 -0.37342563 0.85689819
0.49508703 -0.32460818 0.8984158
0.5246799 -0.32469597 0.88872594
0.57571781 -0.32432237 0.87156069
0.62089854 -0.32543814 0.85735619
0.49348783 -0.27253538 0.89772516
0.5249424 -0.27406934 0.88747621
0.57434154 -0.27492756 0.87103957
0.61588967 -0.27511758 0.85614711
0.49062178 -0.22374749 0.89699501
0.5249511 -0.22300988 0.88590062
0.57471675 -0.22485699 0.86964697
0.61623222 -0.22615291 0.85563546
-0.45356211 -0.16496074 0.87724477
-0.44873762 -0.16538365 0.86173928
0.48817897 -0.17324638 0.89610457
0.52490002 -0.17356081 0.88419694
0.57468736 -0.17514879 0.86795533
0.61556512 -0.17559835 0.85523987
0.66435826 -0.15205239 0.85108286
-0.45385039 -0.1409553 0.86893564
-0.44783884 -0.12339555 0.87952483
0.48532397 -0.12338139 0.89509851
0.52449775 -0.12498886 0.88241976
0.57488662 -0.12602535 0.86672598
0.61271244 -0.12611258 0.85607678
0.6707651 -0.12785286 0.85293818
-0.43097344 -0.065085106 0.88329083
0.48269862 -0.074163258 0.89450336
0.52525622 -0.075095676 0.88033789
0.57576472 -0.074750617 0.86514121
0.60747832 -0.075252518 0.85324681
-0.41018736 -0.01267305 0.88746351
-0.33964467 -0.0087092835 0.87484908
0.47953758 -0.025574109 0.89375556
0.52363342 -0.025656788 0.8796947
0.57425267 -0.025798213 0.86296362
0.60815418 -0.027785666 0.85224771
-0.40425843 0.014964851 0.88826972
-0.38323632 0.033515371 0.88078022
-0.33969 0.014744023 0.87218434
0.47738141 0.023208756 0.89319062
0.52379376 0.023517683 0.87802243
0.5746879 0.023720657 0.86198783
0.60496539 0.020871516 0.85223311
-0.35975462 0.088081241 0.87104023
0.47685045 0.074700817 0.89290047
0.52365083 0.075108483 0.87749052
0.57460093 0.07523229 0.86236161
0.6057778 0.0747578 0.8520692
0.47780737 0.114113 0.89264095
0.52572012 0.11720404 0.87848693
0.57478124 0.12450433 0.87319112
0.60503805 0.1117283 0.85380644
0.88097191 0.14697602 0.89222485
0.91360229 0.14911428 0.88737667
0.9860996 0.14619736 0.85259801
1.0105357 0.14809807 0.85182941
-0.92401844 0.19007964 0.87589145
-0.3521381 0.18003327 0.88556254
0.54689109 0.15466732 0.89369535
0.57126004 0.15592974 0.88835198
0.93177491 0.17668429 0.89088106
0.97429657 0.17425689 0.87350041
1.0137236 0.1753754 0.85688049
-0.920829 0.22128877 0.87359238
-0.89183098 0.23857763 0.87922323
-0.34786534 0.22136492 0.89407712
0.92957491 0.2245436 0.89133817
0.97505993 0.22474828 0.87193048
1.0142452 0.22479759 0.85546714
0.93025148 0.27259052 0.89140308
0.97408015 0.27550784 0.87300336
1.0162873 0.27598178 0.85638845
-0.33681762 0.31226507 0.87871391
0.93272316 0.32175502 0.89355689
0.97418159 0.32456547 0.87640476
1.0195018 0.32654431 0.85797709
-0.31394044 0.36646903 0.85905147
0.87600428 0.37872615 0.89095563
0.9263345 0.37570646 0.87643456
0.96890134 0.36956599 0.86736649
1.0214448 0.35881272 0.86008698
-0.28728724 0.44678015 0.86848229
0.88038683 0.42590815 0.89145917
0.92422891 0.42461205 0.87324303
0.96330589 0.423857 0.85674006
-0.27229083 0.47718135 0.87889612
0.87830192 0.47581816 0.89175427
0.92452496 0.47376281 0.87340325
0.96528137 0.47573239 0.8571344
-0.25702471 0.53136539 0.89319777
0.87845832 0.52494168 0.89063662
0.92519957 0.52428812 0.87189907
0.96322316 0.52370089 0.85540235
-0.24230449 0.57676023 0.8986541
0.87779236 0.57424664 0.88979512
0.92523545 0.57529503 0.87050217
0.96198815 0.57400626 0.85612899
0.87658995 0.62518448 0.88999951
0.92432916 0.62557518 0.86966252
0.96140724 0.62400109 0.85504776
0.8437295 0.67435253 0.89907289
0.87579668 0.67441928 0.88854873
0.92502356 0.67525554 0.86808568
0.96311122 0.67543095 0.85353953
0.84632468 0.740237 0.89788586
0.87607032 0.72441053 0.88725424
0.9247579 0.72429258 0.86635333
0.95922345 0.72294348 0.85380697
0.84416682 0.77249557 0.89788836
0.8747943 0.77504468 0.88607079
0.92296684 0.77310866 0.86628544
0.84287018 0.8265022 0.89756316
0.87264776 0.82402253 0.88538921
0.91060489 0.82225943 0.87130105
0.84262228 0.87592506 0.89717102
0.87243497 0.87215984 0.88431865
0.90230495 0.85487062 0.87264609
0.84374738 0.92082298 0.89565873
0.85890239 0.91784436 0.88783717
-0.1179973 -0.50224715 0.92692977
-0.074094512 -0.50708246 0.92620057
-0.025939176 -0.51083583 0.9235146
0.024702141 -0.51244128 0.92465013
0.075343728 -0.51283169 0.92498118
0.12562433 -0.5124827 0.92245084
0.17566875 -0.51162457 0.92545396
0.22566211 -0.50617278 0.92379755
0.25824738 -0.50066268 0.91119629
-1.254717 -0.4657208 0.94143248
-1.2204319 -0.46322036 0.93335336
-1.172788 -0.46298343 0.92347813
-1.129115 -0.4685362 0.92833418
-1.0799859 -0.47053194 0.92476821
-1.0269927 -0.46844473 0.9197104
-0.98009068 -0.46884221 0.91592795
-0.94902927 -0.46853444 0.90194476
-0.62497258 -0.47535303 0.9152419
-0.57219118 -0.47557563 0.91396558
-0.52370501 -0.47956616 0.92047513
-0.47421426 -0.48216411 0.92093575
-0.42482644 -0.48484644 0.92528903
-0.37603062 -0.48776782 0.92549813
-0.32414979 -0.49032184 0.92625213
-0.27680635 -0.49141306 0.92136514
-0.21728322 -0.49276146 0.93626052
-0.17086457 -0.49708614 0.92776006
-0.14034189 -0.49897113 0.92250603
0.24890804 -0.49767262 0.94143784
0.27900562 -0.48698992 0.92930055
0.3217802 -0.47116277 0.92886573
0.37316665 -0.47012603 0.91749626
0.42153808 -0.46450135 0.9071157
0.4564212 -0.46255916 0.90097928
0.33403596 -0.42724299 0.94417197
0.37532842 -0.42588642 0.9302063
0.42517704 -0.42485997 0.91483504
0.4625088 -0.42288268 0.90417248
-0.60802114 -0.38297516 0.93488383
-0.59703815 -0.38818875 0.91990536
0.34136415 -0.37997177 0.94754583
0.37449929 -0.37468076 0.93675727
0.42452106 -0.37480867 0.92032707
0.46940067 -0.37479171 0.90639049
0.34620947 -0.32664579 0.94828546
0.3748551 -0.32512781 0.93881196
0.42468536 -0.32415006 0.92183298
0.47030467 -0.32527289 0.90670419
0.34667921 -0.2697871 0.9482342
0.37428522 -0.27484488 0.93859893
0.42469341 -0.27453783 0.92097539
0.46849498 -0.27503505 0.90626121
0.3438828 -0.22360931 0.94777942
0.3747032 -0.22474584 0.93697113
0.42535332 -0.22649646 0.9196592
0.46576253 -0.22737536 0.90592736
-0.45584294 -0.16427065 0.92403609
0.34083235 -0.17385562 0.94700015
0.37589577 -0.17369449 0.93443245
0.42504266 -0.17538546 0.91789067
0.4632996 -0.17620555 0.90464699
-0.45380208 -0.13762802 0.93089789
-0.44619718 -0.11934332 0.91764516
0.33680478 -0.1240178 0.94567639
0.37416053 -0.12499588 0.93338406
0.4246428 -0.12475416 0.915806
0.46136978 -0.12543263 0.9038319
-0.44130376 -0.075372733 0.9268024
0.33312455 -0.073968217 0.94394857
0.37564179 -0.074851952 0.92960423
0.42566496 -0.074150078 0.91323555
0.4577316 -0.078495376 0.90251011
-0.41854641 -0.024962466 0.91378647
-0.3415744 -0.013474007 0.90309441
0.29792434 -0.010628538 0.94796956
0.32700732 -0.024723228 0.9399519
0.37433556 -0.02602331 0.9263581
0.42504835 -0.025549788 0.91124642
0.45561019 -0.025551349 0.90144491
-0.40138358 0.044300653 0.91752023
-0.39772984 0.041816473 0.91522282
0.29542747 0.016376307 0.94782466
0.32806119 0.030883403 0.93657601
0.37495348 0.023511378 0.923908
0.42458883 0.023347043 0.91024828
0.45422161 0.024624635 0.90119678
0.32689735 0.074640565 0.94184524
0.37429643 0.074706987 0.92615652
0.42518157 0.074644782 0.90953135
0.45357853 0.075758137 0.90077567
-0.36171368 0.13333805 0.92253238
0.32856491 0.11631759 0.94278169
0.37627992 0.11577851 0.92706209
0.42484924 0.11466818 0.91090417
0.45393398 0.11979539 0.90174305
0.53805977 0.1418369 0.94041306
0.55087799 0.14606503 0.90145618
0.77674812 0.14874588 0.93341392
-0.91037816 0.19329832 0.920578
-0.89713472 0.19419712 0.93995303
-0.35722369 0.16173652 0.92795587
0.54500526 0.15404855 0.94025666
0.56645548 0.15676758 0.91912585
0.79447085 0.173815 0.94721758
0.82479209 0.17554872 0.9351145
0.87439579 0.17512208 0.91584843
0.9068954 0.17605434 0.90279204
-0.9082948 0.21561731 0.90937316
-0.89179653 0.21608895 0.91585642
-0.35010478 0.22021779 0.92102158
0.79256839 0.22831924 0.94721895
0.8242451 0.22455709 0.93432921
0.87481785 0.22470149 0.91441798
0.90506899 0.21969716 0.90205795
0.79250741 0.27661881 0.94732374
0.82403857 0.27437946 0.93454933
0.87342918 0.27500302 0.91475928
0.90575683 0.27507782 0.90292448
-0.3402873 0.33203948 0.92856389
0.79403687 0.31936032 0.94807971
0.82395369 0.32493624 0.93729156
0.87459958 0.32490245 0.91761881
0.91037244 0.32753387 0.90420067
-0.31791857 0.38610059 0.93323076
0.73672402 0.37476569 0.94554484
0.77580982 0.37775859 0.93238246
0.82688558 0.3723059 0.91979384
0.86990041 0.36413911 0.91604394
0.91167212 0.35607722 0.90508837
-0.30640945 0.41777137 0.94245493
-0.29670465 0.43942997 0.92164207
0.74404615 0.42471173 0.94648141
0.77584594 0.42422351 0.93388581
0.82558346 0.42380023 0.91431487
0.85557044 0.42487335 0.9017958
-0.2841858 0.47713578 0.92676032
0.74435997 0.4767985 0.94759822
0.77367216 0.47490597 0.93574417
0.82429498 0.47446591 0.9147324
0.85423309 0.47257093 0.90189838
-0.26539215 0.52245241 0.92457217
0.74213672 0.52084208 0.9473331
0.77479702 0.52564216 0.93438244
0.82531923 0.52584642 0.91330427
0.85451561 0.51993686 0.90094429
-0.25305939 0.56223774 0.93214846
-0.24235104 0.5857138 0.92709053
0.7432732 0.57243359 0.94710475
0.77411181 0.57588345 0.93444347
0.82435054 0.57467884 0.9128105
0.85377347 0.57649475 0.90122902
-0.2349451 0.61973542 0.94817096
0.74110466 0.62107831 0.94579059
0.7746107 0.62549132 0.93281209
0.8234998 0.62428558 0.91215265
0.85170114 0.62501109 0.90102357
0.73988605 0.67461336 0.94529778
0.7759558 0.67557079 0.930435
0.82442868 0.67409539 0.90998828
0.85483038 0.67513239 0.9011606
0.73767847 0.72519112 0.94564217
0.77446145 0.72555655 0.93042392
0.82359564 0.72338682 0.90969086
0.73650289 0.7746163 0.94444144
0.77332032 0.77549368 0.92887485
0.8185907 0.77422333 0.90962958
0.73509717 0.82399207 0.94352263
0.7757417 0.82528526 0.92725754
0.81890345 0.82264453 0.90785724
0.73291022 0.87411016 0.94299883
0.7735709 0.87424749 0.92551589
0.819094 0.87422276 0.90740818
0.73198891 0.91405016 0.94232827
0.77531749 0.91729194 0.92244196
0.81819057 0.92058343 0.90705192
-0.39044574 -0.50435168 0.99088669
-0.28264698 -0.50065708 0.97111559
-0.21544819 -0.50047433 0.9833045
-0.16688578 -0.50192916 0.9856168
-0.1244754 -0.50414658 0.97518802
-0.075220384 -0.51064008 0.97681415
-0.025987353 -0.51370353 0.97303343
0.024061153 -0.51370442 0.97262067
0.075773656 -0.51374894 0.97217089
0.1245938 -0.51358271 0.9740575
0.17566206 -0.51207739 0.97471452
0.22349477 -0.50644767 0.9751054
-1.3084596 -0.46121085 0.97981548
-1.2720978 -0.46252102 0.97761053
-1.2211493 -0.46173772 0.97164547
-1.1736839 -0.46793807 0.98022127
-1.1211191 -0.47027311 0.97844559
-1.0692607 -0.47071716 0.97315979
-1.0266778 -0.46994391 0.97035772
-0.99205035 -0.46055216 0.96852612
-0.89765143 -0.46463209 0.95674026
-0.52017003 -0.48621464 0.96004391
-0.4555853 -0.48579818 0.95547724
-0.42577982 -0.48720741 0.95523632
-0.37439001 -0.49039274 0.9581933
-0.32034993 -0.4939678 0.96110582
-0.28639576 -0.4937796 0.95609868
-0.22204825 -0.49712378 0.9782303
-0.17950724 -0.49871829 0.97192389
-0.14867941 -0.49970502 0.9549399
0.2465744 -0.49170259 0.9840613
0.2673583 -0.46750218 0.9595201
0.3022984 -0.45142213 0.9503696
-0.60557312 -0.40258932 0.98010522
-0.58516312 -0.40520746 0.99035513
-0.46225676 -0.43136331 0.98922849
0.2742672 -0.42520797 0.96699822
0.31041026 -0.42031538 0.95407426
-0.6129992 -0.39303881 0.96511567
0.27742437 -0.37400806 0.97149372
0.31689152 -0.37439176 0.95664477
0.27673376 -0.32555282 0.97394031
0.32154992 -0.32490945 0.95741898
0.27753487 -0.27541876 0.97346103
0.32170543 -0.27432424 0.95699871
-0.50671029 -0.21135071 0.98069376
-0.49669373 -0.21257554 0.99118882
0.2777966 -0.22444609 0.97160733
0.31917629 -0.22412868 0.9566648
-0.45898989 -0.15827671 0.95692271
0.27710429 -0.17500561 0.97067505
0.31569436 -0.17398965 0.95591837
-0.45601279 -0.13440605 0.968575
-0.44992712 -0.12251049 0.95351911
0.27716145 -0.12599327 0.96878612
0.31217247 -0.12688449 0.95516014
-0.45210063 -0.089589678 0.97305346
-0.44325292 -0.066591524 0.96750247
0.27844065 -0.075545415 0.96469647
0.30882797 -0.077848576 0.95302314
-0.42971897 -0.03381655 0.9512226
0.27612215 -0.026403075 0.96152174
0.30328685 -0.037020192 0.9513914
0.2741695 0.0245672 0.96043819
-0.37747988 0.08369837 0.98140395
0.27746367 0.07535518 0.96123773
0.30350715 0.077561185 0.95100087
-0.36952192 0.11772447 0.97825021
0.27947924 0.12254484 0.96445507
0.31729805 0.13668558 0.96005756
0.35704863 0.13380006 0.95129389
0.54807794 0.14695725 0.95021248
0.55656326 0.14533114 0.95417452
-0.36135539 0.16568525 0.96831161
0.29017183 0.16507462 0.96754456
0.31100127 0.16989106 0.9601652
0.54770601 0.15333156 0.96000224
0.57883662 0.1681378 0.97878456
0.62782854 0.19999281 0.98785585
0.68313289 0.18210705 0.98449719
0.7249487 0.17587987 0.97406054
0.76952147 0.1762502 0.95774716
0.61502117 0.20435321 0.99355412
0.67751789 0.22487848 0.99236614
0.72472531 0.22381373 0.97441834
0.76708704 0.2245184 0.95768762
-0.35912365 0.28038976 0.97982353
0.67856014 0.27340376 0.9916696
0.72458303 0.2745932 0.97393906
0.76764053 0.27458727 0.95679104
-0.3568387 0.32834202 0.98759472
-0.34342036 0.34977919 0.96549952
0.68198508 0.32288209 0.99293184
0.72582221 0.32546338 0.97589564
0.77105755 0.32440314 0.95845634
-0.3368037 0.37190282 0.98162794
0.59210628 0.36915889 0.99681538
0.62567645 0.37844321 0.98945659
0.6771372 0.37293902 0.97531438
0.71897388 0.37279454 0.96395731
0.77238923 0.35627246 0.95988762
-0.31279659 0.42069149 0.97648305
-0.29991639 0.44185752 0.9540475
0.63035226 0.42547426 0.99212885
0.67444259 0.42289513 0.97545272
0.71881026 0.42624703 0.95779741
-0.30205312 0.46041536 0.99649495
-0.29089329 0.47204643 0.97083181
0.6299876 0.47569644 0.99292654
0.67439198 0.47433323 0.97591674
0.71860993 0.47496185 0.95791394
-0.27327311 0.52653897 0.97703767
0.63182485 0.52519792 0.99183089
0.67505956 0.52446866 0.97533023
0.71845007 0.5265528 0.95761734
-0.25619191 0.57066107 0.97815758
-0.24556997 0.59114152 0.96085536
0.63184392 0.57741833 0.99237704
0.67423207 0.57500899 0.97484946
0.71744585 0.57569361 0.95786595
-0.23905657 0.61964738 0.98293102
0.62995487 0.62511986 0.99231327
0.67465043 0.6248982 0.97341055
0.71655613 0.62469745 0.95692706
-0.22613257 0.6791696 0.99345714
0.62977129 0.67579985 0.99171084
0.67393631 0.67379159 0.97270542
0.71606201 0.6745351 0.95612162
0.62788403 0.72535098 0.9910754
0.67361361 0.72294694 0.97270125
0.71225667 0.72681743 0.95641571
0.59568709 0.77589476 0.99951488
0.62560588 0.77570641 0.99139035
0.67536151 0.77327257 0.97032839
0.71241176 0.77607501 0.95462739
0.62536871 0.82427156 0.98987043
0.67425191 0.8255412 0.96987265
0.7096253 0.82649076 0.95502436
0.59777284 0.88822609 0.99852031
0.62388462 0.87222528 0.98831064
0.67555177 0.87589431 0.96690655
0.70810175 0.87368345 0.95363092
0.62996674 0.90653849 0.98447341
0.67698383 0.91098338 0.96508455
0.70947504 0.90742493 0.95133269
-0.21700317 -0.50154656 1.0320565
-0.17460905 -0.50335693 1.0275315
-0.12540402 -0.50661564 1.0228751
-0.074985825 -0.51396191 1.0252669
-0.025144108 -0.51636004 1.0256337
0.025027705 -0.51657772 1.0250756
0.074890576 -0.51601696 1.0237572
0.12549452 -0.51445222 1.0214423
0.17547822 -0.5116604 1.0238186
0.21886264 -0.50599802 1.0234425
-1.3706446 -0.45259407 1.039511
-1.334265 -0.46086961 1.0293623
-1.2728289 -0.46518022 1.0218982
-1.2218667 -0.4659647 1.0301106
-1.172743 -0.46589261 1.0275855
-1.1260068 -0.46671581 1.0225909
-1.0818707 -0.46523789 1.024745
-1.0425057 -0.46399212 1.0073034
-0.45938271 -0.45226938 1.0402656
-0.25256395 -0.49694106 1.0346297
-0.22913337 -0.49805799 1.0223321
-0.18656692 -0.49922597 1.0101335
0.19576086 -0.48587844 1.0465566
0.22251773 -0.49081039 1.0269954
-1.350319 -0.44977519 1.0439495
-0.57921904 -0.40654862 1.0144501
-0.50319511 -0.40913972 1.0435297
-0.47679844 -0.42600209 1.0267251
-0.57983083 -0.39661729 1.0119488
-0.49272239 -0.16638225 1.0409175
-0.45421687 -0.040237304 1.0363702
-0.44684505 -0.03639986 1.0286061
-0.38342777 0.079720557 1.0165631
-0.37478864 0.12813334 1.0286561
0.27190182 0.14767213 1.0002977
-0.3713311 0.17000197 1.0347718
0.28358179 0.16996557 1.0119617
0.49935681 0.15707648 1.0491749
0.53623837 0.17052767 1.044552
0.5686363 0.18166433 1.0319942
0.61941248 0.193461 1.0157743
-0.36590314 0.20890597 1.0236568
0.5425086 0.22733322 1.0469766
0.57532549 0.22537352 1.0333827
0.62483394 0.22868037 1.0129011
0.65370888 0.22737978 1.0017871
-0.36649308 0.26797014 1.0300725
0.5418936 0.27457052 1.0462906
0.57560033 0.27467442 1.032868
0.62514925 0.27576882 1.0128332
0.65336215 0.2744723 1.0013758
-0.35814193 0.32844752 1.0214673
0.54487145 0.31070805 1.0475438
0.5752179 0.32450458 1.0365969
0.62444657 0.32292885 1.0160766
0.65685987 0.32573819 1.0033748
-0.35077742 0.35749316 1.0272652
-0.34137005 0.37510359 1.0209808
0.48048073 0.37716737 1.0443652
0.5252732 0.37691271 1.0303272
0.57373494 0.37248927 1.0178851
0.6227302 0.36035725 1.0147229
0.66093659 0.35633606 1.0043641
-0.32103193 0.42839691 1.0261627
0.49294928 0.42387801 1.0471215
0.52515769 0.4248226 1.0345918
0.57549411 0.42519855 1.0144867
0.60712695 0.42783359 1.0023198
-0.30385524 0.46830142 1.0245183
-0.29496977 0.49284115 1.0274353
0.49457872 0.47775427 1.0481287
0.52465153 0.47605634 1.0359503
0.57431543 0.47593409 1.0154238
0.60609448 0.47365412 1.0027137
-0.27833936 0.5317927 1.0273091
0.49501705 0.52477175 1.0473413
0.5252828 0.5260489 1.0358996
0.5751707 0.52560955 1.015079
0.60632437 0.5254935 1.0029233
-0.25891644 0.57384986 1.025017
-0.24681941 0.59545219 1.0168579
0.49493071 0.57359105 1.047226
0.52532816 0.57446373 1.0355023
0.57535219 0.57491142 1.0152022
0.60722989 0.5748927 1.0025151
-0.25411832 0.60008311 1.0286052
-0.23868033 0.62812799 1.0293388
0.49300143 0.62713766 1.0472234
0.5252623 0.62488037 1.0350723
0.5749861 0.6253348 1.0150012
0.60692823 0.62755787 1.0020512
-0.22584832 0.67659461 1.020094
0.49289244 0.6722976 1.0468339
0.52548325 0.67410642 1.0343151
0.57491356 0.67535001 1.0145217
0.60525072 0.67207474 1.003037
-0.21595636 0.71902752 1.0275741
0.4921385 0.72499502 1.0464994
0.52401632 0.72337925 1.0343006
0.57420963 0.72264332 1.0135397
0.60434711 0.72295982 1.0021633
0.4899922 0.77256161 1.045931
0.52549583 0.77389574 1.032411
0.57566375 0.77264667 1.0120515
0.60229582 0.79716593 1.0019166
0.48928329 0.82398295 1.0452414
0.52584738 0.826352 1.0317572
0.57467812 0.82423937 1.0113674
0.48734117 0.87607366 1.0450338
0.5252499 0.8756032 1.0292369
0.57484996 0.87468171 1.0098546
0.48632956 0.90431148 1.0446417
0.52596265 0.90491968 1.0284804
0.57296783 0.90671223 1.0087173
0.60213864 0.91117215 1.0002307
-0.25481936 -0.50130212 1.0660979
-0.22022936 -0.50232404 1.0779881
-0.17225513 -0.50481313 1.0736042
-0.12473378 -0.51086813 1.0744488
-0.077352144 -0.51705861 1.0742382
-0.026152933 -0.51809096 1.0740947
0.023811929 -0.51872873 1.073639
0.074009702 -0.51726544 1.0758227
0.12596492 -0.51603574 1.0731019
0.17177573 -0.50870532 1.0714896
0.23913549 -0.50923949 1.0919298
0.25970066 -0.50702643 1.0821052
-1.4139726 -0.45344859 1.0801889
-1.384481 -0.45646128 1.0790319
-1.3237747 -0.46109334 1.0759981
-1.2712837 -0.46563992 1.0741552
-1.2257503 -0.46661556 1.0726577
-1.1766076 -0.46584934 1.0770657
-1.1324618 -0.46408567 1.081825
-1.0791388 -0.45945445 1.0791725
-0.62608802 -0.46354628 1.0902468
-0.57968986 -0.47065619 1.093109
-0.54527748 -0.46634752 1.0915787
-0.46429768 -0.46725121 1.0826479
-0.42448974 -0.47755828 1.0834213
-0.37414446 -0.4822371 1.0867453
-0.32410112 -0.49169755 1.0875101
-0.27340829 -0.4974665 1.0793046
-0.23946981 -0.49966016 1.0671445
0.18508129 -0.49484408 1.0708755
0.20624384 -0.49427003 1.0567273
0.27306318 -0.49787208 1.0898482
-0.50313187 -0.408384 1.0536537
-0.47756889 -0.43498707 1.0731357
-0.27812287 -0.4367801 1.0983946
-0.47268695 -0.054722924 1.0804634
-0.46703094 -0.046559222 1.0837551
-0.38097095 0.094582565 1.0791118
-0.37752715 0.12423968 1.0750021
-0.37279287 0.17398621 1.0758179
0.38663223 0.18100195 1.0880767
0.43642214 0.18302421 1.0930796
0.47566313 0.18080214 1.0753942
0.52019048 0.18103246 1.0584422
-0.3726666 0.22568874 1.0767438
0.38453019 0.20258906 1.0907447
0.43447021 0.22639735 1.0934178
0.47517574 0.22657074 1.0758621
0.51881045 0.22596776 1.0577266
-0.36828795 0.27355862 1.0765092
0.43223324 0.27457762 1.0926859
0.47392952 0.27494371 1.0749798
0.51630872 0.27404356 1.0574509
-0.362865 0.32638434 1.0787243
0.43533537 0.32195029 1.0925354
0.4753173 0.32296476 1.0766208
0.52223265 0.32430691 1.0580139
-0.35410115 0.36059734 1.0810864
-0.34583467 0.38283598 1.0717432
0.34424669 0.3731688 1.0972511
0.37737617 0.37943262 1.0868596
0.42821783 0.37498116 1.0719545
0.47132081 0.36585808 1.0696142
0.52500129 0.35582885 1.0595067
-0.33025417 0.42300388 1.0742707
0.38023615 0.42287388 1.0922657
0.42599469 0.42596141 1.0735785
0.46900398 0.42661741 1.0566652
-0.31091216 0.47278509 1.0765595
-0.29689035 0.49517196 1.0713946
0.3832314 0.47439703 1.092931
0.42377847 0.47361779 1.0764576
0.46968964 0.47503433 1.0580499
-0.28511903 0.5230701 1.0732697
0.38298595 0.52547735 1.0924832
0.4247134 0.52495354 1.0759883
0.46994236 0.52402437 1.0580947
-0.2620219 0.5732075 1.0758666
-0.24909696 0.59743571 1.0957963
0.38164085 0.57487428 1.0929966
0.42489633 0.57656509 1.0758641
0.47069603 0.57430565 1.0576715
-0.25094482 0.60246211 1.0717467
-0.23805487 0.62358338 1.0719055
0.38176459 0.62438959 1.0920435
0.42536861 0.6267451 1.0746
0.46897534 0.62383235 1.0578815
-0.22525474 0.68466008 1.0757995
0.38062423 0.67477727 1.0922058
0.42526147 0.67527068 1.0738853
0.46851319 0.67557687 1.0572542
-0.21554983 0.7212956 1.0683422
0.3805958 0.72516751 1.0917844
0.42519602 0.72319579 1.0737685
0.46711421 0.72496158 1.0565922
0.37914208 0.77599114 1.0913273
0.42483333 0.77276486 1.0726761
0.46629044 0.77551818 1.0571051
0.37854934 0.82432467 1.0909376
0.42430216 0.82522744 1.0723441
0.4654972 0.82309204 1.0561461
0.37507132 0.87497669 1.0910226
0.42489401 0.87637299 1.0707071
0.46344697 0.87432367 1.0555689
0.37432209 0.90778756 1.0900344
0.42487729 0.90597379 1.069847
0.46047246 0.90497988 1.0557483
-0.25729865 -0.50015152 1.1127397
-0.22440781 -0.50224358 1.121985
-0.17739683 -0.5051828 1.1238885
-0.12463512 -0.51163352 1.1243563
-0.072813734 -0.51697189 1.1214993
-0.025831763 -0.51870757 1.1228893
0.024388265 -0.51863211 1.1236
0.076347873 -0.51728421 1.1256928
0.12562953 -0.51285863 1.1247482
0.1717138 -0.50645924 1.1264248
0.22712395 -0.50864226 1.1280487
0.26403353 -0.50578082 1.1277442
-1.4681643 -0.45367515 1.1203495
-1.4235723 -0.4561449 1.1234196
-1.3701668 -0.45917752 1.1176115
-1.3234125 -0.45914799 1.1229761
-1.277256 -0.46359292 1.1231431
-1.2298642 -0.46516705 1.1171288
-1.1801255 -0.46458328 1.1271924
-1.1217365 -0.46224838 1.1230986
-1.0721706 -0.46367291 1.128708
-1.0203515 -0.46593866 1.1385614
-0.9753499 -0.46705031 1.1340301
-0.94379985 -0.46541288 1.1417392
-0.61917394 -0.46704111 1.1249826
-0.57798851 -0.46577355 1.1210927
-0.46763301 -0.46942997 1.1298455
-0.42559862 -0.47336498 1.1235573
-0.37459427 -0.47038156 1.1274376
-0.32503635 -0.47422451 1.115222
-0.27472976 -0.4783884 1.1178863
-0.22621045 -0.49003887 1.1351651
-0.18375885 -0.48336861 1.1427805
0.13915971 -0.49704897 1.1392927
0.15877096 -0.49772227 1.1202927
0.28134632 -0.48507226 1.1367463
-0.78102082 -0.44816411 1.1354524
-0.50828069 -0.41295245 1.1448144
-0.47096756 -0.42287505 1.1438847
-0.42307317 -0.42011252 1.1370707
-0.37402096 -0.42400247 1.1288407
-0.32482317 -0.42341679 1.117645
-0.2777907 -0.4246085 1.114027
0.28852352 -0.44510469 1.1482387
-0.46501073 -0.3777723 1.1431217
-0.42234316 -0.37787893 1.1413256
-0.37373933 -0.37400305 1.1294625
-0.32512704 -0.37584066 1.1231688
-0.27816597 -0.37560764 1.1207566
0.29015273 -0.36944148 1.1478573
-0.46805903 -0.32045424 1.1442025
-0.42402795 -0.32608691 1.1410458
-0.37546209 -0.32509795 1.1357425
-0.3239193 -0.3254869 1.1231412
-0.28003937 -0.3251498 1.1230073
-0.42027345 -0.27481145 1.1417122
-0.3768602 -0.27461365 1.1350315
-0.32431254 -0.2743724 1.1243712
-0.27964413 -0.2744801 1.1284697
-0.45187867 -0.23044972 1.1450801
-0.42089194 -0.22146273 1.1441664
-0.3735801 -0.22582325 1.1348571
-0.32455882 -0.22508323 1.1264415
-0.27996725 -0.22355217 1.119151
0.29101273 -0.24409212 1.149511
-0.51862139 -0.15883541 1.1260545
-0.47680518 -0.15674363 1.1458083
-0.4210577 -0.17309651 1.1453141
-0.37315673 -0.17638718 1.1375158
-0.32408687 -0.17333505 1.130074
-0.27962339 -0.17612638 1.1246194
-0.51416886 -0.12819228 1.1307038
-0.46147498 -0.10408252 1.1495769
-0.42464659 -0.13525897 1.1459985
-0.37235704 -0.12772353 1.1432366
-0.32519275 -0.12313123 1.1361578
-0.28131223 -0.12427832 1.1269617
-0.50697798 -0.09132278 1.1201521
-0.47658831 -0.071751319 1.1329899
-0.36352843 -0.09612757 1.1458431
-0.32323274 -0.093904369 1.1435168
-0.2889463 -0.094421618 1.138501
-0.4600296 -0.042907953 1.1122395
-0.38236561 0.095988967 1.1148543
-0.37790692 0.12608539 1.1208206
-0.37606877 0.17824544 1.1278372
0.29941621 0.16309747 1.1454591
0.31667745 0.18863608 1.1411533
0.39118278 0.19032036 1.1115516
0.41237453 0.18100393 1.1068795
-0.37246948 0.22579578 1.1281593
0.33130261 0.23420176 1.14078
0.37833297 0.23316228 1.1168535
0.41151255 0.22109726 1.1040037
-0.36805999 0.27507874 1.1287315
0.33262214 0.27470303 1.1413814
0.37598363 0.27463481 1.1185505
0.40753448 0.27578053 1.1044074
-0.36082307 0.32895645 1.1244875
0.33340648 0.3229433 1.1417619
0.37444207 0.32570374 1.1207298
