ply
format ascii 1.0
comment PCL generated
element vertex 1429
property float x
property float y
property float z
element camera 0
property float view_px
property float view_py
property float view_pz
property float x_axisx
property float x_axisy
property float x_axisz
property float y_axisx
property float y_axisy
property float y_axisz
property float z_axisx
property float z_axisy
property float z_axisz
property float focal
property float scalex
property float scaley
property float centerx
property float centery
property int viewportx
property int viewporty
property float k1
property float k2
end_header
-0.80699426 -0.41309199 0.79899782
-0.57093543 -0.42318895 0.76657653
-0.20668682 -0.43934509 0.78916675
-0.18865994 -0.44129539 0.77284801
0.78898478 -0.43089467 0.79710644
0.82444042 -0.42498755 0.78663892
0.87518454 -0.42471674 0.7695002
0.92443264 -0.42331561 0.75587517
-0.55191743 -0.39576924 0.75526851
-0.5461542 -0.39265406 0.75740123
-0.45855913 -0.37707397 0.75668627
-0.4191207 -0.36089674 0.75612861
-0.37545976 -0.36358368 0.76179713
-0.32551262 -0.36900744 0.77322501
-0.27718276 -0.38111055 0.78991431
-0.23933785 -0.39265499 0.79753357
0.79693753 -0.37976545 0.79876
0.82482076 -0.37524819 0.79002506
0.87426114 -0.37469947 0.77398682
0.92311394 -0.37339973 0.75786203
0.9552139 -0.37132341 0.7515415
-0.62984157 -0.32218415 0.75781733
-0.55737633 -0.30583277 0.7636168
-0.53673506 -0.3297821 0.77707243
-0.47591797 -0.33446789 0.76272118
-0.42768747 -0.34267086 0.75523406
-0.37881491 -0.34681565 0.76226127
0.7964735 -0.31629762 0.79949814
0.82363325 -0.32578832 0.79108894
0.87397462 -0.32476911 0.77476335
0.92399794 -0.32457098 0.75867724
0.9519791 -0.32609066 0.7519536
-0.55393392 -0.29933107 0.75091285
0.79481554 -0.25726202 0.79898167
0.82484692 -0.27541751 0.79090506
0.87552571 -0.2754449 0.77426243
0.92463785 -0.27509329 0.75908363
0.95699471 -0.27096158 0.75109959
0.79613841 -0.22255339 0.79810447
0.82506955 -0.22529604 0.78995675
0.87521273 -0.22527455 0.77347744
0.92392075 -0.22487237 0.75808007
0.95627916 -0.21769702 0.75166726
-0.56201339 -0.17074028 0.76091856
-0.44399953 -0.16135533 0.79056817
0.79317623 -0.17019828 0.7979762
0.82402462 -0.17555299 0.78861296
0.87407416 -0.17412494 0.77271175
0.92353457 -0.17587979 0.75720066
-0.43008405 -0.11108755 0.78930986
0.79195738 -0.12276307 0.79774463
0.82478303 -0.12547702 0.78715354
0.87519377 -0.12420833 0.77109879
0.91943914 -0.12632401 0.75658345
-0.41957197 -0.077080436 0.78338516
0.79107726 -0.077231407 0.79651171
0.82586443 -0.073341869 0.78554159
0.8757177 -0.075361125 0.76947021
0.91564369 -0.074358851 0.75573814
-0.41159368 -0.032605436 0.78219098
-0.39771014 -0.017687401 0.75921297
-0.34573856 -0.003971477 0.79618973
0.78588855 -0.025946744 0.79709566
0.82292217 -0.025385769 0.78528774
0.87407696 -0.025520125 0.76847023
0.9126299 -0.025419228 0.75545949
-0.38353866 0.040924348 0.77246493
-0.34380323 0.0087049734 0.79618216
0.78444403 0.023468494 0.79683113
0.82269037 0.023199081 0.78458536
0.87289542 0.024214286 0.76745921
0.91096091 0.022193708 0.7554298
-0.36661625 0.057545189 0.78322536
-0.33490318 0.094317518 0.76504183
0.78420907 0.073834911 0.7957179
0.82400697 0.074036904 0.78300536
0.87422526 0.075037807 0.76571578
0.91353428 0.073820509 0.75355887
-0.328136 0.11737088 0.76204193
0.78417742 0.11091258 0.79593259
0.82527953 0.11241346 0.78404987
0.87570906 0.11479361 0.76845294
0.9160834 0.11320588 0.75590765
-0.95865852 0.19039789 0.77232283
-0.94770235 0.18927062 0.79497045
-0.32523569 0.16989003 0.76290917
-0.95720059 0.21720263 0.77134371
-0.93658727 0.23069237 0.77963996
-0.32314879 0.2270942 0.77495712
-0.32085094 0.28581321 0.76407939
-0.32157356 0.30597043 0.79717243
-0.2832886 0.38521552 0.77300656
-0.26706943 0.42911077 0.75305915
-0.2585015 0.46900049 0.78097039
-0.24789287 0.48118916 0.75723416
-0.067911983 -0.50240296 0.82468688
-0.024982978 -0.50541031 0.82576793
0.024597267 -0.50819868 0.82359278
0.074792303 -0.5102343 0.82461721
0.12443986 -0.51149809 0.82447368
0.17498659 -0.5119558 0.82494634
0.22483867 -0.51044482 0.82515025
0.27448508 -0.50764233 0.82564664
0.32456332 -0.5045923 0.82318157
0.37127984 -0.50268465 0.81797278
0.40940768 -0.50192988 0.80750173
-1.1031213 -0.46798193 0.84122068
-1.0824592 -0.46888986 0.83626831
-1.0238638 -0.46818587 0.82331163
-0.98410517 -0.47499296 0.83261275
-0.75419688 -0.47549394 0.81573677
-0.72434789 -0.47353116 0.82068467
-0.69563484 -0.4734835 0.82005185
-0.60518998 -0.47112352 0.84057021
-0.57367551 -0.47613302 0.82646626
-0.52397442 -0.47896585 0.82497764
-0.47352719 -0.48076662 0.82470083
-0.42555031 -0.48224169 0.8221218
-0.37607819 -0.48411486 0.82746965
-0.32557723 -0.48596156 0.82662827
-0.27427775 -0.48723218 0.82729876
-0.23172727 -0.47646129 0.82047975
-0.1691038 -0.47315907 0.82033461
-0.1239758 -0.49628779 0.82447398
-0.090451688 -0.49902788 0.8215794
0.338714 -0.49963409 0.84516966
0.3809334 -0.49057272 0.83384639
0.42242074 -0.49149352 0.81822664
0.47588003 -0.49412632 0.83352381
0.52551609 -0.49151936 0.83243066
0.57805985 -0.48577037 0.83204031
0.62461424 -0.47422704 0.83189058
0.67346579 -0.47272182 0.82238656
0.72322726 -0.46927643 0.81020707
0.76116514 -0.46007764 0.80437875
-0.82914203 -0.41011772 0.81754357
-0.26010641 -0.40235591 0.80430543
-0.21784192 -0.41777265 0.81631941
-0.16506726 -0.44720235 0.80035114
0.63832068 -0.42888483 0.84628594
0.67437053 -0.425484 0.83578032
0.72435886 -0.42562217 0.81994271
0.76719844 -0.42193505 0.80612332
-0.26946586 -0.37553844 0.80165976
-0.23233412 -0.39038703 0.80928534
0.64503378 -0.37763211 0.84843367
0.67459202 -0.37486663 0.83948135
0.72491056 -0.37477732 0.82362562
0.77214658 -0.37365791 0.80761391
-0.54299498 -0.32721487 0.80294579
0.64422196 -0.32062018 0.84837031
0.67559564 -0.32526866 0.84005606
0.72438651 -0.3254762 0.82372987
0.77283561 -0.32441443 0.8087042
0.80021763 -0.33596164 0.80050445
0.64010465 -0.27139467 0.84640509
0.6739372 -0.27443627 0.83714753
0.72348315 -0.2749261 0.82208502
0.77306777 -0.27579373 0.80808139
0.64117438 -0.22278707 0.84575766
0.674788 -0.22510825 0.83616394
0.72399157 -0.22509225 0.82116199
0.77084678 -0.2250825 0.80691743
-0.45261499 -0.15812343 0.82591975
-0.44857529 -0.16351415 0.83050114
0.63972694 -0.17508176 0.84599322
0.67568052 -0.17411 0.83325672
0.72574437 -0.17541465 0.81939745
0.76902056 -0.17453204 0.80645317
-0.45515677 -0.14609285 0.8346228
-0.43946514 -0.11797498 0.82418978
0.63437551 -0.12055964 0.84521812
0.6738897 -0.12457843 0.83477235
0.72370952 -0.12539643 0.81956983
0.76716036 -0.12518944 0.80616146
-0.42492321 -0.076141335 0.81144392
0.63217551 -0.074237868 0.84345275
0.67300552 -0.073906176 0.82701546
0.7254203 -0.076509327 0.81512612
0.76747853 -0.075591281 0.80454355
-0.4227863 -0.047030989 0.82622755
-0.35338333 -0.013409155 0.81660455
-0.3424651 -0.0080343941 0.82343036
0.63138849 -0.025132364 0.84331971
0.67377675 -0.026210701 0.82760942
0.72504658 -0.026655389 0.81490064
0.76251751 -0.028037662 0.80450964
-0.36279395 0.033722561 0.82352662
-0.34057251 0.014189793 0.82316881
0.62967032 0.024055013 0.84340507
0.67460698 0.023791716 0.82932186
0.7237829 0.025315471 0.81421465
0.76042253 0.024154488 0.80402946
0.63050777 0.073893294 0.8428511
0.67443818 0.074802496 0.82912302
0.7244817 0.076478355 0.81460512
0.76045638 0.075824305 0.80279213
-0.33906132 0.11275923 0.8072052
0.58808011 0.1250903 0.84836793
0.62936932 0.11252999 0.84285372
0.67495412 0.11357006 0.83153778
0.72410411 0.11358729 0.8165825
0.76443696 0.1169977 0.8067438
0.80831593 0.12886681 0.80977917
1.0210886 0.14610635 0.83397365
-0.93822736 0.19006833 0.82688016
1.0396103 0.17765979 0.84504497
1.0535624 0.17931822 0.83913499
-0.93187547 0.22418262 0.82319921
1.038878 0.22530574 0.84454775
1.0581672 0.22888666 0.83843684
1.0402148 0.2749235 0.84632844
1.0627165 0.27400419 0.8371231
-0.32302949 0.32974476 0.83784533
1.0452055 0.32514897 0.84762359
1.0694125 0.32513571 0.8379308
-0.3109585 0.35514408 0.83077937
0.98799592 0.37993944 0.8446601
1.0293434 0.37647367 0.83119667
1.0699766 0.37143236 0.82118142
-0.28295892 0.41779909 0.81961536
0.98886931 0.42617461 0.84650201
1.0217894 0.42404103 0.83254266
1.0626291 0.42352748 0.81597978
-0.25952303 0.49066696 0.8377412
0.98860109 0.47366181 0.84550428
1.0260668 0.47565046 0.83123195
1.0559196 0.46773076 0.81729203
0.98968619 0.52600658 0.84528613
1.0233824 0.52407295 0.83082491
1.0531888 0.50163639 0.81924158
0.99054146 0.57412988 0.84459454
1.0162699 0.57177752 0.83241659
0.98565161 0.62501734 0.84475535
1.0083156 0.61765897 0.83618867
0.98179209 0.6709671 0.84502172
0.97086763 0.71618432 0.84836292
-0.10644639 -0.50135064 0.87986153
-0.07415498 -0.50416654 0.87511057
-0.025191162 -0.5082916 0.87554044
0.023418562 -0.51014525 0.87369001
0.075061806 -0.51127106 0.87407726
0.12373039 -0.51231021 0.87390113
0.17404062 -0.51168227 0.87465805
0.22625266 -0.50826079 0.87477183
0.27197295 -0.50340593 0.87117964
0.31382224 -0.50135154 0.85638744
-1.1737033 -0.46298927 0.89546865
-1.1214225 -0.46675172 0.87436211
-1.0776578 -0.47234055 0.87530667
-1.0179467 -0.47168896 0.87634355
-0.97712868 -0.47482318 0.87648201
-0.94016027 -0.47145098 0.88021868
-0.61238402 -0.47331837 0.87889826
-0.57346177 -0.47673252 0.87524706
-0.52271312 -0.47926396 0.87421882
-0.47386718 -0.48176512 0.87516207
-0.42604107 -0.48384294 0.87352991
-0.37592274 -0.48577648 0.87547129
-0.32526779 -0.48783067 0.87552416
-0.27563927 -0.48932675 0.87438303
-0.2294144 -0.48002297 0.87498808
-0.16757447 -0.48816165 0.87106985
-0.13151003 -0.49717721 0.87168056
-0.09415327 -0.49951443 0.87848806
0.28876951 -0.49795502 0.88677776
0.3287873 -0.49182102 0.8799777
0.37265748 -0.48812279 0.87341422
0.42604041 -0.4856137 0.87830114
0.47451118 -0.47470957 0.88000292
0.52324003 -0.47153655 0.87067425
0.57131732 -0.46528754 0.85954607
0.60419983 -0.45701891 0.85148519
0.48663339 -0.43023592 0.89584601
0.52486217 -0.4259586 0.8836894
0.57460773 -0.42480972 0.86739349
0.61586666 -0.42226642 0.85486406
0.4934642 -0.37855157 0.89789563
0.52511007 -0.37513664 0.887945
0.57450533 -0.37474304 0.87176192
0.61959577 -0.37330538 0.85704446
0.49513587 -0.32540837 0.89817172
0.5244469 -0.32439193 0.8889488
0.57479721 -0.32484895 0.8718127
0.62126034 -0.32468498 0.85766023
0.65007085 -0.3266634 0.85134459
0.49334732 -0.27068776 0.89743078
0.52517879 -0.27419376 0.88787961
0.57464093 -0.27504054 0.87095702
0.61798424 -0.27626076 0.85612911
0.49085191 -0.22135231 0.89714777
0.52522051 -0.22325917 0.88588709
0.57490313 -0.22458683 0.86941761
0.61645627 -0.2266456 0.85564786
-0.45310724 -0.16774093 0.87975979
-0.44785723 -0.15854442 0.85484481
0.48830715 -0.17302157 0.89613742
0.52449679 -0.17386389 0.8844896
0.57499492 -0.17540234 0.86794168
0.61596423 -0.1749488 0.85534793
-0.45373392 -0.14189133 0.8695581
-0.44691917 -0.13511297 0.86194146
0.4850834 -0.12319916 0.89518756
0.52432513 -0.12512241 0.88265145
0.57494396 -0.12589759 0.86691773
0.61319304 -0.12723491 0.8555389
0.66800439 -0.11643861 0.85319161
-0.44168946 -0.082946971 0.89310598
0.48222962 -0.074230731 0.89459485
0.52526015 -0.075094402 0.88034743
0.57558721 -0.07472562 0.86487508
0.60763109 -0.075823471 0.85350478
-0.41635069 -0.023711119 0.88405532
-0.34012616 -0.0091204904 0.8773756
0.48004103 -0.025579426 0.89374876
0.52373713 -0.025627585 0.87933266
0.57460237 -0.025824999 0.86305755
0.60826659 -0.028148614 0.8527931
-0.40543094 0.0091143083 0.88956749
-0.39143682 0.028184196 0.87773275
-0.34020597 0.015231457 0.87192237
0.47713405 0.023844566 0.89361256
0.52427936 0.023318583 0.87793136
0.57517779 0.023951989 0.86187196
0.60661495 0.023674879 0.85232675
0.47753555 0.075459726 0.89278322
0.5239439 0.075295329 0.87756133
0.5751422 0.075648151 0.86232722
0.60663831 0.075521223 0.85230339
0.47769809 0.11383412 0.89229053
0.52610475 0.11716461 0.87870443
0.57477772 0.12367173 0.87330168
0.60682446 0.11292563 0.85306931
0.87860125 0.14688985 0.89329547
0.91048783 0.14906847 0.8897211
0.98757076 0.1464116 0.85380745
1.0090773 0.14788432 0.85060006
-0.92492366 0.19070868 0.87503028
0.54905456 0.1539229 0.88712901
0.57739395 0.15472966 0.88531661
0.93147892 0.17558724 0.89125431
0.97342229 0.17504585 0.87368697
1.0136544 0.17497316 0.8568002
-0.92036647 0.22213951 0.87341493
-0.889961 0.2386232 0.87660789
-0.34482408 0.21629333 0.87577891
0.92872816 0.22512221 0.89189869
0.97349918 0.22490309 0.8728025
1.0141212 0.22535849 0.85604286
0.93096036 0.27414462 0.89122641
0.97461379 0.27545053 0.87343413
1.0156845 0.27555314 0.85657638
-0.34204561 0.30211282 0.88174713
0.93448651 0.32245484 0.89314967
0.97480065 0.3245222 0.87627292
1.0197204 0.32487565 0.85802358
-0.31210181 0.37649062 0.87631947
0.84632516 0.36538595 0.89919269
0.87991655 0.37905416 0.89049321
0.92812532 0.37674895 0.87369901
0.97046804 0.36968094 0.86593413
1.0229447 0.35727808 0.8591283
-0.28885844 0.44061401 0.88247591
0.88118666 0.42601702 0.89170557
0.92461216 0.42468145 0.87281239
0.96515888 0.42526311 0.85636288
-0.26837298 0.48065341 0.8712697
0.88060439 0.4753271 0.89171231
0.92406994 0.47461644 0.87327307
0.96374404 0.47548005 0.85657936
-0.25661802 0.51894844 0.88396776
0.87873191 0.52664202 0.89096367
0.92534834 0.52498388 0.87241763
0.96488255 0.52349871 0.85521841
-0.24042083 0.56734192 0.89412993
0.84923667 0.56972116 0.8985343
0.87731284 0.57476169 0.89071304
0.92520106 0.57496238 0.87112629
0.96729451 0.57622522 0.85540915
0.87672287 0.62374723 0.88975412
0.92541867 0.62416059 0.87008083
0.96074253 0.62576991 0.85553467
0.84848893 0.66383803 0.8984412
0.87573564 0.67449439 0.8887946
0.9263525 0.67449838 0.86793667
0.96091974 0.67435324 0.85338098
0.84679109 0.7283839 0.89889759
0.87616432 0.72450072 0.88772172
0.92445225 0.72516292 0.86679721
0.95689672 0.72412699 0.85393047
0.84654695 0.77314538 0.89922762
0.87396622 0.77490216 0.88689959
0.92283845 0.77300006 0.86616307
0.8431738 0.82470512 0.89734727
0.87499452 0.82557952 0.88610387
0.91117525 0.82275939 0.87183684
0.8409189 0.8764348 0.89743477
0.87194914 0.87255633 0.88481414
0.90258378 0.85513479 0.87291574
0.84052414 0.92091489 0.89656544
0.85998636 0.91902727 0.88896525
-0.15227698 -0.50009996 0.94376093
-0.12216825 -0.501921 0.92571181
-0.074114241 -0.50738961 0.92464131
-0.02538228 -0.51067275 0.92257082
0.025443992 -0.51263773 0.92333007
0.074814051 -0.51271039 0.92416054
0.12645285 -0.51277071 0.92290497
0.17593102 -0.51159513 0.92433685
0.22572917 -0.50640118 0.92281228
0.25937447 -0.50082445 0.90961868
-1.2295164 -0.4639475 0.94180614
-1.1693383 -0.46163633 0.92290312
-1.1251483 -0.46768287 0.92458963
-1.0727329 -0.47155327 0.9201287
-1.0244749 -0.46887001 0.92468137
-0.97746843 -0.4684335 0.91343474
-0.94505894 -0.4650256 0.905173
-0.61935753 -0.47493315 0.91125661
-0.57581127 -0.4759627 0.9133597
-0.52532107 -0.47997504 0.92039669
-0.47322613 -0.48251337 0.92343891
-0.42424527 -0.48497963 0.92636961
-0.37572059 -0.48794273 0.92502898
-0.32525793 -0.49010736 0.92639554
-0.27796465 -0.49152854 0.92261636
-0.23149003 -0.49046168 0.92461622
-0.17296499 -0.4970175 0.9253031
-0.13874465 -0.49863523 0.92012089
0.24695843 -0.49876264 0.94398129
0.27862108 -0.48712298 0.9298172
0.32185546 -0.47151011 0.92877877
0.37402743 -0.47043976 0.9177404
0.42228231 -0.46464983 0.90713614
0.45464027 -0.45069158 0.90148699
0.33379298 -0.42819259 0.94376171
0.37493396 -0.42574042 0.9306255
0.42451468 -0.4251129 0.91493571
0.4637318 -0.42098626 0.90439183
-0.60507083 -0.38396236 0.92829639
-0.58990467 -0.38128608 0.9336316
0.34227958 -0.37958977 0.94718814
0.37451279 -0.37469554 0.93679428
0.42448124 -0.37477124 0.92024064
0.46867335 -0.37544096 0.90646958
0.34597397 -0.32682726 0.94841337
0.37481818 -0.32509449 0.9387185
0.42462382 -0.32410145 0.9216978
0.46995664 -0.32493326 0.90669143
0.34513268 -0.27125716 0.94845772
0.37465486 -0.27457151 0.93838209
0.42461458 -0.27407587 0.92122054
0.46873623 -0.27573046 0.90625399
0.34394309 -0.22089361 0.94731522
0.37414435 -0.22407751 0.9370265
0.42476514 -0.22650754 0.91981286
0.46593431 -0.228076 0.9058345
-0.45705518 -0.16868344 0.92146587
0.34187663 -0.17292903 0.94717205
0.37595567 -0.1735065 0.93472558
0.42481479 -0.1755574 0.91796148
0.46337569 -0.17561595 0.90488148
-0.45309898 -0.13997211 0.9271822
-0.44854018 -0.12527737 0.92323285
0.33728614 -0.12385537 0.94569153
0.37407848 -0.12529044 0.9332301
0.42449567 -0.1245795 0.91604227
0.4610481 -0.12568869 0.90373015
-0.44475612 -0.090449281 0.92535639
0.33408859 -0.074697249 0.9439503
0.37565374 -0.074854352 0.9296304
0.42565313 -0.074145421 0.91320366
0.45743734 -0.078599773 0.9028908
-0.4185755 -0.024327284 0.91802931
-0.34148121 -0.013470331 0.90284801
0.29745713 -0.0092919758 0.94762546
0.32606611 -0.025101813 0.94034767
0.37428451 -0.026020797 0.92623574
0.42516559 -0.025553092 0.91149771
0.45643398 -0.025558861 0.90158838
-0.40680477 7.3544274e-05 0.9008761
-0.39728659 0.041289855 0.90225852
0.29552037 0.015843635 0.94803154
0.32853499 0.031072957 0.93658882
0.37501356 0.023513323 0.92405069
0.42461783 0.023346737 0.91031134
0.45351642 0.02014521 0.9011122
0.32662708 0.074286178 0.94232029
0.37433404 0.07471326 0.92624843
0.42524266 0.074653462 0.90966225
0.45432967 0.067069255 0.90078634
-0.36425513 0.13533436 0.94253159
0.32973295 0.1165948 0.94264209
0.37600178 0.11504995 0.92697215
0.42562675 0.11433151 0.91037261
0.4573459 0.1215737 0.90214908
0.54730332 0.1416931 0.94944727
0.5520035 0.14397909 0.92501783
0.78193933 0.14921151 0.93436772
-0.91063279 0.1927582 0.919375
-0.8910284 0.19399701 0.93054092
0.30828097 0.15595654 0.94925374
0.54604417 0.15434231 0.94204348
0.56576091 0.15812276 0.91076684
0.79463029 0.17569445 0.94782972
0.82543343 0.17616759 0.93470466
0.87541777 0.1743032 0.91554058
0.90644628 0.17747484 0.90282422
-0.90919691 0.21582024 0.91026932
-0.89401674 0.21771757 0.91513759
0.79285461 0.22766058 0.94755161
0.82431769 0.2250372 0.93509567
0.87457442 0.22442943 0.91475129
0.90504289 0.2225309 0.90261072
-0.35468429 0.2918607 0.91964996
-0.34927884 0.29915354 0.90267354
0.79366708 0.27452078 0.94738328
0.82479018 0.27481669 0.93477678
0.87394607 0.27469191 0.91529346
0.90531999 0.27600503 0.9022249
-0.33961284 0.33132353 0.92655337
0.79512697 0.31983569 0.94823176
0.82432628 0.32546496 0.93748385
0.87520498 0.32481638 0.91757119
0.91077685 0.32812274 0.90308529
-0.31940737 0.38003111 0.92633349
0.73412025 0.37586385 0.94555563
0.77618051 0.37676361 0.93342447
0.82397014 0.37388587 0.91902649
0.86931884 0.36343086 0.91559088
0.91748017 0.3585313 0.90444076
-0.30832887 0.4130671 0.92962587
-0.29541305 0.4329243 0.92143875
0.7442798 0.42188182 0.94725978
0.77539676 0.42434421 0.9346993
0.82604653 0.42447138 0.91449851
0.85738873 0.42524835 0.9016968
-0.28044829 0.47985435 0.92127866
0.74197131 0.47600523 0.94726539
0.77470171 0.47384781 0.93493372
0.82609528 0.47461641 0.91385096
0.85656732 0.47887808 0.90204567
-0.26293609 0.52605748 0.92136365
0.74379319 0.52303994 0.94793296
0.77537507 0.52493179 0.93464571
0.82607043 0.52483636 0.91303492
0.85753834 0.51775444 0.90304464
-0.25440386 0.55724967 0.93254453
-0.24338707 0.57669735 0.92677134
0.74117559 0.57515961 0.94700569
0.77420962 0.57460809 0.93517143
0.82416064 0.57419407 0.91249311
0.85547709 0.56737691 0.90183008
-0.23753595 0.6250174 0.94476664
0.7418583 0.62390453 0.94653738
0.77472693 0.62510407 0.93325043
0.82394958 0.62394583 0.91272467
0.8526144 0.6219933 0.9013465
0.7411198 0.67496932 0.94583118
0.77540362 0.67406613 0.93100685
0.82476431 0.67360455 0.91004843
0.73811042 0.72582895 0.94511276
0.77490926 0.72490835 0.9305706
0.82286185 0.72358799 0.91035521
0.73662782 0.77711231 0.94422549
0.77460158 0.77614355 0.92909801
0.82142454 0.77552462 0.90980422
0.73536766 0.82629329 0.94347239
0.77590215 0.82326519 0.92693853
0.81720763 0.82465106 0.90955132
0.73272932 0.87581789 0.94300765
0.77322066 0.87313843 0.92612863
0.81881624 0.87514681 0.90817636
0.73213232 0.91419053 0.94229257
0.77568913 0.91659826 0.92343712
0.81610858 0.92064112 0.90716189
-0.35220087 -0.50113153 0.9811728
-0.31707391 -0.50093859 0.97660202
-0.21728188 -0.50068951 0.96502715
-0.16539837 -0.50149643 0.98400158
-0.1243877 -0.50486082 0.97537202
-0.076087624 -0.51027036 0.97390956
-0.02655082 -0.51373756 0.97263706
0.02408048 -0.51378185 0.9727577
0.075561181 -0.5139966 0.97264516
0.12410317 -0.51373738 0.97491688
0.17506529 -0.51247603 0.976174
0.22282393 -0.50686181 0.97482318
-1.3062258 -0.45367458 0.98371077
-1.2827373 -0.4633722 0.97638971
-1.2206088 -0.46470439 0.97979259
-1.1697962 -0.4667502 0.97293204
-1.1175692 -0.46844515 0.97502935
-1.071595 -0.47145602 0.97601086
-1.0263731 -0.46888083 0.97589457
-0.99524969 -0.46548662 0.95692217
-0.59004855 -0.48389938 0.95366991
-0.52463377 -0.49020582 0.96796155
-0.45642039 -0.48387235 0.95071095
-0.42081684 -0.48753783 0.9576726
-0.37342894 -0.49076343 0.95801735
-0.32309452 -0.49419859 0.96091145
-0.28558734 -0.49237669 0.95338106
-0.22085051 -0.49741799 0.97589648
-0.17958048 -0.4986181 0.96694803
0.2474338 -0.49046254 0.97808272
0.26792175 -0.46719056 0.9593116
0.30227071 -0.45138076 0.95028257
-0.46828279 -0.42541081 0.99480963
0.27402443 -0.42539346 0.96715063
0.31110364 -0.41966173 0.95377624
0.27768531 -0.37418655 0.97146493
0.31795853 -0.37495789 0.95631742
0.27704433 -0.32523429 0.97396791
0.32127953 -0.32541955 0.95705372
0.27758569 -0.27546611 0.97362912
0.32060915 -0.27422768 0.95744163
-0.49602905 -0.20795171 0.96588111
0.27826151 -0.22433344 0.97142762
0.31969154 -0.2246864 0.95661366
-0.46024358 -0.15373719 0.96012366
0.27705747 -0.17497493 0.97050244
0.3166908 -0.17455111 0.95576137
-0.45429394 -0.12956062 0.96392643
-0.44823626 -0.10858004 0.96331465
0.27737159 -0.1259072 0.96861672
0.31267473 -0.12696996 0.95502096
-0.44047621 -0.070445918 0.9558773
0.27842408 -0.075541265 0.96464866
0.30953151 -0.07613679 0.95274043
0.27608851 -0.026403137 0.96140462
0.3027584 -0.038834039 0.95147908
0.27412766 0.024706034 0.96028739
0.27746549 0.07535667 0.96123618
0.30309573 0.081507534 0.95115566
-0.37189552 0.13386993 0.98662251
0.27944136 0.12285447 0.96503145
0.31514132 0.13472401 0.95948398
0.54580212 0.14702383 0.95173216
0.57115161 0.14774618 0.96791744
0.29011595 0.1654712 0.96729523
0.31076661 0.17092033 0.96102482
0.54934251 0.1537897 0.96287066
0.58178562 0.17034411 0.98360723
0.62521702 0.17913252 0.95843256
0.68330914 0.18215047 0.98474258
0.72525734 0.17595308 0.9744727
0.77072006 0.17621987 0.95768553
0.61714679 0.20387708 0.99254954
0.67818892 0.22561865 0.99242842
0.72517228 0.22368385 0.97440362
0.7682001 0.22521974 0.95763952
0.67969251 0.27419993 0.99164701
0.72479224 0.2749429 0.97381538
0.76870066 0.27551585 0.95674205
-0.35617733 0.32899037 0.97920054
-0.34307364 0.34778872 0.97621113
0.68163943 0.32184765 0.99337351
0.72460747 0.32626674 0.97683597
0.77085608 0.32490656 0.95858598
-0.32981792 0.38214409 0.97569478
0.59414864 0.36651838 0.99709493
0.62660557 0.37804842 0.98926103
0.6768539 0.37261125 0.97539532
0.71843737 0.37129757 0.96416128
0.77259302 0.35709703 0.95935869
0.80169529 0.35986957 0.95054609
-0.31365097 0.42451498 0.98259252
0.62983167 0.42656842 0.993218
0.67460233 0.42270508 0.97566533
0.71951246 0.42611992 0.95799595
-0.29053301 0.48925644 0.98687267
0.63175708 0.47478941 0.99294066
0.6740039 0.47436029 0.97607857
0.71665645 0.47481829 0.95855135
-0.27402738 0.52594358 0.97669095
0.63157392 0.52537644 0.99223423
0.6751895 0.525172 0.97575134
0.71882617 0.5255537 0.95793116
-0.2599664 0.56905234 0.98037046
-0.24676418 0.58718318 0.9688403
0.6318841 0.57775933 0.99234027
0.67538047 0.57415783 0.97498727
0.71822333 0.57506508 0.95723909
-0.23716691 0.62809527 0.98386627
0.63084364 0.62567919 0.99217761
0.67504489 0.62494278 0.97358036
0.71634424 0.62431127 0.95676404
-0.22866113 0.66105509 0.98460788
0.63024288 0.67565405 0.99182707
0.67316383 0.67499149 0.9733569
0.71650451 0.67392218 0.95719886
0.62939972 0.72462517 0.99130911
0.67491424 0.72538102 0.97183889
0.71390277 0.7239812 0.95573592
0.62672061 0.77552301 0.99059266
0.67625064 0.77373904 0.96990091
0.71259868 0.77421755 0.95449144
0.62769651 0.82322079 0.98908788
0.67371315 0.82427919 0.97001851
0.70934784 0.82425421 0.95477825
0.59887439 0.88232368 0.9989481
0.62455553 0.87197989 0.98874044
0.67613566 0.87547755 0.96711111
0.70914912 0.86811167 0.95367146
0.62677842 0.90650451 0.98635048
0.67510104 0.91024071 0.96568966
0.70826453 0.90931642 0.95333374
-0.22109205 -0.50074178 1.0273889
-0.17448583 -0.50233978 1.0237461
-0.12555487 -0.50779724 1.0257397
-0.074754514 -0.51415658 1.0257046
-0.026816873 -0.51650494 1.0228666
0.024259616 -0.51680386 1.0244381
0.075238124 -0.51638752 1.0244694
0.12573864 -0.51458269 1.0249436
0.17646679 -0.51206845 1.0266389
0.21777071 -0.5064854 1.0225954
-1.3585355 -0.45711493 1.0319577
-1.3255402 -0.4619492 1.0322677
-1.2822698 -0.46628755 1.0232607
-1.2203716 -0.46471986 1.0220296
-1.1797867 -0.46788466 1.0291891
-1.1225758 -0.46830335 1.0233544
-1.0748321 -0.46467265 1.0254995
-1.0463858 -0.46571541 1.0110645
-0.45962083 -0.4608843 1.0462364
-0.2531876 -0.49816811 1.0371844
-0.22776616 -0.49838987 1.022171
-0.19571443 -0.49907833 1.008626
0.22607803 -0.49108335 1.0224522
0.25240722 -0.48112676 1.0003108
-1.3643557 -0.44923079 1.0281901
-0.58251357 -0.41387582 1.014698
-0.50440085 -0.41292107 1.0451977
-0.47414038 -0.42761537 1.0286965
-0.579319 -0.39346838 1.0118999
-0.46031675 -0.097364753 1.0031161
-0.45804769 -0.037094735 1.0474511
-0.44842154 -0.039612956 1.0459452
-0.38087747 0.082707398 1.0348381
-0.37440237 0.12550661 1.0274554
-0.36968115 0.18448713 1.0275897
0.49932891 0.15706772 1.0491164
0.53741944 0.16967188 1.0444307
0.5693118 0.18152429 1.0311699
0.61925352 0.19340883 1.0155338
-0.36687696 0.22008653 1.021625
0.54264945 0.22857985 1.0470665
0.57503343 0.22559738 1.0336677
0.62461078 0.22842512 1.0130714
0.65452266 0.22600675 1.0015464
-0.3662523 0.28281468 1.0374454
0.54114401 0.27223071 1.0468771
0.57491738 0.2745977 1.0331681
0.62487632 0.27583808 1.0131135
0.65417981 0.27283821 1.00148
-0.35843071 0.32921985 1.0218818
-0.34866762 0.34746623 1.0168644
0.54420215 0.31632131 1.0480485
0.57487869 0.32459557 1.036533
0.62468129 0.32264358 1.015685
0.65842539 0.32831818 1.0030402
-0.35042906 0.35720608 1.0381786
-0.33855253 0.3793568 1.0194726
0.4831675 0.37666368 1.0433512
0.52573305 0.37672368 1.0303767
0.57478589 0.37321118 1.0179683
0.62310362 0.36126226 1.0146862
0.6588738 0.35567832 1.0034695
-0.32185999 0.42215189 1.024822
0.49296379 0.42482635 1.0475005
0.52438277 0.42476055 1.0347151
0.57470661 0.42532992 1.0146641
0.60544658 0.42677385 1.002813
-0.30531633 0.46485552 1.0309765
-0.29427302 0.49052858 1.0261862
0.49547824 0.47571215 1.0480926
0.52464199 0.47603863 1.0359148
0.57457381 0.47608078 1.0157014
0.60771954 0.47548568 1.0025492
-0.27916938 0.5296936 1.0271052
0.49389997 0.52773839 1.0476128
0.52508289 0.52562141 1.0355164
0.57522595 0.5254429 1.0153944
0.60663211 0.52346456 1.0027044
-0.26177931 0.57566994 1.0260396
-0.24785072 0.59762424 1.0171871
0.4941293 0.57544351 1.0476552
0.52480316 0.5745784 1.0354397
0.5753243 0.57465255 1.0151631
0.60759872 0.57539839 1.0027815
-0.25264633 0.60429019 1.0490324
-0.24008386 0.619537 1.0254825
0.49217772 0.6252889 1.0476036
0.52452624 0.62477624 1.0356743
0.57430524 0.62604558 1.0156976
0.60634911 0.62593204 1.0031819
-0.22526591 0.67612696 1.0272384
0.49294207 0.67408043 1.0466294
0.52403677 0.67520249 1.034536
0.57501751 0.67502069 1.0147696
0.60645264 0.67470461 1.0023681
-0.21574821 0.72589976 1.0332583
0.49266568 0.7296356 1.0467689
0.5247848 0.72376627 1.0339916
0.57461017 0.72314334 1.0142393
0.60521013 0.72917151 1.0022669
-0.21078937 0.75499249 1.0420841
0.49031994 0.77271187 1.0458583
0.5262658 0.77381009 1.0325333
0.57577282 0.77323753 1.0123553
0.60311025 0.77246952 1.0014979
0.48787206 0.82361525 1.0460236
0.52500051 0.82535768 1.0314169
0.57465494 0.82481027 1.0113543
0.60604131 0.83132285 1.0007176
0.48654786 0.87418067 1.0448211
0.52487868 0.87555462 1.0300854
0.57450753 0.87699491 1.0106816
0.48591876 0.9035508 1.043794
0.5235427 0.90641052 1.031616
0.5731346 0.90699321 1.0090352
-0.25951231 -0.50141966 1.0802591
-0.22056672 -0.50229663 1.0763813
-0.17336738 -0.50527334 1.0746928
-0.12581834 -0.51054198 1.0758659
-0.076286301 -0.51677531 1.0750396
-0.025123566 -0.51790392 1.0705526
0.024816727 -0.51908851 1.0727804
0.074351251 -0.51743746 1.0748316
0.12495895 -0.51609653 1.0727414
0.17251898 -0.5084157 1.0717878
0.23598215 -0.50854713 1.0908804
0.25891876 -0.50644124 1.0789214
-1.4107194 -0.45507869 1.0805575
-1.371653 -0.45369071 1.0701325
-1.3278905 -0.46126509 1.0778124
-1.2724125 -0.46725288 1.0731524
-1.2175646 -0.46566615 1.0769398
-1.1705486 -0.46498364 1.0804908
-1.1288996 -0.46465304 1.077962
-1.0807092 -0.45985293 1.0836908
-0.62168455 -0.4679558 1.0933232
-0.55526334 -0.47023359 1.0892452
-0.54616117 -0.4641411 1.0943142
-0.46123993 -0.46569932 1.0749613
-0.42455328 -0.47772181 1.0860151
-0.37271896 -0.48179141 1.0857922
-0.3250289 -0.49066752 1.0875903
-0.27886418 -0.49776191 1.0785702
-0.24257071 -0.49885857 1.0684043
0.18814877 -0.49374345 1.066659
0.20548248 -0.49369916 1.0578822
-1.403036 -0.44859436 1.0758235
-0.58212429 -0.42160445 1.0502459
-0.50901282 -0.41048604 1.0641911
-0.47758788 -0.43436936 1.071257
-0.30337825 -0.44017664 1.098505
-0.27056238 -0.43108705 1.0969297
-0.48271126 -0.061860558 1.0816615
-0.46884441 -0.047052149 1.0719943
-0.3815161 0.090171114 1.0776126
-0.37684625 0.12538089 1.0768034
-0.37514392 0.17331684 1.0776839
0.38815865 0.17903219 1.0869771
0.43748927 0.18344465 1.0925217
0.4760139 0.18018858 1.0750022
0.52066559 0.18128748 1.0585201
-0.37236655 0.2249652 1.0761677
0.37456518 0.21138589 1.09518
0.43423972 0.2265166 1.0939043
0.47520095 0.22657914 1.0759164
0.51876682 0.22547135 1.0577116
-0.36878079 0.27695075 1.0717446
0.43228734 0.27461007 1.092822
0.47393715 0.27495128 1.0749965
0.5160538 0.2752243 1.0575545
-0.36271212 0.32563642 1.076965
0.4358654 0.32218042 1.0927936
0.47579816 0.3231771 1.0768218
0.52106231 0.32456514 1.0589732
-0.35310015 0.36010516 1.074638
-0.34528491 0.38255125 1.0750506
0.34435627 0.37329289 1.0976117
0.37596935 0.380301 1.087222
0.42772871 0.37469831 1.0721767
0.47077319 0.36820802 1.0668054
0.52381963 0.35594106 1.0595003
-0.32857743 0.42609686 1.0745916
0.38075748 0.42392525 1.0918926
0.42674935 0.42609379 1.0734723
0.46925753 0.42619818 1.056538
-0.31031612 0.47346243 1.0799929
-0.29653528 0.4911505 1.0722864
0.38279155 0.47432312 1.0930423
0.4242155 0.4747608 1.0766292
0.47072622 0.47488037 1.0576758
-0.28638583 0.52238065 1.0816985
0.38336304 0.52439922 1.0930463
0.42491204 0.52389175 1.075868
0.46945605 0.52377462 1.0582263
-0.26299745 0.57177973 1.0781425
-0.24691778 0.58643943 1.0885084
0.38336334 0.57270259 1.0923709
0.42481929 0.57612169 1.0761092
0.47019899 0.57361454 1.0573512
-0.25238466 0.60194421 1.0640535
-0.24016801 0.6212436 1.0746828
0.38203794 0.62420654 1.092424
0.42536774 0.62637633 1.0750805
0.46790776 0.62454402 1.0580862
-0.22693491 0.66145396 1.0717688
0.38080689 0.67597878 1.0924182
0.42459959 0.67485392 1.0744054
0.46799326 0.67417198 1.0579
-0.21643853 0.72006953 1.0539072
0.37858388 0.72580951 1.0923845
0.42506409 0.72297478 1.0743988
0.46854898 0.7219556 1.056463
0.37783825 0.77661622 1.0916389
0.42422232 0.77249163 1.0731032
0.46531329 0.77423531 1.05733
0.37765968 0.82508767 1.091588
0.42542133 0.82424015 1.0724604
0.46361411 0.82566315 1.0571698
0.37812525 0.87528414 1.0902593
0.42384803 0.8752712 1.0711904
0.46232685 0.87677777 1.05656
0.37099725 0.9076373 1.0918006
0.42439219 0.90489984 1.0685723
0.46405551 0.90556067 1.0551602
-0.26340294 -0.50054115 1.1279271
-0.22531353 -0.50218189 1.1234828
-0.17667086 -0.50562924 1.1239362
-0.12397455 -0.51192117 1.1254164
-0.073491171 -0.51746923 1.1233639
-0.025121303 -0.51857412 1.1232601
0.024398362 -0.51885581 1.1240991
0.074813597 -0.51755089 1.1225083
0.12676911 -0.51291054 1.1228831
0.17158286 -0.50644374 1.1239531
0.22651793 -0.50913799 1.1271333
0.26415107 -0.50610375 1.1269408
-1.4724442 -0.45536605 1.1298418
-1.4226143 -0.45464915 1.1229725
-1.3741621 -0.46082312 1.1283299
-1.3147422 -0.46009317 1.1232718
-1.2798513 -0.46259165 1.1260765
-1.2264202 -0.46319553 1.1218219
-1.1712971 -0.46292931 1.1315163
-1.117029 -0.4596841 1.1229804
-1.0744114 -0.46436474 1.1297873
-1.026379 -0.46851334 1.1414279
-0.97122264 -0.46686551 1.1276743
-0.93944627 -0.46326718 1.1269052
-0.78294039 -0.4508478 1.1354222
-0.61809945 -0.46681017 1.1221396
-0.57898593 -0.46618849 1.1205447
-0.4670651 -0.46943292 1.1289383
-0.42603418 -0.47358319 1.1246172
-0.3731885 -0.47122583 1.1254658
-0.32418779 -0.47318625 1.1151143
-0.27491012 -0.47888136 1.1190066
-0.22681497 -0.48819008 1.1365862
-0.18377578 -0.48341265 1.1428841
0.13725106 -0.49661836 1.1407399
0.16111301 -0.49734312 1.1162469
0.27945855 -0.4876155 1.1375313
-0.78455287 -0.44754019 1.1354773
-0.60401124 -0.44632307 1.1169835
-0.46880794 -0.42331824 1.1388052
-0.42097721 -0.41836962 1.1344287
-0.37389013 -0.42376941 1.1263179
-0.32551536 -0.42300126 1.1186097
-0.27781036 -0.42473239 1.1112156
0.28690702 -0.4455204 1.1410048
-0.46396661 -0.3781966 1.1449851
-0.42444158 -0.37463215 1.1384754
-0.37363797 -0.3760685 1.1292682
-0.32448608 -0.37291881 1.1223696
-0.27730823 -0.37518132 1.1170988
0.29013816 -0.36365071 1.1490721
-0.46334323 -0.34479755 1.1462698
-0.41986886 -0.32632199 1.1405162
-0.37405434 -0.32594711 1.1334579
-0.32491699 -0.32419202 1.1252683
-0.28044954 -0.32584229 1.1247689
-0.47529441 -0.27533302 1.1479232
-0.42474899 -0.27442119 1.1413784
-0.37476423 -0.27556634 1.1315633
-0.3251904 -0.27540076 1.124205
-0.28051814 -0.27565277 1.1228639
-0.50433594 -0.20575735 1.1486632
-0.47146457 -0.21707936 1.1472378
-0.41799381 -0.22790089 1.1437764
-0.37404898 -0.22468486 1.133404
-0.3258329 -0.22591713 1.1260041
-0.27964067 -0.22539787 1.1186939
-0.51048678 -0.1534771 1.108678
-0.47408581 -0.1832605 1.1487632
-0.41861513 -0.17710423 1.1404915
-0.3749485 -0.17416489 1.1372563
-0.32426989 -0.17492157 1.126534
-0.27979383 -0.1759305 1.1227584
-0.51255953 -0.12164196 1.1246977
-0.47804964 -0.12352278 1.1460918
-0.42113373 -0.12563328 1.1444635
-0.3744095 -0.12426571 1.139576
-0.32516178 -0.12343288 1.135128
-0.28213543 -0.12766835 1.1287465
-0.50734955 -0.09139356 1.1209728
-0.47349581 -0.076779887 1.135075
-0.44490153 -0.094344027 1.1404481
-0.38564658 -0.096005224 1.1394428
-0.31444463 -0.095400833 1.1462667
-0.2867603 -0.095382057 1.1393762
-0.46212578 -0.044872582 1.1147609
-0.38275158 0.09678708 1.1129982
-0.37928534 0.12207989 1.1247261
-0.37578902 0.17287113 1.1300783
0.29941896 0.16309896 1.1454695
0.31721127 0.18895179 1.1430763
0.39056259 0.18909778 1.1098995
0.41278425 0.1818738 1.1063466
-0.37347785 0.22586 1.1260157
0.33114865 0.23284498 1.1410155
0.37842116 0.23321798 1.1171086
0.41170537 0.22156428 1.1044209
-0.36834979 0.27618581 1.125795
0.33335656 0.27544963 1.141112
0.37629598 0.27440956 1.1184285
0.40753707 0.27534011 1.103452
-0.35937828 0.326442 1.1248305
0.33343917 0.322981 1.1418812
0.37453794 0.32545951 1.1209736
0.41118708 0.32749048 1.1041995
-0.35392475 0.36539397 1.1249286
-0.34644058 0.38748741 1.1310123
0.24579574 0.39389279 1.1433764
0.27691019 0.38137242 1.1330847
0.32655352 0.37456673 1.1220646
0.37294659 0.36000142 1.1208075
0.41248447 0.35748473 1.1047407
-0.33163774 0.42678645 1.1269747
0.24551438 0.42051733 1.1421142
0.27478504 0.42493105 1.1372294
0.32466775 0.42488465 1.1169486
0.35638058 0.42831483 1.103404
-0.31190664 0.47179902 1.1248478
-0.29338685 0.49708188 1.1313807
0.24579619 0.47920066 1.144136
0.27628413 0.47537211 1.1372626
0.32494909 0.47507596 1.1177484
0.35920992 0.47534287 1.1039118
-0.3025125 0.50287807 1.1249202
-0.28204438 0.52481407 1.1194437
0.24553452 0.52114111 1.1458323
0.27373731 0.52612054 1.1378242
0.32452279 0.52491027 1.1176289
0.35799313 0.5250501 1.1040269
-0.26174232 0.56747913 1.1224256
0.24720789 0.58175176 1.1459445
0.27633604 0.57431525 1.1367567
0.32517621 0.57552588 1.1169062
0.35824716 0.57675821 1.1030309
-0.2517162 0.61516702 1.136076
-0.24139173 0.62055403 1.1105615
0.24628867 0.62349737 1.1456922
0.27478191 0.62512922 1.1361532
0.32606387 0.62421727 1.1161699
0.35795468 0.62443095 1.1029394
-0.23206273 0.65598547 1.1122622
0.24851266 0.66851854 1.1484649
0.27550977 0.67500991 1.1358231
0.3238132 0.67342836 1.1160889
0.35623592 0.67398566 1.102716
0.27476519 0.72378486 1.1355885
0.32538798 0.72466707 1.114568
0.3539252 0.72907561 1.1027899
0.24724503 0.77546942 1.1475042
0.27505258 0.77483946 1.134463
0.32437316 0.77496207 1.1146003
0.35607672 0.77297944 1.1020335
0.24771516 0.83878195 1.1449089
0.27483708 0.82432652 1.1338958
0.3264024 0.82400137 1.1126424
0.35484079 0.82029259 1.1020879
0.24687544 0.87578356 1.143914
0.27583846 0.87534195 1.131721
0.32330835 0.87412226 1.1132925
0.35298508 0.86839354 1.1024268
0.24642554 0.91785353 1.1421883
0.27424997 0.91299039 1.1318016
0.32401767 0.91017592 1.1112717
0.35093415 0.90320516 1.1023424
-0.16963477 -0.50381571 1.1607792
-0.12572646 -0.50983268 1.1773014
-0.074488133 -0.51532185 1.1732031
-0.025214735 -0.51579511 1.1759131
0.025962399 -0.5144037 1.1745008
0.077140838 -0.51172107 1.1767938
0.11934374 -0.50790906 1.1715308
0.17554151 -0.50517076 1.175029
0.22363542 -0.50441241 1.1608678
0.25444812 -0.50280482 1.1583874
-1.458149 -0.45613199 1.1595918
-1.4167776 -0.4552846 1.1695856
-1.3768675 -0.46154457 1.1764699
-1.3317287 -0.46187937 1.1756462
-1.2668688 -0.46198454 1.1759766
-1.2214134 -0.46366248 1.1751926
-1.1826531 -0.46585172 1.1857731
-1.1220225 -0.45924929 1.1714363
-1.0678381 -0.46037492 1.1551406
-1.0253551 -0.46160007 1.1763268
-0.97904658 -0.46499082 1.1673173
-0.78155947 -0.45107487 1.1621065
-0.61002958 -0.46722665 1.1869118
-0.579633 -0.46242994 1.1770132
-0.52396214 -0.45770282 1.1882896
-0.47649309 -0.46261835 1.1712147
-0.42492345 -0.46307647 1.156739
-0.38794962 -0.46422687 1.152392
-0.25608692 -0.47003788 1.1801429
-0.23498437 -0.48112398 1.1880357
-0.17400333 -0.49430534 1.1744471
-0.1403694 -0.49060908 1.1828817
0.089371964 -0.48491043 1.1952879
0.11708455 -0.4925206 1.1812474
0.18052226 -0.48596203 1.1926908
0.22379796 -0.47525293 1.1831245
0.2676194 -0.47352967 1.1646858
-1.4607341 -0.44978416 1.1716353
-0.99300855 -0.44980195 1.1994272
-0.813986 -0.44178125 1.1765079
-0.77955079 -0.4455753 1.180806
-0.74366641 -0.44695336 1.1800752
-0.6930871 -0.43104768 1.1858529
-0.51864386 -0.43336561 1.1705693
-0.47641337 -0.42773214 1.1586235
-0.43178809 -0.44516635 1.1524868
-0.25931421 -0.42398143 1.1767176
-0.24192253 -0.43050516 1.1893474
-0.18890487 -0.42354923 1.1885035
0.23476663 -0.42699003 1.1928122
0.27197674 -0.42504555 1.1758657
-0.51076627 -0.36668852 1.1594913
-0.47488183 -0.36959374 1.1527768
-0.26176032 -0.3687351 1.184227
-0.24439478 -0.39579129 1.1987112
-0.18212202 -0.37903148 1.1933067
0.23985726 -0.37395039 1.1968963
0.27139804 -0.37527093 1.1824765
-0.50894952 -0.31980774 1.1666135
-0.47331643 -0.32564974 1.1593875
-0.43825468 -0.32035649 1.1516809
-0.39625171 -0.32745442 1.1513624
-0.26796329 -0.33102643 1.1595179
0.24418488 -0.3260892 1.1980129
0.27322632 -0.32608479 1.1836679
-0.51732123 -0.27652726 1.1700592
-0.47262183 -0.27373844 1.1621201
-0.43351957 -0.27605495 1.1545819
-0.26595151 -0.26734146 1.1525948
0.24787185 -0.27844441 1.1986176
0.27410302 -0.27451196 1.1863968
-0.5154894 -0.23206313 1.1645588
-0.46935552 -0.22415082 1.1609292
-0.43012258 -0.22112389 1.1541512
-0.39699858 -0.22803253 1.1512926
0.24796903 -0.2317701 1.1990473
0.27445793 -0.22435157 1.1852695
-0.51412201 -0.17484128 1.170925
-0.47547731 -0.17526537 1.158663
-0.43389761 -0.17238449 1.1559246
-0.39195642 -0.17510772 1.151876
0.24651502 -0.1574824 1.1998817
0.27371606 -0.17486168 1.1866248
-0.5114603 -0.13496371 1.1637884
-0.47390223 -0.12661693 1.1602674
-0.42909515 -0.1230875 1.1551272
-0.27031592 -0.11089724 1.1587547
0.24597917 -0.13385648 1.1991267
0.27392864 -0.12466811 1.1867509
-0.50095892 -0.099228591 1.1507263
-0.47695982 -0.09002281 1.1632439
-0.42569616 -0.091895513 1.1693208
-0.37144116 -0.092104457 1.1707376
-0.32879511 -0.092724584 1.162642
-0.27423653 -0.095601171 1.1556196
0.24527931 -0.052211598 1.1998323
0.27247059 -0.07495176 1.1870512
0.24496374 -0.026061984 1.198784
0.27185667 -0.025862476 1.185748
0.24452342 0.02895865 1.1965518
0.27243966 0.02235961 1.1842825
-0.38986269 0.096445799 1.1672081
0.24330868 0.076370507 1.1956772
0.27337176 0.074812762 1.1810517
-0.38202685 0.12723432 1.1753702
0.23725209 0.12531236 1.1956975
0.2733776 0.12692508 1.1782444
-0.3733508 0.17862289 1.1783926
0.23392573 0.17548926 1.1940917
0.27396959 0.1747991 1.1759288
0.30915901 0.19029681 1.155688
-0.3666327 0.22266267 1.1744065
0.23077799 0.22507219 1.1927745
0.27507493 0.22476715 1.1724391
0.31014413 0.22565779 1.1548934
-0.36250639 0.27320874 1.1775281
0.23067068 0.27457032 1.1906375
0.27475634 0.27479243 1.1703806
0.30837324 0.2750825 1.154134
-0.35683727 0.32558754 1.1795303
0.22764869 0.32548749 1.1907289
0.27522653 0.32411447 1.1693407
0.30885914 0.32819161 1.1546235
-0.35182366 0.36054426 1.1717741
-0.34577769 0.37998602 1.1769706
0.22762662 0.37576985 1.1887282
0.27197236 0.36457533 1.1683884
0.3110638 0.36031261 1.1556728
-0.33074811 0.42413062 1.1757188
0.19966213 0.42036849 1.1994528
0.22523423 0.42515168 1.1865084
-0.31106234 0.47181115 1.1733662
-0.29936939 0.49357128 1.1678102
0.19605994 0.48336828 1.1998396
0.22294694 0.47461095 1.1865039
-0.28679308 0.52811462 1.1731522
0.19773209 0.52533525 1.1987883
0.22445138 0.52524775 1.185992
-0.27183294 0.55597401 1.1654886
0.19691218 0.57382083 1.199138
0.22463572 0.57430762 1.183998
-0.24993902 0.62581342 1.1567373
0.194488 0.62640524 1.1985199
0.22523394 0.62449127 1.1833838
0.19641605 0.67423964 1.1974535
0.22614065 0.67420483 1.1820439
0.1945225 0.72935826 1.197727
0.22629143 0.72438645 1.1802655
0.19362642 0.77848494 1.1972411
0.22526784 0.77280575 1.1812745
0.19147864 0.8229757 1.1976577
0.22542843 0.82342827 1.1791836
0.1916766 0.87322444 1.1955206
0.22472957 0.87473822 1.1801295
0.1893643 0.92528492 1.1963912
0.22280312 0.9252134 1.1807835
0.18607311 0.95790964 1.1966473
0.21635039 0.95579338 1.1852213
-0.17621487 -0.50030732 1.225798
-0.11039922 -0.5052861 1.2172915
-0.075703181 -0.50738996 1.2260654
-0.026805926 -0.50788993 1.2232696
0.021402264 -0.50671631 1.2167237
0.065589242 -0.50326365 1.2098213
0.13561822 -0.50169021 1.2047268
-1.4684923 -0.45731527 1.2282399
-1.4234567 -0.45945889 1.2212515
-1.3803283 -0.46281359 1.2278929
-1.3223696 -0.46346533 1.2251308
-1.2696034 -0.46234712 1.2201426
-1.2291756 -0.46023306 1.2179482
-1.177527 -0.4584837 1.2221379
-1.1260486 -0.4639689 1.2285504
-1.0893607 -0.46666077 1.236485
-1.0202771 -0.45546797 1.2040268
-0.99560535 -0.4582549 1.200227
-0.25439334 -0.46303397 1.2018883
-0.2194742 -0.48116261 1.2226452
-0.17466597 -0.48521319 1.2352772
-0.12406704 -0.49030674 1.2285283
-0.078297138 -0.48132271 1.2375588
-0.023887157 -0.48494726 1.2358872
0.023136592 -0.48655266 1.2306399
0.077077575 -0.4795889 1.2308011
0.12500821 -0.47337595 1.2208099
0.17037986 -0.46808875 1.2077522
0.20108275 -0.4534356 1.2010579
-0.85357636 -0.44155017 1.24273
-0.82394892 -0.44240075 1.2321951
-0.7792632 -0.44351384 1.2280084
-0.72850788 -0.43110126 1.2229124
-0.68275338 -0.43328279 1.2341253
-0.26266867 -0.40888223 1.2004853
-0.22172315 -0.42120549 1.212202
-0.17671533 -0.42579365 1.2238429
0.089779504 -0.43057892 1.2473743
0.12439293 -0.4249194 1.2364771
0.17470652 -0.42486915 1.217283
0.21017319 -0.42096236 1.2039403
-0.72307253 -0.39562947 1.2252194
-0.63517678 -0.38459399 1.2459168
-0.25988922 -0.37497604 1.2109431
-0.22631066 -0.37369946 1.2285839
-0.18919083 -0.3765499 1.2179785
0.12704323 -0.37568673 1.2410281
0.17515525 -0.37424341 1.223242
0.21611416 -0.37521341 1.206825
-0.26632839 -0.33091912 1.2239457
-0.22434524 -0.32820684 1.2374161
-0.18841785 -0.32350042 1.2345837
0.13066192 -0.32599413 1.2429689
0.1760911 -0.32509294 1.2259364
0.2216644 -0.32311863 1.2080653
-0.21402825 -0.27248496 1.2431213
-0.19616114 -0.25456002 1.2285386
0.13214441 -0.27624309 1.2441126
0.17541911 -0.2745263 1.2275336
0.22355264 -0.27503651 1.209024
-0.20959778 -0.21911789 1.2404348
-0.17486876 -0.20434262 1.2411722
0.13356496 -0.22589274 1.244513
0.17503339 -0.2244139 1.2291305
0.22285889 -0.22516373 1.2101971
-0.28028959 -0.16690162 1.2399083
-0.21279615 -0.19919524 1.2434707
-0.1672181 -0.17205334 1.2349498
0.13360783 -0.17498207 1.2445763
0.17384271 -0.17533462 1.2299315
0.22509828 -0.17516638 1.2093184
-0.27952272 -0.12922075 1.2353218
-0.17038122 -0.1240436 1.2417017
0.13392994 -0.12514906 1.2448596
0.17300078 -0.12471726 1.2300932
0.22300749 -0.12553579 1.2102494
0.25248328 -0.14589192 1.2006859
-0.28102893 -0.094136268 1.2102746
-0.16444939 -0.077627704 1.2432313
0.13463616 -0.074342959 1.2443489
0.17413874 -0.074765719 1.2289302
0.22311966 -0.07620994 1.2094843
-0.16229661 -0.026801016 1.2415484
0.13390988 -0.026304472 1.2432036
0.17494833 -0.026830088 1.2273334
0.22009227 -0.02621359 1.2089567
-0.16231066 0.023860542 1.2416474
0.13284977 0.024597334 1.2421795
0.17514259 0.023571875 1.2258018
0.21905521 0.02282575 1.2082131
-0.16307628 0.068875842 1.2464154
0.13229002 0.074619211 1.241258
0.17577831 0.075153343 1.2239648
0.21644443 0.075104348 1.2070123
-0.3813552 0.12918714 1.2154408
-0.16032661 0.10792941 1.2467588
0.12847243 0.1256153 1.2401528
0.17446566 0.12506828 1.2218772
0.21196982 0.12406552 1.206032
-0.36999434 0.175367 1.2130375
0.097770363 0.18950017 1.2489345
0.12650432 0.17578468 1.2389462
0.17599058 0.17509589 1.2188942
0.20946619 0.1739243 1.2047173
-0.36099198 0.2268652 1.2123138
-0.26936746 0.22121847 1.2420154
-0.24874838 0.23203105 1.2494282
0.096413232 0.22929578 1.2483264
0.12464207 0.22427757 1.2377001
0.17285442 0.22568479 1.2177063
0.20616283 0.22418736 1.2038044
-0.35542172 0.27744356 1.2188901
-0.33434531 0.29440868 1.2375313
0.09523043 0.27548108 1.2474591
0.12523091 0.27432987 1.2356174
0.17327185 0.27572083 1.2156705
0.20590809 0.27152485 1.2024417
-0.35241538 0.31968179 1.2152008
-0.33513972 0.30600759 1.235375
0.095460355 0.32735062 1.246784
0.12537046 0.32488084 1.2344893
0.17450315 0.32528174 1.2139734
0.20344017 0.31814885 1.2015675
-0.35028872 0.3641642 1.2099057
-0.34533644 0.37916285 1.2101021
0.093294866 0.378557 1.2456445
0.12556213 0.37473938 1.2330965
0.17585351 0.37489274 1.2116134
0.2038285 0.35908794 1.2008611
-0.33052579 0.42865396 1.2097926
0.089483231 0.42511654 1.2457738
0.12555169 0.42536947 1.2314676
0.17560089 0.42414925 1.2110243
0.20038928 0.4339588 1.2008408
-0.30727711 0.48808104 1.2041632
0.087071322 0.47649196 1.2456936
0.12458515 0.47501603 1.230502
0.17393552 0.47435537 1.2106284
0.08846987 0.52582091 1.2440612
0.12468792 0.52449578 1.2296065
0.17321497 0.52529216 1.2096161
0.085416205 0.57504636 1.2447276
0.12420608 0.57502514 1.2290715
0.17203824 0.5742209 1.2090141
0.085080385 0.6253432 1.2437683
0.1261601 0.62444764 1.2273835
0.17166607 0.62460935 1.208583
0.085544229 0.67611676 1.2431077
0.1267343 0.67429113 1.2265905
0.17178962 0.67623895 1.2080531
0.082347311 0.72334021 1.2434751
0.12339261 0.72600824 1.2266933
0.16988675 0.72501773 1.2080809
0.080696113 0.77465844 1.2433038
0.12389752 0.77540892 1.2263969
0.16809964 0.7739566 1.2081575
0.082525089 0.8234815 1.2423009
0.12604973 0.82422906 1.2242919
0.16864491 0.82517296 1.206569
0.080917753 0.87326902 1.241783
0.12385933 0.87456977 1.2236885
0.16566016 0.87562525 1.2074088
0.080740273 0.92425853 1.2409935
0.12775458 0.92451686 1.2216926
0.16554567 0.92463702 1.2069283
0.07664036 0.97314316 1.2426225
0.12271157 0.96550947 1.223514
0.16448708 0.96081942 1.2061598
-0.076150447 -0.50217241 1.2548625
-1.5112185 -0.45990252 1.2894033
-1.4736842 -0.46532765 1.2835306
-1.4224412 -0.45892471 1.2703892
-1.3791162 -0.46180275 1.2781017
-1.3225422 -0.4632023 1.2643324
-1.2803026 -0.45998332 1.2731533
