ply
format ascii 1.0
comment PCL generated
element vertex 1507
property float x
property float y
property float z
element camera 0
property float view_px
property float view_py
property float view_pz
property float x_axisx
property float x_axisy
property float x_axisz
property float y_axisx
property float y_axisy
property float y_axisz
property float z_axisx
property float z_axisy
property float z_axisz
property float focal
property float scalex
property float scaley
property float centerx
property float centery
property int viewportx
property int viewporty
property float k1
property float k2
end_header
0.4070729 1.3279389 1.8265835
-0.56276441 1.371884 1.8207484
-0.54938138 1.3593727 1.841822
-0.12161686 1.3735814 1.8273367
-0.08188574 1.3830862 1.8294108
0.023270538 1.3643403 1.8315225
0.085679233 1.3657618 1.8419497
-0.56467652 1.4243768 1.8208213
-0.54706168 1.428858 1.8424897
-0.10428127 1.4293168 1.8140072
0.030593833 1.4392334 1.8221952
0.069087245 1.4310471 1.8309668
-0.56364167 1.4732071 1.8239148
-0.11430564 1.4680775 1.8424454
-0.091966331 1.4511977 1.8222334
0.0026719922 1.4650748 1.8415837
0.065933928 1.4516838 1.8338654
-0.55918616 1.5076199 1.8321899
-0.54686308 1.512044 1.8448048
-0.51240861 -0.35886288 1.8675761
-0.4965992 -0.36026022 1.871587
-0.5129258 -0.32654119 1.8699367
-0.49591741 -0.32840779 1.8954862
-0.51379067 -0.27386248 1.8694657
-0.497051 -0.27221391 1.893916
-0.51618046 -0.22478653 1.8688184
-0.49899626 -0.2227581 1.8950307
-0.51560134 -0.17411932 1.8703171
-0.49845743 -0.17616375 1.8962215
2.2043104 -0.19302325 1.8982497
-0.51468271 -0.12460325 1.8718101
-0.49793142 -0.13426593 1.8964872
-0.51524395 -0.074433282 1.8708674
-0.49758238 -0.078625947 1.8972021
-0.51430428 -0.027366567 1.87078
-0.4973689 -0.023055723 1.8973289
-0.51478899 0.022956826 1.8725392
-0.49740943 0.0093210926 1.8975737
-0.51462442 0.073280819 1.8710442
-0.49755225 0.083386578 1.8968515
-0.5154103 0.12379877 1.8720856
-0.49819276 0.12521052 1.8976994
-0.51546383 0.17421189 1.8695605
-0.49832743 0.17624301 1.8954808
-0.51614881 0.22500494 1.8706542
-0.49869937 0.22277732 1.8935887
2.1990862 0.24521206 1.8637726
-0.51410401 0.27680027 1.8739626
-0.49978378 0.2666539 1.8939161
2.2259727 0.27428505 1.8834347
-0.51474208 0.3239235 1.8726528
-0.51335198 0.37385398 1.8727909
-0.49506146 0.39429519 1.8984632
-0.51317728 0.42560199 1.8728695
-0.49537104 0.41333413 1.8969033
-0.51519454 0.47576714 1.8688304
-0.49810266 0.47699997 1.8974881
-0.513448 0.52484959 1.8717952
-0.49898434 0.51569104 1.8940192
-0.51303703 0.57454765 1.8734373
-0.49705303 0.58525848 1.8922684
-0.5126524 0.62426221 1.8730607
-0.49454197 0.60701162 1.8975098
-0.51413548 0.67364144 1.8707387
-0.49776745 0.67351955 1.8950466
-0.5123741 0.726951 1.875971
-0.49978417 0.70521563 1.8953248
-0.51413357 0.77666587 1.873196
-0.51684934 0.82390493 1.8713176
-0.49846455 0.82533944 1.8981569
-0.11274901 0.8447544 1.8854713
-0.074058659 0.84582645 1.8770859
-0.045014266 0.84421289 1.8620518
-0.51868075 0.87374133 1.8698721
-0.49900398 0.85569412 1.8908437
-0.11060812 0.85652149 1.8775842
-0.075167693 0.87006778 1.874635
-0.026352871 0.85413861 1.8842045
-0.51737279 0.92468804 1.8738227
-0.20109425 0.94523454 1.8675519
-0.18597634 0.94215763 1.8625867
-0.0071160821 0.90568632 1.8526638
-0.5190652 0.9769848 1.8732063
-0.20069037 0.97240144 1.8528779
0.041906506 0.99533564 1.8931166
0.39689818 0.99610835 1.8641745
0.40162408 0.97802126 1.8979759
-0.52180475 1.0262356 1.8721216
-0.20263931 1.0209483 1.8554474
0.042057525 1.0484222 1.8804134
0.39202827 1.0159527 1.8572414
0.40763649 1.0348157 1.8903075
-0.52095556 1.0748904 1.8746645
-0.20448634 1.0696697 1.8558911
-0.017485628 1.0712513 1.8995476
0.017570496 1.0850091 1.8964262
0.057150692 1.0784943 1.8790333
0.39281458 1.0760598 1.8665278
0.40738949 1.0798391 1.8897041
-0.52318311 1.1249596 1.874187
-0.20731801 1.1244789 1.8638935
-0.19576035 1.110564 1.8522255
-0.5235976 1.1726747 1.8732826
-0.21029896 1.1761461 1.8741392
-0.19870107 1.1876417 1.8515723
-0.52324229 1.2247561 1.8762947
-0.21351704 1.2198466 1.8903058
-0.017925723 1.2415987 1.8806045
0.39497375 1.2238971 1.8740721
0.41875729 1.217604 1.8795639
-0.52695262 1.2735683 1.873372
-0.21114835 1.2725563 1.8972198
-0.17425857 1.2634631 1.8726349
-0.12641743 1.2799032 1.872344
0.41859183 1.2732275 1.8624607
-0.52930772 1.3252661 1.872959
-0.15516406 1.3471 1.8843727
-0.11920886 1.30857 1.8868686
-0.087007627 1.3401196 1.8987577
-0.049565583 1.326248 1.8801498
-0.53011334 1.3741058 1.8724045
-0.20842116 1.3671603 1.8770815
-0.19045489 1.3678471 1.8726134
-0.12533417 1.3618096 1.8746136
-0.088545717 1.3665363 1.876958
0.072743863 1.3917433 1.8604336
0.42933282 1.3710246 1.8735869
-0.52897745 1.421034 1.875585
-0.20901924 1.4288788 1.8827554
-0.19894014 1.4117324 1.8660848
0.074927367 1.4290893 1.8860452
-0.53042912 1.4732945 1.8776885
-0.21109171 1.4719061 1.8955981
0.027775286 1.4658912 1.8765273
0.098767735 1.4737052 1.8502808
-0.52887416 1.524833 1.8809876
-0.21604382 1.510199 1.8881593
-0.51478899 1.553431 1.8953431
-0.47694287 -0.36090794 1.9259255
-0.40616649 -0.35624683 1.9431539
-0.39578465 -0.35071859 1.9407302
-0.473616 -0.3233096 1.9283582
-0.42368755 -0.31677178 1.9443957
-0.39584637 -0.32231143 1.9442736
-0.47348922 -0.27502045 1.9286284
-0.42571512 -0.27586535 1.9446377
-0.47592086 -0.22710244 1.9281136
-0.41002873 -0.22772051 1.9407138
2.1976528 -0.20784388 1.9395325
-0.4766888 -0.17578098 1.9301081
-0.40619928 -0.17412828 1.9407753
2.1991923 -0.19492088 1.9420344
2.232034 -0.18179145 1.9110405
2.2780931 -0.1716883 1.9392321
-0.47920996 -0.12294742 1.9265583
-0.40647689 -0.12020882 1.942758
-0.47811848 -0.074666001 1.9281256
-0.4064188 -0.075133592 1.941386
-0.4802753 -0.029505193 1.9258176
-0.40607589 -0.028112665 1.9405577
-0.48135108 0.023471702 1.9240187
-0.4073149 0.023895498 1.9411104
-0.48069856 0.074355789 1.9266018
-0.40599585 0.075155929 1.9392849
-0.47780305 0.12430261 1.9284796
-0.4079361 0.12231204 1.9406613
-0.47674543 0.1759436 1.930092
-0.41128892 0.17626777 1.9427459
-0.47823006 0.22628929 1.9283874
-0.40919539 0.22471689 1.9405105
-0.47613031 0.27497452 1.9284235
-0.41856256 0.27904668 1.9415286
2.2352386 0.27032119 1.9162303
-0.47618213 0.323327 1.9257143
-0.42439288 0.32254419 1.9401631
2.2264192 0.30201259 1.9044898
-0.47597453 0.37325194 1.9265614
-0.42052284 0.36929965 1.939286
1.0303371 0.39322671 1.902632
-0.47826493 0.42556971 1.9259984
-0.41179729 0.42861485 1.9363277
-0.47744301 0.4726916 1.9277312
-0.41438943 0.47856721 1.9343816
-0.47748512 0.52425551 1.9268615
-0.41649085 0.52548796 1.9363217
-0.47834706 0.5723049 1.924811
-0.41736525 0.57917047 1.9367902
-0.47768059 0.62544936 1.9275134
-0.41631323 0.63265395 1.9398062
-0.47715339 0.67552543 1.9302272
-0.4184182 0.67581886 1.9414126
-0.27923536 0.69951683 1.9404039
-0.47881976 0.72557688 1.9289027
-0.41712844 0.7256813 1.9389706
-0.48220265 0.7739473 1.9244059
-0.4188875 0.77270854 1.9395661
-0.4854759 0.82571685 1.9241786
-0.42295036 0.82620972 1.940385
-0.26288626 0.82931679 1.945594
-0.22413044 0.84058762 1.9371144
-0.17373553 0.84278357 1.9253209
-0.12878527 0.84603941 1.9124397
-0.50342917 0.87817162 1.9026551
-0.47819406 0.87936682 1.9313512
-0.42364794 0.87834364 1.9410927
-0.26050532 0.85870087 1.9446616
-0.22378862 0.86205691 1.9394208
-0.17211701 0.87052011 1.9178805
-0.13625783 0.87492049 1.9101889
-0.088433355 0.89317483 1.9031224
-0.47684205 0.92527848 1.9285966
-0.4251087 0.92551327 1.9397436
-0.08137913 0.91303372 1.9254271
-0.50130451 0.97270405 1.9058297
-0.47941801 0.97448921 1.9314828
-0.42277697 0.97270864 1.9365309
0.41513458 0.98641825 1.9126836
-0.50596416 1.032627 1.9035251
-0.48443857 1.0256889 1.9302965
-0.41930237 1.0304167 1.9363868
0.42424577 1.0267528 1.9225018
-0.50151682 1.0908343 1.908144
-0.4880476 1.0739714 1.9281924
-0.41975051 1.0820711 1.941849
-0.012554216 1.0828556 1.9091117
0.026793793 1.0863093 1.9173037
0.083334282 1.0806556 1.9149499
0.42131209 1.0816112 1.9234077
-0.50414592 1.1224442 1.9066533
-0.4847092 1.1248749 1.9314789
-0.42254624 1.1251867 1.9407264
-0.0076174499 1.1016579 1.9311455
0.053520858 1.1210057 1.9200525
0.42914575 1.1278617 1.9326074
-0.50633097 1.1967369 1.9088516
-0.48865905 1.172215 1.9278455
-0.42303124 1.1757809 1.9381618
-0.22316051 1.1701093 1.9061545
0.43608168 1.174173 1.923352
0.45490947 1.1782503 1.9332504
-0.50395751 1.2300011 1.9076947
-0.48623571 1.2227314 1.9333901
-0.41990972 1.2296391 1.9425949
-0.25792119 1.2398837 1.9429098
-0.23536502 1.2459601 1.925705
0.43331894 1.2173483 1.9150779
0.45735142 1.2110609 1.9310308
-0.50498694 1.2824645 1.9082505
-0.48857385 1.2715819 1.9327066
-0.41945416 1.2775418 1.9372084
-0.25009724 1.2535869 1.928883
-0.22654268 1.2616957 1.9159302
0.43739209 1.2833263 1.9051563
0.45282456 1.2757127 1.9349785
-0.5069592 1.3208835 1.9090751
-0.48662049 1.326441 1.9352362
-0.42534018 1.3279742 1.9422836
-0.21166573 1.3349043 1.9364939
-0.16587655 1.3292164 1.9245052
-0.13368061 1.3356409 1.9180803
0.44210768 1.3132651 1.9170442
-0.50541979 1.3779998 1.9121313
-0.48757449 1.3729045 1.9363501
-0.42433926 1.377203 1.9442099
-0.21902837 1.3592485 1.9247335
-0.19974817 1.3535122 1.9111019
-0.13238315 1.3666792 1.9258797
-0.072021998 1.3701195 1.9135561
-0.50563651 1.4240367 1.9115077
-0.4895831 1.4269969 1.9366981
-0.42826936 1.426187 1.9409784
-0.16124523 1.4327064 1.9392254
-0.11036325 1.4218445 1.906266
0.067824125 1.4432621 1.915535
-0.5066095 1.4786482 1.9204601
-0.48116708 1.4806315 1.9397197
-0.43122101 1.4755877 1.9396912
-0.063545853 1.4818571 1.9454674
-0.013824955 1.4943817 1.9413149
0.0063941926 1.487975 1.9189754
-0.50733441 1.5198393 1.9155397
-0.48206869 1.5291119 1.9433353
-0.43260178 1.5230322 1.9425087
-0.22033219 1.5289557 1.932868
-0.12986167 1.5037909 1.9287026
-0.50582528 1.568498 1.9243425
-0.49251175 1.5629596 1.9426759
-0.42340565 1.5634825 1.9382477
2.1305218 -0.41258371 1.9974425
-0.45513114 -0.36150959 1.9562985
-0.43220162 -0.35915151 1.9596199
-0.42943975 -0.33274922 1.9546338
-0.41681135 -0.271503 1.9565005
-0.3983371 -0.27905679 1.9611189
-0.45426765 -0.21876 1.9521704
-0.43019789 -0.2272106 1.9583235
-0.39665446 -0.24698246 1.9556051
-0.45362046 -0.17570792 1.9522001
-0.42992151 -0.17599021 1.961447
2.1822822 -0.19460568 1.9512933
2.2086334 -0.18319276 1.9636927
2.2778256 -0.15932943 1.9646072
2.3159952 -0.16102281 1.972445
-0.45320186 -0.12333608 1.9530348
-0.43388197 -0.12476088 1.9597808
2.2879598 -0.13235651 1.9502096
2.3148389 -0.14787523 1.9848655
-0.45439771 -0.07422819 1.9527472
-0.43449768 -0.075933352 1.9586799
-0.45551667 -0.024330143 1.953338
-0.43448579 -0.028441202 1.9594165
-0.45608127 0.025365602 1.9536833
-0.43489012 0.023518994 1.9586217
-0.4566521 0.074797869 1.9535272
-0.43464661 0.076072186 1.959231
1.1027323 0.094532162 1.9952163
-0.45333236 0.12349018 1.9534285
-0.43556044 0.12364143 1.9585453
1.0783961 0.12436215 1.972744
-0.45415041 0.17604327 1.9542384
-0.43759975 0.16973329 1.9575211
1.0801699 0.17639108 1.9730412
-0.45495835 0.22876878 1.9540784
-0.43738577 0.22651963 1.9582301
1.0818679 0.22829965 1.9768717
-0.45560879 0.26248628 1.9540763
-0.43751293 0.26712334 1.9553854
1.0741227 0.27411088 1.9788208
1.1028681 0.25697446 1.984771
1.0777055 0.32386449 1.978093
-0.4390257 0.38671169 1.9544531
1.0488371 0.38351482 1.9631366
1.0769343 0.37350655 1.9860941
-0.45387918 0.42371622 1.9535027
-0.43764344 0.42094564 1.9546689
-0.45377478 0.4756923 1.9552501
-0.43477422 0.4732092 1.9589373
-0.29680854 0.45863748 1.9741113
-0.45380402 0.5243386 1.9544022
-0.42794168 0.52619767 1.9682003
-0.3065964 0.5348379 1.9944259
-0.29668048 0.52115309 1.9627358
-0.45550185 0.57503498 1.9522827
-0.43265322 0.57574022 1.9635181
-0.45607242 0.63229692 1.9581612
-0.43188363 0.6219514 1.9566005
-0.30427933 0.63845152 1.9922717
-0.29496077 0.6347273 1.998293
-0.45365405 0.68315148 1.9546776
-0.43720138 0.67285842 1.9556626
-0.28965536 0.68305528 1.9776926
-0.45519069 0.72063595 1.9564687
-0.44040084 0.72466487 1.9557724
-0.29130587 0.71990013 1.9761208
-0.45996329 0.7771098 1.9556183
-0.44174781 0.77889603 1.9584621
-0.28325212 0.7672255 1.991864
-0.45977691 0.82984263 1.9557757
-0.42724648 0.82522416 1.97413
-0.26812807 0.8287589 1.9615527
-0.23509407 0.83101314 1.9655081
-0.45700952 0.86882782 1.9554523
-0.42735475 0.87020946 1.9634709
-0.27237558 0.88060457 1.9738863
-0.2326881 0.88101733 1.959136
-0.14227845 0.87899911 1.9606643
-0.05816064 0.89082724 1.9902291
-0.017509993 0.88247257 1.9721049
2.6400936 0.89081305 1.9932337
-0.43379495 0.92367983 1.9520328
-0.26336104 0.94125509 1.9862976
-0.21128428 0.90655798 1.9920431
-0.1826452 0.90607798 1.9548399
-0.11517704 0.92178613 1.9715166
-0.08852455 0.94144225 1.9728042
-0.017777706 0.90613651 1.998993
2.6583514 0.92734563 1.9972063
-0.45739844 0.98708105 1.9559346
-0.44130999 0.98302287 1.9565111
-0.25525427 0.96978092 1.9967976
-0.074488714 0.97166395 1.9989262
0.017907994 0.9924463 1.9809518
2.6709476 0.9622575 1.9965501
-0.45811266 1.0252864 1.9586478
-0.42729995 1.0299062 1.9663053
-0.063773386 1.0214212 1.9656246
0.015759107 1.0179673 1.9798874
0.43589428 1.0215572 1.9551777
0.45142931 1.0335072 1.9763067
2.6575503 1.0086867 1.99628
-0.4636721 1.0756065 1.9579881
-0.4359678 1.0681053 1.9565333
-0.27446562 1.091206 1.9976264
-0.007745374 1.0736909 1.9829792
0.014748876 1.07876 1.98465
0.43871886 1.0697316 1.9513235
0.45409882 1.0501231 1.9839001
2.6399217 1.0535017 1.9920251
-0.45980403 1.1256856 1.9627382
-0.44596824 1.1184021 1.9609665
-0.27969688 1.1212647 1.987606
-0.0078312187 1.1116868 1.9942356
0.0078366343 1.1028795 1.9784319
0.44756612 1.1231086 1.9773
0.46760607 1.1374787 1.9785496
-0.46410558 1.175577 1.9604286
-0.43074057 1.1705183 1.9702656
-0.27677307 1.1855158 1.978447
-0.23564626 1.1863984 1.9764507
0.47449595 1.1717193 1.967698
-0.46459833 1.2261124 1.9595263
-0.43422315 1.2230366 1.9637975
-0.27443203 1.2205522 1.9729195
-0.23092352 1.2426814 1.9573023
0.4191713 1.2284021 1.9550266
0.48428804 1.2176462 1.9834737
-0.46272722 1.2755712 1.960005
-0.43934509 1.2780901 1.9522647
-0.27973351 1.275751 1.978819
-0.23308592 1.2650402 1.9703814
0.47458166 1.2584987 1.9717547
-0.464037 1.3230376 1.9586732
-0.44504032 1.3328867 1.9575214
-0.28702378 1.3125802 1.9943898
-0.22254197 1.3089508 1.9511093
-0.19132765 1.3371482 1.9522604
0.46664807 1.3316443 1.9687448
-0.46395567 1.3770162 1.9591625
-0.43237337 1.3717231 1.9551761
-0.2224738 1.378405 1.9772594
-0.18033507 1.3625127 1.968437
-0.12356258 1.3957431 1.97616
-0.46585283 1.4266051 1.9614979
-0.43914232 1.4035597 1.9513524
-0.12354913 1.4065499 1.9697375
-0.063468643 1.4138279 1.9822127
-0.0083123557 1.4454542 1.9834622
-0.47127104 1.4734813 1.9572499
-0.44494563 1.4669131 1.9504441
-0.17632751 1.4672298 1.9851824
-0.058565281 1.4902505 1.96736
-0.025080279 1.4813619 1.9776739
0.006493764 1.4624863 1.9705453
-0.47157091 1.5232426 1.9546249
-0.42472163 1.5228045 1.9741548
-0.14370757 1.5223114 1.9733956
-0.030583724 1.5029022 1.952235
-0.475299 1.5773177 1.9611384
-0.42363131 1.5745482 1.9749073
-0.38535684 1.585973 1.9805351
-0.25059938 1.5906596 1.9864699
-0.20888326 1.5745146 1.9810443
-0.169622 1.587944 1.9900751
-0.14565015 1.5771742 1.9780875
-0.47356009 1.6044215 1.9700499
-0.36819586 1.600978 1.9843907
-0.29882053 1.6020864 1.9954466
2.1150239 -0.40558437 2.0084815
2.1290643 -0.37407932 2.01495
2.1531971 -0.35505649 2.0038664
-0.40298831 -0.32139218 2.0308719
-0.39121631 -0.31300059 2.0321779
-0.33886734 -0.31204537 2.010252
2.1390162 -0.32957482 2.0313408
2.1545563 -0.32326162 2.0221758
-0.40020856 -0.25531265 2.0228584
-0.39075977 -0.27713719 2.028193
-0.34618211 -0.28023362 2.0174463
-0.27909863 -0.29122528 2.009124
2.1811473 -0.2800833 2.0489616
-0.40515104 -0.22426668 2.0096922
-0.37864059 -0.22764288 2.0368695
-0.33569333 -0.21605696 2.0335739
2.5040929 -0.22847205 2.0482218
-0.40433663 -0.16313797 2.012032
-0.39064217 -0.1787295 2.0350721
-0.40672508 -0.12659791 2.0130672
-0.39273277 -0.12844662 2.0312028
2.3242865 -0.13527851 2.0063577
-0.40565902 -0.07766398 2.0093875
-0.39369842 -0.076680176 2.0319548
-0.40577984 -0.029136647 2.0108051
-0.39231929 -0.027740555 2.0315864
-0.40548673 0.024365589 2.0093458
-0.39062473 0.024881948 2.0327387
-0.4066124 0.077978589 2.0140049
-0.39263216 0.078586929 2.0322049
1.09842 0.095976584 2.0344036
1.1055411 0.095677078 2.0237491
-0.40637782 0.12547894 2.0195644
-0.39066938 0.12878379 2.0371451
2.3939278 0.13335133 2.0145135
2.4310284 0.11425673 2.0468748
-0.40593824 0.17744069 2.0147717
-0.39013168 0.17636541 2.03196
1.0888776 0.19191371 2.0356028
2.4330118 0.17689233 2.0186527
2.4940653 0.18035764 2.0430572
-0.40641418 0.22161941 2.0142071
-0.39355761 0.22707848 2.0268843
1.0808579 0.21689215 2.0186203
2.39224 0.216618 2.0068235
2.4245903 0.24066174 2.0319233
2.4752724 0.21531385 2.0420449
-0.40455636 0.27472559 2.0173488
-0.3897092 0.27551991 2.0421555
1.1156816 0.28116578 2.0057025
-0.40572986 0.32470921 2.0182986
-0.39213517 0.33228558 2.0408232
-0.40698996 0.37504739 2.018837
-0.39158142 0.37552249 2.0376382
1.0703886 0.36496133 2.0071635
1.117069 0.36457548 2.0222631
2.4357448 0.38542566 2.0488341
-0.40759864 0.42504954 2.0152345
-0.39375904 0.4213511 2.0409901
-0.31486899 0.43151212 2.0331781
-0.40826601 0.47364962 2.0142055
-0.39393824 0.47342333 2.0403202
-0.31367829 0.47796842 2.0182106
-0.29271102 0.48883396 2.0278347
-0.40616792 0.52841747 2.0174651
-0.39435077 0.52264631 2.0375175
-0.31506819 0.51912004 2.0205288
-0.29364991 0.51890194 2.0258553
2.5838337 0.53244925 2.0405769
-0.40506464 0.58000857 2.0251939
-0.3944554 0.57188356 2.041064
-0.31095478 0.56734973 2.018168
2.5965929 0.57213604 2.0427785
2.6020119 0.59561324 2.0420628
-0.40639853 0.62312341 2.0242746
-0.3944079 0.63125134 2.0450542
-0.29560822 0.64606017 2.0004988
2.5894949 0.62467498 2.0427785
2.6038775 0.63321573 2.0348058
-0.4066793 0.67211699 2.0180454
-0.394333 0.67816299 2.0439463
-0.30687672 0.65885794 2.0059536
-0.28958026 0.69520456 2.0196452
2.5912142 0.67093068 2.0418558
2.6107807 0.67217422 2.0309718
-0.40984005 0.72642875 2.0249872
-0.39440447 0.72677886 2.0397322
2.5827196 0.73221755 2.0455444
2.6116905 0.72374743 2.0337205
-0.411477 0.77720827 2.0174963
-0.39667109 0.78328413 2.0408261
2.5899539 0.78400213 2.0439205
2.6188738 0.77655232 2.0212569
-0.40608457 0.82564729 2.0226285
-0.39650893 0.83480024 2.0356688
-0.27636078 0.83709902 2.0410683
2.5842838 0.82203597 2.0412948
2.6218193 0.83073473 2.019963
-0.40754679 0.87771958 2.0250254
-0.39391989 0.87161916 2.0404356
-0.30548406 0.88800395 2.048233
-0.2973305 0.86385494 2.0334959
-0.2233229 0.85251808 2.0270092
2.5784285 0.87254786 2.0408955
2.6244619 0.87477219 2.019825
2.6587906 0.88193357 2.0121579
-0.41105872 0.92716056 2.0290897
-0.39721748 0.92101723 2.0443242
-0.28073463 0.93959165 2.0459132
2.5763478 0.92466974 2.042592
2.6228712 0.92544198 2.021605
2.6677079 0.93066996 2.0041833
-0.4132809 0.97584891 2.0218194
-0.39778641 0.97404408 2.0406859
-0.25533289 0.9722842 2.0209649
-0.24713665 0.95765865 2.0228148
-0.083539635 0.98235267 2.0082521
-0.028406203 0.99556065 2.0114238
2.5834072 0.9701919 2.0402529
2.6247299 0.97440028 2.020452
2.6548436 0.97715491 2.004817
-0.40827683 1.0254056 2.0310113
-0.25881806 1.0391589 2.037328
-0.22758482 1.0362781 2.0097167
-0.073300444 1.0165629 2.0281999
-0.014163497 1.0228992 2.0367064
0.01308245 1.0440538 2.0099237
2.5881088 1.0204488 2.0405648
2.6250355 1.0230752 2.0173726
-0.40829816 1.0731801 2.0236769
-0.39518121 1.0703045 2.0450702
-0.2825239 1.0882214 2.0072043
-0.24123695 1.0501519 2.0357285
0.0026458439 1.0694442 2.0024538
2.5899401 1.065957 2.0441563
2.6225848 1.0752095 2.0204108
-0.4110702 1.1258494 2.0275171
-0.39860427 1.1229606 2.0455959
-0.27413252 1.1288621 2.011276
-0.23224385 1.1429551 2.0168664
0.013299405 1.1039325 2.0269859
0.48078537 1.129303 2.0219615
0.50366479 1.1382123 2.0319583
2.5830233 1.1193831 2.0405684
2.6179149 1.1235012 2.0245686
-0.40753573 1.172482 2.0320373
-0.3930274 1.1987193 2.049293
-0.26345369 1.1800836 2.0244958
-0.23794305 1.1743476 2.014612
0.49994358 1.1676817 2.0005541
0.50404066 1.1700512 2.0200763
2.592663 1.1731745 2.0425475
2.6144409 1.1702375 2.0245013
-0.4104245 1.221261 2.0274279
-0.39349616 1.2111615 2.0468383
-0.30134225 1.2112098 2.023273
-0.26666158 1.2191888 2.0240295
-0.24781618 1.2368393 2.0252199
0.44214192 1.2250893 2.0272768
2.5890234 1.2213615 2.033354
2.6086736 1.2043519 2.0164368
-0.41165355 1.2757341 2.0287476
-0.39884409 1.2834502 2.0486877
-0.30827314 1.2890968 2.0464401
0.42406389 1.2530377 2.0419264
0.50206119 1.2540469 2.0299902
2.5851593 1.2710493 2.0401769
-0.41070998 1.3267728 2.0303674
-0.39181754 1.3422339 2.0498722
-0.27810845 1.3457705 2.016269
0.50052381 1.3350501 2.0437212
2.5909126 1.3308709 2.0459089
-0.41270027 1.3721778 2.0276082
-0.39291644 1.3573117 2.0498145
-0.31330544 1.3779191 2.0456781
-0.26505449 1.3792628 2.0187747
-0.24247636 1.3829311 2.0152912
0.48838669 1.3610506 2.0277071
2.5738723 1.3811675 2.0499084
-0.41276625 1.4239091 2.0310006
-0.26230517 1.4050484 2.0346055
-0.19868645 1.4109763 2.0151737
-0.041925948 1.443527 2.0022798
-0.41111425 1.4726402 2.0325425
-0.18001117 1.4864469 2.0333786
-0.063028522 1.4708375 2.0307686
-0.029365195 1.4797212 2.0265758
-0.41539517 1.5227206 2.0327792
-0.29822522 1.546715 2.024976
-0.4100177 1.5592576 2.0142252
-0.38096827 1.5745564 2.0266936
-0.30091721 1.5782452 2.0322337
-0.20515324 1.5725415 2.0120862
-0.17917557 1.5829953 2.0147936
-0.26678622 1.6189647 2.0205677
-0.19544087 1.6108907 2.0170994
-0.37039948 -0.32180119 2.063869
2.1503437 -0.30570471 2.0581367
-0.37105426 -0.27890238 2.0543611
-0.34698552 -0.27516001 2.075043
2.1837683 -0.28925991 2.0800135
-0.36486769 -0.21271776 2.0629675
-0.33772269 -0.21502987 2.0725327
2.5379298 -0.21172208 2.0687084
2.5651646 -0.21806791 2.072681
-0.36497369 -0.1731839 2.0719645
-0.33324823 -0.18524307 2.0780876
2.4864151 -0.17178385 2.0908639
2.5227437 -0.17277616 2.0812075
2.5666609 -0.174253 2.0772028
-0.3673279 -0.12399472 2.0722792
-0.34703958 -0.1310709 2.0926998
2.5275588 -0.1222055 2.0880563
2.5564923 -0.12249453 2.0718303
-0.36679956 -0.076715484 2.0736163
2.4015603 -0.062195867 2.0761299
2.4908161 -0.078153931 2.0991178
2.5253758 -0.07123372 2.088124
2.5557766 -0.07141272 2.0731261
-0.36608249 -0.029905392 2.0728357
2.4115527 -0.027029669 2.0853338
2.4855623 -0.020279789 2.0957184
2.5219033 -0.027608575 2.0860116
2.555321 -0.027665945 2.0735238
-0.36404255 0.021391042 2.0744212
2.4209561 0.022612287 2.0933912
2.4739993 0.022858273 2.0858185
2.5233042 0.023227071 2.0870934
2.5569754 0.023375252 2.074779
-0.36640912 0.074109845 2.0738993
2.3870111 0.09239956 2.062279
2.425456 0.072265849 2.0786381
2.4719069 0.073031731 2.0741282
2.5240269 0.071134068 2.0840802
2.5570698 0.074463241 2.0737853
-0.36337283 0.12285648 2.0787549
2.4390826 0.10047354 2.0543094
2.4848213 0.12325549 2.0652852
2.5200965 0.12433184 2.068012
2.5577426 0.12557557 2.0721788
-0.36353391 0.17307572 2.0773168
2.5235705 0.16032614 2.05551
2.5543504 0.183707 2.0657849
-0.36780891 0.22498326 2.0741808
2.4872906 0.24549542 2.0580389
2.5313356 0.22634877 2.0632734
2.5588179 0.22782958 2.0657458
-0.36742422 0.27251786 2.0734615
2.4782743 0.27081692 2.067584
2.5279944 0.28067523 2.0722337
2.5601614 0.27178308 2.0623808
-0.37168661 0.32195809 2.0703738
2.4881666 0.32650095 2.0758226
2.529309 0.32445592 2.0750902
2.5642524 0.32756957 2.0657425
-0.36976016 0.37244415 2.072588
2.5214965 0.37843624 2.0775182
2.565392 0.37682274 2.0645316
-0.37222144 0.42452541 2.0704811
-0.32354802 0.43399414 2.0816119
2.4468825 0.40148216 2.0558825
2.4690471 0.42675832 2.0708263
2.5267894 0.42568874 2.0802073
2.5697765 0.4280664 2.0619609
-0.37009758 0.47268486 2.0769374
-0.33818963 0.47489104 2.0896811
2.4926999 0.47211981 2.0830984
2.5345774 0.47104481 2.0787413
2.5763316 0.47339404 2.0593812
-0.36970484 0.52449244 2.0749543
-0.34392583 0.52496362 2.0742009
2.5253396 0.52645606 2.0850883
2.5704443 0.52443373 2.0633929
-0.37049285 0.57492894 2.0737798
-0.32879519 0.55685449 2.0822759
2.5283754 0.5683071 2.0806499
2.5713952 0.57881993 2.060715
-0.37581471 0.62406272 2.0699587
-0.32789195 0.6353302 2.0847867
2.5733175 0.6208846 2.0594091
-0.37312686 0.67484748 2.0786657
-0.32979476 0.65979087 2.0924792
2.544862 0.68126166 2.0537555
2.5682333 0.67715108 2.0545993
-0.3736406 0.72421199 2.0750694
-0.3174189 0.70214367 2.070123
1.0742334 0.72719675 2.0686088
2.5674021 0.72355318 2.0551555
-0.37672767 0.77209115 2.0737302
-0.3117651 0.76523608 2.089921
1.0499642 0.79973912 2.0859098
1.0653809 0.77513635 2.0646093
1.1023408 0.78244412 2.0886638
2.5672097 0.77822775 2.055496
-0.37689018 0.82527429 2.0738819
-0.30232799 0.82573175 2.0828676
1.0458953 0.83144063 2.0771961
1.0684134 0.82479119 2.0607548
2.5604284 0.82407832 2.0540428
-0.37496811 0.87868172 2.0800583
-0.31325299 0.87200481 2.0711987
1.0411543 0.87744236 2.0792885
1.0651182 0.87688273 2.0634515
2.5220044 0.87697494 2.0690405
2.5519958 0.8861503 2.0543339
-0.37585473 0.92605507 2.075819
-0.3058641 0.9082647 2.0583889
1.0387477 0.92812276 2.0795434
1.0687946 0.92425841 2.0641878
2.4908726 0.93806934 2.0923131
2.5234671 0.92015088 2.0754726
2.558471 0.91097099 2.0519271
-0.37686518 0.97541785 2.0749915
-0.26072186 0.97726727 2.0767429
1.0303611 0.97720957 2.0802002
1.0629209 0.97478259 2.0630877
2.489342 0.97887474 2.0951254
2.5271614 0.97525817 2.0754976
2.5586176 0.97689694 2.0572255
-0.37740546 1.0263278 2.0733166
-0.26287013 1.0238092 2.0669589
-0.057727706 1.0201727 2.0690424
-0.039913893 1.028276 2.064733
1.0301985 1.0270116 2.0781054
1.0699106 1.0247127 2.0661702
2.4960952 1.0212972 2.0954475
2.528645 1.0265098 2.0782101
2.5673475 1.023509 2.0554562
-0.37613705 1.0734794 2.0745275
-0.27073056 1.0750687 2.0755033
-0.24694341 1.0641339 2.0879328
-0.013497118 1.069849 2.084424
0.99968755 1.0551093 2.0986814
1.0234848 1.0760818 2.0809612
1.0636475 1.0727299 2.0603299
2.4937711 1.0873091 2.096312
2.526051 1.0757161 2.0782757
2.5684216 1.0735439 2.058907
-0.37984419 1.1247075 2.0734739
0.49378669 1.1495945 2.0931578
0.99672103 1.1286676 2.0949759
1.0249429 1.1227617 2.0744441
1.0647721 1.1264825 2.0632143
2.524153 1.1245279 2.0822935
2.5614777 1.1144511 2.0576932
-0.37624145 1.1732928 2.072279
-0.32442874 1.1731998 2.0921454
-0.27638292 1.1769778 2.0612721
-0.2472236 1.1631891 2.0516195
0.52123487 1.1653814 2.0793128
0.99400938 1.1738561 2.0945001
1.0256194 1.1756355 2.0723803
1.0664309 1.1745216 2.065625
2.5213425 1.17625 2.0839958
2.5658855 1.1714414 2.060565
-0.37750149 1.2273558 2.0736525
-0.2778604 1.2042328 2.0811141
-0.24967594 1.2076675 2.0577822
0.53323483 1.2134401 2.0889413
0.99730015 1.213775 2.0939503
1.0240015 1.2249743 2.0754859
1.064043 1.2199028 2.0647182
2.497757 1.2334077 2.0976992
2.5309021 1.2217888 2.0774357
2.5638256 1.2260149 2.0573628
-0.37771273 1.2745686 2.0774179
-0.32921451 1.2778152 2.0845876
0.521155 1.2623227 2.0647707
0.99575001 1.2803122 2.0944991
1.0211413 1.2734182 2.0793843
1.0620248 1.2744224 2.0645845
2.4936352 1.2854252 2.0999584
2.5228412 1.2682029 2.0820799
2.5614491 1.2789034 2.0613301
-0.3760291 1.3263201 2.0772307
-0.32663268 1.3240312 2.0887957
0.5212183 1.3364766 2.0906043
0.99129337 1.3262655 2.0967853
1.023604 1.3213428 2.0747092
1.0642432 1.3203151 2.0631871
2.5234194 1.3230443 2.0878046
2.5663249 1.3254449 2.0617642
-0.37727359 1.3808371 2.0786636
-0.34140354 1.3603711 2.097091
-0.2710416 1.3927962 2.0728502
0.5147419 1.3631959 2.0740337
0.9879446 1.3697323 2.0921733
1.025226 1.3770796 2.073657
1.0586914 1.3710506 2.0598168
2.5261953 1.3815622 2.0860348
2.5662942 1.3726979 2.0639181
-0.40003189 1.4394851 2.0560489
-0.38007039 1.4278014 2.0758741
-0.32069927 1.4220008 2.0878251
0.51381457 1.4053614 2.0797651
0.98962343 1.4228961 2.0951962
1.0238081 1.4309011 2.0726364
1.0563704 1.4264283 2.0581989
2.5289464 1.4216282 2.0796599
2.5618055 1.4267027 2.0607953
-0.40094194 1.4543051 2.0542586
-0.3792226 1.4762143 2.0762112
0.98782223 1.4698175 2.0934269
1.0224288 1.4789469 2.072849
1.0664613 1.4720007 2.0686498
2.5267224 1.4688871 2.087481
2.5585556 1.4778191 2.0783675
-0.40927497 1.5434579 2.0624468
-0.38346449 1.5285947 2.0808618
-0.30120313 1.5387743 2.0595098
0.4914093 1.5371996 2.086726
0.98947507 1.5187117 2.0884492
1.025794 1.5285206 2.0696018
1.0606145 1.529237 2.0674367
2.523917 1.5252771 2.0833321
-0.40848222 1.5522314 2.0512536
-0.36734635 1.5656968 2.0686347
-0.33703378 1.5674901 2.0871391
0.99076229 1.5700397 2.0923202
1.0237745 1.5769351 2.0784235
1.0665463 1.5768346 2.0712986
2.5106797 1.5763695 2.0916417
0.98908633 1.6295137 2.0963187
1.0253667 1.6213055 2.0762942
1.0672476 1.6350676 2.0775235
2.5021579 1.6196024 2.0986915
0.98846626 1.6705964 2.0944877
1.0221448 1.6748178 2.0747998
1.0582329 1.6696749 2.0634131
0.99612486 1.7093508 2.0927434
1.0201042 1.7263972 2.0774045
1.0631098 1.7339144 2.0860367
0.99624795 1.777753 2.0927641
1.0245801 1.7637908 2.0749648
1.0609183 1.770185 2.0681643
-0.34204814 -0.31396368 2.107513
2.1744671 -0.33821824 2.1029017
-0.33380988 -0.27579126 2.1130381
2.2536981 -0.26285034 2.1375334
-0.33129841 -0.23278883 2.1177571
2.2635045 -0.22076415 2.1249123
-0.33367157 -0.17502424 2.1191847
2.4360273 -0.18138444 2.1358819
2.451236 -0.15802298 2.1418726
-0.33216375 -0.12177656 2.1205084
2.4499507 -0.12175593 2.1426992
2.4851236 -0.13267112 2.1120358
-0.33208546 -0.070576794 2.1164272
2.4487898 -0.080707632 2.1432161
2.4794815 -0.075869955 2.1161602
-0.33300665 -0.02538418 2.1146772
2.4464948 -0.027628416 2.142297
2.4919326 -0.042024735 2.1008713
-0.33307418 0.020381978 2.1150849
2.4460988 0.008505648 2.1420383
2.4502482 0.03747309 2.1453509
-0.35198891 0.060828567 2.1037998
-0.33108532 0.073122919 2.1171293
2.4435897 0.073457547 2.1386316
-0.33183095 0.12075089 2.1205401
2.4354255 0.12862948 2.1380332
-0.33426142 0.17358033 2.1179314
2.4312298 0.1741627 2.1359804
-0.33345169 0.22366011 2.1179299
2.4361959 0.22507094 2.1361527
-0.35366067 0.28506029 2.101522
-0.3356562 0.2768409 2.1195555
2.4400425 0.27281892 2.1414776
2.4505248 0.28365451 2.1292617
-0.35431948 0.3263962 2.1014495
-0.33592731 0.32833907 2.1163149
2.4426701 0.32324302 2.139019
2.4547322 0.33492693 2.1264966
-0.35606632 0.38948575 2.1048524
-0.32715812 0.37580296 2.1145391
2.445631 0.37924537 2.1391551
2.4582984 0.37898293 2.123266
-0.35652441 0.41050899 2.1049604
-0.33698761 0.41357219 2.1131635
2.4488924 0.4322674 2.1242561
2.4529915 0.42229152 2.118329
-0.34735006 0.45297381 2.1070514
2.4387684 0.47522461 2.1437497
2.454972 0.47465491 2.1219594
2.425106 0.52203703 2.1424475
-0.35036266 0.58152032 2.1046407
-0.34233433 0.58110738 2.1040404
2.4395261 0.565063 2.1312175
-0.35451519 0.62910926 2.1104019
-0.34258255 0.62782609 2.1137264
-0.35398456 0.68194157 2.1070566
-0.34257764 0.68009388 2.1166501
-0.35559383 0.73248601 2.1056395
-0.33627477 0.72552061 2.1154206
1.1136674 0.71441215 2.1026256
-0.36008725 0.78397769 2.1043067
-0.33757448 0.77453238 2.1127815
1.0806254 0.76848876 2.1326122
1.1108993 0.79994607 2.101572
-0.35888836 0.82438302 2.1032071
-0.34002885 0.82632637 2.1156135
1.0599866 0.8173914 2.1175938
-0.35488769 0.87388933 2.1058178
-0.33860961 0.8723551 2.1179931
1.0433049 0.86926043 2.1094389
1.1117187 0.87817484 2.1083634
2.4146602 0.88424289 2.1370938
-0.35262844 0.92628509 2.1040206
-0.33706602 0.92251623 2.1112599
1.034021 0.92304868 2.1199026
2.3974738 0.92326403 2.1494308
2.4256508 0.9255681 2.133508
2.4696558 0.92911309 2.1084065
-0.35552105 0.97731781 2.1072829
-0.33918196 0.97172606 2.11058
1.0195625 0.9792974 2.1185248
2.4329212 0.97522569 2.1323502
2.4669495 0.97788668 2.1120522
-0.35702887 1.0141765 2.1050828
-0.34166661 1.0226026 2.111232
-0.040546257 1.0283104 2.1032324
1.0078087 1.0285323 2.1126196
2.4358082 1.025597 2.1355791
2.471993 1.0282105 2.1125269
-0.35722521 1.0876679 2.1057312
-0.34241804 1.0688419 2.1058865
-0.28398967 1.0701494 2.1224163
-0.2416307 1.0668911 2.145992
0.99378413 1.0823989 2.1134715
1.0040584 1.0658643 2.1223779
2.4287913 1.0743417 2.1384156
2.4692497 1.07532 2.1141615
-0.35643846 1.1223471 2.1057525
-0.3391822 1.1261787 2.1122851
-0.26632896 1.1444387 2.139313
0.49614823 1.1382725 2.1099992
0.51484388 1.1493673 2.1414049
0.98567063 1.1259291 2.1172192
2.4331992 1.1252459 2.1368423
2.4767001 1.1315261 2.1113393
-0.35426757 1.1719946 2.105021
-0.34116244 1.1805105 2.1096282
-0.27111641 1.1657981 2.1330144
0.51097977 1.1520386 2.1207798
0.56734467 1.1982985 2.1452146
0.97972459 1.1773076 2.1176145
2.4322913 1.1764938 2.1388896
2.4739358 1.1832141 2.1162727
2.5018566 1.1665229 2.1012633
-0.35762691 1.2281892 2.1057456
-0.34225199 1.2275438 2.1135771
0.55482495 1.2163981 2.1234634
0.93480277 1.241522 2.1381314
0.97190034 1.2237352 2.1172712
2.4365292 1.2295731 2.140111
2.4700577 1.2294083 2.1175792
-0.3602778 1.2770166 2.1035023
-0.34418473 1.2782648 2.1058261
0.54371667 1.2661018 2.1170211
0.55972028 1.2705501 2.1345372
0.93197 1.2722107 2.1338747
0.97161371 1.2765601 2.1098499
2.4301791 1.280383 2.1403461
2.4754012 1.2710644 2.1174428
-0.35251704 1.3303179 2.1075907
-0.34213939 1.3345181 2.1157799
0.93011767 1.324572 2.1333423
0.97071314 1.3277749 2.1074421
2.4321222 1.3274038 2.1418455
2.4722905 1.3223647 2.1168885
-0.35513142 1.3748672 2.1060252
-0.34546411 1.3939682 2.1132085
0.54193938 1.3756614 2.1319611
0.92722702 1.3750751 2.1329677
0.96348143 1.376089 2.1088808
2.4313791 1.3734347 2.1330121
2.4735384 1.3730878 2.1131971
2.5013084 1.3599124 2.1038995
-0.35797802 1.4207888 2.1048632
-0.34049049 1.4274826 2.1104472
-0.2640669 1.422467 2.1063881
0.52924645 1.4313592 2.1170614
0.92643535 1.4253614 2.1329963
0.96546823 1.4227397 2.1098468
2.4277208 1.4248637 2.1451914
2.4740465 1.4306525 2.1218364
2.5044267 1.4331206 2.1026564
-0.35773447 1.4785756 2.1036522
-0.34385473 1.4700665 2.1088328
-0.26794621 1.4883825 2.1127033
0.92572683 1.4791048 2.1342549
0.96375811 1.4716275 2.1098728
2.4339345 1.4724802 2.1440325
2.4757166 1.4743485 2.1184585
2.5008576 1.4875671 2.1025927
-0.35922584 1.5265479 2.1050286
-0.34151196 1.5210519 2.1115158
-0.25603116 1.5073513 2.1018624
0.51666862 1.5132246 2.1282434
0.92354727 1.5284004 2.1347671
0.96437752 1.5236812 2.111938
2.4407427 1.5210158 2.1428344
2.4740565 1.5213326 2.1216829
2.5051951 1.5266886 2.1032605
-0.35519177 1.5526841 2.1067719
-0.34288135 1.5510074 2.1060882
0.52228522 1.5672287 2.1233323
0.92514622 1.5816195 2.1356637
0.96758193 1.5765847 2.1118143
2.4352136 1.5751678 2.1396067
2.4728692 1.5763324 2.1193259
0.54074764 1.6013377 2.1183724
0.92938304 1.6261259 2.1382778
0.96627986 1.6271026 2.1112206
2.4292789 1.6263558 2.1370583
2.4826319 1.6240431 2.1192584
0.93236607 1.6724672 2.1357176
0.96682018 1.6774302 2.1133177
2.4302459 1.6731843 2.1453648
2.4726388 1.6754799 2.1222007
0.93119311 1.7250156 2.13747
0.9714191 1.7272617 2.1121652
1.0954754 1.7246423 2.1156287
2.4333837 1.7204663 2.1448886
2.4674745 1.7282686 2.1276779
0.92654115 1.7643999 2.1386356
0.97577435 1.7738218 2.1115284
2.4450195 1.7760037 2.1390953
2.4596953 1.7667277 2.1294231
2.4389491 1.8161494 2.1418934
2.4361367 1.8591821 2.1471958
2.2306681 -0.37835658 2.1923938
2.2664664 -0.2503733 2.1510789
2.2933931 -0.22439164 2.1660666
2.3195837 -0.19659035 2.1534684
2.3776987 -0.1753339 2.188988
2.4184468 -0.17060307 2.1691611
2.3856857 -0.1287722 2.1923859
2.418395 -0.12892023 2.1681421
2.3876576 -0.082943469 2.1870224
2.4218678 -0.075427495 2.1679537
2.3870227 -0.024073876 2.1898537
2.4205441 -0.029512595 2.1696897
2.3878846 0.019689158 2.1857724
2.4218516 0.025324339 2.1651669
2.3853595 0.069624551 2.187314
2.4187484 0.075277418 2.1669319
2.3804705 0.12448236 2.1902671
2.4154572 0.12217573 2.1653821
2.3854465 0.17606658 2.1853354
2.4155962 0.17454524 2.1623592
2.382309 0.22541159 2.1842051
2.4159608 0.22396398 2.1640341
2.379452 0.27560297 2.187598
2.4127598 0.27616462 2.1639359
2.3871186 0.32720748 2.1884584
2.4175792 0.32746983 2.1620259
2.3814542 0.37969565 2.185909
2.4222829 0.37896171 2.1589825
2.3776743 0.42229605 2.1926479
2.4205556 0.42352152 2.1638525
2.378536 0.47619548 2.1883168
2.4158382 0.47496974 2.1639612
2.3776224 0.52555025 2.1867893
2.4099634 0.52631885 2.1620004
2.3766446 0.5721525 2.1860809
2.4096518 0.57172656 2.1656275
2.373889 0.63501453 2.1928873
2.3591492 0.67425853 2.1891954
2.3602023 0.72730941 2.1849287
2.3412156 0.78780061 2.1951125
2.3580418 0.77382588 2.1879606
2.3475056 0.8120414 2.1940062
2.3594925 0.83087349 2.1829193
1.0624924 0.87359911 2.1518724
2.3449502 0.8829931 2.196775
2.3717785 0.87714362 2.1720235
2.3385129 0.93822074 2.1996617
2.3718781 0.92218876 2.175992
2.3435364 0.97008568 2.1931646
2.376708 0.97041023 2.1728458
2.4119022 0.97576374 2.1547596
-0.25464872 1.0226909 2.1793616
-0.24072051 1.0232264 2.1908586
1.0311793 1.0049336 2.1622691
2.3437393 1.0363845 2.1975479
2.3758152 1.0223452 2.1778798
2.4117777 1.0249246 2.1553986
-0.25683752 1.0729135 2.18383
-0.24597403 1.0690943 2.1905887
-0.15296599 1.0684562 2.1550333
-0.13502507 1.0717162 2.1947293
2.3468957 1.0528147 2.1943805
2.3738537 1.0743315 2.1811016
2.4037776 1.0732387 2.1573396
1.0067846 1.1184092 2.1781087
2.3482873 1.1207565 2.1979992
2.3772285 1.1225841 2.1784117
2.4080942 1.1241173 2.1557407
-0.27203777 1.195649 2.1744273
0.58352935 1.1789205 2.1722126
0.98124158 1.1767027 2.158452
2.3397129 1.1694516 2.1976635
2.3755634 1.1722245 2.1752653
2.4105043 1.1668749 2.1550426
-0.26698518 1.2119186 2.174643
0.58309251 1.2283796 2.171699
0.84482318 1.240911 2.1952512
0.87736738 1.2365347 2.1814308
0.92088139 1.2327979 2.161938
0.95328373 1.2273487 2.152564
2.3402822 1.2205439 2.1958191
2.3753996 1.2230084 2.1726453
2.4159639 1.2281737 2.1539788
0.5869059 1.274682 2.1845353
0.83646339 1.2747949 2.192342
0.87649024 1.2740426 2.1702471
0.90659845 1.2714832 2.152957
2.3495796 1.2587327 2.1993933
2.3720758 1.2788843 2.1804335
2.4096804 1.2758236 2.1583819
0.54567385 1.3453236 2.1506729
0.58224684 1.3260347 2.1881626
0.83330899 1.3288589 2.1898522
0.87190056 1.3241842 2.1716852
0.90216035 1.3248345 2.1549318
2.3441601 1.3180168 2.1960006
2.3740048 1.3295691 2.1778529
2.4058897 1.3316147 2.1559122
0.56960309 1.3792722 2.1768944
0.83214533 1.3781466 2.1921816
0.8756935 1.3751762 2.1681139
0.90522265 1.3537173 2.1501045
2.3391526 1.3703159 2.195869
2.3783541 1.3751659 2.1762438
2.4071071 1.366166 2.1507604
0.56251782 1.4252075 2.1761334
0.83238095 1.4249938 2.1905837
0.87146288 1.4240035 2.1670642
0.90295154 1.418111 2.152415
2.3781385 1.4197366 2.1790152
2.4089041 1.4229306 2.1560903
0.54181308 1.4835163 2.1575122
0.56945688 1.471361 2.1880596
0.83414477 1.4751418 2.1881254
0.87732792 1.4733053 2.1632702
2.3741333 1.4737637 2.1783395
2.407963 1.4867132 2.15397
0.54190433 1.525116 2.1699147
0.5607785 1.5212114 2.1779754
0.8273077 1.5250679 2.1916695
0.87206435 1.5228084 2.1665876
2.3462021 1.5108489 2.1962004
2.376981 1.5234004 2.178241
2.4217119 1.5328051 2.157032
0.54153055 1.5666262 2.1581604
0.56766021 1.5637519 2.1840057
0.83434421 1.5774109 2.1913855
0.87362576 1.5709949 2.1667612
0.90906429 1.5716612 2.153636
2.3780351 1.5722632 2.1805098
2.4147613 1.5755959 2.1581547
0.54702276 1.6075464 2.1505616
0.56472427 1.616621 2.172224
0.83277208 1.6191063 2.192734
0.87777984 1.6267682 2.1666701
2.3461521 1.6270161 2.1986704
2.3735158 1.6294709 2.1818538
2.4062731 1.6319294 2.1606169
0.83916968 1.6725106 2.1929264
0.87483817 1.6753693 2.1715844
0.907547 1.680162 2.1534407
2.377115 1.6782303 2.1824987
2.4178753 1.6836957 2.1573019
0.83710748 1.7339197 2.1947269
0.87466359 1.7235162 2.1728063
0.90261352 1.7342581 2.1509311
2.382252 1.7242954 2.1831515
2.4139619 1.7246171 2.1627545
0.84122765 1.7689443 2.1933632
0.88099891 1.7649311 2.1650457
0.90623915 1.7543268 2.1504657
2.3750329 1.7721702 2.1868532
2.4171579 1.7773919 2.1647582
0.88433164 1.8027769 2.1982584
2.3472807 1.8082545 2.1975243
2.3773348 1.8261913 2.1856549
2.4230533 1.8221811 2.1587656
2.3797424 1.8743899 2.1880407
2.4197254 1.8737453 2.1689203
2.3820808 1.9327734 2.1876121
2.4110646 1.9123696 2.1749027
2.3808696 1.9729121 2.1861885
2.3700218 2.0170588 2.1902115
2.2658954 -0.37006831 2.2291055
2.2880123 -0.32889676 2.2366104
2.3060112 -0.30832073 2.2365875
2.3099554 -0.27194369 2.2309685
2.3215544 -0.21837008 2.231468
2.3317807 -0.1719213 2.2336071
2.3601887 -0.16905268 2.2095106
2.3236597 -0.12674038 2.238409
2.3619058 -0.12869559 2.2107244
2.2996421 -0.085074827 2.247076
2.3248174 -0.076964043 2.2312591
2.3631949 -0.07954336 2.2057776
2.2970266 -0.020483499 2.245728
2.3316944 -0.027671479 2.2253981
2.3650067 -0.027664796 2.2031243
2.2968962 0.022532417 2.2454746
2.3264048 0.021816762 2.2292702
2.3591454 0.023750816 2.2090843
2.2980306 0.072725296 2.2455976
2.33079 0.072901875 2.223475
2.3642211 0.073105916 2.2013118
2.2982504 0.12293415 2.2437985
2.3324487 0.12326797 2.2230279
2.364392 0.10189838 2.2004499
2.2998915 0.16608182 2.24295
2.3263011 0.17508388 2.2229795
2.3598557 0.16685054 2.2060714
2.2884352 0.22090687 2.2453825
2.3248065 0.22236481 2.2253623
2.3513951 0.23878703 2.2057335
2.2880292 0.27401271 2.2488244
2.3230095 0.2748037 2.2288768
2.3554804 0.27528945 2.205816
2.2924955 0.33213988 2.2463124
2.3241408 0.3253921 2.2238984
2.3613477 0.32661709 2.2051697
2.2950408 0.37576246 2.2427773
2.3287308 0.37659538 2.2212555
2.3632596 0.36306944 2.2020061
2.2929213 0.43152049 2.2408783
2.3271799 0.4218336 2.2186401
2.3513172 0.43591699 2.2063177
2.2895963 0.47853494 2.2474997
2.3233068 0.47635642 2.2237606
2.3542178 0.46549085 2.2037857
2.2942917 0.52301633 2.2435582
2.3252676 0.52351958 2.2191494
2.2854936 0.57052344 2.240169
2.3253992 0.5761525 2.2217586
2.351902 0.58462703 2.204416
2.289665 0.62722361 2.2432635
2.3223028 0.62822288 2.2202773
2.3620565 0.62378979 2.2051554
2.2880676 0.67259496 2.2441614
2.3266985 0.67197365 2.2170894
2.3500633 0.69048679 2.204067
2.2875128 0.72583038 2.2432792
2.3190157 0.72499222 2.2220304
2.3514495 0.70557642 2.2013016
2.2868176 0.77935618 2.2411675
2.3244939 0.77484053 2.2140498
2.2905285 0.82240462 2.2390115
2.3204632 0.82881033 2.2144892
2.2873435 0.87328911 2.2406447
2.3217909 0.87187672 2.2135417
2.2793791 0.92275256 2.2411199
2.318862 0.92029071 2.2181427
2.2857831 0.96761197 2.2347975
2.3212116 0.97005361 2.2135451
-0.23294637 1.0363919 2.2087131
2.2838686 1.02548 2.2404671
2.3215129 1.0171257 2.2144535
-0.23174275 1.074941 2.2295737
-0.15891013 1.0984131 2.2428749
-0.13486668 1.067975 2.2366605
2.2833714 1.0761427 2.2345228
2.3246586 1.0679556 2.2088263
-0.21732193 1.1073947 2.243783
-0.10036958 1.1362715 2.2122252
2.2805064 1.1296545 2.2393477
2.3214996 1.1206332 2.2136281
0.60641289 1.1894207 2.2157435
2.2852247 1.1708752 2.2393258
2.3156686 1.1710179 2.2126377
0.61886281 1.2379718 2.2372227
0.74660265 1.2436336 2.2471859
0.77493036 1.2341508 2.2356691
0.82124501 1.2343435 2.2144854
0.86442626 1.2343355 2.2254596
2.2789199 1.2226112 2.2404773
2.3168297 1.2201834 2.2156134
0.61448908 1.2835726 2.2311287
0.74215865 1.2647507 2.2458951
0.77703804 1.2746207 2.2285903
0.8099708 1.2723825 2.2072816
2.2818184 1.271222 2.2352166
2.324935 1.2731487 2.2107954
0.61390591 1.3189957 2.2280221
0.74020511 1.3267039 2.2457445
0.77332079 1.3236104 2.2288198
0.81121606 1.3228662 2.2080352
2.2799656 1.3237213 2.2342272
2.323216 1.3268985 2.2145131
0.589908 1.3676745 2.2054777
0.6122306 1.3778429 2.2314198
0.74143219 1.377786 2.2419198
0.77598137 1.3730921 2.2243259
0.80849129 1.3729486 2.2055068
2.2809446 1.3755096 2.2349038
2.3189397 1.3819678 2.2105348
0.58800381 1.4366959 2.208817
0.61376345 1.4190502 2.2338603
0.73584777 1.4233379 2.2447486
0.77526301 1.4226092 2.225487
0.80704606 1.4341165 2.2047617
2.2780843 1.4219338 2.2401323
2.3224089 1.425403 2.2119489
0.58834022 1.4758565 2.206248
0.62059128 1.4727973 2.2458303
0.74035209 1.4748527 2.2419984
0.77600318 1.473955 2.223902
0.81033432 1.4770212 2.2040074
2.2830393 1.4689884 2.238142
2.3236058 1.475695 2.2157326
0.58625388 1.5140926 2.2079468
0.61581892 1.5320607 2.2380888
0.73819488 1.5309916 2.2447095
0.77069163 1.5229052 2.2297275
0.80131072 1.5334396 2.2105112
2.2830129 1.5262911 2.2405274
2.3195274 1.5303718 2.2141004
0.59352165 1.5706377 2.2143078
0.61337799 1.5768211 2.2454047
0.74199247 1.567749 2.2449028
0.77498782 1.5756735 2.2277482
0.81201273 1.5798594 2.2073774
2.2887216 1.5749198 2.2379248
2.3236115 1.5772022 2.2144573
2.3552167 1.5745829 2.2063091
0.58555025 1.6210531 2.2123597
0.60778981 1.6226587 2.2359111
0.73616201 1.6215783 2.2473843
0.77357507 1.6257267 2.2271373
0.81046593 1.6279875 2.2121735
2.2826149 1.6193352 2.2422266
2.3216517 1.6212631 2.2211077
0.59133202 1.6626244 2.218796
0.61231905 1.6647698 2.2345541
0.74645907 1.6695236 2.243428
0.7804628 1.6766006 2.226006
0.81574124 1.6776329 2.2078321
2.2893257 1.6783816 2.2426305
2.331486 1.67178 2.2179983
0.7390843 1.7409315 2.2485301
0.77286786 1.7240456 2.2331061
0.81353951 1.7234761 2.2092614
2.286685 1.7248771 2.2436142
2.3232687 1.7247057 2.2192435
2.3619797 1.713869 2.2039387
0.78065383 1.7676243 2.2322135
0.81420708 1.7709541 2.2157159
2.2892995 1.7765731 2.2428184
2.3244402 1.7787465 2.219357
2.3523622 1.7510531 2.2037992
2.2842705 1.8220176 2.2437134
2.3291018 1.8267075 2.2254057
2.2942681 1.8735342 2.2444425
2.3248198 1.8730121 2.2249539
2.358707 1.887466 2.2007623
2.293606 1.9278407 2.2461069
2.3248267 1.9321442 2.2262747
2.3560035 1.9234152 2.2108879
2.3246496 1.9733372 2.2257659
2.3526273 1.984268 2.204215
2.3234286 2.0200541 2.2314298
2.3591743 2.0220795 2.2083106
2.2964973 2.0753646 2.2495074
2.3310068 2.071346 2.2284429
2.3623979 2.057322 2.209101
2.3298893 2.1200452 2.2331538
2.3229048 2.1673777 2.2373974
2.3072367 2.219413 2.2485323
2.2263055 -0.36054105 2.2777977
2.2639689 -0.37488294 2.2580917
2.2293124 -0.32724315 2.2859693
2.2725415 -0.32038033 2.2649457
2.2302139 -0.2753337 2.2872233
2.2744467 -0.27207336 2.2632494
2.2283616 -0.22797883 2.2878368
2.276428 -0.22379379 2.267309
2.0896645 -0.16497578 2.2641566
2.1036201 -0.15217073 2.2800896
2.2296007 -0.17801286 2.2928569
2.2693973 -0.17407326 2.2691054
2.3080082 -0.17179187 2.2510602
2.2326133 -0.13256641 2.2896378
2.2711473 -0.12629139 2.2675104
2.3069592 -0.14292492 2.2517726
2.2323911 -0.081934445 2.286896
2.2714813 -0.075411186 2.2641482
2.2343075 -0.029430805 2.2865577
2.2745626 -0.027674491 2.263669
2.3028517 -0.042084362 2.2512059
2.2255864 0.02153551 2.2898393
2.2671914 0.023111625 2.2671885
2.2312269 0.072333351 2.2857497
2.2736833 0.072605051 2.2617745
2.2326934 0.12239441 2.2853119
2.2734885 0.1227204 2.2595904
2.2299647 0.17233811 2.2830057
2.2730393 0.17304358 2.2619488
2.2284763 0.22010103 2.2834318
2.267396 0.22562535 2.2628169
2.2241287 0.27470779 2.2882953
2.2703862 0.2738086 2.2615054
2.2236762 0.32323113 2.2855909
2.2695053 0.32196915 2.2606444
2.2266257 0.37386 2.2819071
2.2704108 0.37523246 2.2589009
2.2271657 0.42625186 2.2785604
2.2710974 0.42139411 2.2569692
2.2217474 0.47630331 2.2873971
2.2648895 0.47786012 2.2636125
2.2274375 0.52085549 2.2849698
2.2692692 0.52222151 2.2595313
2.1966846 0.5708763 2.2968102
2.2283139 0.57386369 2.2789798
2.2612863 0.57271737 2.2543166
2.2196195 0.62381816 2.2817812
2.2613468 0.62540406 2.256089
2.1922438 0.66772121 2.2971008
2.2243643 0.67249054 2.2804873
2.2620475 0.67133921 2.259414
2.2209451 0.72468907 2.2829032
2.2635143 0.72514814 2.260617
2.1963723 0.78309953 2.2985809
2.2281618 0.77672398 2.2785914
2.2611899 0.77807504 2.2570705
2.2240021 0.82121372 2.2786882
2.2655439 0.82866305 2.2533236
2.1960845 0.87655985 2.2979681
2.2269909 0.86983132 2.2769799
2.2609065 0.87161255 2.2559946
2.1924877 0.92580724 2.29655
2.2247431 0.9250409 2.2775323
2.2582953 0.92673117 2.2560306
2.1922436 0.97928137 2.2969172
2.2270963 0.98163724 2.2771304
2.2602084 0.98318177 2.2548902
2.1916394 1.0355575 2.2949057
2.2265937 1.0305713 2.2779264
2.2620621 1.0240285 2.2537982
-0.21745643 1.0847611 2.2530744
-0.1589388 1.075482 2.2513001
-0.14838505 1.0886533 2.2652693
2.1918449 1.0765823 2.2940564
