ply
format ascii 1.0
comment PCL generated
element vertex 1453
property float x
property float y
property float z
element camera 0
property float view_px
property float view_py
property float view_pz
property float x_axisx
property float x_axisy
property float x_axisz
property float y_axisx
property float y_axisy
property float y_axisz
property float z_axisx
property float z_axisy
property float z_axisz
property float focal
property float scalex
property float scaley
property float centerx
property float centery
property int viewportx
property int viewporty
property float k1
property float k2
end_header
-1.0291811 0.022234507 1.0273103
-1.0294604 0.075272135 1.0278383
-1.0308852 0.12535037 1.0238291
-1.029045 0.17488693 1.0290115
-1.0310155 0.22481355 1.0256919
-1.030273 0.27519247 1.0274462
-1.0303988 0.32667091 1.0279313
0.51429522 0.32106429 1.018018
-1.0302572 0.3756375 1.0271649
-1.0308167 0.42595154 1.0259917
-1.0321351 0.47492296 1.0243535
-1.0309447 0.52496076 1.0268067
-1.0315585 0.57524329 1.0259104
-1.0320321 0.62450999 1.0257595
-1.0323368 0.67508215 1.0267949
-1.0330758 0.72578758 1.0267998
-1.0502254 0.75535846 1.0073651
-1.0341866 0.77652681 1.0269994
-1.0538725 0.82772744 1.0008371
-1.0356394 0.82677829 1.0266454
-1.0503411 0.89531976 1.0028104
-1.0351548 0.87554085 1.0265282
-1.0375715 0.92551124 1.0266613
-1.0364851 0.9731431 1.0284208
-1.0329983 1.0233548 1.0375741
-1.0299182 1.0648365 1.0448756
-0.71895176 -0.55033779 1.0687649
-0.96246797 -0.51211399 1.0718027
-0.92506033 -0.52737308 1.0744247
-0.8767727 -0.53748369 1.0770873
-0.82519156 -0.53870982 1.0730217
-0.771424 -0.53739911 1.0727572
-0.7297793 -0.54404813 1.0770181
-0.67589486 -0.54621392 1.0735477
-0.62695241 -0.5433684 1.0748161
-0.57323474 -0.53645939 1.0729426
-0.52542204 -0.53081644 1.0763525
-0.48487249 -0.52044588 1.0699233
-1.0024023 -0.45405114 1.0515232
-0.97496468 -0.47569489 1.0755452
0.88215572 -0.45070744 1.0640049
0.93357813 -0.45120344 1.0731995
0.95728457 -0.45043376 1.0729301
1.0243533 -0.45051703 1.0655274
1.1766231 -0.45171049 1.0572009
1.2134194 -0.45032609 1.0737174
1.2576468 -0.45036343 1.0520694
-1.0028211 -0.42077446 1.052928
-0.98582876 -0.42633608 1.077764
0.84821671 -0.44218704 1.0644271
0.87668633 -0.44803876 1.069219
0.92193097 -0.44902858 1.0822533
0.97479653 -0.44815537 1.0775456
1.0272268 -0.44651401 1.0728124
1.0734833 -0.44543853 1.0743229
1.126279 -0.44497484 1.0714588
1.175225 -0.44496009 1.0745536
1.2305813 -0.44697669 1.0756608
1.273766 -0.44451794 1.0767481
1.3235406 -0.44351646 1.0726638
1.3757 -0.44148386 1.0789332
1.4127178 -0.4368166 1.0955279
-1.0047505 -0.37505737 1.0575278
-0.98809648 -0.37585363 1.0822744
-1.0059114 -0.32347098 1.0595833
-0.98932868 -0.32578906 1.0844809
-1.006724 -0.27367994 1.0605752
-0.99035352 -0.27377144 1.0854062
-1.0073518 -0.22422281 1.0612372
-0.99055833 -0.22616948 1.0858043
-1.0081414 -0.17279336 1.0620729
-0.99074191 -0.17674507 1.0870678
-1.008635 -0.12449885 1.0618353
-0.99183828 -0.12525497 1.0862111
-1.0075825 -0.075923182 1.0616331
-0.99151736 -0.07479421 1.0872205
-1.0078884 -0.025822714 1.0629961
-0.99064732 -0.026003571 1.0875453
-1.0077578 0.023349361 1.0628101
-0.99043572 0.023450619 1.0872741
-1.0076476 0.076745346 1.0614276
-0.99114275 0.075527199 1.0865568
-1.0082244 0.12586428 1.0624412
-0.99031907 0.12694317 1.0881642
-1.0078053 0.17426305 1.0619156
-0.99099576 0.17472968 1.0875607
-1.0080782 0.22465348 1.0628676
-0.99141037 0.22522613 1.0877091
-1.0089031 0.27447629 1.0622549
-0.99210107 0.27353656 1.0871795
-1.0079709 0.32474986 1.0627505
-0.99082994 0.32221699 1.0872444
0.53751838 0.32011119 1.0549476
-1.0081465 0.37537694 1.0623887
-0.99197769 0.3730011 1.0871651
-1.0083278 0.42339778 1.0623583
-0.99151349 0.42585802 1.086251
-1.0087734 0.47475857 1.0619987
-0.99192703 0.47617882 1.0868056
-1.0081179 0.52399266 1.0619531
-0.99189174 0.52592933 1.0869364
-1.0084683 0.57456887 1.0628699
-0.99191427 0.57592523 1.0884943
-1.0090957 0.62485874 1.0645399
-0.99188781 0.62447971 1.0879374
-1.0088332 0.672153 1.0654067
-0.99178255 0.67657578 1.0891986
-1.0089388 0.72493988 1.0661011
-0.99362367 0.72505915 1.0891893
-1.0108368 0.77382046 1.0659084
-0.99323016 0.77567947 1.0914434
-1.0114928 0.82340479 1.0667356
-0.99519157 0.82579571 1.0909363
-1.0102891 0.87425327 1.0695931
-0.99642307 0.87395382 1.0919368
-1.0123922 0.92454302 1.069826
-0.99537265 0.92237186 1.0949776
-1.010065 0.97457922 1.0709339
-0.99595833 0.97921175 1.0950518
-1.0126076 1.0251067 1.067281
-0.99602038 1.0227846 1.0938076
-1.0127722 1.0751684 1.070539
-0.9978258 1.0719659 1.0960286
-1.010015 1.1152078 1.0753175
-0.99629027 1.1264673 1.0956883
-0.922333 -0.51562154 1.1216571
-0.87382942 -0.53033072 1.1266433
-0.8296653 -0.53759855 1.1255366
-0.76587486 -0.53409421 1.1264588
-0.71936607 -0.53963917 1.1213235
-0.67723525 -0.54543865 1.1243135
-0.62537688 -0.54374021 1.1239883
-0.57609165 -0.5389238 1.1257516
-0.52426374 -0.53092486 1.1238742
-0.49815112 -0.52356833 1.1078101
-0.95675468 -0.46504804 1.1113849
-0.93627053 -0.47925645 1.1309811
0.91694224 -0.45044988 1.117094
1.0125748 -0.4511131 1.1148795
1.1138806 -0.45005867 1.1058667
-0.96080059 -0.42245483 1.1172317
-0.94533694 -0.42800862 1.1408843
0.88462561 -0.44309267 1.1191152
0.92329365 -0.44722584 1.1227382
0.97369301 -0.445941 1.126151
1.0292917 -0.44624799 1.1244154
1.0696815 -0.44412723 1.1164011
1.1268107 -0.44410989 1.1249601
1.1754063 -0.44327265 1.1229366
1.2189878 -0.44452828 1.1225039
1.256398 -0.44426394 1.1041778
1.3179442 -0.44573745 1.1263084
1.3662522 -0.44712901 1.1259037
1.4338089 -0.43765157 1.1286305
-0.96356213 -0.37540671 1.1208582
-0.94702971 -0.37148339 1.1447744
-0.96510351 -0.32473788 1.1223052
-0.9483192 -0.33058244 1.1469077
-0.96487564 -0.27630779 1.1251849
-0.9480257 -0.27882087 1.1495056
-0.96568435 -0.22399575 1.1246014
-0.94833255 -0.24395424 1.1499823
-0.96620607 -0.17462294 1.1250106
-0.96672565 -0.12511332 1.1250249
-0.96640986 -0.075058647 1.1254311
-0.96498871 -0.026329603 1.1269875
-0.96504563 0.023730215 1.1263341
-0.9498505 0.02042277 1.1470257
-0.96550673 0.074224204 1.1249154
-0.96576911 0.12362503 1.1244047
-0.96492243 0.17553873 1.1256438
-0.94942516 0.16559587 1.149386
-0.96700472 0.22384395 1.1225789
-0.96605712 0.27535108 1.1249999
-0.96700943 0.32594764 1.1243376
-0.96652812 0.3757441 1.1248388
-0.96733725 0.42436847 1.1242083
-0.96666551 0.47495916 1.1254503
-0.94977623 0.46217918 1.1498253
-0.96716624 0.52488184 1.1245577
-0.96828955 0.5743109 1.1253335
-0.96927631 0.62509674 1.124669
-0.9701786 0.67416328 1.1255962
-0.97183025 0.7241984 1.1247321
-0.97350103 0.7753008 1.1253461
-0.97321945 0.82445449 1.1257552
-0.97753674 0.87411463 1.1232376
-0.97706491 0.92451036 1.1256467
-0.97827047 0.97645032 1.1251607
-0.97860801 1.0268748 1.1242079
-0.97905046 1.0750672 1.1252731
-0.97929084 1.1225961 1.1249564
-0.97542924 1.1539494 1.1378161
-0.90912431 -0.50750232 1.1618705
-0.87742448 -0.51844954 1.1775932
-0.82374865 -0.53296375 1.1733619
-0.78256977 -0.53756934 1.1786108
-0.72994071 -0.53340745 1.1698668
-0.67866588 -0.53986907 1.1719115
-0.62752873 -0.54271358 1.1724471
-0.57549059 -0.53962237 1.1757385
-0.53710878 -0.53530443 1.1766515
-0.91474944 -0.4716154 1.1712062
-0.89493245 -0.48803023 1.1907743
-0.92415702 -0.42530712 1.1750242
0.92785585 -0.44204205 1.1679287
0.97217596 -0.4445346 1.1746751
1.0293398 -0.44353902 1.1722049
1.0748968 -0.44378126 1.1735406
1.1202648 -0.44379264 1.1595967
1.151456 -0.44098562 1.181715
1.3377851 -0.44085002 1.1729641
1.3770863 -0.44457516 1.1888045
-0.92877841 -0.37505609 1.1753536
-0.93056506 -0.3247138 1.1753066
-0.93275362 -0.27443686 1.1740215
-0.93338805 -0.22462894 1.1746466
-0.95008963 -0.16167746 1.1510715
-0.93238562 -0.17627417 1.1760653
-0.93461406 -0.1247462 1.173579
-0.933047 -0.074215516 1.1757519
-0.93273515 -0.026787465 1.1769698
-0.93264294 0.023996715 1.1768248
-0.93296361 0.074812897 1.1754464
-0.93416142 0.12481675 1.1722077
-0.93174052 0.17648865 1.1761062
-0.93408984 0.2257567 1.1740037
-0.95002764 0.25187466 1.1500696
-0.93292779 0.27544245 1.1754104
-0.95214105 0.32632768 1.1503968
-0.93386286 0.32492307 1.1746887
-0.9347831 0.37458146 1.1745352
-0.95092231 0.42109749 1.150479
-0.93425006 0.42462948 1.1754359
-0.93424064 0.47447842 1.1754373
-0.95018595 0.54036123 1.1508933
-0.9351359 0.52522641 1.1756383
-0.95099247 0.57714665 1.1520681
-0.93500656 0.57604295 1.1767895
-0.95191211 0.62669307 1.1532009
-0.93518376 0.62541014 1.1778661
-0.95380616 0.67739689 1.153417
-0.93706012 0.67576545 1.1782274
-0.95276171 0.72503698 1.1551441
-0.93729943 0.72507703 1.1802011
-0.954184 0.77603042 1.1564515
-0.93823916 0.77490091 1.1806625
-0.95425946 0.8261044 1.1586165
-0.93876916 0.8250947 1.1821057
-0.95522881 0.87539387 1.1570078
-0.93930167 0.8735072 1.1827844
-0.95532638 0.92272842 1.160805
-0.93955827 0.92472243 1.1852063
-0.95745236 0.97036451 1.159582
-0.9409548 0.97422242 1.183018
-0.95701182 1.0229684 1.159268
-0.93922579 1.0237586 1.1845136
-0.95744628 1.0726408 1.1608044
-0.94203931 1.0769087 1.1844866
-0.95741522 1.1237727 1.1610423
-0.94271368 1.1228279 1.1855675
-0.95668447 1.1602347 1.1676075
-0.94162899 1.1668061 1.1927304
-0.86476833 -0.51051778 1.2213798
-0.82581085 -0.52509046 1.2245486
-0.77487844 -0.53445297 1.2274134
-0.71879554 -0.53460819 1.2269236
-0.67015755 -0.53398252 1.218891
-0.62912148 -0.53923386 1.2274668
-0.57717448 -0.53878003 1.2256866
-0.54459769 -0.53291547 1.2198864
-0.90211958 -0.45513248 1.2029817
-0.87847918 -0.47454041 1.2254674
-0.90407085 -0.41872352 1.2087184
-0.88833702 -0.42676982 1.2316282
0.97745037 -0.44447666 1.2302516
1.0196637 -0.44449905 1.22577
1.0766207 -0.44374701 1.2224842
1.117283 -0.44409728 1.224465
1.3762152 -0.44192213 1.2075016
-0.90649527 -0.37534457 1.2110561
-0.89107668 -0.37379965 1.2352568
-0.90738845 -0.32399186 1.2125485
-0.89195597 -0.32463983 1.237856
-0.90836608 -0.27575099 1.2125514
-0.89246505 -0.27330232 1.2381265
-0.90785164 -0.22570407 1.2132732
-0.89226776 -0.22277646 1.2394848
-0.90926147 -0.17244706 1.2122219
-0.89276618 -0.17520797 1.2380527
-0.90896577 -0.12345164 1.2134842
-0.89264119 -0.12454907 1.2382931
-0.90800148 -0.075261429 1.2152964
-0.89221174 -0.075978205 1.2407469
-0.90748513 -0.027169498 1.2154295
-0.89192086 -0.027436202 1.2406617
-0.90726113 0.024161302 1.2152027
-0.89150643 0.024609266 1.2402062
-0.90776622 0.076261722 1.214028
-0.89140815 0.075740665 1.2382497
-0.90883762 0.12398908 1.2130067
-0.89299423 0.1251146 1.2384814
-0.90898412 0.17073555 1.2119373
-0.89213371 0.1753687 1.2376653
-0.90846473 0.22352843 1.2135133
-0.89141446 0.2235743 1.2389387
-0.90889651 0.27449644 1.2134125
-0.8930397 0.27356401 1.2372183
-0.9085651 0.323102 1.2135308
-0.89279687 0.3234058 1.2380481
-0.90875238 0.37359783 1.2143919
-0.89278209 0.37753013 1.2386862
-0.90958762 0.42486203 1.2137297
-0.89207089 0.42453232 1.2392694
-0.9090181 0.47634524 1.2159642
-0.89373004 0.47288629 1.2391933
-0.9097802 0.52445906 1.2149708
-0.8932271 0.52679217 1.2403232
-0.90941042 0.57456529 1.2175606
-0.89448416 0.57591581 1.242826
-0.91043288 0.62350094 1.2185241
-0.89524823 0.62699729 1.2426431
-0.911731 0.67426199 1.2173737
-0.89520121 0.67607981 1.2424016
-0.91215271 0.72555095 1.2194654
-0.89634264 0.7240873 1.2430104
-0.91325963 0.7755425 1.2206928
-0.89599788 0.77832496 1.2456739
-0.91403383 0.82452285 1.2216282
-0.89432132 0.81603003 1.2448208
-0.91407752 0.87411052 1.2229331
-0.89872772 0.87359899 1.2475681
-0.915241 0.92462039 1.2228261
-0.8981002 0.92473966 1.2455404
-0.91600353 0.97532827 1.2239412
-0.89776075 0.98597014 1.2478194
-0.91534352 1.0246158 1.2230226
-0.89798951 1.0369755 1.2467263
-0.91849256 1.0763522 1.2247286
-0.89906198 1.0687259 1.2496608
-0.91854513 1.125285 1.2254733
-0.91871828 1.1738155 1.2270555
-0.85268998 -0.50446165 1.2559555
-0.82409531 -0.51350629 1.2741255
-0.77581728 -0.52816689 1.2733824
-0.72739255 -0.53446567 1.277271
-0.67099708 -0.53297216 1.2740952
-0.61840999 -0.53080821 1.2713963
-0.58422494 -0.53690553 1.278461
-0.85797197 -0.47030336 1.2625892
-0.84039593 -0.47838721 1.2847254
-0.86431026 -0.42339167 1.2704201
-0.8477084 -0.42762095 1.2961981
0.97641218 -0.4442772 1.2538635
1.0302892 -0.44189322 1.2597895
1.0562013 -0.44592613 1.2780347
-0.8666907 -0.37529239 1.2745608
-0.86843354 -0.32496101 1.2748704
-0.84898341 -0.34583443 1.2996476
-0.870188 -0.2751388 1.2733874
-0.86905748 -0.22667061 1.2762711
-0.87019897 -0.17502879 1.2746782
-0.86961156 -0.12627006 1.2744663
-0.86866653 -0.076987401 1.2760853
-0.86826652 -0.027839905 1.2770087
-0.86839962 0.025237571 1.2764133
-0.86882621 0.077474982 1.2761358
-0.86969888 0.12676166 1.2743154
-0.86844301 0.17644036 1.2748864
-0.86841208 0.22611143 1.2749268
-0.86952442 0.27506262 1.2735239
-0.86935395 0.3251946 1.2749201
-0.86854815 0.37531513 1.2770947
-0.87051475 0.42531973 1.2742295
-0.87179494 0.47406933 1.2745373
-0.87167388 0.52347636 1.2756255
-0.87388265 0.57423002 1.2737533
-0.87442613 0.62343562 1.2739749
-0.87486935 0.6733523 1.2744231
-0.87741029 0.72468287 1.2740645
-0.879511 0.77366316 1.2742323
-0.88008755 0.82353932 1.2755342
-0.88139933 0.87275201 1.2757071
-0.88167608 0.92248482 1.2749788
-0.88308465 0.97478789 1.2750388
-0.8820653 1.0243969 1.2766695
-0.9002735 1.0970724 1.2556237
-0.88588315 1.0729003 1.2754714
-0.90236759 1.1218686 1.2540479
-0.88603538 1.1251512 1.2806821
-0.90324724 1.1714075 1.2558287
-0.88617134 1.1749698 1.2793484
-0.88493335 1.2087851 1.2823229
-0.80779868 -0.50832605 1.3164592
-0.77604342 -0.52045435 1.3240644
-0.72468084 -0.53170985 1.3221445
-0.67833358 -0.53359669 1.3221123
-0.62917054 -0.53095526 1.3276058
-0.5815469 -0.52657115 1.3169572
-0.81867403 -0.47403818 1.3237121
-0.79606485 -0.48964471 1.3430982
-0.83053637 -0.42490527 1.3252395
-0.85271627 -0.36183724 1.3022755
-0.83488083 -0.37576786 1.3267626
-0.85069841 -0.33208743 1.3051991
-0.83654928 -0.32519051 1.3251516
-0.85157871 -0.27228051 1.3021277
-0.83591545 -0.27581504 1.328637
-0.85300487 -0.22513668 1.3038352
-0.83706468 -0.22395869 1.3267579
-0.85253918 -0.17776659 1.3013833
-0.83625531 -0.17364791 1.3280228
-0.85163641 -0.12779607 1.3044478
-0.83454227 -0.12362835 1.330017
-0.8504138 -0.08145041 1.3054093
-0.83577198 -0.075097047 1.3277994
-0.85081267 -0.026432002 1.3076578
-0.83707929 -0.027833117 1.3265377
-0.85224801 0.021533415 1.3050771
-0.83646011 0.02231827 1.3272129
-0.85061753 0.081908435 1.305501
-0.83653885 0.07266333 1.3260906
-0.85108078 0.12815979 1.3033179
-0.83413219 0.12279494 1.3295637
-0.8525511 0.17110226 1.3017838
-0.83583623 0.17279719 1.3271078
-0.85135102 0.2439961 1.305668
-0.83660012 0.22376327 1.3269432
-0.85114348 0.26832309 1.3015527
-0.83560133 0.27510399 1.3276936
-0.85165179 0.3365913 1.3051381
-0.83684778 0.32457727 1.326857
-0.85207164 0.35484272 1.3020245
-0.83675396 0.37449548 1.3279302
-0.85248846 0.4201543 1.3028973
-0.83754551 0.42615825 1.3280711
-0.85289526 0.47558096 1.3044499
-0.83765751 0.47584099 1.3287411
-0.85251582 0.52505302 1.3050693
-0.83741122 0.52445269 1.3307426
-0.85484177 0.57444614 1.306434
-0.83793378 0.5743674 1.3326937
-0.85499936 0.62688428 1.3090644
-0.83898985 0.62519705 1.3319833
-0.85456216 0.67556143 1.3087801
-0.83869284 0.67563152 1.3336302
-0.85650021 0.72465491 1.3082336
-0.8403194 0.72559547 1.3338274
-0.85668999 0.77547449 1.3106953
-0.84114426 0.77543366 1.3353072
-0.85942525 0.82830656 1.3106296
-0.84169549 0.82399023 1.334595
-0.85669339 0.87534827 1.3150333
-0.8420195 0.87701297 1.3388788
-0.85726553 0.9263801 1.3142643
-0.84196138 0.92383236 1.3377899
-0.85932481 0.97469264 1.3136307
-0.84206033 0.97434759 1.3400751
-0.8570317 1.0232321 1.318862
-0.84249687 1.024776 1.3414574
-0.86174184 1.0764049 1.3186754
-0.84603637 1.0758978 1.3441423
-0.86195511 1.1214905 1.3170046
-0.84479427 1.1266634 1.342355
-0.8611964 1.1734079 1.3179604
-0.8453241 1.1721987 1.3410699
-0.86121148 1.2176763 1.3187864
-0.84560382 1.2179823 1.3398603
-0.7723152 -0.51077849 1.3694408
-0.72749907 -0.52484602 1.3741003
-0.67861664 -0.53204048 1.3709421
-0.62656778 -0.53268915 1.3806474
-0.58921671 -0.52884638 1.3814179
-0.8053003 -0.45886162 1.3599298
-0.78415173 -0.4763377 1.3781512
-0.80727071 -0.42187998 1.3652805
-0.79173744 -0.42840087 1.3887359
-0.81078255 -0.37537768 1.3658072
-0.79567069 -0.37657592 1.3909035
-0.81105804 -0.32489482 1.3682126
-0.79505402 -0.32620254 1.3946043
-0.81078392 -0.27447227 1.369759
-0.7961393 -0.27643129 1.3924432
-0.81246638 -0.22511452 1.3671858
-0.7954759 -0.22763894 1.3933192
-0.81031114 -0.17542695 1.3693978
-0.7951616 -0.17620829 1.3928611
-0.80986679 -0.12461946 1.369809
-0.79656464 -0.12295725 1.3926636
-0.81160784 -0.071913585 1.3668994
-0.79663432 -0.073416688 1.3921258
-0.81230122 -0.024649423 1.3663573
-0.79658508 -0.025580255 1.3932632
-0.8112905 0.021320814 1.3675654
-0.79608613 0.022234315 1.3923779
-0.81240082 0.072976172 1.3659387
-0.7965104 0.073763199 1.3917634
-0.80965126 0.12561949 1.3680396
-0.79557347 0.12359736 1.3914738
-0.81048238 0.17641228 1.36835
-0.79559708 0.17659868 1.3912549
-0.81134516 0.22557546 1.3668667
-0.79506087 0.22439274 1.3939292
-0.81079072 0.27586743 1.3693192
-0.79677743 0.27222145 1.3913393
-0.81208056 0.32522961 1.3688166
-0.79683191 0.32528302 1.3945826
-0.81085831 0.37619355 1.3711792
-0.79798949 0.37761828 1.3939618
-0.81297201 0.42395547 1.3681357
-0.79668951 0.42730594 1.3932265
-0.81257033 0.47428089 1.3705485
-0.79769343 0.47571006 1.3958341
-0.81318742 0.52430922 1.3721728
-0.79750991 0.52683729 1.3963169
-0.81301266 0.57435536 1.3724595
-0.79741353 0.58042127 1.3981547
-0.81448829 0.62421 1.3735608
-0.79726028 0.63498789 1.3983492
-0.81443316 0.67498624 1.3758541
-0.798612 0.67085391 1.3976041
-0.81583184 0.7246235 1.3739065
-0.79971838 0.7263748 1.3978722
-0.81766289 0.77508414 1.3728594
-0.79948479 0.75376058 1.3960487
-0.81669199 0.82325155 1.3756074
-0.81925541 0.8742097 1.3746812
-0.81920135 0.92476964 1.3760291
-0.82065183 0.9760614 1.3761133
-0.82357758 1.0242511 1.3760295
-0.82516485 1.0752264 1.3763825
-0.82616758 1.1256166 1.3743014
-0.82601917 1.1751931 1.3761184
-0.827003 1.2252518 1.3758324
-0.8215028 1.2569244 1.3843366
-0.76014459 -0.50680351 1.4065253
-0.72778106 -0.51522005 1.4257609
-0.67534953 -0.52781332 1.4227412
-0.62946606 -0.53270495 1.4326707
-0.59447044 -0.52909273 1.4166331
-0.76357406 -0.47104776 1.4209712
-0.74380404 -0.48214373 1.4417275
-0.77142584 -0.42506614 1.4249618
-0.77514529 -0.37573382 1.425601
-0.77626258 -0.32436845 1.4251602
-0.77735776 -0.27412951 1.4246256
-0.77739483 -0.22386356 1.4247552
-0.77691299 -0.17488042 1.4253694
-0.77819741 -0.12558538 1.4230793
-0.77729958 -0.0748173 1.4241581
-0.77747297 -0.025937174 1.4243572
-0.77654874 0.023063887 1.4253083
-0.77615982 0.074631304 1.4244875
-0.77808189 0.12526591 1.4223109
-0.77690405 0.17451282 1.4250832
-0.77729481 0.2247175 1.4261471
-0.77799791 0.27540025 1.424728
-0.77985287 0.32530227 1.4228467
-0.77998585 0.37451896 1.4234849
-0.78057051 0.42383623 1.422861
-0.78104275 0.47545674 1.423526
-0.78084397 0.52666891 1.4260293
-0.80056083 0.59243518 1.4005115
-0.78168029 0.57397842 1.4253718
-0.78210706 0.62288582 1.4251454
-0.78337419 0.67510325 1.4257171
-0.78492624 0.72558254 1.425685
-0.8015101 0.79580367 1.4028198
-0.78524458 0.7752142 1.426638
-0.80096304 0.84029007 1.4022703
-0.78590113 0.82462138 1.4260697
-0.80264342 0.87120283 1.4017478
-0.78619856 0.87461847 1.4278505
-0.80189854 0.92589176 1.4058745
-0.78566539 0.92486846 1.4308422
-0.80309254 0.9752273 1.405026
-0.78826773 0.97283375 1.4293547
-0.80389047 1.0283124 1.409891
-0.78927118 1.0246975 1.4344056
-0.80432856 1.0763464 1.4121233
-0.78938264 1.0760813 1.4334843
-0.80724049 1.1240472 1.4074612
-0.79011112 1.1275907 1.4336482
-0.80487829 1.1704754 1.409171
-0.79028004 1.1759508 1.432115
-0.80534124 1.2227367 1.4105123
-0.79048729 1.2260405 1.4346656
-0.80585712 1.2634938 1.4120071
-0.78884941 1.2695823 1.4367781
-0.71442139 -0.5094167 1.4707752
-0.67589074 -0.52205974 1.4776075
-0.62986088 -0.52889168 1.4753519
-0.59959102 -0.52520645 1.4533867
-0.75230354 -0.45080122 1.4574337
-0.72831786 -0.47465494 1.4763793
-0.75362277 -0.41828981 1.4578354
-0.73762023 -0.42537108 1.4798622
-0.75577021 -0.37290981 1.4588202
-0.74060267 -0.37581727 1.4830999
-0.75599843 -0.32442698 1.4602872
-0.7420758 -0.32611233 1.483624
-0.75597566 -0.27347481 1.4610759
-0.74147916 -0.27477562 1.485822
-0.75638157 -0.22640872 1.4598073
-0.74119955 -0.22443758 1.4846556
-0.75673163 -0.17346887 1.4603186
-0.74189216 -0.17644899 1.4842871
-0.7563203 -0.12512085 1.4597701
-0.74231404 -0.12598839 1.4853855
-0.75591391 -0.0756374 1.4592023
-0.74200076 -0.075793594 1.4835941
-0.75678408 -0.024467753 1.4599515
-0.74197465 -0.027567804 1.4846563
-0.75549346 0.021708606 1.4614518
-0.74161792 0.02314792 1.4856428
-0.7555548 0.077782825 1.4603616
-0.74202007 0.072432779 1.4844325
-0.75707865 0.12587616 1.4587913
-0.74093002 0.1252051 1.4856327
-0.75664026 0.17423242 1.4597884
-0.74202269 0.17475453 1.4856615
-0.75543439 0.22685011 1.4633657
-0.74062425 0.22475792 1.4888455
-0.75688791 0.27370653 1.4613905
-0.74204445 0.27531457 1.4864478
-0.75815088 0.32529774 1.4611533
-0.74271715 0.32475612 1.4859321
-0.75739115 0.37460238 1.4622712
-0.74162894 0.37454766 1.4876989
-0.75898933 0.42585358 1.4608011
-0.74298859 0.42474505 1.4861519
-0.75812161 0.47435737 1.4631044
-0.74190724 0.47256246 1.4893923
-0.75810009 0.52498537 1.4630284
-0.74373698 0.52132815 1.4880576
-0.75928718 0.57566756 1.4640503
-0.74297017 0.57277298 1.4873765
-0.7583822 0.62596166 1.4643548
-0.74398881 0.62559229 1.4880614
-0.75955141 0.67498606 1.4658647
-0.74412942 0.67663455 1.4906335
-0.75910628 0.72605973 1.46977
-0.74339992 0.72104299 1.4938301
-0.7618162 0.77544534 1.4642094
-0.74578047 0.77403462 1.488694
-0.7612462 0.82347751 1.4676659
-0.74600524 0.82639009 1.4913127
-0.76065582 0.87288362 1.468649
-0.74621183 0.87389082 1.4916595
-0.76206726 0.92455322 1.4690709
-0.74696118 0.91857004 1.4930586
-0.76400387 0.97687495 1.4746621
-0.74750245 0.97675848 1.4951763
-0.76560974 1.0247105 1.4741601
-0.74916083 1.0302849 1.4975934
-0.76456475 1.0732213 1.472192
-0.74885631 1.077956 1.4973936
-0.76674396 1.1245011 1.472006
-0.765118 1.1776766 1.4738473
-0.74837738 1.1723263 1.4967668
-0.76449746 1.2268192 1.4739261
-0.76690698 1.2766401 1.4737526
-0.76092005 1.3091872 1.4879242
-0.70511651 -0.50035673 1.5029775
-0.67571837 -0.51292115 1.5241251
-0.63257658 -0.52329457 1.528478
-0.70959079 -0.46920764 1.5147583
-0.69047338 -0.47994563 1.5343528
-0.71353108 -0.42450717 1.5210898
-0.69791973 -0.43026477 1.5443702
-0.71560812 -0.37433988 1.5246235
-0.71787262 -0.32535031 1.5242556
-0.71845734 -0.27545354 1.5237226
-0.71757239 -0.22519174 1.5256248
-0.71793729 -0.17504418 1.5233707
-0.71870464 -0.12520674 1.5230814
-0.7189939 -0.073922217 1.5218004
-0.69931859 -0.086551316 1.547014
-0.71893692 -0.027495945 1.524105
-0.71935785 0.023524178 1.5236218
-0.69966239 0.047430068 1.5488666
-0.71855962 0.074270926 1.5239542
-0.7188921 0.12364876 1.5229954
-0.71881461 0.17613403 1.5242491
-0.7191059 0.22568193 1.5248092
-0.72011304 0.275392 1.5244793
-0.71946061 0.32419646 1.5250599
-0.72013932 0.37545764 1.5252287
-0.72055978 0.42304373 1.524909
-0.72111428 0.4745563 1.5258876
-0.72154713 0.52458805 1.5248239
-0.72231251 0.57459307 1.5244982
-0.72320306 0.62385976 1.5239229
-0.72352856 0.67508125 1.5252968
-0.72373849 0.72564679 1.5260198
0.18526167 0.73935449 1.5279809
0.22564447 0.74433827 1.5136428
-0.7244091 0.773283 1.5252779
0.1880018 0.77546215 1.5410719
0.22154585 0.7755096 1.5265573
0.25170887 0.79347956 1.5404694
-0.72638458 0.82352042 1.5241759
0.18803178 0.8251003 1.5426067
0.22350581 0.82467437 1.529089
0.25717145 0.81008571 1.5439743
-0.72631413 0.87449783 1.5244393
0.18889153 0.87368387 1.5417169
0.22549149 0.87448633 1.5308686
0.25653711 0.86621457 1.547217
-0.73031366 0.92551595 1.5228722
0.18864813 0.92268008 1.5412352
0.2221562 0.92234659 1.5304291
0.25470036 0.92757672 1.5446906
-0.73218614 0.97482783 1.5255108
0.18667133 0.97458118 1.5424193
0.22270519 0.97280121 1.530743
0.25319517 0.95435053 1.5471053
-0.73276323 1.0254333 1.5239469
0.18635644 1.0234635 1.5402974
0.22557783 1.0249501 1.5303286
-0.73241311 1.0750583 1.5267621
0.18621741 1.0743021 1.5407991
0.22138135 1.0747098 1.5289018
0.25041705 1.0618176 1.5402379
-0.75289172 1.1378294 1.5017704
-0.73373634 1.1235555 1.5246811
0.18591544 1.1226952 1.538763
0.22347431 1.1244197 1.5291417
0.25629026 1.1349623 1.5491164
-0.7334705 1.1741349 1.5261109
0.18141726 1.1741422 1.5401883
0.22539854 1.1735586 1.5270538
0.25657547 1.1863719 1.5466452
-0.75279623 1.2311752 1.5023997
-0.73630428 1.2267498 1.524339
0.18447827 1.2185092 1.5395021
0.22335131 1.2142776 1.5255442
0.25457054 1.2196436 1.5413615
-0.75143754 1.2726561 1.5020571
-0.73731136 1.276207 1.5233761
-0.7517606 1.3132638 1.5079833
-0.73567617 1.3217918 1.5324413
-0.66069567 -0.50840127 1.5679476
-0.63647527 -0.51266807 1.5799536
-0.6710974 -0.47423485 1.5725905
-0.63153732 -0.49355161 1.5932996
-0.68209827 -0.42534298 1.5734298
-0.6859712 -0.37699148 1.5747809
-0.70186764 -0.31580913 1.5521405
-0.6858508 -0.32528511 1.5780538
-0.70047277 -0.26728818 1.5554329
-0.6856035 -0.27618039 1.5778331
-0.68757296 -0.22547825 1.5749662
-0.70334446 -0.17264375 1.550887
-0.68768394 -0.17468062 1.5751946
-0.70228708 -0.11858189 1.5520763
-0.68592834 -0.1238841 1.576385
-0.70180905 -0.072618201 1.5529859
-0.68624359 -0.075917579 1.5792046
-0.70120686 -0.027541265 1.5526423
-0.68603557 -0.027730845 1.5783522
-0.70165277 0.019897291 1.553676
-0.68582845 0.024119463 1.5793135
-0.70183289 0.079219311 1.5527083
-0.68698096 0.076599292 1.5793329
-0.70290774 0.1228906 1.5530396
-0.68709171 0.12433977 1.5788558
-0.70410866 0.17469797 1.552139
-0.68796021 0.17342377 1.5762129
-0.70338368 0.22627787 1.5539114
-0.68841952 0.22333764 1.5762613
-0.70215929 0.27293578 1.5551549
-0.68655443 0.27578321 1.5804414
-0.70275247 0.32212085 1.5526905
-0.68772584 0.32508662 1.5783249
-0.70341349 0.37305036 1.5550015
-0.68824846 0.37444627 1.5795542
-0.70306379 0.42569184 1.5565675
-0.68663973 0.42568526 1.5811378
-0.70389831 0.47823629 1.5536025
-0.68791628 0.47336268 1.580164
-0.7027356 0.52472037 1.5556004
-0.68967557 0.5249911 1.5791878
-0.70380557 0.57507366 1.5563259
-0.68722367 0.5735324 1.5813985
-0.7037642 0.62708122 1.5566331
-0.68942529 0.62429255 1.5786812
-0.70382744 0.67364126 1.5566499
-0.68873894 0.67425156 1.5818796
-0.7040202 0.72580898 1.5586237
-0.68899775 0.72434962 1.5821871
-0.70512289 0.78249925 1.5606108
-0.68974352 0.77167386 1.583032
0.17118075 0.77728212 1.5610045
0.268601 0.78875393 1.5642543
-0.70617461 0.82730627 1.5583866
-0.68977642 0.82424456 1.5834086
0.16979583 0.82663047 1.5657547
0.26858965 0.83529347 1.5724297
-0.70534611 0.86982977 1.557873
-0.69170094 0.87433583 1.5830475
0.17080514 0.87502813 1.5627337
0.27346936 0.87948 1.5787079
-0.70953405 0.92270505 1.5606545
-0.69260025 0.92570031 1.5866375
0.16764984 0.92310143 1.5696648
0.27242899 0.92688107 1.5754315
-0.70810062 0.97056442 1.5636905
-0.69249302 0.9786647 1.5891267
0.16770563 0.97462481 1.5615978
0.26849052 0.97397512 1.5671164
-0.70835632 1.0205715 1.5657291
-0.69453448 1.0310109 1.5882167
0.16748175 1.0264637 1.5607285
0.26966164 1.025426 1.5732034
-0.70953232 1.0745511 1.565167
-0.69361132 1.080508 1.589708
0.16309941 1.0749953 1.5652598
0.26483348 1.0736049 1.5669575
-0.70752549 1.1248864 1.5641552
-0.69481194 1.1205654 1.5893873
0.1644159 1.1261731 1.5591872
0.26805609 1.1213297 1.5720656
-0.70807385 1.1754895 1.5709006
-0.69279176 1.1785299 1.5934602
0.16189098 1.1756238 1.5628631
0.27206478 1.173993 1.5746182
-0.71095741 1.2248437 1.5679767
-0.69669849 1.2270149 1.5906937
0.16054358 1.2282311 1.5664871
0.27347264 1.2269675 1.5782393
-0.71309632 1.2752819 1.5687138
-0.69480294 1.2695169 1.5945315
0.15664415 1.2534405 1.5691665
0.27389976 1.2615417 1.5840034
-0.71320891 1.3241141 1.5718826
-0.69804239 1.3281912 1.5921717
-0.71051836 1.3578554 1.5763414
-0.69523287 1.3614442 1.597574
-0.63184595 -0.50367016 1.6085558
-0.65648878 -0.46653304 1.6063802
-0.63735449 -0.47629982 1.6252606
-0.65895665 -0.42497775 1.6129705
-0.64346385 -0.42487368 1.6376679
-0.66207474 -0.37443686 1.6157321
-0.64641798 -0.37179169 1.641463
-0.66156262 -0.32554349 1.6187216
-0.64613879 -0.32639924 1.6447334
-0.66052991 -0.27546626 1.620333
-0.64678198 -0.27856055 1.6456393
-0.66216338 -0.22656924 1.6170852
-0.64634913 -0.22524521 1.6422943
-0.66149092 -0.17602733 1.6200504
-0.64564025 -0.17483011 1.6458048
-0.66262966 -0.12631635 1.6179767
-0.6485793 -0.12755635 1.6396098
-0.66184163 -0.077286616 1.6181594
-0.64737827 -0.075185597 1.6420734
-0.66206992 -0.027775684 1.6198275
-0.64907944 -0.032863565 1.6440232
-0.66154736 0.024539765 1.618486
-0.64919013 0.024835752 1.6443301
-0.66270697 0.077941671 1.6201615
-0.64873677 0.074249849 1.6421436
-0.6615454 0.12748243 1.6231259
-0.64988017 0.11977433 1.6431458
-0.66173625 0.17633724 1.6236165
-0.66290909 0.22592561 1.6221789
-0.64584202 0.23686844 1.6473796
-0.66344035 0.27372196 1.621783
-0.64744538 0.26661241 1.6483618
-0.66358531 0.32519355 1.6225872
-0.64925277 0.33000392 1.6449512
-0.66227436 0.37638375 1.6239064
-0.66307467 0.42477301 1.6243616
-0.6477704 0.43904763 1.6474874
-0.66210473 0.47559917 1.6270319
-0.6489026 0.45672873 1.6470816
-0.66407651 0.52459228 1.6222516
-0.66373783 0.57535875 1.6255237
-0.64974105 0.57918221 1.6471516
-0.66477382 0.62445641 1.6243054
-0.66582161 0.67414057 1.6218495
-0.66555816 0.72431499 1.6242296
-0.66498691 0.77703905 1.624698
-0.6499576 0.75818223 1.6486549
-0.66626805 0.82400864 1.6234703
0.29218832 0.82950276 1.6133198
0.30400062 0.82885474 1.6340351
-0.66804731 0.87616938 1.6232711
0.29130858 0.8719691 1.6101975
0.30333892 0.87359214 1.6314052
-0.66914731 0.92749316 1.6270055
0.29593009 0.92473155 1.6196063
0.3078047 0.91998786 1.6417755
-0.66995609 0.97289515 1.6245025
0.28879604 0.97588539 1.6086835
0.30259776 0.98084337 1.6406069
-0.67356855 1.0232565 1.6221898
0.29470679 1.0327748 1.6241149
0.30624738 1.022565 1.6464952
-0.67257446 1.0728321 1.6243455
0.29318765 1.0690247 1.6168274
0.30873278 1.0548577 1.6482797
-0.67489141 1.1270363 1.6240418
0.2910305 1.1102095 1.6247584
0.30360794 1.1279345 1.6402433
-0.67576212 1.1745305 1.6248658
0.28903574 1.1745641 1.6089239
-0.67869514 1.223613 1.6254886
0.29094419 1.2385858 1.6237597
0.30039263 1.2251732 1.6317233
-0.67606211 1.2746522 1.6275055
0.29062718 1.2706302 1.6204518
-0.68302077 1.3264033 1.6212355
0.29731268 1.30854 1.6317849
-0.67980343 1.3717211 1.6315113
-0.61891037 -0.46111658 1.6652875
-0.62298495 -0.42512473 1.6772116
-0.62897158 -0.37618774 1.6743408
-0.63086402 -0.32488757 1.6748202
-0.63146579 -0.27455491 1.6752137
-0.63113278 -0.22436039 1.6756215
-0.63233817 -0.1747821 1.6756624
-0.63383108 -0.1245734 1.672959
-0.6327368 -0.074834503 1.6737335
-0.63378716 -0.026809003 1.6731142
-0.63429511 0.022183659 1.6732473
-0.63308167 0.074060313 1.6761328
-0.6344496 0.12406856 1.6736633
-0.63523477 0.17457359 1.6742214
-0.63519704 0.22409998 1.6750921
-0.63653183 0.27624911 1.6751959
-0.6506688 0.31258276 1.6510453
-0.63445944 0.32633305 1.6766942
-0.63637459 0.37516761 1.6755296
-0.6500138 0.44903949 1.6515651
-0.63668275 0.42367414 1.6757721
-0.63520187 0.4762488 1.6780272
-0.63632137 0.52468449 1.6747553
-0.65094912 0.55876899 1.6555983
-0.6361208 0.57501197 1.6761891
-0.63586003 0.62520707 1.6766866
-0.65206254 0.68067384 1.6519549
-0.63470823 0.67425823 1.6769773
-0.65231842 0.73111302 1.6552662
-0.63602144 0.72300023 1.6766905
-0.6514197 0.75989521 1.652337
-0.63569927 0.7740382 1.6769382
-0.65099764 0.83697724 1.65207
-0.63681298 0.82439226 1.6764909
0.31384456 0.8399204 1.6551243
-0.65236211 0.87625605 1.6557723
-0.6362741 0.87504631 1.6784749
0.32394439 0.87714398 1.6760069
-0.65250623 0.91429311 1.6557701
-0.63664478 0.92546695 1.6776966
0.32074922 0.93109357 1.6772752
-0.65145731 0.98100352 1.6545413
-0.63825268 0.97460246 1.6761286
0.3169435 0.97286856 1.6673508
-0.65516841 1.0219781 1.6536127
-0.63873309 1.0220838 1.6780019
0.31735763 1.0292981 1.672253
-0.65429544 1.0804625 1.6551262
-0.63913071 1.0742987 1.6818347
0.31870249 1.0685745 1.6784897
-0.6547097 1.1289492 1.6587847
-0.63970274 1.1233652 1.6824163
0.095461026 1.1455594 1.6952857
0.31217885 1.1238883 1.6704626
-0.65599549 1.1752658 1.6600353
-0.64095134 1.1776201 1.6832898
0.086560316 1.1603876 1.6988074
0.30686468 1.1854218 1.6680903
-0.65536672 1.226948 1.6631094
-0.64102131 1.2270746 1.6889311
0.32053041 1.2366284 1.6763048
-0.6548996 1.2757797 1.6678213
-0.64225501 1.2758906 1.6870623
0.31998879 1.2729274 1.670293
-0.66035259 1.3236297 1.6628522
-0.64366364 1.3231546 1.6898937
0.32625249 1.3213297 1.678269
-0.65856081 1.3718969 1.6624277
-0.64221179 1.3761308 1.6864203
0.33499655 1.3600587 1.688683
-0.66036958 1.4081364 1.6628743
-0.64304674 1.4189595 1.6902586
-0.60618949 -0.45615637 1.712451
-0.60476381 -0.41931391 1.7068893
-0.58902538 -0.41324389 1.724942
-0.607988 -0.37401158 1.7119011
-0.5923121 -0.37801272 1.7366664
-0.60923648 -0.32284522 1.7149663
-0.59467983 -0.32666138 1.7405243
-0.61022937 -0.27444386 1.7165905
-0.59265471 -0.27346006 1.7407341
-0.61037248 -0.22654893 1.7173736
-0.59341067 -0.22900115 1.7413951
-0.61053592 -0.17447247 1.7164962
-0.59609306 -0.17916745 1.7385072
-0.61050069 -0.1236427 1.7150898
-0.59556288 -0.12700711 1.7394451
-0.61129826 -0.072340816 1.7140538
-0.59584183 -0.071515687 1.7393124
-0.60972631 -0.02551984 1.719258
-0.5954423 -0.025779037 1.7416667
-0.61092156 0.024061663 1.7163727
-0.59489244 0.018902147 1.7404515
-0.60928875 0.07046169 1.7195749
-0.59400427 0.075803354 1.7411569
-0.60974532 0.12514649 1.717003
-0.59541702 0.12201318 1.7396843
-0.61037987 0.17575265 1.719336
-0.59548801 0.17766522 1.7434133
-0.61116606 0.22588448 1.7174835
-0.59646618 0.2256887 1.7424786
-0.61244011 0.27425423 1.7181567
-0.5960412 0.27641115 1.7431283
-0.6111002 0.32289493 1.717033
-0.59625268 0.32727 1.7418785
-0.61131048 0.37660125 1.7167933
-0.59490329 0.36978441 1.7418146
-0.61054015 0.42422473 1.7190801
-0.59476238 0.42971104 1.7461681
-0.61183888 0.4735043 1.7178682
-0.59468168 0.47926247 1.7425644
-0.610497 0.52817792 1.7204962
-0.59553903 0.52032584 1.7422442
-0.61146319 0.57418984 1.716687
-0.59524453 0.57537109 1.7402172
-0.61154425 0.62400621 1.7171969
-0.59511495 0.625503 1.7410516
-0.61009616 0.67388523 1.7198964
-0.59441793 0.67375845 1.7431459
-0.61228269 0.72394657 1.7159483
-0.59527433 0.72643256 1.7425643
-0.61061132 0.77514821 1.7163256
-0.59498912 0.76979172 1.7418525
-0.6113686 0.82444942 1.7164167
-0.59449267 0.82513762 1.7429802
0.076459117 0.83368725 1.727306
-0.61179984 0.8742941 1.7199054
-0.59490895 0.87283421 1.7461747
0.073842905 0.86176205 1.7348062
0.34672606 0.88394058 1.7286506
-0.61316139 0.92747092 1.7183974
-0.59696698 0.9260177 1.7445073
-0.02506472 0.94464469 1.74459
0.33776748 0.93863428 1.7092165
-0.61355209 0.97456169 1.7194219
-0.5962413 0.97271705 1.7467295
-0.032686099 0.97399992 1.7414055
-0.61268216 1.0245613 1.7254494
-0.59931082 1.0031785 1.7446674
-0.03401294 1.0256864 1.7398636
0.33890417 1.0379374 1.7334092
-0.61392885 1.0731486 1.7234164
-0.59711957 1.0689071 1.7443869
-0.053778253 1.0623281 1.7486861
-0.035021257 1.0764254 1.7393144
0.34034219 1.0673708 1.7291161
-0.61547446 1.1244079 1.7269933
-0.054391831 1.1217639 1.746119
-0.036117636 1.126959 1.7388532
0.079968914 1.1437594 1.7214915
0.10500314 1.1387454 1.7034581
-0.61753267 1.1748811 1.7235806
-0.056907941 1.1751802 1.7442424
-0.028656531 1.1757294 1.7290528
0.028783487 1.1714008 1.7126621
0.069222555 1.1652396 1.7121786
0.10544629 1.1529326 1.7057676
0.34102792 1.195079 1.7349702
0.35298818 1.1980028 1.7474029
-0.61842859 1.2260568 1.7259705
-0.055337477 1.2038232 1.7442271
-0.022294896 1.2136124 1.7316201
0.01453201 1.2234881 1.7443928
0.33448759 1.2247044 1.721985
0.35279152 1.2168442 1.7356943
-0.61924046 1.2730902 1.7246283
0.0024455639 1.2510452 1.7355955
0.34535712 1.2739991 1.7205445
0.35949627 1.2737536 1.7375411
-0.6212371 1.322892 1.7216021
0.34531853 1.3032676 1.7024472
0.36484483 1.3200531 1.7349653
-0.62032187 1.375182 1.7261953
-0.037290026 1.3733586 1.725966
0.34995574 1.3505845 1.7062408
0.361902 1.3723522 1.7293148
-0.62442994 1.4245687 1.7242651
-0.61506641 1.4577954 1.7436609
-0.57007927 -0.37169838 1.7742442
-0.54963613 -0.38266048 1.7842541
-0.57098395 -0.3251012 1.778509
-0.57326579 -0.27529389 1.7766672
-0.57428437 -0.22387165 1.7757111
-0.5741033 -0.17499381 1.7753189
-0.57605952 -0.12541671 1.773069
-0.57422435 -0.075819448 1.7741315
-0.57539409 -0.02617578 1.7738553
-0.57528889 0.021831121 1.7755066
-0.57538688 0.075012736 1.7747915
-0.5768795 0.12644577 1.7733934
-0.57640684 0.17465296 1.7733884
-0.57787204 0.22425768 1.7718064
-0.57893592 0.2752969 1.7712688
-0.57470828 0.32587218 1.7762808
-0.57593226 0.37509346 1.7745385
-0.575921 0.4234648 1.7763771
-0.57466662 0.47228363 1.7758731
-0.57436466 0.52524722 1.7760168
-0.57596064 0.57512206 1.7727138
-0.57287884 0.62383848 1.7754403
-0.5744046 0.67401612 1.7740817
-0.57534486 0.72320783 1.7724502
-0.57658803 0.7757374 1.7721559
-0.57643342 0.82487488 1.7728605
0.032690834 0.84210348 1.7842274
0.058894046 0.83982694 1.7660086
-0.57771474 0.87571943 1.7754107
0.028646138 0.86324286 1.7790587
0.084328957 0.89328814 1.7601241
-0.57847911 0.92475462 1.7741969
-0.10357907 0.94121474 1.7954324
-0.073585518 0.94208258 1.7794819
-0.03622346 0.94011003 1.7587013
-0.5799768 0.97608024 1.7747277
-0.1057062 0.97294796 1.7946132
-0.07162898 0.97520447 1.7705404
-0.043740679 0.97392648 1.7533687
0.36392492 0.98014128 1.7939665
-0.58216697 1.02631 1.7751888
-0.10613605 1.023396 1.7937781
-0.071394973 1.0252675 1.7681922
0.35831913 1.039068 1.7949356
-0.58171743 1.0749382 1.776595
-0.1132383 1.07531 1.7914095
-0.076858483 1.0780852 1.7709677
0.35621706 1.056834 1.7737727
-0.58532858 1.1242363 1.7729234
-0.11151499 1.1242015 1.7892641
-0.078973517 1.127223 1.7685844
0.085900813 1.133384 1.7797543
-0.60235864 1.1704667 1.7535098
-0.58632886 1.1767557 1.7743152
-0.11092438 1.1718593 1.7895607
-0.079796709 1.1754324 1.7691681
-0.012179623 1.193269 1.7875974
0.01678971 1.1691468 1.7658641
0.080418147 1.1598907 1.7948421
0.35978279 1.1934683 1.7729887
-0.60036963 1.2363782 1.7518857
-0.58673191 1.2260133 1.7776808
-0.11055733 1.2043684 1.7917002
-0.078598998 1.2174673 1.7743746
-0.020230843 1.2183613 1.7659243
0.012329248 1.2115896 1.7951546
0.076310746 1.2409325 1.777796
0.34719437 1.2019055 1.774304
0.37296739 1.2219396 1.7750523
-0.60237932 1.2506062 1.7519022
-0.58588344 1.2736896 1.779126
-0.027057819 1.2509899 1.773784
0.019396564 1.2714398 1.7637111
0.075096838 1.2579498 1.7824911
0.37999132 1.2711298 1.7785645
-0.60274512 1.318897 1.7577636
-0.58586353 1.3268169 1.7829876
0.022666847 1.3087425 1.7957665
0.38180953 1.3136235 1.7658116
-0.60465044 1.3708744 1.7568145
-0.58901596 1.3706596 1.7760458
-0.11009449 1.3832575 1.7942554
-0.062711105 1.3851898 1.7829335
-0.045438737 1.3842983 1.7587769
0.084948741 1.3696097 1.7645855
-0.60657495 1.423836 1.7543926
-0.59105343 1.4255439 1.7791566
-0.11065192 1.4005579 1.7968416
-0.058945455 1.415578 1.778564
-0.028298298 1.4214267 1.7865344
0.084541872 1.4143107 1.7761328
0.39683259 1.4010078 1.7843252
-0.60252798 1.4604971 1.7617306
-0.58800542 1.4711717 1.7835826
-0.53749758 -0.36735135 1.8264867
2.092041 -0.37188137 1.8234773
2.113008 -0.37561104 1.8417884
-0.55374646 -0.32498741 1.8056912
-0.53693503 -0.32421592 1.8330959
2.0848515 -0.33344218 1.8232826
2.1000473 -0.31092009 1.8403021
-0.55420244 -0.27495417 1.8083061
-0.53692955 -0.27386296 1.8325561
2.0780098 -0.29531038 1.8227171
2.1005068 -0.28602663 1.8441219
-0.5534336 -0.22169206 1.8062416
-0.53842592 -0.2256999 1.8327262
-0.55397147 -0.17383039 1.8087482
-0.53924644 -0.17445792 1.8317308
-0.5544486 -0.12461432 1.8091345
-0.53789753 -0.12596938 1.8331894
-0.55468619 -0.073297456 1.8078833
-0.53962755 -0.076129243 1.8316844
-0.55489635 -0.027731538 1.8094038
-0.53896093 -0.02636135 1.831947
-0.55433434 0.022730868 1.8100319
-0.53858232 0.021553706 1.8328351
-0.55416626 0.075759105 1.8098861
-0.5382272 0.077366769 1.8340536
-0.55476457 0.12485796 1.8099905
-0.53804225 0.12616326 1.8334843
-0.55529064 0.1740462 1.8089161
-0.53907132 0.17604527 1.8341861
-0.55638474 0.22356606 1.8088017
-0.53972775 0.22593978 1.8327245
2.1736217 0.20428489 1.8461646
-0.55723715 0.27315614 1.8069102
-0.5411948 0.27477974 1.8312572
-0.55644232 0.3191874 1.805858
-0.53853977 0.32663959 1.8332211
-0.55445433 0.37655029 1.8087304
-0.53930491 0.37437785 1.8313043
-0.55426323 0.42546922 1.8086876
-0.53827983 0.42442864 1.8350604
-0.55530918 0.47825229 1.8071589
-0.53833443 0.47701854 1.8344539
-0.55428648 0.5248124 1.8070498
-0.53870088 0.52636665 1.8318816
-0.55504394 0.58245713 1.8069566
-0.53842694 0.57313246 1.8297507
-0.55344027 0.63138413 1.8085055
-0.53776091 0.62697923 1.8320934
-0.55392396 0.67698765 1.8042961
-0.53749073 0.67464006 1.8320284
-0.55533272 0.73003107 1.8047396
-0.53957129 0.72189111 1.8302482
-0.55531704 0.77042872 1.8048298
-0.53908354 0.7744751 1.8318558
-0.55720723 0.82779199 1.8110416
-0.54022843 0.82043618 1.8333652
-0.020973673 0.84418488 1.8268899
0.013514398 0.84563857 1.8138853
-0.55633181 0.87238312 1.8096434
-0.54011542 0.86995912 1.8340362
-0.054213557 0.87754214 1.8396527
-0.025669824 0.86403137 1.8208086
0.014837087 0.86524296 1.8143431
-0.5565356 0.9219411 1.8140359
-0.54195499 0.92227626 1.8378116
-0.16966482 0.94178122 1.8403493
-0.12908188 0.9433738 1.8201087
0.03529615 0.91796124 1.8209339
-0.55757624 0.97430104 1.8131012
-0.54273582 0.97602326 1.8382413
-0.20047833 0.97618324 1.8491045
-0.17148672 0.97632504 1.8333894
-0.132881 0.97356242 1.8122271
-0.054308619 0.95468241 1.8155226
0.38113004 0.97607714 1.8391204
-0.5592308 1.0276381 1.8135496
-0.54217005 1.022881 1.8358976
-0.17209883 1.0269006 1.8320177
-0.1308361 1.0278643 1.8100954
0.38269609 1.004441 1.8369503
-0.55933625 1.0700748 1.8140125
-0.54516786 1.0807534 1.8379465
-0.17275952 1.0759053 1.8327291
-0.13529798 1.0703204 1.8091078
0.37333664 1.064099 1.8154627
-0.56108874 1.1246459 1.8161662
-0.5446257 1.125102 1.8390263
-0.17390384 1.125748 1.8326768
-0.13598113 1.121351 1.8116972
-0.56320781 1.1724352 1.814171
-0.54680961 1.1808779 1.8373568
-0.17550476 1.1736929 1.8324629
-0.13663043 1.1742647 1.8144238
0.37838072 1.1979315 1.8146598
0.40792537 1.1961744 1.8385221
-0.56154001 1.2264442 1.8171574
-0.54381037 1.2221133 1.8414135
-0.17072722 1.2130049 1.8311731
-0.13172117 1.2229484 1.8172722
-0.017471984 1.2301233 1.8225957
0.012386399 1.2057869 1.8130237
0.3943547 1.2161362 1.8214102
0.41089344 1.2253323 1.8413512
-0.56102568 1.27861 1.8214202
-0.54668409 1.2729281 1.8440695
-0.093537301 1.2644656 1.8309383
0.02679708 1.2832164 1.8154924
0.067215204 1.2834088 1.8188841
0.39488256 1.2686592 1.8050594
0.40292165 1.2681282 1.8341961
-0.56258607 1.3246067 1.8201364
-0.54623801 1.3252156 1.8468888
0.039165605 1.311807 1.8195534
0.072128639 1.3202204 1.817031
0.39133939 1.3099246 1.8037643
0.40733036 1.3287367 1.8277634
-0.56259549 1.3757757 1.8238536
-0.1243318 1.3768648 1.8338367
-0.081676617 1.380041 1.8310118
0.074938715 1.3741844 1.8235259
0.41196507 1.3805757 1.8265088
-0.5665403 1.4246188 1.8206612
-0.54581892 1.4148424 1.8451982
-0.10769588 1.4223669 1.8129365
0.039320476 1.4370042 1.8259313
0.064985953 1.4184245 1.8149219
-0.56541705 1.474326 1.8269711
0.013194082 1.4550407 1.8289347
0.087522745 1.4635642 1.83796
-0.56299281 1.5065676 1.8279724
-0.51454645 -0.35989767 1.8663067
-0.49732867 -0.35683453 1.8874499
-0.51290047 -0.32394028 1.8707041
-0.49802142 -0.33041525 1.8901784
-0.51235861 -0.27744985 1.8721851
-0.49828422 -0.27117237 1.8943301
-0.5156424 -0.22461605 1.8691452
-0.49901876 -0.22274879 1.8951178
-0.51538104 -0.17404963 1.8695211
-0.49861661 -0.17620836 1.8968279
2.2022362 -0.18637016 1.8969927
-0.51493764 -0.12467215 1.8727641
-0.49759683 -0.1202894 1.8958147
-0.51521647 -0.074429676 1.8707879
-0.49800408 -0.083326347 1.8986901
-0.51452184 -0.02737304 1.8715597
-0.49764198 -0.030022889 1.8983111
-0.51566714 0.023494493 1.8722606
-0.49756837 0.023224369 1.8980474
-0.51553822 0.072821416 1.8702161
-0.49824482 0.083501056 1.899502
-0.5151211 0.12372863 1.8710438
-0.498144 0.12427916 1.8975468
-0.51566219 0.17429033 1.8702921
-0.49810967 0.17615965 1.8946527
-0.51517177 0.22438277 1.873076
-0.49951619 0.2184893 1.8970528
2.1882186 0.23121889 1.8559695
-0.51549619 0.27565637 1.8714439
-0.49959448 0.26964673 1.8928868
2.2319696 0.27499223 1.8885127
-0.51304966 0.32259262 1.87491
2.2163327 0.30064437 1.8958619
-0.51360196 0.37397519 1.8725892
-0.49506944 0.38491434 1.8998072
-0.51306945 0.42657655 1.8716267
-0.49567175 0.42611691 1.8961488
-0.51439524 0.47474408 1.8689222
-0.49747548 0.47169241 1.8958948
-0.515086 0.52507114 1.8701298
-0.49960926 0.51633364 1.8963919
-0.5113675 0.57464051 1.8754839
-0.49371317 0.59167325 1.8974873
-0.51413369 0.62365133 1.8725698
-0.49480754 0.60254896 1.8995975
-0.51441067 0.67399597 1.8717211
-0.49778315 0.67035609 1.8958831
-0.51462919 0.72742021 1.8719561
-0.499354 0.70943886 1.8924105
-0.51440042 0.77707052 1.8741642
-0.49455652 0.77007866 1.8980942
-0.51773083 0.82516044 1.8706481
-0.49853522 0.83034492 1.8969278
-0.11756504 0.84449887 1.8847246
-0.075167045 0.84357661 1.8703247
-0.5165723 0.87597901 1.8736277
-0.15262106 0.86278522 1.8990668
-0.12415073 0.8611455 1.8863708
-0.068849809 0.86229748 1.8592614
-0.031065267 0.85601258 1.8761871
-0.51882106 0.92585772 1.8743376
-0.20043385 0.94214237 1.8614144
-0.19048899 0.94072229 1.8593848
-0.51780277 0.977009 1.8773378
-0.20074873 0.97109169 1.8540177
0.39319628 0.98557866 1.8615242
-0.52010441 1.0256296 1.8752302
-0.20242196 1.0198257 1.8534683
0.39328453 1.0242869 1.861269
0.40190807 1.0386522 1.8755724
-0.52255952 1.0725754 1.8713101
-0.20542704 1.0746055 1.8644224
-0.017526032 1.0837446 1.8996955
0.026608452 1.0891249 1.8959097
0.060097177 1.080843 1.8766772
0.39472887 1.0762981 1.8778092
0.40762842 1.0838546 1.8893822
-0.52263343 1.122503 1.8749626
-0.20720811 1.1238644 1.8629136
-0.1962537 1.1133628 1.8568934
-0.5263018 1.1736959 1.8736274
-0.20996286 1.1742811 1.8711368
0.42153907 1.1815848 1.8847209
-0.52395928 1.2249076 1.875927
-0.20885468 1.2175862 1.8767034
-0.19483203 1.2151761 1.8531084
-0.012728877 1.2322314 1.866443
0.39961311 1.2330613 1.8987353
0.42232755 1.2178587 1.8861741
-0.5249995 1.2747334 1.875656
-0.20509528 1.2570298 1.8954798
-0.18175232 1.2727582 1.8894264
-0.11662658 1.2953253 1.8747494
-0.084756777 1.2953268 1.855535
0.42234603 1.2829192 1.8636682
-0.5260601 1.3243504 1.8770587
-0.2091753 1.3456171 1.8990549
-0.10213146 1.3414847 1.8793477
-0.088080354 1.3333517 1.882163
0.43867454 1.319018 1.8934188
-0.53045887 1.3750007 1.8736225
-0.20842944 1.3672166 1.8771551
-0.18559691 1.3662838 1.8761841
-0.12920497 1.363187 1.8715447
-0.086720459 1.3622504 1.8779896
0.069447204 1.3962545 1.8666301
0.42749494 1.3598545 1.8687009
-0.55051392 1.4432942 1.8506221
-0.52832276 1.4252423 1.8748142
-0.20910215 1.4295516 1.8836119
-0.19968851 1.4170431 1.8731047
-0.071343474 1.4065778 1.8666818
0.07765644 1.4261951 1.8894818
-0.5311234 1.4762505 1.8747298
-0.21134201 1.4718673 1.8866967
-0.082802221 1.4700307 1.856462
0.029676978 1.471084 1.8797389
-0.55004364 1.526373 1.8516991
-0.53270239 1.5231243 1.8787532
-0.52508658 1.5506145 1.8893023
-0.47700793 -0.35884562 1.9276036
-0.40507504 -0.35055247 1.9385103
-0.39620548 -0.3510915 1.9427938
-0.47486001 -0.32415512 1.9264007
-0.42111146 -0.31835586 1.9440259
-0.39641973 -0.31962237 1.9474205
-0.47383609 -0.27408829 1.9266727
-0.42443496 -0.27386174 1.9436713
-0.47517797 -0.22715326 1.9290193
-0.41350758 -0.22994363 1.9439298
2.17717 -0.20590672 1.9214556
-0.47815645 -0.17559274 1.9288679
-0.40735164 -0.17421103 1.9416662
2.1743627 -0.1933088 1.9321396
