ply
format ascii 1.0
comment PCL generated
element vertex 1525
property float x
property float y
property float z
element camera 0
property float view_px
property float view_py
property float view_pz
property float x_axisx
property float x_axisy
property float x_axisz
property float y_axisx
property float y_axisy
property float y_axisz
property float z_axisx
property float z_axisy
property float z_axisz
property float focal
property float scalex
property float scaley
property float centerx
property float centery
property int viewportx
property int viewporty
property float k1
property float k2
end_header
0.62054151 0.46129301 1.6379762
0.67383558 0.4677681 1.6483971
0.70635229 0.48246536 1.6432781
1.2886782 0.46836165 1.6485585
1.3173447 0.46681777 1.648645
1.3660578 0.47659105 1.6443928
1.7357659 0.47349575 1.6479228
1.7759857 0.4771831 1.6487721
1.826615 0.47008258 1.6464759
1.8755364 0.47363445 1.64624
1.9254065 0.47811046 1.6451472
1.9703058 0.46864733 1.6446171
2.0300992 0.47722879 1.6438607
2.0787549 0.47358051 1.641135
-0.33474144 0.50944364 1.6482643
0.71188843 0.51970601 1.6367406
1.2752984 0.52310431 1.6466832
1.3054012 0.50611138 1.6490849
1.3619065 0.51836407 1.6313934
1.7745903 0.51549011 1.6474565
1.8237184 0.52284288 1.6455613
1.8753554 0.52759635 1.6455592
1.926254 0.52118343 1.6452712
1.9622724 0.53082949 1.6412081
2.0266049 0.52432477 1.6445782
2.0735459 0.52435958 1.641395
2.1089032 0.52490461 1.6450729
0.1326506 0.58772236 1.6381303
0.54341453 0.59639269 1.6429119
0.57917565 0.58736247 1.6447599
0.62330222 0.5878225 1.6426203
0.67648304 0.5828076 1.6391662
0.70874041 0.5692203 1.635524
1.231091 0.56950134 1.6257391
1.2730449 0.58161229 1.6425347
1.3240492 0.58121461 1.6294031
1.3633561 0.57968128 1.6400687
1.7685355 0.57174158 1.6471432
1.8266284 0.58053386 1.647597
1.8736095 0.57209522 1.6437819
1.9312156 0.56928223 1.6449051
1.980258 0.57953715 1.6440719
2.034152 0.57574636 1.6440787
2.0800598 0.57501256 1.6450783
2.1151834 0.57903963 1.6408173
-0.3291274 0.60877335 1.6400739
0.13403319 0.61858064 1.6489559
0.54316276 0.63011074 1.6464454
0.57352328 0.62476599 1.6439325
0.62650138 0.62589759 1.6431497
0.67649585 0.62471068 1.6370127
0.70372313 0.62313211 1.6291137
1.2315915 0.62751931 1.6205406
1.2775776 0.62138706 1.6304089
1.3275307 0.62628549 1.6335369
1.3543177 0.62157559 1.6240568
1.6824403 0.63530666 1.6324459
1.7216222 0.63405412 1.6366043
1.7770855 0.63625658 1.6317872
1.8284328 0.63582772 1.6297265
1.8727728 0.63768876 1.6291758
1.9273067 0.63560432 1.6310087
1.9769498 0.6235804 1.6297994
2.0241482 0.6279515 1.6178329
2.0723917 0.61908931 1.6241496
2.1082783 0.61886454 1.6250278
0.54018855 0.67508376 1.6437461
0.57602006 0.67798215 1.6424335
0.62417501 0.67401373 1.6419793
0.67678028 0.67753369 1.6351961
0.70200235 0.66115671 1.6228888
1.2299174 0.67535245 1.620252
1.2802584 0.67691731 1.6287932
1.3280805 0.67655158 1.6281509
1.357805 0.6664964 1.6185794
1.6733149 0.67300403 1.6317283
1.7237867 0.67513716 1.6273243
1.7696481 0.67503875 1.6251913
1.8234633 0.67355198 1.6227306
1.8740795 0.67587 1.6191376
1.9270673 0.67731857 1.624446
1.9753944 0.673675 1.6140739
2.0299807 0.67513806 1.6105837
2.0744352 0.68200254 1.6041267
2.1132309 0.68286324 1.6049078
0.54213893 0.72772515 1.6427538
0.57392675 0.72593433 1.641211
0.62470549 0.72377515 1.639576
0.67749608 0.72482741 1.6325636
0.70071948 0.71621531 1.6276455
1.2316796 0.72677833 1.6159085
1.2734376 0.71422374 1.6191324
1.6420854 0.73591733 1.629755
1.6722565 0.72422284 1.628624
1.7257361 0.72472113 1.6256936
1.7744217 0.72266948 1.6220837
1.8271469 0.72660655 1.6239277
1.8746865 0.7254467 1.620429
1.9253349 0.7232303 1.6210213
1.9733865 0.7241708 1.6147248
2.0256479 0.7250976 1.6121111
2.0753658 0.72181642 1.611264
2.1157048 0.72356784 1.6072432
-0.3381893 0.78720868 1.6362247
0.54032415 0.77272362 1.6414775
0.57564706 0.77707213 1.6399328
0.62396878 0.77398622 1.6383277
0.67472291 0.77411944 1.6324234
1.6340328 0.77935082 1.6257379
1.6775985 0.77674121 1.6228086
1.7265457 0.77082729 1.6218604
1.7795521 0.77392387 1.6189325
1.8262391 0.77933544 1.6194177
1.8714509 0.77105814 1.6217896
1.9250809 0.77717108 1.6256951
1.9784694 0.77506655 1.6199069
2.0242646 0.77042377 1.6104727
2.0762753 0.77662456 1.6167127
2.1180046 0.77800477 1.6093781
2.1517849 0.76906896 1.610525
0.12874214 0.83155358 1.6262436
0.53642589 0.82314903 1.6402038
0.57525241 0.82514161 1.6385999
0.62595862 0.82464689 1.6370114
0.674649 0.82652336 1.6305239
1.5782115 0.83008349 1.6111779
1.6252601 0.82575667 1.6204855
1.6699185 0.82427198 1.620997
1.7221709 0.82599443 1.6195484
1.7804649 0.82225925 1.6180229
1.8215863 0.83397758 1.6162914
1.875013 0.82324767 1.6208283
1.9258744 0.82674062 1.618433
1.9757495 0.82212991 1.615106
2.0252483 0.81516361 1.6128982
2.0716922 0.8193295 1.6155005
2.1159098 0.82723635 1.6083703
0.12773217 0.87336159 1.6381482
0.53761131 0.87720448 1.6418794
0.57439357 0.87710762 1.6381214
0.62774545 0.87568694 1.6376652
0.67184418 0.87298012 1.6289139
1.4409875 0.87634349 1.6168948
1.4759266 0.87428379 1.6208042
1.5306423 0.88581312 1.6234937
1.5766474 0.87488419 1.6199203
1.6239799 0.87433738 1.6196667
1.6742756 0.87768537 1.6175772
1.7271984 0.87393063 1.6197424
1.7781819 0.87747413 1.617849
1.8233637 0.8723188 1.6153208
1.8768742 0.88151956 1.6191065
1.9208775 0.8751471 1.6162279
1.972495 0.87236059 1.6089845
2.0318756 0.87674302 1.6050371
2.0772684 0.86919481 1.6091696
2.1056874 0.86350775 1.6024649
0.12336311 0.92199981 1.6409633
0.53803152 0.92452222 1.6427608
0.57622474 0.92450732 1.6375049
0.62218177 0.92503607 1.637241
0.67375523 0.92467165 1.6318644
0.70340931 0.94729614 1.6274387
1.4732264 0.92647517 1.6272722
1.527824 0.92731196 1.6261605
1.576775 0.92638677 1.6218349
1.6252264 0.92219079 1.6203218
1.6748229 0.92607003 1.6154023
1.7227349 0.92581326 1.6150527
1.7694806 0.9281823 1.6181378
1.8249205 0.92118478 1.6164646
1.8776922 0.92868692 1.6156789
1.9247302 0.92314947 1.6139468
1.9688507 0.92384827 1.6110518
2.0227258 0.92807657 1.6063426
2.0780489 0.91710931 1.6008183
-0.34259558 0.9640063 1.6440203
0.53723973 0.97396785 1.6402761
0.57369024 0.97375482 1.6381755
0.62555861 0.97443682 1.6372061
0.67502582 0.9751066 1.6357508
0.71700788 0.9809258 1.6289645
1.47305 0.97622794 1.6253926
1.5257993 0.97560716 1.6245804
1.5716115 0.97682595 1.619738
1.6245928 0.97394347 1.6204897
1.6784531 0.97857213 1.6174573
1.7240745 0.9784652 1.6172597
1.7747598 0.97644651 1.6182224
1.8312838 0.97621822 1.6192008
1.8791118 0.98067158 1.6181846
1.9289267 0.97261703 1.6137515
1.9654244 0.97574466 1.6051825
2.015434 0.97249919 1.6038785
2.0556877 0.96689194 1.6042376
0.11692028 1.0236813 1.6358398
0.5356127 1.024308 1.6391474
0.5769093 1.026065 1.6393169
0.62561077 1.0247457 1.6391857
0.67488366 1.024865 1.6392915
0.72393918 1.0246099 1.6353717
0.77053744 1.0289102 1.6308249
0.80237353 1.0404463 1.6238589
1.3320414 1.039417 1.6026691
1.4462383 1.0274135 1.6176392
1.4786758 1.0234475 1.6262504
1.5228688 1.0240612 1.6240482
1.5763302 1.0243151 1.6196904
1.6269361 1.0239006 1.6181127
1.677295 1.0279237 1.617112
1.7271974 1.0255235 1.6172365
1.7743515 1.0265118 1.6163089
1.8250842 1.025058 1.6179763
1.8694504 1.0254097 1.6120067
1.9264188 1.023005 1.6108398
1.984195 1.0320455 1.6087059
2.0209229 1.019756 1.6040276
0.1180415 1.0512906 1.6429816
0.53688604 1.0728779 1.640389
0.57469958 1.0769358 1.6394254
0.62582856 1.0751597 1.6403027
0.67749143 1.074039 1.6428599
0.72571754 1.075716 1.6410636
0.77585608 1.0753772 1.6410586
0.80555111 1.0753695 1.6361756
1.2422185 1.076472 1.6016177
1.2796549 1.0770324 1.616892
1.3279642 1.0806493 1.6292925
1.3712379 1.0836798 1.6221246
1.444801 1.0663456 1.6181796
1.4792918 1.0727415 1.626192
1.5273669 1.0723828 1.6221482
1.5774276 1.0733942 1.6194236
1.6204952 1.0721104 1.6151106
1.6702437 1.0711384 1.617561
1.7230574 1.0770732 1.618223
1.7765102 1.0782853 1.6201936
1.826331 1.0760243 1.617015
1.8732663 1.0724578 1.6159958
1.9222007 1.0768118 1.6145408
1.9756244 1.0765837 1.612298
2.0138853 1.0745499 1.6067373
0.53582042 1.1180794 1.6414677
0.57431167 1.1290374 1.6404305
0.62288409 1.1223844 1.6427337
0.67698616 1.1232547 1.6426157
0.72684598 1.1250339 1.6444483
0.7754969 1.1251155 1.6427722
0.82122344 1.1241893 1.6376629
1.2371335 1.14112 1.6314054
1.2797741 1.1223829 1.6332362
1.3267225 1.1258733 1.6341842
1.3680253 1.1229541 1.6250069
1.4721317 1.124634 1.6234677
1.5258973 1.1254716 1.6266167
1.5698222 1.124107 1.6204451
1.6259998 1.1244506 1.6191692
1.6764418 1.1207294 1.6167721
1.723986 1.1255374 1.6134156
1.7723616 1.1229765 1.6188002
1.8237237 1.1244407 1.6156753
1.8765115 1.1301311 1.6131002
1.9255564 1.12016 1.6108639
1.9733709 1.1222899 1.6075832
2.0071445 1.108247 1.6073365
0.53812009 1.1728746 1.6443157
0.57252252 1.1779318 1.6442709
0.62510347 1.1762602 1.6444861
0.67543191 1.1765434 1.6445128
0.72735161 1.1744514 1.6432452
0.77842373 1.1766351 1.6457338
0.82308549 1.1719524 1.6466464
0.86835301 1.1788849 1.632916
0.91195995 1.1967556 1.6143835
1.187197 1.1697993 1.6247612
1.2229478 1.1755176 1.6367333
1.271596 1.1740605 1.639696
1.322392 1.1752242 1.635149
1.3755897 1.1761706 1.6227379
1.4788712 1.1804947 1.6255618
1.5252471 1.1757267 1.6234719
1.5743222 1.1730294 1.6203051
1.6264516 1.1756067 1.6235732
1.6701863 1.1724267 1.619599
1.7265568 1.1709793 1.618611
1.7744036 1.1789685 1.6152897
1.8209453 1.1741509 1.615634
1.8706549 1.1763546 1.6117867
1.9272493 1.1759324 1.6131346
1.964805 1.1763034 1.6112297
-0.35135183 1.2010911 1.6363561
0.10478748 1.2483007 1.6368505
0.53675807 1.2204965 1.6452868
0.57533854 1.2247896 1.6461204
0.62682748 1.2254387 1.6461952
0.66702503 1.2230182 1.6449741
0.71542925 1.2177119 1.6430961
0.78450924 1.226649 1.6469593
0.8349421 1.2095538 1.6483558
0.87336427 1.2232285 1.6477059
0.92693216 1.2269665 1.6385185
0.9779008 1.2281935 1.6324068
1.0279927 1.230966 1.6347705
1.0599666 1.2386186 1.6344106
1.1904241 1.209594 1.6334641
1.2247686 1.225574 1.6404501
1.2779839 1.2243522 1.6386127
1.3254713 1.2213585 1.6332387
1.3754746 1.2231326 1.6277986
1.404175 1.2368914 1.6295551
1.482046 1.2251962 1.6270883
1.5235281 1.2271889 1.6232227
1.5767014 1.2254473 1.6243461
1.6245621 1.2245345 1.6226108
1.673755 1.225324 1.6188302
1.7267876 1.2185414 1.6238062
1.7793412 1.2307898 1.6217917
1.8240774 1.2247276 1.6169358
1.8773907 1.227416 1.6171438
1.9220408 1.224911 1.6117309
0.53963369 1.2733538 1.6480308
0.5690335 1.2731119 1.6476368
0.62178725 1.2738763 1.6458814
0.67106718 1.2760954 1.6476064
0.73191565 1.2729465 1.6469761
0.7728076 1.2832619 1.6467533
0.83715159 1.2738206 1.6382592
0.87832671 1.2872478 1.6448215
0.92459083 1.2690899 1.6477475
0.97222203 1.2712786 1.6467384
1.0261573 1.2706426 1.6453214
1.0741973 1.2762325 1.6422058
1.1212497 1.2935438 1.6323016
1.1971844 1.2757429 1.6464839
1.2249719 1.2759517 1.6415086
1.2734571 1.2736233 1.6380749
1.3241359 1.2776762 1.6350363
1.3754172 1.270542 1.6321845
1.4238865 1.2758498 1.6288035
1.4797665 1.2749223 1.626507
1.5260195 1.2750002 1.6275144
1.5760634 1.2750354 1.625326
1.6266574 1.2727258 1.6247578
1.6741633 1.2759775 1.6190403
1.7258022 1.2719516 1.616977
1.7748972 1.2737823 1.6179349
1.8333045 1.273242 1.6193249
1.8780224 1.2761334 1.6161013
1.9057069 1.2598963 1.6088481
0.53704244 1.3223088 1.6468334
0.58674872 1.3114431 1.64779
0.63893652 1.3249843 1.6482151
0.68344104 1.3424054 1.6491221
0.72587979 1.3251045 1.6470764
0.79226053 1.3269387 1.6496661
0.82126665 1.3207936 1.6428208
0.86380363 1.3064897 1.6435537
0.91591471 1.3073875 1.6475435
0.97835225 1.312079 1.6477159
1.0212843 1.3267623 1.6473334
1.0753154 1.3235699 1.647078
1.1251175 1.3272454 1.644941
1.1785625 1.331504 1.6456919
1.2220197 1.3218148 1.6410991
1.2720234 1.3239104 1.6377418
1.320531 1.3261551 1.6316147
1.3780164 1.3275114 1.6335361
1.4309212 1.3275261 1.6330945
1.4716423 1.3251904 1.6316165
1.5249286 1.3285453 1.6300458
1.5748051 1.326206 1.6275216
1.6292005 1.3234841 1.6238366
1.6758478 1.3259318 1.6203823
1.7274048 1.3250932 1.6235627
1.7776661 1.3279848 1.622673
1.8271983 1.3296329 1.6199429
1.8662657 1.3182521 1.6113858
0.54650909 1.3556541 1.649091
0.59107733 1.3722515 1.64791
0.61587816 1.3706846 1.6482182
0.67323726 1.3774451 1.6483705
0.72380894 1.375167 1.6465427
0.77787888 1.3696811 1.6473957
0.81502992 1.3788028 1.6493434
0.88566399 1.3789507 1.6481882
0.91048843 1.3834181 1.6469557
0.97813398 1.3858862 1.6476765
1.0244814 1.3708335 1.6459541
1.0788926 1.3769232 1.6451057
1.1236362 1.3777581 1.6459996
1.1706179 1.3735 1.6448998
1.2194211 1.3751005 1.6387756
1.2771144 1.3740751 1.6392009
1.3280472 1.3766302 1.6349676
1.3773094 1.3739784 1.6327692
1.4269099 1.3696195 1.6296545
1.4763107 1.3760926 1.6290983
1.5289676 1.3752123 1.6272339
1.5785104 1.3738608 1.6225859
1.6218507 1.3704393 1.6242718
1.6767265 1.3729242 1.6242632
1.7183454 1.3727896 1.6199133
1.776822 1.373069 1.6205156
1.8187475 1.3772297 1.6137599
1.859146 1.3628232 1.6193061
0.73329341 1.4058836 1.6440122
0.79474133 1.4127957 1.6469742
0.82277858 1.4126531 1.6497139
0.93506747 1.431229 1.6471825
0.97203958 1.404488 1.6480905
1.0217764 1.4251624 1.6465973
1.073369 1.4277222 1.6462482
1.1231669 1.428198 1.6462042
1.1748224 1.4261457 1.6429038
1.2270188 1.4259216 1.6375595
1.2766196 1.4202868 1.6387963
1.3250349 1.4262738 1.638109
1.3781719 1.4264446 1.6370705
1.4219292 1.4227755 1.6348016
1.4692105 1.4212795 1.6287763
1.5240451 1.4273294 1.6291941
1.5727257 1.4221709 1.6283175
1.6237981 1.4231335 1.6294656
1.6733609 1.4233468 1.624184
1.7301196 1.4212947 1.6212647
1.7789394 1.4244478 1.6203595
1.8148217 1.4177194 1.6191674
0.87391496 1.4528157 1.6492915
0.93376619 1.4734108 1.6474136
0.96597356 1.4685274 1.6443245
1.0223101 1.4706905 1.6440058
1.0730113 1.4733374 1.6447657
1.1261681 1.4755651 1.642819
1.1781207 1.4779587 1.6404121
1.2253492 1.4802753 1.6408406
1.2748723 1.474876 1.6416184
1.3255006 1.4720541 1.6359755
1.3692385 1.4693304 1.6379445
1.4255331 1.4729282 1.6352437
1.4765561 1.4783084 1.6366711
1.5227097 1.4764285 1.6312673
1.5746503 1.4749472 1.6276913
1.6209055 1.4748323 1.6290787
1.676544 1.4723146 1.6266413
1.7260252 1.477228 1.6228611
1.7681707 1.4701114 1.620397
1.0330638 1.5098702 1.6466656
1.0793914 1.5148369 1.6447846
1.1203232 1.5268388 1.6421964
1.1694487 1.5245759 1.6406856
1.2257619 1.5243723 1.6390264
1.2771752 1.5271986 1.6383504
1.3234792 1.5241785 1.6378093
1.3768674 1.5226878 1.6400106
1.4234985 1.5259705 1.6408583
1.472399 1.5247511 1.6349902
1.5286075 1.5270749 1.6336527
1.5817631 1.5247511 1.6303486
1.6246581 1.525915 1.6277013
1.6750472 1.5262233 1.6287757
1.7136825 1.52108 1.6205858
1.1814377 1.5631109 1.6440202
1.2207302 1.5678152 1.6401701
1.2730536 1.5745249 1.6375247
1.3319373 1.5800265 1.6388587
1.373448 1.5715271 1.6383175
1.4252456 1.5734428 1.6394703
1.4742509 1.5787537 1.6372721
1.5246279 1.5730476 1.6342036
1.573928 1.5724593 1.6304772
1.6267461 1.5744735 1.6280849
1.676405 1.5714178 1.6255038
1.2867599 1.6119326 1.6389869
1.3327986 1.6183825 1.6355884
1.375819 1.6200843 1.6314321
1.4281312 1.618153 1.6392089
1.4787612 1.6301147 1.6384366
1.5260859 1.6219699 1.6324536
1.573027 1.6268134 1.6261734
1.6228983 1.6214848 1.6267049
1.659081 1.6081049 1.6230359
1.4227865 1.6574808 1.6371613
1.4749616 1.6730876 1.6345404
1.5258498 1.665639 1.6349579
1.5720448 1.6737565 1.6261562
1.6086664 1.656878 1.6221218
1.5294772 1.7079705 1.6420174
1.5671473 1.7156456 1.6374292
-1.468462 -0.53023106 1.6822886
-1.430007 -0.53063661 1.6779687
-1.5187266 -0.4547312 1.6840609
-1.49007 -0.48321193 1.683567
-1.5319 -0.44217211 1.6618577
1.0337949 -0.084913477 1.6691498
1.4055665 -0.067715637 1.650274
1.4867291 -0.069170013 1.6503258
1.5720992 -0.076907769 1.6515328
1.6892817 -0.051953692 1.6509691
1.1447785 -0.045387212 1.6561354
1.1568022 -0.045494288 1.6553097
1.3306521 -0.047345221 1.6516812
1.6263944 -0.040956106 1.6666365
1.6721393 -0.041404277 1.6637989
1.7166685 -0.041804392 1.6579217
1.7740291 -0.042354558 1.6521826
1.8899509 -0.043679137 1.6546401
2.0076022 -0.010370111 1.6501594
1.7961651 0.017176969 1.6528444
1.9857327 0.0011172902 1.6531565
1.7965866 0.076979637 1.6516508
1.6496873 0.27349707 1.651171
1.6776837 0.28976896 1.6542627
1.7249107 0.28516686 1.6545439
1.7677597 0.28658077 1.6515733
1.8292229 0.27849925 1.6731772
1.8577168 0.27948952 1.6574783
1.9248832 0.29020619 1.6528991
1.9755121 0.2886886 1.6546464
2.0236926 0.28443003 1.6641154
2.0627356 0.28374726 1.653631
1.3267643 0.3285473 1.6522287
1.3514354 0.33044896 1.6505005
1.5917189 0.31394938 1.6593456
1.6241649 0.32798311 1.656971
1.6807125 0.32468605 1.6545061
1.7254827 0.32318842 1.6522359
1.7611523 0.32652488 1.6524792
1.8132664 0.32911068 1.6521018
1.8961664 0.32786417 1.6530735
1.9088824 0.33474517 1.6526711
1.9982418 0.34920663 1.6536638
2.0364282 0.33689776 1.6522766
1.3231181 0.37942466 1.652689
1.3602663 0.39123502 1.6505154
1.6274098 0.37409168 1.660615
1.6701999 0.37430295 1.6547307
1.7251447 0.3716262 1.6538826
1.7589189 0.38913843 1.6521951
1.8231497 0.37169406 1.6514113
1.871335 0.37695694 1.653172
1.9263579 0.36532554 1.6520013
1.9760464 0.37040424 1.6521236
2.0092871 0.36210167 1.6535983
2.0854216 0.39401463 1.6540822
-1.2753701 0.41986671 1.6960384
-1.2259407 0.43494982 1.6969833
-1.1842729 0.43074456 1.6795855
-1.1243196 0.43442586 1.6796921
-1.0722514 0.43792087 1.6867095
-1.0224384 0.43471825 1.681517
-0.97342497 0.43780813 1.681589
-0.92280781 0.43779391 1.6809058
-0.8786639 0.43847814 1.6785548
-0.82912934 0.43744856 1.6776127
-0.77727562 0.44245964 1.6795801
-0.72990167 0.43992588 1.6754826
-0.67122394 0.44238991 1.6755384
-0.6248588 0.44232595 1.6734505
-0.57882607 0.4437834 1.6668291
-0.42175788 0.44888115 1.6676306
-0.38166878 0.44572517 1.6620717
1.2972445 0.44495127 1.6527376
1.3254129 0.42554936 1.6526109
1.3544971 0.43158898 1.6539026
1.6407114 0.42488271 1.6641001
1.6743432 0.42259273 1.6544108
1.7243648 0.42613596 1.6534762
1.7637433 0.41590998 1.6529512
1.8248743 0.42319211 1.6528167
1.917805 0.43424064 1.6516675
2.0346847 0.41230398 1.6512343
-1.2624452 0.47641692 1.6983923
-1.2262006 0.47814149 1.697268
-1.1794252 0.47756115 1.6793969
-1.1276526 0.47314778 1.6873157
-1.0763589 0.47664657 1.6880001
-1.0262403 0.4747918 1.6867063
-0.97507387 0.47525832 1.6853586
-0.92544198 0.47414762 1.6852955
-0.87563825 0.47502011 1.6842729
-0.82304287 0.47497854 1.6840991
-0.77337056 0.47633627 1.6829451
-0.72364247 0.47380009 1.6816499
-0.67490786 0.47338098 1.6802876
-0.62333757 0.47488007 1.6788073
-0.57543123 0.47657397 1.6774608
-0.52340448 0.47895035 1.674194
-0.4744519 0.47924009 1.6727962
-0.42517501 0.47594488 1.6724502
-0.38356805 0.47328076 1.6701815
0.1451437 0.48241502 1.6636479
0.17819916 0.47928226 1.6656233
0.22808985 0.48083845 1.666957
0.27825779 0.48233637 1.6670488
0.32711527 0.48347062 1.6678052
0.37303856 0.48500946 1.6666232
0.42427248 0.4828186 1.6665475
0.47516572 0.48152316 1.6648766
0.52511418 0.48343059 1.6637475
0.57346547 0.48398489 1.6632353
0.62726033 0.48387405 1.6601979
0.67667788 0.48851907 1.6560572
1.2763584 0.47650322 1.6517601
1.3286088 0.47860387 1.6534532
1.3582042 0.46226183 1.6516973
1.6460506 0.4774147 1.667697
1.6742849 0.47556582 1.6582497
1.7200859 0.47356632 1.6528888
1.7808855 0.47471762 1.6528594
1.8174325 0.47971186 1.6535711
1.8643681 0.48617026 1.6542189
1.9063404 0.47981769 1.6520073
1.9507926 0.473726 1.6508099
2.0034513 0.48674703 1.651108
-1.2760807 0.50203472 1.6985418
-1.2238128 0.52116412 1.6962162
-1.1738701 0.527255 1.6938332
-1.1257715 0.52393973 1.6923555
-1.0724446 0.52664083 1.6885473
-1.0242442 0.52354336 1.6876844
-0.97366637 0.52584994 1.6864628
-0.92416173 0.52523005 1.685161
-0.87476069 0.52346826 1.6853155
-0.82751608 0.52521056 1.6827518
-0.77482057 0.52380461 1.6825774
-0.72689784 0.52460307 1.6820818
-0.67529571 0.52400213 1.6806349
-0.62641805 0.52600235 1.6792006
-0.57270044 0.52446407 1.6779526
-0.5260551 0.52424502 1.6759149
-0.47577465 0.5245508 1.6748493
-0.42339072 0.52635145 1.6742511
-0.37679282 0.52317315 1.6718076
-0.34337899 0.52940565 1.6642934
0.14397414 0.52192128 1.6629009
0.1744649 0.5235697 1.6677363
0.22318856 0.52542132 1.6689242
0.2722871 0.52742636 1.6695964
0.32169583 0.52495152 1.6691971
0.37443778 0.52543598 1.6688166
0.42573538 0.52437729 1.6686463
0.47591442 0.52500629 1.6678393
0.52529699 0.52610338 1.666333
0.5751906 0.52292114 1.6645811
0.62371027 0.52643996 1.6628411
0.67558926 0.5237323 1.6576717
0.70697194 0.53003895 1.6530716
1.282655 0.5280993 1.6513293
1.3288521 0.5248788 1.6532201
1.3600287 0.53289604 1.6517975
1.6732143 0.52001029 1.6596009
1.7281199 0.52905226 1.6534686
1.7805357 0.53944397 1.6509508
1.8302094 0.52793241 1.6533893
1.880715 0.54737425 1.6534934
1.9885139 0.50930125 1.6541356
2.0122621 0.53083903 1.6532716
-1.218345 0.56970775 1.6974411
-1.1735436 0.57710135 1.6974093
-1.1240311 0.57475501 1.6937968
-1.0728594 0.57619393 1.6905617
-1.0241114 0.57420135 1.6876063
-0.97504348 0.57370329 1.6865301
-0.92358476 0.57750958 1.6850094
-0.87385249 0.57335424 1.6841028
-0.82389957 0.57518452 1.6836439
-0.77357292 0.57524371 1.682932
-0.7235232 0.57491904 1.6819125
-0.67569357 0.5746085 1.6802175
-0.62266666 0.57419616 1.6789182
-0.57660824 0.57607621 1.6778579
-0.52451926 0.57392859 1.6768371
-0.4744997 0.57468754 1.6754235
-0.42598823 0.57486433 1.6738806
-0.37267622 0.57639903 1.6718382
-0.3436408 0.5720349 1.6680518
0.14275926 0.57517499 1.6652697
0.17162682 0.5762068 1.6682615
0.22249551 0.57392269 1.6687697
0.27333066 0.57589561 1.6693883
0.32492903 0.573982 1.6687502
0.37605041 0.57570058 1.6683508
0.4258801 0.57292008 1.6684264
0.47501269 0.57680649 1.6678538
0.52421039 0.57320815 1.6624513
0.57094222 0.56604981 1.6590877
0.62589824 0.56465608 1.6577212
0.67333812 0.55987424 1.6549501
0.70543814 0.55644947 1.6522042
1.2836194 0.56557506 1.6523011
1.3273112 0.5715639 1.6532533
1.3548262 0.5712567 1.65309
1.6870431 0.56655169 1.6594791
1.7205052 0.57550704 1.6545061
1.7752224 0.57549733 1.6535244
1.8259482 0.5712353 1.6529205
1.9375204 0.59199804 1.6505767
1.9988513 0.55306679 1.6519165
2.0254655 0.5571894 1.6525553
-1.214285 0.62775171 1.6982211
-1.1760998 0.62342936 1.6979351
-1.1237071 0.6254248 1.6951602
-1.0747049 0.62603247 1.6916865
-1.0242732 0.62570113 1.6887652
-0.97502661 0.62401164 1.6871942
-0.9244681 0.6247068 1.6859558
-0.87542623 0.62783635 1.6854678
-0.82615852 0.62157863 1.6823083
-0.77698755 0.62542051 1.6832956
-0.72492039 0.62398428 1.6809064
-0.67581868 0.62540603 1.680057
-0.6251002 0.6262517 1.6785961
-0.57381076 0.62435192 1.677404
-0.52382559 0.62355977 1.6767026
-0.47484365 0.62646514 1.6747047
-0.42453608 0.62357849 1.6736842
-0.37610921 0.62577152 1.6721052
-0.33985457 0.62936056 1.6637014
0.14132091 0.63068646 1.6634463
0.17396365 0.62552065 1.6672624
0.22399412 0.62385136 1.668539
0.27520734 0.62608063 1.6692865
0.32663098 0.62381005 1.669245
0.37540007 0.62559456 1.668937
0.42310941 0.62462711 1.6679161
0.47577637 0.6230883 1.6678296
0.52124614 0.62378842 1.66134
1.7310011 0.60827571 1.6688391
1.7722595 0.60747367 1.6580973
1.8266048 0.61899251 1.6590379
1.8632812 0.60415751 1.6526015
1.9236417 0.61179489 1.6609718
1.9641216 0.62764359 1.6536417
-1.209358 0.67670667 1.6985204
-1.1668853 0.67617303 1.69726
-1.1234742 0.67299408 1.695272
-1.0734894 0.67699629 1.6918664
-1.026058 0.67287767 1.6897184
-0.97455376 0.67294699 1.6879135
-0.92418104 0.67666692 1.6863534
-0.87453163 0.6744352 1.6846039
-0.82433683 0.67247152 1.68304
-0.77296239 0.67641807 1.681481
-0.72394401 0.67543602 1.6809111
-0.67409581 0.6734736 1.6803231
-0.62411392 0.67574114 1.6787475
-0.5737325 0.67391068 1.6779788
-0.52636898 0.6776371 1.6763386
-0.47394314 0.67340529 1.6739171
-0.42543301 0.67763799 1.6743267
-0.37521893 0.6733467 1.6721281
-0.34228775 0.67745686 1.6673431
0.1408869 0.67715651 1.6636297
0.17384255 0.6736483 1.6673696
0.22563668 0.67478943 1.6681654
0.27709839 0.67694485 1.6681221
0.32539105 0.67399174 1.6683233
0.37223512 0.67517364 1.668329
0.42625791 0.67504549 1.6674576
0.47541425 0.67373717 1.6664984
0.51720405 0.67544866 1.660966
-1.21665 0.72698724 1.6982757
-1.1791111 0.72784477 1.6988171
-1.1231847 0.72587776 1.6967282
-1.0735956 0.72567976 1.6933625
-1.024003 0.72466898 1.6919854
-0.97354019 0.72368526 1.6891596
-0.92397803 0.72724622 1.6866355
-0.87473142 0.72369093 1.6845698
-0.82379133 0.72447425 1.6831203
-0.77497125 0.7262224 1.682779
-0.72483343 0.72511357 1.6809379
-0.67536885 0.72248191 1.6795801
-0.62750852 0.72752643 1.6784648
-0.57764202 0.72468787 1.6777251
-0.52535504 0.72516638 1.6760968
-0.47492409 0.72525603 1.6750003
-0.42528641 0.72623563 1.6743873
-0.37425941 0.72340685 1.6721239
-0.34197491 0.72260088 1.664631
0.14153962 0.72668469 1.6627277
0.17571242 0.72403693 1.6652908
0.22720607 0.72198009 1.6673015
0.27567613 0.72340584 1.6672132
0.32336393 0.72710991 1.6665239
0.3758969 0.72602499 1.6673598
0.42509177 0.72279668 1.6663519
0.47467136 0.72785383 1.6654575
0.52004379 0.72734773 1.6592599
-1.2643151 0.78092289 1.6989728
-1.2089468 0.75826675 1.6965601
-1.1714827 0.77760792 1.6975318
-1.1201096 0.77517855 1.6965771
-1.0717394 0.77629149 1.6953413
-1.0238386 0.77634645 1.6931783
-0.97330153 0.77401465 1.6911545
-0.92532849 0.7752701 1.6887296
-0.87625438 0.77558726 1.6850978
-0.82555348 0.77408922 1.6839353
-0.77383572 0.77517897 1.682616
-0.72338659 0.77582306 1.681342
-0.67359114 0.7751317 1.6805233
-0.62231088 0.77665514 1.6784863
-0.57446373 0.77389771 1.677798
-0.52505302 0.77740622 1.6763844
-0.47361264 0.77321845 1.6747948
-0.42505291 0.77622795 1.6740001
-0.37412846 0.77237195 1.6719604
-0.3402895 0.76641876 1.6551379
0.14270811 0.77531636 1.6628249
0.17800324 0.77679694 1.6656253
0.22493149 0.77049255 1.66644
0.27323797 0.77309823 1.6662993
0.32519275 0.77537179 1.666101
0.37594259 0.77683371 1.6657138
0.42464614 0.77348232 1.6655127
0.47493896 0.77515155 1.6643282
0.51679605 0.77781814 1.6586825
-1.2060095 0.82635266 1.6989945
-1.1769694 0.81871653 1.6984532
-1.1291692 0.8251406 1.697872
-1.0779872 0.82424527 1.6949095
-1.0274415 0.82627916 1.6938108
-0.97594136 0.82436919 1.6912189
-0.92389953 0.82336789 1.6880605
-0.87264413 0.82650506 1.6875356
-0.82246083 0.82364702 1.6850938
-0.77498245 0.82595116 1.6836559
-0.72578055 0.82525009 1.6812667
-0.67309004 0.82517308 1.6799635
-0.62408799 0.82639211 1.6784443
-0.57516867 0.82380068 1.6768526
-0.52237344 0.825185 1.6754168
-0.47513866 0.82429767 1.6738224
-0.4248884 0.82712317 1.6726899
-0.37430805 0.82205117 1.6698668
0.14399436 0.82528657 1.6629922
0.17560326 0.82714337 1.6661116
0.22352478 0.82454211 1.6661017
0.27487463 0.82252246 1.6661308
0.3254993 0.82437009 1.6656853
0.37305796 0.82772326 1.6655878
0.42475012 0.82124054 1.6641091
0.47509423 0.82774299 1.6631228
0.51441622 0.82802367 1.6588846
-1.2205404 0.87585831 1.6986545
-1.1628211 0.88279009 1.6967459
-1.1184964 0.86942786 1.6978632
-1.0746984 0.87053454 1.6971867
-1.0247444 0.87452137 1.6938357
-0.97536045 0.8746202 1.6914245
-0.92326224 0.87439936 1.6899207
-0.8751471 0.8756727 1.6881663
-0.82502455 0.87466782 1.6855485
-0.77424991 0.87458926 1.6829007
-0.72442549 0.87467456 1.6815848
-0.67588866 0.8732999 1.6797895
-0.62605977 0.87524933 1.6781021
-0.57421821 0.87439471 1.6758205
-0.52555329 0.87538999 1.6746269
-0.47516009 0.87447244 1.6739289
-0.42225718 0.87658817 1.6726983
-0.37760344 0.87371033 1.6694846
0.14183591 0.87622631 1.6623573
0.17289497 0.87758428 1.6652764
0.22514457 0.87322468 1.6654286
0.27576527 0.87295121 1.6652594
0.32337338 0.87602919 1.6651757
0.3774448 0.87278825 1.6648171
0.42598259 0.87419927 1.663568
0.47359639 0.8764416 1.6625199
0.51563311 0.87475878 1.6579154
-1.2052165 0.9320128 1.698557
-1.1802742 0.92235738 1.6987877
-1.1174122 0.92949718 1.6988503
-1.0694685 0.92628747 1.6975902
-1.026029 0.9237116 1.6951822
-0.9749186 0.92476577 1.6949625
-0.92365938 0.92467391 1.6915447
-0.87218606 0.92330456 1.6896839
-0.82327801 0.92581737 1.6875498
-0.77607864 0.92309749 1.6844288
-0.72518235 0.92591256 1.6819896
-0.67386842 0.92345816 1.679962
-0.62292123 0.92522854 1.6783322
-0.57386917 0.9245382 1.6763729
-0.52494186 0.92422938 1.6753727
-0.47320294 0.9250226 1.6728512
-0.42768964 0.92595243 1.6730214
-0.37632218 0.92459464 1.6698968
-0.34973538 0.91532528 1.6535405
0.13663661 0.92750084 1.6639121
0.1748911 0.92403263 1.6657572
0.22658458 0.92403144 1.6654905
0.2758545 0.92700231 1.6654271
0.32568538 0.92403257 1.6650887
0.37496841 0.92317772 1.6639568
0.42420101 0.92462963 1.6623439
0.47758025 0.92573792 1.6617327
0.51335299 0.92384696 1.657963
-1.3529509 0.99341333 1.6986146
-1.3058389 0.9873144 1.6980739
-1.261875 0.98296553 1.699478
-1.240854 0.97738868 1.6986781
-1.1982154 0.95505065 1.6996346
-1.1199385 0.98216271 1.6981939
-1.0740398 0.97585845 1.6973456
-1.0252203 0.9747535 1.6969529
-0.97544724 0.97285628 1.6951599
-0.92608428 0.97501099 1.6931427
-0.87331319 0.97267139 1.6909509
-0.82282346 0.97611171 1.6889534
-0.77123165 0.97295493 1.6852293
-0.72327292 0.97663075 1.6842546
-0.67580396 0.97480744 1.6819386
-0.62598145 0.97546232 1.6790553
-0.57476807 0.97509575 1.6771179
-0.52482688 0.97569549 1.6768067
-0.47563848 0.97552794 1.6744016
-0.42267108 0.97448927 1.6733536
-0.3768799 0.97451597 1.6712154
-0.34649694 0.98393047 1.6587403
0.13561802 0.97497803 1.6634353
0.17519738 0.97585267 1.6648723
0.22426477 0.97266829 1.6646388
0.27412513 0.97625715 1.6652647
0.32569444 0.97416055 1.66433
0.37390578 0.97590786 1.6627858
0.42614841 0.9748472 1.6628213
0.47228497 0.97424936 1.6609594
0.51387662 0.97371304 1.657523
-1.3154435 1.0413195 1.6988328
-1.2639735 1.0403612 1.6988399
-1.2496916 1.0425166 1.6977532
-1.1794158 1.022382 1.6983446
-1.1202159 1.024084 1.6985143
-1.0721984 1.0226498 1.697588
-1.0276967 1.025317 1.6973583
-0.97496456 1.0270379 1.6960918
-0.92429292 1.0257082 1.694692
-0.87487513 1.025412 1.6937802
-0.82426113 1.0238526 1.6900775
-0.77636909 1.0253371 1.6882746
-0.72679168 1.0231512 1.6847738
-0.67459905 1.0238173 1.6824009
-0.62506491 1.0257391 1.680403
-0.57384223 1.0254068 1.6790773
-0.52393299 1.0251323 1.6767457
-0.47544074 1.0246977 1.6751335
-0.42672911 1.0271752 1.6739845
-0.37633392 1.023935 1.6728051
-0.34929162 1.0053965 1.6659486
0.13640305 1.0242007 1.6633776
0.17602883 1.0256897 1.6641918
0.22573529 1.0246927 1.6647242
0.27361339 1.022288 1.6639352
0.32481244 1.0257258 1.6633159
0.37642357 1.0242834 1.6615642
0.424889 1.0239335 1.6616222
0.47617993 1.0272443 1.6616137
0.51430494 1.0220188 1.6598797
-1.4410884 1.0699414 1.6986979
-1.3546818 1.0975591 1.6962981
-1.3320044 1.0872298 1.6978995
-1.292405 1.0716828 1.6979303
-1.2338896 1.0726423 1.6992058
-1.1736859 1.0804055 1.6977066
-1.1171904 1.0668348 1.6978258
-1.0793874 1.0693408 1.6973261
-1.0255396 1.0771267 1.6978683
-0.97374237 1.07402 1.6968808
-0.92579478 1.0759684 1.6946782
-0.8746202 1.0746633 1.6935053
-0.82489824 1.074456 1.6926574
-0.77496171 1.0755376 1.6893846
-0.72435552 1.0741339 1.6871767
-0.67534971 1.0742192 1.6850116
-0.62351763 1.075747 1.6823561
-0.57594132 1.0744578 1.6800941
-0.52694398 1.0751905 1.6780367
-0.47489649 1.0728842 1.676748
-0.42285347 1.0744581 1.6756163
-0.37323016 1.0709703 1.67112
-0.34478951 1.0781542 1.6608278
0.13433163 1.0747355 1.6637651
0.17437282 1.0735123 1.6645882
0.2248757 1.0768346 1.6651148
0.27612016 1.0758257 1.6636963
0.32493201 1.070833 1.6630405
0.37667361 1.0775535 1.6627016
0.42496842 1.0725687 1.6625048
0.47279206 1.0749983 1.6603031
0.51205844 1.0753466 1.6590366
-1.5192022 1.1481714 1.6986569
-1.4809335 1.1151041 1.6973698
-1.422349 1.1320951 1.6981475
-1.3715384 1.1358141 1.6977465
-1.3344839 1.1232283 1.6991129
-1.2302427 1.1166863 1.6995723
-1.1772889 1.1279378 1.698297
-1.1257662 1.1220478 1.6975089
-1.078323 1.1212884 1.6977483
-1.0211979 1.1208444 1.6965394
-0.97433019 1.1210194 1.6970264
-0.92473274 1.1270698 1.6965113
-0.87455016 1.1243677 1.6945169
-0.82782143 1.1235292 1.692345
-0.77801937 1.1246388 1.691463
-0.72661078 1.1247215 1.6908116
-0.67564803 1.126418 1.6880203
-0.62409896 1.1249653 1.6845814
-0.57482457 1.1246809 1.6824861
-0.5247677 1.1233304 1.6795548
-0.47580835 1.1223522 1.6779789
-0.42652938 1.1244729 1.6765897
-0.37504798 1.1232256 1.6741873
-0.34894291 1.1096115 1.671393
0.13473703 1.1249397 1.6645956
0.17634264 1.122344 1.6647789
0.22515535 1.1241037 1.664495
0.27512082 1.1288074 1.663559
0.32505867 1.1206533 1.6634548
0.3741034 1.1248881 1.663192
0.42580706 1.1206485 1.6632421
0.47525632 1.1263309 1.6625606
0.51460975 1.1331559 1.6581089
0.67516577 1.1407981 1.650687
-1.4739259 1.180106 1.6964527
-1.4275062 1.1782453 1.6979061
-1.3734375 1.1755242 1.6976564
-1.3241609 1.1680896 1.697262
-1.2843463 1.1756022 1.6988183
-1.2224386 1.1643547 1.697408
-1.1854857 1.1711391 1.6986901
-1.1165627 1.1688499 1.6975683
-1.0665605 1.1802599 1.6978039
-1.0245221 1.1787204 1.6988881
-0.98227608 1.1828541 1.6973075
-0.92698663 1.1745768 1.6962104
-0.87613577 1.1758658 1.6970836
-0.82491821 1.1740811 1.6943034
-0.77552336 1.1721424 1.6927034
-0.72521609 1.1755679 1.690572
-0.6723907 1.1772624 1.6890244
-0.62506568 1.1727221 1.6880517
-0.57561958 1.1735957 1.6838793
-0.52531141 1.1737974 1.6816863
-0.47237822 1.1747686 1.680735
-0.42330536 1.175878 1.6793445
-0.3754459 1.1739342 1.6764632
-0.34452736 1.1816791 1.6661048
0.13108394 1.1740518 1.662065
0.17503703 1.174909 1.6666272
0.22548735 1.1764646 1.6652946
0.27444088 1.1745691 1.6650815
0.32547849 1.1719434 1.6639005
0.37529314 1.1778299 1.6645991
0.42592543 1.1721623 1.6657066
0.47417876 1.1768948 1.66386
0.51506352 1.1774112 1.6592022
0.6249491 1.1504805 1.6512916
0.73079509 1.1852682 1.65028
0.81220955 1.1517144 1.6505351
0.85065567 1.1741691 1.6501309
-1.5533202 1.2379243 1.6979532
-1.4530739 1.2407734 1.6971467
-1.3707386 1.2239466 1.6958227
-1.3309727 1.2217926 1.6988077
-1.2876543 1.2254583 1.6975101
-1.2204909 1.2287866 1.6992142
-1.1768349 1.2262617 1.6983974
-1.1255091 1.2299721 1.6986635
-1.0773858 1.2229153 1.6991593
-1.034094 1.2328442 1.6975325
-0.97396851 1.2236565 1.6969614
-0.92465705 1.2263252 1.6967258
-0.87445027 1.2273227 1.6953499
-0.82418621 1.2240114 1.696216
-0.77459073 1.2246487 1.6944747
-0.72388721 1.2263552 1.6924514
-0.67429483 1.2243205 1.6890193
-0.62566465 1.2242047 1.6876287
-0.5739755 1.2247069 1.6853943
-0.52438396 1.2273943 1.6838968
-0.47627258 1.2240919 1.6813432
-0.42762864 1.2234865 1.6791533
-0.37755707 1.2243905 1.6788495
0.12995106 1.2254881 1.6664544
0.1737826 1.2253702 1.6679773
0.22641248 1.2240744 1.6661948
0.27708855 1.2240044 1.6673006
0.32429311 1.2264678 1.6669903
0.37477612 1.2247571 1.6655656
0.42248809 1.2225966 1.6660421
0.47618979 1.2243505 1.6657244
0.51401877 1.2230057 1.6630813
0.57871771 1.2202853 1.6505026
0.68623221 1.2337198 1.6519209
0.72495306 1.2387052 1.6552169
0.76738834 1.2254535 1.6533049
0.82353288 1.2287999 1.6527363
0.87525457 1.2293909 1.6519978
-1.5923822 1.2892299 1.6997801
-1.5213223 1.2784871 1.6966739
-1.4897141 1.2633899 1.6981945
-1.4275824 1.272073 1.696896
-1.3716345 1.2677399 1.6965208
-1.3169327 1.2833896 1.6970221
-1.2722574 1.2697202 1.6962879
-1.2313156 1.273176 1.6967286
-1.1743269 1.2835484 1.6959983
-1.1312382 1.2791406 1.6968483
-1.0731096 1.2710178 1.698065
-1.030623 1.2731913 1.697687
-0.97649002 1.2734826 1.696494
-0.9260664 1.2784555 1.6961185
-0.87914068 1.2722507 1.6962994
-0.82773596 1.2729266 1.6967758
-0.77409172 1.2713528 1.6939465
-0.72342098 1.2709138 1.6902117
-0.67533886 1.2736343 1.6902156
-0.62286073 1.2760252 1.6888218
-0.57329506 1.2741171 1.6871836
-0.52707136 1.2752157 1.6840453
-0.47760943 1.2762647 1.6843596
-0.42292222 1.274882 1.6813277
-0.37602842 1.2760159 1.6815455
-0.32709831 1.2843858 1.6734242
-0.27723417 1.2925515 1.6791248
-0.23122013 1.2780133 1.6655731
-0.17507435 1.2954096 1.675385
-0.13126205 1.2893137 1.6707544
0.097454168 1.293223 1.6593823
0.1289345 1.2752391 1.6693834
0.17444529 1.275588 1.6702046
0.2242015 1.2718436 1.6690122
0.27383327 1.2752917 1.6690477
0.32671696 1.2766039 1.6681843
0.37728843 1.2764326 1.6683682
0.42755896 1.2710218 1.6682117
0.47311291 1.274097 1.6681609
0.52119166 1.2746738 1.6648357
0.58471274 1.2771089 1.650686
0.62539697 1.2745006 1.6521627
0.6866762 1.2774938 1.6542917
0.72100461 1.2740357 1.6526846
0.77773035 1.2643143 1.654029
0.82203561 1.2788157 1.6547469
0.87118363 1.2693329 1.655864
0.9242695 1.2794877 1.6532429
0.97835535 1.2901672 1.6519495
1.0322306 1.296877 1.6511031
-2.0043237 1.3357681 1.6985598
-1.9886105 1.3468382 1.6996629
-1.7644029 1.3024074 1.6994966
-1.7407155 1.3398985 1.6976479
-1.6697643 1.346788 1.6992222
-1.5846827 1.3192782 1.6962452
-1.5376904 1.3300817 1.6974262
-1.4768572 1.3316594 1.6977323
-1.4241416 1.3317589 1.6969461
-1.3703729 1.3287473 1.6956984
-1.3251642 1.3214248 1.6974591
-1.2720208 1.3230343 1.6983396
-1.2215701 1.3169321 1.6942816
-1.1742339 1.3255957 1.6980089
-1.1265484 1.3242048 1.6968094
-1.0756116 1.3250648 1.697656
-1.0309241 1.3280977 1.6982725
-0.97581369 1.3188068 1.696551
-0.92259568 1.3172764 1.6964238
-0.8759315 1.3288635 1.6960055
-0.82289732 1.3255035 1.6955128
-0.77439618 1.3242384 1.6940308
-0.72696698 1.3237689 1.6950504
-0.67704457 1.3249817 1.6930331
-0.6267817 1.3255335 1.6901755
-0.5757252 1.3242203 1.6897919
-0.5233885 1.3248276 1.6876651
-0.47351378 1.3274497 1.6855003
-0.42818278 1.3269656 1.684342
-0.37431729 1.3229009 1.682291
-0.32455993 1.3268577 1.681635
-0.27349439 1.3231941 1.6794388
-0.22321589 1.3215246 1.6783367
-0.17163461 1.3252815 1.6769769
-0.12440594 1.3233517 1.676623
0.098390698 1.3200989 1.6660728
0.12751918 1.3186346 1.6717584
0.17591357 1.3207996 1.6709262
0.22490592 1.3255664 1.6721956
0.27533263 1.3250513 1.6696913
0.32212481 1.3216403 1.6705058
0.37293655 1.3263321 1.670276
0.42239755 1.32473 1.6697222
0.47538939 1.3258835 1.66989
0.51616234 1.3250152 1.6651428
0.57203794 1.3269808 1.6525065
0.62280071 1.3244289 1.6525271
0.67820174 1.3261186 1.6541333
0.72352463 1.3209664 1.6542056
0.77242941 1.3246644 1.6526364
0.82371074 1.3177074 1.65364
0.87167627 1.3094162 1.6560655
0.93392426 1.3217978 1.6538945
0.97512984 1.3190246 1.6505746
1.027282 1.3249369 1.6510255
1.0631943 1.3370591 1.6515313
-1.9961421 1.3649458 1.6988419
-1.9474224 1.3968537 1.6996874
-1.8059103 1.3786135 1.6976981
-1.7667379 1.3973837 1.6995715
-1.6701065 1.3702469 1.698719
-1.6308517 1.3850249 1.6987196
-1.5989989 1.3521366 1.6978956
-1.52531 1.3727382 1.6984028
-1.4577011 1.3799139 1.6993523
-1.4272498 1.3876225 1.6975987
-1.3747396 1.3747911 1.697135
-1.326845 1.3685492 1.6983401
-1.2727863 1.3707384 1.6973083
-1.2190992 1.3755281 1.6966079
-1.1749423 1.3743086 1.696983
-1.125699 1.3702943 1.6978163
-1.0748407 1.3704056 1.6960083
-1.0248282 1.3765345 1.6970587
-0.97180712 1.3737744 1.697525
-0.92306095 1.3769035 1.6978928
-0.87446761 1.3742129 1.6964339
-0.82124346 1.3727012 1.6964247
-0.76837581 1.3775899 1.6956581
-0.72315341 1.373911 1.6953281
-0.6724577 1.3745281 1.6942153
-0.62549943 1.3741214 1.6929603
-0.57443506 1.3751111 1.691424
-0.52386534 1.375397 1.6890118
-0.47776461 1.3712834 1.6874158
-0.42522508 1.3681792 1.6852767
-0.37517759 1.35962 1.6830989
-0.3222501 1.3582579 1.6819427
-0.2742106 1.3519602 1.6809964
-0.24260174 1.3532317 1.686681
0.32811907 1.3520172 1.6730745
0.37633392 1.3580532 1.6723397
0.43157393 1.3611501 1.6706918
0.47739083 1.3666041 1.672626
0.52321124 1.3659701 1.6609974
0.57671517 1.3647426 1.65236
0.62764382 1.3760314 1.6553551
0.67398137 1.3761346 1.6537334
0.72167653 1.3706744 1.6534542
0.77109563 1.3731327 1.6520261
0.82695597 1.3742847 1.6533102
0.87370473 1.3761082 1.6532844
0.93244922 1.3752092 1.6557181
0.97047567 1.3742847 1.6545405
1.0211741 1.3809383 1.6525279
1.0574605 1.382261 1.6533477
-1.9611881 1.4085886 1.6970522
-1.8700252 1.4096289 1.6985627
-1.750492 1.4068016 1.6978794
-1.7211757 1.427979 1.6970313
-1.6521326 1.4358469 1.6991478
-1.6117384 1.4278915 1.6970842
-1.5674559 1.4155385 1.6973629
-1.5322934 1.4230248 1.698271
-1.4593811 1.4281201 1.6987594
-1.4282038 1.4234113 1.6968004
-1.3827995 1.4265959 1.6979456
-1.3228554 1.4277952 1.6973985
-1.2740132 1.4257352 1.69725
-1.223251 1.4300684 1.6961111
-1.1795311 1.4177334 1.6968727
-1.1234746 1.4224877 1.69858
-1.0871582 1.4237972 1.6975032
-1.0282462 1.4212381 1.6968302
-0.97586238 1.4261444 1.6982709
-0.92484957 1.4281521 1.6973195
-0.87005848 1.430854 1.6973623
-0.82640225 1.4296494 1.6969537
-0.77144951 1.4256964 1.6953247
-0.72459316 1.4229851 1.6965499
-0.67848736 1.4207976 1.695001
-0.62237817 1.4138216 1.694682
-0.57434487 1.4096119 1.6920385
-0.54144663 1.403764 1.6936285
0.68208212 1.4071764 1.6540718
0.72484285 1.4168693 1.6568129
0.77411586 1.4206944 1.6541306
0.82881665 1.4264348 1.652071
0.87590843 1.4272054 1.652728
0.92006958 1.4203402 1.6516051
0.97460055 1.4319719 1.6521678
1.0299577 1.4183334 1.6507187
-1.9010782 1.4785208 1.6993243
-1.8333468 1.4619079 1.6989417
-1.7848026 1.4609528 1.6998762
-1.7281102 1.4740762 1.6966925
-1.6750259 1.4689274 1.6989076
-1.6204658 1.4597292 1.6971741
-1.5690407 1.4702163 1.6996064
-1.5218017 1.4599378 1.6988869
-1.4796178 1.4599624 1.6983619
-1.4294156 1.4641941 1.6960157
-1.3757713 1.4734606 1.6979699
-1.3229425 1.4728677 1.6961758
-1.283479 1.4744123 1.6962289
-1.2183297 1.4846723 1.6991634
-1.1589646 1.4785358 1.6982588
-1.1256813 1.473773 1.6968198
-1.0703694 1.4736732 1.69762
-1.0199804 1.4671454 1.6978256
-0.97316903 1.4694529 1.6965408
-0.92212087 1.4670477 1.6962311
-0.87341058 1.4742297 1.6979567
-0.82392472 1.4720576 1.6966938
-0.78039271 1.4627562 1.6966627
-0.74106723 1.4564281 1.6989386
0.84666145 1.456686 1.6557385
0.88544589 1.4685351 1.6545132
0.92292678 1.4625196 1.6513617
0.98253345 1.4760486 1.6527666
1.0207062 1.4914426 1.6511072
-1.8777437 1.5194496 1.69766
-1.8250759 1.5337703 1.6981906
-1.7803408 1.542226 1.6981683
-1.6779585 1.5018702 1.6961813
-1.6195688 1.5251054 1.6978792
-1.5746849 1.5251316 1.6981083
-1.5419832 1.5341491 1.6978333
-1.484297 1.5278132 1.6968038
-1.418826 1.5344986 1.6993847
-1.3629227 1.5233461 1.6986147
-1.318928 1.5315349 1.695627
-1.2823431 1.5248015 1.6969445
-1.2250013 1.5042781 1.699756
-1.1688524 1.5214304 1.6962763
-1.1283376 1.5292064 1.6972044
-1.0215156 1.5214503 1.6969308
-0.97953308 1.5185082 1.6987793
-0.92175084 1.5105965 1.6965306
-0.888794 1.5011318 1.698665
0.99349415 1.5033816 1.650323
1.0675113 1.5314829 1.6508753
-1.8320616 1.5526438 1.6964904
-1.7970644 1.5576026 1.6989508
-1.6113886 1.5538121 1.6992209
-1.5805838 1.5913134 1.6952863
-1.4634608 1.5708098 1.6963562
-1.4205792 1.5722724 1.6987875
-1.3917522 1.5508902 1.6969241
-1.3170158 1.5567938 1.6988747
-1.2691801 1.5658566 1.6973323
-1.2189891 1.5778577 1.6970699
-1.1770957 1.5801189 1.6988308
-1.1422174 1.5834424 1.697735
-1.0432938 1.5532043 1.6957701
1.1460972 1.5631629 1.6523423
1.1783091 1.5760009 1.6522207
1.253655 1.5878145 1.6502544
1.3323661 1.5522578 1.6532469
-1.7912312 1.6147823 1.6963298
-1.6646638 1.6186479 1.699155
-1.5669467 1.6182439 1.6981211
-1.5137775 1.6358984 1.6971447
-1.4769272 1.6256602 1.6978784
-1.4282088 1.6274501 1.6971117
-1.3668929 1.630635 1.6997006
-1.3097811 1.6242415 1.6982902
-1.2846974 1.6255485 1.6975895
-1.2256286 1.6175406 1.6991199
1.2443656 1.6023526 1.6512579
1.3284349 1.6285278 1.6512752
-1.7350136 1.6623992 1.694581
-1.6978379 1.6769409 1.6992517
-1.6107252 1.6853801 1.6974509
-1.5635533 1.6945752 1.6998533
-1.5356655 1.69103 1.6981504
-1.4520032 1.6660811 1.6997637
-1.4277771 1.6522945 1.6938921
-1.357509 1.6776791 1.6937505
-1.6587628 1.7151713 1.6984537
-1.4983748 1.7031592 1.6984125
-1.6227732 1.7567053 1.6996228
-1.5088866 -0.50848991 1.7206904
-1.4740664 -0.5123812 1.7137268
-1.4357619 -0.50285983 1.7128865
-1.513283 -0.46644193 1.7073578
-1.4771919 -0.47419113 1.7119604
-1.4341227 -0.4766469 1.7169896
-1.5697792 -0.43369409 1.7098899
-1.5227283 -0.42901447 1.7131834
-1.4736311 -0.42208225 1.7135807
-1.4257454 -0.42920378 1.7153722
-1.5243964 -0.3776449 1.7223649
-1.47519 -0.37472853 1.714425
-1.4263499 -0.37280244 1.7165608
-1.5018502 -0.34182316 1.7266569
-1.470897 -0.33551794 1.7218066
-1.4306506 -0.32673889 1.7188179
-1.4522581 -0.29659429 1.7333748
-1.4268099 -0.29347801 1.7221488
-1.3190178 0.43644238 1.7266946
-1.2705948 0.43698448 1.7028716
-1.2202187 0.44015399 1.7013094
-1.14043 0.43251026 1.7309442
-1.3220364 0.4714458 1.7259767
-1.2836102 0.47479513 1.7066264
-1.2292019 0.46651924 1.7021021
-1.313956 0.52811837 1.725521
-1.2728304 0.53033739 1.7050687
-1.2259595 0.54009956 1.7014494
-1.3240771 0.57572585 1.7341131
-1.2742734 0.57674056 1.7067919
-1.2273933 0.57717305 1.7022398
-1.1809919 0.57270169 1.7008011
-1.3252529 0.62362617 1.736183
-1.2734386 0.62554938 1.7069559
-1.2356329 0.62571305 1.7024627
-1.1925185 0.63225693 1.7018414
-1.1497471 0.62006468 1.700022
-1.3119212 0.67311394 1.7224865
-1.2733504 0.67466682 1.7056258
-1.2317046 0.67771554 1.7045574
-1.1832782 0.67062539 1.7015479
-1.1307267 0.68611526 1.7011855
-1.3186772 0.73048764 1.7237145
-1.2735332 0.72571969 1.7061601
-1.2334573 0.72159368 1.7024205
-1.1759273 0.72091782 1.7019823
-1.1346893 0.70809436 1.700722
-1.3561807 0.78533572 1.7488339
-1.3204422 0.77567428 1.7207278
-1.2754006 0.77323264 1.7070808
-1.2275722 0.77772295 1.7031695
-1.1754701 0.77342796 1.703151
-1.1309121 0.77903903 1.7023617
-1.3669915 0.8287856 1.7480717
-1.3197573 0.82514083 1.711431
-1.2749994 0.82518542 1.704586
-1.2280086 0.82234287 1.7028217
-1.1724471 0.83616453 1.702787
-1.1320515 0.8241027 1.70213
-1.3661609 0.87289357 1.7358985
-1.32257 0.8710863 1.7099186
-1.2753748 0.87744421 1.7048852
-1.222512 0.86899835 1.7036978
-1.1800008 0.87229657 1.7021219
-1.1281183 0.88525862 1.7008867
-1.0734752 0.897879 1.7007366
-1.3593324 0.92642289 1.7171746
-1.3258069 0.92682958 1.7092881
-1.2774417 0.92306191 1.704116
-1.233708 0.9226594 1.7042305
-1.1752497 0.92854953 1.7017192
-1.1298047 0.92133313 1.701803
-1.0871315 0.91072696 1.7013201
-1.4095522 0.99700731 1.7379302
-1.3664819 0.97366017 1.7091253
-1.3261516 0.97131157 1.7051895
-1.2764361 0.97172624 1.7028577
-1.2218094 0.97225606 1.7037909
-1.1750858 0.97840858 1.7032654
-1.1324701 0.96469355 1.7014112
-1.0828056 0.96525097 1.700913
-1.0178543 0.95146525 1.7022489
-1.4129269 1.0320297 1.7143443
-1.370725 1.0275146 1.7042761
-1.3291374 1.0214589 1.7045872
-1.2815635 1.0214889 1.7039992
-1.2261708 1.0235543 1.7024028
-1.1689739 1.0262866 1.7022393
-1.1247422 1.0274303 1.7020499
-1.0823935 1.0296092 1.7007315
-1.0203249 1.0200783 1.7006432
-1.5093963 1.0955688 1.7136669
-1.4716522 1.0824361 1.7141579
-1.426019 1.0737696 1.705817
-1.3769541 1.0744702 1.7025328
-1.3259275 1.0684375 1.7020482
-1.2722816 1.0767804 1.7025305
-1.2212895 1.0757179 1.7021706
-1.1763457 1.0700454 1.7019824
-1.1290499 1.0781952 1.7014725
-1.0718775 1.0750246 1.7016819
-1.015775 1.0797169 1.7005923
-0.98918545 1.0934504 1.7028786
-1.5604424 1.1368985 1.7090065
-1.5220767 1.1269302 1.709488
-1.4706903 1.125319 1.7046883
-1.4223251 1.1176468 1.7019459
-1.3841879 1.1195921 1.7023008
-1.3207362 1.1221945 1.702109
-1.2742931 1.1253 1.7012578
-1.2247676 1.1246343 1.7015762
-1.1666454 1.131303 1.7025137
-1.1251243 1.1284082 1.7017186
-1.0717359 1.1240286 1.7020301
-1.0321954 1.1434627 1.7023749
-0.98818904 1.1445206 1.7009981
-1.6508343 1.1942098 1.7099775
-1.6205916 1.1805456 1.7182159
-1.5762938 1.1796472 1.7070454
-1.5276476 1.1764079 1.7050371
-1.4765091 1.1745728 1.703915
-1.4271055 1.1712145 1.701519
-1.3867859 1.1792111 1.7037821
-1.3308541 1.1720843 1.7015007
-1.2651608 1.1727912 1.7017239
-1.2227085 1.1800624 1.7023678
-1.1707355 1.1794198 1.7033489
-1.1306785 1.1797547 1.7020928
-1.0808094 1.1660079 1.7017338
-1.030152 1.1624262 1.7011924
-0.97032219 1.1642855 1.7007488
-1.7563534 1.2475188 1.7210702
-1.72417 1.2396847 1.7279699
-1.6701525 1.2306367 1.7119608
-1.6223453 1.2200787 1.7062148
-1.5827695 1.2245648 1.7053443
-1.5271705 1.2250563 1.7052648
-1.4762057 1.2239867 1.7030724
-1.4245486 1.2274367 1.7027829
-1.3777405 1.2032634 1.7005759
-1.320176 1.2188913 1.7020205
