ply
format ascii 1.0
comment PCL generated
element vertex 1475
property float x
property float y
property float z
element camera 0
property float view_px
property float view_py
property float view_pz
property float x_axisx
property float x_axisy
property float x_axisz
property float y_axisx
property float y_axisy
property float y_axisz
property float z_axisx
property float z_axisy
property float z_axisz
property float focal
property float scalex
property float scaley
property float centerx
property float centery
property int viewportx
property int viewporty
property float k1
property float k2
end_header
-0.57473403 -0.17442802 0.89171803
-0.52427471 -0.1746967 0.89113039
-0.47581977 -0.17499958 0.88911408
-0.4256967 -0.17489021 0.88611323
-0.37495485 -0.17484419 0.88350129
-0.32560858 -0.17459117 0.88085371
-0.27468184 -0.17499699 0.87868923
-0.22362912 -0.17463429 0.87782526
-0.18221189 -0.16132723 0.89958876
-0.11351234 -0.17215651 0.89647186
-0.075805463 -0.17578097 0.88588202
-0.025499284 -0.17420088 0.87191457
0.024360487 -0.17527443 0.85829961
0.051977571 -0.17778416 0.85118425
0.34807038 -0.17236096 0.85134584
0.39489123 -0.1673719 0.8805663
0.49623716 -0.18601052 0.87880778
0.52008098 -0.18361114 0.86391979
0.5744983 -0.18897176 0.86660576
0.62391514 -0.18908061 0.86804068
0.67527127 -0.18617678 0.87419748
0.72008067 -0.17565714 0.8741554
0.77402359 -0.18449211 0.87093341
0.82464474 -0.18605147 0.87348771
0.87511337 -0.18579325 0.87245911
0.92543685 -0.18731806 0.87384689
0.97442079 -0.18565856 0.87400442
1.0242225 -0.18540879 0.87045068
1.0756731 -0.18677853 0.87170088
-0.70497614 -0.12430415 0.87879664
-0.67625135 -0.12391201 0.88647646
-0.62444508 -0.12512696 0.89065361
-0.57418633 -0.12405147 0.89109188
-0.52484894 -0.12531494 0.88987899
-0.47420833 -0.12553528 0.88724577
-0.42487115 -0.12433381 0.88350582
-0.37508711 -0.12560406 0.88061649
-0.32448965 -0.12424645 0.87823838
-0.27549306 -0.12521243 0.87601656
-0.22417501 -0.12432626 0.87562901
-0.17736644 -0.11906224 0.89893389
-0.12038154 -0.12338996 0.89498401
-0.0750174 -0.12472414 0.88212585
-0.026375586 -0.12475368 0.86925012
0.020966783 -0.12613468 0.85632408
0.34615874 -0.13580438 0.85124779
0.35057944 -0.13368699 0.85051084
0.49797788 -0.12387995 0.85454875
0.50206965 -0.11740367 0.85499358
0.69556677 -0.13250186 0.88465089
0.72232234 -0.12732416 0.87870407
-0.67407578 -0.07450828 0.88425666
-0.62480646 -0.076741293 0.89054155
-0.57472676 -0.075136326 0.89069152
-0.52508336 -0.075063989 0.88831824
-0.47512612 -0.073405862 0.88476706
-0.4247812 -0.075763695 0.8813464
-0.37464246 -0.075375795 0.87807155
-0.32471183 -0.074309722 0.87518132
-0.27464929 -0.075230286 0.87314403
-0.2231174 -0.074510358 0.87389737
-0.17333671 -0.073366396 0.89737129
-0.12311009 -0.074673511 0.89249295
-0.074990012 -0.073916256 0.87890512
-0.025414819 -0.075821467 0.86575794
0.01617641 -0.076810338 0.85436469
0.36911917 -0.058390923 0.85426205
0.4967567 -0.069968678 0.85644293
0.50382662 -0.077140518 0.85272652
0.73141861 -0.093324952 0.88997394
-0.67143983 -0.025264503 0.88197494
-0.62456298 -0.027507965 0.88952732
-0.57508069 -0.02590793 0.88924593
-0.52453059 -0.025819618 0.88614607
-0.47417736 -0.025684653 0.88265342
-0.42323476 -0.026137535 0.87891263
-0.37358254 -0.026758224 0.87555838
-0.32382715 -0.025841787 0.87276167
-0.27373725 -0.025822656 0.87099832
-0.22362438 -0.025656994 0.87047958
-0.17305894 -0.026280638 0.89547431
-0.12415677 -0.025338521 0.88995016
-0.074231304 -0.025340531 0.87566525
-0.025794622 -0.02678157 0.86281335
0.0090303281 -0.02879948 0.85336119
0.34302068 -0.038410239 0.85030216
0.36803007 -0.023693621 0.85421813
0.49569795 -0.02560059 0.85811377
0.50897956 -0.026171468 0.8557114
-0.67412466 0.023348866 0.87490052
-0.6257472 0.025031496 0.8856194
-0.57381731 0.024185676 0.88637125
-0.52299792 0.023604726 0.88313884
-0.47463751 0.023087192 0.87981957
-0.42508823 0.024491051 0.87671226
-0.37570417 0.024553968 0.87359047
-0.32483643 0.023944408 0.87090433
-0.27359524 0.023182202 0.86948115
-0.22413346 0.023735508 0.86928993
-0.17375234 0.023759544 0.89360356
-0.12478999 0.023456132 0.88767934
-0.073681772 0.023943862 0.87250561
-0.025698332 0.024623156 0.85955703
0.0047149626 0.019691538 0.85176194
0.34344542 0.023616325 0.85153311
0.36903986 0.014769631 0.85531408
0.49471757 0.025307989 0.86066669
0.51176274 0.023026502 0.85989016
-0.66687632 0.074158438 0.869102
-0.62371534 0.075765252 0.87873089
-0.57508838 0.075198978 0.88058317
-0.52450258 0.075348087 0.87881476
-0.47464919 0.073456392 0.8767556
-0.42480633 0.076377518 0.87392211
-0.37491933 0.074963734 0.87115812
-0.32433227 0.074956775 0.86904925
-0.27313602 0.075023316 0.86768878
-0.22396722 0.074114241 0.86837703
-0.17375419 0.075573996 0.89163232
-0.12463351 0.074539147 0.88468641
-0.074121103 0.074702784 0.87001944
-0.025959447 0.075555056 0.85686862
0.0017124177 0.07288868 0.85036868
0.33826989 0.082645901 0.85239005
0.36953783 0.085591838 0.8650583
0.49484622 0.069819875 0.8569324
0.50930274 0.073668107 0.85935926
-0.65065587 0.10550374 0.89125693
-0.61993468 0.1028831 0.87749118
-0.57455665 0.10312092 0.88078576
-0.51988143 0.10381142 0.87789232
-0.47522715 0.1036565 0.8761515
-0.42318684 0.10502467 0.87488991
-0.37501484 0.10404467 0.87048626
-0.32654572 0.10507499 0.86990356
-0.27363789 0.10519275 0.86721081
-0.22582334 0.10621823 0.86798686
-0.17413823 0.10601859 0.89157259
-0.12414589 0.10651505 0.8839466
-0.074306063 0.1067282 0.87070757
-0.026385956 0.10701171 0.85692418
0.01915192 0.11427871 0.85632694
0.34245694 0.11990306 0.86213744
0.35847265 0.13117406 0.86052084
0.49429795 0.12242085 0.8718797
0.52443582 0.12190857 0.87600052
0.57667702 0.12570871 0.871301
0.62438458 0.12670925 0.86291844
0.66840833 0.12219382 0.85844296
0.72824234 0.12721668 0.85554826
0.75874102 0.12177014 0.85945904
-0.62533957 0.19754529 0.87240851
0.24639466 0.1962577 0.89867657
0.25926554 0.19503616 0.89861697
0.34872821 0.16583158 0.85369307
0.35607007 0.17792222 0.86161453
0.8121326 0.18466556 0.8906427
-0.61011815 0.20394996 0.86633855
-0.57170463 0.20656489 0.86807829
-0.52744871 0.21397048 0.88870424
-0.46651635 0.22133708 0.89604944
-0.42597485 0.21959871 0.89895493
-0.36914721 0.22182728 0.89728326
-0.32037541 0.22037505 0.89030647
-0.27561274 0.22203435 0.88377786
-0.12608749 0.22314297 0.86991334
-0.075141862 0.22434185 0.86586124
-0.027361747 0.22333348 0.86092317
0.024857011 0.22603072 0.86337548
0.074574448 0.22498916 0.86043662
0.12441299 0.22565831 0.85872972
0.17231023 0.22618616 0.8577103
0.22637549 0.22372268 0.86611873
0.27162638 0.22053912 0.87528622
0.32345587 0.22705735 0.86456895
0.37332523 0.22495569 0.86575347
0.40731016 0.23065551 0.8784464
0.82933629 0.23712008 0.88497478
0.8570739 0.24365136 0.88044018
0.82662505 0.25256369 0.8947435
-0.76603603 -0.48047897 0.92949349
-0.74471515 -0.48424047 0.91095662
-0.19219422 -0.45270705 0.90123856
0.43358272 -0.48027295 0.92120475
0.47732353 -0.47267631 0.92426282
-0.1718322 -0.4166061 0.90271395
-0.13681363 -0.41723782 0.90230697
0.4177492 -0.40385401 0.92642385
0.49049908 -0.42496419 0.92460978
-0.17365278 -0.37493131 0.90489656
-0.12876059 -0.3737717 0.90451878
0.41465652 -0.38349158 0.92506492
0.49036816 -0.37528408 0.92466813
-0.74972564 -0.3067233 0.91543072
-0.20016077 -0.32479262 0.90693271
-0.1749208 -0.32487407 0.90569031
-0.13012543 -0.3247163 0.90570527
0.49094808 -0.32555094 0.92402881
-0.20154513 -0.26342604 0.90469313
-0.17412275 -0.27426177 0.90585434
-0.1292987 -0.27595663 0.90486729
0.49141002 -0.27481601 0.92221832
-0.20144382 -0.22507954 0.9111591
-0.17338461 -0.22509804 0.90447956
-0.13326208 -0.22625276 0.90364259
0.49153733 -0.22430289 0.92380625
-0.20261277 -0.17881592 0.90633959
-0.17384246 -0.1769686 0.90285343
-0.13812464 -0.17758974 0.90247369
0.49196681 -0.19116692 0.92561102
0.58194935 -0.18666777 0.92647189
0.62492603 -0.18513119 0.92939317
0.67427677 -0.17603588 0.91389078
0.70630026 -0.16243224 0.91156459
0.98108304 -0.18092074 0.921381
-0.20253654 -0.12395466 0.90788954
-0.16816084 -0.13354611 0.90182585
-0.14318344 -0.13534707 0.90134734
0.69737715 -0.14522219 0.90545052
0.71153623 -0.13237806 0.9128406
-0.20190354 -0.075018652 0.90855694
-0.15804242 -0.085150026 0.90061635
-0.14230885 -0.097036779 0.90033609
0.71848738 -0.09365204 0.90304661
-0.20240636 -0.024301041 0.90346318
-0.20271833 0.024140967 0.90378159
-0.2034073 0.074830092 0.90499121
0.58818114 0.085531071 0.92824638
0.62108082 0.084035106 0.93244773
-0.2061052 0.10588975 0.91296083
-0.1541194 0.11371253 0.90331692
0.49622774 0.1272736 0.93335545
0.51303178 0.12548473 0.92552024
0.58580422 0.10857493 0.93446255
0.62138981 0.10882325 0.92821378
0.65182549 0.12608689 0.9469893
0.88765591 0.14903711 0.90967941
-0.70388114 0.19790757 0.93170369
-0.69734156 0.19459632 0.91284382
0.24542901 0.18179229 0.90721685
0.26493838 0.18045984 0.90854955
0.32275191 0.18171276 0.94138402
0.35865286 0.17081727 0.9303174
0.6735335 0.17419586 0.92771518
0.70015919 0.18959928 0.93335426
0.82252139 0.17282821 0.92911983
0.89119864 0.1587559 0.91745597
0.9063102 0.15700908 0.91709542
-0.70606863 0.20466116 0.93887824
-0.55859566 0.20640969 0.90005147
-0.51471156 0.21620715 0.90616882
-0.4759393 0.2188229 0.90707827
-0.42443404 0.22007497 0.90764642
-0.37885734 0.22080293 0.9073568
-0.33202553 0.22316702 0.90282607
0.18131746 0.2303856 0.94503367
0.23502353 0.22412167 0.9296608
0.28222004 0.21116175 0.91191703
0.32559854 0.21812908 0.9115715
0.35868096 0.22526835 0.9086377
0.40760931 0.23298757 0.92657155
0.67266166 0.22500345 0.92938316
0.81652963 0.22303313 0.91822505
-0.12035294 0.271171 0.94954556
-0.063569643 0.26834732 0.94316483
-0.027105698 0.27068412 0.94487023
0.022890119 0.27634311 0.94815594
0.67379993 0.27528262 0.93277848
0.70245326 0.27741802 0.94036472
0.8198759 0.25647101 0.90045929
0.87470627 0.29494023 0.91385978
0.6715225 0.32402626 0.93515152
0.71385854 0.30954778 0.94854754
0.87636822 0.31993806 0.92732608
0.6681875 0.37404388 0.93679291
0.89106089 0.37914982 0.93276632
0.90473157 0.38654682 0.9210934
0.66682398 0.42388543 0.93777454
0.89488381 0.42511141 0.94081861
0.90609628 0.42732805 0.92800277
0.66455418 0.47433066 0.93874913
0.8871398 0.47344804 0.94703799
0.91408014 0.4629828 0.94428855
0.64898819 0.5263235 0.94331366
0.66986543 0.52576745 0.9374401
0.6475963 0.57419503 0.94140148
0.67128986 0.57396114 0.93513054
0.64595348 0.62388039 0.94126534
0.66729033 0.6245364 0.93523002
0.64358413 0.67492443 0.94056213
0.66319394 0.67757452 0.93693489
0.64219195 0.7203691 0.93810636
0.66103917 0.71721977 0.93322724
-0.81708062 -0.47958225 0.98648673
-0.78515112 -0.47752911 0.95858246
0.44447297 -0.47976932 0.95636809
0.47553053 -0.47160998 0.97444248
-0.87839901 -0.44891807 0.99029279
0.48698261 -0.42415422 0.97572422
0.43692851 -0.36570373 0.95942974
0.48681983 -0.37331775 0.97519332
0.48726663 -0.32440326 0.97468072
0.4873611 -0.27422762 0.97371674
0.48724964 -0.22420728 0.97498703
0.48861915 -0.19125748 0.97784555
0.65993464 -0.18304622 0.95201457
0.60812086 0.07008145 0.97352934
-0.76440322 0.13639258 0.98929894
0.44387147 0.13743927 0.99543911
0.48775265 0.12872474 0.98292994
0.50762296 0.13803519 0.97756803
0.59263033 0.1209921 0.95183301
0.62048393 0.12161919 0.95720565
0.66602731 0.12346228 0.96804339
0.99195939 0.13207598 0.98524028
1.0881644 0.13059117 0.99370837
1.1992786 0.13074325 0.96574408
1.2181414 0.12584668 0.98169261
-0.72107679 0.19603457 0.972386
-0.67624992 0.19894843 0.98537385
-0.61632931 0.19976977 0.99192607
0.2858147 0.16856307 0.99204481
0.32309872 0.16922966 0.9809171
0.36551067 0.16830984 0.98978817
0.43993217 0.16585755 0.99659526
0.48794007 0.15023248 0.9998495
0.5289433 0.17066424 0.99619663
0.57613331 0.17728627 0.9957509
0.62761581 0.17777368 0.9953537
0.66363549 0.1778146 0.97782165
0.82425177 0.1820199 0.95979458
-0.70699847 0.20433195 0.95859325
-0.67473155 0.20617688 0.96882957
-0.62554687 0.20896131 0.97822046
-0.57417583 0.21200149 0.98269892
-0.5232504 0.21348178 0.98692757
-0.47280064 0.21486662 0.98869491
-0.42557818 0.21858759 0.9922446
-0.37354803 0.22003201 0.99207926
-0.33687225 0.22321476 0.99642754
-0.29007983 0.23294055 0.99302959
-0.21532778 0.23630399 0.99822575
-0.12709208 0.23881327 0.99744749
-0.0084500602 0.2420413 0.99529272
0.086832143 0.23793148 0.99103069
0.12546033 0.2315229 0.97514081
0.17203768 0.22690797 0.97269714
0.22759904 0.22508174 0.97354627
0.25416094 0.20795947 0.9839642
0.4341611 0.23816614 0.96360475
0.54620904 0.20826887 0.99946976
0.58256429 0.21900107 0.99916059
0.62405992 0.22253053 0.99777335
0.66228288 0.22520232 0.98092645
0.8323499 0.22004218 0.9705565
-0.20581725 0.28020561 0.98096818
-0.17183621 0.27881867 0.96335411
-0.12450342 0.27829334 0.95722759
-0.076159574 0.28033137 0.95582026
-0.025766484 0.28239158 0.9566282
0.027120963 0.28466055 0.95544159
0.061620887 0.28232804 0.95760173
0.59482253 0.26863387 0.99921256
0.63288945 0.270145 0.99782175
0.66224986 0.27469456 0.98022234
0.73142642 0.27816394 0.97173584
0.75220281 0.25241905 0.99362493
0.86181742 0.29134774 0.97452152
0.5976125 0.30102611 0.99955601
0.63371909 0.3086997 0.99921846
0.66207433 0.32484165 0.98296022
0.72236884 0.30484965 0.96208471
0.8757391 0.32765892 0.97206974
0.66372401 0.3742128 0.98389131
0.88621026 0.37448263 0.97167683
0.66224325 0.4239904 0.98382807
0.88892967 0.42525071 0.97325635
0.66234982 0.47491509 0.98269713
0.88537341 0.47211438 0.97462338
0.92777938 0.48955524 0.9653852
0.65864789 0.52463061 0.98277515
0.89001626 0.50620586 0.97577792
0.92100751 0.50808436 0.97306377
-0.1648353 0.57642728 0.99252588
-0.10900497 0.55715024 0.99505305
-0.015072563 0.57310545 0.98658258
0.0091801388 0.56783223 0.9896484
0.64881015 0.57650566 0.95339209
0.65674955 0.5750953 0.98528409
0.74797529 0.589275 0.9821164
0.76123619 0.58648068 0.99890977
0.8209734 0.59095478 0.99098492
-0.066567779 0.61291289 0.9980728
0.012030288 0.62762791 0.98824728
0.060767699 0.64279956 0.9940266
0.64853668 0.61234546 0.95588678
0.65449798 0.62681252 0.98507726
0.73862249 0.61826617 0.96475887
0.7756328 0.61374032 0.98894739
0.81334686 0.61086243 0.99384344
-0.11079822 0.69535083 0.99204725
0.01235566 0.67486793 0.99988687
0.061235126 0.65319139 0.998959
0.64873111 0.68116033 0.98468351
0.65214205 0.67073226 0.98075289
0.71999037 0.68137562 0.98636585
-0.054399479 0.72011822 0.99785411
-0.048749328 0.71909374 0.99666357
0.012527362 0.71214378 0.99878371
0.64643538 0.71743047 0.98245376
-0.021181237 0.75186259 0.99820971
0.058090273 0.7538361 0.99965966
-0.98765767 -0.47397774 1.0396149
-0.91304493 -0.48652035 1.0490118
-0.87615049 -0.48869929 1.0356864
-0.83738232 -0.47358868 1.0256733
0.47869283 -0.46528348 1.0154389
0.48088899 -0.42453957 1.0180253
0.48089364 -0.37569749 1.0177437
0.48024455 -0.32524964 1.0186471
0.48084649 -0.27443579 1.0185621
0.48173812 -0.22441146 1.0206865
0.48293003 -0.19162053 1.0242606
0.71495032 0.083666056 1.0431881
1.0761402 0.087785587 1.0487913
1.1308467 0.096936613 1.049439
1.1874557 0.085307986 1.0498083
1.2154037 0.085300438 1.0478641
1.2792387 0.088788465 1.0462021
-0.77557802 0.14291604 1.0394627
0.44903985 0.14676259 1.0062449
0.4693796 0.13704342 1.0079508
0.54495335 0.12802725 1.0161642
0.55608541 0.12520364 1.0374172
0.7266252 0.12501957 1.0244559
0.77578181 0.12686746 1.0365154
0.81595212 0.12753171 1.0264137
0.87687147 0.1277153 1.0348834
0.92704266 0.1280819 1.0344619
0.97465265 0.12777562 1.0302529
1.0236102 0.1271717 1.032578
1.0704986 0.12830812 1.0185629
1.1284581 0.11967348 1.0385797
1.1775533 0.12397716 1.0331501
1.2261745 0.11186418 1.0466112
1.2669804 0.12190693 1.0400299
-0.77748251 0.18219522 1.0345597
-0.72192079 0.19696492 1.02139
-0.67983568 0.19743006 1.0293995
-0.62955147 0.1982951 1.0295984
0.13996421 0.17573145 1.0494816
0.17688422 0.18132164 1.0477315
0.22593713 0.18026569 1.0447325
0.26616314 0.17348938 1.0281959
0.32262021 0.16487035 1.0004543
0.35885954 0.17670706 1.0013548
0.44727176 0.18019043 1.0066835
0.47470891 0.1754545 1.0039257
0.51352173 0.17923965 1.0013846
0.57383716 0.19809058 1.0006151
0.62400991 0.185012 1.0039003
-0.67041332 0.20118713 1.0112926
-0.62068182 0.20197207 1.0222213
-0.57381094 0.20239528 1.0216554
-0.52391624 0.20373125 1.0258369
-0.47712013 0.20441698 1.0303621
-0.4270581 0.20686153 1.0268542
-0.37568554 0.20872685 1.0242401
-0.3198472 0.21520074 1.0186206
-0.27452582 0.21921116 1.015416
-0.2258212 0.22121844 1.0213954
-0.17563222 0.22296792 1.0211077
-0.12431864 0.224353 1.018272
-0.075535327 0.22535984 1.0204759
-0.025829501 0.22684908 1.0275739
0.02411788 0.23166573 1.0333722
0.072046377 0.22732863 1.0294411
0.12381286 0.22088534 1.0284971
0.17533222 0.21901827 1.0289336
0.2260845 0.2144434 1.0321611
0.2544328 0.2055735 1.0165863
0.44903341 0.20312788 1.0127727
0.47069359 0.20791075 1.0075617
0.52346832 0.20679693 1.0024884
0.57988763 0.22823989 1.0075009
0.62785065 0.22838597 1.0041447
0.58440608 0.27631631 1.0063839
0.62289363 0.27841115 1.0037578
0.8685509 0.29034632 1.0083821
0.58700186 0.3268362 1.0136955
0.62446994 0.32751191 1.0029389
0.65073943 0.32207531 1.0003583
0.88348162 0.33122793 1.0109153
0.58653533 0.37438571 1.013791
0.62522525 0.37438208 1.006323
0.65396774 0.38693538 1.0029981
0.88927197 0.35576463 1.0195662
0.90069389 0.35108614 1.0449963
0.58491749 0.42547947 1.0167162
0.62548953 0.4250226 1.009027
0.65350795 0.42734933 1.0029243
0.88967896 0.44762808 1.0111802
-0.069278196 0.48576322 1.0192014
-0.045923434 0.49363828 1.0216173
0.58428758 0.47516379 1.0148401
0.62502277 0.47439975 1.0107356
0.65373218 0.47451434 1.0038441
0.87509 0.47924212 1.0259629
-0.071151078 0.51691067 1.0419894
0.58337581 0.52450901 1.0168854
0.62571955 0.52406394 1.0125962
0.65299451 0.52246672 1.0045041
0.78291112 0.54124725 1.0421207
0.83038348 0.52792692 1.0348933
0.87035394 0.52325022 1.0182967
-0.20498142 0.5684703 1.0413672
-0.17328691 0.56682295 1.031805
-0.12448888 0.56506997 1.0316051
-0.075083539 0.56600106 1.0320638
-0.024991469 0.56574506 1.0304434
0.02461989 0.56780022 1.0278842
0.060487878 0.57517445 1.0248969
0.5819422 0.57614225 1.0194131
0.62614286 0.57393575 1.0131385
0.65172696 0.57408404 1.00449
0.78215408 0.57246661 1.0249593
0.82072526 0.57325739 1.0201318
0.8662436 0.56743503 1.0327924
-0.1052557 0.63863337 1.0098319
-0.073633455 0.63524824 1.0131751
-0.025811348 0.63394141 1.0097697
0.0056941821 0.63080633 1.0065832
0.062850341 0.61942309 1.0160105
0.57996273 0.62651104 1.0201778
0.62551957 0.62472719 1.0137913
0.65076065 0.62039143 1.0047673
0.79368222 0.62800598 1.0033827
0.83057261 0.63401163 1.0070235
0.85518348 0.62599981 1.0055695
-0.10729185 0.67461234 1.0105424
-0.076612264 0.67461509 1.0146028
-0.026954802 0.6762805 1.01551
0.0072019785 0.67620575 1.0127692
0.061659619 0.66320491 1.0031117
0.57825899 0.67489618 1.0189
0.62633651 0.67449808 1.0116692
0.80886877 0.65273136 1.0067055
-0.10502489 0.70044971 1.0110184
-0.076984368 0.71518177 1.017467
-0.024219833 0.72020757 1.0160505
0.0053321579 0.72393596 1.0160644
0.064711526 0.72780126 1.0359013
0.57637334 0.72075033 1.0175277
0.6226036 0.71876627 1.0106326
-0.051384598 0.79321045 1.0294229
-0.0097081382 0.76988328 1.0229784
0.0049205618 0.76779401 1.021677
0.60828292 0.7524386 1.0274981
-0.057967283 0.80303067 1.0419126
-0.021470735 0.81039172 1.0442466
-1.0019393 -0.48413354 1.0675489
-0.9779228 -0.48414707 1.0808932
-0.92488462 -0.49208662 1.0790055
-0.88015461 -0.48286372 1.0568408
-0.89244652 -0.43512094 1.0881655
0.59370553 0.080627635 1.0983245
0.73773211 0.08144512 1.0582596
0.77711499 0.08322002 1.064484
0.82517511 0.084983401 1.0626101
0.87304521 0.08646208 1.0601314
0.92334682 0.085567579 1.0576464
0.97238296 0.087457828 1.0585341
1.0218043 0.08826229 1.0581417
1.0744649 0.087939039 1.0538539
1.1232035 0.088373445 1.054285
1.1708565 0.093279608 1.0539142
1.2221514 0.090421557 1.0532429
1.2571034 0.092979409 1.0518235
-0.76637888 0.14800511 1.0688714
-0.73613596 0.1489287 1.0747192
-0.63925284 0.14955899 1.0727181
0.74373358 0.10918452 1.0599998
0.77293742 0.11154062 1.0605342
0.82388169 0.11350114 1.0636492
0.87442076 0.11255016 1.0613633
0.92630196 0.11192933 1.0589595
0.97626579 0.11277122 1.0573074
1.02643 0.11264562 1.0560497
1.0768005 0.11115454 1.0571334
1.1195385 0.10947698 1.052125
1.1740628 0.10882667 1.0515953
1.22325 0.10700189 1.0529181
1.2772573 0.10732897 1.0517848
1.3217814 0.10637702 1.0680777
-0.80248231 0.16951506 1.0587745
-0.77665842 0.1738501 1.0670447
-0.72555 0.17587395 1.0715652
-0.6754806 0.17451891 1.071188
-0.62369514 0.17690831 1.0692756
-0.57414168 0.17505825 1.0721182
-0.52539504 0.17781048 1.0725873
-0.4753634 0.17683583 1.0753957
-0.42490089 0.17861673 1.0769351
-0.37588409 0.17889589 1.0766407
-0.32544357 0.17795022 1.0729545
-0.27717704 0.18000484 1.0672709
-0.22491963 0.17944168 1.0645124
-0.17492175 0.17975293 1.0625626
-0.12404966 0.17982547 1.0602579
-0.075354457 0.18140978 1.0590589
-0.026715333 0.18333571 1.0565937
0.0093317432 0.17929475 1.0571972
0.080730997 0.18183793 1.0535086
0.12240583 0.18500867 1.0510509
0.16855893 0.18213429 1.0551091
0.22948453 0.1659773 1.0623612
-0.57236707 0.20067541 1.0531029
-0.51734895 0.20285434 1.0524222
-0.46942368 0.20208152 1.0591581
-0.42256767 0.20294593 1.059309
-0.3726289 0.20478433 1.0597742
-0.32672542 0.20374508 1.063395
-0.27524126 0.20466168 1.0558765
-0.2244215 0.2043528 1.0592123
-0.17432256 0.20497999 1.0574642
-0.12471263 0.20513631 1.0569786
-0.07528463 0.20676357 1.0549437
-0.026736751 0.20642081 1.0547417
0.021938534 0.20761693 1.0557176
0.075292476 0.20669946 1.0546017
0.12645775 0.20690462 1.0523787
0.17302042 0.20762593 1.0516865
0.58846855 0.24286824 1.0575267
-0.20276117 0.33487177 1.0953509
-0.18096565 0.33236206 1.0926312
-0.11328225 0.33438009 1.0929599
-0.076314189 0.33907273 1.0953636
-0.020846762 0.34163392 1.0975245
0.025257226 0.33997452 1.0900259
0.067420729 0.3453874 1.0976202
0.59074575 0.33220574 1.072288
0.60257453 0.32428122 1.0949233
0.039276917 0.35195696 1.0974303
0.052988425 0.36402151 1.098346
0.59287095 0.37590054 1.0766175
0.58721048 0.4274874 1.0723448
-0.20327826 0.49402237 1.0955061
-0.18656994 0.49368948 1.0974655
-0.12212346 0.49703896 1.098763
-0.075056843 0.4883478 1.0691112
-0.033453137 0.4950898 1.0893734
0.020730663 0.49659812 1.0979152
0.070251241 0.49418005 1.0956248
0.59093899 0.47548485 1.0789467
0.86834484 0.48387542 1.0638664
-0.20808606 0.52706599 1.0863675
-0.17819786 0.52801216 1.092669
-0.12295959 0.52850401 1.091543
-0.079029702 0.53674591 1.0584331
-0.025258116 0.5268594 1.083338
0.024050957 0.52672511 1.0918132
0.063614279 0.52438521 1.086665
0.58999842 0.52344257 1.0837063
0.78923333 0.53051639 1.055795
0.8250609 0.52130646 1.06495
0.8555271 0.50523674 1.0827295
-0.21169978 0.56049514 1.0666755
-0.17402717 0.55685866 1.0681732
-0.12740672 0.55779725 1.0650889
-0.074918911 0.55648464 1.0571057
-0.024073636 0.55839801 1.0627259
0.023840258 0.55926591 1.0665276
0.062445264 0.56055874 1.0650753
0.5870524 0.57411766 1.0816243
0.5823701 0.62698978 1.0774302
0.58304322 0.67275798 1.0789815
0.58197063 0.73035926 1.0795128
-0.055089857 0.82737523 1.0580288
-0.029902784 0.82711655 1.0581133
0.032623071 0.82756615 1.0562067
0.052106876 0.82798785 1.058935
-1.1609329 -0.45801759 1.1385087
-0.96047443 -0.48793423 1.1259782
-0.93907535 -0.47981894 1.1245184
-1.1602521 -0.43425772 1.1407837
0.59776592 0.082822576 1.118945
0.60172337 0.08631368 1.1315565
0.60603333 0.11677065 1.1309249
0.61538982 0.26453465 1.1455748
-0.20987922 0.34253252 1.1102509
-0.1753484 0.3428598 1.1051791
-0.12537968 0.34309706 1.1038883
-0.075460769 0.34576598 1.1013721
-0.030600747 0.34635675 1.102239
0.014974068 0.34797534 1.1035312
0.061150093 0.34775546 1.1017718
0.59865326 0.34651145 1.1102813
0.60327381 0.33891255 1.1285229
-0.21063919 0.37447762 1.1210489
-0.17575255 0.37423149 1.1121331
-0.12605408 0.37419236 1.113076
-0.075490363 0.37625784 1.1073552
-0.02603092 0.37585852 1.1077306
0.022640163 0.377042 1.1085777
0.066970386 0.37692145 1.1085875
0.59624112 0.37901327 1.1093515
0.60360473 0.3609986 1.1312455
-0.20840508 0.42518881 1.124777
-0.17406549 0.42645004 1.120133
-0.12545459 0.42434672 1.1210362
-0.075645328 0.42592719 1.1163484
-0.026453037 0.42649505 1.1144741
0.023406278 0.42650551 1.1153892
0.065492362 0.42448506 1.1146544
0.59809613 0.42164254 1.1131504
0.60192525 0.42668954 1.125425
-0.21056871 0.47453031 1.1193573
-0.17252491 0.47322768 1.1113164
-0.12321291 0.47342202 1.1133635
-0.076025881 0.472303 1.1119372
-0.025931207 0.47385043 1.1108168
0.024672264 0.47356576 1.1103193
0.065678686 0.47343332 1.113337
0.59392339 0.48033395 1.1122451
0.60138959 0.4875516 1.1364173
-0.21438938 0.50275987 1.1015506
-0.15980226 0.52265507 1.1014982
-0.13376255 0.51856804 1.1017617
0.074785851 0.50972319 1.1035767
0.59346426 0.52556926 1.1219941
0.60180277 0.50564969 1.1474533
0.58944952 0.57467079 1.1217656
0.5874337 0.62395918 1.1204457
0.58741403 0.68044293 1.1235967
0.58735418 0.72434944 1.1185786
0.58461225 0.76005912 1.1111827
-1.1633284 -0.4667263 1.1814239
-1.0264686 -0.49712962 1.1827861
-1.1661785 -0.4410651 1.1737099
0.59850597 0.08380083 1.1773366
0.60263991 0.083767317 1.1740062
0.54247445 0.1191802 1.184146
0.58223051 0.11985707 1.1834491
0.60969168 0.11678437 1.1753186
0.58606976 0.26268065 1.1974677
0.62473881 0.27159235 1.1712016
0.65210229 0.28164336 1.1696663
0.62915879 0.31868681 1.184323
0.6222899 0.36737925 1.1826739
0.62443769 0.4078888 1.1927996
0.61032933 0.49137124 1.1708417
0.61184454 0.51038766 1.1763942
0.59741843 0.57675946 1.1536641
0.61252278 0.57582766 1.1918575
0.59261101 0.62045431 1.1511798
0.6101281 0.6492483 1.1996469
0.5968048 0.68028176 1.162466
0.60476959 0.67602777 1.1890233
0.59865189 0.71934563 1.1777201
0.60228384 0.71345788 1.189925
-1.1008416 -0.5007512 1.2318207
-1.0702928 -0.50420535 1.2350709
-1.0465009 -0.5011012 1.2236925
-1.1547157 -0.47508776 1.2099735
-1.140678 -0.47395682 1.2322582
-1.027601 -0.49364844 1.2241594
-1.1609575 -0.4432787 1.2147871
-1.1452839 -0.44561505 1.2328546
0.59591734 0.081075698 1.2239143
0.60044056 0.088369288 1.2228677
0.58285916 0.11461113 1.2252034
0.61078715 0.10565034 1.2246058
0.58859354 0.2848151 1.2136513
0.61812061 0.28482017 1.208395
0.58844793 0.32337025 1.2147133
0.6194855 0.32490984 1.2115241
0.66363829 0.33233669 1.2266651
0.59031844 0.3745321 1.2168409
0.61831498 0.37594667 1.2141973
0.58994752 0.42396992 1.2215723
0.61783248 0.42617834 1.2173512
0.58811134 0.47242135 1.2227603
0.6164307 0.47614348 1.2203658
0.5869872 0.5230124 1.2233948
0.61431307 0.52368921 1.219681
0.58452761 0.57515252 1.2250335
0.61214781 0.57207155 1.2203287
0.58445138 0.62601876 1.2232368
0.61004138 0.62513512 1.217689
0.5815227 0.67482609 1.2219417
0.60728395 0.67682338 1.2162688
0.57928157 0.71911019 1.2181938
0.60402608 0.71840686 1.209843
-1.1191823 -0.50480807 1.2699106
-1.0859246 -0.5035454 1.2632807
-1.1191115 -0.47592074 1.2765224
-1.0804045 -0.48824099 1.2869893
-1.1230989 -0.4479796 1.2771741
0.58912921 0.085966215 1.2694669
0.58656514 0.10469027 1.2612604
-0.54425454 0.17339657 1.2823603
-0.45844632 0.18152305 1.2971337
-0.41282275 0.17355756 1.29641
0.58553302 0.28876936 1.273272
0.60245454 0.30052027 1.2835431
0.599069 0.38058206 1.2777308
0.60391939 0.38702619 1.2873138
0.59278834 0.41600952 1.2649031
0.60153103 0.42387182 1.282091
0.60504252 0.47389984 1.2924954
0.59607476 0.51898575 1.2800547
0.60061294 0.52794749 1.2929955
0.59750336 0.63140035 1.2947624
0.58354443 0.6773268 1.282298
-1.1336637 -0.4505786 1.3218991
-1.0918634 -0.46791559 1.3046961
-1.1050653 -0.44791397 1.3099759
-0.458419 0.17916729 1.3176622
-0.32930776 0.18630104 1.3326856
-0.28910202 0.18300122 1.3410436
-0.2032412 0.19518605 1.3442571
-0.16342412 0.18128169 1.3423862
-0.07989832 0.19960018 1.3381352
-0.033875316 0.18729042 1.3447356
0.091978014 0.19363362 1.3415422
-0.069603771 0.20085469 1.3469484
0.60728252 0.31993079 1.3082553
0.60552168 0.38655928 1.322069
0.6074692 0.42977113 1.3242786
0.6063 0.48017371 1.3209971
0.59607983 0.53156704 1.3051153
0.60473567 0.51720124 1.3279399
0.59857005 0.55980402 1.3173668
0.60249239 0.57698923 1.3211623
0.59898806 0.63365823 1.3293417
0.60337412 0.62225461 1.3271416
0.59744793 0.66831803 1.3175375
0.60142046 0.6706543 1.3326969
0.59521925 0.732813 1.3214958
0.59595066 0.76625025 1.3343042
-0.30905947 0.18472904 1.3597482
-0.27621242 0.18764913 1.3600594
-0.2260464 0.18814324 1.3627422
-0.17758226 0.19130105 1.3582166
-0.1263631 0.19373001 1.3634875
-0.073614046 0.19306009 1.3612781
-0.026956461 0.19585267 1.3645064
0.024779873 0.19808118 1.3742825
0.067166284 0.196676 1.3636256
-0.053858541 0.20250651 1.3585253
-0.024525782 0.20334807 1.3646944
0.024894685 0.20535734 1.378166
0.074262992 0.20472808 1.3727825
0.10017606 0.20360814 1.3642087
0.60818398 0.39733231 1.359449
0.6117245 0.42107111 1.3625791
0.61161149 0.48441607 1.3565552
0.613015 0.5294801 1.3676186
0.60988736 0.56418031 1.3701003
0.60627013 0.63040298 1.3602521
0.60592806 0.68631715 1.3607376
0.61169684 0.70528078 1.3919215
0.60394698 0.76780099 1.3779441
0.61511147 0.69772846 1.4041491
-1.4127893 -0.52886254 1.5386719
-1.4501288 -0.45146337 1.5275146
-1.4467889 -0.45344564 1.5420945
-1.4610114 -0.43545365 1.5437891
-1.4453064 -0.44333386 1.5429333
1.2339736 0.0093214652 1.5490357
1.3255807 0.54487282 1.5295457
-1.4608289 -0.52829462 1.5766824
-1.4415926 -0.53164804 1.582242
-1.4584181 -0.43275109 1.5604637
-1.4483922 -0.43072376 1.5875417
0.8218106 -0.29371625 1.5779228
0.79266536 -0.0079938648 1.5784014
1.2419211 -0.0085845944 1.5590364
1.2718617 -0.0086137336 1.5531936
1.2333555 0.004851108 1.5567493
1.2752421 0.0043157306 1.5610298
1.3063109 0.009625745 1.5691346
1.3292967 0.27142182 1.577089
1.3380401 0.39697623 1.5744258
1.3431032 0.4201951 1.5811081
1.3411019 0.53789109 1.5804496
0.69688886 0.5610351 1.5894264
1.2143371 0.58296353 1.5973425
1.3464704 0.56513119 1.575868
1.3525537 0.57547748 1.5825624
1.1947693 0.63423181 1.5916212
1.3396587 0.60135365 1.5883933
1.3591515 0.62027365 1.5946647
1.4124339 0.63114798 1.5929441
2.0754633 0.62918288 1.5886445
0.69469953 0.67566657 1.5993588
1.1934825 0.68115473 1.5936457
1.2981998 0.68714046 1.5822353
1.3404295 0.66470325 1.587809
1.1964359 0.74081343 1.5966034
1.2076358 0.7466234 1.5907804
2.1113966 0.71242154 1.5940747
0.68245625 0.77526689 1.5836757
1.1923482 0.75257343 1.5854603
2.1177335 0.77945912 1.5992342
0.68563896 0.83266419 1.5972118
2.0044489 0.85927963 1.5984221
2.0903029 0.89272261 1.5994626
2.0321331 0.90475345 1.5956757
2.0640676 0.92576212 1.5952585
0.78109044 0.98527217 1.5763108
2.0487156 0.96971321 1.596212
2.0618873 0.95191586 1.5937852
1.9990829 1.0056893 1.5996062
2.0123184 1.0367416 1.5992024
2.0179005 1.0518489 1.5980663
1.3846976 1.1819829 1.5958277
1.8594567 1.1753118 1.5989995
-1.4760401 -0.53795171 1.6420286
-1.4254429 -0.54052567 1.6391934
0.87558329 -0.30348027 1.6257318
0.74504542 -0.25027549 1.6258684
0.77990025 -0.26423359 1.6304237
0.82314587 -0.27350006 1.6267525
0.87308961 -0.28318909 1.6348056
0.74729943 -0.22167775 1.6336892
0.77387041 -0.2247124 1.6439289
0.82353371 -0.22471336 1.643746
0.87416404 -0.22657394 1.6374524
0.74776548 -0.17581293 1.6387031
0.77689052 -0.1733762 1.6435602
0.82477558 -0.17373607 1.6457651
0.87638623 -0.17637064 1.6422127
0.7413761 -0.14937533 1.6264693
0.77709454 -0.12199627 1.6425765
0.82733458 -0.12318829 1.6440659
0.87734604 -0.12423179 1.6421257
1.0353419 -0.10569907 1.6337601
1.0752541 -0.10657308 1.6321683
1.1229607 -0.1077102 1.6312037
1.1783552 -0.10536965 1.6346091
1.2278082 -0.10682197 1.6380007
1.2804757 -0.10688552 1.634266
1.3026664 -0.10322504 1.6327592
1.7341812 -0.10574192 1.6424596
1.7752595 -0.1068939 1.6408873
1.8180177 -0.10811171 1.6394475
1.8749909 -0.10979521 1.6389111
1.9039155 -0.11013988 1.6228583
1.9710788 -0.10696439 1.6381985
2.0204697 -0.10833119 1.6368933
0.7761476 -0.07203722 1.6412293
0.825086 -0.071957819 1.6417371
0.87529141 -0.072599098 1.6404822
1.0338171 -0.076905549 1.6416401
1.073771 -0.075502045 1.6414679
1.1269624 -0.076596633 1.6417111
1.1774887 -0.074175693 1.6398046
1.2258003 -0.073788173 1.641863
1.2735653 -0.074661203 1.6417229
1.3245395 -0.077188581 1.638796
1.3748507 -0.074049398 1.6427567
1.4258354 -0.073937342 1.6437957
1.4766481 -0.0732539 1.6450739
1.5212189 -0.076399304 1.6455479
1.5737753 -0.071499437 1.6448828
1.6257361 -0.075917877 1.643747
1.6765128 -0.071700282 1.6448652
1.7265747 -0.076114394 1.6449015
1.7752371 -0.07456784 1.6422977
1.8231595 -0.074556597 1.6428241
1.8732673 -0.079059534 1.6387939
1.9205914 -0.074653476 1.638685
1.9714994 -0.072862945 1.6399823
2.016263 -0.07362479 1.6349511
0.8404879 -0.011157796 1.6402436
0.87276495 -0.013757282 1.6368432
1.0772122 -0.044324972 1.6372739
1.130626 -0.045007143 1.644522
1.1781745 -0.045417212 1.6403285
1.2256244 -0.04597171 1.6424522
1.2748101 -0.046556108 1.644194
1.3245878 -0.047128409 1.6440722
1.3767602 -0.047749955 1.6439998
1.4214511 -0.048255701 1.6417526
1.4674841 -0.048949312 1.6479478
1.5165409 -0.049545944 1.6460881
1.5509378 -0.049982902 1.6453539
1.6878245 -0.0413769 1.6497879
1.8392308 -0.010029802 1.6410608
1.882327 -0.043502938 1.6479654
1.9777827 -0.035897326 1.6408973
2.0159049 -0.027643396 1.6357001
0.83507365 0.014788239 1.6373097
0.87214214 0.016108839 1.6389979
1.7897481 0.022522599 1.6468605
1.8257998 0.015805125 1.6408941
1.9831644 0.026471261 1.6390446
2.0106909 0.024123684 1.6314151
0.82789576 0.072584227 1.6330317
0.86588097 0.072506145 1.6324257
1.7892094 0.087491825 1.6443791
1.8269681 0.085570969 1.6381192
1.8616143 0.081787653 1.6351224
1.9865862 0.06206112 1.6387299
2.0178194 0.064525612 1.6362766
1.2967511 0.27645403 1.6448038
1.3237587 0.28179809 1.6342551
1.3532785 0.28029737 1.6418601
1.7715483 0.29025352 1.6478348
1.8164564 0.29772073 1.6478893
1.8751549 0.28762642 1.6476129
1.9142838 0.29079279 1.6469759
1.9632478 0.29480574 1.6467201
2.0287745 0.28839132 1.6462507
2.0522063 0.29401362 1.6435125
1.2825499 0.30862945 1.6400548
1.3220165 0.31903893 1.6468868
1.355433 0.3298673 1.6430013
1.5996422 0.33255056 1.648849
1.601742 0.34337449 1.6491455
1.6870298 0.31924093 1.6484356
1.7318286 0.33698219 1.6476362
1.7703635 0.32211375 1.647292
1.8361076 0.33088785 1.6480846
1.8758917 0.32254359 1.6460966
1.9216783 0.32372189 1.6446985
1.9732305 0.32828301 1.6428499
2.0296268 0.32096753 1.645049
2.0561097 0.32977203 1.6411811
1.290518 0.36984801 1.6475852
1.3301665 0.37846464 1.6422786
1.3550436 0.37469229 1.6389419
1.7245611 0.37533858 1.6484385
1.7784371 0.36642194 1.6462981
1.8306665 0.36654922 1.6490477
1.8882351 0.37229964 1.6461685
1.9277471 0.37243712 1.6447822
1.9842092 0.3724654 1.6444229
2.0250905 0.37301543 1.6425356
2.0711868 0.37951514 1.6449862
-1.1261029 0.42351064 1.6382164
-0.62800217 0.42862999 1.646139
-0.52904689 0.44827867 1.6439135
-0.44111434 0.44329751 1.6424917
-0.35745242 0.44132346 1.6488018
1.2816491 0.4262189 1.6472416
1.3253988 0.42168942 1.6341738
1.3591177 0.42149428 1.6355244
1.6991318 0.44104588 1.649748
1.7399206 0.44060981 1.6497705
1.7742678 0.42081508 1.6464856
1.8172835 0.43288469 1.6468735
1.8761002 0.42296878 1.6479076
1.9172739 0.42655072 1.6435909
1.9697151 0.41758198 1.6451235
2.0252738 0.42707878 1.6454332
2.0696704 0.42918399 1.6431741
-0.3553527 0.47124374 1.632858
0.34167975 0.45292091 1.6304716
0.37252143 0.45599222 1.6372131
0.41641775 0.46105471 1.6488434
0.59418488 0.45558318 1.6226865
0.62773263 0.46197611 1.6387153
0.67212939 0.46656886 1.6441644
0.70536298 0.48381341 1.6392412
1.2790868 0.46576643 1.6463664
1.3448402 0.48062944 1.6493967
1.363028 0.47079536 1.6449821
1.7366723 0.47921327 1.647491
1.7821755 0.47400141 1.6468935
1.8193583 0.47320867 1.6463313
1.878801 0.47794113 1.6481924
1.9231081 0.47547004 1.646794
1.9791698 0.48071507 1.6454407
2.0305076 0.4820621 1.6457841
2.0750225 0.46945316 1.6426808
2.10326 0.48745531 1.6492569
0.71256214 0.52604336 1.6429315
1.2326961 0.54195845 1.6259811
1.2639165 0.52528727 1.645552
1.3610898 0.52077621 1.6370666
1.7314262 0.53171283 1.6491045
1.7665181 0.5146575 1.6471512
1.8204185 0.53195584 1.645633
1.8765984 0.53066069 1.647835
1.9206369 0.52315348 1.6447355
1.9763558 0.52717787 1.6472778
2.0189712 0.52633256 1.6438884
2.0700893 0.52245092 1.641855
2.1057208 0.53009146 1.6411003
-0.32661667 0.59177738 1.6307353
0.13224095 0.58589917 1.6330737
0.54081315 0.58959478 1.6460661
0.57524103 0.58594781 1.645177
0.62514693 0.58901018 1.641392
0.67451847 0.58265793 1.6389881
0.70877784 0.56924468 1.6356125
1.2245959 0.56010729 1.6222275
1.272893 0.58473271 1.6434819
1.3190905 0.59367329 1.6295166
1.3601074 0.57757044 1.6350626
1.7291336 0.56177604 1.648653
1.7702249 0.57599163 1.6475925
1.8219044 0.57972032 1.647447
1.8756037 0.57658666 1.6454862
1.9230559 0.57132953 1.6453512
1.975633 0.57802445 1.6433264
2.032629 0.5753386 1.6428392
2.0806541 0.57253647 1.6400112
2.1173944 0.56934482 1.6409048
-0.33015633 0.6148302 1.6441107
0.1337107 0.6088534 1.6471158
0.54321504 0.62886792 1.6456066
0.57423431 0.62425995 1.6434288
0.62598997 0.62767208 1.6420277
0.67645437 0.62561131 1.6379528
0.70321858 0.62286419 1.6261773
1.2323267 0.62450331 1.6194913
1.2768279 0.62217152 1.631386
1.3255578 0.62420207 1.6360109
1.3551668 0.62505138 1.6235523
1.6937349 0.63706917 1.6406536
1.7241814 0.63415301 1.6358163
1.7789992 0.63693178 1.6335293
1.8246424 0.6345551 1.6328595
1.8763082 0.6370061 1.6350768
1.9228985 0.63732761 1.6314542
1.9754492 0.62558848 1.6281081
2.0238779 0.62344235 1.6223388
2.0754139 0.62019742 1.6226937
2.1180015 0.61182266 1.6298831
0.54242331 0.67617363 1.643479
0.57571644 0.67762083 1.6415547
0.62473142 0.67288744 1.640765
0.6755504 0.67776352 1.635226
0.70370674 0.66709822 1.6254932
1.2307224 0.67674935 1.619891
1.2744882 0.67298585 1.6270633
1.3261219 0.67883289 1.6268629
1.3567284 0.66121036 1.6181417
1.6734928 0.67407018 1.6359706
1.7252878 0.67572451 1.6286882
1.7781255 0.67190135 1.627876
1.8244027 0.67538178 1.6285758
1.8722649 0.67596358 1.6267729
1.9270834 0.67847717 1.6240504
1.974365 0.66973346 1.6163967
2.022356 0.67733628 1.6107897
2.072119 0.6761539 1.6124171
2.118309 0.67851168 1.6105908
0.53978878 0.72590959 1.6435273
0.57388711 0.72587204 1.6410804
0.62460256 0.72366077 1.6393026
0.6782214 0.72446078 1.6322249
1.2301974 0.72750777 1.6158432
1.2719229 0.71766478 1.6226045
1.6381561 0.7323513 1.6265942
1.6774014 0.72004884 1.6270435
1.7219813 0.72632515 1.6238852
1.7755008 0.72005045 1.6246978
1.8274345 0.72667456 1.6248034
1.8751436 0.72206432 1.6215757
1.9242516 0.72903615 1.6243017
1.9728504 0.72368389 1.6168061
2.0262594 0.72901613 1.6129087
2.0735984 0.72773033 1.6105119
2.1220801 0.72533977 1.6115905
-0.33971414 0.79076821 1.6435988
0.53903246 0.77052635 1.6399747
0.5763737 0.77650249 1.6392086
0.62539393 0.77239293 1.6387126
0.67583311 0.77515751 1.6328564
1.6289148 0.77953976 1.62514
1.6744879 0.77493459 1.6219858
1.727191 0.77248108 1.6202774
1.7789714 0.77687496 1.6220344
1.8247107 0.77304953 1.620319
1.873621 0.77832294 1.6240104
1.9245415 0.77438152 1.6250948
1.9805219 0.77473378 1.618964
2.0239129 0.77717429 1.6096137
2.0725489 0.77990556 1.6138039
2.1215494 0.77377319 1.6072036
0.12866165 0.83102465 1.6252303
0.53788376 0.82433611 1.6422658
0.57421196 0.8252849 1.6384444
0.62485689 0.82372952 1.6375813
0.67466521 0.82683122 1.6328768
1.5384414 0.84820223 1.6030296
1.5828084 0.83271807 1.6123403
1.6285849 0.81929427 1.6186191
1.6765257 0.82619578 1.6223246
1.7253017 0.82588881 1.6199088
1.7716593 0.82585412 1.6204869
1.8231708 0.82521588 1.6210672
1.8747655 0.82633752 1.6210734
1.9241965 0.8272472 1.6222018
1.9780033 0.82581979 1.6196067
2.0195575 0.8279072 1.6089847
2.0767956 0.82622564 1.6120809
2.1186883 0.82713574 1.6053309
0.13051337 0.86012101 1.6421909
0.53626657 0.87648284 1.641011
0.57302397 0.87600416 1.6372634
0.6261766 0.87570345 1.6364698
0.67362839 0.87361044 1.6296924
1.4405332 0.87082952 1.6188836
1.4747974 0.87664467 1.622265
1.5284859 0.88456088 1.6211938
1.5778784 0.87481368 1.6186481
1.6273708 0.87439233 1.6207234
1.676196 0.87648135 1.6199474
1.7289429 0.87480801 1.6213677
1.7769954 0.87475747 1.6193312
1.8277613 0.87288892 1.6183043
1.8806617 0.8728255 1.6203154
1.9234662 0.87781012 1.6177512
1.9709268 0.86935955 1.611655
2.0273218 0.87739795 1.6057215
2.0806794 0.87830323 1.6120293
2.1105273 0.86549008 1.6061491
0.53855097 0.92236441 1.638471
0.57642597 0.92481786 1.6380473
0.62273008 0.92687351 1.6365727
0.67261058 0.92463869 1.6321923
0.70387751 0.9479267 1.6285219
1.4447169 0.92185175 1.6231601
1.4765487 0.92611796 1.6259093
1.5283622 0.92511451 1.6262785
1.5747524 0.92610949 1.6223056
1.6233038 0.92842931 1.6207876
1.6747515 0.92671174 1.6204869
1.7208649 0.92199665 1.6159301
1.7757672 0.92762619 1.6204779
1.8270037 0.92486447 1.6201664
1.8751746 0.92577809 1.6157403
1.9265705 0.92015332 1.6151446
1.9749107 0.92169082 1.611565
2.0220425 0.92825603 1.6069003
2.07429 0.92131978 1.6030308
-0.3416875 0.96588349 1.6376801
0.53776795 0.97008306 1.6397777
0.57344049 0.97332299 1.6374457
0.6238566 0.97792065 1.6380123
0.67368048 0.97452146 1.6356122
0.71563733 0.97970945 1.6330402
1.4450847 0.96598625 1.6248121
1.4785552 0.97666973 1.6288216
1.5280042 0.97533154 1.6250802
1.5748676 0.97642356 1.6205909
1.6259186 0.9760294 1.6191584
1.6744322 0.97210264 1.6168537
1.7198758 0.97871506 1.6184207
1.7744935 0.9730857 1.6165377
1.8260108 0.97580719 1.6173278
1.8695208 0.97203118 1.6139592
1.9258473 0.97031629 1.6144347
1.9780644 0.97435409 1.6098553
2.0251093 0.97245497 1.6030362
0.11677587 1.0224253 1.6338152
0.53679943 1.0247406 1.6404102
0.57558 1.0260465 1.6388648
0.62557119 1.0246923 1.639086
0.67503023 1.0250877 1.6396391
0.72391653 1.0239652 1.636474
0.77196622 1.0307734 1.631924
0.80511284 1.0392624 1.6319014
1.3416013 1.0468768 1.6141713
1.4757453 1.0238007 1.6258305
1.525985 1.0273706 1.6246684
1.5739017 1.0288277 1.622043
1.625986 1.0281476 1.6227083
1.6730398 1.0224417 1.6199251
1.7241873 1.0274744 1.6163642
1.7695719 1.0217761 1.6171629
1.8232484 1.0231717 1.6137381
1.8747514 1.0272421 1.6152866
1.9258807 1.0205635 1.6176487
1.9762932 1.0257181 1.6086302
2.0331964 1.0197871 1.6048865
0.11809958 1.0518078 1.64379
0.53533411 1.0740819 1.6403846
0.57465172 1.0771098 1.6415114
0.6249494 1.074626 1.6413195
0.67733347 1.0737748 1.642478
0.72584683 1.0759095 1.641345
0.77457547 1.0773864 1.6399351
0.80470884 1.0689942 1.6327766
1.2887295 1.0847287 1.6284289
1.3246702 1.0779688 1.6252474
1.3663687 1.0754136 1.6161952
1.4492183 1.0696057 1.6231269
1.4779356 1.0747124 1.6250451
1.523029 1.0712137 1.6206067
1.5760884 1.0740035 1.6205974
1.6264918 1.0745726 1.6206642
1.675931 1.0743881 1.617097
1.7224549 1.0747409 1.620506
1.7724957 1.0762603 1.6193933
1.8247969 1.0670656 1.6144332
1.8769149 1.0782366 1.6092299
1.9290711 1.076003 1.6132489
1.9720325 1.0712029 1.6110755
2.007148 1.0792487 1.6053219
-0.33604431 1.1342711 1.6353297
0.53647143 1.1228758 1.6416593
0.57416779 1.1267691 1.6411096
0.62403548 1.1259773 1.64275
0.67453814 1.1245248 1.6437329
0.7257337 1.1233172 1.6419369
0.77531904 1.1264488 1.6426319
0.81825769 1.1257876 1.6396434
1.2432244 1.1366856 1.6322513
1.2799807 1.1313719 1.636892
1.3261831 1.1231084 1.6358365
1.3758093 1.126478 1.6241226
1.474709 1.1265999 1.6262956
1.5254978 1.1231022 1.626941
1.5715687 1.1253755 1.6222668
1.6197189 1.1194026 1.6183751
1.6763061 1.1253219 1.6199059
1.7247961 1.1211207 1.615777
1.7779565 1.1268684 1.6181457
1.8214667 1.1229963 1.616062
1.8738878 1.1250024 1.6132619
1.9235532 1.1284635 1.6130801
1.969026 1.1190367 1.611074
2.0009968 1.1048527 1.6024134
0.11270487 1.1823902 1.6462684
0.53819358 1.1730324 1.644536
0.57581598 1.1757399 1.6442508
0.62132001 1.1757206 1.6446202
0.67306751 1.1742361 1.6441112
0.72640806 1.1718941 1.6438931
0.77737319 1.1785476 1.6461518
0.82595193 1.1717039 1.6457512
0.86725289 1.1808501 1.6376088
0.90784734 1.1978433 1.6182413
1.1876171 1.1702077 1.6253395
1.2296567 1.1774284 1.6394777
1.2730612 1.1755303 1.6369801
1.3233255 1.1741225 1.6354636
1.3720386 1.1754301 1.6268471
1.4806464 1.1771815 1.6250017
1.5283436 1.171037 1.6247702
1.5841329 1.177487 1.6249968
1.62913 1.1769559 1.6202072
1.6766726 1.1727755 1.6228858
1.7230113 1.1748345 1.6230164
1.7697693 1.1713791 1.6167313
1.8235476 1.1754744 1.6126498
1.8769529 1.1699972 1.6086493
1.9357935 1.1706737 1.6135694
1.9610915 1.1740716 1.6081851
0.53630108 1.2247559 1.6462963
0.57511234 1.2236643 1.6451855
0.62375802 1.2211231 1.6466984
0.67936951 1.2235364 1.6476483
0.71582967 1.223104 1.6460458
0.7753433 1.2267616 1.646824
0.82135695 1.2156357 1.6491133
0.89175475 1.2095512 1.6459104
0.92563647 1.2253737 1.6369797
0.97324604 1.2289102 1.6322185
1.0221642 1.2254875 1.6286736
1.0633137 1.2425286 1.6395695
1.1866187 1.2197081 1.628333
1.2258214 1.2239872 1.6389289
1.2785695 1.2248037 1.6362405
1.3260943 1.2227877 1.6340146
1.3703918 1.2225741 1.627425
1.4095283 1.2416068 1.6357675
1.4804527 1.226889 1.6288356
1.5228354 1.2251468 1.6264046
1.5728691 1.222742 1.625723
1.6285422 1.2283926 1.6238546
1.6795692 1.2229605 1.622884
1.7230501 1.2232621 1.6236659
1.7727127 1.2240994 1.6178029
1.823103 1.2218009 1.610181
1.8783818 1.230827 1.6206468
1.9192759 1.2219397 1.6124089
0.10517368 1.2529014 1.6428832
0.53754479 1.2754061 1.6472884
0.57371086 1.271628 1.6477108
0.62077135 1.2718663 1.6478395
0.67303008 1.2755032 1.6479676
0.72388619 1.2726865 1.6478052
0.77052629 1.2772759 1.6495347
0.82214797 1.2883005 1.640596
0.88282424 1.2871925 1.6465163
0.90018213 1.2960824 1.6448493
0.97324085 1.2675356 1.6465452
1.0348189 1.2765912 1.6452357
1.08061 1.2808933 1.643162
1.1942562 1.2726064 1.6424532
1.2233422 1.2719685 1.6390283
1.2744435 1.2726446 1.636344
1.3261482 1.2805296 1.6316526
1.3720905 1.2700163 1.6310004
1.4216406 1.2814933 1.6337954
1.4796078 1.2767807 1.6302353
1.5245857 1.2725163 1.624386
1.5729917 1.2744733 1.628798
1.6261574 1.277606 1.6272383
1.6730779 1.2736251 1.6198194
1.7302834 1.2794436 1.6228319
1.7741704 1.2695929 1.6169269
1.8326713 1.2780722 1.6212548
1.8689736 1.2740726 1.6091528
1.902701 1.2579069 1.6063116
0.53721845 1.3178629 1.6474689
0.56987435 1.3220695 1.6481347
0.6242885 1.3132399 1.6489065
0.68172878 1.3323747 1.6495899
0.71713907 1.3199335 1.6470639
0.76591337 1.3114089 1.6482289
0.82969517 1.3095671 1.6408571
0.87582242 1.3157536 1.6465539
0.91391796 1.3011249 1.6463405
0.96163923 1.3174222 1.648932
1.0162349 1.3243505 1.6460613
1.0740256 1.325103 1.6458085
1.120927 1.3223933 1.6418072
1.1771266 1.3291962 1.6435207
1.2269428 1.3229321 1.6416183
1.2793548 1.325442 1.6377473
1.3265207 1.3294922 1.6380557
1.3771865 1.3251725 1.6336008
1.4235028 1.3233082 1.6262804
1.4727068 1.3264337 1.6297596
1.5221556 1.3236253 1.6259453
1.574421 1.3229519 1.6290239
1.6275494 1.3234847 1.6241155
1.6830683 1.3253516 1.6233839
1.723175 1.3244821 1.6202564
1.7707652 1.3250058 1.6194196
1.8263838 1.3224604 1.6185719
1.8665478 1.321882 1.6113428
0.52554709 1.3624909 1.6439241
0.56002176 1.3744507 1.6499658
0.62796724 1.3715777 1.6454781
0.66738737 1.3757501 1.6480422
0.73042345 1.3603532 1.6464198
0.75350314 1.3604659 1.6484504
0.81012762 1.3843312 1.6483078
0.86502063 1.3692575 1.6470761
0.92537647 1.3901198 1.6498089
0.99254638 1.3817092 1.6465784
1.0321918 1.3699602 1.6475259
1.074671 1.3699319 1.6462196
1.1240033 1.3740735 1.6431571
1.1746371 1.3762932 1.6413736
1.224829 1.3709857 1.6380028
1.2717291 1.3744851 1.6378801
1.328138 1.3744826 1.6366768
1.3775742 1.3758476 1.6335812
1.424734 1.3774277 1.6363972
1.4712329 1.3763652 1.6304713
1.5236526 1.3749706 1.6297494
1.5779616 1.3690822 1.6248696
1.6313252 1.3785051 1.6291615
1.6710175 1.3711433 1.6228561
1.7234437 1.367532 1.6190206
1.7772044 1.3766798 1.6207627
1.8248174 1.37006 1.6160237
0.69415557 1.4041873 1.6457204
0.79130161 1.4328228 1.6466565
0.81394958 1.4292015 1.6467896
0.88649529 1.4196857 1.647967
0.94692445 1.4278185 1.6481074
0.97170532 1.4276676 1.6472235
1.0257142 1.426154 1.6487249
1.0732672 1.4229076 1.6462902
