ply
format ascii 1.0
comment PCL generated
element vertex 1476
property float x
property float y
property float z
element camera 0
property float view_px
property float view_py
property float view_pz
property float x_axisx
property float x_axisy
property float x_axisz
property float y_axisx
property float y_axisy
property float y_axisz
property float z_axisx
property float z_axisy
property float z_axisz
property float focal
property float scalex
property float scaley
property float centerx
property float centery
property int viewportx
property int viewporty
property float k1
property float k2
end_header
-0.32461053 -0.12426665 0.87801158
-0.27582127 -0.1249091 0.87587059
-0.22415595 -0.12431439 0.87554604
-0.17920591 -0.12193502 0.8986544
-0.12028836 -0.12295787 0.89460963
-0.075017989 -0.1247204 0.88211262
-0.026633125 -0.12451237 0.86894298
0.020618267 -0.1265917 0.85604411
0.34615976 -0.12933493 0.8519522
0.49792501 -0.12137447 0.85602045
0.50195348 -0.11768643 0.85391289
0.72228515 -0.12793855 0.88168758
-0.67393363 -0.074835062 0.88389397
-0.62472701 -0.076977506 0.89041841
-0.57490563 -0.074628882 0.89046204
-0.52472067 -0.075384572 0.88818282
-0.4746218 -0.073226951 0.88475156
-0.4248127 -0.075779907 0.88120574
-0.37475324 -0.075569481 0.87782192
-0.3247017 -0.074307807 0.87515163
-0.27446374 -0.07503365 0.87301952
-0.22322427 -0.074654125 0.87361437
-0.17327851 -0.072184816 0.89714199
-0.12305439 -0.074689478 0.89231455
-0.074954331 -0.07391458 0.87886512
-0.025459949 -0.075981937 0.86564177
0.015631981 -0.076434791 0.8542859
0.34681201 -0.082046986 0.85762089
0.36180663 -0.064022787 0.85393029
0.49556032 -0.070960194 0.85534692
0.50278956 -0.08630234 0.85366738
0.72803712 -0.094970278 0.88744366
-0.67139041 -0.025875699 0.88162678
-0.62547743 -0.026652778 0.88921762
-0.57568735 -0.026411375 0.88927728
-0.5245859 -0.025820604 0.88624096
-0.47378913 -0.025492325 0.88241446
-0.42310017 -0.026546683 0.87883961
-0.37394071 -0.027052309 0.87537229
-0.3242628 -0.025581254 0.87272942
-0.27347362 -0.025708707 0.87076348
-0.2237152 -0.02542734 0.86993706
-0.17302524 -0.026277738 0.89531684
-0.12413122 -0.02533282 0.8897658
-0.074256472 -0.025337204 0.87553859
-0.025785811 -0.02677487 0.86257339
0.009100101 -0.029386301 0.85340911
0.36723787 -0.0085510798 0.851246
0.49615887 -0.024596335 0.85891294
0.50980222 -0.027662616 0.85802537
-0.67410862 0.023345441 0.87487566
-0.6255092 0.025019109 0.88528126
-0.57365888 0.023895044 0.88573813
-0.52292991 0.023865344 0.8829093
-0.47494459 0.023090458 0.87988663
-0.42502019 0.024121063 0.87660116
-0.37507376 0.024902804 0.87311751
-0.32473531 0.023937559 0.87062973
-0.27465001 0.023264905 0.86922538
-0.2251817 0.023624668 0.86905473
-0.17374399 0.023760475 0.89354283
-0.12476566 0.023451487 0.88751525
-0.073681608 0.02394052 0.87250072
-0.025697442 0.024621971 0.85953629
0.0036892882 0.019391956 0.851798
0.36780423 0.0065287082 0.852543
0.49582583 0.022404075 0.86246109
0.51121616 0.023995023 0.85957223
-0.66675705 0.074146844 0.86895227
-0.62353319 0.075552002 0.87848455
-0.57495773 0.07537578 0.8803705
-0.52519929 0.074773952 0.87876111
-0.47527725 0.074061945 0.87636209
-0.42479289 0.076084606 0.87390929
-0.37489375 0.075264096 0.87107575
-0.32423505 0.074933611 0.86877328
-0.27326658 0.075192295 0.86753809
-0.22416764 0.073942535 0.86839116
-0.17374748 0.07556925 0.89159745
-0.1249701 0.074546114 0.88471347
-0.074506082 0.074685887 0.87010843
-0.025834324 0.075734019 0.85705572
0.0020502466 0.064074412 0.85082984
0.3629728 0.064687066 0.85088634
0.49527794 0.071228445 0.85894644
0.50779939 0.071660206 0.85769159
-0.62528414 0.10335875 0.88012022
-0.57426029 0.10282915 0.88055617
-0.52115917 0.10388131 0.87738776
-0.4742122 0.10350209 0.87639058
-0.42072779 0.10432021 0.87318081
-0.37527329 0.10411755 0.87108111
-0.32673037 0.10513479 0.87038267
-0.27378502 0.10524705 0.8676548
-0.22533724 0.10610022 0.86841768
-0.17403825 0.10595562 0.8910408
-0.12352007 0.10635781 0.88378733
-0.0741207 0.10626187 0.86998433
-0.026385807 0.10690601 0.85702133
0.029820638 0.11513454 0.85638899
0.33954507 0.11313625 0.86254263
0.35901105 0.13193458 0.85770094
0.49423942 0.11804079 0.86954343
0.52103502 0.1230641 0.87320918
0.57592773 0.1263576 0.87030107
0.62526566 0.12685008 0.8614006
0.66445941 0.12264049 0.85938686
0.72600782 0.12315748 0.85487241
0.75985461 0.1298781 0.86132735
-0.62528986 0.19676268 0.86751479
-0.59999371 0.19897243 0.86463362
0.2464937 0.19633657 0.89903778
0.26147401 0.19379884 0.89870381
0.34817228 0.17293824 0.855371
0.35458267 0.16700906 0.85799938
0.81132215 0.17784534 0.89352137
-0.60880965 0.20081937 0.87081748
-0.57632488 0.20795934 0.8763234
-0.52796519 0.21335287 0.88617647
-0.48644757 0.21654199 0.8948617
-0.41700765 0.22026557 0.8981303
-0.37405741 0.2186085 0.89699143
-0.32505485 0.22013737 0.89293289
-0.17340079 0.22286622 0.87398022
-0.12551421 0.22309422 0.86827922
-0.074083164 0.22361016 0.86508727
-0.027016778 0.22329155 0.86266541
0.12443216 0.22616588 0.86103612
0.17388365 0.22729908 0.8588196
0.22720297 0.2234565 0.86393517
0.26852936 0.21878196 0.87849295
0.32000056 0.2284452 0.860264
0.37154117 0.22450547 0.86448067
0.4068054 0.23536353 0.87833446
0.82501918 0.23196645 0.88873231
0.85290891 0.24395174 0.87942743
0.83907276 0.25409186 0.89406228
0.87458944 0.29183999 0.89593583
0.86700976 0.30422184 0.8974061
0.88678485 0.36982864 0.89854813
-0.76648217 -0.48054907 0.93155277
-0.74077559 -0.48384541 0.90573567
-0.19228074 -0.45291084 0.90164423
0.43457723 -0.4816978 0.91795856
0.47750109 -0.4726963 0.92549241
-0.17325152 -0.41583171 0.90253657
-0.13732749 -0.41648114 0.90244836
0.49059969 -0.42402479 0.92449504
-0.1737131 -0.37513146 0.90469974
-0.13143668 -0.37260276 0.90432125
0.42569694 -0.38480905 0.94050503
0.49044731 -0.37435359 0.92451805
-0.20018578 -0.32254875 0.90763843
-0.17541055 -0.32479182 0.9057616
-0.12978065 -0.32446596 0.90539068
0.49122173 -0.32398281 0.92526901
-0.2015883 -0.26799601 0.90396076
-0.1741181 -0.27425605 0.90583122
-0.12940769 -0.27536982 0.90500861
0.49135676 -0.27549276 0.92337525
-0.20137726 -0.22311383 0.90937251
-0.1735868 -0.22514604 0.90436739
-0.13416299 -0.22546874 0.90384483
0.49139619 -0.22516969 0.92418516
-0.20261632 -0.17883277 0.90635628
-0.17404336 -0.17661996 0.90255821
-0.13750929 -0.177595 0.90265626
0.49216175 -0.19089009 0.9254294
0.62602109 -0.18616995 0.9294439
0.67784548 -0.17731003 0.91817397
0.70540202 -0.16613075 0.90705127
0.97403574 -0.17906457 0.90917194
-0.20246722 -0.12390102 0.90757966
-0.16742805 -0.12771736 0.90191031
-0.14241256 -0.13647997 0.9012894
0.70417142 -0.14348486 0.90957665
-0.20206188 -0.073131181 0.90766263
-0.16767089 -0.088395476 0.90058088
-0.14377375 -0.09559793 0.90037888
0.72075224 -0.088712581 0.90631711
-0.20261286 -0.026256382 0.90332818
-0.2027664 0.024149306 0.9039951
-0.20344095 0.074844703 0.90514416
0.58755064 0.083662853 0.93009031
0.61962146 0.084959425 0.93080068
-0.2049055 0.10415373 0.90981269
-0.15189783 0.1136883 0.90337318
-0.14721407 0.11344735 0.90193963
0.36407125 0.14247958 0.92985719
0.4957636 0.12848051 0.93765342
0.5084967 0.1276561 0.92172521
0.58654076 0.10970981 0.9379971
0.6206997 0.11030369 0.93109441
0.67504156 0.14476621 0.91055465
0.89282972 0.14990877 0.91503817
-0.71429574 0.19541283 0.94641781
0.2452177 0.18162918 0.90643471
0.2656154 0.18027727 0.90819079
0.30398697 0.17983477 0.94876057
0.35410374 0.18583836 0.93007821
0.67345226 0.17351557 0.92716408
0.70331681 0.19849433 0.93620574
0.82339162 0.17262906 0.93023723
0.89364654 0.15715928 0.91699427
0.90037733 0.15598127 0.91109192
-0.7104671 0.20386799 0.94328016
-0.68392229 0.20900954 0.94454169
-0.55354369 0.20913738 0.91780728
-0.52096146 0.21343233 0.90666264
-0.46945029 0.21905488 0.90749753
-0.43011853 0.21852864 0.9061836
-0.37911054 0.2221047 0.90568179
-0.33037212 0.22395343 0.90236771
0.18253557 0.23074652 0.94473088
0.23403588 0.22381496 0.93082923
0.28240836 0.21185037 0.90889966
0.32200813 0.21803756 0.90908957
0.37363726 0.22609088 0.9087894
0.40963823 0.23311934 0.92886162
0.67227322 0.22486432 0.92884785
0.70612442 0.24961656 0.94094419
0.81888843 0.22387582 0.92233813
-0.16601641 0.26883379 0.94824737
-0.12708648 0.27059931 0.94687533
-0.06578248 0.27349073 0.94733047
-0.02204662 0.27411076 0.94760376
0.027711123 0.27548125 0.94875002
0.05909707 0.27892748 0.94857317
0.67280895 0.27574283 0.93268847
0.70296061 0.27761838 0.94104385
0.83120286 0.27054229 0.92141455
0.86585283 0.29727301 0.92671853
0.67107642 0.32434297 0.93455863
0.70975399 0.30776796 0.9430936
0.87713522 0.32229492 0.92759961
0.66857535 0.37483442 0.93684804
0.89036471 0.37543961 0.9376542
0.90627933 0.3896507 0.92210507
0.66729707 0.42533791 0.93830341
0.89444035 0.42411876 0.94081044
0.90615493 0.42251989 0.92679763
0.64951962 0.48916969 0.94112241
0.66619188 0.4748373 0.93845952
0.8855831 0.46459991 0.9462837
0.91529495 0.45893344 0.94537383
0.6490851 0.53025997 0.94301498
0.66954231 0.52649796 0.93862092
0.64651519 0.57663876 0.94163656
0.67068714 0.57380837 0.93334854
0.70359081 0.55452883 0.93755215
0.64637673 0.62521249 0.94359165
0.66740161 0.62629646 0.93713766
0.64435583 0.67594492 0.94093186
0.66281176 0.67617923 0.93588358
0.64123023 0.71890527 0.93832737
0.66110939 0.7173757 0.93563044
-0.81430072 -0.48012987 0.98276734
-0.7865833 -0.47839859 0.96030903
0.44500545 -0.48034102 0.95752054
0.47595298 -0.47198597 0.97496492
-0.87384456 -0.44659045 0.98515821
0.44054955 -0.40292573 0.96218801
0.48709303 -0.42469293 0.97509539
0.43726882 -0.38047677 0.96436214
0.48532829 -0.3745819 0.97614044
0.48735276 -0.32421488 0.97399837
0.48754266 -0.27540782 0.97296417
0.48735261 -0.22533591 0.97432047
0.48817232 -0.19057213 0.97495848
0.61717469 -0.18771684 0.95072287
0.71477354 -0.12408593 0.95185268
0.60480624 0.068367586 0.97555315
0.44482222 0.13773365 0.99757135
0.48755723 0.12896548 0.9811464
0.51171374 0.13757142 0.98432523
0.59544885 0.12414618 0.95610863
0.61905915 0.12152656 0.95785636
0.66679144 0.1236062 0.96917152
0.76691985 0.13163157 0.99874043
1.0863024 0.13227502 0.99579978
1.1839418 0.12917592 0.98469412
1.2374753 0.12784408 0.99727362
-0.72212255 0.19622099 0.97991288
-0.68264991 0.19776882 0.98690134
-0.62715054 0.19978514 0.98676002
0.28569406 0.16825025 0.99316782
0.32236701 0.16958268 0.98106766
0.3662383 0.16626918 0.98483211
0.437069 0.16477478 0.99010962
0.49408939 0.15053084 0.99998552
0.52984774 0.17337278 0.99640024
0.57405943 0.17692937 0.99463218
0.62807727 0.17784366 0.99491096
0.66359258 0.17859076 0.97763681
0.82477361 0.18261375 0.95905781
-0.70588052 0.20288083 0.9551
-0.6732679 0.20597011 0.96822929
-0.62492049 0.20802717 0.97869295
-0.57365447 0.21140224 0.98219353
-0.52330935 0.21352805 0.98716867
-0.4729006 0.21563376 0.98742324
-0.42530295 0.21745501 0.99192536
-0.37421033 0.21966802 0.99236751
-0.33934048 0.22348289 0.99672258
-0.28517634 0.23216672 0.99052823
-0.21537907 0.23636945 0.99854481
-0.12320033 0.23916142 0.99924731
0.0012356014 0.24307831 0.99958098
0.08379893 0.23822442 0.99060047
0.12526372 0.23157369 0.97536564
0.17160614 0.22716598 0.97016197
0.22680223 0.22507322 0.9759841
0.25391251 0.21195622 0.98903251
0.43449759 0.23799464 0.96668196
0.45547318 0.20653732 0.99994338
0.54513264 0.21234319 0.99984133
0.58382845 0.21675782 0.99884135
0.62620294 0.22262898 0.99793243
0.66255677 0.22542694 0.98012817
0.83151096 0.21541888 0.97026104
-0.20424029 0.27803531 0.97336125
-0.17136364 0.27843145 0.96007746
-0.1236746 0.27886924 0.95698076
-0.074858502 0.28012782 0.95785636
-0.02533567 0.27887574 0.95395494
0.02451016 0.28379235 0.95491141
0.062364619 0.28404441 0.95710123
0.59258658 0.25915536 0.99961698
0.63204831 0.27264863 0.99849504
0.66209507 0.27490017 0.98128974
0.72836787 0.2848511 0.97173423
0.86179036 0.29194003 0.97920752
0.63794202 0.31052729 0.99911451
0.66151714 0.32467681 0.98279637
0.72313529 0.30237645 0.96383816
0.87586707 0.32753047 0.97236252
0.66277277 0.37430161 0.98162872
0.88509852 0.37422296 0.9712137
0.66185409 0.42589349 0.98435092
0.88795805 0.42578503 0.97237968
-0.070698306 0.48353422 0.99964041
0.660487 0.47451818 0.98337686
0.88516957 0.47352406 0.97475439
0.91950661 0.48204494 0.95816773
-0.16273858 0.54702067 0.9828499
-0.097145326 0.54940861 0.98203564
0.65887105 0.52359718 0.98312873
0.89114952 0.50593776 0.98198539
0.91525728 0.50821531 0.97088158
-0.16072446 0.56869709 0.9988786
-0.079704642 0.55447674 0.99224585
-0.018109977 0.56992155 0.98749238
0.0065660826 0.57656693 0.98780203
0.64887381 0.56722349 0.95105618
0.6564827 0.5738107 0.98295146
0.73440242 0.58221465 0.97188359
0.76676136 0.58708245 0.99674606
0.82199258 0.59320915 0.99431598
-0.083880775 0.62121516 0.99666005
-0.02677685 0.60795748 0.99197853
0.012193101 0.64156461 0.99899381
0.64639515 0.63353425 0.95488852
0.6544531 0.62253779 0.98358238
0.74195176 0.61762518 0.96858245
0.77781522 0.61994117 0.98963463
0.8231023 0.60855752 0.99371457
0.85134953 0.60560191 0.99564612
-0.10566583 0.69424719 0.99823385
-0.098036841 0.6962108 0.99433684
0.012234594 0.66006815 0.99426508
0.061294276 0.65927529 0.99716812
0.64863867 0.68146038 0.98289841
0.65541387 0.67337257 0.98253912
0.73412615 0.66492218 0.97025496
-0.1041778 0.70591849 0.99672699
-0.087246642 0.7071479 0.99417484
-0.04579749 0.71649885 0.99316877
0.64631361 0.72277385 0.98342496
0.65152109 0.71188402 0.9792707
0.0070639737 0.75060618 0.9967041
-0.99582541 -0.48127958 1.0468721
-0.90678787 -0.48819768 1.0467162
-0.87763363 -0.48975283 1.0322686
-0.84034669 -0.48181236 1.0176204
0.47872344 -0.46636444 1.0164367
0.48082504 -0.42454231 1.0162244
0.48071569 -0.37284386 1.0177604
0.48066172 -0.32561255 1.0167027
0.48096788 -0.27467132 1.0181129
0.48175469 -0.22401656 1.0207833
0.48328722 -0.19207524 1.0232625
1.1165224 0.08260154 1.0499262
1.1927998 0.099584401 1.0468315
1.2224225 0.089258566 1.0469418
1.2734581 0.087287664 1.0456764
-0.7895925 0.14516421 1.0420692
0.4495258 0.14692117 1.0073339
0.4718979 0.13632102 1.0098966
0.54572952 0.1275885 1.0116251
0.55526924 0.12441514 1.0298111
0.72477561 0.12344136 1.0191478
0.77691585 0.12642877 1.0300069
0.82906049 0.12734088 1.031466
0.8701508 0.12677974 1.030787
0.92096668 0.12733406 1.0276484
0.97741914 0.12730682 1.0315392
1.0250601 0.12746699 1.0244317
1.0759383 0.12577349 1.0324737
1.1261111 0.12375243 1.0305156
1.1729046 0.11853258 1.0330638
1.2233489 0.11027136 1.0460008
1.2715589 0.11683515 1.0444854
-0.78130651 0.18267311 1.0397604
-0.7260378 0.19621474 1.0326524
-0.67880344 0.19715875 1.0287331
-0.62388688 0.19846442 1.0287662
-0.57704663 0.19893503 1.0400081
-0.47043717 0.19960238 1.0487179
0.01644888 0.19715159 1.0472686
0.13805857 0.18409078 1.0491893
0.17605895 0.18190604 1.0480647
0.22554728 0.17933235 1.0445899
0.26643565 0.17303158 1.0277985
0.32957304 0.16485389 1.0007383
0.35899618 0.17322062 1.0015651
0.44724479 0.18676023 1.010866
0.47377813 0.17527057 1.004019
0.51490432 0.17436351 1.0013355
0.56542635 0.19764723 1.0014659
0.62184745 0.18292601 1.0021808
-0.66600627 0.20108858 1.0128722
-0.61928487 0.20184059 1.0184495
-0.57329899 0.20227456 1.0203512
-0.52280039 0.20351048 1.0247771
-0.47657117 0.20464121 1.029621
-0.42481652 0.20656206 1.0246367
-0.37467775 0.20824592 1.0254251
-0.32095844 0.21595438 1.0161909
-0.27514598 0.21884376 1.0161883
-0.22488588 0.22152574 1.0194961
-0.17481557 0.22224057 1.0214584
-0.12500744 0.22323234 1.0206602
-0.075534075 0.22497161 1.0200253
-0.026182054 0.22668473 1.0270576
0.02376128 0.23077779 1.0338011
0.072274894 0.226817 1.0297884
0.12434777 0.22109295 1.0284154
0.17493816 0.21840073 1.0292846
0.22457746 0.21408992 1.0330412
0.25439018 0.20613877 1.0142083
0.44872877 0.20299007 1.0120856
0.47211751 0.20754927 1.0069777
0.52569181 0.2063317 1.0026678
0.57880902 0.22789894 1.0056585
0.6281153 0.22826515 1.0029484
0.58469111 0.27654266 1.0068756
0.62193066 0.2775197 1.0035566
0.75852478 0.27979103 1.0081723
0.86523283 0.28926307 1.0045412
0.58732772 0.32563925 1.0119126
0.62389827 0.32770079 1.003148
0.65054309 0.31917751 1.0007728
0.8863945 0.33367854 1.0169142
0.90042394 0.34460327 1.0465093
0.58599454 0.37397039 1.0142229
0.62540412 0.37489748 1.0066187
0.65418202 0.3859067 1.0023162
0.89427322 0.35954523 1.0258204
0.58499891 0.42547855 1.0161312
0.62569469 0.42470828 1.0090245
0.65345752 0.42078969 1.0025947
0.88900405 0.44158369 1.0125942
-0.071157351 0.48529246 1.0205147
-0.046774544 0.48674175 1.0459845
0.58439267 0.47456983 1.015321
0.62519866 0.47387126 1.011246
0.65305674 0.47756162 1.00462
0.84608543 0.49940556 1.0380975
0.87432724 0.47901583 1.0268177
-0.068389319 0.51783836 1.0423824
-0.047233082 0.51581812 1.0479128
0.58357871 0.52485019 1.0171835
0.62532699 0.52495581 1.0124539
0.65243369 0.52591467 1.0044892
0.77932274 0.53991091 1.0440594
0.82987159 0.52923465 1.0343415
0.87051708 0.52245164 1.0181154
-0.20415948 0.56299883 1.0437931
-0.17399935 0.56884921 1.0317589
-0.12408882 0.56668901 1.036412
-0.074544035 0.56451327 1.0310353
-0.025693001 0.56584346 1.030596
0.025107428 0.5680666 1.0279404
0.06004421 0.57376373 1.0263555
0.58052695 0.57506543 1.0192206
0.62512785 0.57526839 1.0137448
0.65215057 0.57438743 1.0030046
0.78357047 0.57364362 1.023896
0.82253563 0.57244879 1.0197467
0.86786753 0.55876642 1.0272087
-0.10803972 0.64013743 1.0091455
-0.0690846 0.63557124 1.0089012
-0.026711047 0.63592976 1.0119737
0.0063378019 0.63579386 1.0138659
0.060375754 0.60642928 1.0028776
0.58042824 0.62504715 1.020324
0.62647206 0.62528807 1.0133828
0.65170836 0.62338996 1.0024716
0.79256588 0.61550188 1.0033964
0.82728171 0.6327455 1.0058885
0.85195076 0.62363344 1.0017684
-0.10887329 0.67113632 1.0108497
-0.076276518 0.67606968 1.0121468
-0.026028238 0.67499197 1.0155599
0.0053596958 0.67613894 1.0134885
0.06264507 0.6849699 1.0133635
0.5789721 0.67583799 1.0191841
0.62652814 0.67332423 1.0117894
0.78652805 0.65137392 1.0000266
0.82825994 0.65384257 1.0152278
-0.11110154 0.71471208 1.0086654
-0.074082315 0.71105111 1.010989
-0.025017107 0.72021776 1.0172542
0.0053212866 0.71949577 1.018381
0.064716145 0.71911168 1.0407697
0.57689291 0.72016335 1.0180737
0.62418425 0.71677732 1.0103748
-0.011391213 0.76241398 1.0200368
0.0054750768 0.76222295 1.0220416
0.059242718 0.76011598 1.0246804
0.60397035 0.75099909 1.0271337
-0.0520555 0.80356699 1.0428635
-0.016363738 0.80627161 1.043988
-1.0029832 -0.48460934 1.0734397
-0.98124808 -0.48584712 1.0725449
-0.9240818 -0.49120137 1.0802304
-0.88327652 -0.48454502 1.0610358
-0.89335358 -0.43556631 1.0892837
0.69860828 0.075084209 1.0542012
0.7337029 0.080047615 1.0598916
0.77565897 0.083844893 1.0646373
0.82399356 0.08509542 1.0610825
0.87403488 0.086293846 1.0613281
0.92508537 0.085726239 1.0596416
0.97610462 0.086901754 1.0592463
1.0243158 0.089601085 1.0571541
1.0773121 0.088152222 1.0560926
1.1264036 0.091400608 1.0533044
1.1743023 0.089152314 1.0534168
1.2062244 0.086159676 1.0531189
1.286409 0.096721292 1.0535073
1.3185831 0.098593965 1.0660992
-0.76590246 0.14653957 1.064383
-0.73863912 0.14943612 1.0783213
-0.63559526 0.14937352 1.072691
0.58938736 0.12571031 1.0871415
0.73935217 0.11147615 1.053528
0.7736392 0.11215304 1.0605521
0.82360256 0.11290397 1.0633403
0.87654072 0.11216746 1.0620725
0.9256897 0.11068121 1.0596451
0.97293419 0.11398421 1.0587326
1.0255775 0.11180365 1.0564842
1.0758179 0.1093308 1.0542943
1.1235033 0.10903078 1.0528426
1.1854898 0.1172354 1.0518883
1.2321277 0.11975662 1.0527636
1.2667419 0.11540984 1.0534042
1.3120551 0.11310601 1.0595559
-0.80123621 0.16445251 1.0696406
-0.77780282 0.17302734 1.0670239
-0.72661984 0.17406185 1.0737187
-0.67429912 0.17407142 1.0706365
-0.62452573 0.17680788 1.0695871
-0.5741778 0.17499979 1.0709133
-0.52606738 0.17810988 1.0728223
-0.47594029 0.17661823 1.0758929
-0.42461434 0.17850429 1.076694
-0.37544537 0.17867918 1.0767208
-0.32565686 0.17814812 1.0723373
-0.27696374 0.17829384 1.0674936
-0.2248151 0.17937274 1.0640309
-0.1750668 0.17952886 1.0630352
-0.12406167 0.17973749 1.0597125
-0.074950881 0.18105493 1.0584422
-0.026717776 0.18336545 1.0567702
0.0093238521 0.17920808 1.0566493
0.080711804 0.18178584 1.05322
0.12104097 0.18274762 1.0512109
0.17001581 0.17951441 1.0563096
-0.56141555 0.20074229 1.0579358
-0.51905996 0.20279597 1.0514038
-0.46233484 0.20255691 1.0579615
-0.42639589 0.20236869 1.058912
-0.37274796 0.20422298 1.0593733
-0.32507816 0.20365539 1.0623709
-0.27667946 0.203876 1.0591247
-0.22432312 0.20491502 1.0586743
-0.17418136 0.20389172 1.059597
-0.12241402 0.20422202 1.0569652
-0.075007871 0.20667925 1.0553098
-0.02638334 0.20686439 1.0551128
0.024273766 0.20676425 1.0565474
0.075252481 0.20659137 1.0540532
0.12559883 0.20725931 1.0523523
0.16916475 0.20729032 1.0514429
0.59548569 0.2406064 1.0580819
-0.20005704 0.33216193 1.0963298
-0.19389069 0.33365506 1.0923586
-0.11689898 0.33582982 1.0974818
-0.073786065 0.33719954 1.0909488
-0.024193067 0.34302896 1.0976784
0.029373758 0.34043157 1.0914401
0.071375288 0.34338802 1.0919834
0.59086895 0.33307356 1.0711938
0.60004139 0.32291797 1.0903202
0.91171581 0.34246725 1.0614432
-0.062874496 0.35479173 1.0994706
0.044766802 0.35258892 1.0992665
0.068063036 0.37020689 1.0987911
0.59320003 0.37761 1.075624
0.5873071 0.42732123 1.0720208
-0.20316593 0.49374783 1.0948912
-0.18093179 0.49503493 1.0975043
-0.11552028 0.49666002 1.0974095
-0.075229764 0.4871867 1.0720799
-0.0323302 0.49362734 1.0871587
0.020210544 0.49620694 1.097054
0.072642908 0.49321637 1.0969108
0.59063345 0.47537795 1.0800071
0.84496754 0.49609572 1.0517628
0.8730514 0.48220551 1.0677553
-0.20903936 0.5266968 1.087551
-0.17638324 0.5272826 1.0924349
-0.12240021 0.52916795 1.0906169
-0.081521094 0.53757405 1.0594529
-0.024666268 0.52712244 1.0845799
0.023835652 0.52715391 1.0913377
0.062837355 0.52555978 1.0857971
0.59020859 0.52523017 1.0827465
0.79577726 0.53512657 1.0586816
0.82580698 0.52120215 1.0670344
0.85961294 0.50286514 1.0802275
-0.21093315 0.55989504 1.0665597
-0.1737377 0.55689174 1.0668243
-0.12670814 0.55747843 1.0649734
-0.074957334 0.55672669 1.0575646
-0.023066564 0.55857414 1.0623719
0.022944722 0.55958986 1.0661408
0.063365892 0.56030816 1.0650815
0.58730096 0.57378417 1.0835744
0.58212978 0.62317216 1.0802076
0.58354467 0.6685909 1.081206
0.58446425 0.72477597 1.087665
-0.056243107 0.82750946 1.0620198
-0.030116657 0.82986039 1.060014
0.026673265 0.82702738 1.0569084
0.050471336 0.83821285 1.0643064
-0.041866522 0.85643589 1.0758613
-0.95762795 -0.50009614 1.1188793
-1.1614208 -0.45820379 1.1389858
-0.96013361 -0.48698905 1.1252804
-0.94034415 -0.47062716 1.1351193
-1.1698173 -0.44539192 1.1476737
0.59876418 0.084047757 1.1364428
0.60260653 0.083146684 1.1290818
0.59323269 0.12501705 1.1412191
0.60390866 0.11765824 1.1298738
0.62740231 0.26576364 1.1470962
-0.20787223 0.34148663 1.1070527
-0.17293324 0.34324124 1.1066858
-0.125642 0.3436403 1.1063035
-0.078422032 0.34533256 1.1031158
-0.028070608 0.34525436 1.1025287
0.01764315 0.34712386 1.100794
0.083054729 0.34851843 1.1032323
0.5985046 0.34045601 1.1113943
0.60429025 0.34415662 1.1366036
-0.21023379 0.37478349 1.1189055
-0.17577642 0.37428257 1.1123372
-0.12598543 0.37323767 1.112056
-0.076304093 0.37783554 1.1078334
-0.026024986 0.3757627 1.1074452
0.023048567 0.3764306 1.108616
0.065498926 0.37590745 1.1075493
0.5954181 0.37374502 1.106037
0.60244459 0.36637086 1.1305577
-0.20828342 0.42497244 1.1241927
-0.17391202 0.42609823 1.1191683
-0.1257792 0.42383036 1.1205187
-0.076737031 0.42634377 1.1159489
-0.026273113 0.4269169 1.1163847
0.023746677 0.4271456 1.1162581
0.065116212 0.42547879 1.1145126
0.59491694 0.41819492 1.1032257
0.6028291 0.42445326 1.1308931
-0.21090825 0.47444919 1.1190611
-0.1728183 0.47338197 1.11096
-0.12447137 0.47303545 1.1128551
-0.075755693 0.47173831 1.1119225
-0.0264084 0.47273558 1.1107444
0.024442859 0.47391057 1.1102055
0.065969609 0.47322795 1.111873
0.59503484 0.486377 1.111264
0.60145277 0.48550773 1.1372184
-0.16235325 0.52366334 1.1010724
-0.13371015 0.52270126 1.1017375
0.072220683 0.50869203 1.1030254
0.59170336 0.52375686 1.117642
0.60172683 0.50558585 1.1473086
0.58934498 0.57505262 1.1225761
0.58857703 0.62321132 1.1278335
0.58839595 0.68266839 1.1239854
0.58728242 0.72476101 1.1235437
0.5868625 0.76079386 1.1146485
-1.0353466 -0.50331062 1.192417
-1.1631426 -0.46665722 1.1812387
-1.1671742 -0.44093439 1.1727555
0.59852958 0.084686011 1.1800463
0.60245252 0.086199723 1.1749991
0.53484058 0.11693296 1.1725624
0.59248161 0.12440836 1.1798497
0.60588825 0.11508664 1.176416
0.59022194 0.26313806 1.1984364
0.62749338 0.27388445 1.1750247
0.65693921 0.29003525 1.1771851
0.6294232 0.31768531 1.1861317
0.65602398 0.31939828 1.1917303
0.62549818 0.3630228 1.1902628
0.61460745 0.42948103 1.1695886
0.61202908 0.48366493 1.1736666
0.60609651 0.51805353 1.16511
0.60936189 0.56645596 1.182319
0.5965656 0.61804467 1.1616659
0.60926974 0.63137454 1.1956553
0.59747833 0.68728495 1.164049
0.60415393 0.68393582 1.1887654
0.59220517 0.72166926 1.1599395
0.60205537 0.71319127 1.1894715
0.59505373 0.76416552 1.1655384
-1.1214519 -0.50133342 1.2418135
-1.0718025 -0.50463033 1.2310791
-1.0415173 -0.5061245 1.2308162
-1.1552439 -0.4718636 1.2123264
-1.1395561 -0.47440109 1.2337644
-1.0398577 -0.49580705 1.2399809
-1.1620681 -0.44545135 1.2184837
-1.1473835 -0.44362506 1.2375581
0.59684801 0.083894268 1.2309806
0.60354137 0.07762976 1.2180672
0.58483976 0.11428789 1.2266012
0.61392826 0.1067908 1.2190725
0.58772027 0.28356475 1.2124172
0.61751807 0.28453994 1.2072161
0.58824706 0.32387963 1.2133995
0.6190027 0.32516587 1.2115716
0.66381222 0.33788398 1.2308998
0.5891338 0.37483445 1.216629
0.61756217 0.3763299 1.2139044
0.69275081 0.35578111 1.2467465
0.58983076 0.42288464 1.2215682
0.616853 0.42598632 1.217545
0.58776772 0.47361428 1.2226541
0.61626267 0.47601989 1.2200466
0.58724928 0.52402377 1.2234442
0.61366045 0.52618414 1.21934
0.58485711 0.57548606 1.2257242
0.61181438 0.57485753 1.2190882
0.58420569 0.6257506 1.2227259
0.60988575 0.62419987 1.2185346
0.58144408 0.67413551 1.2217711
0.60734528 0.6756081 1.2174355
0.57946163 0.71934891 1.218577
0.60435414 0.71881157 1.2104987
-1.1140313 -0.50426954 1.2715697
-1.0776631 -0.50365788 1.2669879
-1.1192145 -0.47596386 1.2766615
-1.0748564 -0.48785695 1.2881399
-1.1249764 -0.44716564 1.2718629
-1.0754898 -0.44459906 1.2959814
0.58881444 0.085101552 1.2675914
0.5844242 0.10604874 1.263045
0.6008426 0.10376537 1.2615778
-0.42281896 0.17690676 1.2947507
-0.39454105 0.17258647 1.2925733
0.58386624 0.29123732 1.272728
0.60402262 0.30130249 1.2868841
0.59750116 0.3675794 1.2596097
0.60471988 0.38821712 1.2917776
0.68328935 0.35784653 1.2595929
0.59413207 0.41520217 1.2701405
0.60334086 0.42513859 1.2859466
0.59386045 0.47121295 1.260903
0.60348117 0.4743537 1.2904813
0.59775919 0.51568836 1.2882165
0.60250378 0.53807282 1.2992922
0.59988171 0.59128159 1.2949669
0.60035318 0.58470118 1.2984312
0.59595263 0.62976164 1.291402
0.584068 0.67860997 1.2806628
0.58823323 0.72344488 1.2859461
-1.1201174 -0.45909196 1.3220737
-1.0937402 -0.46914041 1.3056953
-1.1043704 -0.44998595 1.3004434
0.94272321 0.082398601 1.3472859
0.95127439 0.082497984 1.3447018
-0.45112661 0.17725544 1.3173175
-0.42442465 0.17972666 1.3123966
-0.35213327 0.18350615 1.3348281
-0.32683828 0.1869279 1.3329381
-0.28137875 0.18481836 1.3458059
-0.21539149 0.19439995 1.3374851
-0.17465162 0.19037251 1.3436757
-0.072389409 0.19959548 1.3383994
-0.027469357 0.18764162 1.3473544
0.092211217 0.19411953 1.3449087
0.10468083 0.19323389 1.3381557
-0.063010134 0.20045654 1.3444986
0.5950762 0.38405192 1.3405032
0.60431147 0.38661528 1.3221942
0.60825539 0.42850232 1.3272125
0.5981369 0.49947935 1.3003155
0.60543907 0.48037541 1.3198285
0.5956741 0.531223 1.3042215
0.60238165 0.52109361 1.3286539
0.59872591 0.55804229 1.3233448
0.60231543 0.57823044 1.3225048
0.59941316 0.64121437 1.3240994
0.6029982 0.62432027 1.3272365
0.59689486 0.66987759 1.3177843
0.60014945 0.6569106 1.3344816
0.59468114 0.7321462 1.3202875
0.59186137 0.75621659 1.3155115
0.92273694 0.07884562 1.3628972
0.97985107 0.078206189 1.3701575
1.0188704 0.077727668 1.3737928
1.0759485 0.079303138 1.3785359
1.1690092 0.081449531 1.3711969
-0.30833548 0.18288188 1.3577162
-0.27591032 0.18610059 1.3586826
-0.22575608 0.18791251 1.3610833
-0.17674968 0.18991312 1.3592349
-0.12628244 0.19358999 1.3624884
-0.073730111 0.19339611 1.3636556
-0.028153045 0.19517426 1.3642554
0.024815679 0.19820268 1.3751249
0.067180693 0.19669996 1.3637917
-0.053562395 0.20140618 1.3511438
-0.024510782 0.20321068 1.363772
0.024901591 0.20542286 1.3786057
0.077515692 0.20463075 1.3719969
0.10646195 0.20307216 1.3602899
0.60153973 0.39528111 1.3535761
0.61254513 0.42165843 1.3644062
0.61191452 0.48467249 1.3572228
0.61034179 0.53262025 1.3601031
0.60490644 0.58147496 1.3520243
0.60587418 0.62629884 1.3606781
0.60621798 0.69037604 1.3599203
0.60984421 0.72010428 1.3886455
0.59914249 0.76761049 1.3545899
0.60170031 0.75949246 1.3654281
0.61527514 0.69791406 1.4045227
-1.4220467 -0.52871144 1.5305905
-1.4431384 -0.45079088 1.5291569
-1.4538636 -0.44298634 1.5338829
-1.4324375 -0.43938646 1.5291952
-1.0704523 0.4451046 1.5418706
1.334901 0.58117336 1.5493329
-1.4589719 -0.52926761 1.5742432
-1.4479592 -0.53216654 1.5799072
-1.4644612 -0.4329845 1.56349
0.81815529 -0.28468469 1.5848879
0.79062414 -0.0080593908 1.5936303
0.80188513 -0.0080868443 1.5967604
1.2407914 -0.0085767861 1.5576183
1.2691346 -0.0086303391 1.5584553
1.3002046 -0.0086996304 1.5618259
0.77321875 0.012357585 1.5777299
1.2430981 0.0064046704 1.5662082
1.2774574 0.0049635023 1.560017
0.87150061 0.075422466 1.5953263
1.3327235 0.27600539 1.5866019
1.3429275 0.39571908 1.5837966
-1.1031854 0.4237583 1.5780672
-1.0861678 0.4204514 1.5713313
1.3459595 0.42297503 1.5877875
-1.0939052 0.45310697 1.5823232
1.342236 0.45032158 1.5955873
1.3468472 0.54218835 1.5963753
1.3510786 0.54966319 1.5801299
1.3470114 0.56581718 1.5816942
1.3534784 0.57583833 1.5800943
1.1893868 0.61739945 1.5890425
1.3496172 0.62047446 1.5953488
1.3542879 0.6253252 1.5898378
1.402096 0.63145816 1.5795835
0.69329768 0.67430311 1.5961313
1.1959319 0.68251735 1.5969493
1.9971415 0.6544466 1.5985103
2.0829411 0.65707886 1.5975344
0.68942732 0.73045677 1.5926431
1.1815305 0.73155594 1.5766599
1.9578027 0.70696658 1.5884913
1.2136991 0.75037205 1.5987673
2.1132717 0.77175689 1.5979316
0.68533033 0.8322894 1.5964928
2.1169777 0.84481293 1.5974236
2.0898385 0.89252424 1.5991073
0.69634062 0.92579716 1.5874254
1.9730909 0.90347868 1.5946991
2.0434651 0.94897944 1.5998096
2.061738 0.93964702 1.5987062
0.74025548 0.9843269 1.5978228
0.78234935 0.98686379 1.5788498
2.0685012 0.95496935 1.5988976
1.3405533 1.0275975 1.5987313
1.9914742 1.0443565 1.5973495
2.0219095 1.0293766 1.596784
2.0002811 1.0611734 1.598768
1.3840861 1.1467448 1.599673
-1.459249 -0.53455263 1.6193243
-1.4246258 -0.54020339 1.6381916
-1.3884764 -0.53595507 1.6434855
0.87567317 -0.30351052 1.6258987
0.74984497 -0.25188777 1.6363423
0.78014588 -0.26431924 1.6309426
0.82222372 -0.27405217 1.6285387
0.87383026 -0.28344268 1.6361958
0.74939066 -0.23494466 1.6371037
0.77527237 -0.2235375 1.6434205
0.82238621 -0.22499633 1.6437584
0.8731727 -0.22618867 1.6384875
0.74660766 -0.17554417 1.6361656
0.77928144 -0.17301463 1.6440314
0.82789069 -0.17337692 1.6448458
0.87768424 -0.17716631 1.6429359
0.73932064 -0.12836382 1.6230942
0.77720445 -0.12201319 1.6428411
0.82692301 -0.12247364 1.6446751
0.87691528 -0.12497252 1.6431452
1.0365553 -0.10582302 1.635676
1.0765672 -0.10670432 1.6341835
1.1245604 -0.1078598 1.6334484
1.175954 -0.10621035 1.6350981
1.2211969 -0.10538854 1.6394743
1.2761261 -0.10799672 1.638597
1.3044138 -0.10336351 1.6349493
1.686144 -0.10379776 1.6261966
1.7300992 -0.1054933 1.6386023
1.7748408 -0.10686778 1.6404724
1.8270359 -0.10831185 1.6373644
1.8849556 -0.1100433 1.6373715
1.9085027 -0.11040524 1.6267681
1.9765743 -0.10599904 1.6386235
2.017817 -0.10818967 1.634744
0.77646285 -0.072819009 1.6411041
0.82523423 -0.071972087 1.6420206
0.8753072 -0.072592907 1.6405243
1.0318338 -0.077522643 1.642391
1.0732701 -0.075682826 1.6419413
1.126682 -0.076588221 1.6413091
1.1773369 -0.074274316 1.6410007
1.2239658 -0.073747367 1.6416352
1.2738879 -0.074681342 1.6421406
1.3255708 -0.077783845 1.6389787
1.3741459 -0.073553346 1.6412377
1.4276377 -0.07119251 1.6435386
1.4757674 -0.074779548 1.645229
1.5183845 -0.074599765 1.6435223
1.5743282 -0.071651578 1.6467327
1.6280835 -0.073214218 1.6464742
1.6736113 -0.072587833 1.6446825
1.7262937 -0.074404113 1.6448247
1.7776775 -0.074666776 1.6445532
1.8259691 -0.076408729 1.640985
1.8753169 -0.078761108 1.6385702
1.9299498 -0.074315712 1.6404123
1.9810188 -0.072991967 1.6374711
2.0173695 -0.073638722 1.6358495
0.76102388 -0.049896237 1.6317979
0.83574456 -0.014981714 1.6283302
0.86934114 -0.014508074 1.6357089
1.0494474 -0.044110321 1.6398876
1.0759184 -0.0444576 1.6443142
1.1169364 -0.044828512 1.6425717
1.181766 -0.045556057 1.6453487
1.2256298 -0.045971572 1.6424423
1.2747129 -0.046552528 1.6440672
1.3220593 -0.047038693 1.6409465
1.3747946 -0.047681749 1.6416508
1.4322876 -0.048451502 1.6449995
1.4812703 -0.049067575 1.6448447
1.5328385 -0.049736727 1.6448714
1.8372097 -0.010060064 1.6494979
1.8656306 -0.026740471 1.6437528
1.9352393 -0.044011846 1.6417103
1.9879516 -0.033125926 1.6406871
2.0143096 -0.027536791 1.6344066
0.83267659 0.013558975 1.6346444
0.8716144 0.016485397 1.6362782
1.7915212 0.02797202 1.6484228
1.823725 0.017282661 1.6412407
1.8523284 0.00094945205 1.6425157
1.984921 0.026509818 1.640511
2.0099306 0.024153497 1.6307977
0.82983971 0.072999291 1.6312
0.86898118 0.071353078 1.6286935
1.8274997 0.082869388 1.638752
1.8650746 0.083614983 1.6312623
1.9850146 0.058253162 1.6410662
2.0058696 0.066161469 1.6335011
1.2974068 0.27181435 1.6463113
1.3249851 0.28276226 1.6390406
1.3547035 0.28059182 1.6435894
1.7428056 0.28786424 1.6478744
1.7942895 0.29585609 1.6480818
1.8308687 0.29045394 1.6467723
1.8748169 0.28385851 1.6478692
1.9167175 0.28898916 1.6458915
1.9542229 0.29781494 1.6455878
2.0564921 0.28288841 1.648626
1.2854203 0.31409201 1.6429681
1.3205949 0.32100794 1.6466888
1.357561 0.32192266 1.6438745
1.6319144 0.30360705 1.6480656
1.6534709 0.31619617 1.6483297
1.724925 0.32810161 1.6474625
1.7889369 0.32863227 1.6478355
1.8273594 0.32393956 1.6484609
1.8711442 0.32972279 1.6450787
1.9270278 0.32274967 1.6442634
1.9711384 0.31773654 1.6441501
2.0201461 0.3238686 1.6442446
2.0591462 0.32242998 1.6448355
1.2926729 0.37263036 1.6477643
1.3229743 0.37603542 1.6470604
1.3573925 0.37125796 1.6392791
1.6903511 0.35749 1.6482671
1.7101127 0.39815474 1.6499081
1.7727299 0.36490971 1.6483614
1.8304145 0.38310045 1.645439
1.8863745 0.36650825 1.6477522
1.9294851 0.37221795 1.6455132
1.9731297 0.37508619 1.6432548
2.0280423 0.37491369 1.6435605
2.0616443 0.37346247 1.6424828
-1.1241013 0.41989923 1.6200485
-0.86318028 0.41980168 1.6490332
-0.62303722 0.42809755 1.6452191
-0.56417829 0.43317011 1.6449629
-0.35516611 0.43850067 1.6382558
1.2759565 0.42075276 1.641914
1.323112 0.43212625 1.6385078
1.357783 0.42219064 1.6381716
1.6979091 0.43536514 1.6498065
1.715431 0.43172306 1.6478778
1.7866676 0.4208324 1.6481421
1.8280276 0.42860594 1.6474752
1.8742136 0.42513603 1.6472143
1.9301846 0.42421785 1.6434759
1.9815913 0.42545581 1.6458045
2.0144053 0.42827195 1.6434218
2.0655713 0.42434013 1.6434873
-1.1362294 0.45393661 1.6408219
-0.35548413 0.47144133 1.6334573
0.33398119 0.45343009 1.6334386
0.37419209 0.45801589 1.6444765
0.40512291 0.46070778 1.6495129
0.58807552 0.45725492 1.6307776
0.62489921 0.46299168 1.6434413
0.67383307 0.46776208 1.648374
0.70605588 0.48171914 1.6347951
1.2807572 0.46754217 1.6464868
1.3126907 0.46634766 1.6492029
1.362946 0.47581154 1.6414849
1.6817305 0.49434376 1.6494639
1.7259429 0.47992715 1.6468071
1.7883505 0.47493201 1.6475132
1.8313152 0.47298947 1.6472524
1.8726093 0.47455335 1.6463261
1.9250059 0.47766036 1.6436485
1.9775172 0.47363552 1.6433173
2.0287738 0.47694367 1.642791
2.079375 0.47733733 1.6423831
-0.33424699 0.50459242 1.6466939
0.71162033 0.51731849 1.6366687
1.2670355 0.54103154 1.6456871
1.3492831 0.52862728 1.6034224
1.3621918 0.52355635 1.6388751
1.6978067 0.5191018 1.6493099
1.7288311 0.52634668 1.6479241
1.7712371 0.52391696 1.6467099
1.8175451 0.528368 1.6468294
1.8735123 0.53349072 1.6472448
1.9205962 0.5198527 1.6456102
1.971589 0.52774072 1.6450095
2.0285778 0.52666056 1.6444435
2.0775721 0.52002275 1.6415595
2.1008127 0.5288679 1.637262
0.13269553 0.58791572 1.6386868
0.54450887 0.59336311 1.6473215
0.57759184 0.58746541 1.6435893
0.62456113 0.58729362 1.641968
0.67540401 0.58126605 1.6392105
0.70964217 0.57110435 1.6346481
1.1983374 0.55171591 1.6027123
1.2353849 0.56435436 1.6335188
1.2739313 0.57728803 1.6435533
1.3288605 0.59171563 1.6217769
1.3627429 0.57236862 1.6392139
1.7203484 0.56797028 1.6483111
1.7832794 0.57230383 1.6476718
1.8266374 0.56909972 1.6451797
1.8753933 0.57915944 1.6463658
1.9232199 0.57168907 1.646138
1.9656111 0.57919377 1.6436371
2.0276022 0.57324201 1.6444587
2.0768268 0.57303977 1.6417758
2.1160073 0.57504481 1.6382055
-0.33031568 0.61513203 1.6449028
0.13333446 0.60714018 1.6424812
0.54105568 0.62015349 1.6451702
0.57404387 0.62468767 1.6435953
0.62606794 0.62666035 1.6428742
0.67534947 0.62316328 1.63732
0.70396125 0.62453324 1.6262318
1.2306263 0.62699986 1.6192548
1.27527 0.62234932 1.6331464
1.323392 0.62565404 1.6325037
1.354473 0.62166584 1.6242293
1.6828318 0.63972068 1.6349376
1.7267905 0.63309413 1.6343089
1.7753421 0.63406008 1.630703
1.8247082 0.63457072 1.6329184
1.8791776 0.63986409 1.6347375
1.9270808 0.64070308 1.6255463
1.9820687 0.62395918 1.6292607
2.0203307 0.62797278 1.6143984
2.0759399 0.61925781 1.6234463
2.1137259 0.62063521 1.6237205
0.54117352 0.67780179 1.6431658
0.57619977 0.67787975 1.6422023
0.62376887 0.67357779 1.6409166
0.67597425 0.67563516 1.6360102
0.70342666 0.66682535 1.6248487
1.2319207 0.67249811 1.6208978
1.2750815 0.67392462 1.6278402
1.3244467 0.67753994 1.6287745
1.3543216 0.66733563 1.6175925
1.6722509 0.67519677 1.632017
1.7230005 0.6746757 1.6290741
1.7703787 0.67719603 1.6280899
1.8262371 0.67454928 1.6251879
1.8814435 0.67494506 1.6251514
1.9275876 0.67751431 1.6248866
1.9764334 0.67669678 1.6160482
2.0251226 0.67858255 1.6072559
2.0724761 0.68089271 1.6082129
2.1151183 0.67343491 1.6093769
0.53973979 0.7258454 1.6433922
0.57309115 0.72680724 1.6417133
0.62382239 0.7245509 1.640497
0.67787588 0.72523648 1.6334816
0.70029837 0.71578491 1.6266673
1.2292122 0.72629118 1.6158442
1.2717654 0.71559936 1.6208322
1.3077481 0.70491958 1.620326
1.6374564 0.7320444 1.6259031
1.6759367 0.72003877 1.6278155
1.7256939 0.72322708 1.6255459
1.7762331 0.7238279 1.6215744
1.827198 0.72734332 1.6218417
1.8696003 0.72405607 1.6196562
1.9245429 0.72428876 1.6241369
1.9747025 0.72849536 1.61613
2.0215547 0.72735447 1.6091892
2.0780644 0.72703969 1.6163111
2.1242621 0.72720993 1.6097623
-0.33906698 0.78926015 1.6404682
0.53942156 0.77134097 1.6438128
0.57582557 0.77732515 1.6404539
0.62556523 0.77429098 1.6385859
0.67534465 0.77458656 1.6316589
1.6296465 0.77655119 1.6232438
1.6801332 0.77506161 1.6239961
1.7278309 0.77141708 1.6230687
1.7813451 0.77793795 1.6232672
1.8253981 0.77274871 1.6183443
1.8713161 0.77949345 1.6195799
1.9167023 0.76996756 1.622888
1.9777603 0.7773748 1.6220404
2.0244257 0.77607757 1.6124815
2.079586 0.77422571 1.6110462
2.1281846 0.77508974 1.6054243
0.12939438 0.83999491 1.6329191
0.5387134 0.824359 1.6420008
0.57325393 0.82604021 1.6386195
0.624906 0.82293677 1.6374865
0.67380673 0.82578975 1.6308169
1.5780963 0.83316135 1.6152285
1.62581 0.82658798 1.6230643
1.6743169 0.82329369 1.6217138
1.7279489 0.82407987 1.619778
1.7751522 0.82243341 1.6219727
1.8229225 0.82508475 1.6208454
1.8758457 0.82542664 1.6187662
1.9300466 0.82479972 1.6214558
1.9788641 0.82471311 1.6171336
2.0201576 0.8241809 1.6073768
2.0806246 0.82294017 1.6131181
2.1157262 0.82472235 1.607253
0.12750947 0.87181431 1.635259
0.54017216 0.87629396 1.6387874
0.5755747 0.87799698 1.6378764
0.62532812 0.87288308 1.6362745
0.67368644 0.87370443 1.6298666
1.4458151 0.88448876 1.6198392
1.4731605 0.87536013 1.6187413
1.5263425 0.87131894 1.6152323
1.568905 0.87687159 1.6176043
1.6234545 0.87645131 1.6237956
1.6761796 0.87703383 1.6224816
1.7232006 0.87190038 1.6159852
1.7763051 0.8732937 1.6212798
1.8209095 0.8735553 1.6174101
1.8781407 0.87726194 1.6176707
1.9293394 0.87260073 1.6173792
1.9754181 0.87470889 1.611394
2.025336 0.87536329 1.6057092
2.0791352 0.8699773 1.6106184
2.1098628 0.86523306 1.6056374
0.1234081 0.91798717 1.6433649
0.53693193 0.92539066 1.6412333
0.57613862 0.92590076 1.6379503
0.62321144 0.92269289 1.6372595
0.67227572 0.92443502 1.633805
0.70223337 0.94571251 1.624718
1.4415605 0.91985631 1.6196043
1.4750087 0.92609084 1.6267496
1.5215956 0.92359829 1.6271594
1.5715533 0.92464137 1.6243447
1.6248732 0.92475545 1.6198717
1.6753205 0.92638969 1.618474
1.724306 0.92382771 1.6191493
1.7754511 0.92745614 1.6201961
1.8281441 0.92158264 1.6177672
1.8772373 0.92387718 1.6123388
1.9280906 0.92483169 1.6109676
1.9682121 0.92843533 1.6095709
2.0217531 0.92637706 1.6081262
2.0705826 0.91650081 1.605237
-0.34340397 0.966281 1.6478996
0.53747964 0.97442526 1.6410339
0.57280558 0.9726699 1.6380365
0.62303215 0.97115004 1.6375268
0.67534149 0.97556829 1.6365488
0.71461183 0.98022151 1.6311589
1.4755551 0.97683549 1.6256242
1.5261407 0.97414595 1.6231047
1.5770605 0.97274846 1.6230825
1.6250601 0.97504616 1.6209195
1.677367 0.97614646 1.6199793
1.7281107 0.97383928 1.6206795
1.7736039 0.97844863 1.6170756
1.8236136 0.96968162 1.6162145
1.8743975 0.97749615 1.6167405
1.9217567 0.97138375 1.6088976
1.9755267 0.97838163 1.6073129
2.024683 0.97299653 1.605288
2.0583243 0.97425783 1.6036999
0.11645447 1.015177 1.6314278
0.53775108 1.0230038 1.6411768
0.57450807 1.0239704 1.639105
0.62642187 1.0241652 1.6402252
0.67637074 1.0241793 1.6401055
0.72731131 1.0231303 1.6379082
0.77275103 1.0294507 1.6318041
0.80387086 1.0376592 1.6293839
1.339587 1.045305 1.6117477
1.4496708 1.029852 1.6214786
1.4791881 1.0260448 1.6267275
1.5248382 1.0266099 1.6234537
1.5716088 1.0268732 1.6191579
1.6245415 1.0238477 1.6187264
1.6733745 1.0266451 1.61589
1.7270095 1.0231394 1.6152136
1.7761014 1.0197277 1.6115631
1.8251854 1.0209558 1.61415
1.8763447 1.0279367 1.6175393
1.9245099 1.0267367 1.6148257
1.9761368 1.0213416 1.6081114
2.0276375 1.0185314 1.6056169
0.53841126 1.0753323 1.6409862
0.57527703 1.0751673 1.6405891
0.62469614 1.0741912 1.6406802
0.67503113 1.0743163 1.643079
0.72348404 1.0729356 1.6404806
0.77721006 1.0733799 1.6392961
0.80457973 1.0685638 1.6297114
1.2427237 1.0769099 1.6022691
1.2851317 1.0730097 1.6162045
1.3352381 1.0802584 1.6261262
1.3665938 1.0741727 1.6245683
1.4445596 1.0661674 1.6179092
1.4787679 1.0734459 1.6234223
1.5313711 1.0766721 1.624725
1.5734755 1.0751363 1.6180356
1.6271042 1.0750072 1.6212845
1.6752173 1.0762787 1.6182346
1.7153579 1.0762678 1.6141254
1.7686133 1.0739014 1.6158544
1.8259 1.0731521 1.6179718
1.8705046 1.0765419 1.6120794
1.9236908 1.0739362 1.6132934
1.9751614 1.0727637 1.6069278
2.0114894 1.0793868 1.6020101
0.53992194 1.1221836 1.6439161
0.57492208 1.1272881 1.6417209
0.62347054 1.1249511 1.6412567
0.67589754 1.1245134 1.6444716
0.72529632 1.1261747 1.6441841
0.7746945 1.1249264 1.6429415
0.8186096 1.1236255 1.6418545
1.2415743 1.1352079 1.6301069
1.2817057 1.1280622 1.6387892
1.3234588 1.1223086 1.6345057
1.3752334 1.1251655 1.6258347
1.4735512 1.1224456 1.6221383
1.5246338 1.1282575 1.6248889
1.5746341 1.1233464 1.6227961
1.6238011 1.1271447 1.6227622
1.6725628 1.123265 1.6216279
1.7216796 1.1265433 1.6181555
1.7775211 1.1266265 1.6177559
1.8230021 1.1228579 1.6144654
1.8749347 1.122283 1.6116582
1.9303434 1.1292975 1.6178849
1.9710383 1.1200792 1.610106
2.0003271 1.1044828 1.6018771
0.11140139 1.1550443 1.6349155
0.53785908 1.1722848 1.6435047
0.57353258 1.1764158 1.6414565
0.62334383 1.1787174 1.6454726
0.66912425 1.1731185 1.6458465
0.72602707 1.1754855 1.6459785
0.77315092 1.1746428 1.6476276
0.82554644 1.1677825 1.6469887
0.86199874 1.1772746 1.6426959
0.90890425 1.1927457 1.6089741
0.96897763 1.1962729 1.6084265
1.1932693 1.1757596 1.6330863
1.2262381 1.1782697 1.63799
1.2724497 1.1748321 1.6407841
1.3206832 1.1723281 1.6340928
1.3727722 1.1756264 1.6222792
1.479521 1.1762642 1.6237407
1.5230606 1.1786654 1.6239183
1.5748675 1.1735753 1.6240537
1.6281294 1.1762903 1.6223459
1.6746907 1.1735641 1.6187679
1.7209786 1.1755941 1.6194003
1.7732803 1.1737663 1.6168017
1.8252604 1.174276 1.6141911
1.8782985 1.1747113 1.6147879
1.9291589 1.1682769 1.614255
1.9600224 1.1734449 1.6073086
0.53659391 1.2255503 1.6459186
0.57729846 1.2256324 1.6442903
0.62500691 1.2263094 1.6468937
0.67177582 1.2203103 1.6467513
0.72392303 1.2226744 1.6464528
0.77017564 1.2210168 1.6489878
0.82524848 1.2198176 1.646881
0.88414657 1.2059804 1.6433098
0.9287675 1.2330549 1.6419553
0.97680509 1.2261457 1.6325014
1.023228 1.2254995 1.6312172
1.0659318 1.2455795 1.6435912
1.1950035 1.2195401 1.6362855
1.2276931 1.2232039 1.6384822
1.2786855 1.2243094 1.6391912
1.3256663 1.2261993 1.6355857
1.375612 1.2277935 1.6309518
1.4036379 1.2263495 1.6173873
1.479203 1.2282226 1.6258776
1.5242577 1.227805 1.6240032
1.5776719 1.2222445 1.6244732
1.6295483 1.2237786 1.6249171
1.6772404 1.2264403 1.6230921
1.724763 1.2198533 1.6194264
1.778423 1.2247611 1.616603
1.8290117 1.2257303 1.615392
1.8766464 1.2243298 1.617919
1.9211785 1.2211765 1.6109437
-0.2050197 1.2636181 1.6493671
0.54097956 1.2743484 1.6457638
0.57710111 1.2761303 1.6473522
0.62370872 1.2651439 1.6473079
0.66510326 1.2718683 1.6481805
0.729684 1.2756163 1.6475418
0.77829266 1.2637185 1.6473795
0.82159752 1.2805128 1.6386521
0.88194478 1.2880659 1.6406107
0.92580634 1.2792603 1.647332
0.97780037 1.2824849 1.6463667
1.0275264 1.2698349 1.6479412
1.0789596 1.2774347 1.6448524
1.1002752 1.2989419 1.6415123
1.1962632 1.2728376 1.6416372
1.2253492 1.2740247 1.638854
1.2741288 1.2742877 1.6389441
1.3231782 1.2766051 1.6333625
1.3767253 1.2753456 1.6348774
1.4236974 1.2731674 1.6302193
1.4774095 1.278887 1.6287289
1.5236537 1.2715887 1.6259396
1.5749379 1.2752374 1.6252826
1.6192095 1.272171 1.6203206
1.6752199 1.275254 1.6218878
1.726418 1.2765864 1.6191949
1.7750167 1.2738907 1.6180534
1.8241011 1.2769336 1.6193552
1.8770195 1.2768583 1.6186824
1.9068221 1.2695085 1.6132342
0.53750914 1.3185686 1.6483508
0.57944483 1.3139851 1.6483347
0.63371122 1.3184322 1.6489155
0.65908778 1.3286718 1.6487131
0.71250683 1.312875 1.6471841
0.76922292 1.326504 1.6488069
0.84550273 1.3311021 1.6328708
0.86660743 1.3481432 1.6491022
0.92047572 1.3031584 1.6464145
0.99367911 1.3256261 1.6456647
1.0247707 1.3286046 1.6460875
1.0728462 1.3192254 1.6462187
1.1191382 1.3306479 1.6422153
1.1759597 1.3259058 1.6432662
1.2263575 1.3242937 1.6403202
1.2741749 1.3271825 1.6367694
1.324061 1.3247471 1.636147
1.3742883 1.324541 1.6344368
1.4242792 1.3211185 1.632709
1.4702815 1.320853 1.629112
1.527488 1.323029 1.6291337
1.5728711 1.3237635 1.6237738
1.6297624 1.3272051 1.623569
1.6766014 1.3288461 1.6250683
1.7218654 1.3256652 1.6199785
1.7729485 1.3297399 1.6217144
1.8270665 1.3318012 1.6181585
1.865549 1.3115474 1.6142832
0.53298402 1.3613425 1.6469694
0.57515943 1.3676485 1.6432325
0.62723434 1.3681195 1.6493886
0.66156715 1.3859283 1.6467038
0.74076116 1.3803364 1.6489701
0.75419527 1.3617154 1.6499645
0.88041794 1.3823141 1.6478552
0.93847936 1.3939862 1.6491882
0.96708304 1.3868157 1.6476483
1.0270993 1.3730249 1.6469102
1.0748219 1.3686051 1.6465105
1.126605 1.3754802 1.6447539
1.1710559 1.3724835 1.6423687
1.2236818 1.3745011 1.6399598
1.2773257 1.3763348 1.6349834
1.3273835 1.370288 1.6344807
1.3747195 1.3742776 1.633251
1.4242294 1.3697945 1.6310638
1.4783349 1.3802372 1.6302816
1.5250535 1.3757498 1.6344573
1.5740758 1.3733443 1.6262486
1.6251673 1.374934 1.6264695
1.6794975 1.3743936 1.6240482
