ply
format ascii 1.0
comment PCL generated
element vertex 1489
property float x
property float y
property float z
element camera 0
property float view_px
property float view_py
property float view_pz
property float x_axisx
property float x_axisy
property float x_axisz
property float y_axisx
property float y_axisy
property float y_axisz
property float z_axisx
property float z_axisy
property float z_axisz
property float focal
property float scalex
property float scaley
property float centerx
property float centery
property int viewportx
property int viewporty
property float k1
property float k2
end_header
0.32420924 -0.42432988 1.5128822
0.37627944 -0.42333356 1.5285964
0.42568347 -0.4253245 1.5331794
0.46309423 -0.42582524 1.5438778
0.59615034 -0.4229472 1.537405
0.60475779 -0.42174575 1.5122956
0.78527623 -0.42238554 1.5073775
0.82658225 -0.42539838 1.5218763
0.87772775 -0.42640498 1.5388869
0.91342717 -0.43439829 1.5468535
1.2374994 -0.42510465 1.5237533
1.2500079 -0.42142463 1.5042877
0.28446853 -0.36227459 1.5083197
0.32671091 -0.3737255 1.5183283
0.37580997 -0.37235078 1.5326508
0.42348981 -0.38198897 1.5377427
0.4581497 -0.3942332 1.5439274
0.59675276 -0.37835348 1.5396218
0.6061604 -0.3733739 1.5203484
0.78018874 -0.37559438 1.5091087
0.82490283 -0.37611857 1.5239875
0.87304938 -0.37588263 1.5408112
0.90531725 -0.38027689 1.5494647
1.2448088 -0.38037577 1.5338651
1.2544878 -0.36962098 1.5142168
0.13878778 -0.32367775 1.5250088
0.17360827 -0.31445321 1.5170364
0.22498587 -0.32292035 1.5227135
0.26995462 -0.34001318 1.5312375
0.32354486 -0.3460924 1.5388484
0.38450107 -0.34422603 1.548072
0.59831387 -0.32550961 1.5470774
0.60797375 -0.32376984 1.5242954
0.74725008 -0.32148874 1.5003514
0.77553868 -0.32393953 1.5092701
0.8234694 -0.32620889 1.5273192
0.8660605 -0.32359999 1.5436275
1.2478238 -0.32790089 1.5412298
1.256057 -0.32270792 1.515765
0.18255793 -0.28194505 1.53678
0.21704215 -0.27995536 1.5374966
0.60973704 -0.27561826 1.5262915
0.74354005 -0.26133919 1.5011597
0.77288485 -0.27463862 1.5106018
0.82264799 -0.2739107 1.5292046
0.86429924 -0.27742821 1.5444326
1.2487974 -0.28410581 1.5466974
1.2565011 -0.27398029 1.5202123
0.211005 -0.22704932 1.5454031
0.61115873 -0.22693206 1.5286652
0.74444026 -0.22569908 1.5007955
0.77379632 -0.22584078 1.5100694
0.82620388 -0.22344951 1.5302173
0.86725199 -0.22403334 1.5447984
1.247812 -0.22371714 1.5362382
1.2566947 -0.22614539 1.5208009
0.61276317 -0.17473234 1.5255605
0.74859172 -0.17355983 1.5018102
0.77488726 -0.1770349 1.5095773
0.82374454 -0.17340162 1.5298501
0.86260313 -0.17707525 1.5421542
1.2478 -0.17045365 1.5150267
1.2544433 -0.1735222 1.526247
0.61282969 -0.12533851 1.5264803
0.74684411 -0.13177149 1.5012902
0.77500349 -0.1261559 1.5095299
0.82228631 -0.12385754 1.52951
0.86227304 -0.12392329 1.5434208
1.2473185 -0.12122971 1.5415294
1.259733 -0.1239844 1.5175276
0.61468863 -0.075570509 1.526482
0.74574596 -0.054087576 1.5025252
0.7748189 -0.072662808 1.5094095
0.82299924 -0.074907929 1.5284071
0.8651827 -0.079097092 1.5449524
1.248881 -0.098244011 1.5482136
1.2625726 -0.075287007 1.5235356
0.090422153 -0.014736286 1.5449749
0.61575943 -0.026749043 1.5273176
0.74435508 -0.038520508 1.5000521
0.77486062 -0.028274341 1.5091128
0.82318664 -0.027459238 1.528303
0.86821681 -0.028513618 1.5453806
1.26278 -0.02629835 1.5250938
0.61601573 0.022171449 1.5316716
0.74431372 0.015611305 1.5002214
0.77372241 0.022316553 1.5089053
0.8215521 0.024098584 1.5271188
0.86851126 0.026463145 1.5453556
1.2620355 0.022679267 1.524176
0.61839396 0.076136068 1.5259439
0.7450577 0.062071383 1.500823
0.77859217 0.07481911 1.5110507
0.82461447 0.076286793 1.5285003
0.86589211 0.075282373 1.5442274
1.2493131 0.081156567 1.5493314
1.2624213 0.076129533 1.5231419
0.61643744 0.12320709 1.5284258
0.74699008 0.12432081 1.5019032
0.77417946 0.12517452 1.5081871
0.82411349 0.12271986 1.5280538
0.86684114 0.12706268 1.5433798
1.2630337 0.12660447 1.5249089
0.61373085 0.17523545 1.5254644
0.74930501 0.19088395 1.5015045
0.77992749 0.17666623 1.5108558
0.82167327 0.17438367 1.5259162
0.86820698 0.174318 1.5429968
0.90132374 0.18996054 1.5499356
1.2611989 0.17417851 1.5245214
0.61281854 0.22377034 1.5253165
0.74958754 0.20263657 1.5009604
0.7775839 0.22466922 1.5089
0.82652491 0.22539635 1.5286957
0.87121463 0.22717755 1.5438268
1.2601026 0.22542 1.5236846
0.61119646 0.27375889 1.5281498
0.77559286 0.27427849 1.5090774
0.82597333 0.27585834 1.5280215
0.87072867 0.27403456 1.5426446
1.2489219 0.2669217 1.548745
1.2601022 0.27605104 1.5236675
0.61261278 0.32476452 1.5260288
0.77870637 0.32617828 1.5121109
0.82367581 0.32511851 1.5288938
0.86853951 0.32433152 1.5437508
1.2497413 0.33491018 1.5387275
1.2595482 0.32312137 1.5233381
0.32817438 0.38630998 1.5398631
0.3548654 0.39903009 1.5479833
0.6184026 0.37322441 1.5236146
0.77289712 0.37427944 1.5112027
0.82528508 0.37633207 1.5295287
0.86896896 0.37486923 1.5407859
1.2490205 0.3826642 1.5462977
1.2597852 0.37323603 1.5212562
0.27714133 0.4212631 1.5220662
0.32519633 0.40645951 1.5258465
0.37529844 0.40789187 1.526335
0.41608837 0.4337641 1.5268713
0.61902404 0.42521104 1.5246544
0.77714235 0.42491931 1.5108396
0.82490468 0.42336881 1.5279078
0.87288964 0.4242276 1.5404817
1.2484949 0.42199296 1.5442103
1.2597547 0.42822707 1.5200434
0.24350835 0.47586283 1.5041312
0.43774787 0.46471584 1.5219841
0.59950012 0.4661867 1.5478054
0.60756636 0.47463199 1.5216317
0.74554008 0.49588686 1.5005109
0.77552068 0.47516167 1.5088214
0.82378888 0.47421157 1.524303
0.87111932 0.47624904 1.5384229
0.90456647 0.46413007 1.5488384
1.2479129 0.47746116 1.5445001
1.2579684 0.47524515 1.5202395
0.24583216 0.50312513 1.5305951
0.25022849 0.50425011 1.5085592
0.4184708 0.52363253 1.5041697
0.5987196 0.52702481 1.5376486
0.60620326 0.5230009 1.5191679
0.74718672 0.5090059 1.500801
0.77465379 0.52639782 1.5088742
0.82391077 0.52528834 1.5244262
0.87213933 0.5256331 1.5409329
0.91114968 0.52798676 1.5488619
1.2459074 0.52557838 1.543483
1.2572922 0.5216254 1.5173788
0.59613663 0.57756168 1.5357313
0.60390002 0.57100302 1.5140678
0.77647918 0.5741508 1.508615
0.82269067 0.57509524 1.5238057
0.87586558 0.57694662 1.541968
0.91377336 0.56522626 1.5494989
1.2468443 0.57536387 1.5391629
1.2563319 0.57354993 1.5162014
0.59451306 0.62641436 1.5319864
0.60274285 0.62355804 1.5077313
0.78369284 0.62467861 1.5103371
0.82720762 0.62414324 1.5259744
0.87405312 0.62521678 1.5384147
0.9170441 0.6239146 1.548028
1.2444137 0.62100124 1.5424087
1.2557528 0.62574416 1.5171794
0.59245878 0.67534268 1.5250777
0.60151529 0.65965009 1.5011663
0.7477569 0.65580726 1.5011917
0.77653509 0.67590755 1.507602
0.82471174 0.67335141 1.5229487
0.87429512 0.67260635 1.5374186
0.92096895 0.67337948 1.5468597
1.245206 0.67585474 1.5370848
1.253414 0.67557967 1.5155613
0.59172171 0.72358489 1.5233133
0.60089713 0.72047985 1.5040464
0.78170848 0.72353482 1.5071923
0.82734787 0.72487527 1.521867
0.87774378 0.72288322 1.5368688
0.92040861 0.72689027 1.5456842
0.95635146 0.71596295 1.5494475
1.2431318 0.72549373 1.5327229
1.2534692 0.72556961 1.5081203
0.59872198 0.76036662 1.5093361
0.60266507 0.76761866 1.545975
0.74283844 0.78310561 1.51099
0.77200341 0.76250643 1.5100112
0.82358307 0.76180476 1.521727
0.87681186 0.7592088 1.5381292
0.92625523 0.7565338 1.5483708
1.2430335 0.77543658 1.5263932
1.2521298 0.76175779 1.5059519
1.2404635 0.82414109 1.5315418
1.251412 0.82706058 1.506238
1.2422899 0.87270886 1.5273024
1.2531197 0.87770844 1.5054116
1.240736 0.92664623 1.5286807
1.2563733 0.90883398 1.5202888
1.2345871 0.97554213 1.5280406
1.2335528 1.0225472 1.5232438
1.2346908 1.0749884 1.5254333
1.2330809 1.1250007 1.5241861
1.2326316 1.1716968 1.5239919
1.2310952 1.2239597 1.5221744
1.230574 1.2762328 1.5234883
1.2299652 1.3252442 1.5229404
1.2291433 1.3744068 1.5259914
1.230087 1.4240468 1.5200623
1.2341107 1.4772782 1.523528
1.2320087 1.5141923 1.5348866
-1.6132506 -0.51378089 1.5728436
-1.5977336 -0.51212436 1.5768365
-1.4635295 -0.50552016 1.573257
-1.4374514 -0.5102942 1.568657
-1.3781052 -0.50294828 1.5756909
-1.3282242 -0.50321442 1.5748153
-1.2880816 -0.51189536 1.5960751
-1.2284321 -0.50382918 1.5736876
-1.1656226 -0.50539303 1.5970809
-1.132688 -0.50203073 1.5584316
-1.0391053 -0.50699174 1.5905504
-0.97899449 -0.50448287 1.5811521
-0.92167282 -0.50476766 1.5812367
-0.86643869 -0.50726956 1.5757701
-0.81730223 -0.51328731 1.570745
-0.79485399 -0.52454358 1.5767751
-0.090490766 -0.51354593 1.5585347
-0.03311963 -0.51376855 1.5776367
0.034734569 -0.50500238 1.5698127
0.51349574 -0.50074148 1.5591594
0.87891787 -0.50462472 1.555299
0.92468137 -0.5060699 1.5591009
0.97920901 -0.5063169 1.5621536
1.0234983 -0.50264168 1.5610392
1.0699748 -0.50477642 1.5583467
1.1036055 -0.50589311 1.551019
-1.3547097 -0.49641454 1.572193
-1.2822151 -0.49925101 1.5630124
-1.2488098 -0.49998105 1.5651315
-1.1614249 -0.49767423 1.5645469
-1.138182 -0.49742746 1.5772313
-1.0149583 -0.49949452 1.5715075
-0.98069757 -0.49993274 1.5901687
-0.87394416 -0.49674836 1.552851
0.33563754 -0.48099175 1.5547556
0.37710905 -0.47928292 1.5535651
0.42570299 -0.47220686 1.5534192
0.47594538 -0.47770661 1.5667542
0.5223521 -0.49377713 1.5768995
0.57155746 -0.4936181 1.5701698
0.63043451 -0.48559529 1.5773242
0.65630215 -0.48106048 1.5619122
0.88033444 -0.49001709 1.5538858
0.93190426 -0.47909564 1.561693
0.97617531 -0.47581473 1.5661722
1.0270165 -0.47889078 1.5782268
1.073568 -0.47573638 1.5809331
1.1275549 -0.46990409 1.5938776
1.176844 -0.4757522 1.5875101
1.2112159 -0.46794015 1.5641685
0.48494062 -0.42474145 1.5594116
0.50379348 -0.42603186 1.5799389
0.58307576 -0.42065677 1.5731021
0.92782086 -0.42397684 1.5554152
0.97361714 -0.42687663 1.5672973
1.0228882 -0.42402235 1.5787957
1.0764158 -0.42477611 1.5916222
1.1220435 -0.42666954 1.5964293
1.1680144 -0.43952253 1.5961154
1.2164915 -0.42463043 1.5749714
0.43206364 -0.3583805 1.5598875
0.47201645 -0.37837186 1.5693157
0.50448 -0.39866766 1.587167
0.58720911 -0.37437722 1.575732
0.8947078 -0.3584747 1.5529782
0.92605299 -0.37399465 1.5567046
0.97913408 -0.37486184 1.5746319
1.0280807 -0.37192971 1.5869169
1.0683062 -0.37814099 1.5937653
1.1143367 -0.39055216 1.5980628
1.2262768 -0.37466353 1.5764846
0.14053307 -0.31749421 1.5599645
0.15306768 -0.30224919 1.5604733
0.24441935 -0.31064239 1.5560614
0.27694938 -0.31715348 1.5643871
0.32397464 -0.32262966 1.5736353
0.36979792 -0.33029908 1.5697138
0.41889843 -0.34131187 1.5799838
0.45342442 -0.34837177 1.593509
0.59032363 -0.32446876 1.5777055
0.60069972 -0.33861616 1.5515292
0.8885659 -0.3308765 1.5517284
0.92322284 -0.32347032 1.5597314
0.97592092 -0.32467198 1.5772363
1.0264996 -0.32488653 1.5898957
1.0709448 -0.32215828 1.5978343
1.2295671 -0.32558468 1.5765134
0.16873473 -0.26931593 1.565336
0.23756838 -0.26517916 1.5584408
0.2743206 -0.27568072 1.5814937
0.31687802 -0.27947465 1.5872997
0.59370953 -0.27708113 1.5763273
0.60168529 -0.2629132 1.5642868
0.88887787 -0.27485007 1.5530902
0.92449379 -0.27317223 1.561631
0.97459769 -0.27612892 1.5778567
1.0248539 -0.27467412 1.5916799
1.0617044 -0.27690598 1.5978075
1.2326508 -0.27320057 1.5733473
0.18519695 -0.22687815 1.5731803
0.22746012 -0.22608878 1.5652112
0.27118257 -0.22957653 1.5903608
0.30726859 -0.2457372 1.5956345
0.59359002 -0.22756447 1.581435
0.60305566 -0.22348124 1.5578684
0.89376122 -0.23149784 1.5553433
0.92710799 -0.22331999 1.562717
0.97578561 -0.22398341 1.5792195
1.0220565 -0.22796726 1.5926282
1.0556151 -0.22234778 1.5985565
1.235269 -0.22470547 1.5750896
0.18811102 -0.1747773 1.5797186
0.2257618 -0.17443244 1.5733526
0.2632716 -0.17480111 1.5906456
0.59502953 -0.1757949 1.5835731
0.60311705 -0.17249501 1.5625052
0.88613433 -0.17407648 1.5527077
0.92345983 -0.1748607 1.5626849
0.97604394 -0.17412494 1.5789291
1.0257529 -0.17716925 1.5939375
1.0563352 -0.16592966 1.599592
1.2364491 -0.17569177 1.5776029
0.1880834 -0.12584509 1.586737
0.22501546 -0.1257982 1.5802774
0.26404098 -0.13482581 1.591123
0.5961653 -0.12578005 1.5822927
0.6040377 -0.1228265 1.5631149
0.88937861 -0.12985764 1.5534291
0.92466927 -0.12545635 1.5633656
0.9746387 -0.12354413 1.577774
1.0266224 -0.12360576 1.5936379
1.0625737 -0.12920848 1.59919
1.2337182 -0.12638254 1.5790811
1.2539531 -0.14366366 1.5516708
0.1145271 -0.058176711 1.5877181
0.18941243 -0.088698097 1.5926864
0.22139931 -0.085960396 1.5937238
0.59587544 -0.075669855 1.5883318
0.60502118 -0.073589303 1.5658593
0.89203906 -0.080989346 1.5544087
0.92638355 -0.077141434 1.5631613
0.97565258 -0.070687354 1.5772878
1.0237168 -0.072274849 1.5934017
1.0582509 -0.05209117 1.5995209
1.2348479 -0.077024601 1.5791787
1.2515358 -0.071487859 1.552641
0.086734779 -0.021526512 1.5793799
0.1114377 -0.029593915 1.5910449
0.59749264 -0.027701372 1.5910425
0.60515159 -0.027319811 1.5656922
0.889355 -0.031029766 1.5554806
0.92396164 -0.027469799 1.562881
0.97400635 -0.026198942 1.5759841
1.0225413 -0.024646513 1.5920675
1.057706 -0.025903156 1.5991163
1.235723 -0.026728718 1.5768024
1.2506022 -0.031023556 1.5525448
0.08484631 0.021891879 1.5710694
0.11739122 0.015608666 1.5817955
0.59821743 0.023967581 1.5929625
0.60539365 0.024871731 1.5686551
0.89336586 0.015272948 1.5536823
0.92602223 0.023145311 1.5632273
0.97404236 0.021366715 1.5738592
1.0231371 0.020235155 1.5924586
1.0582252 0.022095611 1.599831
1.2351924 0.021087639 1.5775197
1.2509847 0.030360311 1.5529242
0.085183106 0.075754896 1.5839657
0.10065944 0.076015852 1.5885948
0.59963214 0.059854917 1.5961087
0.60569537 0.076402791 1.5741748
0.88962209 0.082382739 1.5544748
0.92416435 0.074433625 1.561904
0.97409326 0.07193239 1.5745903
1.0203731 0.074686803 1.5914239
1.0585127 0.065756463 1.5993762
1.2344859 0.074728072 1.577368
1.2506589 0.081244312 1.5509645
0.084112421 0.12712687 1.5903594
0.1010671 0.12584276 1.5929698
0.59695894 0.13891637 1.585523
0.60586238 0.12384941 1.5717714
0.89128715 0.13311832 1.551756
0.92413014 0.12369131 1.5609835
0.9733609 0.12319354 1.5741303
1.0256503 0.12462591 1.5913771
1.0598003 0.12847781 1.5982975
1.2345927 0.12442684 1.579365
1.2529993 0.11738964 1.551977
0.081856094 0.17513309 1.5880182
0.10094968 0.16759911 1.5885868
0.59761727 0.1744117 1.5906684
0.6048184 0.17483869 1.5679624
0.89202249 0.183559 1.552178
0.92230397 0.17306249 1.5589391
0.97269726 0.17400675 1.5731465
1.0245702 0.17651744 1.5908409
1.0602369 0.17395122 1.5985641
1.2358892 0.17461927 1.5758504
0.085428134 0.22713612 1.5890675
0.10349599 0.22801623 1.5935533
0.59593022 0.22806405 1.5931965
0.60299146 0.22462694 1.5687435
0.888614 0.22149998 1.5514792
0.92539215 0.22242011 1.5599496
0.97556174 0.22547866 1.5740165
1.0253671 0.2247961 1.5912654
1.0530208 0.21921749 1.5981063
1.2358849 0.2244397 1.574466
0.081709996 0.27591467 1.5842675
0.10887998 0.2773734 1.5824212
0.59668452 0.27549958 1.5840629
0.60401988 0.27527672 1.5609012
0.89579999 0.27757475 1.553542
0.92697746 0.27366728 1.5594476
0.97204524 0.27565718 1.5710602
1.0246242 0.27516776 1.5907174
1.0615546 0.27802649 1.5963014
1.2358683 0.27516034 1.5755011
1.2515469 0.28106448 1.5500041
0.083206899 0.32348266 1.5788766
0.11374518 0.32614246 1.5798161
0.18719991 0.33545786 1.5921543
0.59559864 0.32615831 1.5863769
0.60333395 0.3254739 1.5651722
0.89338154 0.33064827 1.5545775
0.92387635 0.32304966 1.5586128
0.97493643 0.32801104 1.5739409
1.0261046 0.32355279 1.589926
1.06506 0.32292426 1.5983903
1.2344245 0.32636937 1.5766555
0.088988133 0.37233728 1.5796075
0.12257039 0.37741995 1.5763772
0.17826843 0.37713036 1.5730226
0.22503959 0.38753033 1.5609897
0.27247509 0.38656405 1.5828011
0.32118627 0.38463742 1.5799954
0.36555743 0.38701469 1.5835452
0.40678626 0.38898328 1.5989095
0.59643364 0.35930747 1.5836729
0.60809195 0.37547836 1.5672386
0.89722031 0.37251544 1.5543022
0.92609018 0.37504765 1.5596486
0.9733448 0.37368271 1.5725831
1.0243444 0.37535173 1.5908256
1.0646505 0.37544 1.5969507
1.2342671 0.37628219 1.5751009
0.09405902 0.4068675 1.5726668
0.12812223 0.41015407 1.5703648
0.17452799 0.41674322 1.5670919
0.223281 0.41813922 1.5694255
0.27059621 0.4186132 1.5818084
0.32113606 0.40386188 1.5561775
0.37552541 0.4032681 1.574962
0.43065798 0.43158385 1.5785289
0.59537363 0.44171858 1.5729706
0.62342125 0.42217121 1.5807197
0.92617011 0.42408809 1.5582738
0.97507656 0.42517111 1.5716137
1.0260856 0.42487973 1.5886918
1.0675609 0.42409241 1.5964651
1.2341899 0.4232291 1.5739163
0.59324771 0.47507381 1.5763865
0.60251153 0.48854542 1.5511718
0.89548349 0.46379495 1.551447
0.92793459 0.47441083 1.5572186
0.97334337 0.47399792 1.5687522
1.0234724 0.47679305 1.585548
1.0661738 0.47319669 1.5951383
1.2315511 0.47277167 1.5748627
0.59148687 0.52822125 1.5689988
0.9252553 0.52229124 1.553702
0.97597468 0.52816236 1.5683838
1.0256767 0.52513272 1.5845671
1.0702311 0.52007699 1.5950108
1.1051997 0.54727507 1.5984108
1.2320243 0.52542621 1.5754111
0.58582956 0.57624453 1.5748744
0.89797181 0.56337023 1.5503364
0.9330498 0.58148581 1.5543978
0.97473192 0.57463521 1.5658771
1.0231253 0.57477838 1.5816454
1.0736032 0.57300299 1.5934907
1.1096458 0.56778723 1.5996552
1.231222 0.57412589 1.5750606
0.58146471 0.62360525 1.5755112
0.92985004 0.62455142 1.5516559
0.97497898 0.62578565 1.5648053
1.0269853 0.62367725 1.5807996
1.0762279 0.62952513 1.5927531
1.1083663 0.62246239 1.5968497
1.229467 0.62483364 1.578658
0.58030313 0.6754449 1.5740169
0.93259287 0.67713791 1.5517238
0.97447199 0.67768633 1.56294
1.0258987 0.67341709 1.5791776
1.0740893 0.67600244 1.5899333
1.1089602 0.6825099 1.5970387
1.1583772 0.68655288 1.5984437
1.2294753 0.67324167 1.5758103
0.57834446 0.72556823 1.572174
0.93860996 0.71989816 1.5521712
0.97453481 0.72390014 1.5607992
1.0253963 0.72503495 1.5770624
1.0756744 0.72291172 1.5885156
1.120525 0.73027015 1.5962367
1.2281828 0.72612101 1.5765147
0.58763731 0.760575 1.5730083
0.86100286 0.78027159 1.5509509
0.92361021 0.77484715 1.5600052
0.98070449 0.75891441 1.5636882
1.030512 0.76043087 1.5785259
1.0773379 0.76110595 1.5905877
1.1215503 0.75286096 1.597108
1.1611791 0.750857 1.5996798
1.2278819 0.77632135 1.5759015
1.2261651 0.82347643 1.5784957
1.2268045 0.87537485 1.5727524
1.2247005 0.92551756 1.5741936
1.2214044 0.97507066 1.5748304
1.2224914 1.0260998 1.5760158
1.2189715 1.0723965 1.572854
1.2186474 1.1235064 1.5725855
1.2179946 1.1772467 1.5758295
1.2181426 1.2259928 1.5737287
1.2170799 1.2717586 1.5710622
1.2178971 1.3235003 1.5756096
1.2168828 1.373199 1.5738956
1.218318 1.4220302 1.5735555
1.2226746 1.4730146 1.574968
1.2216821 1.5233248 1.5797925
1.2167994 1.5524006 1.5927217
-1.5602341 -0.50643194 1.6380845
-1.5402453 -0.51186007 1.6239293
-1.4676206 -0.50816089 1.6260179
-1.4221156 -0.50497431 1.6347101
-1.3725116 -0.50277597 1.6318177
-1.3155528 -0.50638044 1.624693
-1.2713358 -0.50521809 1.6232353
-1.2208179 -0.50355244 1.628103
-1.1831222 -0.5016588 1.6141961
-1.0311553 -0.50433135 1.6278228
-0.97154313 -0.5056172 1.6234721
-0.92891037 -0.50760317 1.6287206
-0.87398791 -0.51014996 1.6243688
-0.82995522 -0.52117443 1.6150846
-0.070505574 -0.52391839 1.6345412
-0.032906335 -0.51865536 1.6369376
-1.2915643 -0.49793625 1.6237078
-1.2317648 -0.49886382 1.6178442
-1.1816795 -0.49764985 1.6422008
-1.0538306 -0.49826953 1.6268103
0.52870339 -0.48889887 1.6238904
0.57482219 -0.49178347 1.6191368
0.62042415 -0.48406851 1.6236039
1.120891 -0.4846448 1.6016375
1.1694638 -0.47748739 1.6002902
0.52550721 -0.41696125 1.6243286
0.56703585 -0.42418012 1.6238612
1.1399665 -0.41113314 1.6028758
1.1767157 -0.4209561 1.6046587
1.2005944 -0.41438127 1.6029357
0.48119673 -0.35788164 1.6206845
0.50712621 -0.38147941 1.6215121
0.57140309 -0.37474117 1.6249229
1.0923177 -0.366007 1.6016484
1.1280097 -0.37157845 1.6037201
1.1723455 -0.37440312 1.6076678
1.2049196 -0.37554422 1.6084522
0.38032743 -0.31317744 1.6137028
0.42642191 -0.33278984 1.619957
0.45769927 -0.34265119 1.625371
0.57568783 -0.32511386 1.6254673
1.084615 -0.32490769 1.6019617
1.1216397 -0.32557377 1.6065235
1.1775047 -0.32529941 1.6138285
1.2090784 -0.32431638 1.6092987
0.16478756 -0.255815 1.6066722
0.33648798 -0.26669535 1.6160041
0.35759398 -0.28730795 1.624995
0.57824045 -0.27710712 1.6226941
1.0889798 -0.27341402 1.6042647
1.1264828 -0.27360809 1.609145
1.1722696 -0.27628544 1.6145403
1.20999 -0.27485445 1.6100277
0.171709 -0.20443003 1.6030788
0.28623241 -0.22013429 1.6048974
0.32182157 -0.22679181 1.6250874
0.58346963 -0.22364119 1.6240689
1.0787022 -0.22522645 1.6038787
1.1248003 -0.22370298 1.6109517
1.1745038 -0.227097 1.6173177
1.211319 -0.22403142 1.6115531
0.17195101 -0.1738034 1.6076692
0.28832525 -0.1759363 1.6074766
0.31752589 -0.17671426 1.6329945
0.58514023 -0.17536327 1.6254756
1.0753015 -0.17543989 1.6046662
1.1254848 -0.17421819 1.6124152
1.1747973 -0.17336731 1.6155084
1.2118529 -0.17570026 1.612588
0.16594622 -0.12139241 1.6157565
0.24856748 -0.10785595 1.6006227
0.28067094 -0.11879706 1.6137148
0.30963692 -0.1284411 1.6339869
0.58695447 -0.12483538 1.622231
1.0380607 -0.13900742 1.6001556
1.0766927 -0.1263075 1.6049626
1.1227187 -0.12468024 1.6119741
1.1756703 -0.12651609 1.615669
1.2106375 -0.12732141 1.6101221
0.094442233 -0.053924877 1.6131505
0.12672125 -0.067860909 1.6285385
0.16817407 -0.071161449 1.6191447
0.2294419 -0.064141579 1.6061736
0.27294838 -0.074475721 1.62585
0.30424741 -0.095398888 1.6472011
0.58755666 -0.075741395 1.6243421
1.0421234 -0.07805647 1.6005673
1.0767565 -0.076430194 1.6058648
1.1221478 -0.074924409 1.6123433
1.1742468 -0.076591834 1.6161208
1.2112668 -0.076101236 1.6081837
0.079042941 -0.035945769 1.6143316
0.13832662 -0.032943826 1.6381143
0.17357522 -0.027653648 1.6238588
0.22376704 -0.02715537 1.6207439
0.26590848 -0.03318039 1.6408248
0.58846056 -0.028318902 1.6208943
1.0484097 -0.03460772 1.6025478
1.0796427 -0.026834741 1.6055094
1.1219487 -0.025986601 1.6129695
1.172815 -0.026779398 1.615378
1.2120005 -0.025642771 1.6081375
0.071296424 0.04624594 1.6134347
0.12844133 0.015563109 1.6193196
0.17768647 0.021547463 1.6374872
0.22213493 0.020346008 1.6396811
0.58883131 0.02437846 1.6271713
1.0474627 0.039465345 1.600957
1.0765686 0.023556342 1.6055555
1.1211166 0.021619437 1.6120209
1.1727775 0.022936134 1.6153078
1.2108147 0.025732312 1.610255
0.071763627 0.0698478 1.6233953
0.11126661 0.070653334 1.6161457
0.19175076 0.055368852 1.6493316
0.59065962 0.07788977 1.6213456
1.0482503 0.070002839 1.6013012
1.0798573 0.073936507 1.6059306
1.1238734 0.078052625 1.6119367
1.1722916 0.076188676 1.6144439
1.211531 0.07164143 1.6114402
0.071300462 0.11554728 1.6112034
0.11235733 0.12852478 1.6206261
0.58979177 0.1254658 1.6249641
0.60264581 0.11221266 1.6021723
1.0749519 0.12588437 1.6035246
1.1223921 0.12526992 1.6112158
1.1758876 0.12584701 1.6144691
1.2127634 0.12350784 1.6091157
0.064299293 0.17528832 1.6257755
0.1095494 0.17633587 1.6159703
0.58866322 0.17331626 1.6237344
1.0793254 0.17288378 1.6040928
1.1245459 0.17469575 1.6106615
1.1762719 0.17398316 1.6139463
1.2119687 0.17383069 1.6080768
0.078844115 0.23198532 1.6125515
0.11340144 0.22691093 1.6233512
0.19201392 0.24148847 1.6405089
0.58709639 0.22517738 1.6226979
1.0798227 0.22689672 1.6040056
1.1265314 0.22568178 1.6097926
1.1771237 0.22229627 1.6133475
1.2107252 0.2267548 1.6077051
0.064596996 0.26220912 1.6257098
0.12891001 0.2759482 1.6180549
0.18476918 0.28029668 1.6269832
0.58571041 0.27507412 1.6271541
1.0839058 0.27468637 1.6037127
1.1260272 0.27571905 1.6095921
1.1707073 0.27458572 1.61287
1.2118919 0.27350715 1.6083984
0.13619147 0.32677659 1.61812
0.1711679 0.32203072 1.6220663
0.58472246 0.3231284 1.6262375
1.0788966 0.32787868 1.6025269
1.1220264 0.32558265 1.6077011
1.1764406 0.32474411 1.6121705
1.211632 0.32226571 1.6069561
0.080223329 0.37557602 1.6099446
0.14261992 0.35942325 1.6072937
0.1564234 0.35927993 1.6109811
0.23918349 0.38744736 1.6152309
0.28758135 0.38613164 1.6159178
0.31916621 0.38452736 1.6208405
0.37751827 0.38716653 1.6186227
0.5870052 0.36548269 1.624712
0.60751849 0.39141399 1.6214011
1.082635 0.37534446 1.6026493
1.1245024 0.37324038 1.6069402
1.1730912 0.37696448 1.6112829
1.2093616 0.37317321 1.6081992
0.1441061 0.43425742 1.6123282
0.15125604 0.42427355 1.6053573
0.27423859 0.41824001 1.6027768
0.39254555 0.4039489 1.6179014
0.42369059 0.41562501 1.6259862
0.45664543 0.43828797 1.6367917
0.58626157 0.44154003 1.6231744
0.61698186 0.42140508 1.6259693
1.0839728 0.42585391 1.6028297
1.1233031 0.42543361 1.6068292
1.1753299 0.4235917 1.6104666
1.2113867 0.4266119 1.6051496
0.58152163 0.47631541 1.6250341
1.0945479 0.47809437 1.602178
1.1247054 0.47237721 1.6047854
1.1738883 0.47401887 1.609062
1.2090113 0.4786849 1.6062199
0.57969385 0.525186 1.6219826
1.0896138 0.53043437 1.6015308
1.1261775 0.52413464 1.6049528
1.1757582 0.5241521 1.609169
1.2107742 0.52465189 1.6069514
0.57402974 0.57351071 1.62446
1.0899034 0.58531046 1.6023594
1.1271502 0.5749054 1.6053717
1.1714315 0.5750345 1.6070969
1.2092103 0.57565635 1.6081004
0.56861591 0.62044001 1.625321
1.0926 0.60509086 1.6007897
1.1335455 0.61899942 1.6037458
1.173562 0.62711656 1.6066869
1.2081378 0.62281728 1.6065058
0.56689149 0.67540997 1.6230487
1.1293123 0.67064327 1.6038417
1.1737521 0.6769684 1.6068686
1.2101921 0.6784128 1.6099459
0.5635578 0.72477132 1.6241783
1.1343753 0.72172427 1.6021007
1.1750923 0.72270399 1.60567
1.2104982 0.725936 1.60632
0.5697698 0.75990701 1.6275342
1.0946143 0.78875834 1.6232179
1.129809 0.7711252 1.6145945
1.1863164 0.77635765 1.6226811
1.209579 0.77560723 1.608153
1.0724007 0.80933237 1.6420466
1.1944731 0.81761712 1.6418022
1.2104046 0.83039528 1.6197977
1.1978378 0.871445 1.6466676
1.210026 0.87650383 1.6223888
1.2103524 0.92546695 1.6223905
1.1985686 0.993936 1.6439577
1.2074995 0.97368938 1.6236081
1.1977459 1.003392 1.637484
1.2071836 1.025424 1.6219897
1.1968883 1.0683998 1.6423217
1.2061065 1.0741941 1.6204083
1.1988158 1.129318 1.6454659
1.2060086 1.1234113 1.6185681
1.1965125 1.1820718 1.641053
1.2049167 1.1718853 1.6175355
1.1976892 1.2169877 1.6433951
1.2053311 1.2259411 1.6178211
1.1989918 1.2612267 1.6454802
1.2066934 1.2773981 1.6214482
1.1985222 1.3340358 1.6436075
1.2057545 1.3251137 1.6228
1.206421 1.3776975 1.6223912
1.206185 1.4258368 1.62405
1.2069912 1.478821 1.6245813
1.197911 1.5231328 1.6386262
1.2084161 1.525028 1.6236087
1.2064154 1.5665219 1.6311972
-1.5690427 -0.5074228 1.6683488
-1.5120339 -0.50654584 1.676962
-1.4679947 -0.50666273 1.6810905
-1.4121597 -0.50288099 1.672557
-1.3808306 -0.50567913 1.6815169
-1.3237784 -0.50823516 1.6795369
-1.2669376 -0.50341636 1.666407
-1.2276676 -0.50263053 1.6744027
-1.0802603 -0.50363672 1.6793292
-1.0213821 -0.5069201 1.6715885
-0.96533459 -0.50812948 1.677776
-0.9252764 -0.51138192 1.676939
-0.87605196 -0.51566821 1.6735181
-0.82522881 -0.53669691 1.6535658
0.0061634891 -0.52230978 1.6577563
0.051864088 -0.52237833 1.6855077
-1.4376657 -0.49993739 1.6956754
-1.050632 -0.49845377 1.6712347
0.54443055 -0.4828026 1.6732076
0.58146346 -0.48848337 1.6779482
0.61094677 -0.48260427 1.673166
0.54457796 -0.41972184 1.6680189
0.55591863 -0.41376266 1.6623352
0.53988564 -0.3909637 1.6970057
0.55750352 -0.37354681 1.6737095
0.39329425 -0.30964413 1.6596795
0.41840073 -0.32645446 1.6560729
0.56240094 -0.32463133 1.6709635
0.36887535 -0.28114828 1.6668091
0.56430078 -0.27353448 1.6729707
0.34009618 -0.21322235 1.6557059
0.3519201 -0.23585363 1.6707343
0.57200402 -0.22568758 1.6726019
0.34268758 -0.17427999 1.6714064
0.57395893 -0.17484938 1.6715603
0.15570886 -0.11656282 1.6589876
0.32987282 -0.12168343 1.6668415
0.57497782 -0.12580757 1.6731144
0.14192241 -0.071997203 1.6704321
0.29925632 -0.064212658 1.6656203
0.31743094 -0.077679947 1.677175
0.57512951 -0.077144414 1.6727804
0.13165516 -0.025123456 1.6605029
0.28291589 -0.018205278 1.6661868
0.30707663 -0.034089331 1.6864777
0.57703382 -0.027674917 1.6730093
0.13798159 0.036929112 1.6637115
0.15765525 0.04223932 1.6536909
0.24299219 0.034135439 1.6559609
0.27004522 0.022498464 1.6730404
0.57560772 0.022375958 1.6765817
0.1347342 0.077024296 1.6742111
0.17241386 0.076958261 1.6634595
0.22303602 0.076798305 1.6687322
0.26117483 0.067983583 1.688081
0.57848459 0.073706649 1.6740273
0.1359458 0.12045101 1.6883577
0.17567885 0.12407457 1.6838635
0.21653722 0.11726594 1.6863796
0.57673764 0.12521741 1.6754951
0.19192813 0.18580292 1.6887748
0.22371043 0.17693913 1.6871089
0.25956532 0.19211803 1.693277
0.57710105 0.17507447 1.6760775
0.12412729 0.22817941 1.6646814
0.18187347 0.22536173 1.670651
0.22086304 0.20977607 1.6766858
0.26129597 0.20618959 1.6899122
0.39068633 0.23569202 1.6929525
0.40609246 0.23625584 1.6946068
0.57625437 0.22352153 1.6738206
0.14247516 0.2744391 1.6723589
0.16794489 0.26992068 1.6651698
0.25720605 0.25516 1.6998274
0.38876519 0.26724523 1.6964651
0.40113407 0.26192421 1.6984572
0.57508683 0.27583677 1.6791096
0.14822985 0.32073104 1.6777686
0.15593223 0.31984422 1.6728029
0.5734846 0.3251164 1.6782445
0.27766612 0.37363383 1.6702069
0.32654077 0.38608021 1.6715896
0.57848042 0.37033507 1.6750762
0.60370636 0.39834037 1.6737753
0.58121622 0.44143206 1.6696249
0.60588068 0.41986513 1.6784961
0.57053298 0.4726359 1.6724443
0.56782591 0.52571654 1.6762102
0.56190848 0.57231247 1.6746869
0.55623382 0.62203497 1.6787229
0.54874659 0.6833241 1.6994636
0.55525768 0.67326593 1.670875
0.54739422 0.72710007 1.6880327
0.55446374 0.72202915 1.6711298
0.54987544 0.75099701 1.6824757
0.55743051 0.76107258 1.6727093
0.62514901 0.8276391 1.6974697
1.0366433 0.84524626 1.687515
1.0816755 0.83468211 1.6717491
1.1262023 0.82943827 1.6677101
1.1757547 0.8276009 1.6677419
1.0774927 0.85585231 1.6943221
1.1226521 0.8787145 1.6897238
1.1766809 0.87561888 1.6768931
1.0939988 0.92407548 1.6905031
1.1225065 0.92487091 1.6870793
1.1846931 0.9258579 1.6747999
1.2033896 0.94917589 1.6509573
1.0959859 0.97361958 1.6851832
1.1164763 0.96764743 1.6826845
1.188394 0.9777475 1.6759611
1.0993694 1.006828 1.6753836
1.1048028 1.0317311 1.6863663
1.1879106 1.0275087 1.6800458
1.2005998 1.0245997 1.6563373
1.1870583 1.075536 1.674772
1.1867207 1.1220405 1.6757845
1.1877222 1.1726419 1.6746181
1.1862946 1.2242093 1.6749496
1.1894128 1.2763515 1.6771554
1.2007284 1.2778507 1.657372
1.1914769 1.3259606 1.6745633
1.1924014 1.3769203 1.6794531
1.2008983 1.3804452 1.6564791
1.1917756 1.4225879 1.6757987
1.1936928 1.4694643 1.6760076
1.2074286 1.4634011 1.6574385
1.1975424 1.5403382 1.6927885
1.2015735 1.5211494 1.676115
1.1974484 1.5708283 1.686034
1.203725 1.5780357 1.6662821
1.2051135 1.6118522 1.6898059
-0.85898131 -0.55545956 1.7454679
-0.72337073 -0.55313599 1.7465211
-1.4823215 -0.5031476 1.7409583
-1.4324219 -0.50349635 1.7186537
-1.3793201 -0.50474852 1.7289149
-1.3270928 -0.50718534 1.7298914
-1.2767336 -0.50531709 1.7200565
-1.2473923 -0.51540768 1.7359207
-1.1122473 -0.50895399 1.7313412
-1.0764643 -0.51352358 1.7393665
-1.0191562 -0.50846881 1.7232741
-0.9777109 -0.51179242 1.7257415
-0.92406058 -0.51596433 1.7191763
-0.87150097 -0.54384208 1.7342396
0.02753032 -0.52867937 1.7208149
-1.4269224 -0.49667925 1.7439263
-1.3523982 -0.49871314 1.7465527
0.58166498 -0.48170394 1.7263731
0.54325348 -0.37243325 1.7250234
0.55146432 -0.36606672 1.7161136
0.39765206 -0.30287772 1.7168728
0.54732078 -0.32317534 1.7284021
0.55401349 -0.3251144 1.7104502
0.54674244 -0.28513399 1.7409406
0.55575222 -0.27176982 1.7209486
0.56129998 -0.22216173 1.7232279
0.56457442 -0.17403337 1.72208
0.34813643 -0.11941957 1.7013041
0.56469387 -0.12351032 1.7237438
0.34050232 -0.077083237 1.7191597
0.39166012 -0.086777166 1.7395459
0.41170058 -0.058962472 1.7351114
0.5644697 -0.072352037 1.7249953
0.32767424 -0.027019663 1.725512
0.38069764 -0.025094926 1.73036
0.4156594 -0.025222441 1.736508
0.56431049 -0.026670834 1.7233964
0.29350048 0.031790942 1.7075803
0.31175599 0.019239208 1.7263247
0.3924402 0.016950028 1.7408797
0.41018385 0.021236453 1.7429969
0.56530899 0.019223534 1.7249444
0.27906844 0.081796579 1.7197841
0.30664662 0.053109158 1.7386428
0.39144799 0.074511237 1.7333716
0.40377474 0.067936428 1.7473345
0.56570446 0.071999706 1.7251654
0.14659664 0.14456785 1.7067238
0.17768876 0.14703846 1.7016646
0.23300084 0.13394493 1.706961
0.26403072 0.12502708 1.7305325
0.39282876 0.10621375 1.7494562
0.40483752 0.11219666 1.7479016
0.56513834 0.12494129 1.7232212
0.18077558 0.16966717 1.7161275
0.24251804 0.15826032 1.7068696
0.27498347 0.17656948 1.7242392
0.56591964 0.17521757 1.7242371
0.14226691 0.24739555 1.7127901
0.17092395 0.22237617 1.7111895
0.24141125 0.22283863 1.7090794
0.28042901 0.21876383 1.7172242
0.30536097 0.20640296 1.7400997
0.38598564 0.23071294 1.7263107
0.41567281 0.22681162 1.7174302
0.56505412 0.22656241 1.7190758
0.15774836 0.27928397 1.728067
0.28702384 0.25142562 1.7289469
0.38749364 0.27978763 1.721338
0.41440862 0.27488852 1.7091801
0.56571144 0.27638108 1.718441
0.39164975 0.32310918 1.7213558
0.41564754 0.32498932 1.7158582
0.56341362 0.32512054 1.7203976
0.30441004 0.3779119 1.7152039
0.39419276 0.36504441 1.7161286
0.41469198 0.3729226 1.7260494
0.57142997 0.37389722 1.7237598
0.40716371 0.40081471 1.7254108
0.5833168 0.43087265 1.7234952
0.60023427 0.4204849 1.714304
0.56065023 0.4756794 1.7266452
0.54965955 0.50340199 1.7466918
0.55652744 0.52337319 1.7239239
0.54729164 0.58392262 1.7329354
0.55339074 0.56881046 1.7213265
0.54525733 0.62362671 1.7245483
0.54210168 0.67253983 1.7256287
0.55018491 0.67184925 1.7077363
0.541758 0.72393322 1.724476
0.54317361 0.76167136 1.7345659
0.56766248 0.78211039 1.7118645
0.58762109 0.83202487 1.7415203
0.61364847 0.83796221 1.7321377
0.59199822 0.86541271 1.7461274
0.62459952 0.86488914 1.7389526
0.65552247 0.86804152 1.7313344
1.0451967 0.86608875 1.7079061
1.0811025 0.88086295 1.717647
1.1008037 0.88909477 1.7086481
1.0979813 0.90915787 1.7314464
1.102284 0.90944892 1.7148535
1.166245 0.92540407 1.7047698
1.1334448 0.98755258 1.7264044
1.1660452 0.97651005 1.706764
1.094679 1.0412903 1.720291
1.1192224 1.0231125 1.732748
1.1647708 1.0247087 1.71106
1.092001 1.058818 1.7392962
1.132208 1.0573624 1.7234201
1.1660005 1.0742464 1.715216
1.1686068 1.1242379 1.7244602
1.1724029 1.1729261 1.7235125
1.1739825 1.2252207 1.7302947
1.1778954 1.2771639 1.7259384
1.1780874 1.3233961 1.7256991
1.181345 1.3732067 1.7243558
1.1797649 1.4222548 1.7203578
1.1864576 1.4804816 1.7273761
1.1891212 1.5267678 1.7217213
1.1896045 1.5717289 1.7193648
1.1935685 1.6195548 1.7276437
-0.8530404 -0.55600548 1.7681336
-0.84090096 -0.55882543 1.7766647
-0.75273573 -0.55913907 1.7942131
-0.71526992 -0.5574429 1.7641588
-0.47554606 -0.56786555 1.7902865
-0.39998865 -0.56304902 1.7871639
-1.4878687 -0.50162351 1.7903144
-1.419852 -0.50526232 1.795252
-1.3724812 -0.50420785 1.7623869
-1.3248762 -0.50456721 1.7755886
-1.284362 -0.50423598 1.7621632
-1.1218417 -0.50804222 1.7684984
-1.0771949 -0.5096786 1.7710644
-1.0297251 -0.51099026 1.7790082
-0.97095919 -0.51504165 1.7780387
-0.92189187 -0.52305365 1.7636808
-0.88824493 -0.5404135 1.7650266
-1.4900995 -0.49700522 1.7626669
-1.4144815 -0.49963289 1.7683911
0.53657156 -0.36542895 1.7690479
0.53929132 -0.32567531 1.7729787
0.54282534 -0.27898493 1.7811567
0.55119532 -0.26131797 1.7578834
0.54779589 -0.22942483 1.7863557
0.55339605 -0.22473335 1.7684692
0.54964 -0.1588393 1.7913913
0.55408651 -0.17603134 1.7726299
0.37924746 -0.1027867 1.7680817
0.54970306 -0.1235394 1.7934511
0.55506021 -0.12659942 1.7718152
0.34942997 -0.059245944 1.752287
0.3805539 -0.073767237 1.7672502
0.41268319 -0.061505504 1.7606113
0.54989111 -0.083205335 1.7804809
0.55476218 -0.072323799 1.7750404
0.34351647 -0.012728103 1.7671323
0.37913871 -0.02405115 1.7774153
0.40393099 -0.038849298 1.7811184
0.54908794 -0.013156146 1.7941949
0.55730766 -0.024509598 1.7714219
0.3304686 0.021950575 1.7639309
0.38367158 0.020775104 1.7671565
0.42499667 0.018878367 1.7606614
0.54945326 0.0089021185 1.7953804
0.55647969 0.023515236 1.7728629
0.29935542 0.093444563 1.7617793
0.31424052 0.07250303 1.7668911
0.38624525 0.076413862 1.7687143
0.4182097 0.073678188 1.7610039
0.55811429 0.07465715 1.774116
0.28540039 0.12784088 1.7674025
0.30191672 0.10711423 1.7763627
0.38738516 0.12670851 1.7688349
0.4218505 0.12924841 1.7694027
0.55835509 0.12519851 1.7723867
0.29185241 0.16616639 1.765218
0.31298891 0.18763709 1.7768288
0.39224377 0.17672127 1.7780571
0.41839948 0.17385998 1.7701609
0.55768502 0.175735 1.7782483
0.26459035 0.22861935 1.7517847
0.32354817 0.2094705 1.7769126
0.42017955 0.2057921 1.775764
0.5571003 0.22536381 1.7763357
0.31396183 0.27717462 1.7831857
0.55787909 0.27216399 1.7687989
0.39125782 0.34590492 1.7617619
0.44513986 0.32142222 1.7647618
0.55701661 0.32218868 1.7734119
0.32929322 0.38743258 1.7562987
0.39249751 0.35567534 1.7661783
0.40884832 0.38942811 1.7542665
0.55994898 0.36899999 1.7650758
0.54598564 0.4457908 1.776996
0.57490009 0.4273901 1.7752893
0.54510421 0.47776663 1.7829883
0.55279058 0.47519496 1.7626508
0.53934354 0.52453262 1.7776079
0.53702635 0.57408845 1.7705904
0.53268945 0.62370777 1.7745699
0.53435236 0.67284042 1.7756014
0.53397572 0.72978026 1.7790138
0.53648794 0.76230121 1.7693963
0.57531381 0.82451236 1.7627882
0.57503682 0.86952716 1.7511762
1.0847962 0.91855252 1.776952
1.1131003 0.94234443 1.7844411
1.1290213 0.98025626 1.7840222
1.0891923 1.0390199 1.7705796
1.1161453 1.0220279 1.7837257
1.0814348 1.063692 1.7694889
1.1311972 1.0845947 1.7689196
1.1433188 1.1199101 1.7727302
1.1555473 1.1385093 1.7624733
1.147282 1.1669874 1.798124
1.1562015 1.1782969 1.7719283
1.1586766 1.2223083 1.7722795
1.1612964 1.2740614 1.7764221
1.1493286 1.3270929 1.7987165
1.1647477 1.3243057 1.7754414
1.1671051 1.3742182 1.7762702
1.1707735 1.4267925 1.7781312
1.1751262 1.4695318 1.7715242
1.1778711 1.5230608 1.7788078
1.1808131 1.5732634 1.7726493
1.1801602 1.6222703 1.7709471
1.1816748 1.6624718 1.7882853
-0.86431485 -0.55218953 1.806203
-0.84327477 -0.55614275 1.8157701
-0.77238333 -0.55824965 1.830698
-0.73271435 -0.5606007 1.8234247
-0.57363182 -0.56345528 1.8212017
-0.53447628 -0.56448776 1.8330253
-0.47862515 -0.5707168 1.8250736
-0.40789676 -0.56506753 1.8244509
-0.37382072 -0.56176466 1.8184193
-0.32095766 -0.56447875 1.8343092
-1.4675041 -0.50755525 1.8371824
-1.4213587 -0.50147277 1.8335571
-1.3777785 -0.50339919 1.8119682
-1.3274058 -0.50345528 1.814409
-1.1683868 -0.50844198 1.828208
-1.1355683 -0.51041055 1.8302276
-1.0746019 -0.51014572 1.8237429
-1.0234562 -0.51264721 1.8249142
-0.97570264 -0.51623333 1.824358
-0.92645371 -0.53468734 1.8183362
-1.4968848 -0.49931479 1.8345804
-1.4240727 -0.49991992 1.8234229
0.51993263 -0.36175287 1.8250675
0.5264824 -0.32494354 1.8246671
0.53844142 -0.27146441 1.8260373
0.54109263 -0.22674198 1.8188837
0.54468501 -0.17472149 1.8210272
0.54495102 -0.12548614 1.8246292
0.55332291 -0.11990701 1.8054273
0.38369048 -0.074492112 1.8108742
0.54573864 -0.076293282 1.8290492
0.55213368 -0.079762518 1.8029821
0.5455243 -0.026876159 1.8310019
0.55098778 -0.033224091 1.8080324
0.54603344 0.022554992 1.8309498
0.55253685 0.040010609 1.8051621
0.32503131 0.087289564 1.8084873
0.54614925 0.076487772 1.8303419
0.552881 0.076458439 1.8054228
0.31238502 0.11363779 1.811604
0.44090444 0.10534153 1.8019856
0.54628414 0.12596695 1.828914
0.55379069 0.12463467 1.8065773
0.29803857 0.1566567 1.803355
0.30727068 0.16564542 1.8050002
0.38394931 0.15858522 1.8156101
0.54626751 0.17214638 1.8294821
0.55278105 0.17868219 1.8105927
0.33585539 0.21075329 1.8120527
0.38557935 0.22655857 1.8331465
0.4057079 0.2128852 1.821262
0.54792315 0.22378632 1.8321
0.5526368 0.22608605 1.8117532
0.33429414 0.27140707 1.8164279
0.37397581 0.27332973 1.8334512
0.46416405 0.28026161 1.8246287
0.54619575 0.27360779 1.8301661
0.55317062 0.28451782 1.8101293
0.34205043 0.31301427 1.8360772
0.37823218 0.31483108 1.8421608
0.54496503 0.32343501 1.8285463
0.55071652 0.34174693 1.8087678
0.39661989 0.35856748 1.8275834
0.5457024 0.36808056 1.8245091
0.558981 0.3808074 1.809631
0.54572815 0.44581529 1.8311647
0.56377548 0.42511222 1.8267323
0.53724706 0.47313833 1.8263232
0.53694004 0.5043776 1.8122851
0.5245738 0.64718473 1.812053
0.52414477 0.67264074 1.8185749
0.52735788 0.72312683 1.8323828
0.52719897 0.76141316 1.8282795
1.0946567 0.93649733 1.80215
1.1182079 0.98141235 1.8133775
1.0972176 1.0369458 1.802109
1.1133733 1.0230163 1.820784
1.1323696 1.1302589 1.8201274
1.1409218 1.1749668 1.8262932
1.1451433 1.221947 1.8281189
1.1560838 1.2371538 1.8067749
1.1445999 1.2707911 1.8319285
1.1536112 1.2822829 1.8154192
1.1483781 1.3106946 1.8390528
1.1539717 1.3309189 1.8198866
1.1473106 1.3626267 1.8365731
1.1541837 1.3789588 1.8199364
1.1480422 1.4003839 1.8474014
1.1569054 1.4243437 1.8283006
1.1626407 1.4797838 1.8216069
1.1684743 1.5332503 1.8226089
1.1685995 1.5730362 1.8302221
1.1708795 1.6215805 1.8276644
1.1703669 1.6719462 1.8272231
-0.88415766 -0.55593997 1.8666015
-0.80730951 -0.55591404 1.8781967
-0.78251213 -0.55977446 1.8744451
-0.71105415 -0.55956811 1.8717872
-0.60839361 -0.56633592 1.8700162
-0.57316411 -0.56334394 1.8746456
-0.52068383 -0.56522143 1.8683815
-0.47745818 -0.56795025 1.8770926
-0.41859818 -0.56748569 1.8752179
-0.37346253 -0.56907815 1.8814539
-0.32850361 -0.56373841 1.8802724
-0.27075309 -0.56092054 1.8802259
-0.24078673 -0.55957735 1.8585973
-1.4958361 -0.50262505 1.85412
-1.3890172 -0.5026893 1.8601995
-1.2130789 -0.51223546 1.8753706
-1.1700979 -0.50371283 1.872523
-1.1214449 -0.50969863 1.8728756
-1.0750374 -0.51313704 1.878832
-1.0333418 -0.52015781 1.886322
-0.96921277 -0.52449363 1.8696055
-0.93819928 -0.5429697 1.8785959
-1.4519228 -0.49884462 1.8615005
-1.4187899 -0.49867567 1.881264
-1.3987098 -0.49927384 1.8966386
0.4987413 -0.3651579 1.8978951
0.51293415 -0.3569755 1.8713734
0.51809466 -0.32398301 1.876453
0.53387386 -0.27880582 1.8751136
0.53452259 -0.22458042 1.8729146
0.53611737 -0.17480356 1.8742536
0.5368551 -0.12285586 1.8775706
0.53730434 -0.073255301 1.8704541
0.53959399 -0.027470086 1.8745527
0.53853422 0.022670083 1.8747997
0.53933597 0.073528863 1.8727989
0.53934771 0.12532608 1.8748701
0.53891665 0.17743623 1.8750874
0.53757364 0.22454801 1.8712282
0.37707871 0.29808426 1.8523347
0.53701419 0.27422985 1.8736345
0.37812263 0.32985884 1.8626651
0.4029794 0.34155822 1.8597977
0.48801121 0.33629605 1.8972342
0.53450304 0.32394257 1.8767109
0.38691062 0.37039116 1.8798419
0.40538949 0.37931061 1.8752635
0.53680897 0.37063497 1.8672249
0.55565488 0.39664838 1.8507884
0.54055548 0.4274272 1.882596
0.55572015 0.41395923 1.8654213
0.52603179 0.46765757 1.8738329
0.51657265 0.68699658 1.858215
0.51691359 0.72306877 1.8779534
0.5200001 0.76779765 1.8817835
1.0774633 0.94285536 1.8571357
1.1061153 0.94930422 1.8596675
1.0791785 0.96923739 1.8909425
1.1149764 0.98066044 1.8748134
1.1208631 1.0218307 1.8779402
1.1203848 1.0789021 1.881443
1.1197106 1.12672 1.877529
1.1289276 1.1743661 1.8704975
1.1293155 1.2243279 1.8749022
1.1347592 1.2781972 1.8807886
1.1379071 1.3230355 1.872367
1.1406237 1.3730053 1.8775828
1.1508865 1.3738081 1.8546288
1.1449981 1.4217561 1.8865225
1.1526184 1.4378823 1.8682197
1.145722 1.4751419 1.8792251
1.1539201 1.4621018 1.8668236
1.1559677 1.5285157 1.8758609
1.1578275 1.5751876 1.8736451
1.1560431 1.6214428 1.878686
1.1617211 1.6762744 1.8758053
1.1603829 1.7152251 1.8754854
-0.9208777 -0.55485058 1.9187381
-0.87175417 -0.55523545 1.929881
-0.81846529 -0.55601829 1.9289088
-0.77150375 -0.55834174 1.9313564
-0.72821343 -0.55842298 1.9274482
-0.68002224 -0.55483228 1.926308
-0.62147069 -0.56169653 1.9362818
-0.57943404 -0.55871356 1.9234113
-0.52408272 -0.56504893 1.9250225
-0.48014975 -0.56904733 1.9228801
-0.42987922 -0.56774825 1.9222158
-0.37373325 -0.56835485 1.9267737
-0.32433373 -0.56683731 1.9430869
-0.26010114 -0.56317854 1.9369226
-0.20588115 -0.55850142 1.925064
-1.2282175 -0.50470459 1.924234
-1.170483 -0.50516832 1.914405
-1.1268185 -0.50957954 1.9292927
-1.0667958 -0.51112598 1.9284377
-1.0274189 -0.51724559 1.9151934
-0.97263718 -0.53537214 1.9265814
-0.93209028 -0.54595888 1.9365841
-1.4750574 -0.49212229 1.9388176
-1.1812097 -0.49647513 1.9384762
0.49980006 -0.35381046 1.9424092
0.50330776 -0.35909474 1.9167098
0.49990082 -0.34431615 1.9439533
0.50962585 -0.32835159 1.9192017
0.52691245 -0.27396771 1.9215939
0.52858275 -0.22480278 1.9247382
0.52780271 -0.17707723 1.9307563
0.52966422 -0.12590975 1.9318254
0.53220105 -0.075015359 1.9187554
0.49419755 -0.033033367 1.9414649
0.53229409 -0.026399255 1.9228517
0.53140068 0.021013914 1.9243953
0.53262246 0.075148657 1.9182087
0.53219402 0.12291397 1.914973
0.529392 0.17532226 1.9251831
0.49226484 0.24501102 1.9234818
0.5263347 0.22933978 1.9273833
0.48909137 0.25279227 1.9102606
0.52249354 0.27860609 1.9337972
0.49370864 0.34967169 1.9182311
0.51951319 0.32413772 1.9254954
0.49715194 0.394903 1.9259698
0.52331585 0.37854826 1.9262019
0.49339691 0.40611276 1.9094068
0.51785773 0.42380041 1.9147162
0.51675367 0.46835786 1.929039
0.49883577 0.73471367 1.9480618
0.51033753 0.7363773 1.9265133
0.51212496 0.76709443 1.9298244
1.0478888 0.99113941 1.9275012
1.085341 0.99891663 1.9295429
1.1058222 0.99432087 1.9089268
1.0809691 1.0016297 1.9381559
1.1101224 1.0315325 1.9277538
1.1128411 1.0710627 1.922085
1.1122127 1.1211784 1.923602
1.1162502 1.1778337 1.9240078
1.1193439 1.2282461 1.9296467
1.1208006 1.2741396 1.9264406
1.1272551 1.3230667 1.9303766
1.1287801 1.3698468 1.9301317
1.1321875 1.4267828 1.926808
1.1403209 1.4790382 1.9228929
1.1380211 1.5222141 1.9194605
1.1449784 1.5702645 1.9231499
1.1427807 1.6205381 1.928735
1.1527461 1.6450679 1.9088389
1.1445206 1.6718817 1.9311764
1.1541982 1.6747651 1.9105952
1.145113 1.7244855 1.9372467
1.1532102 1.7230372 1.9118652
1.1505288 1.7602874 1.9390222
-0.90698135 -0.55164802 1.9539365
-0.86949009 -0.55309856 1.961212
-0.8155942 -0.55428314 1.9647881
-0.77280962 -0.55387235 1.9734052
-0.72348344 -0.55620259 1.9719824
-0.66957325 -0.55561954 1.9830723
-0.625148 -0.55760878 1.9770976
-0.57062328 -0.56180489 1.9747717
-0.52422237 -0.56480861 1.9802363
-0.47502923 -0.56604177 1.9742153
-0.43097869 -0.56837058 1.9755422
-0.37647936 -0.56626928 1.9761522
-0.32658896 -0.56851512 1.9849489
-0.27510381 -0.56466067 1.9764695
-0.21725386 -0.56137478 1.9879802
-0.15368685 -0.56602287 1.9901202
-1.2701325 -0.50007629 1.9709141
-1.2264081 -0.50491554 1.9595027
-1.168819 -0.50419426 1.9716337
-1.1286362 -0.50600237 1.9729031
-1.0749074 -0.51149583 1.9804854
-1.0208912 -0.52060717 1.9714639
-0.97392696 -0.53547311 1.9789069
-0.92751443 -0.54100454 1.9837263
-0.87873733 -0.54527467 1.9749956
-0.82686079 -0.54594046 1.9779932
-0.78457022 -0.54828298 1.9780669
-0.72464061 -0.54905999 1.9972172
-0.69062054 -0.54629362 1.9946909
-1.2577825 -0.49619937 1.9863716
-1.2282634 -0.49855119 1.98332
-1.1995234 -0.49790311 1.9934168
0.49507311 -0.35903719 1.9733429
0.51193452 -0.3183673 1.9717951
0.52023244 -0.27574301 1.9718015
0.52272248 -0.22792497 1.9766036
0.52260113 -0.17041893 1.981015
0.52341312 -0.12755063 1.9817195
0.52335012 -0.073274665 1.9734141
0.51670223 -0.029292297 1.9674947
0.49709129 0.019462442 1.9926558
0.51715016 0.024104862 1.9726912
0.52111387 0.076905049 1.9676073
0.4921037 0.12006064 1.9702213
0.51759893 0.12609188 1.9686913
0.49623355 0.193708 1.9828708
0.5134322 0.17201002 1.9678873
0.49694005 0.21979539 1.9838538
0.51110142 0.22173198 1.9628694
0.51384783 0.26217833 1.9544984
0.50825 0.37381724 1.9596163
0.51661444 0.44571403 1.9761164
0.49633953 0.45442462 1.9961874
0.50849032 0.45997468 1.9732636
1.0792046 1.0303063 1.9711567
1.0958697 1.070839 1.989032
1.1037092 1.0750847 1.9662789
1.0998511 1.120326 1.9881989
1.1060421 1.1237013 1.9774092
1.1077244 1.1757383 1.9720149
1.1075422 1.2266695 1.9698571
1.107953 1.2768575 1.9718126
1.1154248 1.3288929 1.9739656
1.1158478 1.3718092 1.974991
1.121664 1.421345 1.9751047
1.1276629 1.4795096 1.9776213
1.1268522 1.5226724 1.9756408
1.1299828 1.5775919 1.9710412
1.1332971 1.6243521 1.972156
1.1342386 1.6817616 1.9742517
1.1340046 1.7248821 1.9768376
1.1357946 1.7707262 1.9758908
-0.75379342 -0.55178291 2.0004809
