ply
format ascii 1.0
comment PCL generated
element vertex 1509
property float x
property float y
property float z
element camera 0
property float view_px
property float view_py
property float view_pz
property float x_axisx
property float x_axisy
property float x_axisz
property float y_axisx
property float y_axisy
property float y_axisz
property float z_axisx
property float z_axisy
property float z_axisz
property float focal
property float scalex
property float scaley
property float centerx
property float centery
property int viewportx
property int viewporty
property float k1
property float k2
end_header
1.1298836 -0.07082624 1.0590495
1.1795229 -0.070361905 1.0703195
1.2193382 -0.071184471 1.0591743
0.62449205 -0.026143033 1.0922511
0.67374438 -0.026143486 1.0883776
0.7247842 -0.026489286 1.083429
0.77494168 -0.026859796 1.0788207
0.81302196 -0.030264156 1.076622
0.62479824 0.023639405 1.0917896
0.67374045 0.023124035 1.0865455
0.72382063 0.023874512 1.0819675
0.77453053 0.024279948 1.0782204
0.80921596 0.012446929 1.0807012
0.59963518 0.077779546 1.0965195
0.62333173 0.075846434 1.0911471
0.67269415 0.075698085 1.0854129
0.72448671 0.074265674 1.0811647
0.7698853 0.073427759 1.0789496
0.59718871 0.12504236 1.0973877
0.62276429 0.12472923 1.0896761
0.67440867 0.12546386 1.0834163
0.72632867 0.12527938 1.0794678
0.76044381 0.11770304 1.0760664
0.59770483 0.17959259 1.0970451
0.6243341 0.17426239 1.0874469
0.67517984 0.17501697 1.0828669
0.72330886 0.17305596 1.076852
0.59230316 0.20915484 1.0883077
0.62260318 0.20903808 1.0789509
0.67344701 0.2070144 1.0700052
0.70985323 0.20090336 1.0705823
-0.0056573711 -0.45216811 1.1300682
0.02651654 -0.45759866 1.1227669
0.075227961 -0.45957181 1.1271309
0.12457911 -0.45989797 1.1225461
0.17610691 -0.46070218 1.1243705
0.22327545 -0.46135637 1.1255399
0.27354911 -0.46210316 1.1243412
0.32455248 -0.46288663 1.1245136
0.37506464 -0.46282667 1.125041
0.42642272 -0.46307513 1.1217216
0.47391272 -0.46375906 1.1250367
0.52357668 -0.46465617 1.1243191
0.57429272 -0.46446151 1.1263516
0.62172484 -0.4575341 1.1150241
0.67634749 -0.46189642 1.1252829
0.72377479 -0.46527347 1.1272713
0.77141637 -0.46533439 1.1248139
0.82119501 -0.46671936 1.1231931
0.87470329 -0.46712756 1.1243924
0.92569107 -0.46681702 1.1222631
0.97818166 -0.46897373 1.1284057
1.0260412 -0.4699136 1.1236501
1.0743276 -0.47010553 1.1241657
1.1237611 -0.47348604 1.1220289
1.1756091 -0.47576866 1.1191355
1.2247512 -0.47785887 1.12221
1.2809421 -0.48176104 1.1235172
1.325215 -0.48207831 1.1278442
1.3797482 -0.48386365 1.1221706
1.4290408 -0.48729792 1.1310877
1.4600872 -0.48866716 1.1260881
-0.0098365014 -0.44857621 1.1225969
0.61936152 -0.43243518 1.1229575
0.65533721 -0.30390733 1.1228151
0.72735333 -0.30116671 1.1058422
0.59826523 -0.27159762 1.1146789
0.61621428 -0.28025931 1.1097835
0.67437679 -0.29465038 1.107702
0.72980994 -0.29633924 1.1018051
0.59719718 -0.22431166 1.1114016
0.60567874 -0.2266261 1.1067468
0.59777546 -0.17512365 1.1183889
0.6046806 -0.17589334 1.1041946
0.59787762 -0.12523787 1.1125863
0.60451335 -0.12559465 1.1156677
0.59711581 -0.076468706 1.1118691
0.60337758 -0.07551723 1.1106575
0.88858318 -0.063518979 1.1018153
0.59513372 -0.025951972 1.1094456
0.60222799 -0.023679208 1.1015345
0.59461474 0.023281429 1.1084665
0.60104042 0.022368347 1.1009368
0.59496272 0.076960027 1.1101506
0.60186839 0.05786157 1.1015278
0.59480363 0.12531663 1.1115916
0.59321791 0.1749384 1.1099422
0.58505452 0.20144427 1.1102973
-0.010381103 -0.45175362 1.1906189
0.024757687 -0.45604116 1.1709071
0.074936517 -0.45813993 1.171867
0.1236653 -0.45984709 1.174093
0.17430797 -0.4600476 1.1753317
0.22652714 -0.46080112 1.1733632
0.27491963 -0.46118468 1.1730971
0.32183695 -0.4625375 1.1745199
0.37725508 -0.46254203 1.1732239
0.42604667 -0.46403345 1.1753707
0.47585282 -0.46299791 1.1707528
0.52637792 -0.4634065 1.1776568
0.5737977 -0.46392241 1.1772395
0.61750787 -0.4616048 1.1768967
0.68421245 -0.4561536 1.168627
0.73039925 -0.46216416 1.1746737
0.77760148 -0.46380171 1.1736231
0.82934231 -0.46546289 1.1760705
0.87407833 -0.46578792 1.1739252
0.92951339 -0.46697208 1.1748397
0.9719857 -0.46683741 1.1727324
1.0238307 -0.46875495 1.1713409
1.0717412 -0.47094756 1.1764755
1.1279293 -0.47309202 1.1672564
1.1798618 -0.4751842 1.17961
1.2310361 -0.47938108 1.1780226
1.2720969 -0.47903714 1.1697204
1.3305442 -0.48230201 1.1765292
1.3735952 -0.48018947 1.1740538
1.4220768 -0.48221293 1.1744394
1.4790952 -0.4855485 1.1729515
1.507304 -0.48616299 1.1787137
-0.0067160339 -0.44790301 1.1705495
0.63037044 -0.41480362 1.1571193
0.66185981 -0.44420707 1.1729928
0.64168197 -0.38448501 1.1647938
0.63745058 -0.33023235 1.1617149
-0.0076852138 -0.45219725 1.2363
0.023874851 -0.4567273 1.2204355
0.077060215 -0.46052244 1.2275058
0.12508401 -0.46062982 1.2259059
0.17429484 -0.46160364 1.2260007
0.22389503 -0.46276641 1.2261949
0.27408493 -0.46106374 1.2250601
0.32595673 -0.46210617 1.2235703
0.37547195 -0.46286619 1.2235287
0.42500895 -0.46250677 1.2224436
0.47487128 -0.46271452 1.222352
0.52705979 -0.46270585 1.2267351
0.57597768 -0.46333802 1.2248942
0.62521577 -0.46290019 1.2238609
0.66902477 -0.46095291 1.2305341
0.72709471 -0.45921993 1.2265946
0.77480876 -0.46054801 1.2262906
0.82042629 -0.46320423 1.219281
0.87535399 -0.46583587 1.2267377
0.92503124 -0.46629333 1.2221665
0.97608066 -0.46639195 1.2235999
1.0281019 -0.46869788 1.2245952
1.0722015 -0.4696306 1.2137086
1.128356 -0.47350049 1.2221979
1.1753983 -0.47509089 1.2320859
1.223767 -0.47604477 1.2292448
1.2732149 -0.47755578 1.220335
1.3227211 -0.47973728 1.2184063
1.3786958 -0.47854257 1.2118244
1.4683549 -0.47621885 1.2112857
1.527833 -0.4830125 1.2181352
1.5685791 -0.4864271 1.2242737
-0.0074977442 -0.44777018 1.2062236
0.70997465 -0.44924659 1.241562
-0.0047091083 -0.45431045 1.2704135
0.022652455 -0.45919669 1.2720947
0.072870709 -0.46198529 1.276127
0.1262683 -0.46178001 1.2740544
0.17361924 -0.46243128 1.2733853
0.22671294 -0.46154562 1.2729366
0.2760286 -0.46284518 1.2760078
0.3249259 -0.46166918 1.2723956
0.3743017 -0.46233737 1.2714105
0.42649087 -0.46241489 1.2792858
0.47455987 -0.46293902 1.2754711
0.52256292 -0.46357122 1.2720658
0.57321566 -0.46308613 1.2790625
0.62417525 -0.46377829 1.2739599
0.66855872 -0.46298587 1.2804264
0.74012738 -0.4600459 1.2744418
0.7680552 -0.4596619 1.2720008
0.82671762 -0.46344468 1.2756402
0.87199783 -0.46560058 1.2695584
0.91820025 -0.46654454 1.274727
0.97435147 -0.46936312 1.2803026
1.0247216 -0.47019482 1.278383
1.0722491 -0.47120693 1.2738153
1.1238698 -0.47217855 1.2758889
1.1783035 -0.47476229 1.2811711
1.2172995 -0.47551093 1.2786621
1.278684 -0.47751862 1.2743106
1.3241224 -0.4774718 1.2716359
1.5341842 -0.47802681 1.2629887
1.5754442 -0.48041368 1.274135
1.6220206 -0.4874337 1.270474
1.6742759 -0.47652674 1.2925797
-0.010984931 -0.44972551 1.2670245
-0.0071453676 -0.45534265 1.3332976
0.027515279 -0.46307588 1.323238
0.075973108 -0.4651348 1.3284345
0.12624271 -0.4643237 1.3267906
0.17856614 -0.46340898 1.3226209
0.22364999 -0.4624764 1.3229001
0.27550673 -0.46422657 1.3266449
0.32359231 -0.46352723 1.3205109
0.37759128 -0.46440959 1.3243698
0.42415452 -0.46359518 1.3274931
0.47689915 -0.46360207 1.324213
0.52692974 -0.46345505 1.3229734
0.57068366 -0.46368214 1.3276793
0.62444842 -0.46460643 1.3232894
0.67277735 -0.46368268 1.3234679
0.71185166 -0.46106625 1.3436919
0.78312725 -0.46255839 1.3219453
0.82695776 -0.46254525 1.3202097
0.87279624 -0.46502751 1.3240306
0.92392433 -0.46654028 1.3219578
0.97310507 -0.46713167 1.3242552
1.021899 -0.47060108 1.318608
1.0747187 -0.47059327 1.3193991
1.1296465 -0.4706623 1.3190027
1.1781543 -0.47425994 1.3193158
1.2315555 -0.47474813 1.3289181
1.2687659 -0.47648159 1.3219618
1.3158903 -0.47706622 1.3075786
1.3831441 -0.4755742 1.3125196
1.4074882 -0.47351748 1.3041584
1.5815994 -0.47844627 1.3328172
1.6331791 -0.48118761 1.3197149
1.6668129 -0.48671067 1.3007675
1.710701 -0.48971632 1.3377292
-0.011384702 -0.44982994 1.3170148
-0.305529 0.99189591 1.3486047
-0.31257749 1.0341214 1.3335737
-0.30888718 1.0689101 1.3214412
1.7372048 -0.50020194 1.3759776
-0.0050600669 -0.46114773 1.3715891
0.02586025 -0.46544218 1.3725095
0.075622484 -0.46715033 1.3763328
0.12453599 -0.46534425 1.3694198
0.17515269 -0.46569377 1.3691627
0.22474495 -0.46522138 1.3773911
0.27611846 -0.46597046 1.376066
0.32685217 -0.46540534 1.3712085
0.37158313 -0.46541589 1.3701715
0.42663097 -0.46685389 1.3775767
0.47519436 -0.46658269 1.3775535
0.52250677 -0.46532121 1.374413
0.5765838 -0.46588993 1.3780341
0.62463325 -0.46541643 1.3705372
0.67534411 -0.46515068 1.3710506
0.72583312 -0.46366289 1.3821329
0.79111713 -0.45901024 1.372417
0.82139432 -0.46498352 1.3753133
0.87513804 -0.46669513 1.3785211
0.92478329 -0.46843311 1.3723879
0.97361535 -0.47027338 1.381178
1.021827 -0.47163796 1.3690151
1.0693278 -0.47098309 1.3693601
1.1268179 -0.47158909 1.3645575
1.1764171 -0.47233766 1.3683813
1.2259096 -0.47230515 1.3772103
1.2625974 -0.47388005 1.3663982
1.5505592 -0.47403845 1.3949746
1.6915636 -0.48991463 1.357111
1.7179365 -0.48758677 1.381022
1.7636521 -0.48971421 1.3832756
0.7960425 -0.40818679 1.398162
0.81265181 -0.4013502 1.3957409
1.7721725 -0.41344446 1.3908461
0.7992152 -0.39091301 1.3905152
0.80610198 -0.39060143 1.3861154
1.6427618 -0.056313895 1.3842858
1.6694577 -0.056699675 1.3801274
1.6364716 -0.046892505 1.3968587
1.6828558 -0.032192241 1.389213
1.7147372 -0.023443669 1.3913906
1.6950693 0.00097212574 1.3932738
1.7109102 0.010798893 1.392784
-0.29127485 0.98027664 1.3655856
-0.30575079 1.0024403 1.3950903
-0.28728411 1.0400906 1.356634
-0.28860021 1.1144763 1.3760624
-0.0052099535 -0.46431988 1.4146146
0.021808766 -0.4704088 1.4310733
0.074343167 -0.47228718 1.4237404
0.12353159 -0.46915656 1.4249119
0.1761865 -0.46860251 1.4210048
0.2253404 -0.46975487 1.4260837
0.27844441 -0.46854749 1.4232893
0.32498366 -0.46956843 1.4290017
0.37833276 -0.46903145 1.4191591
0.42503443 -0.4684366 1.4262642
0.47588098 -0.46981743 1.4294031
0.53028989 -0.46796662 1.4240825
0.5735057 -0.46805343 1.423388
0.62597013 -0.46787 1.4235624
0.67871338 -0.46932268 1.4269094
0.72337466 -0.46835387 1.4189355
0.7504642 -0.46570981 1.4217182
0.83670932 -0.46554774 1.4283329
0.87417626 -0.46782166 1.4272569
0.92666167 -0.46639571 1.4217641
0.97493148 -0.46746996 1.4172741
1.0240943 -0.46893749 1.4220736
1.0772643 -0.47063327 1.4271916
1.1233237 -0.47101957 1.4130723
1.1764991 -0.4700841 1.4195794
1.2341849 -0.46864608 1.4076155
1.2826583 -0.4746576 1.4163041
1.5925647 -0.47713116 1.4355423
1.7414985 -0.48417124 1.4027022
1.7807487 -0.47207564 1.4174751
1.8268654 -0.46263957 1.4251724
0.81166583 -0.40848735 1.4155041
1.7833877 -0.42238748 1.4074357
1.8080543 -0.44069636 1.427177
1.4361157 -0.063109979 1.4452002
1.4678434 -0.060512394 1.439762
1.5240973 -0.059752669 1.4275292
1.5755525 -0.055902038 1.4223887
1.6028152 -0.055982266 1.4027505
1.5369805 -0.043117914 1.4430313
1.5756135 -0.027682047 1.4378065
1.625275 -0.02684021 1.4154719
1.6728595 -0.016013395 1.4059652
1.5931007 0.010377847 1.4480801
1.623492 0.023689482 1.4373217
1.6731602 0.025538336 1.4206591
1.7172531 0.030536167 1.4081267
1.6381788 0.063954875 1.4422166
1.6740772 0.076519035 1.4353114
1.7210578 0.070241384 1.4165756
1.7542778 0.091124266 1.4210148
1.6916983 0.11563516 1.4440509
1.7238873 0.11820553 1.4335638
1.7584337 0.12594976 1.4273303
1.7370344 0.15978625 1.4457452
1.7754737 0.17149036 1.4402437
1.7903283 0.21051618 1.4399085
-0.0090638204 -0.47298193 1.4765327
0.026684111 -0.47306371 1.4697702
0.077374473 -0.47559112 1.4712917
0.12790243 -0.47290936 1.4760716
0.17596795 -0.47192478 1.4716204
0.22070901 -0.47211725 1.4750016
0.27270409 -0.47278962 1.4747908
0.32637784 -0.47193319 1.4734744
0.37723696 -0.47174993 1.4753418
0.42524904 -0.47304264 1.4770664
0.47383788 -0.47187701 1.4682448
0.52326101 -0.4713878 1.4717801
0.57172936 -0.46991444 1.4738715
0.62322187 -0.47153759 1.4787037
0.67665172 -0.47054964 1.4753244
0.72406608 -0.47052458 1.4696981
0.77448964 -0.46917725 1.4796069
0.87581968 -0.46850601 1.4797814
0.91543323 -0.46686867 1.4701176
0.97314638 -0.46829244 1.4724716
1.0247238 -0.46621534 1.468498
1.0771382 -0.46745539 1.4779719
1.133443 -0.47095051 1.4592928
1.1560142 -0.47059739 1.4644054
1.200129 -0.4698312 1.4980804
1.5957316 -0.47121751 1.4592785
1.6104065 -0.47261781 1.4543756
1.7739215 -0.47538957 1.4527347
1.8136554 -0.46603686 1.4609716
1.8115604 -0.44326007 1.4550464
1.172482 -0.061405152 1.4830427
1.2210448 -0.068994887 1.4900279
1.3328534 -0.058830392 1.4963276
1.3738525 -0.058296755 1.4822556
1.4186436 -0.058797147 1.4701229
1.4599222 -0.054721385 1.4608036
1.5033302 -0.055254996 1.45148
1.1698391 -0.038154505 1.4924924
1.3423529 -0.044465888 1.4905868
1.384346 -0.039822202 1.4929224
1.4292469 -0.028776806 1.4871595
1.4762187 -0.027262539 1.4723982
1.5216855 -0.024099303 1.4571943
1.5593535 -0.0087496452 1.452696
1.4445219 0.0052477741 1.4979273
1.4769379 0.015039598 1.4901178
1.5234679 0.026125602 1.4777988
1.572417 0.02565125 1.4608873
1.6035519 0.049021672 1.4568452
1.5279864 0.069338731 1.4922837
1.5727104 0.076797873 1.480126
1.6216929 0.083565749 1.4638587
1.6602834 0.098970488 1.4508455
1.5841134 0.12095618 1.4941947
1.6259756 0.12832941 1.4819818
1.6687371 0.12941712 1.4639345
1.7084905 0.14061269 1.4528974
1.6329529 0.167458 1.4919156
1.67643 0.17353888 1.4760878
1.7207752 0.17527227 1.4616346
1.7620986 0.18920201 1.4563789
1.8062706 0.19801952 1.4733291
1.6707942 0.2044194 1.4838318
1.7214643 0.2082324 1.4757403
1.7601243 0.20838039 1.4650179
1.8242118 0.22033444 1.4759326
-0.0055230018 -0.47376838 1.5036938
0.017180184 -0.48773935 1.5479801
0.081049323 -0.48288655 1.5311655
0.13190608 -0.48034006 1.5309817
0.17411701 -0.47659889 1.5208362
0.22689651 -0.47906747 1.5306307
0.28033435 -0.47484741 1.5196189
0.32545385 -0.47571918 1.5252259
0.37700671 -0.47458529 1.5295815
0.42517674 -0.47411761 1.5195646
0.47517979 -0.47489774 1.5237961
0.52167642 -0.47491232 1.519142
0.57838142 -0.47365183 1.5203897
0.6258772 -0.47439435 1.5261813
0.67282665 -0.47359985 1.5273087
0.72663146 -0.47310218 1.5320902
0.77706319 -0.47246364 1.5236664
0.81177038 -0.46596861 1.5268608
0.87415439 -0.4617379 1.5069695
0.92070156 -0.46853343 1.5155097
0.97096366 -0.46785024 1.5241956
1.0039123 -0.46859705 1.5234871
1.1222712 -0.46359476 1.510199
1.1896516 -0.46740723 1.5083958
1.2256775 -0.46620929 1.5334659
1.2233831 -0.058570363 1.5180502
1.2733947 -0.057922594 1.5155293
1.3147862 -0.055619344 1.50553
1.1837814 -0.01981595 1.5133692
1.2296858 -0.026153278 1.5349447
1.273916 -0.025492478 1.5282695
1.3213763 -0.026993752 1.5146292
1.3697466 -0.019998448 1.5084414
1.4088442 -0.013273452 1.5036968
1.179284 0.014357775 1.5263891
1.2232833 0.0081598256 1.5460659
1.2815157 0.013647152 1.5431587
1.3229165 0.02345271 1.5353061
1.3749107 0.023592182 1.5268775
1.4232705 0.02529012 1.5146043
1.4672557 0.040905159 1.5057715
1.502833 0.048131924 1.5038644
1.1462936 0.060562816 1.5189155
1.1702132 0.065926529 1.541921
1.3360451 0.057873853 1.5469002
1.3790982 0.069470629 1.54151
1.4243981 0.076020271 1.5309087
1.4771683 0.077475198 1.5195357
1.513762 0.082956411 1.5043707
1.3954701 0.10337556 1.5470207
1.4308333 0.11554976 1.5432776
1.4795864 0.1228988 1.5330608
1.5248854 0.12409149 1.5159235
1.5651661 0.13541733 1.5064312
1.4911735 0.16220172 1.5422877
1.5296676 0.17476688 1.5330982
1.5754399 0.17756285 1.5182072
1.6179105 0.18580197 1.505201
1.5413711 0.20587134 1.5400519
1.5779961 0.21514104 1.5371584
1.6155376 0.21785264 1.5281327
-0.30564037 1.2502216 1.5467452
0.021290895 -0.48879483 1.5676179
0.075383931 -0.48665506 1.5695399
0.12627938 -0.48403457 1.5767198
0.17594311 -0.48019969 1.5789924
0.22758171 -0.47990909 1.5727092
0.28094417 -0.48133686 1.5755992
0.32931173 -0.48103753 1.5837297
0.36476567 -0.47580227 1.5606232
0.4230504 -0.47779518 1.5717509
0.47768146 -0.47668186 1.5757898
0.52455932 -0.47696507 1.5771261
0.56844968 -0.47599688 1.5667369
0.62411785 -0.47538149 1.5679594
0.68122882 -0.47452232 1.5808001
0.72810173 -0.47446275 1.5779715
0.7735551 -0.47760981 1.5724628
0.81096417 -0.47554588 1.5768409
0.91236508 -0.46760508 1.5632026
0.96197635 -0.46817455 1.5555607
1.1739978 -0.4502551 1.557421
1.2315832 -0.46740463 1.5595504
1.1996876 0.044720713 1.5557842
1.2317432 0.033815697 1.5597919
1.2651546 0.029999327 1.5548257
1.1900854 0.08490096 1.5674504
1.227761 0.073140763 1.5769002
1.2768707 0.07387042 1.5719041
1.3218035 0.078029923 1.5586425
1.3686228 0.087369271 1.55553
1.1709517 0.13093619 1.5766525
1.2405174 0.11006215 1.597309
1.2740015 0.11295114 1.5917598
1.3234187 0.12475955 1.5827332
1.3768369 0.12340468 1.5672821
1.4202169 0.13299781 1.5566158
1.4744478 0.1414122 1.5529877
1.3321639 0.15654485 1.5936327
1.3772676 0.16792694 1.5876812
1.4228997 0.17307931 1.5711932
1.4681306 0.17606792 1.5562918
1.5055395 0.18489181 1.5514153
1.3885019 0.20056652 1.5933721
1.4261261 0.20187807 1.581813
1.474839 0.20335537 1.5624028
1.5270237 0.20916586 1.552528
-0.31291816 1.1620221 1.5876595
-0.30763119 1.2263926 1.5776523
-0.30428088 1.2780163 1.5914887
0.018262573 -0.50226086 1.6488582
0.035736665 -0.49420768 1.6153358
0.070355564 -0.49804008 1.6340166
0.11875353 -0.48930144 1.6258043
0.17016082 -0.48426631 1.6257843
0.22431421 -0.48389417 1.6239929
0.27628273 -0.48255116 1.6187775
0.32285783 -0.48006535 1.6142951
0.37795261 -0.4811835 1.625003
0.42231652 -0.48059872 1.6262399
0.47399989 -0.48079804 1.631092
0.53133869 -0.47969654 1.6267262
0.57522547 -0.48158416 1.628474
0.62683785 -0.47977629 1.6231476
0.67613262 -0.47820082 1.6326729
0.72321987 -0.47741795 1.6303717
0.78015703 -0.47741234 1.6310925
0.82135308 -0.47883162 1.6259112
0.86454582 -0.46852472 1.6252736
1.2245965 0.13032576 1.6086726
1.2690892 0.14127633 1.607347
1.1865678 0.16823047 1.6096832
1.2248195 0.17804448 1.6314304
1.2735404 0.17802438 1.6259613
1.3238846 0.1836022 1.6108433
1.3567553 0.18518475 1.6026541
1.1803334 0.20125456 1.6248953
1.2644444 0.20760518 1.6476474
1.3399059 0.20989275 1.6249776
1.3716488 0.20017746 1.6008052
-0.31203178 1.1787643 1.6259782
-0.30514994 1.2197942 1.6248254
-0.29912347 1.244072 1.6484035
-0.30201027 1.2761453 1.6259247
-0.30103377 1.3089459 1.6224208
-0.29553959 1.3268474 1.646068
0.028967116 -0.50231653 1.6777573
0.059728146 -0.5024699 1.677597
0.018451843 -0.49934068 1.6677872
0.075228758 -0.49770293 1.6775441
0.11823586 -0.49319661 1.6686696
0.17408602 -0.49075046 1.6919746
0.22797361 -0.4856554 1.679143
0.27381054 -0.48517311 1.6803955
0.32795796 -0.48445189 1.673797
0.37473452 -0.48559359 1.6828085
0.42586771 -0.48206806 1.6682298
0.47480386 -0.48330984 1.6802893
0.52882773 -0.48238966 1.6750357
0.5750795 -0.47943276 1.6701006
0.62661332 -0.48150143 1.6743474
0.67661023 -0.47931132 1.6739355
0.72752905 -0.47793373 1.6791158
0.77527338 -0.47627455 1.6729913
0.82663077 -0.47841558 1.6806276
1.3131599 0.23005496 1.6533817
-0.3038384 1.187662 1.673618
-0.29982713 1.1997509 1.6802098
-0.30033332 1.2238609 1.6701841
-0.2940945 1.2291776 1.6817015
-0.30140346 1.2630544 1.6551
-0.29160342 1.2823937 1.6771039
-0.29125011 1.3221794 1.6688136
-0.28326243 1.3552666 1.693547
0.031896085 -0.50488216 1.731294
0.082267992 -0.50115371 1.7173858
0.12358388 -0.50267231 1.7362974
0.069625594 -0.49763352 1.7208614
0.12947235 -0.49567574 1.7304182
0.17836927 -0.49323726 1.7210803
0.21273185 -0.48855332 1.7123402
0.27562422 -0.48702931 1.7328268
0.32205188 -0.48537385 1.716072
0.37960228 -0.48594365 1.7265617
0.42737132 -0.48524341 1.7234856
0.47446468 -0.48503995 1.7239357
0.52528864 -0.48409417 1.715816
0.58430755 -0.48488861 1.7408049
0.62517965 -0.48245427 1.7213008
0.66677314 -0.48118904 1.7263068
0.72121841 -0.4788062 1.7216926
0.82421303 -0.4755187 1.7216974
0.85900402 -0.478407 1.7352428
-0.28608322 1.1914043 1.7307911
-0.28553545 1.2244285 1.7260764
-0.28092682 1.2687018 1.7269624
-0.27825722 1.3269674 1.7304322
-0.27167153 1.3759775 1.7340176
-0.26203063 1.4048424 1.7497731
0.010886977 -0.51222813 1.7722939
0.097535618 -0.50259715 1.7688495
0.12246986 -0.49827147 1.7525407
0.19302684 -0.49433112 1.7666748
0.22205707 -0.49430063 1.7690164
0.28746229 -0.49146262 1.7810414
0.32822156 -0.48700404 1.7696053
0.37720141 -0.48568979 1.765412
0.42762426 -0.48476315 1.7714056
0.55362618 -0.48899251 1.7635955
0.61240578 -0.48434749 1.7685282
0.671709 -0.47929326 1.7710471
0.73401469 -0.48058447 1.7587208
0.75830936 -0.47840452 1.7687855
0.82265782 -0.47908974 1.7644295
0.88198507 -0.47956166 1.787865
2.187247 0.31605136 1.7857472
2.201663 0.34248301 1.782161
2.1956084 0.37518141 1.794916
2.1899197 0.42982808 1.7877712
2.1776495 0.47740024 1.778245
2.170325 0.52575654 1.7771658
2.1696854 0.56986123 1.7655745
-0.27137572 1.193512 1.7719046
-0.26869339 1.2231563 1.7766471
-0.26445669 1.2686659 1.7775313
-0.26258114 1.3242195 1.7758105
-0.26214832 1.3729721 1.7718222
-0.25641584 1.4199386 1.789502
0.22335829 -0.49521309 1.8010006
0.32220888 -0.48872957 1.8014287
0.4259949 -0.48670149 1.8149399
0.45111775 -0.48532638 1.8426423
0.68978125 -0.48290095 1.8204488
0.89085484 -0.47519976 1.8315918
0.90789127 -0.47665176 1.839646
0.9501856 -0.46885264 1.80329
2.1918285 0.33480784 1.8159481
2.1909316 0.37652576 1.8141918
2.1826015 0.42381558 1.8101143
2.2080765 0.40745208 1.8473125
2.1676257 0.45697185 1.8021876
-0.24870135 1.1962185 1.8395832
-0.25581819 1.2240953 1.8157772
-0.24946772 1.226801 1.8314281
-0.25130439 1.2849233 1.8183894
-0.24393663 1.2676477 1.8368527
-0.25232413 1.3258638 1.8052751
-0.24311896 1.3282392 1.8379004
-0.2559666 1.3915616 1.8029945
-0.24158883 1.3722616 1.829362
-0.24325228 1.4183038 1.8192039
-0.25009167 1.4537507 1.8131959
-0.23807918 1.4592649 1.8351426
0.12895559 -0.51087135 1.8703564
0.16316679 -0.505422 1.8780704
0.38954139 -0.48504996 1.8893325
0.44503835 -0.48870972 1.8570062
0.46345806 -0.48919454 1.8947154
0.65721542 -0.48036548 1.8589942
-0.23690507 1.1926779 1.8771098
-0.23520769 1.2209884 1.8699124
-0.23086731 1.2771602 1.8743159
-0.22666305 1.3251942 1.8798434
-0.22521855 1.3723487 1.87529
-0.22469862 1.42453 1.8748806
-0.22733828 1.4668165 1.8651196
-0.21734035 1.5192621 1.8994907
0.13064349 -0.50639522 1.9148123
0.15847313 -0.50551939 1.9060414
0.13593428 -0.48851237 1.9329716
0.16227996 -0.49836516 1.9252945
0.21384868 -0.49800533 1.9205464
0.39377946 -0.4867166 1.9352942
0.40317112 -0.48652995 1.9332283
0.47271538 -0.48937005 1.934227
0.68472916 -0.48278567 1.919329
0.7164591 -0.48560643 1.9234505
0.76373386 -0.47928232 1.9354885
0.14345455 -0.43723786 1.9360702
1.6629575 0.4857868 1.9468231
1.6591247 0.52230293 1.9431547
1.6465499 0.58765316 1.948573
1.6585807 0.57602352 1.9434117
1.6315379 0.60990644 1.9468968
1.6500138 0.60065919 1.9496069
-0.22439158 1.1972084 1.9069192
-0.21374606 1.224157 1.9261991
-0.21355137 1.2872261 1.9192061
-0.20886554 1.327803 1.9247767
-0.20735525 1.3740536 1.9289571
-0.21014652 1.4203355 1.9211184
-0.21243863 1.4785039 1.9195305
-0.21287422 1.5157542 1.9166882
-0.19966364 1.5529723 1.9436514
0.1275153 -0.50021195 1.973141
0.14203221 -0.49090332 1.9753363
0.15790811 -0.48309904 1.9631617
0.47999057 -0.48715794 1.9656503
0.54064065 -0.48420152 1.9640192
0.59241295 -0.48977301 1.9998139
0.6912424 -0.47999668 1.9651828
0.71682447 -0.48101291 1.9555823
0.13557686 -0.44220939 1.9585702
0.15597194 -0.44134569 1.9757288
1.6440983 0.29054168 1.9677837
1.6455781 0.32447794 1.9818711
1.6620877 0.32578704 1.9705951
1.646687 0.37195018 1.9893869
1.6642145 0.37573892 1.9756176
1.6422911 0.42798972 1.9781941
1.6632639 0.43033901 1.9627302
1.6390586 0.47560933 1.9764056
1.6577123 0.47090253 1.9586486
1.6350636 0.52126372 1.9615347
1.6527768 0.50962728 1.9519391
1.6369793 0.57314026 1.9581157
1.6616284 0.55354476 1.9528397
1.6373113 0.62382782 1.9506079
1.6706796 0.60389042 1.9514699
-0.19917193 1.2380185 1.9635525
-0.20027258 1.2769153 1.9586018
-0.18914987 1.2717342 1.980722
-0.20131832 1.3158219 1.9523149
-0.18742242 1.326225 1.9798777
-0.18944649 1.369889 1.9697338
-0.19121011 1.4278412 1.9672426
-0.1917447 1.4678438 1.9629922
0.54200709 -0.4894065 2.0079727
0.5875147 -0.48816183 2.0394912
0.6080296 -0.48830241 2.0359979
0.67473316 -0.47771692 2.0336196
0.71987468 -0.47632456 2.0285459
1.6490166 0.36767814 2.019624
1.6608782 0.39116177 2.0386162
1.6588751 0.41055426 2.0328915
-0.17086643 1.1884432 2.042429
-0.17630626 1.2303535 2.0240443
-0.17667921 1.2753223 2.0198548
-0.17155159 1.3232045 2.0321138
-0.17129537 1.3742803 2.0338068
-0.1666773 1.4074911 2.0460324
-0.17400713 1.4722028 2.0186241
0.54301816 -0.48933333 2.0530262
0.57264036 -0.48405632 2.0714254
0.62070805 -0.47589692 2.0735455
0.67992252 -0.47550347 2.0587635
0.70742166 -0.4766266 2.0576315
1.0082442 0.24887577 2.0982394
1.654707 0.39098352 2.0579598
1.6504089 0.40940955 2.0611594
-0.15780282 1.1834482 2.0760417
-0.14099702 1.1893513 2.0933783
-0.15867765 1.2285142 2.0632718
-0.15870699 1.2781913 2.0583222
-0.15737407 1.3284928 2.0563896
-0.15517938 1.377508 2.0590346
-0.15591027 1.4066594 2.056829
0.53501207 -0.47775474 2.1180003
0.561616 -0.48049685 2.1059713
1.0157769 0.24113676 2.1281414
0.93503499 0.25096127 2.1426673
0.97963279 0.25534365 2.1351526
-0.170384 1.1904495 2.1181483
0.93651539 0.24471164 2.1902215
0.98132551 0.24482226 2.17729
1.0120237 0.24418403 2.1606998
0.83763266 0.25279489 2.1884229
0.87836629 0.25253224 2.1746001
0.92591619 0.25843495 2.1640368
0.95492959 0.2643629 2.1587231
0.78361565 0.24551867 2.2398851
0.82725501 0.24688761 2.2425675
0.87628269 0.24809025 2.2415538
0.91031855 0.24664636 2.2174976
1.0704271 0.24126554 2.2295275
0.74559873 0.2551055 2.2331991
0.77014297 0.25590554 2.2349913
0.81654412 0.25478476 2.2128758
0.86735004 0.25507987 2.2021823
0.74316525 0.24689023 2.2628994
0.75868863 0.24647333 2.255233
1.0378449 0.24351849 2.2963095
1.0735543 0.24007601 2.2790411
0.89870286 0.2476524 2.3497939
0.92929804 0.23682274 2.3409679
0.97588164 0.23637915 2.3245344
1.0186194 0.23124827 2.308341
1.0636294 0.22705969 2.3023555
0.7491889 0.24884251 2.3980308
0.78597718 0.24329968 2.3944738
0.82588911 0.23692507 2.3808103
0.87047458 0.236185 2.3615873
0.90391612 0.22833435 2.3534811
-0.043842081 -0.32769042 2.43923
-0.020287281 -0.25564274 2.4275501
-0.020264091 -0.23213583 2.4262896
-0.020323502 -0.17460765 2.4365556
-0.017423598 -0.02621313 2.4430017
-0.024827665 0.0139252 2.4276695
-0.025197433 0.077919789 2.4311242
-0.020280242 0.11621369 2.4334517
-0.025197029 0.17736557 2.4274583
-0.020320788 0.20957816 2.4341807
0.68927217 0.23217531 2.4457598
0.72677153 0.22739077 2.4298108
0.77084321 0.23046313 2.4099247
0.43357429 0.49041918 2.4497399
0.43034467 0.53521925 2.4483454
0.4252038 0.5733816 2.4458067
0.017973512 -0.33720145 2.4877348
-0.0087493826 -0.25812128 2.4511311
0.0029952787 -0.25899273 2.4594162
-0.0087673524 -0.2468949 2.4569595
0.01016183 -0.23973837 2.4810414
0.0030032427 -0.10620063 2.4728649
0.0030112045 -0.059141982 2.4803641
-0.0087480117 -0.017568521 2.4595151
0.0053976774 -0.033181876 2.4850097
-0.0087494953 0.011774 2.4599285
0.0030008929 0.0059383661 2.4722524
-0.0087534012 0.082238771 2.4600947
0.0030076653 0.082782663 2.4769301
-0.0087663438 0.18228716 2.4601302
0.0089973593 0.18454146 2.4906378
-0.0087673748 0.21169843 2.4588363
0.0030175888 0.21356064 2.4802191
0.54870188 0.22438723 2.4957376
0.57823884 0.22409573 2.4878614
0.62594241 0.22513334 2.4687915
0.66247422 0.22691788 2.453815
0.43869323 0.38156742 2.4779906
0.43459609 0.42790657 2.4743779
0.0070601725 0.46374536 2.4853756
0.42231226 0.47286788 2.4644151
0.45027715 0.45937732 2.4790626
0.42390832 0.51959687 2.4608727
0.45128906 0.51493299 2.4774375
0.41264889 0.5723021 2.4590011
0.033269845 -0.3561672 2.5149539
0.031224223 -0.33352041 2.5128908
0.051900987 -0.32324243 2.5437758
0.027063597 -0.23405203 2.5094008
0.01498438 -0.10747331 2.5024726
0.021036042 -0.075827964 2.5103228
0.014991795 -0.011919391 2.5051134
0.019868199 0.0096238721 2.514894
0.98478937 0.035212029 2.5478754
1.0156152 0.038371321 2.5366082
0.019034995 0.09190926 2.5107138
0.93671179 0.067221358 2.5468268
0.97445041 0.069985725 2.5386684
1.0255374 0.068834916 2.5290191
1.0181627 0.10230055 2.5416946
0.027238471 0.18127 2.5282509
0.46422386 0.19680148 2.5449524
0.01501976 0.21557081 2.5036952
0.47748888 0.21681422 2.5364523
0.51934743 0.22365291 2.5149961
0.027269859 0.28394341 2.5218916
0.02745685 0.32280865 2.5393987
0.4301407 0.36607647 2.5161746
0.027512634 0.4216865 2.5311091
0.41865671 0.42784968 2.51544
0.027577391 0.45881367 2.5369954
0.41893777 0.45260042 2.5142698
0.027749209 0.65252912 2.5251355
0.052095287 -0.34281692 2.551754
0.84475702 0.034295619 2.5966311
0.88150656 0.026874734 2.58428
0.927472 0.032005329 2.5627601
0.96334529 0.029886998 2.5529871
1.0024611 0.025784088 2.5571241
0.84111124 0.057682563 2.5921538
0.87732112 0.070344664 2.5769155
0.91498685 0.072249211 2.5595663
0.97751522 0.10271019 2.564281
1.000998 0.10249799 2.5520051
0.39844549 0.19770898 2.5643306
0.42889154 0.19751094 2.5584226
0.39065075 0.22060956 2.5668864
0.42889622 0.2160295 2.5575092
0.039853342 0.29394838 2.5556564
0.056559782 0.29165483 2.5713708
0.039857574 0.32460159 2.5534759
0.058941837 0.32846063 2.583374
0.040012125 0.37508327 2.5589423
0.058193289 0.3815867 2.5847371
0.040009711 0.42624283 2.5535359
0.055149961 0.42329225 2.570982
0.040052757 0.45544052 2.5530531
0.052736193 0.47111848 2.5697386
0.040318932 0.59478652 2.5515051
0.059593782 0.58260822 2.5826273
0.061880574 0.62024802 2.5858529
0.053514648 0.73600721 2.5674553
0.74220496 0.038991313 2.6495869
0.76962602 0.030235715 2.6342053
0.81573075 0.029060077 2.6151257
0.74167067 0.064876527 2.6473074
0.77419883 0.068301983 2.6238124
0.81999582 0.075185858 2.6115673
0.85214078 0.083729267 2.6044111
0.9630596 0.10461527 2.6204753
0.078824766 0.3739861 2.6235416
0.080758795 0.42973158 2.6339536
0.072751112 0.47400111 2.62046
0.079471275 0.54011011 2.6263838
0.076886572 0.57398874 2.6194522
0.075529657 0.62070483 2.6244392
0.076609381 0.66340739 2.6180944
0.080594957 0.74258286 2.6295328
0.080726974 0.76749915 2.6293466
0.69428807 0.035075422 2.6917541
0.72610271 0.025012301 2.6725333
0.68548912 0.070341915 2.6876769
0.72146595 0.073243201 2.6652794
0.75919235 0.09133219 2.6603463
0.092475645 0.40797898 2.6504724
0.093154795 0.56509584 2.6512721
0.094017833 0.67404366 2.6597328
0.6698277 0.033092126 2.712671
0.64045471 0.053173345 2.733078
0.66026813 0.072705626 2.7150605
1.2945361 2.4071484 2.7808099
1.3263283 2.4174585 2.7818923
0.16494001 -0.27589649 2.809634
1.0671388 0.12779565 2.8399115
1.1613855 0.1717184 2.8376486
1.2222106 2.4191744 2.8255222
1.2769732 2.4145753 2.8166962
1.3266747 2.4164844 2.8180473
1.3673877 2.4439151 2.8011379
0.18658794 -0.26536611 2.866214
1.0631911 0.12903371 2.871177
1.1368448 0.14546445 2.897413
1.1507896 0.14539504 2.8919797
1.1277924 0.16821413 2.8897491
1.1536028 0.17268871 2.8578107
1.0417814 0.1317472 2.9426806
1.0724123 0.13996315 2.9215534
0.89971524 0.15910563 2.936934
1.0828257 0.1605878 2.9232512
1.1456869 0.37095633 2.9480441
1.1719111 0.38222083 2.9302375
1.1881677 0.41650501 2.9401829
1.2017612 0.41435021 2.9194324
0.91849142 0.14767157 2.9987497
0.97863597 0.1404727 2.9898274
1.0232505 0.14100379 2.9673498
1.0633814 0.1473392 2.9580481
1.0610499 0.16170174 2.9510267
1.1219147 0.38290167 2.9832184
1.1518767 0.38787225 2.9626317
1.1416677 0.41124165 2.9914205
1.1715884 0.42442822 2.96737
1.1789246 0.46726087 2.9818103
1.2014277 0.47928068 2.9528553
1.1875237 0.51619822 2.9982102
0.44011456 2.4060323 2.997915
0.49384934 2.4131172 2.9999881
0.93617022 0.1407406 3.0053024
0.95133829 0.14079498 3.003324
0.87619936 0.36556506 3.0292506
1.028265 0.38395941 3.0378079
1.0714521 0.38622135 3.0207858
0.86477524 0.41579553 3.0120611
1.0795828 0.42173558 3.0365224
1.1201149 0.42520541 3.011745
1.1522846 0.43843192 3.0022073
1.1294057 0.47149545 3.035774
1.1612556 0.47457659 3.0110173
1.1409795 0.51710278 3.0416086
1.1663195 0.52654809 3.0206211
1.1334634 0.57262337 3.0346634
1.1559796 0.5648151 3.0195432
0.52996242 2.4183846 3.0015829
0.92845029 0.39425194 3.069231
0.97486669 0.39463204 3.0625341
1.0299134 0.39539465 3.0564628
0.8819766 0.40892455 3.0733719
0.92600113 0.41676238 3.0859318
0.97461462 0.42823774 3.0846112
1.0236356 0.42918795 3.0690358
1.0604342 0.43703541 3.0537126
0.97222966 0.46127024 3.0999877
1.0291879 0.47447032 3.0812871
1.0772866 0.47557652 3.0666637
1.1069273 0.48278701 3.0554543
1.0301417 0.51716328 3.0946045
1.0740523 0.52337021 3.0827315
1.1160468 0.52553493 3.0627613
1.0397975 0.57996833 3.0910373
1.0744519 0.57104051 3.0859997
1.1175616 0.57138681 3.0680485
0.93155944 0.44481808 3.1020584
0.93829089 0.47312999 3.1081266
0.97479957 0.47984415 3.1062942
1.0074489 0.48650962 3.104671
0.94552928 0.50955665 3.1148179
0.97942287 0.52664614 3.1161234
1.0188154 0.53238273 3.1038923
0.98878479 0.5662607 3.1149242
1.0225319 0.57148898 3.1047599
1.7980666 2.4285192 4.0068779
1.8417361 2.4413447 4.0155268
1.8628583 2.4311781 4.043478
1.584198 2.4309289 4.0826559
1.6211851 2.4353733 4.0795636
1.7921935 2.4285893 4.0640354
1.8295484 2.4299867 4.0719752
1.3943938 2.4365668 4.1469326
1.5908484 2.4358118 4.1436677
1.6180798 2.4250393 4.1148529
1.8788711 2.4439592 4.1188955
1.3776463 2.4244242 4.1814036
1.5905313 2.4123445 4.1533628
1.630388 2.4203653 4.1566496
1.3795903 2.450701 4.1769061
1.3453552 2.4257033 4.2452316
1.3804851 2.4265616 4.2381582
1.4161602 2.4283326 4.2324433
1.6238478 2.4219198 4.216959
1.6629907 2.4281106 4.2170801
1.3824579 2.4271953 4.2931561
1.4155509 2.4239528 4.2786479
1.6273016 2.4210873 4.2704334
1.6666923 2.427115 4.2704229
1.4421028 2.4257016 4.3305168
1.646238 2.4254751 4.3305397
1.6866474 2.4323351 4.332077
1.9479688 2.4524734 4.3461671
1.4290857 2.4317811 4.3737011
1.6694536 2.4181008 4.3669128
1.7157269 2.4328272 4.3826818
1.9631068 2.4470551 4.39079
1.4854625 2.4317212 4.4255886
1.7216136 2.4340587 4.4428234
1.9428327 2.427799 4.4194994
1.977559 2.440413 4.4338775
2.0011518 2.4391463 4.4228539
1.5126952 2.4306386 4.4940104
1.6844252 2.4330635 4.4518247
1.7204012 2.4251628 4.4852757
1.773334 2.4428468 4.4753814
1.4913765 2.4354975 4.509181
1.5273671 2.4296653 4.5476384
1.7407801 2.4290972 4.5486598
1.7568034 2.4417312 4.5085607
1.5101218 2.441442 4.5759153
1.5613571 2.4444766 4.5689979
3.4951925 1.7872466 4.7961578
3.4383397 1.8285334 4.8147993
3.4718437 1.8315288 4.8060713
3.3330305 1.9659405 4.8758125
3.2872741 0.98504835 4.9495435
3.2853687 1.0118035 4.942347
3.088541 2.2769332 4.9492135
3.0838048 1.2261912 4.9823594
3.1070645 1.2246433 4.9629502
3.0806763 1.2649521 4.9892516
3.0728176 1.4243602 4.9823513
3.0509005 2.1994321 4.9738441
3.0843611 2.2173438 4.9632649
3.0577092 2.2608621 4.9644847
3.0391304 2.3531117 4.9623709
3.0352669 1.0784634 5.0440912
2.9754717 1.1446455 5.048429
3.0210354 1.1328108 5.0401454
2.9468787 1.1985594 5.0485768
2.9753942 1.1854734 5.0410872
3.022042 1.1814544 5.0233912
3.0565979 1.1989475 5.0003691
2.9448912 1.224961 5.0401926
2.9805715 1.2284698 5.0423908
3.016897 1.2193764 5.0274582
3.0608525 1.2278905 5.0022302
2.9829202 1.270407 5.0385804
3.0234003 1.2702326 5.0190959
3.0660484 1.2846161 5.000123
2.9788046 1.331807 5.0394092
3.0296879 1.3275977 5.0186157
2.976913 1.3831879 5.0355945
3.0294487 1.3797269 5.0174561
3.0792303 1.3724546 5.0046897
2.938576 1.4255545 5.0499315
2.9813595 1.4263823 5.0342917
3.0249717 1.4275844 5.0195861
3.0808065 1.4006101 5.0013447
2.9234471 1.4659045 5.0444345
2.9741364 1.4569746 5.0454931
3.004993 1.4586326 5.0386605
2.9654033 1.5811487 5.0423522
2.9274852 1.6264462 5.0456333
2.9800301 1.620896 5.0383582
2.9949062 1.6608706 5.0343776
3.0002451 1.6915562 5.0361681
2.9826224 1.7309365 5.0251646
3.021482 1.7156196 5.005156
2.9154239 1.7736622 5.0488358
2.8899815 1.830494 5.0497456
2.9168065 1.8160903 5.0397129
2.9312389 1.0814811 5.0809975
2.9711301 1.0737069 5.0726237
3.0067272 1.0780005 5.054369
2.946887 1.1304945 5.0604968
2.9755931 1.1174505 5.0532794
2.9269497 1.1796669 5.0566945
2.9168451 1.2245924 5.0507002
2.9309812 1.2715282 5.0674715
2.9587393 1.2717342 5.0561433
2.7863643 1.3359673 5.0975256
2.9318459 1.3129175 5.0610089
2.960537 1.3135341 5.0512128
2.9367185 1.3972647 5.0526009
2.8177886 1.4471524 5.0711861
2.9088931 1.4244204 5.0580368
2.7979555 1.4510051 5.0961423
2.8004477 1.4796925 5.0947165
2.9288421 1.4686596 5.0537014
2.9196022 1.5258778 5.0551424
2.9563055 1.530653 5.0587044
2.7729633 1.5618094 5.0872469
2.9264653 1.5845603 5.0539875
2.7862816 1.6243632 5.0985923
2.9419308 1.6760268 5.0600166
2.9736183 1.6921587 5.0507393
2.9447715 1.7192227 5.0541072
2.8247828 1.7688915 5.0715933
2.871639 1.7722538 5.0632076
2.8705976 1.8114315 5.0614166
2.7634184 1.9498384 5.0995641
2.6512954 0.99902922 5.1452246
2.6817446 1.0003338 5.1416183
2.7142048 1.0023556 5.1415119
2.7500603 1.0327443 5.1433682
2.74702 1.0858729 5.1293674
2.778055 1.0738251 5.1278677
2.8188241 1.0801152 5.1206942
2.7466569 1.1264263 5.122139
2.7763395 1.1274824 5.1159945
2.803947 1.1412557 5.1035547
2.7258763 1.2786194 5.1186929
2.669055 1.3795514 5.1482482
2.7160025 1.382618 5.1437502
2.6728439 1.4225118 5.1472692
2.7340801 1.4259632 5.1381855
2.6765862 1.4655991 5.1458998
2.7345805 1.453649 5.1333694
2.7748506 1.4806337 5.1092911
2.6994531 1.539306 5.1430664
2.7473223 1.5353767 5.1079812
2.7754195 1.5083555 5.1042709
2.67275 1.5672274 5.1490536
2.728039 1.5674404 5.1279993
2.7520239 1.5654628 5.1104207
2.7051754 1.6527324 5.1281562
2.6716323 1.7403989 5.1387386
2.7178504 1.7434877 5.1313543
2.6951783 1.7744299 5.1447148
2.7202716 1.7727367 5.1287079
2.6973705 1.8174918 5.1378317
2.7321939 1.8114599 5.1201558
2.7788017 1.8025095 5.1044631
2.7211182 1.8719934 5.1263247
2.7609084 1.8924121 5.1110568
2.763634 1.9221354 5.1081047
2.7189538 1.9604985 5.1195593
2.5319617 0.76613903 5.1897407
2.5570152 0.76562023 5.1765738
2.5372405 0.82157034 5.1945891
2.5788 0.81607366 5.172462
2.5975239 0.87763655 5.1817632
2.6253989 0.89143252 5.1719561
2.6596296 0.89387596 5.1759973
2.6021748 0.93328011 5.1841393
2.6671283 0.93846607 5.1637368
2.5970769 0.97192329 5.1685491
2.6257892 0.98607898 5.1601229
2.6702266 0.97402698 5.1543875
2.7397051 0.98444027 5.1937022
2.5465937 1.0272769 5.1874952
2.5792735 1.0295479 5.1891928
2.6144388 1.0201759 5.1754384
2.6591475 1.0290568 5.156538
2.7217238 1.0322856 5.1517835
2.585676 1.0592533 5.1980796
2.6232734 1.0715796 5.1749363
2.6627066 1.0575392 5.159399
2.5737414 1.1278522 5.1957483
2.617682 1.1156372 5.1894598
2.5772395 1.2245958 5.1870723
2.5836968 1.2685858 5.1928301
2.6313751 1.2629467 5.170608
2.6656334 1.282305 5.1600599
2.6285079 1.3251076 5.1753225
2.6689019 1.3248446 5.1586952
2.671804 1.3809559 5.1536217
2.5710516 1.4815407 5.1923003
2.6257834 1.4814949 5.1716948
2.663789 1.4523822 5.1558347
2.5722048 1.5233793 5.1857891
2.6245704 1.5219342 5.1603885
2.6693227 1.5240438 5.1517038
2.5762706 1.5807443 5.1817145
2.624563 1.5749588 5.1598334
2.5396388 1.624896 5.1967254
2.5814815 1.6315418 5.1696162
2.5634453 1.6500494 5.1726723
2.5663218 1.7715056 5.184103
2.6370234 1.7725682 5.1610165
2.6661432 1.7735364 5.1530614
2.566366 1.8117121 5.1856484
2.6099215 1.8006506 5.1655188
2.6723506 1.8054388 5.1577544
2.3874977 -0.24030843 5.2493253
2.4001603 0.72654587 5.2448173
2.4024503 0.78107947 5.2442727
2.472641 0.78202033 5.228014
2.5150633 0.78265917 5.2183466
2.4173284 0.83540916 5.236908
2.475563 0.82342386 5.2297077
2.5138764 0.80925077 5.2129068
2.4152217 0.87506759 5.227643
2.474421 0.87698483 5.2209415
2.5453856 0.87823635 5.2048512
2.51951 1.000217 5.2007442
2.4315877 1.0842074 5.2356367
2.5704062 1.0785352 5.2075677
2.3906667 1.1111571 5.244369
2.5926609 1.1165619 5.2037797
2.5243909 1.2184292 5.2223139
2.485471 1.2534857 5.2232828
2.5289731 1.2548103 5.2144117
2.5701637 1.2549756 5.2004228
2.5004904 1.3980987 5.2294049
2.4489424 1.4273818 5.2498579
2.4860725 1.4251059 5.2272911
2.5267861 1.4248946 5.2120123
2.4980435 1.4514936 5.213304
2.5189085 1.4831083 5.2176514
2.5234478 1.5197016 5.2081113
2.4578998 1.5703297 5.2401733
2.5135674 1.625827 5.2096419
2.471216 1.7450107 5.2296424
2.4324214 1.7746844 5.2429953
2.4752841 1.7756252 5.2313085
2.4497464 1.8049732 5.2386193
2.4773893 1.8049009 5.2286768
2.5178561 1.8040841 5.2114172
2.4324763 1.8964398 5.2489486
2.4328759 1.9246438 5.2422271
2.4583719 1.9227886 5.2274365
2.2703505 -0.32105133 5.2912612
2.316103 -0.31995156 5.2571507
2.362004 -0.32073373 5.2576842
2.2858138 -0.28111345 5.2935743
2.3259442 -0.28109813 5.2810707
2.3781724 -0.28091383 5.2611713
2.285521 -0.24087352 5.2942657
2.3286278 -0.23176794 5.2772851
2.3633096 -0.24057841 5.2635465
2.2190638 -0.15954417 5.2817063
2.2680559 -0.12002456 5.2915764
2.3229778 -0.12008646 5.2784786
2.362138 -0.12002504 5.2637348
2.2820663 -0.079905294 5.2895441
2.3182058 -0.079754137 5.2681694
2.3603792 -0.079811268 5.2603331
2.3445952 0.72597474 5.2580581
2.3719196 0.72612303 5.250514
2.2076128 0.77875048 5.2872009
2.3463945 0.78032118 5.2565918
2.3742034 0.7806325 5.2500458
2.2760341 0.83788043 5.2997227
2.3811455 0.80989903 5.2624736
2.4090519 0.81022024 5.2557492
2.245877 0.89066005 5.2941866
2.3446352 1.0334481 5.292068
2.363385 1.0297834 5.2646322
2.325165 1.0690709 5.2895284
2.3791547 1.0714314 5.2593393
2.397295 1.429285 5.2753325
2.3174453 1.4858685 5.2968183
2.3939838 1.4547546 5.2625718
2.3177745 1.5135956 5.2919116
2.4301651 1.5151048 5.2610211
2.3494654 1.5990016 5.2747569
2.367831 1.5806299 5.2728219
2.4021235 1.5836272 5.2542629
2.3702021 1.6313739 5.2796144
2.4054537 1.6271785 5.2522807
2.3113558 1.7774582 5.2927399
2.3780823 1.8835636 5.2745781
2.4155519 1.8791447 5.263886
2.3813043 1.9280162 5.2704911
2.4078491 1.9269178 5.2580285
2.3304012 1.9881092 5.2848125
2.3683071 1.9847145 5.2618661
2.2758422 2.0173512 5.2982965
2.3169901 2.0306308 5.2788081
2.2825363 2.0794883 5.29774
2.281214 2.1063693 5.286397
2.2258799 -0.33963242 5.3160958
2.223907 -0.2817961 5.3257198
2.2603178 -0.28128889 5.3047023
2.2612107 -0.24114852 5.3081636
2.2090936 -0.1607666 5.3296986
2.2291265 -0.12009966 5.306355
2.2306986 -0.08000008 5.3106065
2.2579143 -0.066611141 5.3038073
2.2462707 0.82336068 5.3028421
2.2470465 0.8641299 5.3001165
2.2805347 0.89367926 5.3039184
1.6692638 1.0111098 5.3430347
1.7099956 1.0116113 5.3369932
1.8005388 1.044457 5.3471975
2.2734127 1.0183754 5.3073225
2.3179636 1.0200752 5.3036232
2.2762344 1.060405 5.3082438
1.8064152 1.1553211 5.3493042
1.7798587 1.2092489 5.348187
1.8068404 1.2093344 5.342289
1.8085473 1.2642694 5.3386459
2.2042446 1.3463296 5.349
2.2314961 1.3736786 5.3353395
2.2537475 1.3842294 5.3122044
2.2326312 1.4156014 5.3302946
2.2597048 1.4290984 5.3184056
1.7943028 1.4628507 5.3490376
2.2169325 1.4555347 5.3217006
2.2627888 1.4723297 5.3175249
1.7404298 1.5443603 5.3464098
1.7819301 1.531574 5.3423376
1.7423279 1.5731673 5.3466783
1.7991011 1.5754062 5.3416028
2.1700904 1.5711979 5.3352995
2.2291353 1.5739899 5.3283339
2.2685502 1.5726255 5.3110614
1.7699101 1.6007184 5.3361435
1.8031613 1.606184 5.3479342
2.13416 1.630433 5.3488955
2.1789284 1.6110926 5.3364162
2.2175343 1.6031891 5.3318443
2.2688394 1.7711214 5.3183589
2.2365222 1.825994 5.3285661
2.2739182 1.8215532 5.3187943
2.3178473 1.8102992 5.3006711
2.2253549 1.8701214 5.3288298
2.269912 1.8723671 5.3222647
2.2295113 1.9155653 5.3278317
2.2737942 1.9175701 5.3203435
2.2326145 1.9742439 5.3202105
2.2739601 1.9736872 5.3056011
2.1821699 2.035393 5.335268
2.2534988 2.0224252 5.3204975
2.1428833 2.0661683 5.3468733
2.1846035 2.0798211 5.3292332
2.2262018 2.0512259 5.3231335
2.2647552 2.0616112 5.3113236
2.2307389 2.1117206 5.3176551
2.2554631 2.1085317 5.300797
1.6226361 0.98851657 5.3795033
1.6211601 1.0260087 5.3856392
1.6811585 1.0451145 5.377604
1.735031 1.0452974 5.366787
1.773953 1.0445601 5.3539228
1.8357002 1.0492591 5.3654466
1.6817753 1.0722992 5.375927
1.7215961 1.0720692 5.3659968
1.7640038 1.0734386 5.3638
1.8194828 1.0745152 5.3567252
1.8762326 1.0569483 5.398272
1.9027545 1.056639 5.3900886
1.6485759 1.1306944 5.3998132
1.6723512 1.1285825 5.3840232
1.7791103 1.101311 5.3620362
1.779171 1.1685011 5.3523321
1.8412124 1.1603304 5.3661036
1.6339955 1.2375269 5.3826561
1.8533151 1.2222735 5.3929896
1.6273915 1.2967641 5.3993702
1.7023807 1.2787385 5.365274
1.8183293 1.2981493 5.3629999
1.8558946 1.2647738 5.3939137
2.0325859 1.2869887 5.3864117
2.0616422 1.2880486 5.3834858
1.6791674 1.3220257 5.3762026
1.7191671 1.3216891 5.3659253
2.0366156 1.3307102 5.3900118
2.057456 1.3127787 5.3678732
1.6831243 1.365707 5.3818159
1.7177578 1.3600975 5.3702941
2.2067389 1.3753558 5.3500447
1.7852654 1.4267219 5.3579116
1.8249018 1.4249735 5.3606467
2.2140002 1.4074749 5.3625112
1.7403736 1.4765894 5.3596325
1.7676914 1.4767857 5.3541403
1.8247569 1.4655656 5.3525157
1.7252966 1.5289015 5.363215
1.8426064 1.5347098 5.3940964
1.7177647 1.5755018 5.360786
1.7726349 1.5760108 5.3500557
1.8362287 1.556707 5.3698921
1.7320398 1.6166406 5.3673778
2.1368554 1.6048247 5.3616667
2.0386846 1.7538549 5.3943868
2.0761433 1.772734 5.3806858
2.1233234 1.7826838 5.3674574
2.0429654 1.8133314 5.3924241
2.0734792 1.8156389 5.3915877
2.1240816 1.8111839 5.3626108
2.0692384 1.9134365 5.3840213
2.1037309 1.9295142 5.361433
2.0176983 1.9831263 5.3941073
2.0546587 1.9639963 5.3876901
2.1679683 1.9931175 5.3507466
2.0273409 2.0208309 5.3822327
2.0852232 2.0225616 5.3711605
2.141463 2.0226517 5.3551817
2.0316951 2.0673776 5.3820839
2.0742259 2.0677369 5.3712268
2.0220196 2.1141477 5.3856754
2.0646179 2.1144865 5.374783
1.5970808 1.2401665 5.4025102
1.8609838 1.2000607 5.4195676
1.6569974 1.2988058 5.4021764
1.9029189 1.2780911 5.4440923
1.6043898 1.300005 5.4184585
1.8703016 1.3156978 5.428946
1.9013875 1.3182591 5.4328351
2.0105631 1.3178669 5.4033356
1.5739949 1.4856802 5.4306183
1.6110382 1.4821484 5.4094152
1.8853846 1.4782648 5.4453106
1.5375828 1.5310036 5.4466696
1.5721818 1.5248109 5.416501
1.6331396 1.5309343 5.4269962
1.8450189 1.509279 5.4066095
1.8852475 1.5334275 5.4341278
1.5382724 1.5727353 5.4409685
1.58013 1.5736026 5.418251
1.6143126 1.5669179 5.4043417
1.8890169 1.5780039 5.4366126
1.5420196 1.6176755 5.445848
1.5822037 1.6304522 5.4315724
1.6193829 1.6265318 5.4100237
1.8744349 1.6188579 5.4290667
1.5996337 1.6754481 5.4327049
1.8787479 1.6775761 5.4452443
1.8679508 1.7225083 5.4327993
1.9386443 1.792088 5.4487576
1.9767779 1.7886133 5.4273701
2.0251021 1.7767773 5.4082756
1.9368058 1.8183633 5.4369488
1.9809599 1.8344136 5.4287705
2.0205712 1.8322608 5.4112673
2.0508833 1.8483644 5.4064684
1.9421381 1.8794733 5.438231
1.9828323 1.8781902 5.4235711
2.0256963 1.8789675 5.414607
1.9852574 1.9226079 5.41957
2.026227 1.9215381 5.4053202
1.9271044 1.9860991 5.4269562
1.9818484 1.9753103 5.4108543
1.892203 2.0263085 5.4338112
1.9332206 2.0250869 5.4197674
1.8947079 2.0571725 5.4333496
1.9034622 1.2372264 5.4523163
1.3772479 1.5213516 5.4940104
1.4177272 1.5206861 5.4843893
1.4711307 1.5192651 5.469295
1.5104834 1.5312346 5.4527974
1.3533754 1.5940329 5.4996676
1.4150134 1.5730075 5.4826374
1.4759196 1.5696944 5.4594383
1.5127928 1.5746664 5.4529991
1.3664032 1.6206744 5.4888983
1.438249 1.6242894 5.4889793
1.4774739 1.6220332 5.4737282
1.5159686 1.6191233 5.4560823
1.9055555 1.7175095 5.4572306
1.8798652 1.7614543 5.461091
1.920431 1.7738476 5.4590931
1.7424185 1.8197508 5.4881167
1.8071977 1.8849391 5.4885936
1.7826549 1.9310157 5.4957047
1.8926593 1.9141933 5.4644256
1.8809171 1.9729388 5.4602795
1.765926 2.0226421 5.4834423
1.6768333 2.122977 5.4953327
1.7068994 2.1251845 5.4947853
1.6791425 2.1542482 5.4949808
1.7086583 2.1557417 5.4925036
1.335855 1.466704 5.5306611
1.3653932 1.4822516 5.5116067
1.3307045 1.5308702 5.5376391
1.3527919 1.5246673 5.5106907
1.3314531 1.586877 5.5300617
1.3549483 1.5683694 5.5115108
1.3321416 1.6291469 5.5246186
1.4123751 1.6261839 5.5003366
1.3407502 1.6952586 5.5487862
1.6813557 1.8857129 5.5193472
1.7242068 1.8864346 5.5122337
1.7614527 1.876748 5.5051613
1.6977921 1.9306419 5.5136499
1.7258034 1.9304669 5.5069151
