ply
format ascii 1.0
comment PCL generated
element vertex 1455
property float x
property float y
property float z
element camera 0
property float view_px
property float view_py
property float view_pz
property float x_axisx
property float x_axisy
property float x_axisz
property float y_axisx
property float y_axisy
property float y_axisz
property float z_axisx
property float z_axisy
property float z_axisz
property float focal
property float scalex
property float scaley
property float centerx
property float centery
property int viewportx
property int viewporty
property float k1
property float k2
end_header
0.47400755 -0.49237818 0.57528198
0.52494484 -0.49264729 0.57419276
0.57516301 -0.49184021 0.57403952
0.62195009 -0.49079353 0.57814199
0.66978747 -0.48922068 0.591995
-0.065390043 -0.43519869 0.57360947
-0.049031004 -0.43700156 0.5897693
-0.10286997 -0.35721147 0.55819827
-0.077312946 -0.37411696 0.57580423
-0.044746928 -0.38019431 0.58851784
-0.10406606 -0.32580411 0.56377631
-0.096202783 -0.32505053 0.58837652
-0.1038432 -0.27544314 0.56296748
-0.096227162 -0.27278548 0.58757252
-0.10234614 -0.22661611 0.5593856
-0.094028719 -0.2220673 0.58307397
-0.10154095 -0.17584927 0.55358064
-0.09215676 -0.17402251 0.57774723
-0.10089105 -0.12702398 0.55273539
-0.089640878 -0.12309485 0.57819599
-0.1010253 -0.076871477 0.55143583
-0.091637947 -0.075217433 0.57723802
-0.10068926 -0.028224105 0.55265003
-0.09227097 -0.025836729 0.57849407
-0.10054503 0.022835772 0.55198669
-0.092211083 0.024225216 0.57804507
-0.10096511 0.072398663 0.55241048
-0.093614168 0.07561671 0.57701504
-0.10125063 0.12996273 0.55405581
-0.093394183 0.12460959 0.57870817
-0.10130918 0.17673135 0.55520433
-0.093805999 0.17419158 0.57903683
-0.10190078 0.22217998 0.55511403
-0.094180793 0.22495393 0.57970977
-0.10214792 0.27449104 0.55685312
-0.094509438 0.27554238 0.58078718
-0.10372039 0.32114589 0.56046456
-0.088734686 0.32860675 0.57987863
-0.021556148 -0.47027665 0.62422985
0.024182448 -0.47779393 0.62467146
0.074922204 -0.48160598 0.62457204
0.12488402 -0.48369801 0.624951
0.1745352 -0.48453626 0.6241588
0.22391137 -0.48233232 0.62404329
0.2750698 -0.4864507 0.6253745
0.32497683 -0.48740888 0.62561083
0.37482536 -0.48835218 0.62496388
0.42503527 -0.48861328 0.62393492
0.47509035 -0.48868868 0.62510604
0.52504689 -0.48897678 0.6240328
0.57352483 -0.4882594 0.62485641
0.62407279 -0.48785144 0.62474465
0.67390424 -0.48656601 0.62503123
0.7230317 -0.48593929 0.63043708
0.76374602 -0.48523924 0.64120167
-0.054668799 -0.43154287 0.61095679
-0.040029958 -0.4389759 0.62775928
-0.071214661 -0.3688145 0.62290388
-0.039194647 -0.38267726 0.63315696
-0.08380492 -0.32562166 0.62520528
-0.084416568 -0.27480993 0.62453026
-0.082386374 -0.22660311 0.62330413
-0.080618486 -0.17471194 0.62043649
-0.078333832 -0.12349129 0.62168503
-0.072830327 -0.077197962 0.62307727
-0.045238808 -0.074576199 0.62634742
-0.075496323 -0.025985725 0.62475938
-0.0369443 -0.009044976 0.63170701
-0.073386423 0.02721177 0.62405193
-0.043509528 0.019807033 0.61993784
-0.078383952 0.072982207 0.62443089
-0.080194466 0.12449224 0.62360561
-0.080712587 0.17423645 0.62365216
-0.080920242 0.22543886 0.62504041
-0.081845224 0.27462718 0.62496865
-0.076372303 0.32837772 0.62561846
-0.037404645 0.32115874 0.62208474
-0.014051416 -0.46703947 0.67072117
0.02434051 -0.47351831 0.67397273
0.074958712 -0.47794843 0.67419237
0.12463375 -0.48025966 0.67382371
0.17558697 -0.48058817 0.67502171
0.22494492 -0.47987646 0.67281795
0.27531698 -0.48290268 0.676009
0.32533783 -0.48354924 0.67515856
0.37413424 -0.48474386 0.6748631
0.4245846 -0.48549697 0.67485952
0.47430292 -0.48564196 0.67475796
0.52405578 -0.48575413 0.67468327
0.57550836 -0.48605922 0.67498612
0.62380421 -0.48572773 0.67585075
0.67476934 -0.48446834 0.67535472
0.72612327 -0.48366165 0.67444301
0.77469742 -0.48397797 0.67400479
0.81949919 -0.48491746 0.68293083
0.85306406 -0.48451358 0.69418126
-0.030584393 -0.43404657 0.67144579
-0.062878698 -0.36111096 0.66345799
-0.034133259 -0.37311637 0.6741538
-0.064912565 -0.32438782 0.67158633
-0.04368664 -0.33117673 0.69232047
-0.062610358 -0.27527794 0.67607147
-0.048010722 -0.27975553 0.69439608
-0.060440686 -0.2242813 0.67935151
-0.019629164 -0.21927476 0.69341689
-0.062668636 -0.17525299 0.67448938
-0.019509465 -0.18162686 0.69623291
-0.063491754 -0.12738425 0.67010951
-0.021318706 -0.11171311 0.69277364
-0.060580548 -0.068342008 0.66605806
-0.036067851 -0.073307112 0.67749584
-0.060891576 -0.024463344 0.66557932
-0.026742036 -0.024576338 0.68378109
-0.059669897 0.015811237 0.66599512
-0.030814186 0.02605297 0.67970335
-0.06516882 0.07674922 0.66286218
-0.024865029 0.072186977 0.67585433
-0.06805481 0.12634869 0.66044033
-0.022861751 0.12233007 0.67715895
-0.067529328 0.17651191 0.66353518
-0.023960842 0.17487583 0.67960531
-0.066622324 0.22321777 0.66661686
-0.024684971 0.22138166 0.67631525
-0.067067996 0.27418718 0.66703606
-0.027871909 0.27564237 0.67645288
-0.064862736 0.32600302 0.66744769
-0.037081379 0.32871985 0.67291701
-0.010418358 -0.46526003 0.72486246
0.024427608 -0.4698965 0.72478163
0.075012065 -0.47428319 0.72434431
0.12500872 -0.47650987 0.72526574
0.17233109 -0.47482583 0.72281331
0.22613224 -0.47882524 0.72409582
0.27479538 -0.4796674 0.72442341
0.32446378 -0.48059827 0.72535563
0.37442884 -0.48174548 0.72471762
0.42511246 -0.48339581 0.72479683
0.4746933 -0.48298669 0.72471148
0.52465308 -0.48289594 0.72523552
0.57463402 -0.48288751 0.72337872
0.62437636 -0.482885 0.72521359
0.67452443 -0.48219314 0.72534275
0.72414929 -0.48259363 0.72478759
0.77398562 -0.48371848 0.72389483
0.82320184 -0.48542178 0.72538322
0.87158036 -0.48609656 0.72753906
0.91677326 -0.4867081 0.73724979
-0.018819101 -0.42577928 0.71136326
-0.014173212 -0.39709902 0.72162557
-0.017099278 -0.32416403 0.70664066
-0.015019932 -0.21407746 0.72101665
-0.017057521 -0.1682273 0.7083106
-0.018314283 -0.13137278 0.70348477
-0.019279011 -0.05871084 0.70163
-0.0081233485 -0.46383536 0.77426904
0.025186505 -0.46565273 0.77631044
0.073474742 -0.46844146 0.77224725
0.12353062 -0.47141853 0.77113122
0.17666714 -0.47512677 0.77657658
0.22514689 -0.47625595 0.77465463
0.27499112 -0.47687697 0.7737909
0.32549706 -0.47770613 0.77525479
0.37533858 -0.47863975 0.77442306
0.42451119 -0.48052698 0.77387005
0.47455955 -0.48054978 0.77482444
0.52347207 -0.48017931 0.77428555
0.57432783 -0.48021063 0.77448756
0.62495744 -0.48020735 0.77311343
0.67444038 -0.48049831 0.77313203
0.72373825 -0.48144701 0.77647185
0.77186972 -0.48263109 0.77420545
0.82257599 -0.4838734 0.77633023
0.87373877 -0.48502392 0.77269232
0.92482519 -0.48604494 0.77723753
0.97245914 -0.48824206 0.77847213
1.0153432 -0.48946786 0.79530096
-0.007310567 -0.4476836 0.79503024
-0.0043357918 -0.45966792 0.82602668
0.024586318 -0.46396267 0.82569283
0.076836213 -0.46834537 0.82638502
0.12528193 -0.47097233 0.82444876
0.17405777 -0.4726775 0.82404757
0.22401047 -0.47354865 0.8253231
0.27387455 -0.47420526 0.82368916
0.3247425 -0.4747279 0.82543397
0.37545228 -0.47568822 0.82457525
0.42379817 -0.47705638 0.82325172
0.47445023 -0.47866803 0.82448143
0.52441776 -0.47790849 0.82344645
0.57289344 -0.47790888 0.8244791
0.6230343 -0.47808385 0.82407266
0.67458922 -0.47904021 0.82344842
0.72508186 -0.47990015 0.82539564
0.77739435 -0.48124996 0.82408339
0.82805622 -0.4836297 0.82584292
0.87500787 -0.48373437 0.82414091
0.92338157 -0.48508266 0.82424951
0.97443223 -0.48585021 0.82650506
1.0232514 -0.48594564 0.82411164
1.0647116 -0.48657379 0.83023942
-0.005675328 -0.46042737 0.87721789
0.023940286 -0.46434394 0.8739664
0.074296117 -0.46568674 0.87501103
0.12511082 -0.468088 0.87400919
0.17531896 -0.46972743 0.87401074
0.22411148 -0.47066993 0.87473804
0.27562302 -0.47164297 0.87525827
0.32571787 -0.47194874 0.87484413
0.3745766 -0.4723624 0.87428641
0.42546511 -0.47438022 0.87456906
0.47422427 -0.47717214 0.8749007
0.52573138 -0.47575238 0.87389326
0.57404119 -0.47519907 0.87496525
0.6243844 -0.47586432 0.87463826
0.67363656 -0.47719288 0.87327653
0.72298646 -0.47813013 0.87526006
0.77646792 -0.47920585 0.87582034
0.82141411 -0.47978815 0.86922407
0.87334406 -0.48114839 0.87652379
0.92495322 -0.48152256 0.8729257
0.97509748 -0.48200783 0.87519807
1.0255177 -0.48320058 0.87280917
1.076288 -0.48319539 0.87546778
1.1237509 -0.48537508 0.87703216
1.1642022 -0.48438928 0.88976717
-0.0062018763 -0.45834175 0.92491978
0.024458589 -0.46322933 0.92482942
0.07645572 -0.46420619 0.9246766
0.12537675 -0.46581027 0.924326
0.17461072 -0.46705335 0.92367506
0.2251693 -0.46778986 0.92488009
0.27320847 -0.4692362 0.92384464
0.32365996 -0.46987721 0.92429245
0.37729916 -0.47029966 0.92574632
0.42462215 -0.47144705 0.92431659
0.47552279 -0.47380891 0.92383671
0.52591342 -0.47591764 0.92586935
0.57528877 -0.47302285 0.92539614
0.62480927 -0.47394893 0.92333895
0.67618853 -0.4744826 0.92338192
0.72856265 -0.47530577 0.92396259
0.77272266 -0.47612667 0.92513716
0.82575166 -0.4771769 0.92438757
0.87721211 -0.47767037 0.92509031
0.9270227 -0.47937277 0.92590976
0.9751386 -0.47852135 0.92404467
1.0273874 -0.47957838 0.92382735
1.0732392 -0.47898078 0.92830056
1.1251799 -0.48231333 0.92507643
1.1710006 -0.48201174 0.9268558
1.2170545 -0.48352322 0.93641359
-0.0059362669 -0.45758173 0.97566181
0.023237139 -0.4618693 0.97638196
0.073400527 -0.46310502 0.97404027
0.12450861 -0.46418831 0.97558963
0.17592663 -0.46538848 0.97231328
0.2255376 -0.46580589 0.97403514
0.27565676 -0.46677065 0.97485739
0.3259947 -0.46757203 0.97508806
0.37436 -0.46772736 0.97396809
0.42555663 -0.46916911 0.97340173
0.47425848 -0.47037336 0.97452372
0.52464926 -0.47482026 0.97490096
0.57285339 -0.47198445 0.97661823
0.62495184 -0.47151652 0.97501963
0.67650485 -0.47226921 0.97368181
0.72579807 -0.47193649 0.97569722
0.77491081 -0.47348803 0.97757018
0.82071066 -0.47430459 0.97325987
0.87593734 -0.47540563 0.97555578
0.9250586 -0.47532254 0.97361541
0.97479981 -0.47591546 0.97598153
1.0253037 -0.47640136 0.97376472
1.0719314 -0.4771069 0.97808594
1.1192805 -0.47800982 0.97240925
1.1694955 -0.48052034 0.97357816
1.2319866 -0.48596391 0.97630149
1.2681751 -0.48643911 0.97810912
1.307968 -0.49034491 0.99151582
-0.0060746809 -0.45468655 1.0211295
0.025119726 -0.4605445 1.025447
0.075024836 -0.4615325 1.0235469
0.12425043 -0.46233991 1.0230179
0.17561208 -0.46371305 1.0230702
0.2248801 -0.46405771 1.0272862
0.27579921 -0.46496165 1.0236951
0.32502213 -0.46511537 1.0256982
0.37476677 -0.4662753 1.0258847
0.42646721 -0.46734393 1.025964
0.47602162 -0.46862471 1.0253711
0.52568161 -0.46972656 1.0251094
0.57614797 -0.47102308 1.0245686
0.6240502 -0.46846411 1.0277796
0.67514563 -0.46884364 1.0231957
0.72438061 -0.46899727 1.0288148
0.77637202 -0.47027534 1.0270029
0.82788545 -0.47185013 1.0246018
0.87596142 -0.47112918 1.0234994
0.92566562 -0.47217935 1.0241557
0.9722001 -0.47309044 1.0300735
1.0221663 -0.4740513 1.0259112
1.0770893 -0.47378337 1.0266019
1.1258234 -0.47596878 1.0272722
1.1758363 -0.47893238 1.0254431
1.2215774 -0.48100755 1.0218287
1.269995 -0.48514977 1.0260513
1.329695 -0.48838446 1.0259885
1.3581973 -0.48473465 1.0260696
-0.0091358609 -0.44981849 1.0329558
1.0376846 -0.25686172 1.0494845
1.0809244 -0.2621398 1.04659
1.1270494 -0.26845261 1.0425038
1.1752031 -0.26959863 1.0382361
1.2261565 -0.2747426 1.0357617
1.276145 -0.27355236 1.0335656
1.3103364 -0.28187925 1.0369453
1.0318139 -0.23347796 1.0489632
1.0784727 -0.22347574 1.046075
1.1201836 -0.22703803 1.0408485
1.1724081 -0.22417872 1.0368087
1.2241569 -0.22436816 1.0315632
1.2746006 -0.2258282 1.0298276
1.0419952 -0.17656162 1.0485026
1.0749201 -0.17447473 1.0446748
1.1223623 -0.17575388 1.0383589
1.1732686 -0.17425548 1.0344108
1.2263042 -0.17465292 1.029997
1.2726586 -0.17558387 1.028779
1.0385394 -0.12377523 1.0485445
1.0744773 -0.124694 1.0443803
1.1227164 -0.12409454 1.0390452
1.1752359 -0.12548159 1.0338006
1.226408 -0.12883659 1.0297052
1.2657241 -0.12402975 1.0272588
1.0308099 -0.087273434 1.0479327
1.0744022 -0.086564019 1.0452014
1.1258749 -0.086402826 1.0411785
1.1762165 -0.085574329 1.0361365
1.2220354 -0.085670061 1.0330896
1.2654847 -0.087162882 1.0339687
0.72237873 0.17853628 1.0447155
-0.0058115278 -0.45238701 1.0693499
0.02408234 -0.45850793 1.0756576
0.074535087 -0.46056196 1.0765768
0.1253998 -0.46121773 1.0750278
0.17441066 -0.46203685 1.0739447
0.22536421 -0.462493 1.0742452
0.27511036 -0.46337813 1.0720316
0.32709447 -0.46376523 1.0760224
0.37520513 -0.46480909 1.0765142
0.42209899 -0.46431249 1.0729488
0.47602463 -0.46614936 1.0747536
0.5272792 -0.46681422 1.0764761
0.57762516 -0.46761712 1.0731083
0.62292129 -0.46451321 1.077723
0.67413718 -0.46661022 1.0762657
0.72445887 -0.46666908 1.0758801
0.77619117 -0.46722335 1.0752122
0.82457817 -0.46775317 1.0735159
0.87056893 -0.46828979 1.0703166
0.92194849 -0.46909007 1.0762446
0.97163457 -0.46925443 1.0759354
1.0276525 -0.47129807 1.0735658
1.0741972 -0.47210041 1.0795828
1.1263181 -0.47540808 1.0796362
1.181106 -0.47880927 1.0789564
1.2332258 -0.47890729 1.0761973
1.2897441 -0.48362318 1.0803063
1.3177643 -0.48362604 1.066538
1.3730496 -0.48595566 1.078357
1.4187458 -0.48664239 1.081359
-0.0095384447 -0.44778809 1.0849662
0.60677922 -0.44768283 1.0996042
0.5985992 -0.30130324 1.0791622
0.61698192 -0.30069336 1.0869113
0.7793169 -0.30724251 1.0815966
0.81418186 -0.3020815 1.0951544
0.87519205 -0.30156741 1.0894905
0.94004959 -0.30148771 1.0823439
0.97728604 -0.30255932 1.0812131
1.0211962 -0.30336392 1.0728451
1.0798571 -0.30356133 1.0703585
1.1295062 -0.30155671 1.0614839
1.1757272 -0.30601773 1.0672582
1.2215924 -0.30606186 1.0600765
1.2728806 -0.30397546 1.0515678
1.3167114 -0.30697459 1.0611188
0.59780002 -0.29511264 1.0789206
0.63028288 -0.26653808 1.0952417
0.67521721 -0.26769084 1.0907571
0.72491103 -0.27145213 1.0864131
0.77716911 -0.27343714 1.0822356
0.82459438 -0.27303165 1.0772561
0.87522507 -0.27278939 1.0758597
0.92463118 -0.27406752 1.0704317
0.97483307 -0.27408594 1.0639733
1.0227548 -0.27503723 1.0577997
1.0713141 -0.28314805 1.0561512
1.1241181 -0.29485807 1.057596
1.1749253 -0.29678479 1.0549636
1.2080187 -0.29545382 1.0501137
0.6301291 -0.22526886 1.094745
0.67509466 -0.22420964 1.0903051
0.72439015 -0.22567563 1.0858592
0.77450597 -0.22418875 1.0810411
0.82388186 -0.22558032 1.0742316
0.87628782 -0.22372125 1.0694354
0.92397189 -0.22712469 1.065449
0.97382152 -0.22368994 1.0585313
1.0209767 -0.22264706 1.0534
1.0579642 -0.21847795 1.0505986
0.62726533 -0.17401935 1.0951496
0.67327756 -0.17422335 1.0904402
0.72461045 -0.17609945 1.0845698
0.77491897 -0.17385975 1.081043
0.82367152 -0.17525528 1.0747019
0.87616819 -0.17467695 1.0700306
0.92613041 -0.17501256 1.0639616
0.97513419 -0.17484808 1.0586812
1.020156 -0.17329249 1.054067
0.62847447 -0.12437605 1.0947653
0.67655486 -0.1259692 1.0900033
0.72497368 -0.12487356 1.0859812
0.77360153 -0.12329465 1.0805284
0.82500094 -0.12664305 1.0805272
0.87484264 -0.12588553 1.0751325
0.92415309 -0.12270346 1.0660076
0.97288263 -0.12567191 1.0590316
1.0175395 -0.12543412 1.0531497
0.62798727 -0.074601226 1.093259
0.67467004 -0.075597391 1.0887607
0.72534221 -0.073913567 1.084669
0.77501202 -0.075320408 1.0795771
0.82366991 -0.0770877 1.0759702
0.87603074 -0.082057022 1.0757821
0.92459506 -0.080094576 1.06762
0.97425258 -0.080460541 1.0632735
1.023142 -0.078712083 1.0616564
1.0564916 -0.070291065 1.055783
1.1262444 -0.070824198 1.0622088
1.1720495 -0.069767259 1.0589921
1.2668096 -0.072401814 1.0526538
1.3091763 -0.073933706 1.0604407
0.62571198 -0.025598137 1.093483
0.67350811 -0.026140597 1.0879965
0.72447211 -0.026482183 1.0829556
0.77449846 -0.026856162 1.0782069
0.81371635 -0.029538888 1.0771244
0.62593031 0.023482794 1.0922973
0.67494279 0.022942835 1.0863274
0.72461259 0.024262505 1.0819952
0.77465516 0.024286421 1.0783905
0.80716217 0.012420786 1.0779628
0.62290293 0.074934766 1.0914403
0.6741851 0.076034829 1.0859979
0.72451705 0.07428024 1.0812181
0.7695241 0.073386982 1.0784336
0.595743 0.13428223 1.0982046
0.62251401 0.12435586 1.0896521
0.67509645 0.1255897 1.0845243
0.72623593 0.12495611 1.0801116
0.76259226 0.11857898 1.0777841
0.59780389 0.1779689 1.097401
0.62415463 0.1739213 1.0874333
0.67499638 0.17578691 1.0814956
0.72200811 0.17358789 1.0758997
0.75654972 0.1500279 1.0745267
0.59312338 0.20911285 1.0895646
0.62276483 0.20865461 1.0789907
0.67180514 0.20827633 1.0693667
0.70702666 0.2015707 1.0660974
-0.005668629 -0.45296377 1.1321048
0.023861369 -0.45661464 1.1258676
0.075628199 -0.45885277 1.1242363
0.12487815 -0.46040338 1.1243924
0.17479376 -0.46058095 1.1230562
0.22603093 -0.46137446 1.124004
0.27480966 -0.46214983 1.1211507
0.3242934 -0.46280324 1.1238664
0.37691563 -0.46274197 1.1226951
0.42717507 -0.46365118 1.1223915
0.47357535 -0.46351948 1.123705
0.52363247 -0.46427953 1.1233317
0.57571 -0.46390918 1.1223867
0.62058437 -0.45675293 1.1150869
0.67732131 -0.4628906 1.125248
0.72405595 -0.46477222 1.1257403
0.77570564 -0.46551633 1.1243019
0.82456422 -0.4664067 1.123189
0.87718439 -0.46739507 1.124455
0.92324096 -0.46836036 1.1224676
0.97617483 -0.4684937 1.1285614
1.0233692 -0.46798706 1.1237102
1.0799012 -0.47166136 1.12924
1.1298745 -0.47369254 1.1229225
1.1745973 -0.47540295 1.1200486
1.223662 -0.47952271 1.1261587
1.2724222 -0.48042095 1.1271968
1.3281895 -0.4814564 1.1260456
1.3731852 -0.48353061 1.1243694
1.4220893 -0.48269555 1.1292603
-0.0080403024 -0.44835338 1.1377448
0.62008739 -0.43426633 1.1231334
0.62931007 -0.39137313 1.1461315
0.64578062 -0.30087754 1.1129562
0.72784024 -0.30135754 1.1064837
0.75758749 -0.30340931 1.1010138
0.59843856 -0.26667044 1.1128265
0.61586541 -0.27980667 1.1094114
0.67621297 -0.29387945 1.1076452
0.77021158 -0.29849699 1.1019735
0.59764189 -0.22278433 1.1124744
0.6054467 -0.22521864 1.1041571
0.59782743 -0.17281191 1.1153713
0.60484451 -0.17960149 1.1054152
0.59763241 -0.12510134 1.1109411
0.60318178 -0.12776403 1.114911
0.5969494 -0.074720062 1.1120726
0.60451138 -0.075983755 1.1078926
0.88327211 -0.063370727 1.1013093
0.59620416 -0.025983104 1.1114438
0.60217786 -0.027441993 1.101542
0.59516108 0.023279184 1.1094851
0.6014753 0.023394139 1.1124992
0.59535903 0.07440751 1.1125151
0.60020769 0.074223258 1.1373479
0.59450185 0.12334543 1.1126318
0.60028619 0.10091312 1.1359841
0.59314024 0.17505182 1.108899
0.58901989 0.20181698 1.111177
-0.0044038296 -0.45139486 1.1812222
0.025884602 -0.45605218 1.1712375
0.074942358 -0.45828131 1.1722082
0.12437913 -0.4598996 1.172827
0.17376824 -0.46030694 1.1723446
0.2242479 -0.46063247 1.1762366
0.27473572 -0.46218297 1.1757551
0.32494617 -0.46222004 1.175801
0.37363845 -0.46302766 1.1746879
0.42265904 -0.46291572 1.1716658
0.47335634 -0.46235338 1.1735505
0.52585793 -0.46277079 1.1758817
0.57625729 -0.46332645 1.1743358
0.61595094 -0.4615823 1.176811
0.67980367 -0.4567197 1.1641428
0.72792286 -0.46126038 1.1739939
0.77181131 -0.46333644 1.1770236
0.82419908 -0.46552229 1.1746397
0.87415564 -0.46692726 1.1751357
0.92558706 -0.46571711 1.1750133
0.97820067 -0.46762782 1.1754152
1.0215241 -0.46890116 1.1769619
1.0693767 -0.47022781 1.1794608
1.1293882 -0.47384316 1.1803805
1.1760174 -0.47666565 1.1746168
1.2235972 -0.47697893 1.1731937
1.2752094 -0.47869277 1.175704
1.3243859 -0.48096907 1.1734254
1.3717864 -0.47819439 1.1767924
-0.010209428 -0.44719613 1.1701591
0.64868039 -0.44386363 1.1548268
0.664482 -0.44165978 1.1773113
0.64243859 -0.38647255 1.1647055
0.64285171 -0.33620045 1.1708757
0.6665681 -0.3484233 1.1989341
-0.0076224399 -0.45077372 1.2324216
0.022516632 -0.45677367 1.2236272
0.077201977 -0.4608863 1.226419
0.12609676 -0.46015495 1.2236021
0.17430374 -0.46005771 1.221069
0.22232139 -0.46191275 1.2291914
0.27569133 -0.46124989 1.2241509
0.32566735 -0.46191773 1.2268226
0.37718612 -0.46246681 1.2275664
0.42566204 -0.46250764 1.2222965
0.47625625 -0.46305883 1.2226036
0.52510482 -0.46336132 1.2292651
0.57372618 -0.46306634 1.2250551
0.62650377 -0.46321556 1.2243419
0.67391634 -0.45851308 1.2204473
0.72609305 -0.45900211 1.2224506
0.7764979 -0.46092224 1.2312597
0.82275736 -0.46347144 1.2203727
0.87441874 -0.46453819 1.2223165
0.92455912 -0.46459809 1.2258862
0.97490692 -0.46745968 1.2230073
1.0203755 -0.46783194 1.2264668
1.0728288 -0.47049248 1.2262607
1.127067 -0.47456694 1.2281797
1.1724212 -0.47513157 1.2242677
1.2312584 -0.47955784 1.2307907
1.2719727 -0.47958604 1.2252659
1.3310757 -0.479224 1.228613
1.3718768 -0.47819027 1.216077
1.5648124 -0.48525617 1.2213176
1.6035359 -0.48662341 1.2461733
-0.0081923977 -0.44813809 1.2199672
0.67881161 -0.4336912 1.201444
0.70962095 -0.4490228 1.2409436
-0.0047218218 -0.45242393 1.2746183
0.025492417 -0.45919648 1.2781694
0.073361136 -0.46221688 1.2727549
0.12506823 -0.46228528 1.2742319
0.17587112 -0.46154198 1.2751619
0.22663473 -0.4615308 1.271034
0.27427238 -0.46214777 1.2756007
0.32264045 -0.46136364 1.2725517
0.37328732 -0.46183565 1.2738274
0.42300993 -0.46230537 1.269098
0.47217226 -0.46189821 1.2694254
0.52517605 -0.46228167 1.274153
0.57252896 -0.46369481 1.2745826
0.62321132 -0.4633778 1.2744132
0.66939211 -0.46220213 1.2747296
0.73953271 -0.45845795 1.2669444
0.77839047 -0.46111268 1.2784927
0.82563436 -0.46272498 1.2758939
0.87510628 -0.46503672 1.2748735
0.92332911 -0.46611267 1.2715933
0.97711331 -0.46672201 1.2765552
1.0259532 -0.4695501 1.2768214
1.0747986 -0.47020346 1.2810358
1.1281834 -0.4727965 1.2720178
1.1762244 -0.4721258 1.2704564
1.2296896 -0.47669274 1.273223
1.2737892 -0.47652486 1.2703878
1.325708 -0.47904351 1.2782885
1.3586092 -0.47851935 1.2771749
1.5841413 -0.48318529 1.2725289
1.6273766 -0.48950592 1.2773509
-0.01109889 -0.44804925 1.2816997
-0.0070944293 -0.45543396 1.3266271
0.025881996 -0.46161845 1.3242401
0.077140734 -0.46380204 1.3248097
0.12647508 -0.46362323 1.3247842
0.17539088 -0.46365812 1.3260732
0.22175232 -0.46318728 1.3247987
0.27294827 -0.46390757 1.3251939
0.3237488 -0.46319371 1.3222651
0.37689468 -0.46395853 1.3235875
0.42522377 -0.46310389 1.3223234
0.47591442 -0.46503934 1.3266331
0.52183449 -0.46432343 1.3237342
0.57634395 -0.46376029 1.3218049
0.6267001 -0.46441597 1.3302225
0.67672354 -0.46372235 1.3243407
0.71591091 -0.46012649 1.3433521
0.77671027 -0.46124718 1.3262122
0.82466614 -0.46280274 1.3262852
0.87097883 -0.46438932 1.3194253
0.92606121 -0.46799046 1.3230699
0.97456259 -0.46806535 1.3235354
1.0270292 -0.46918741 1.3208677
1.0762709 -0.47134337 1.332687
1.1267807 -0.47197938 1.3230616
1.178412 -0.47217253 1.3230077
1.2303149 -0.47519651 1.3249258
1.2663263 -0.47415242 1.3197442
1.3199632 -0.47668085 1.317821
1.472433 -0.477119 1.3298166
1.6251882 -0.48420689 1.3058741
1.6786541 -0.48746201 1.3240552
1.7352308 -0.48398194 1.3423002
-0.0095621385 -0.45748469 1.3680006
0.026624991 -0.46614102 1.3769428
0.077909343 -0.46782789 1.3754612
0.12688062 -0.46627334 1.3735956
0.17718276 -0.46509665 1.3742603
0.22719131 -0.46584693 1.3809617
0.27555332 -0.46492335 1.3743585
0.32572332 -0.46543446 1.3707715
0.37586108 -0.46562943 1.3707626
0.4269996 -0.46661949 1.3767285
0.46879759 -0.46496877 1.3738812
0.52474225 -0.4654355 1.3722662
0.57508779 -0.46555343 1.3717504
0.62437654 -0.46594042 1.3808073
0.67573625 -0.46549693 1.3708087
0.7215277 -0.46466461 1.3807254
0.79575586 -0.45946702 1.3796047
0.82679117 -0.46516812 1.3731084
0.87995923 -0.46438512 1.3710726
0.9254849 -0.46821943 1.3698356
0.97188628 -0.46841615 1.3779355
1.0302293 -0.47071651 1.3775228
1.0759733 -0.47257486 1.3739632
1.1272357 -0.47048026 1.3677311
1.1794783 -0.47294402 1.3743062
1.2184597 -0.47248697 1.3641999
1.2802662 -0.47153288 1.3743894
1.3137906 -0.47473472 1.3919771
1.4757614 -0.47448841 1.3710588
1.5248175 -0.47537479 1.3799784
1.6880792 -0.47911265 1.3570201
1.7744346 -0.48370326 1.3909146
0.80470151 -0.40116802 1.3984326
1.7637657 -0.41148317 1.3842483
0.79091316 -0.38815722 1.3702258
1.592463 -0.064626575 1.3759542
1.6322657 -0.056302071 1.392939
1.6799108 -0.056878459 1.3798958
1.6420183 -0.046903133 1.3927243
1.6795365 -0.033663653 1.3890162
1.7067882 -0.018497808 1.3894006
1.7126212 0.010795166 1.3941455
1.7255332 0.050241984 1.3994275
-0.0075576403 -0.46447399 1.4188725
0.018464888 -0.46920168 1.428345
0.074488282 -0.47135323 1.4140689
0.1260252 -0.46932489 1.4229058
0.16594654 -0.46901998 1.4270699
0.22250848 -0.46895391 1.4215486
0.27584088 -0.46839428 1.4226334
0.32353321 -0.46780482 1.4206829
0.37052339 -0.46906444 1.4225215
0.42793816 -0.46825564 1.42593
0.47876504 -0.46950904 1.4246415
0.52925998 -0.46794808 1.4228476
0.57742208 -0.46847734 1.4237095
0.62994522 -0.46753496 1.4265101
0.67804921 -0.4685232 1.4254802
0.72543555 -0.46754247 1.4233056
0.7601245 -0.46496162 1.4353881
0.8320083 -0.46548143 1.4280852
0.86935288 -0.46826708 1.4230574
0.92119032 -0.46634966 1.4317533
0.97137153 -0.46683195 1.4249113
1.0234044 -0.46899953 1.4227476
1.0829967 -0.47176334 1.4287746
1.1220489 -0.47107157 1.4259952
1.5232995 -0.47299647 1.4139876
1.7475749 -0.47572219 1.4102933
1.7763041 -0.47297144 1.4171534
1.8225298 -0.4641839 1.4274235
1.7640795 -0.41394609 1.4023846
1.8078966 -0.43851382 1.4244326
1.4846544 -0.062083989 1.4400141
1.5249799 -0.059038471 1.4246347
1.5859693 -0.056095045 1.4230202
1.6075662 -0.056148205 1.4069085
1.5353467 -0.038669594 1.4404252
1.5778934 -0.027698491 1.4357362
1.6256196 -0.02657032 1.416188
1.6665649 -0.012631546 1.4087055
1.5804336 0.0084170112 1.4436587
1.6271474 0.020729633 1.4365226
1.6736432 0.026086258 1.4211749
1.7130558 0.02681441 1.4077294
1.6756545 0.07946685 1.4392215
1.7214181 0.073629379 1.4191362
1.7519686 0.081005938 1.4196616
1.6851116 0.11441381 1.4439687
1.7251979 0.12321881 1.4339201
1.7616342 0.12784591 1.4282138
1.7309786 0.16131975 1.4423715
1.7767324 0.17161943 1.4412516
1.7929751 0.21081799 1.4420385
0.028205946 -0.47571993 1.4788694
0.077746913 -0.47700202 1.470113
0.12299883 -0.47441188 1.4731948
0.18136062 -0.47402686 1.478465
0.22332622 -0.4721489 1.4748181
0.27224949 -0.47292373 1.4726264
0.32556435 -0.47102183 1.4725993
0.37821734 -0.47004476 1.4691554
0.42433229 -0.47207308 1.4799175
0.47641093 -0.47153604 1.4732291
0.52105427 -0.47159597 1.4742446
0.5754748 -0.47295305 1.4770231
0.62237728 -0.47108299 1.4768913
0.66939342 -0.46949095 1.4709263
0.72824734 -0.47350979 1.479208
0.77055031 -0.46858484 1.4788668
0.87623876 -0.46720368 1.4727986
0.92147458 -0.46432322 1.4790605
0.97472167 -0.46831679 1.4847828
1.0245534 -0.46789479 1.4753547
1.0782514 -0.46987361 1.468038
1.1187111 -0.46892083 1.4697315
1.2884938 -0.46718633 1.4698321
1.3169177 -0.46781328 1.4640236
1.7972143 -0.46838182 1.4557379
1.8094726 -0.45973325 1.4589374
1.8170559 -0.44458726 1.4594644
1.1736937 -0.061479952 1.4845612
1.2249861 -0.069215 1.4947118
1.3367101 -0.060251359 1.4964206
1.3772728 -0.058442708 1.4859898
1.4227502 -0.058770526 1.4657578
1.4678931 -0.05703925 1.4556625
1.3857985 -0.031411506 1.4959086
1.4244866 -0.029726287 1.4869322
1.4731989 -0.027262045 1.474597
1.5179818 -0.023691406 1.4591749
1.4426172 0.0052468041 1.4959522
1.4783134 0.019927779 1.489885
1.5258373 0.024202684 1.4778796
1.5694442 0.030034885 1.4626741
1.611825 0.04430829 1.4554523
1.4935014 0.057271183 1.4942229
1.5347197 0.072914138 1.4927835
1.5739833 0.077215441 1.4762425
1.624464 0.079225011 1.4606104
1.5789423 0.11786998 1.4906169
1.6257659 0.12755558 1.4772719
1.6678303 0.13186415 1.464269
1.6318312 0.17438786 1.4909301
1.6771274 0.1726457 1.4745353
1.7172693 0.17758587 1.4586933
1.761553 0.18913354 1.455929
1.8099879 0.19842704 1.4763612
1.680609 0.2067187 1.4827057
1.7231131 0.21100383 1.4693439
1.7598568 0.21556014 1.4702278
1.8292751 0.22112757 1.4832392
-0.0055163363 -0.48058063 1.5002694
0.013838735 -0.47874665 1.5144349
0.074203536 -0.48527065 1.5317166
0.12825869 -0.47760776 1.5207907
0.17060259 -0.47729373 1.5238154
0.22067185 -0.47870186 1.5306816
0.27626941 -0.4750801 1.5202334
0.32504728 -0.47538057 1.5260404
0.37198043 -0.47709015 1.5269945
0.4247629 -0.47484228 1.5250937
0.47895059 -0.47476438 1.5227193
0.52711481 -0.47284889 1.5219109
0.57809949 -0.47480735 1.5232693
0.61969131 -0.47436079 1.5235407
0.67128628 -0.47272098 1.524068
0.72699416 -0.47502819 1.5208119
0.77291435 -0.47275019 1.527186
0.81951874 -0.47041631 1.5414348
0.88069487 -0.46374595 1.5123001
0.92255723 -0.46713352 1.5298389
0.96338582 -0.46898901 1.5327959
1.0154861 -0.4680334 1.5149487
1.1341566 -0.45412043 1.5237765
1.1604964 -0.45841694 1.5363058
1.2275307 -0.057403117 1.5184156
1.2750331 -0.057413943 1.5137624
1.3159117 -0.055151243 1.5042694
1.1872158 -0.025675062 1.5148716
1.2281131 -0.02560191 1.5314888
1.2779032 -0.026411746 1.5296669
1.3238195 -0.025722384 1.5141828
1.3671464 -0.025146373 1.5074897
1.4083235 -0.0086633069 1.5031641
1.1802627 0.013536822 1.5254503
1.2288096 0.0093017276 1.5473225
1.2839613 0.014648603 1.5457811
1.3267549 0.022921419 1.5332686
1.3757366 0.021591645 1.5229118
1.4213516 0.025836473 1.5129951
1.4572239 0.036518909 1.5047859
1.1795685 0.053077336 1.5462837
1.3397242 0.058629084 1.5439882
1.3758198 0.068050161 1.5403805
1.4237287 0.075012989 1.5314305
1.4737606 0.077393666 1.5197642
1.5145085 0.082729556 1.5051373
1.5574249 0.097295657 1.5016565
1.427416 0.11921612 1.5428077
1.4762453 0.12359729 1.5321294
1.5240542 0.1251076 1.5165238
1.5723433 0.13932975 1.510993
1.4852277 0.16076377 1.5445929
1.5250829 0.17407343 1.5339504
1.5725795 0.17683889 1.5189623
1.6096028 0.1848667 1.5076241
1.5300663 0.20564887 1.5469584
1.5757637 0.21115391 1.5367829
1.6193364 0.21533599 1.5213184
1.6627928 0.23227321 1.5143925
1.8199273 0.22165737 1.5011094
-0.30608231 1.2520294 1.5489819
0.027988972 -0.49182844 1.5872231
0.075892828 -0.49023071 1.5810795
0.11831457 -0.48437548 1.5752251
0.17223275 -0.48180288 1.5793059
0.22687964 -0.4793739 1.5727521
0.27769381 -0.48034593 1.5754833
0.32707283 -0.47966039 1.572433
0.38133478 -0.4768061 1.5676957
0.42619827 -0.47803357 1.5719948
0.47373948 -0.47860765 1.5759357
0.52030993 -0.47796583 1.5817024
0.57540679 -0.47837093 1.579481
0.62925512 -0.47635731 1.5789036
0.67851132 -0.47536814 1.5765977
0.72423697 -0.47450733 1.5733311
0.76182634 -0.47564468 1.5835663
0.81694269 -0.47439024 1.5757868
0.92552191 -0.4677608 1.5578864
0.96372443 -0.47042271 1.5644659
1.1990906 0.044698462 1.5550102
1.2283667 0.030850694 1.5586331
1.2681844 0.027521422 1.5527391
1.3153386 0.046205997 1.5532888
1.1914629 0.077575088 1.566732
1.2275994 0.073227324 1.5790505
1.2720516 0.076847777 1.5743947
1.3236859 0.075297296 1.5636081
1.3713249 0.089919664 1.5555034
1.1815945 0.13122073 1.5863806
1.2221029 0.10677527 1.5947497
1.2774342 0.11148491 1.5870333
1.3226156 0.12268126 1.5796363
1.3804657 0.12184153 1.5652757
1.4160848 0.13426007 1.5611451
1.162797 0.16552909 1.5861442
1.3433367 0.15988871 1.5889809
1.3785799 0.1695938 1.5832018
1.4254768 0.17053385 1.5692129
1.4701941 0.17929159 1.558706
1.5079479 0.19489789 1.5528692
1.4261358 0.20187812 1.5818056
1.4775164 0.20372739 1.5652784
1.5120188 0.20516518 1.5559587
-0.31260318 1.1653633 1.5834076
-0.30690446 1.2235161 1.5739123
-0.30420446 1.2730517 1.5941544
0.010137853 -0.50114375 1.6452373
0.029690661 -0.49061134 1.6104813
0.074044004 -0.49332559 1.628962
0.12881416 -0.48703688 1.6234111
0.17609015 -0.48508549 1.6281325
0.22165948 -0.48451972 1.627286
0.2765325 -0.48327583 1.6303048
0.32341829 -0.48266348 1.623176
0.37729552 -0.48201311 1.625037
0.42589638 -0.48169982 1.6257353
0.47078371 -0.47987217 1.6220864
0.5339312 -0.4821443 1.6323998
0.57727951 -0.47791737 1.6237881
0.63923734 -0.47766915 1.6298923
0.67606205 -0.47711506 1.6219591
0.72828317 -0.47754428 1.62831
0.78010517 -0.47760442 1.6199198
0.82000703 -0.4786154 1.6230161
0.85971409 -0.46968108 1.6224328
1.2320561 0.13183272 1.609367
1.2592943 0.13119136 1.6084419
1.1898026 0.1683992 1.6096642
1.2243598 0.18919522 1.6344697
1.2652984 0.17886139 1.6212635
1.3204998 0.1718456 1.6069959
1.359778 0.19349249 1.605424
1.1854749 0.20213123 1.6319733
1.2621827 0.20646927 1.6356696
1.3044693 0.22853243 1.6424395
1.3834747 0.20670885 1.6140285
1.4023736 0.2018843 1.6002762
-0.31167862 1.177851 1.6179243
-0.30514809 1.2256912 1.6316029
-0.30124968 1.2773007 1.6293612
-0.30040795 1.3062246 1.6190479
-0.29481357 1.3139932 1.6483976
0.035198189 -0.50464463 1.6853395
0.063829735 -0.50223935 1.6767086
0.018274922 -0.49449164 1.6516047
0.086021721 -0.49696437 1.6760156
0.12238877 -0.49409646 1.6764612
0.17722979 -0.4878931 1.6744177
0.22561924 -0.48738542 1.6732206
0.27128702 -0.48437336 1.6765046
0.32741272 -0.48528633 1.6743382
0.3697615 -0.48260602 1.6684114
0.42134255 -0.48195687 1.678203
0.47367433 -0.48400947 1.6760976
0.52181029 -0.48302588 1.6679559
0.57607925 -0.48217887 1.6759681
0.62391955 -0.48185995 1.6725894
0.66642761 -0.47975269 1.6845348
0.72569108 -0.47791016 1.6751913
0.77167839 -0.47466883 1.6677008
0.83040971 -0.48110008 1.6751194
0.86661565 -0.47402498 1.6669936
1.2985417 0.22915477 1.6531346
-0.30386901 1.1877983 1.6738231
-0.29953599 1.1985859 1.6785783
-0.30085564 1.2180942 1.6777689
-0.2935968 1.2308006 1.6801115
-0.30139971 1.2582827 1.6580174
-0.29125503 1.2809118 1.6751074
-0.29118732 1.3207381 1.676394
-0.28645569 1.3565073 1.6915011
0.02942821 -0.50462526 1.7286927
0.063242435 -0.50325608 1.7174563
0.12620479 -0.50463235 1.7429923
0.083441131 -0.49765509 1.7267644
0.12401994 -0.49568793 1.7120401
0.17144597 -0.49360868 1.7228457
0.22145684 -0.48909244 1.7134882
0.27743682 -0.48762274 1.7219324
0.32192704 -0.48598146 1.7236425
0.37512583 -0.48656186 1.7232134
0.41264686 -0.48590741 1.7353022
0.47571722 -0.48449165 1.7176458
0.52474016 -0.48335755 1.7189754
0.56876743 -0.48474115 1.7281554
0.62123829 -0.48281494 1.7237285
0.68333566 -0.48226041 1.7269939
0.7071411 -0.48056829 1.715892
0.79764217 -0.47882432 1.7314131
0.82073671 -0.47823098 1.7210069
0.85374725 -0.47985786 1.716175
0.92654473 -0.47110286 1.7335913
-0.29003367 1.1941271 1.7212847
-0.28481817 1.220572 1.731436
-0.28080541 1.2703395 1.7249424
-0.27839211 1.32656 1.7318701
-0.27417859 1.3790909 1.7348825
-0.0064669717 -0.51145208 1.7696321
0.0065370016 -0.510809 1.7674037
0.12826815 -0.50130147 1.773811
0.12019215 -0.49800315 1.762462
0.22747232 -0.49153712 1.7620674
0.27012205 -0.49219355 1.7654499
0.32468534 -0.48794994 1.7637279
0.37411681 -0.48843923 1.7646227
0.43790433 -0.48527423 1.7600282
0.45938355 -0.48876587 1.7672113
0.52686459 -0.48605859 1.7639593
0.58541453 -0.48066455 1.7603575
0.62355185 -0.48378497 1.7730387
0.6626184 -0.47926363 1.7733338
0.84896368 -0.47832096 1.7520567
0.87611091 -0.4785336 1.7684801
2.1702752 0.28857499 1.7754369
2.1860178 0.31228289 1.7794361
2.1970239 0.37541851 1.7960742
2.1914756 0.43012321 1.7890301
2.2001545 0.44330984 1.7627089
2.1754818 0.47495857 1.781599
2.1724715 0.52285492 1.7726961
-0.27157736 1.1943986 1.7732211
-0.26728839 1.2287832 1.7762408
-0.26531148 1.2712885 1.7771996
-0.26156709 1.3238839 1.7778305
-0.26036492 1.3730359 1.7714685
-0.25929898 1.4152224 1.7791593
-0.24649344 1.4224492 1.7939365
0.11480168 -0.5039624 1.8398154
0.1548727 -0.50258362 1.8328087
0.26148888 -0.49154183 1.8185766
0.38680488 -0.49175155 1.8042525
0.44788241 -0.49093747 1.8277808
0.46915403 -0.48705873 1.8183903
0.52023172 -0.48870492 1.820948
0.55989993 -0.48833203 1.8340991
0.62536758 -0.48494238 1.8154093
0.6612488 -0.48242417 1.825889
0.71658653 -0.47751892 1.8109872
0.88615912 -0.48005581 1.8324817
0.90656817 -0.47815853 1.816684
2.1892898 0.33080408 1.8085283
2.1885684 0.37612808 1.8122336
2.1886029 0.41424471 1.8053635
2.2065899 0.41361895 1.8448753
-0.25991735 1.1929127 1.819492
-0.2483435 1.1894658 1.8394438
-0.25879884 1.2189512 1.8116997
-0.24963699 1.2208953 1.8362031
-0.25364211 1.2747787 1.8135724
-0.24482428 1.2662944 1.8327154
-0.2518197 1.3079383 1.810585
-0.24072982 1.3181399 1.832862
-0.25382248 1.3593867 1.8006204
-0.24154446 1.3719987 1.8290401
-0.24003811 1.4223477 1.8232936
-0.24501704 1.4549854 1.8153255
0.1308789 -0.51041889 1.8768415
0.16277769 -0.50422037 1.8736057
0.51699054 -0.48829943 1.8737395
0.5824731 -0.48484313 1.8948313
0.62188089 -0.48593062 1.8906949
0.67941093 -0.48520896 1.8879522
0.73156512 -0.48350155 1.8848404
0.76136482 -0.48630306 1.8994952
2.2113659 0.401595 1.8512623
-0.26339364 1.1972142 1.8816421
-0.23464486 1.2265522 1.8692284
-0.23074692 1.2764598 1.8732671
-0.2242403 1.3234221 1.8798035
-0.22470957 1.3753164 1.8764781
-0.2270539 1.4271473 1.8735822
-0.22662692 1.478359 1.875864
-0.21613611 1.5053675 1.8925499
0.12936164 -0.50664294 1.9157839
0.16437791 -0.50457901 1.9114785
0.13793747 -0.48744282 1.9300108
0.16250926 -0.49681795 1.9288778
0.48493859 -0.48238438 1.9447746
0.53314519 -0.48760062 1.9161375
0.57698399 -0.48731139 1.9342375
0.62224269 -0.48507038 1.9080133
0.67812407 -0.4824791 1.905058
0.73200226 -0.48371214 1.9296592
0.7664907 -0.48194829 1.9350793
0.14351 -0.43270412 1.9375188
1.6649408 0.49222022 1.9478996
1.6481397 0.50236154 1.9477596
1.66116 0.52349615 1.9438506
1.6449057 0.58707398 1.9466025
1.6639013 0.57155478 1.9418532
1.6635077 0.60129803 1.9430927
-0.21988344 1.1956567 1.9156411
-0.21359906 1.2240211 1.9231453
-0.21348739 1.2748673 1.9157461
-0.19952422 1.2774897 1.948597
-0.20511121 1.3218884 1.9286469
-0.20658119 1.3763884 1.9277389
-0.20946442 1.4240423 1.9175736
-0.21052001 1.4715872 1.912814
-0.19662094 1.4739308 1.9491019
-0.2076378 1.5177721 1.9197125
0.1365713 -0.48660302 1.9661615
0.15529451 -0.45853463 1.9642661
0.56997371 -0.48768622 1.9952564
0.61780137 -0.48616886 1.9788743
0.65815496 -0.48662031 1.9718658
0.72440231 -0.4785549 1.9774933
0.75586754 -0.48074731 1.9831305
0.13575278 -0.44277734 1.9611125
0.15543622 -0.44460618 1.9682305
1.6479485 0.2912246 1.9724188
1.6470966 0.32522175 1.9825249
1.6648252 0.32398862 1.9677693
1.6454035 0.37487173 1.9813821
1.6632394 0.37716708 1.9739144
1.6433046 0.4311561 1.974314
1.6646912 0.42776075 1.9604185
1.6394324 0.47710377 1.9727315
1.6602985 0.46915248 1.9584074
1.635011 0.52125978 1.9614739
1.6575462 0.52870649 1.9535925
1.6347971 0.57391149 1.9573845
1.6718473 0.56088233 1.9521687
1.6317728 0.61218911 1.958364
-0.18870942 1.1912086 1.9883331
-0.19568987 1.2367586 1.9655075
-0.19070113 1.2753053 1.9760864
-0.18876854 1.3237062 1.9848111
-0.18972202 1.3653677 1.9763031
-0.19593941 1.424624 1.9685912
-0.19378328 1.4694678 1.9650331
0.59545183 -0.48724461 2.0109084
0.60467613 -0.48157889 2.006938
0.73246706 -0.47453824 2.0170243
0.76304466 -0.47809708 2.034107
1.6602802 0.37978023 2.0319664
1.6629655 0.41256583 2.0299573
-0.1758301 1.1963613 2.0324566
-0.17534114 1.2221953 2.024771
-0.17553377 1.2721305 2.0197666
-0.1714565 1.3282658 2.0287068
-0.17134392 1.3731368 2.0260949
-0.16000144 1.4164274 2.0436144
0.6173982 -0.48031992 2.0698822
0.66272676 -0.47431988 2.0571439
0.74219495 -0.47899348 2.0602252
0.75362903 -0.47963858 2.0603671
1.6476684 0.39672214 2.059691
1.6599689 0.3968046 2.0520687
1.6437792 0.40776497 2.0528796
1.6612573 0.40913171 2.0516901
-0.1583654 1.1830987 2.0694072
-0.15736678 1.2234489 2.061089
-0.15710844 1.2717417 2.0611894
-0.15546887 1.3179846 2.0546339
-0.15535603 1.3903551 2.0555112
1.0129508 0.23917419 2.1089442
0.94216555 0.25141102 2.1448133
0.9720335 0.25343555 2.1370041
1.0219376 0.26462993 2.1390944
0.97669441 0.24504797 2.1810956
1.0112897 0.24400926 2.1591382
0.82735866 0.25300917 2.1931922
0.87625241 0.25286269 2.1784134
0.92535651 0.25828555 2.1627347
0.78283662 0.24527758 2.2376878
0.82749355 0.24695045 2.2431073
0.88265538 0.24830382 2.2419524
0.92208469 0.24679382 2.2155144
0.95402217 0.24636576 2.2016268
0.78630245 0.25573069 2.2294497
0.81240565 0.2552242 2.2181244
0.75290447 0.24640927 2.2559423
0.83103365 0.24802756 2.2529564
0.89874506 0.24766403 2.3499043
0.92892534 0.23672889 2.3400292
0.97364831 0.23547448 2.3253293
1.0209872 0.23336907 2.3093364
0.78985488 0.24185142 2.3909132
0.82660311 0.23713434 2.3828204
0.87160063 0.23649947 2.36467
0.90385342 0.22831976 2.3533204
-0.012613673 -0.31976154 2.4393034
-0.014476374 -0.2386689 2.4336817
-0.020418784 -0.16372961 2.4485013
-0.016419796 -0.1085749 2.4377768
-0.020277454 -0.073556639 2.4342942
-0.017386446 -0.034873508 2.4380193
-0.020254003 0.01742845 2.4321291
-0.023105051 0.084057674 2.4285886
-0.026621096 0.1248163 2.4248624
-0.017929964 0.16287637 2.4342277
-0.020350844 0.21572208 2.437439
0.68799907 0.23642845 2.4484546
0.72165108 0.22840081 2.4300127
0.77212834 0.23264346 2.4115818
0.43352643 0.49036503 2.4494696
0.428386 0.52281171 2.4454505
0.42491111 0.56579721 2.4452856
0.42439973 0.61405987 2.4490607
0.0069929603 -0.31232804 2.4740081
-0.0087564858 -0.26419693 2.4527061
0.0029995402 -0.25936121 2.4629152
-0.0087505961 -0.24642302 2.4522636
0.0030032289 -0.24195391 2.4670405
-0.008739369 -0.17578605 2.4530575
-0.0087364744 -0.11714587 2.4545362
-0.008776742 -0.064722523 2.4671037
-0.0087490724 -0.046908256 2.4595826
-0.0087546334 0.011766789 2.4613733
0.0089709386 0.02380484 2.4908404
-0.0087397313 0.082076304 2.4562535
0.0059809191 0.076954216 2.4801137
-0.0087451469 0.11732915 2.456811
0.0060026147 0.11581713 2.4878201
-0.0087454049 0.17989366 2.4543014
0.0030248237 0.19026481 2.487385
-0.0087889172 0.22990835 2.4638054
0.0070108832 0.20662908 2.4927418
0.57804894 0.22402492 2.487052
0.62448663 0.22332221 2.4714334
0.66781539 0.22869802 2.4559567
0.70158476 0.24097501 2.4514027
0.43625954 0.3285352 2.4769039
0.43800482 0.38096631 2.4741256
0.43317926 0.42417035 2.4734643
0.45017403 0.44718665 2.4799747
0.42300272 0.47366449 2.4685175
0.45028982 0.45939022 2.4791324
0.41664115 0.52253526 2.4759724
0.41826329 0.57702774 2.4625237
0.41394687 0.61641926 2.4598663
0.014966405 0.011962287 2.5008559
0.98422033 0.038379114 2.5463657
1.014398 0.038325429 2.5335751
0.015009403 0.083796486 2.5070977
0.9364087 0.068610817 2.5449097
0.97441816 0.06998001 2.5385923
1.0249007 0.070177242 2.5314558
1.053461 0.089831762 2.5411751
0.021066785 0.13200946 2.5124853
0.99985981 0.10238145 2.5491033
1.0267673 0.10252258 2.5453656
0.015002848 0.18541515 2.5024433
0.43906325 0.19654173 2.544498
0.43973139 0.21837172 2.5471995
0.47327071 0.22177643 2.5338182
0.5246591 0.22497256 2.513623
0.55022264 0.23108882 2.5022881
0.027307248 0.2881746 2.5234375
0.029136855 0.32089284 2.5310547
0.027509242 0.38558662 2.5328465
0.4299756 0.36596525 2.5152066
0.031596143 0.40685216 2.5366848
0.41768241 0.43293902 2.5088854
0.41712201 0.45063877 2.5033724
0.040050622 0.504655 2.5468113
0.87629205 0.032831609 2.585696
0.92871934 0.03204963 2.5662138
0.97041285 0.028874312 2.5561764
0.84151554 0.064122587 2.5932858
0.87802714 0.07040783 2.5790074
0.91828024 0.070627362 2.5559065
0.97861624 0.10282858 2.5672433
0.38687426 0.22287379 2.5694261
0.42003334 0.22392429 2.5540736
0.052525401 0.29635215 2.5764101
0.039872445 0.32472003 2.5544481
0.057884783 0.3301774 2.5758615
0.039917361 0.37211671 2.5530951
0.058048878 0.37533098 2.5790229
0.040023401 0.41820407 2.5553296
0.052571613 0.42021832 2.5673637
0.05271595 0.47096539 2.5687423
0.059450939 0.52514464 2.5850015
0.066045605 0.60344064 2.5882845
0.062106714 0.68535876 2.5836356
0.063512683 0.72992021 2.5927024
0.060232036 0.77262843 2.5783868
0.73180628 0.025985546 2.6448205
0.77334094 0.030216269 2.6313505
0.81802529 0.028430516 2.6147335
0.8512798 0.025821827 2.6026487
0.74119955 0.058359794 2.64574
0.77210677 0.070661522 2.6275394
0.81727284 0.073073894 2.6138315
0.8521831 0.090162069 2.6043956
0.96264273 0.10386609 2.6000304
0.078937441 0.33452094 2.630861
0.083541363 0.37831715 2.639015
0.074852444 0.42544612 2.6250825
0.072739452 0.47385922 2.6195064
0.079530135 0.54050821 2.6283293
0.076274745 0.5779202 2.619705
0.08004038 0.60798478 2.6359344
0.074654147 0.67320216 2.6147711
0.080150418 0.72420895 2.620019
0.078334779 0.76963919 2.6211171
0.69445497 0.035082888 2.6923952
0.7242443 0.02777224 2.6650984
0.68524456 0.070312172 2.6867204
0.722287 0.073491238 2.6616795
0.092461906 0.36330661 2.6543379
0.092643976 0.42148742 2.6539695
0.093014359 0.47445571 2.6588821
0.093977571 0.62192154 2.6669958
0.10724458 0.62373281 2.6744716
0.093921095 0.67981869 2.6559057
0.10778992 0.68567634 2.678483
0.094290935 0.7215237 2.6594589
0.10774657 0.71152598 2.6728439
0.094871931 0.76521897 2.6685209
0.66699761 0.032137487 2.713073
0.64161676 0.066577889 2.7378204
0.65939742 0.069844171 2.7135692
0.14979064 -0.26615238 2.7792099
0.14949438 -0.23905347 2.7752814
1.2990057 2.4154594 2.7904112
1.3184924 2.4191277 2.7874644
0.16557866 -0.26343799 2.8213689
0.16508296 -0.24243869 2.8140943
1.0698578 0.12812126 2.8471475
1.2337537 2.4247737 2.8287458
1.2611182 2.417906 2.8274674
0.18180528 -0.26056829 2.8640063
1.0671796 0.12951778 2.881948
1.151024 0.14542466 2.8925688
1.0979019 0.17295508 2.8781207
1.1346412 0.17055161 2.8908434
1.1504997 0.15987563 2.8907099
1.2311649 2.4192743 2.859334
1.0859588 0.14642428 2.9321964
1.124301 0.14571856 2.9064515
1.0789618 0.16109701 2.9343886
1.1172268 0.16029805 2.9083571
1.1682633 0.3785395 2.9296978
1.1890875 0.40026629 2.9303277
1.2025599 0.42203006 2.9206178
0.94933116 0.14788544 2.9967487
0.97933298 0.14056961 2.9919021
1.0229195 0.14096093 2.9663656
1.0632877 0.1473262 2.9577873
0.87359077 0.35397056 2.9936779
0.95238513 0.35588431 2.9944253
1.0915233 0.37939706 2.9920061
1.1292588 0.38176894 2.9716506
1.1350083 0.41224703 2.9809668
1.1720034 0.41959777 2.9689565
1.1746527 0.47007754 2.9847183
1.2046403 0.48056227 2.9607513
1.1866605 0.51581156 2.9960508
0.49252817 2.4066615 2.9919622
0.95061511 0.13329032 3.0012805
0.89434224 0.35636777 3.0109746
0.9273681 0.36459577 3.0325253
0.98438513 0.37729517 3.0430596
1.0218172 0.38475311 3.0330093
1.0699327 0.38568655 3.0165615
1.0792991 0.42162713 3.0357156
1.1186712 0.42583385 3.0149944
1.1552062 0.43954355 3.0098193
1.1280299 0.47092438 3.0320778
1.161823 0.47481269 3.0124762
1.1296449 0.50565028 3.0463305
1.1659193 0.5250237 3.0245826
1.1366701 0.56659508 3.0351357
1.1595064 0.56529355 3.0214078
0.37956673 2.4089127 3.0083733
0.45934093 2.4154875 3.00753
0.92069578 0.38913044 3.0705616
0.97571403 0.39498088 3.0652244
0.92299449 0.4183552 3.0874023
0.97383845 0.42789882 3.0821586
1.0233676 0.42906237 3.0681858
1.0612379 0.43736389 3.0560465
0.98260313 0.4664619 3.0976326
1.0279833 0.47522467 3.0857923
1.0760854 0.47504902 3.0632153
1.1065919 0.48264265 3.0545282
1.0389307 0.51769638 3.0960431
1.0775005 0.52542764 3.0859375
1.1238366 0.52724808 3.0574965
1.0417552 0.58105958 3.0968571
1.0738678 0.57073343 3.0843608
1.1186357 0.56374586 3.0598855
0.93232155 0.44518089 3.1045878
0.93502164 0.47726741 3.1104224
0.96974725 0.4830943 3.1073534
1.0071598 0.49407667 3.1029489
0.94641191 0.51776403 3.1168456
0.9790768 0.52645624 3.1150343
1.0213888 0.52883428 3.1064372
0.99245405 0.5643068 3.1180706
1.0243088 0.57249707 3.1101971
1.799029 2.4298189 4.0090227
1.8310771 2.4422996 4.0213103
1.8571026 2.4350691 4.025425
1.6021022 2.4409552 4.0960159
1.798313 2.4368818 4.0779123
1.8275689 2.4299393 4.0539894
1.5918425 2.4373338 4.1462569
1.6167693 2.4230437 4.1114597
1.8326983 2.4290113 4.1062574
1.8761055 2.4403715 4.1128516
1.5940732 2.4177163 4.1626115
1.6298327 2.4195433 4.1552382
1.8490133 2.4272885 4.1537614
1.8725209 2.4309998 4.1814766
1.9059792 2.4405067 4.1594534
1.3815987 2.4285417 4.2416191
1.4150891 2.426496 4.2292423
1.622131 2.4193449 4.212472
1.6603838 2.4243042 4.2104692
1.9065496 2.4478714 4.2321949
1.9322683 2.4503717 4.2279124
1.3806787 2.4240716 4.287631
1.4176567 2.4275484 4.2849936
1.6290324 2.4236624 4.2749758
1.6679248 2.4289141 4.2735891
1.88389 2.4255002 4.2539215
1.3938278 2.42362 4.3385878
1.4431267 2.427424 4.333591
1.6446819 2.4231825 4.3264461
1.6843593 2.4290299 4.3261886
1.4305506 2.4342833 4.37818
1.4734777 2.4359026 4.3797774
1.6729646 2.4231925 4.3761091
1.718181 2.436307 4.3889508
1.4473871 2.4269168 4.4448652
1.4852188 2.4298582 4.4411554
1.7093501 2.4339304 4.4462419
1.9448587 2.4303308 4.424108
1.9762372 2.4387817 4.4309139
1.6856956 2.4348986 4.4551821
1.7300968 2.4338346 4.4698877
1.9730614 2.4406629 4.4989281
2.002058 2.4456842 4.4995379
1.4907309 2.4344432 4.5072289
1.7261071 2.4382379 4.5411224
