ply
format ascii 1.0
comment PCL generated
element vertex 1514
property float x
property float y
property float z
element camera 0
property float view_px
property float view_py
property float view_pz
property float x_axisx
property float x_axisy
property float x_axisz
property float y_axisx
property float y_axisy
property float y_axisz
property float z_axisx
property float z_axisy
property float z_axisz
property float focal
property float scalex
property float scaley
property float centerx
property float centery
property int viewportx
property int viewporty
property float k1
property float k2
end_header
1.0744033 -0.50694406 1.1224549
1.1261834 -0.50740129 1.1272069
1.1744715 -0.50773466 1.1263973
1.2222837 -0.50876582 1.1225947
1.2758715 -0.50694376 1.1245953
1.329796 -0.50616395 1.1230683
1.3718519 -0.50483489 1.1235275
1.4291722 -0.50375521 1.1268533
1.4749998 -0.50212306 1.1349188
1.5005598 -0.50407672 1.1359857
0.43848872 -0.45969737 1.1032857
0.47796363 -0.46949148 1.1118131
0.52628672 -0.47431502 1.1223489
0.57349056 -0.48107204 1.1301708
0.62052947 -0.49179155 1.1313132
0.67279708 -0.49600473 1.1340518
0.72491425 -0.49663377 1.1364713
0.77718639 -0.49787191 1.1328875
0.82194167 -0.49848768 1.14373
0.87316453 -0.49927145 1.1406963
0.95278895 -0.4997431 1.1493998
1.0052801 -0.49948502 1.1390214
1.4011248 -0.4981108 1.110934
1.4597998 -0.49870589 1.1025158
1.5011479 -0.49571708 1.1390812
0.42745954 -0.42369738 1.1068324
0.47471568 -0.42564946 1.1222231
0.52605736 -0.4256922 1.1393976
0.55521554 -0.42763087 1.1471869
0.78500414 -0.44076085 1.1492525
0.39515808 -0.38227221 1.100844
0.42579272 -0.37526169 1.1099408
0.47434193 -0.37658831 1.1258315
0.52211481 -0.37514377 1.1417686
0.5504142 -0.39015418 1.1489713
0.42441696 -0.32496959 1.1087195
0.47414139 -0.32629108 1.1252196
0.52289975 -0.32359031 1.1421926
0.55080998 -0.32279277 1.1494942
0.42792192 -0.27599731 1.1071076
0.47458851 -0.27520978 1.1231853
0.52469033 -0.27516541 1.1402651
0.55442852 -0.27084869 1.1493081
0.43636268 -0.22880059 1.1054405
0.47570688 -0.2241454 1.1187736
0.52617061 -0.22567576 1.1369039
0.55778712 -0.2194261 1.1470259
0.44106385 -0.17714371 1.1022145
0.47275043 -0.1757693 1.1130034
0.52356005 -0.17330582 1.1312596
0.56411934 -0.1738757 1.1449506
0.44657838 -0.14459808 1.1012816
0.47601259 -0.12469704 1.1087631
0.52395433 -0.12471988 1.1265635
0.57008755 -0.12475958 1.1430305
0.48352894 -0.073931888 1.106198
0.52552229 -0.075301193 1.1221216
0.57477957 -0.074224308 1.1408156
0.60593325 -0.053732973 1.1491677
0.49247804 -0.025206387 1.1053845
0.52412587 -0.025621779 1.1166434
0.57484859 -0.026365945 1.1372623
0.60535479 -0.025757695 1.1464037
0.49391022 0.013177942 1.1030682
0.52319068 0.02317014 1.1128532
0.57311445 0.023193453 1.1325177
0.60785639 0.028887944 1.146494
0.49461728 0.053334352 1.1014273
0.52428359 0.073134534 1.1095172
0.57213807 0.075110681 1.1299763
0.60984433 0.075132519 1.1445838
0.52841157 0.12541859 1.1080837
0.57464427 0.12470485 1.127844
0.6140607 0.12469837 1.1440428
0.53206074 0.17493573 1.1082381
0.57374334 0.1753132 1.1258519
0.61644882 0.17471702 1.1442266
0.53546625 0.21618766 1.1067178
0.57527018 0.21835411 1.1260635
0.62046272 0.22381692 1.1435207
0.23291831 0.3432169 1.104495
0.34786344 0.32696801 1.1037097
0.18777654 0.38072625 1.1078856
0.2191067 0.3727206 1.1186535
0.17554177 0.40148669 1.1207656
-1.3542002 0.6380254 1.1099439
-1.3436314 0.63280541 1.1172508
-1.3560761 0.67049104 1.1082405
-1.3424076 0.67739362 1.1122426
-1.3536439 0.72200078 1.1089033
-1.3381633 0.72782278 1.1056852
-1.3541716 0.7773807 1.10454
-1.3449116 0.77522731 1.1063799
-1.3558025 0.82174063 1.119653
-1.3702137 0.85672694 1.1385031
0.89868635 -0.50024039 1.1603585
0.93012863 -0.50120902 1.1612011
0.97498792 -0.50179011 1.1797029
1.03205 -0.50398582 1.1767834
1.0784683 -0.50733799 1.1795651
1.1242135 -0.50848788 1.1765836
1.1762651 -0.50796646 1.1713697
1.2303152 -0.51066804 1.1791053
1.2794882 -0.50942904 1.1745747
1.3316427 -0.50852156 1.1732919
1.3741331 -0.50636625 1.1763412
1.4234015 -0.50380474 1.1742516
1.4684635 -0.50264168 1.1771429
1.5468458 -0.50489682 1.1915686
1.5627033 -0.50713569 1.1885107
0.59359694 -0.4601551 1.1543795
0.62846988 -0.46875533 1.1617779
0.67556202 -0.47360727 1.1731142
0.72502589 -0.47570369 1.1801281
0.77316624 -0.48379827 1.1758019
0.8254599 -0.48994705 1.1774272
0.87306023 -0.49501354 1.176773
0.92374963 -0.4966132 1.1776315
0.97819138 -0.49857864 1.1791884
1.4881878 -0.497161 1.1584656
1.5149544 -0.49881619 1.1895854
1.5607625 -0.49760833 1.1897131
0.57849777 -0.42569938 1.1568555
0.62469202 -0.42479864 1.1723373
0.67323512 -0.42476788 1.188301
0.7223748 -0.43811089 1.1885043
0.77174443 -0.42766744 1.1831343
0.80182576 -0.43667957 1.1779881
0.5449211 -0.3580792 1.1521235
0.57346404 -0.37553403 1.1589288
0.6238206 -0.37532172 1.1759251
0.67421228 -0.37445754 1.1926684
0.70384693 -0.39353856 1.1980616
0.54557383 -0.31788146 1.1504173
0.57598007 -0.325598 1.1597102
0.62514186 -0.32505307 1.1766204
0.67304862 -0.32539934 1.1928223
0.57856715 -0.27567524 1.158945
0.62417865 -0.27436686 1.1745467
0.67136765 -0.27532944 1.1904683
0.70432854 -0.27358678 1.1997463
0.5814001 -0.22662275 1.156426
0.62448025 -0.2252599 1.1712272
0.67370039 -0.22516914 1.188055
0.70307815 -0.22661351 1.1981738
0.58841008 -0.17657149 1.1552212
0.62475806 -0.17523319 1.167441
0.6748203 -0.17574099 1.1860722
0.70552462 -0.16703916 1.1954385
0.5932591 -0.12783414 1.1527419
0.62459475 -0.12390953 1.1636649
0.6735509 -0.12498371 1.1817821
0.70810342 -0.12488233 1.1938933
0.62559897 -0.077392466 1.1607605
0.67495316 -0.075969204 1.1790432
0.71687323 -0.07237976 1.1942391
0.62702411 -0.027302384 1.1575007
0.67292756 -0.026356395 1.1753547
0.7191875 -0.024780776 1.1925691
0.63225842 0.022733053 1.1567764
0.67318094 0.023777651 1.1724147
0.72248071 0.023543479 1.1917638
0.75097954 0.032484435 1.1998024
0.63402802 0.074233584 1.1547757
0.67398322 0.076100878 1.1708417
0.72363931 0.073907666 1.1901393
0.75091243 0.068008035 1.1985466
0.63807434 0.12244435 1.1544733
0.67527384 0.1256398 1.1691195
0.72444457 0.1250516 1.1881984
0.75421846 0.12972979 1.1971816
0.63899285 0.17347069 1.1531533
0.67252475 0.17540915 1.1666297
0.72286201 0.17520855 1.1852638
0.75774449 0.17444238 1.1970773
0.64093459 0.214322 1.1525919
0.67473805 0.22171287 1.1650727
0.72466528 0.22141428 1.1838431
0.7621513 0.2247984 1.1968234
0.62432057 0.25175551 1.1941624
-1.3859946 0.88180143 1.1732601
-1.4024216 0.92713618 1.1834154
-1.39897 0.90677261 1.1903589
-1.4042695 0.96022803 1.1951213
1.0303775 -0.50252479 1.214481
1.0744019 -0.50348407 1.2262273
1.1314328 -0.50738657 1.2253331
1.1751046 -0.50894862 1.2253076
1.2226176 -0.50956368 1.2279274
1.278622 -0.51072156 1.2217358
1.3301176 -0.50877357 1.2193599
1.3715242 -0.50592482 1.229514
1.41598 -0.50509185 1.2202564
1.4715573 -0.50440651 1.227376
1.5222588 -0.50638944 1.2348789
1.576995 -0.50258482 1.2266212
1.6148192 -0.50856602 1.2495201
0.73540378 -0.45539021 1.2006959
0.79449707 -0.47128037 1.2000334
0.82629138 -0.47508323 1.2060074
0.87629616 -0.47805709 1.2099741
0.92386645 -0.485627 1.2179871
0.97448581 -0.49322778 1.2254373
1.0177871 -0.49812484 1.2326865
1.0941955 -0.49947998 1.2318568
1.5467178 -0.49887547 1.2095354
1.558495 -0.49976343 1.2032598
0.7323941 -0.42430776 1.2063025
0.77583855 -0.41920099 1.2167406
0.82521033 -0.41747972 1.2324985
0.85914642 -0.42571828 1.2396117
0.69599438 -0.38299477 1.2012144
0.72454643 -0.37415847 1.208362
0.77504694 -0.37555143 1.22334
0.82337636 -0.3735567 1.2377945
0.85345948 -0.36925745 1.2488379
0.69471657 -0.32120308 1.201411
0.72537762 -0.32540113 1.2097702
0.77480716 -0.32446548 1.224653
0.82485253 -0.325452 1.2396599
0.85376769 -0.30701992 1.2479771
0.69719368 -0.27331913 1.2014394
0.72655028 -0.27520281 1.2091212
0.77300167 -0.27641448 1.2230831
0.82431602 -0.27318603 1.2388556
0.85139507 -0.29572707 1.2464865
0.72819036 -0.22542284 1.2073907
0.77416277 -0.22494286 1.2223569
0.82349509 -0.22523282 1.2375398
0.85357702 -0.22138056 1.247565
0.7286213 -0.17690702 1.2053858
0.77424294 -0.17395167 1.2196527
0.82647264 -0.17704488 1.2365211
0.73350793 -0.12645622 1.2042167
0.77427697 -0.1257883 1.2178479
0.8235051 -0.12420017 1.2341133
0.85399508 -0.12006522 1.2449898
0.73972499 -0.075340524 1.2037098
0.77608585 -0.074741729 1.2158867
0.82651109 -0.074110828 1.2333033
0.85618401 -0.075201102 1.2439146
0.74015218 -0.031255834 1.2025065
0.77286643 -0.02536379 1.2120855
0.82474333 -0.027352547 1.2313112
0.86132061 -0.027288338 1.2461263
0.74326539 0.0098531609 1.2011397
0.7757225 0.021930628 1.2112865
0.82514954 0.023758903 1.2287867
0.86355782 0.026508914 1.2455568
0.77616954 0.075947538 1.2096127
0.8263275 0.074265249 1.2270002
0.86544013 0.076514423 1.2434839
0.77680677 0.12353439 1.2076174
0.82591796 0.12538321 1.2257426
0.87161183 0.12491596 1.2431049
0.7829901 0.17329974 1.2080756
0.82603091 0.1750492 1.2217267
0.87322527 0.17454356 1.2411762
0.7342416 0.2487513 1.207883
0.78170776 0.22210242 1.2059045
0.81960082 0.21964541 1.2157176
0.87199354 0.21980147 1.2390102
0.63456112 0.26227951 1.2127392
-1.4157465 0.93160069 1.2228193
-1.4196389 0.97207618 1.2289591
-1.4273691 1.0193923 1.2352461
1.0782063 -0.50073063 1.2662494
1.1317377 -0.50421017 1.2702085
1.1739701 -0.50386876 1.2771105
1.2242746 -0.5073334 1.2783357
1.277086 -0.50808465 1.2766352
1.3252606 -0.50719923 1.2740772
1.3825507 -0.50944954 1.2807798
1.4108175 -0.5035159 1.2636975
1.4635026 -0.50692338 1.2707727
1.5196447 -0.50483912 1.27732
1.5771782 -0.50612354 1.2611029
1.6296091 -0.50534678 1.2718734
1.6840003 -0.50809783 1.2920671
0.92840528 -0.45368418 1.2734957
0.97826362 -0.48090658 1.2743111
1.0243695 -0.49071604 1.2775939
1.0694106 -0.49552584 1.2753499
1.1166239 -0.49648932 1.2911731
1.2988063 -0.49936867 1.2981747
1.5329285 -0.49864975 1.2726883
0.88338268 -0.41886288 1.2632743
0.92678624 -0.42509508 1.2866539
0.87714505 -0.37391773 1.2639148
0.92276508 -0.37478873 1.2881175
0.87553167 -0.32702067 1.2632394
0.92232448 -0.32467023 1.2875642
0.87735927 -0.2731415 1.2631558
0.92142987 -0.2757358 1.2848095
0.95058417 -0.2571094 1.2968535
0.88021159 -0.22404081 1.2630111
0.9235279 -0.22379932 1.2851212
0.96074176 -0.23573236 1.2996384
0.87820607 -0.17505369 1.2613752
0.92292911 -0.1734688 1.2825195
0.95422393 -0.16208814 1.2966526
0.88150865 -0.12457548 1.2614995
0.92703086 -0.12578677 1.2832223
0.96366322 -0.12729156 1.2982386
0.88243568 -0.077660486 1.2604196
0.92645472 -0.074983366 1.2814716
0.95802319 -0.074503697 1.2948805
0.88585967 -0.027713899 1.260727
0.92130935 -0.027206358 1.2765006
0.9586916 -0.026857775 1.2925578
0.88435549 0.021634776 1.2556629
0.92431515 0.025604751 1.2746878
0.96167499 0.020520592 1.2904732
0.88501567 0.076167598 1.2555772
0.92493188 0.075085714 1.2721289
0.9725073 0.075556383 1.292577
0.89115322 0.12607884 1.2530205
0.92427772 0.12425183 1.2665048
0.97357351 0.12462058 1.287292
1.0056505 0.1267214 1.2994835
0.89962149 0.16510579 1.2510526
0.92530859 0.17614326 1.2655352
0.97528017 0.17538951 1.2875403
1.0100666 0.18702772 1.299283
0.88104182 0.22793037 1.2513657
0.9249627 0.22123919 1.2616103
0.9738481 0.2187259 1.2829992
1.0090621 0.22931659 1.2981441
1.0604852 0.2364544 1.2988234
0.47260261 0.31256095 1.292749
-1.4398941 0.93488348 1.2803535
-1.4361591 0.97562516 1.2735748
-1.4502788 1.0180768 1.2989624
-1.4409461 1.0332694 1.2757996
-1.4528716 1.092759 1.299998
-1.439505 1.0717275 1.2710279
-1.4428374 1.1134737 1.2844975
1.1861575 -0.50105762 1.3152797
1.2247066 -0.50257033 1.3117831
1.2815788 -0.50332284 1.3145062
1.3286895 -0.50328153 1.3361975
1.3756018 -0.50529951 1.3208066
1.4243768 -0.50595939 1.324386
1.4764366 -0.50605595 1.321625
1.5208111 -0.50754011 1.3194885
1.5657936 -0.50458491 1.3280128
1.6235369 -0.50760186 1.3181553
1.6802909 -0.50958455 1.3271946
1.7293425 -0.50958896 1.3362116
0.98214453 -0.46201381 1.3077176
1.0277193 -0.46988904 1.3232502
1.0717311 -0.47721401 1.3295379
1.1210397 -0.48994014 1.327746
1.1701572 -0.49556401 1.325422
1.2246526 -0.49823782 1.3299438
1.2695587 -0.49745449 1.3398461
1.3112198 -0.49886009 1.3294799
1.3631051 -0.49975994 1.3352176
0.97621286 -0.42589688 1.312979
1.0251867 -0.42434472 1.3370194
1.0574442 -0.44794732 1.3428401
0.94854927 -0.37238541 1.3015103
0.97600216 -0.37523276 1.3161595
1.0208658 -0.37352335 1.3388431
0.97421265 -0.32308584 1.3143371
1.0245056 -0.32434559 1.3384167
1.0529706 -0.32905164 1.3491497
0.94510901 -0.27604818 1.3007324
0.97416317 -0.27498335 1.3111461
1.0236211 -0.27492893 1.3347434
1.0537937 -0.26065236 1.3470271
0.97654694 -0.22487509 1.3125237
1.0259448 -0.22464192 1.333375
1.0580058 -0.21943575 1.3470277
0.97562844 -0.17937203 1.3094034
1.0214144 -0.17279661 1.3299246
1.0568177 -0.17653124 1.3468621
0.98049963 -0.12108903 1.3087952
1.0249493 -0.12554845 1.3286742
1.0640523 -0.12371045 1.3459262
0.98315436 -0.072618142 1.3085895
1.0240152 -0.075407982 1.3266321
1.0657805 -0.072154135 1.3443817
0.99017602 -0.022564242 1.3079563
1.0259734 -0.027611673 1.3250943
1.0652734 -0.026934706 1.3399171
0.9879896 0.020030899 1.3049998
1.0244089 0.024536967 1.3201799
1.0687516 0.022219883 1.3388699
0.99196804 0.070146091 1.3033797
1.0261619 0.075642012 1.3154446
1.0762346 0.075368308 1.3364756
0.99561423 0.12641506 1.3005726
1.0271417 0.12413353 1.3111444
1.0791047 0.12546304 1.3339642
1.1118188 0.12631448 1.345291
1.0298737 0.17336163 1.3111284
1.0790048 0.17471591 1.3299463
1.1202589 0.17660017 1.3452753
1.029693 0.21749832 1.3050147
1.0730115 0.21762981 1.3221052
1.1226406 0.22319618 1.3437165
0.8103224 0.32434344 1.3402295
0.84350985 0.37677187 1.338189
-1.4426126 0.94370031 1.3109014
-1.4513946 0.97682881 1.3137503
-1.4462903 0.9677133 1.3174847
-1.4565362 1.018168 1.3279032
-1.4489353 1.0288253 1.3116453
-1.4595684 1.0783074 1.3267719
-1.4628648 1.1265963 1.3251876
-1.4608032 1.170593 1.3279788
-1.4469503 1.1708788 1.3082469
1.286621 -0.50276166 1.3688558
1.381133 -0.50257498 1.3658577
1.4234773 -0.50198346 1.3717144
1.4795114 -0.5038749 1.3725712
1.5295061 -0.50713426 1.3762847
1.5741452 -0.50918311 1.3739053
1.637975 -0.51497674 1.3746749
1.6782995 -0.51153362 1.3757339
1.7263801 -0.51001292 1.3822491
1.7905401 -0.50961745 1.3823383
1.0963906 -0.46973425 1.3574181
1.1218184 -0.46760213 1.3666476
1.1733158 -0.4774105 1.3766944
1.2274472 -0.48845455 1.3751397
1.2738026 -0.48983121 1.3835478
1.3255787 -0.4971962 1.37536
1.3648745 -0.49519145 1.3824904
1.4340038 -0.49779433 1.3861496
1.4574555 -0.49656019 1.3844603
1.0491936 -0.42801607 1.3529109
1.0773171 -0.42346832 1.3614308
1.1232883 -0.42851818 1.3831488
1.157221 -0.42455837 1.3979826
1.0450574 -0.36654946 1.3513532
1.0726992 -0.37587667 1.3618233
1.124143 -0.37797102 1.3851513
1.0779022 -0.32478461 1.363513
1.1278312 -0.32497492 1.3860368
1.1583571 -0.33111596 1.3986006
1.078629 -0.27657306 1.3604604
1.1257335 -0.27110654 1.381683
1.1626743 -0.2767294 1.3965036
1.0800595 -0.22660963 1.3586344
1.1213725 -0.22547889 1.3763433
1.1661654 -0.22089645 1.3963125
1.0830244 -0.17655326 1.3578094
1.1229039 -0.17154463 1.3740292
1.1666404 -0.1778736 1.393502
1.0862236 -0.12281177 1.3560762
1.123776 -0.12605205 1.3722482
1.1697334 -0.12620386 1.3908508
1.0904928 -0.07580398 1.3544037
1.1239464 -0.073084243 1.3677601
1.1738786 -0.079412207 1.3906672
1.2034271 -0.057569176 1.3972787
1.090636 -0.025731543 1.3539459
1.1236081 -0.027474908 1.3643179
1.1719002 -0.02815062 1.3841882
1.2037601 -0.030646056 1.398268
1.1202619 0.024158444 1.3602403
1.1744303 0.027014449 1.3809677
1.2150308 0.02183949 1.3979541
1.1287944 0.078209676 1.358135
1.1770457 0.075839423 1.3789276
1.2183453 0.080479145 1.3937451
1.1314442 0.12158736 1.3560295
1.1723657 0.12653193 1.371261
1.2265239 0.12441206 1.3904068
1.2502149 0.14383405 1.3980606
1.1345295 0.16787054 1.3539437
1.1710778 0.17497209 1.3661189
1.2219998 0.17325377 1.3848593
1.2614266 0.17590711 1.3978258
1.1433638 0.21265304 1.3516817
1.1737813 0.2209066 1.3636889
1.2199502 0.22187947 1.3801811
1.2649856 0.22201681 1.3928993
1.3345144 0.23567784 1.3988765
0.80773616 0.29459628 1.3650628
0.79942989 0.30021688 1.3576261
0.82084686 0.32473001 1.3615229
0.8436529 0.37288007 1.3635721
0.86643267 0.36950544 1.3670992
0.91166639 0.3662318 1.3931974
-1.469806 1.0357383 1.3564825
-1.4648325 1.0692395 1.351591
-1.4745857 1.1382858 1.3560919
-1.4814663 1.1719896 1.3672264
-1.4660913 1.2132286 1.3534107
1.4897144 -0.50293446 1.4444118
1.5187074 -0.50303501 1.4188454
1.570457 -0.50567228 1.4203359
1.6289554 -0.51007259 1.4141256
1.6786207 -0.51199675 1.4291459
1.7313807 -0.50740147 1.4251698
1.774502 -0.51319194 1.4191699
1.8091738 -0.50901169 1.4267185
1.8565198 -0.50722587 1.4389213
1.1884339 -0.4544524 1.4079969
1.2267556 -0.4678458 1.4129477
1.2788824 -0.46892309 1.4307567
1.3229302 -0.48429185 1.4218231
1.3747997 -0.49090534 1.4196272
1.4283131 -0.49466968 1.4264168
1.462625 -0.4985857 1.4444336
1.5300066 -0.49720913 1.4323363
1.1844693 -0.4258565 1.4103909
1.2221107 -0.42447537 1.4252462
1.2659835 -0.4256475 1.4425539
1.1489143 -0.37353754 1.4021791
1.175267 -0.37208876 1.4069186
1.2255183 -0.37682816 1.4288425
1.2633858 -0.37277234 1.4418497
1.1797913 -0.32517883 1.4082773
1.2223065 -0.32447168 1.426723
1.2640193 -0.32804048 1.4410053
1.1806889 -0.27816278 1.4047606
1.2254908 -0.275172 1.4228014
1.2761762 -0.27171496 1.4431462
1.1826606 -0.23400724 1.4046714
1.2220994 -0.2228677 1.4186119
1.2741343 -0.22129531 1.4366125
1.3062844 -0.2251405 1.4474001
1.1940223 -0.17739534 1.4093919
1.2260343 -0.17295672 1.4167315
1.2761453 -0.17656802 1.4370507
1.3085539 -0.17047687 1.4452128
1.1973205 -0.11163041 1.4031172
1.2220714 -0.12735286 1.4116533
1.2703375 -0.12422866 1.4306616
1.3084683 -0.12193778 1.4436717
1.2261821 -0.077659123 1.4093925
1.2768241 -0.072390541 1.4295551
1.3214319 -0.068603069 1.4437534
1.2298357 -0.026685309 1.4090348
1.2739661 -0.025245601 1.4229062
1.3216308 -0.025760556 1.4407759
1.3502843 -0.034945413 1.4492304
1.23399 0.016057879 1.406278
1.2741394 0.023266906 1.4181631
1.3266728 0.017294755 1.4402817
1.3661849 0.00054385327 1.4498657
1.2326301 0.06250032 1.4022533
1.2725314 0.073900834 1.4148185
1.3262088 0.074075907 1.4348762
1.3686428 0.087985307 1.4466434
1.2780523 0.12369636 1.4093753
1.3249755 0.12619165 1.4273305
1.3723192 0.12550257 1.4430276
1.4013534 0.13598129 1.4474626
1.2875911 0.17718899 1.4088868
1.3259636 0.17526475 1.4220154
1.3705182 0.17563136 1.4372575
1.2875257 0.21725267 1.4034466
1.3244212 0.21872255 1.4150779
1.3754485 0.21931787 1.4313841
1.4026858 0.22195686 1.4394653
0.80979693 0.31798059 1.4317529
0.9203136 0.37934422 1.407146
1.5258056 -0.50057554 1.4552226
1.5846124 -0.50346106 1.4771913
1.6263032 -0.50587249 1.4734687
1.6642537 -0.50818539 1.477746
1.7269586 -0.51172483 1.4819492
1.7740302 -0.51099288 1.4725223
1.8108155 -0.50642174 1.4774195
1.8741441 -0.5095892 1.4726884
1.3323528 -0.46243525 1.4615979
1.3786992 -0.47300649 1.4693398
1.4309127 -0.48217502 1.4836178
1.4757779 -0.49038726 1.4761374
1.512606 -0.4961645 1.4709158
1.5519655 -0.4993566 1.4830506
1.2952533 -0.40521011 1.4584451
1.3236514 -0.42606267 1.4680532
1.3719755 -0.4242312 1.4855349
1.4011433 -0.4251878 1.4970393
1.2934164 -0.37505567 1.4587134
1.3235753 -0.37864789 1.4682137
1.3737582 -0.37305892 1.4900035
1.2942152 -0.33134273 1.4557608
1.3258779 -0.32701749 1.4675691
1.3740375 -0.32520354 1.4878787
1.4047189 -0.32446617 1.495808
1.29197 -0.2855984 1.4528257
1.325202 -0.27691501 1.4617828
1.3696743 -0.27327847 1.4779009
1.4086866 -0.27759007 1.4963427
1.2917542 -0.23636152 1.4516976
1.3268982 -0.22511713 1.4576645
1.3727496 -0.22343166 1.4746253
1.4222245 -0.22416218 1.4950697
1.3350588 -0.17609668 1.4597517
1.3726567 -0.17277348 1.4720449
1.4179306 -0.17315042 1.4928534
1.3409346 -0.12977539 1.456776
1.3788545 -0.12506646 1.4719337
1.4232988 -0.1276024 1.4884434
1.4503797 -0.13952772 1.4986179
1.3377233 -0.085843287 1.4545802
1.3762447 -0.076064102 1.4672331
1.4188082 -0.072789028 1.4811502
1.4573389 -0.06935253 1.4923846
1.3680099 -0.02521446 1.4578223
1.4149202 -0.026865263 1.4755123
1.4660052 -0.026129318 1.4973801
1.3689282 0.030029153 1.4539948
1.4193314 0.024229513 1.4743148
1.4601411 0.023260659 1.4888414
1.3853643 0.06870617 1.4565725
1.4272832 0.077432059 1.4716415
1.4743087 0.074611992 1.4916594
1.4310113 0.12334648 1.4697616
1.47542 0.12113538 1.4834958
1.3912383 0.16292423 1.4513994
1.4274869 0.17474805 1.4623193
1.4803063 0.17428017 1.4815294
1.5247835 0.18260697 1.4986567
1.4390161 0.21976903 1.4645637
1.4682509 0.22368391 1.4722077
1.5115879 0.22147572 1.4879386
1.2808088 0.27133286 1.4837348
1.5972757 -0.50066566 1.5105033
1.6214314 -0.50346351 1.5050557
1.6770493 -0.50346261 1.5178899
1.7316201 -0.50459492 1.5241827
1.7806069 -0.50463903 1.5303179
1.8241454 -0.50811505 1.5289611
1.8759841 -0.50867271 1.5195317
1.9158342 -0.50595713 1.519464
1.9609981 -0.50513989 1.5481741
1.4331882 -0.4604384 1.5061764
1.4808222 -0.47056282 1.5161327
1.5248419 -0.47120315 1.5291692
1.5730039 -0.48932317 1.5273463
1.6134838 -0.49223575 1.5296253
1.6742947 -0.49696082 1.5303552
1.9816264 -0.48490989 1.5499878
1.4311061 -0.42849481 1.5108734
1.4750279 -0.42093486 1.5278039
1.5207657 -0.4331589 1.5440105
1.4248546 -0.37989071 1.5109577
1.4719008 -0.37399712 1.5315106
1.5164971 -0.37443808 1.5456315
1.4258651 -0.32593825 1.5098152
1.4760581 -0.32581994 1.5280564
1.5194478 -0.32721734 1.5463376
1.4308287 -0.27415279 1.5061508
1.4650143 -0.27479357 1.5158139
1.5186825 -0.27367178 1.5420575
1.4309895 -0.228176 1.5041081
1.481334 -0.22533529 1.520129
1.5302836 -0.22846258 1.5418874
1.5601968 -0.22606023 1.5480813
1.4429544 -0.18181552 1.5045438
1.476974 -0.17479785 1.5141414
1.5297146 -0.17040239 1.5348172
1.5552001 -0.19095229 1.5470996
1.4722217 -0.12100928 1.508772
1.5234823 -0.12594573 1.5288689
1.5690159 -0.1175473 1.5486586
1.4484856 -0.083371617 1.5001794
1.4791887 -0.080322541 1.5091798
1.5272529 -0.074214034 1.52974
1.5556568 -0.079929858 1.5374238
1.4868232 -0.023000197 1.5060351
1.514876 -0.033603195 1.5162828
1.5751696 -0.024711253 1.5412754
1.4847951 0.019512517 1.5038958
1.5207614 0.02461339 1.5132364
1.5718056 0.028395424 1.53332
1.6029673 0.010670335 1.5484949
1.5273513 0.075179778 1.5160432
1.577481 0.079214968 1.5310709
1.6249801 0.080876008 1.5490403
1.5264356 0.1268674 1.5104381
1.574777 0.12804349 1.5254475
1.6231502 0.12330243 1.5447392
1.5374765 0.17423987 1.5084631
1.5746375 0.17590362 1.5200324
1.6220547 0.17074201 1.539664
1.5316513 0.21710528 1.5013735
1.5702024 0.22328085 1.5122418
1.6212047 0.2206219 1.5332133
1.6559173 0.23410922 1.5457424
1.2871071 0.28629997 1.5103986
1.2963912 0.3149007 1.5300307
1.3071581 0.32474846 1.5170786
1.2999084 0.37255308 1.5055337
1.3137589 0.37109315 1.5166939
1.3102518 0.41210064 1.5093421
1.7672404 -0.50163448 1.5592394
1.8383664 -0.50152862 1.5643377
1.887376 -0.50471961 1.5771171
1.9233233 -0.50321245 1.5712408
1.976954 -0.50646967 1.582232
2.0050945 -0.50780451 1.5642052
1.5780473 -0.4670729 1.5632321
1.6281121 -0.47197837 1.5739579
1.6751863 -0.47312453 1.5833352
1.7291725 -0.48986322 1.5816945
1.7789096 -0.4956935 1.5823051
1.8255923 -0.49704549 1.5847201
1.8668023 -0.4981944 1.5914111
1.9960357 -0.49127072 1.5814267
2.0327568 -0.48583013 1.5926999
1.5358645 -0.4263033 1.5543802
1.5755521 -0.42782667 1.5709255
1.6219926 -0.42593059 1.5849307
1.538481 -0.39074117 1.5538468
1.5810008 -0.37372553 1.5733141
1.6255096 -0.37414536 1.58999
1.6671206 -0.35290501 1.5968281
1.5359017 -0.30797952 1.5545197
1.5660855 -0.32719743 1.5620157
1.628289 -0.32803196 1.5863738
1.6650935 -0.32337967 1.5951792
1.5388852 -0.29478124 1.5536464
1.5691806 -0.27782664 1.5592433
1.6260772 -0.27406827 1.5790387
1.6628649 -0.27803507 1.5895901
1.544605 -0.22523975 1.5509288
1.5841588 -0.2288363 1.562379
1.6242281 -0.22514163 1.5742652
1.6658741 -0.21998072 1.5880774
1.5857252 -0.17854793 1.5602614
1.6243302 -0.17106208 1.5707283
1.6636258 -0.17716183 1.5827197
1.5857966 -0.12826441 1.5538714
1.6197748 -0.12999009 1.5639783
1.6765246 -0.12175398 1.5876756
1.7074113 -0.11908237 1.5966079
1.5932891 -0.07885094 1.5560768
1.6281681 -0.077323444 1.564184
1.6805372 -0.073076829 1.5865439
1.7203457 -0.066098884 1.5976007
1.6312512 -0.034469556 1.5629069
1.6683193 -0.02580316 1.5768759
1.7161103 -0.020072222 1.5920805
1.5879046 0.010616578 1.5524343
1.629583 0.0241613 1.5582782
1.6809922 0.022596385 1.5776995
1.7240839 0.019977322 1.5928493
1.6285368 0.061092295 1.5578985
1.6764759 0.072484866 1.5696278
1.721414 0.073766522 1.5824822
1.7607745 0.08030358 1.5986331
1.6351638 0.11161933 1.5570899
1.6738136 0.12343042 1.5642918
1.7271335 0.12629515 1.5847728
1.7643335 0.12559265 1.5992303
1.6748928 0.17468688 1.5609536
1.7245913 0.17824867 1.5779774
1.7559104 0.1751418 1.587423
1.6818641 0.21803617 1.5595196
1.7204264 0.22467625 1.5688883
1.7668456 0.21834315 1.5859718
1.3163016 0.43223417 1.5948486
1.2879617 0.4650012 1.5784324
1.3089876 0.46829787 1.5815327
1.9341555 -0.50017959 1.6204809
1.9749784 -0.50323987 1.6025171
1.7250899 -0.45911208 1.6112629
1.7753084 -0.47282338 1.6211295
1.83097 -0.48128247 1.628037
1.8805112 -0.48593044 1.6337341
1.93909 -0.491501 1.6378629
1.9845968 -0.49177289 1.6245093
2.0300319 -0.48356438 1.6228285
1.6416852 -0.40379837 1.6004419
1.6829581 -0.42274871 1.6069309
1.7256988 -0.41812736 1.6172888
1.7723072 -0.42753696 1.6315322
1.8132395 -0.41855791 1.6443254
1.6766847 -0.37950918 1.6067514
1.7247089 -0.37473163 1.6167732
1.7751042 -0.37053868 1.6343091
1.8029598 -0.38873357 1.6407881
1.6902709 -0.32412919 1.605105
1.7244824 -0.32377788 1.6155405
1.7722505 -0.33249894 1.6289965
1.8191421 -0.30635929 1.6396742
1.7200512 -0.27181432 1.6096257
1.7741653 -0.27754179 1.6260118
1.8200431 -0.28179416 1.644208
1.6999385 -0.24016464 1.60741
1.7289324 -0.21946593 1.6092396
1.7782791 -0.23012604 1.6284589
1.8174481 -0.21462685 1.6351264
1.7225796 -0.17573993 1.6075225
1.7831885 -0.17321992 1.6265354
1.8254812 -0.17573501 1.6397129
1.7304291 -0.12964419 1.6037439
1.7767503 -0.12318169 1.6225405
1.8244842 -0.12797317 1.6379726
1.8617712 -0.120759 1.647298
1.7392223 -0.075551525 1.6040003
1.7788295 -0.077698894 1.6187195
1.8299042 -0.071921282 1.6382189
1.8544171 -0.076223716 1.6429523
1.7308618 -0.030668572 1.6023617
1.7690004 -0.024715735 1.6118323
1.827654 -0.024542809 1.6339434
1.8655934 -0.026645478 1.6437473
1.7464914 0.021986173 1.6070772
1.775576 0.022230137 1.6137874
1.8208643 0.025341716 1.6269039
1.868384 0.014258364 1.6442009
1.7894887 0.0724089 1.6116819
1.8251703 0.075682595 1.6242143
1.8692281 0.083774418 1.6348642
1.7874242 0.13200432 1.6047866
1.8286756 0.12287928 1.6212612
1.8713322 0.12813295 1.6341559
1.9076875 0.12798728 1.6451813
1.7947232 0.17797881 1.6024606
1.8230869 0.17090191 1.6117321
1.8779691 0.16948101 1.6325409
1.9136686 0.18090002 1.6460644
1.8232651 0.22356065 1.6096258
1.8721932 0.22385788 1.6223899
1.9322295 0.21892196 1.6476327
1.8308439 -0.45603296 1.6527474
1.8775604 -0.46899116 1.6618958
1.9255427 -0.47956026 1.6644688
1.9776063 -0.4749237 1.6839919
2.023726 -0.48471794 1.6826063
2.065717 -0.47843215 1.687592
2.1228013 -0.48902741 1.6821746
1.8406264 -0.42681789 1.6544638
1.8680996 -0.42549422 1.6613638
1.9261678 -0.42272374 1.6814872
1.964429 -0.4273361 1.6917574
1.8320396 -0.37202066 1.6548249
1.8689804 -0.37561467 1.6633048
1.9282918 -0.37254921 1.6861398
1.9850157 -0.36138639 1.6956348
2.0002675 -0.35134003 1.6999501
1.8258089 -0.33053848 1.6523498
1.8675395 -0.32373336 1.6605836
1.9226319 -0.3284902 1.6823097
1.9800695 -0.32371205 1.6959906
1.8438123 -0.27630243 1.6566719
1.8766282 -0.27247918 1.6619793
1.9316478 -0.27631679 1.6805476
1.9867541 -0.29063931 1.6976322
1.8433803 -0.24299446 1.6607435
1.8798116 -0.23061359 1.6638578
1.9205629 -0.22070682 1.6767963
1.9713309 -0.22433132 1.6870918
2.0029485 -0.23280719 1.6973727
1.8466057 -0.17571057 1.6501828
1.8816371 -0.17235696 1.6610911
1.9242079 -0.17157619 1.6735461
1.9732002 -0.18159725 1.6897697
1.8804972 -0.12459107 1.658422
1.9297186 -0.12529609 1.6742386
1.9865923 -0.13811649 1.6918827
1.873711 -0.080493875 1.6529427
1.9253392 -0.072655469 1.6741563
1.9712111 -0.075028643 1.6862156
2.0217285 -0.076959006 1.6960818
1.8906789 -0.02135475 1.6556132
1.9314892 -0.030838883 1.6742885
1.9804611 -0.027878268 1.6909972
2.0302999 -0.022326229 1.6973205
1.8890097 0.034456875 1.6538236
1.918642 0.023549968 1.6589472
1.980769 0.025823733 1.6850337
2.0078645 0.030196851 1.6926239
1.8874705 0.056747515 1.6519368
1.9225421 0.074430794 1.660964
1.9684827 0.076836549 1.6749852
2.0081878 0.0652394 1.6920608
1.9284725 0.11406425 1.6570444
1.9726413 0.13328734 1.6725712
2.0297177 0.12331842 1.694306
2.0706728 0.10814611 1.6989348
1.9485576 0.19451371 1.653885
1.982953 0.17414559 1.67187
1.9347899 0.21067476 1.6508024
1.9840384 0.23792456 1.6687925
2.01791 0.21940541 1.6818256
2.0623386 0.23859879 1.6916037
2.0265296 -0.4637143 1.7065167
2.0744994 -0.46764117 1.7110363
2.1382706 -0.46936512 1.7182908
2.1539097 -0.45468783 1.7120723
2.2003655 -0.45059994 1.7403191
1.9950695 -0.42322022 1.7037984
2.0169973 -0.42131805 1.711001
2.081898 -0.42838806 1.7251009
2.1237319 -0.42902228 1.7367983
2.1671484 -0.43392566 1.7386605
2.2033386 -0.4135105 1.7499312
1.9941888 -0.37592444 1.7122238
2.0256093 -0.38825738 1.7230372
2.0683103 -0.37515613 1.7285373
2.1224122 -0.37445897 1.7435999
2.1624765 -0.37722433 1.7451706
1.975276 -0.33736071 1.7020973
2.0380626 -0.32613903 1.7150112
2.0800471 -0.33089763 1.7281713
2.1209545 -0.32321197 1.7416482
2.168241 -0.32744125 1.746523
1.9904255 -0.26197553 1.7047168
2.0216069 -0.27777773 1.7122061
2.0804505 -0.27577183 1.7252138
2.1398749 -0.27506685 1.7416136
2.1752701 -0.27176446 1.7486451
1.9818133 -0.20845462 1.7033833
2.0333648 -0.22750354 1.7093658
2.0804951 -0.21938644 1.7281885
2.1244335 -0.22681279 1.7418505
2.1637974 -0.23329745 1.7437143
2.0309289 -0.17407934 1.7124425
2.0760036 -0.1726096 1.7214048
2.1206372 -0.17526114 1.7360885
2.1580894 -0.17524505 1.7444115
1.9943186 -0.10372529 1.7005299
2.0228653 -0.1211802 1.7065127
2.073633 -0.12449387 1.7227882
2.1201642 -0.12627003 1.7316413
2.0247176 -0.069429316 1.7061086
2.0705864 -0.078501523 1.7224091
2.1207671 -0.077731788 1.734399
2.1525717 -0.06015458 1.7460887
2.0210726 -0.026259581 1.7039518
2.0815299 -0.034769531 1.7252756
2.1246538 -0.027976826 1.7372398
2.1522377 -0.023303688 1.7464641
2.0345032 0.0011340278 1.7045591
2.0701685 0.031067085 1.7231135
2.1220391 0.022792038 1.7340429
2.0222855 0.095046088 1.7027217
2.0729334 0.078689829 1.7130294
2.1288424 0.080145001 1.7258211
2.1553164 0.050456367 1.7483397
2.0479438 0.10754717 1.7018948
2.0874107 0.12701751 1.711596
2.1326644 0.13279593 1.7305559
2.0746186 0.1743295 1.7083309
2.138895 0.17212141 1.7283319
2.0767374 0.21385236 1.7041594
2.1206679 0.20698287 1.7102854
-1.2694905 0.67462522 1.7409964
-1.2423048 0.66844636 1.7479534
2.1644037 -0.41429737 1.7553562
2.2216384 -0.42540717 1.7628351
2.148658 -0.39557225 1.7531468
2.2134242 -0.37123311 1.7656249
2.1707087 -0.3221283 1.7551037
2.2097855 -0.3390975 1.7677604
2.1847019 -0.28542602 1.7546505
2.1755626 -0.22629522 1.7540056
2.166096 -0.12849978 1.7541935
2.1579356 -0.04799163 1.7507265
-1.4337132 0.64373398 1.7973096
-1.3693343 0.63561535 1.7892021
-1.3277013 0.64994937 1.7970511
-1.2725413 0.63442039 1.7725846
-1.2394814 0.64670628 1.7502537
-1.4362562 0.65561908 1.7972056
-1.3573312 0.6516304 1.7852905
-1.3105701 0.67778826 1.7698665
-1.2788485 0.66827112 1.7610714
-1.3171666 0.71661967 1.7765515
-1.2739563 0.70622611 1.7858472
-1.35562 0.89168543 1.7995871
-1.3080637 0.8690505 1.7804532
-1.3207881 0.96214306 1.7728324
-1.4139161 0.64202893 1.8032553
-1.3707837 0.64998245 1.8165488
-1.3361185 0.64352381 1.811577
-1.478146 0.69425845 1.8319836
-1.4254732 0.67804992 1.8222618
-1.3726134 0.67158145 1.8200563
-1.3394046 0.67681718 1.8063926
-1.4586889 0.70384455 1.8359599
-1.4351861 0.71405739 1.8449985
-1.3890384 0.71274936 1.8467481
-1.3625706 0.87905574 1.8323733
-1.3429452 0.88505334 1.8063476
-1.356498 0.92212117 1.807584
-1.3315982 0.93116176 1.8231837
-1.326583 0.96443969 1.8099327
-1.4227005 0.71771681 1.8579763
-1.3963764 0.73290437 1.8511406
-1.4061878 0.79452455 1.8924866
-1.3951038 0.79457062 1.8995271
-1.3453162 0.75674987 1.882261
-1.4060725 0.80564666 1.8883512
-1.3833386 0.84030116 1.8937366
-1.3746159 0.86671078 1.8819305
-1.3444226 0.88949597 1.8562953
-1.3384744 0.920623 1.8587234
-1.3861057 0.78462058 1.9131765
-1.4038782 0.82289219 1.9229963
-1.383994 0.83864564 1.9152794
-1.3996795 0.81014621 1.9505825
-1.9720923 2.2197618 2.1377499
-1.9151394 2.2089379 2.14643
-1.9764562 2.2178359 2.1756251
-1.9291378 2.2258751 2.1758125
-2.0110574 2.2153187 2.2448168
-1.9752592 2.22047 2.2227817
-1.9274014 2.2266898 2.222491
-1.8758396 2.2278759 2.2166553
-1.8336821 2.2361894 2.24191
2.0979125 2.3513024 2.2460093
-2.0208874 2.2185736 2.2832994
-1.967415 2.226012 2.2821016
-1.9169117 2.2224379 2.2710164
-1.8734856 2.2325978 2.2713304
-1.8474407 2.246521 2.2870119
2.0704885 2.3685181 2.2908549
2.1365113 2.3676095 2.285197
2.1639564 2.369354 2.2695167
1.0966358 0.5409373 2.3374333
1.116996 0.55108619 2.3495157
-2.0309892 2.2136066 2.3290153
-1.9880452 2.2242403 2.3252792
-1.9262346 2.2226951 2.3243825
-1.8756708 2.2316499 2.3229599
-1.8390017 2.2397561 2.3206253
-1.833921 2.2684112 2.3103034
2.0214391 2.3712316 2.3274574
2.0738611 2.3838894 2.3390992
2.1137958 2.3634143 2.3341961
2.2181692 2.3742838 2.3218224
1.1311495 0.54269004 2.3662167
1.1390367 0.55587381 2.3656142
1.1625159 0.56125361 2.384088
-2.0547037 1.8968896 2.3867567
-2.0257311 1.892662 2.3993464
-1.976499 1.8692126 2.3871274
-2.0580111 1.9327241 2.3680718
-2.038497 1.9294165 2.3905442
-2.0640767 1.9870734 2.3831258
-2.0346382 1.9663231 2.3858304
-2.0614266 2.0240593 2.3776016
-2.0277574 2.0252013 2.3954098
-2.0524931 2.083436 2.3786275
-2.0267644 2.0725865 2.3898504
-2.060647 2.1253326 2.3635359
-2.0278945 2.1261513 2.3881891
-2.0571961 2.1730485 2.3658962
-2.0268395 2.174751 2.3859477
-1.9882309 2.196784 2.3920858
-2.0607443 2.202214 2.3510714
-2.0212951 2.2064929 2.3691821
-1.9684458 2.2133787 2.3757095
-1.9246217 2.2240155 2.3779933
-1.8685534 2.2308986 2.3740058
-1.8553194 2.2967906 2.3598619
-1.8496672 2.2730608 2.3659465
-1.8507773 2.3120179 2.3863213
-1.8203406 2.3223455 2.3821354
-1.7895615 2.3150921 2.3904698
1.9333987 2.3683331 2.3805428
1.9739089 2.3758492 2.365747
2.0231516 2.3761663 2.3741593
2.0758455 2.3695633 2.3694687
2.1306124 2.3744085 2.3816166
2.1762156 2.3815386 2.3725832
2.2212992 2.3882918 2.3842611
2.2654023 2.3973787 2.3688271
2.0285604 2.4102092 2.3828821
-2.0152848 1.9226092 2.4084966
-1.9781526 1.9346056 2.4208813
-1.927708 1.9266447 2.4318841
-2.0103714 1.9776214 2.4035072
-1.9748472 1.9777008 2.4144812
-1.9309095 1.9733114 2.4403574
-2.0046861 2.0436063 2.4033926
-1.9775826 2.0262482 2.4157529
-1.9369498 2.0251443 2.4377007
-1.9751073 2.0722954 2.4129136
-1.9239466 2.0689712 2.4379222
-1.9714683 2.1195681 2.4158454
-1.9246622 2.1288011 2.4370692
-2.0004754 2.1579757 2.4003372
-1.9689859 2.1741621 2.408098
-1.9241275 2.182574 2.4321244
-1.8931959 2.1675935 2.4480333
-1.9275692 2.2118065 2.4171753
-1.8912511 2.2171979 2.429745
-1.8739096 2.268923 2.4236658
-1.8701915 2.3106585 2.4316905
-1.8376355 2.3166845 2.4019029
-1.7735449 2.3381116 2.4351702
1.7821503 2.338403 2.4308047
1.8206298 2.3664367 2.4493458
1.8779019 2.364222 2.4198895
1.929261 2.3670368 2.421454
1.9769361 2.3742502 2.4220543
2.0297883 2.3775845 2.4267728
2.0620089 2.3753211 2.4154885
2.1210163 2.3843684 2.4252448
2.161119 2.3807576 2.4131732
2.2274153 2.3865173 2.4198201
2.2710896 2.386261 2.4324408
2.3313155 2.3836679 2.4297636
-1.9088956 1.947036 2.4586947
-1.8966224 1.9265155 2.4701579
-1.9219877 1.9933597 2.4525023
-1.8941282 1.9751432 2.4710362
-1.9097025 2.0312753 2.4676514
-1.8937813 2.0491838 2.4900358
-1.9037877 2.0586958 2.458339
-1.8945093 2.0749903 2.4728997
-1.9036646 2.1269188 2.4540012
-1.8918176 2.1261704 2.4604774
-1.882544 2.1831059 2.4607048
-1.8803613 2.2342379 2.4650812
-1.8849945 2.2944987 2.478054
-1.8664727 2.3379793 2.4769592
-1.8218269 2.3421164 2.4710422
-1.7701149 2.3389702 2.4780793
-1.727355 2.3386116 2.4770963
-1.6873668 2.3359149 2.4836931
-1.6461263 2.3254089 2.4920311
1.7538431 2.3457837 2.4592323
-1.8502376 2.3541946 2.4516556
-1.7320681 2.350708 2.4792802
1.7815956 2.3694477 2.4911764
1.8408098 2.3728347 2.4664919
1.8808333 2.3708076 2.4746177
1.9296755 2.3691976 2.4791431
1.9662066 2.3709297 2.4754322
2.025362 2.3758438 2.4757726
2.0804162 2.3751562 2.4695532
2.1221399 2.3788364 2.4794455
2.1780314 2.3879459 2.4736574
2.2260857 2.3866618 2.4791739
2.2752862 2.3857365 2.472744
2.3267426 2.3886535 2.486239
2.36973 2.3920467 2.4767692
2.4452105 2.3870811 2.4903183
2.3299761 2.4009771 2.460269
-1.9084103 1.972077 2.5288992
-1.9018573 2.0411797 2.5125971
-1.9067351 2.115324 2.5159252
-1.9093442 2.1713891 2.5278625
-1.8985159 2.1590824 2.5135801
-1.8959479 2.2270441 2.5052509
-1.8978634 2.284224 2.5151772
-1.882051 2.3226659 2.5251088
-1.8233545 2.3378265 2.5038033
-1.7726092 2.3364081 2.512598
-1.7267205 2.3408597 2.5269632
-1.6708061 2.3414512 2.5308032
-1.6284692 2.3362277 2.5179996
-1.5826875 2.3311498 2.5359206
1.6329509 2.3427644 2.5254936
1.6994649 2.347405 2.5334003
-1.8327856 2.3524356 2.5411422
1.6235867 2.3537626 2.5468779
1.6799747 2.3569591 2.5294092
1.7314262 2.3645401 2.520556
1.7836533 2.3701775 2.5312278
1.8330176 2.3746181 2.5247169
1.8745362 2.3700118 2.5224686
1.9199756 2.3683336 2.525594
1.9816506 2.3780575 2.5292416
2.0157316 2.3680658 2.5190952
2.0635118 2.3729718 2.5094843
2.125406 2.3745222 2.5135279
2.170177 2.3760667 2.5295057
2.2189593 2.3804908 2.5255702
2.2628293 2.3792691 2.5151596
2.3227501 2.3944912 2.5448916
2.370491 2.3866501 2.5201309
2.4303572 2.3843641 2.5273595
2.5328374 2.3885579 2.5234962
2.5539324 2.3804367 2.5411558
-1.9377221 2.0284994 2.5956795
-1.9286895 2.2393289 2.5683351
-1.9263703 2.2921143 2.5732851
-1.9132146 2.3251078 2.5863276
-1.8729867 2.3405936 2.5804632
-1.8252547 2.347676 2.5795393
-1.7729665 2.3393245 2.5776026
-1.7185106 2.3388195 2.5725608
-1.6664944 2.3302095 2.5787108
-1.6245389 2.3294387 2.5683703
-1.5788143 2.3313916 2.5671253
-1.5282776 2.3322449 2.5742164
-1.4634717 2.3293407 2.5955358
-1.4411194 2.3204985 2.5939598
1.7133054 2.3492267 2.5678244
-1.8552347 2.3524275 2.5685596
-1.8069358 2.3527515 2.5575247
1.5791532 2.3637004 2.585582
1.6149594 2.3546035 2.5787764
1.6727239 2.3602483 2.5811722
1.7215619 2.360496 2.5800624
1.7764231 2.3672252 2.5783331
1.8306249 2.3677959 2.5772486
1.8760835 2.3721418 2.5767863
1.9304533 2.3714826 2.5730715
1.977156 2.3761516 2.5718033
2.0194488 2.3810353 2.5845914
2.0819173 2.3872211 2.5789034
2.1223426 2.3768599 2.5711429
2.1803739 2.3789217 2.5721598
2.2235341 2.3774633 2.5851698
2.2743981 2.3828163 2.5742118
2.3187811 2.3906929 2.5719903
2.3742926 2.3811793 2.5777957
2.4147587 2.3840146 2.5775194
2.4636216 2.3855574 2.5685999
2.5165105 2.380332 2.592989
2.5641651 2.3796825 2.5810852
2.6450181 2.3903258 2.5908968
-1.9418306 2.283978 2.6141281
-1.9363195 2.3358626 2.6394691
-1.8784606 2.3462949 2.6284528
-1.8366861 2.3447418 2.6095035
-1.7173367 2.3318014 2.6188104
-1.6772419 2.3301818 2.6256423
-1.6294552 2.333447 2.6206498
-1.5757284 2.3369524 2.6253278
-1.5247818 2.3332999 2.6271935
-1.4827342 2.3321049 2.6275454
-1.4192996 2.3287017 2.6254225
-1.370451 2.328835 2.6391263
-1.2815061 2.3053486 2.6456192
1.4490702 2.3469908 2.6280286
1.610335 2.3499796 2.6265938
1.6651597 2.3491745 2.6350362
1.7202922 2.3477104 2.6421349
-1.8157973 2.3518789 2.6335139
-1.7857932 2.3533058 2.6122141
1.4350634 2.3518758 2.6416953
1.4832988 2.3609247 2.6310465
1.5262486 2.3596654 2.6228423
1.5743711 2.3542948 2.6228313
1.6299455 2.3620186 2.6142037
1.6584651 2.3570828 2.6108344
1.7225335 2.3579495 2.6261055
1.7731714 2.3584204 2.6178033
1.8175532 2.3562682 2.6259282
1.8713846 2.3663781 2.6231117
1.9269781 2.3719304 2.6258118
1.9756688 2.3682549 2.617589
2.029969 2.3717811 2.6319141
2.0711801 2.3779449 2.6223798
2.115211 2.3683085 2.6212771
2.1796484 2.389802 2.6370683
2.2327759 2.3786669 2.6270483
2.2852063 2.3853548 2.6254694
2.3206067 2.3836513 2.620811
2.3736582 2.3805144 2.6248093
2.4833949 2.3852866 2.6184661
2.5172675 2.3805315 2.6174383
2.6404898 2.3842614 2.6332982
2.7218175 2.3934054 2.6413536
-1.9446063 2.2903435 2.6668003
-1.9245663 2.3314025 2.66836
-1.8781179 2.3457832 2.6812599
-1.8277481 2.3495429 2.6646147
-1.7684823 2.3475463 2.6823816
-1.7225858 2.3313262 2.6694386
-1.6763206 2.338501 2.6725035
-1.6231166 2.3436852 2.6758983
-1.583005 2.3345504 2.6767097
-1.530378 2.329179 2.676034
-1.4711374 2.3221951 2.6720102
-1.4203444 2.3300529 2.6735396
-1.3778958 2.3273597 2.6798549
-1.3289607 2.3291686 2.672786
-1.2676952 2.3259075 2.6797807
-1.2233005 2.3215103 2.6916969
1.2936034 2.3423488 2.6919198
1.3243335 2.3366716 2.6708682
1.367286 2.3395982 2.6836548
1.4261297 2.3481176 2.6780975
1.4691882 2.345031 2.6911688
1.5492684 2.344727 2.6898897
1.6495826 2.3466699 2.6798515
1.6655899 2.3445857 2.6679499
1.7038946 2.3492215 2.653759
-1.8644779 2.3623104 2.6628695
-1.813346 2.3627889 2.6733479
-1.7845736 2.3572805 2.6605906
1.3972598 2.3744221 2.6911008
1.4109076 2.3541808 2.6563458
1.4814097 2.3543484 2.6605422
1.5261021 2.3531239 2.6750069
1.5758072 2.3541565 2.6707101
1.6293778 2.3558807 2.6746595
1.6963249 2.3630624 2.6792486
1.7348839 2.3619318 2.6968806
1.7804097 2.3635838 2.6733074
1.825353 2.35795 2.6798773
1.8831468 2.3648212 2.6702473
1.9227413 2.3707824 2.669821
1.9765896 2.3735323 2.67681
2.0206137 2.373543 2.6705775
2.0696402 2.3696852 2.6768248
2.1197076 2.3754542 2.6761627
2.1681457 2.3789144 2.6722827
2.2162678 2.3816903 2.6751812
2.2699072 2.3797767 2.6657743
2.3272452 2.3812976 2.6839199
2.4217706 2.380785 2.6717796
2.4742248 2.3944321 2.6753531
2.5986722 2.3816288 2.6596231
2.6455147 2.3867958 2.6861036
2.7210994 2.3902855 2.6882267
-1.9861335 2.29217 2.7324867
-1.9631869 2.3276298 2.7332819
-1.9202828 2.3440323 2.7285585
-1.869161 2.3345273 2.7221899
-1.729722 2.3401854 2.7275133
-1.6796675 2.3434827 2.7230992
-1.627539 2.3351133 2.7137604
-1.5746647 2.3319283 2.7230787
-1.5250745 2.3301218 2.7189579
-1.4721893 2.3255093 2.7248869
-1.4248631 2.3213954 2.7249718
-1.3755594 2.3237145 2.7223291
-1.326772 2.3218784 2.7222733
-1.2803957 2.3236508 2.7258234
-1.2312953 2.3240728 2.718941
-1.1886415 2.3275833 2.7313302
-1.1155279 2.3246236 2.7363522
-1.0688941 2.3148856 2.7393236
1.043996 2.3153555 2.7484612
1.1252232 2.3273389 2.7367797
1.1761091 2.3447385 2.7417212
1.2160597 2.3399534 2.7200282
1.278024 2.3439207 2.7248526
1.317528 2.3377564 2.7119327
1.3770643 2.3348644 2.7190728
1.4877652 2.343473 2.7183926
1.5308312 2.3476367 2.7229998
1.5684156 2.3429832 2.7168396
1.6258389 2.3453441 2.7306895
-1.9266074 2.351696 2.7375164
-1.8563126 2.3500779 2.7337928
-1.831082 2.3589327 2.7201369
-1.789471 2.360466 2.725698
1.2490884 2.3543346 2.7266724
1.2641383 2.3506246 2.715512
1.3247935 2.3506119 2.7268984
1.4318221 2.3544281 2.7223406
1.4716656 2.3593762 2.7493069
1.6219715 2.3514175 2.715189
1.6857762 2.3676922 2.7329946
1.7212292 2.3597014 2.7286747
1.778609 2.3624399 2.7249303
1.8237561 2.3611004 2.728358
1.8768268 2.3679299 2.7294054
1.9277444 2.3615131 2.7242687
1.9687676 2.3683434 2.7248144
2.0328639 2.380321 2.7189684
2.075489 2.3684113 2.7163191
2.1423762 2.3832183 2.7440112
2.178381 2.3816383 2.7168219
2.2194254 2.3767638 2.7274203
2.2732291 2.3747981 2.734561
2.3590519 2.3753963 2.7236881
2.4240785 2.3827436 2.71523
2.4639349 2.3837688 2.7131076
2.5108969 2.3906848 2.7427256
2.5729179 2.3832693 2.7339334
2.6315968 2.3910356 2.7312531
2.7399039 2.3954592 2.7377975
2.5826566 2.4029291 2.7128491
-1.9927429 2.2919886 2.7733109
-1.9707453 2.3360195 2.7841365
-1.9359946 2.3448207 2.7645359
-1.7748432 2.3497648 2.7804446
-1.7314382 2.3477907 2.7733362
-1.6712805 2.3366272 2.7742894
-1.628096 2.3391762 2.7702312
-1.573615 2.3387868 2.7738402
-1.5354971 2.3314769 2.7683098
-1.476409 2.3293819 2.7704554
-1.4294291 2.3230083 2.7793915
-1.3813206 2.3221409 2.7738907
-1.3250191 2.3188043 2.7705431
-1.2693701 2.3289421 2.7834988
-1.226367 2.3212762 2.7712345
-1.1752702 2.3191459 2.7784042
-1.1336973 2.3235869 2.7726645
-1.0816195 2.3297129 2.7812119
-1.0299493 2.326072 2.7809882
-0.96857834 2.3155582 2.7721291
-0.92889118 2.321104 2.7910409
-0.86606884 2.3104701 2.7942958
1.0319436 2.3451123 2.7919798
1.0687548 2.3328013 2.7635918
1.1238021 2.3379531 2.7781405
1.1730549 2.3385863 2.770278
1.2215151 2.3411725 2.7737343
1.2784179 2.3427265 2.771868
1.324674 2.3419132 2.7766273
1.3767786 2.3420715 2.7765975
1.4230064 2.3451741 2.7797687
1.4666799 2.3478696 2.7734823
1.5364878 2.3433788 2.7728364
1.5631086 2.3422136 2.7712491
-1.9141746 2.3517227 2.7894049
-1.8649106 2.3542469 2.7789435
-1.8322405 2.3656275 2.7732315
-1.7777437 2.3597238 2.752358
1.0963341 2.3557658 2.7850554
1.1805292 2.3535864 2.7521305
1.2583876 2.3546581 2.759824
1.3352869 2.3519204 2.7614365
1.3732824 2.3577461 2.7533226
1.4153141 2.3527656 2.7655687
1.4525803 2.3567352 2.7543585
1.5085621 2.35865 2.769675
1.6207062 2.3579936 2.7769439
1.6839839 2.3621638 2.7803438
1.717611 2.3613465 2.7747924
1.7684307 2.3612642 2.774617
1.8263073 2.3697436 2.783747
1.8810277 2.3722343 2.7775743
1.9144869 2.3705766 2.776736
1.9709384 2.3648374 2.7771978
2.033165 2.3790631 2.7735777
2.0796068 2.3757048 2.7723694
2.1203144 2.3739364 2.7737472
2.1733646 2.3783712 2.7777545
2.2372751 2.3768463 2.7633531
2.2863698 2.3693647 2.7642481
2.347646 2.3834333 2.7968261
2.3699155 2.3766885 2.7682092
2.4441373 2.3729494 2.7836294
2.472254 2.3782711 2.7646263
2.5093319 2.3788671 2.7728696
2.6001747 2.3795247 2.758693
2.7708664 2.3832364 2.7711558
2.8621757 2.3868053 2.7915804
2.7706141 2.4019315 2.7820539
-2.0020895 2.3240879 2.8237886
-1.9642755 2.3418739 2.832222
-1.9299231 2.3425753 2.8241005
-1.8683634 2.34567 2.8211753
-1.8468456 2.3477554 2.8225093
-1.7223188 2.3439801 2.8282855
-1.6774777 2.3415527 2.8306055
-1.6162338 2.3382795 2.8258514
-1.5694704 2.3309326 2.8173225
-1.5201637 2.3323979 2.8231986
-1.4682753 2.329247 2.8227437
-1.4179771 2.3234525 2.8267975
-1.375755 2.3246202 2.8178844
-1.3190778 2.321394 2.8272514
-1.277874 2.322258 2.8317311
-1.2237031 2.323065 2.8295512
-1.1698278 2.3149939 2.8105791
-1.125378 2.3255606 2.8264136
-1.0778109 2.3226585 2.8311832
-1.0188425 2.3242276 2.8290839
-0.97872925 2.3240604 2.8287129
-0.92902678 2.3256431 2.8312435
-0.88018215 2.3241053 2.8338952
-0.82348919 2.3157942 2.8255997
-0.7185393 2.3203077 2.8420887
-0.68135256 2.3083179 2.8343799
0.7293697 2.3280225 2.8498962
0.7798894 2.3277919 2.8382816
0.82972217 2.3255768 2.8234158
0.87035269 2.3274398 2.8495581
0.92225808 2.3383996 2.8329585
0.97374076 2.3395514 2.8198013
1.0307758 2.3404703 2.8299155
1.0750355 2.3394659 2.8232358
1.1209166 2.3372905 2.8227623
1.1743363 2.3410609 2.8237145
1.2172278 2.3401928 2.8287132
1.2710983 2.3349648 2.8192825
1.324295 2.340338 2.815047
1.3741935 2.3326762 2.8179305
1.4225879 2.3442411 2.8267596
1.472066 2.3470109 2.8217201
1.570101 2.3451667 2.839195
-1.9043976 2.3552749 2.8458095
-1.8261067 2.3583889 2.8191452
-1.7828642 2.3541868 2.82586
-1.7338444 2.3553767 2.8120899
0.88258553 2.3544295 2.8475862
1.0119414 2.3578677 2.8151941
1.4703687 2.3502214 2.8142221
1.5201795 2.3566155 2.8243053
1.5601074 2.3614955 2.8286259
1.6622834 2.3618858 2.8188169
1.7236879 2.3662918 2.8352692
1.7740566 2.3667812 2.8228264
1.8324732 2.3611116 2.8240442
1.8712139 2.3653576 2.8232899
1.9311907 2.36798 2.8180776
1.9723213 2.3701622 2.8306596
2.0194747 2.3724246 2.8283195
2.0797069 2.3784397 2.8237448
2.1260796 2.3644714 2.828095
2.1730437 2.3696728 2.8183517
2.2206781 2.3708618 2.8288391
2.2749679 2.368351 2.8364136
2.321727 2.3768976 2.8365529
2.3744824 2.3714352 2.822696
2.4199827 2.3778422 2.8192527
2.5788658 2.3959217 2.8251712
2.6498563 2.3845329 2.8391473
2.7350821 2.3859441 2.832175
