ply
format ascii 1.0
comment PCL generated
element vertex 1499
property float x
property float y
property float z
element camera 0
property float view_px
property float view_py
property float view_pz
property float x_axisx
property float x_axisy
property float x_axisz
property float y_axisx
property float y_axisy
property float y_axisz
property float z_axisx
property float z_axisy
property float z_axisz
property float focal
property float scalex
property float scaley
property float centerx
property float centery
property int viewportx
property int viewporty
property float k1
property float k2
end_header
0.42542839 -0.50628042 1.0247351
0.474159 -0.50952566 1.0236837
0.52402008 -0.51175064 1.0254253
0.57471645 -0.51305449 1.0258878
0.62419039 -0.51274675 1.0228765
0.67627025 -0.51356316 1.0242178
0.72342664 -0.51365203 1.0265701
0.77468294 -0.51435328 1.024597
0.82597929 -0.51441139 1.0240008
0.87151599 -0.51321894 1.0194974
0.92247391 -0.51266849 1.0272026
0.97484159 -0.5108704 1.026386
1.0212384 -0.50810951 1.0220785
1.0743778 -0.50747049 1.0251473
1.1243109 -0.50705051 1.0196279
1.1811388 -0.50487572 1.0243281
1.230041 -0.5037601 1.0274063
1.2724864 -0.50447285 1.0221012
1.3253711 -0.50523955 1.0296941
1.368714 -0.50212836 1.0388699
0.14207548 -0.45039392 1.0005759
0.17825441 -0.46725833 1.0071166
0.22519365 -0.47416329 1.0201731
0.27263552 -0.47996378 1.0328274
0.32093433 -0.49216953 1.0399346
0.36689103 -0.49704885 1.0409151
0.13838342 -0.41871002 1.0045727
0.175047 -0.42510664 1.0171821
0.22461782 -0.4264631 1.0353825
0.25824356 -0.42886633 1.0473559
0.13312227 -0.37413457 1.0064329
0.17575184 -0.37449077 1.022514
0.22532442 -0.3746767 1.0400475
0.25131062 -0.38817179 1.048521
0.12954128 -0.3248159 1.0069671
0.17390354 -0.32440206 1.0221789
0.22458009 -0.324797 1.0405067
0.25355047 -0.32050487 1.049727
-0.042914409 -0.28946015 1.0009245
0.13074051 -0.27560163 1.0060765
0.17453793 -0.27433082 1.0209386
0.22491512 -0.27464244 1.0379077
0.25617957 -0.27136552 1.0484444
0.13671567 -0.22703923 1.0049517
0.17500199 -0.22520508 1.0176314
0.2247763 -0.22486567 1.0339959
0.26197472 -0.22089504 1.0457876
0.14182261 -0.17730671 1.0021193
0.17444557 -0.17423527 1.012542
0.22456285 -0.17526372 1.028715
0.26892829 -0.17373075 1.0429611
0.14473854 -0.145097 1.0004717
0.17757194 -0.12576601 1.008119
0.22488718 -0.12595934 1.022884
0.27488089 -0.12402389 1.0388645
0.30424628 -0.11663192 1.0479674
0.18411787 -0.078239456 1.0038122
0.22364639 -0.07624191 1.016398
0.27484676 -0.074473135 1.0327817
0.31539583 -0.071320891 1.0452138
0.19317912 -0.034436431 1.0013134
0.22569333 -0.027835559 1.0106732
0.27487636 -0.025419958 1.0263401
0.32239646 -0.024516251 1.0420451
0.35430175 -0.010329215 1.0491544
0.23160477 0.02123772 1.006223
0.27499899 0.024141623 1.0202678
0.32553732 0.023303512 1.037312
0.35599205 0.030771259 1.0467203
0.23971418 0.069457926 1.0029516
0.27430984 0.075517207 1.0137687
0.32432634 0.073777184 1.0310236
0.36471617 0.078311697 1.0452738
0.24386363 0.10832119 1.000788
0.27618369 0.12379429 1.0089171
0.32357007 0.12435653 1.0252651
0.36960524 0.12719586 1.041873
0.2832846 0.173904 1.0057906
0.32329884 0.17479414 1.0200939
0.37341696 0.17532218 1.039206
0.40417993 0.19619526 1.048115
0.28909311 0.21889137 1.0040041
0.32415795 0.2216095 1.0161989
0.37592086 0.21901067 1.03649
0.40923518 0.22234844 1.0480012
0.076644063 0.2789852 1.0155164
0.12998258 0.27458531 1.0156847
0.17478083 0.27945834 1.0288806
0.2076876 0.27757075 1.0393209
0.088494509 0.34275892 1.0070682
0.12705463 0.3268432 1.0209968
0.1667528 0.31258163 1.0365008
0.079308026 0.37780917 1.0254452
0.11374932 0.36406985 1.0408463
-1.3369912 0.63866788 1.0461296
0.42720661 -0.50146258 1.0554675
0.47950786 -0.50291795 1.0614187
0.5256359 -0.50391775 1.0682071
0.5740307 -0.50537658 1.0683706
0.62567037 -0.50693929 1.0756577
0.67594713 -0.50789249 1.0748427
0.72645849 -0.50804389 1.0749062
0.77665311 -0.50772434 1.0770415
0.82334536 -0.50834829 1.0731218
0.87586355 -0.50941831 1.0722822
0.92322397 -0.50870401 1.0736133
0.97312814 -0.50838059 1.0786315
1.0252297 -0.50796825 1.0765063
1.0736188 -0.50800264 1.0776923
1.1219627 -0.50571352 1.0698944
1.1764948 -0.5078429 1.0690557
1.2191628 -0.50534159 1.070501
1.278533 -0.50712627 1.0794486
1.3212893 -0.50333411 1.0687139
1.3701326 -0.50433457 1.076879
1.4194975 -0.50197452 1.0812678
0.29061663 -0.45828471 1.0527468
0.32865983 -0.47010043 1.0608921
0.37620425 -0.4766241 1.0719488
0.42229456 -0.48077902 1.0828538
0.47013536 -0.491256 1.0885031
0.52586538 -0.4973155 1.0921226
0.5657115 -0.49776074 1.0912868
1.3401093 -0.497913 1.0846449
1.3685316 -0.49884263 1.076152
1.4286344 -0.49620253 1.0763863
0.28115663 -0.42368293 1.0563661
0.32472351 -0.42520052 1.0715532
0.37429211 -0.42580235 1.0882221
0.40646422 -0.43138477 1.0977979
0.2768569 -0.37451398 1.0586438
0.32477808 -0.37483966 1.0753863
0.37360248 -0.37586191 1.091711
0.40570548 -0.38991731 1.0996972
0.24974081 -0.34874487 1.0510175
0.27551264 -0.32555655 1.058121
0.32441813 -0.32502571 1.075217
0.37503687 -0.3234497 1.0920821
0.40513599 -0.30829895 1.0985492
0.27990958 -0.27638862 1.0572234
0.32546106 -0.27503136 1.0723299
0.37449667 -0.27524525 1.0887461
0.40615344 -0.26763883 1.0989246
0.28394485 -0.22734205 1.0542715
0.32320267 -0.22475126 1.0667144
0.37426224 -0.22489828 1.0838654
0.41229844 -0.22085188 1.0962836
0.29360232 -0.1827956 1.0528324
0.32478899 -0.17400159 1.0614216
0.37423745 -0.17437972 1.0780047
0.41693407 -0.17653877 1.0932951
0.32707584 -0.12611166 1.0561937
0.3736077 -0.125284 1.0717019
0.42268342 -0.12548047 1.0889432
0.45247495 -0.1199801 1.0986997
0.33838806 -0.080572851 1.0539199
0.37377298 -0.073911518 1.0649648
0.42503896 -0.076691464 1.0839797
0.45968786 -0.071292177 1.0960888
0.3454541 -0.035008345 1.0515457
0.37426394 -0.027235536 1.0596049
0.4224419 -0.026945202 1.0770996
0.46378756 -0.024969002 1.0924755
0.34906429 5.1392042e-05 1.0502216
0.38072944 0.022122156 1.0571251
0.42730403 0.024303047 1.0742393
0.47190928 0.025210829 1.0914414
0.38902149 0.07036458 1.0550476
0.42586023 0.075269729 1.0689448
0.47442487 0.075555943 1.0883834
0.50011069 0.074799508 1.0984371
0.39420962 0.11608603 1.0530032
0.42471236 0.12424077 1.0639625
0.47484767 0.12421387 1.0853983
0.50380892 0.12991598 1.0972408
0.39782611 0.16219564 1.0507432
0.42635554 0.17405963 1.0615873
0.47421253 0.17517923 1.0816159
0.5074082 0.17576444 1.0960447
0.43031043 0.22207622 1.059153
0.47472554 0.21944916 1.0779225
0.51305491 0.21978351 1.0950644
0.063242845 0.29937801 1.0527169
0.23204054 0.28044301 1.0595173
0.26015723 0.28086507 1.07239
0.17957026 0.33150235 1.061024
0.22407006 0.32360029 1.0818415
0.25526577 0.31013405 1.0867367
0.33808619 0.32306683 1.0813104
0.13098045 0.38002494 1.0660436
0.17270221 0.36611459 1.0845184
0.21338837 0.35276756 1.0985585
0.1198855 0.40127844 1.0754465
-1.3535973 0.64425397 1.0831552
-1.3437271 0.63334173 1.0856365
-1.3565085 0.67872506 1.084996
-1.3454212 0.66510814 1.061226
-1.3568439 0.72616148 1.0889533
-1.3210796 0.74068457 1.0916566
-1.3593645 0.75283104 1.0950042
-1.3336927 0.78586078 1.0995502
0.59101522 -0.50068533 1.1024991
0.6400907 -0.50225693 1.1109064
0.68017858 -0.50271839 1.1116416
0.72411132 -0.50250429 1.1130048
0.77385938 -0.50205028 1.1215556
0.82620811 -0.50313509 1.1184205
0.87530041 -0.50408107 1.1173937
0.92481619 -0.50390059 1.122947
0.97361219 -0.50380892 1.127426
1.0204003 -0.50437629 1.1230067
1.0759823 -0.50832802 1.1261729
1.1213528 -0.5072245 1.1229752
1.180735 -0.50940382 1.1247572
1.223755 -0.507451 1.1313441
1.2699794 -0.50931245 1.1195377
1.3222605 -0.50747025 1.1282446
1.3738103 -0.50362265 1.1315758
1.4192858 -0.50341672 1.1200124
1.4716681 -0.50276041 1.1114794
0.43755919 -0.46041059 1.1025882
0.47747189 -0.46891779 1.1113842
0.525056 -0.47421187 1.1216499
0.57278466 -0.4799374 1.1311433
0.6227259 -0.49285057 1.1307273
0.67059433 -0.49599099 1.1340214
0.72472858 -0.49682236 1.133021
0.77400941 -0.4974232 1.1313854
0.82281774 -0.49833092 1.1375479
0.8705073 -0.49872193 1.1405081
0.91929626 -0.49881855 1.1415699
0.99056923 -0.49749163 1.1425343
1.4448297 -0.49789149 1.1122904
1.4703038 -0.49821502 1.134609
0.42908758 -0.42372561 1.1072125
0.47431374 -0.42504066 1.1223191
0.52530056 -0.4253639 1.1390336
0.564116 -0.44491175 1.1489789
0.3986761 -0.37302703 1.1013525
0.42642361 -0.37308726 1.1101722
0.47361901 -0.3757315 1.1253226
0.52011395 -0.37485752 1.1410979
0.39549816 -0.33486438 1.1006204
0.42521444 -0.32499558 1.1093175
0.47478777 -0.32549948 1.1254879
0.52491033 -0.32372829 1.1428409
0.39813331 -0.28487781 1.1003773
0.4294146 -0.27560979 1.1072812
0.47489461 -0.27538964 1.1230425
0.52288949 -0.27463907 1.139712
0.55158633 -0.25897989 1.1476899
0.43634132 -0.22836916 1.1056685
0.47592053 -0.22435266 1.1192509
0.52619427 -0.22593749 1.1374077
0.55843508 -0.21991673 1.1473433
0.44279757 -0.17355186 1.1024411
0.4744654 -0.17488046 1.1133347
0.52516437 -0.1745622 1.1319777
0.56197459 -0.17424659 1.1446891
0.44029489 -0.14991897 1.1005323
0.47792184 -0.12554301 1.1094944
0.52429557 -0.12431871 1.1263576
0.56966996 -0.12444347 1.1429496
0.48306307 -0.075117528 1.105558
0.52537096 -0.074335463 1.1216534
0.57227045 -0.075613596 1.1399454
0.48964229 -0.028498676 1.1037967
0.5242852 -0.025629112 1.1169699
0.57462007 -0.026348926 1.1368176
0.60698611 -0.0078421002 1.1474622
0.49306551 0.01034502 1.1012263
0.52359122 0.022964813 1.1128716
0.57369685 0.023417618 1.132974
0.60870653 0.027010553 1.1458465
0.52676219 0.073159903 1.110641
0.57448393 0.075545639 1.12993
0.61254019 0.0766811 1.145143
0.5277794 0.12431473 1.1080134
0.57389897 0.12570992 1.1278633
0.61199778 0.12463358 1.1432739
0.53195369 0.17473541 1.1073525
0.5738771 0.17483771 1.1260525
0.61599845 0.1753228 1.1438208
0.53748918 0.21791156 1.1071677
0.57527697 0.21751124 1.1252218
0.61630118 0.22403687 1.1416076
0.22996452 0.34703872 1.1030304
0.27411306 0.31172273 1.1160885
0.18207096 0.38747591 1.108243
0.21913835 0.37460369 1.1196406
0.16653793 0.40251258 1.1161304
-1.3553767 0.64269376 1.1091365
-1.3434525 0.63176382 1.1135349
-1.3550993 0.675524 1.1103041
-1.3333769 0.66872466 1.1066326
-1.3556206 0.72075516 1.1062052
-1.3466829 0.72539312 1.1107005
-1.3541822 0.77375787 1.1036164
-1.3447119 0.76231259 1.1070756
-1.3567551 0.82594663 1.1219642
-1.3703285 0.86114287 1.1363146
0.85237736 -0.50044435 1.1640476
0.92305112 -0.50046933 1.1586218
0.9739204 -0.50151551 1.1697965
1.0333084 -0.50367016 1.1776463
1.0754861 -0.50617033 1.1672603
1.1251726 -0.50675416 1.1686162
1.1758151 -0.50891948 1.1739031
1.2267751 -0.50920659 1.1757549
1.2764232 -0.50933802 1.1729606
1.3289028 -0.50592709 1.1740127
1.3701855 -0.50414556 1.1755441
1.428757 -0.50280625 1.1739531
1.4815183 -0.50076038 1.1831839
1.525349 -0.50566965 1.1834303
1.550277 -0.50310308 1.1790599
0.59306121 -0.46030405 1.154705
0.62747872 -0.46856657 1.1609356
0.67538661 -0.47345167 1.1715596
0.72609866 -0.47466224 1.1807084
0.77340019 -0.48172328 1.1783025
0.82129806 -0.4886677 1.1770465
0.87410796 -0.49401128 1.1739753
0.92657477 -0.4968085 1.1802138
0.98010504 -0.49749142 1.1882242
1.0028996 -0.49643612 1.1897227
1.4634093 -0.49844584 1.1728011
1.5156953 -0.4990361 1.1662443
1.5651207 -0.49899784 1.1930352
0.5762471 -0.42400211 1.1563921
0.62487251 -0.42385191 1.1725894
0.67377317 -0.4256233 1.1881635
0.72483522 -0.43880057 1.1892956
0.76228958 -0.43348417 1.1759022
0.81106865 -0.42820099 1.195526
0.54598087 -0.36566016 1.1511981
0.57378024 -0.37570268 1.1594175
0.62334585 -0.37484223 1.1760193
0.67351758 -0.37620333 1.192803
0.54555762 -0.33536378 1.1507041
0.57413012 -0.32596612 1.1597273
0.6243068 -0.32423541 1.1759822
0.67166746 -0.323897 1.191685
0.54826844 -0.28826994 1.1505585
0.57598794 -0.27613655 1.1578242
0.62356937 -0.27440551 1.1733418
0.67185521 -0.27519351 1.1906667
0.70470381 -0.25459957 1.1988772
0.58060598 -0.22609155 1.1561064
0.62401998 -0.22561418 1.1712924
0.6735388 -0.22461481 1.1882565
0.70292556 -0.22074886 1.1979243
0.58690578 -0.17729338 1.1541989
0.624345 -0.17484301 1.1675483
0.67546034 -0.17551884 1.1865814
0.70976925 -0.17244515 1.1980317
0.59231812 -0.13014415 1.1523625
0.62548578 -0.12425551 1.1635785
0.67577952 -0.12443632 1.1821606
0.7139442 -0.12542185 1.1958601
0.59356028 -0.095561095 1.1509675
0.62393236 -0.075696491 1.1598805
0.674694 -0.075936504 1.1785823
0.71612954 -0.071969837 1.1936579
0.62547582 -0.028639691 1.1571594
0.67190206 -0.027003044 1.1745325
0.71913034 -0.023935989 1.1925038
0.6330055 0.02263662 1.1572022
0.67465717 0.024810482 1.1726296
0.72269833 0.022071429 1.1922951
0.75086951 0.01956025 1.1998633
0.63753569 0.073616095 1.1564479
0.67560828 0.075360499 1.1712626
0.72285128 0.07378044 1.1895287
0.75189352 0.097203389 1.1985699
0.63714343 0.12432808 1.1550584
0.67322487 0.12520792 1.168044
0.72297245 0.1247288 1.1874337
0.75265127 0.12413745 1.1978052
0.63862306 0.17406574 1.1529274
0.67250377 0.17540522 1.1665803
0.72287738 0.17464593 1.1857194
0.75713879 0.17645088 1.1969616
0.63972104 0.21783264 1.1528238
0.67472714 0.22278237 1.1652111
0.72574687 0.22009733 1.184117
0.76276636 0.22292787 1.1949835
0.63059884 0.25175363 1.1917025
0.38214073 0.34236401 1.1628969
0.20990658 0.41392606 1.1702132
-1.3767407 0.87208796 1.1599914
-1.4023303 0.90949875 1.1898466
-1.3972265 0.92896092 1.1853307
-1.3948427 0.95378208 1.1870985
1.0331531 -0.50317544 1.2191095
1.0770196 -0.50450563 1.2191981
1.1251072 -0.50531709 1.228418
1.1739861 -0.50844657 1.2240473
1.2271342 -0.51014173 1.2293431
1.2822955 -0.50990814 1.226081
1.3210871 -0.50718975 1.217208
1.3794096 -0.50608265 1.2308606
1.4234312 -0.50448722 1.2287711
1.4688016 -0.50649589 1.240768
1.5267135 -0.50412852 1.2263213
1.5663401 -0.50215334 1.2291987
1.6285751 -0.5099442 1.2441583
0.82940352 -0.47207201 1.2051681
0.8745122 -0.4785513 1.2092655
0.92293543 -0.48494861 1.2195096
0.97126001 -0.49191833 1.227573
1.0174495 -0.49792507 1.2374083
1.0702548 -0.49931982 1.2323418
1.1009694 -0.4990539 1.2248815
1.4685402 -0.4984529 1.2153519
1.5771775 -0.49671128 1.2203937
1.6210901 -0.49835858 1.2411402
0.73210049 -0.42232761 1.2069739
0.77392143 -0.41863596 1.2155055
0.82342976 -0.41743886 1.2310512
0.86037326 -0.42632914 1.2413692
0.72404838 -0.3736589 1.2081739
0.77372259 -0.37344015 1.2231348
0.82245278 -0.37537739 1.2374681
0.85311639 -0.36912158 1.2483149
0.69693238 -0.33389497 1.201622
0.72651225 -0.32399353 1.2099441
0.77455795 -0.32373673 1.2242552
0.82332855 -0.32556275 1.2392242
0.85370183 -0.30699623 1.2478808
0.69882494 -0.26772147 1.200598
0.72591561 -0.27542636 1.2084185
0.77311468 -0.27645427 1.223261
0.82588738 -0.27446964 1.2393591
0.85207987 -0.29944482 1.2468411
0.72662026 -0.22572763 1.2072432
0.77499986 -0.22454816 1.2225316
0.82422036 -0.22501831 1.2374514
0.85435468 -0.2319849 1.2472153
0.73459649 -0.17669804 1.2074144
0.77508563 -0.17255834 1.2202355
0.8264823 -0.17703974 1.2365246
0.85963297 -0.1588835 1.2499774
0.73737323 -0.12555137 1.20573
0.77443582 -0.12563109 1.2180847
0.82293993 -0.12496617 1.2342384
0.85455173 -0.12359716 1.2455252
0.74193901 -0.076139979 1.204383
0.77582151 -0.074515089 1.2154813
0.82575369 -0.073848292 1.2330451
0.85504752 -0.079771429 1.2443476
0.74276501 -0.033165339 1.2022649
0.77594113 -0.025682846 1.213164
0.82742304 -0.027233258 1.2313921
0.86103475 -0.023158196 1.2457701
0.74321651 0.016306709 1.2009107
0.77607632 0.023232086 1.2118577
0.82682103 0.023783902 1.2293248
0.86162233 0.02425978 1.2437891
0.74482042 0.084194854 1.2013962
0.77541274 0.074989215 1.209175
0.82631427 0.074271984 1.2269708
0.85963589 0.078258447 1.2401633
0.78130233 0.12596507 1.21029
0.8267864 0.12411547 1.2251533
0.87433958 0.1288121 1.2445267
0.7819798 0.17300306 1.2081583
0.82473171 0.17468125 1.2207769
0.87400347 0.17443956 1.2410132
0.72984082 0.24726038 1.2006434
0.78866124 0.22165656 1.2042775
0.82137161 0.21968742 1.2166237
0.87284309 0.22071704 1.2381227
-1.397929 0.89544433 1.2044121
-1.4109734 0.92549103 1.2194872
-1.4224508 0.97552079 1.233608
-1.4237282 1.0155145 1.2360795
-1.4291337 1.0605987 1.2465224
1.0811306 -0.50417733 1.2609081
1.1213263 -0.50135237 1.2660626
1.1726243 -0.50358206 1.2763436
1.2228795 -0.5068658 1.2763898
1.2729261 -0.50649333 1.2731079
1.3343893 -0.50828075 1.2808579
1.3691341 -0.50751472 1.2759007
1.4245591 -0.50789398 1.2829728
1.4712473 -0.50411117 1.2751471
1.5671927 -0.50528288 1.276482
1.6114972 -0.5011884 1.2658231
1.6795142 -0.50674433 1.2886251
0.93709904 -0.4551405 1.2822869
0.97645277 -0.47648129 1.2790989
1.0275362 -0.49082497 1.2759045
1.0737349 -0.49537325 1.2772132
1.1244767 -0.49885803 1.277317
1.1553283 -0.49951264 1.2936367
1.489691 -0.49786049 1.2578902
1.599107 -0.497329 1.2560412
0.88321787 -0.41877893 1.2630435
0.92441475 -0.42453852 1.2840011
0.95328385 -0.41168827 1.2988656
0.87708145 -0.37653354 1.2637757
0.91886008 -0.37383336 1.2875876
0.877105 -0.32647124 1.2640586
0.92621487 -0.32492226 1.2896779
0.881069 -0.27628699 1.2657379
0.92628008 -0.27414083 1.2879155
0.87958831 -0.22474392 1.2629738
0.92258418 -0.22371095 1.2846851
0.95731175 -0.20916945 1.2984977
0.87917387 -0.17587519 1.2620021
0.92610961 -0.17284888 1.2857301
0.95604974 -0.17932212 1.2978245
0.88075483 -0.12432769 1.2613986
0.92486513 -0.12466625 1.2829496
0.95844668 -0.11684275 1.2995306
0.88187641 -0.077323534 1.2603241
0.92519343 -0.075461678 1.28101
0.96089381 -0.068379566 1.2965426
0.88214874 -0.028936991 1.2579801
0.9222483 -0.026213948 1.2764323
0.96393615 -0.024047462 1.2954708
0.88413364 0.024638509 1.2572678
0.92447281 0.023167649 1.2746257
0.9690305 0.023942094 1.2943438
0.8834362 0.075335011 1.2536879
0.92371804 0.073367141 1.2716205
0.970429 0.07582172 1.2917848
0.89083004 0.11742985 1.2520306
0.92947578 0.12396656 1.2684091
0.97371715 0.12464747 1.2874608
1.0055252 0.12670645 1.2993215
0.8899684 0.1681091 1.2509454
0.92563784 0.17572193 1.2657441
0.97376078 0.17512195 1.2855446
1.0091546 0.17193383 1.2998037
0.87347674 0.24630405 1.2589511
0.9219088 0.21875198 1.2608106
0.97095472 0.21956411 1.2811226
1.0073886 0.22316362 1.2951597
-1.4320167 0.93283343 1.2703451
-1.4505837 0.9826439 1.2991979
-1.4366791 0.97632229 1.2724552
-1.4356122 1.026116 1.27273
-1.4519541 1.0651938 1.2942775
-1.4397798 1.0759339 1.2786633
-1.4463207 1.1149684 1.2988343
-1.4443935 1.1508858 1.2954919
1.1968014 -0.5020622 1.3114666
1.2235174 -0.50194913 1.3139406
1.2705827 -0.50301504 1.3222115
1.322307 -0.50452256 1.3228797
1.3746262 -0.50281012 1.3227851
1.435721 -0.50565416 1.3196247
1.4816093 -0.50438136 1.3261489
1.5276999 -0.50600296 1.3177845
1.5777441 -0.50694436 1.3207067
1.6327273 -0.50839061 1.3233217
1.6734508 -0.50855476 1.323927
1.7097485 -0.50758564 1.3230513
0.98809004 -0.46330002 1.3094572
1.0286436 -0.46876356 1.3241782
1.0704656 -0.47579879 1.3286685
1.1260409 -0.49080449 1.325563
1.174179 -0.49575922 1.3233262
1.2230263 -0.49650079 1.3386376
1.2819912 -0.49818707 1.3360862
0.97817844 -0.42699075 1.3146899
1.0239717 -0.42326444 1.3366541
1.0589457 -0.4406563 1.3469229
0.94858629 -0.36494938 1.3032484
0.97388446 -0.37404513 1.3146081
1.0253853 -0.37336132 1.3396379
0.94914961 -0.3068234 1.3010008
0.97653884 -0.32329273 1.3140384
1.0220813 -0.32502016 1.337863
0.97736114 -0.27528408 1.3139204
1.0231388 -0.27622941 1.334908
1.0539345 -0.2567966 1.347819
0.9775793 -0.22761405 1.3112663
1.0268724 -0.22335005 1.3348554
1.0566456 -0.22536564 1.3482069
0.97966886 -0.1729674 1.3108706
1.0237474 -0.17694175 1.331742
1.0569026 -0.1745896 1.3450259
0.97987533 -0.12684214 1.307837
1.0223038 -0.12397122 1.3273746
1.060423 -0.12351319 1.3453522
0.98468059 -0.077838689 1.3089966
1.0235547 -0.075378932 1.3260195
1.0661387 -0.07320147 1.3441067
0.98868048 -0.031176565 1.3070277
1.0247473 -0.024571622 1.3231027
1.0650338 -0.025349317 1.3391453
0.99336815 0.018445104 1.3058076
1.0296556 0.022990027 1.3215888
1.0768167 0.022217656 1.3427447
0.99465036 0.069957577 1.3028978
1.0265986 0.075664058 1.3152765
1.0777056 0.075877555 1.3379529
1.1102756 0.082895331 1.3462818
0.99524325 0.12633787 1.3002293
1.029344 0.12440708 1.3139617
1.0782446 0.12424365 1.3336996
1.1116127 0.1262949 1.3450123
1.0260122 0.1718803 1.3087665
1.0702102 0.17428039 1.3263788
1.115168 0.18424572 1.3450645
1.0355729 0.22016209 1.3081713
1.0741715 0.2205046 1.3239787
1.1118081 0.22044697 1.3395329
0.81487972 0.3301301 1.3406006
0.84252185 0.3800835 1.3357952
0.85061771 0.38739887 1.3478521
-1.4448613 0.94036913 1.3156186
-1.4511771 0.97017485 1.3275293
-1.4465127 0.96709561 1.312984
-1.4579508 1.0230259 1.3269587
-1.4493366 1.0144713 1.3205333
-1.4599055 1.078827 1.3338006
-1.4480999 1.06462 1.3103821
-1.4580252 1.122667 1.3224676
-1.4479308 1.1437501 1.3047992
-1.4623795 1.1742635 1.3352255
-1.4569788 1.2062922 1.3371139
1.3469671 -0.50031799 1.3520603
1.4369578 -0.50477308 1.3691797
1.4678856 -0.50201112 1.369603
1.5126771 -0.50416636 1.3755231
1.5801836 -0.50849694 1.3737925
1.6347139 -0.51239413 1.3630766
1.6731032 -0.5114665 1.3802903
1.7350123 -0.51205945 1.3707824
1.7680149 -0.50949293 1.3816808
1.808233 -0.50949866 1.3973844
1.0912224 -0.46599755 1.3568827
1.1231624 -0.4687902 1.3681159
1.1750656 -0.47768411 1.3786957
1.2241817 -0.4893707 1.373785
1.2679154 -0.49072298 1.3752514
1.3224993 -0.49517891 1.3782845
1.378511 -0.49648911 1.3746996
1.4736079 -0.49731004 1.3738188
1.5120742 -0.49926037 1.3765082
1.0468898 -0.42311662 1.3509855
1.0777644 -0.42012686 1.3618252
1.1207263 -0.42752308 1.3806635
1.1598252 -0.43290901 1.3978486
1.0748017 -0.37952802 1.3639328
1.1238508 -0.3737123 1.3857311
1.1569867 -0.36929929 1.3970661
1.0740741 -0.32656622 1.3620242
1.1250347 -0.32295138 1.3829257
1.1503491 -0.32175922 1.3984025
1.0485177 -0.27690744 1.3527138
1.0770028 -0.27478299 1.3596673
1.1241771 -0.27374834 1.3799156
1.1621795 -0.27930796 1.3957337
1.079838 -0.22474258 1.3587675
1.1270274 -0.22759309 1.3808123
1.1659651 -0.22597167 1.3949775
1.084121 -0.17632753 1.358534
1.1264931 -0.17394558 1.3762925
1.1702719 -0.17385243 1.3953294
1.0843649 -0.13202143 1.3560932
1.1194311 -0.12422118 1.3700351
1.1684347 -0.12481748 1.3893867
1.0954051 -0.070437342 1.3586404
1.1246924 -0.074901022 1.3689632
1.172103 -0.079012677 1.3883179
1.0906336 -0.034900144 1.3538158
1.124697 -0.027504034 1.3656514
1.178661 -0.025768885 1.3875434
1.2085251 -0.032758046 1.3985857
1.122866 0.025441028 1.3618246
1.1755574 0.025278788 1.3814607
1.213369 0.025327811 1.393786
1.1306024 0.073181622 1.3583364
1.1800815 0.076235548 1.3800218
1.2167888 0.071477741 1.3927894
1.1358439 0.12232091 1.3574581
1.1697059 0.12674409 1.3681152
1.2145332 0.12732853 1.3824056
1.140138 0.16728617 1.3550427
1.1759639 0.17678522 1.3685887
1.2288091 0.17568395 1.3862827
1.2708149 0.17443596 1.3940789
1.1380447 0.22175528 1.3516754
1.1747845 0.22032912 1.3649268
1.2253759 0.22088434 1.3792619
1.2679334 0.2249577 1.3908126
0.81035554 0.29555133 1.369488
0.81810886 0.32052863 1.3607833
0.84635639 0.37486625 1.3705601
0.85352296 0.38091445 1.3672625
-1.4903793 1.1647565 1.3731084
1.4331425 -0.50100404 1.4298487
1.4762807 -0.50000358 1.4402088
1.5225073 -0.50349897 1.4179325
1.5764227 -0.50598574 1.4252079
1.6269691 -0.50852764 1.4222486
1.6784401 -0.51156664 1.4246734
1.7284905 -0.51226085 1.4147658
1.7530022 -0.50920606 1.4154803
1.823642 -0.51308048 1.4381009
1.852183 -0.50604099 1.4355601
1.1890165 -0.46321926 1.4063296
1.2258672 -0.46573353 1.4144264
1.2795604 -0.47142544 1.4296424
1.325448 -0.48409176 1.4248707
1.3768014 -0.48987117 1.4275497
1.4261687 -0.49484128 1.4239211
1.4621081 -0.49724343 1.4196604
1.5374161 -0.49962083 1.4392946
1.1781689 -0.42125413 1.4087803
1.2199281 -0.42600623 1.4241729
1.2640134 -0.42594275 1.44155
1.1494274 -0.37370437 1.4028053
1.1801404 -0.37308338 1.4105325
1.2229561 -0.37671772 1.4257165
1.2672501 -0.37668356 1.4446692
1.1767505 -0.3256318 1.4063969
1.2281898 -0.3262412 1.4273356
1.2750129 -0.32354888 1.4459184
1.1876544 -0.27268693 1.4049864
1.224802 -0.27383634 1.4212366
1.2636982 -0.27157912 1.4352591
1.1930338 -0.22607943 1.4069101
1.2253267 -0.22392285 1.4169923
1.2742001 -0.22294654 1.4367036
1.3085687 -0.21501401 1.4485121
1.187314 -0.19053002 1.403879
1.2208918 -0.17081369 1.4121702
1.2723274 -0.17772642 1.4340116
1.3116825 -0.17964986 1.4477518
1.1985598 -0.12836239 1.4034016
1.2224799 -0.12449946 1.4125521
1.2717249 -0.12257244 1.4304745
1.3136575 -0.12527494 1.447368
1.1950704 -0.08242701 1.402126
1.229749 -0.07355047 1.4112227
1.2802659 -0.073076956 1.4304414
1.3229474 -0.068749137 1.4442416
1.2304509 -0.029296314 1.4076037
1.2790362 -0.024531243 1.4263495
1.3162434 -0.025698969 1.4383142
1.2340534 0.017274881 1.4063236
1.2758294 0.024020769 1.4188275
1.3302383 0.019460384 1.4403303
1.3659126 0.036194004 1.4491131
1.2384266 0.078253768 1.4050245
1.2708871 0.074389979 1.4129546
1.3218822 0.073080406 1.43224
1.3598844 0.079121746 1.4466699
1.2383093 0.11819016 1.4025228
1.273869 0.12423044 1.4100313
1.3314407 0.12775187 1.4323553
1.3708183 0.12741706 1.4422268
1.2808927 0.17583665 1.4050682
1.3246979 0.17642386 1.419094
1.3670169 0.17645629 1.4335976
1.4059668 0.18623641 1.4472883
1.2856938 0.20919669 1.4038219
1.3280294 0.22251466 1.415169
1.3712931 0.22234209 1.4282769
1.4062046 0.21800523 1.4436706
0.79898816 0.31603184 1.4037642
0.80125147 0.31993425 1.4243479
1.5201803 -0.50031936 1.458811
1.5886199 -0.50316292 1.471802
1.6286592 -0.50574768 1.4745767
1.6759328 -0.50922447 1.4888655
1.7254295 -0.51081985 1.4735327
1.7726336 -0.5087741 1.4738044
1.8220524 -0.50985003 1.4745462
1.8718733 -0.50694793 1.4793795
1.3304468 -0.46414921 1.4575804
1.3781002 -0.47451127 1.4713194
1.4250792 -0.47783384 1.4811505
1.4751612 -0.49018538 1.469902
1.5268584 -0.49276918 1.4822917
1.5636868 -0.49659622 1.4865162
1.2963623 -0.42787629 1.4542024
1.3291004 -0.4251307 1.4673932
1.374217 -0.42703533 1.4846367
1.4106727 -0.44064644 1.4950255
1.2905693 -0.39041388 1.4562501
1.3208221 -0.37469435 1.4669716
1.3693904 -0.37878352 1.4885129
1.294325 -0.34020662 1.4541789
1.3234118 -0.32448542 1.4659629
1.3688345 -0.32190588 1.4848273
1.4065874 -0.3202551 1.4986482
1.2888441 -0.28378704 1.4522892
1.3236796 -0.27833819 1.4635104
1.3715616 -0.27182963 1.4802473
1.4064245 -0.27407229 1.4944247
1.3268368 -0.22860432 1.4588468
1.3743705 -0.22417904 1.4765714
1.4172013 -0.22840409 1.4942263
1.330032 -0.17298891 1.4576931
1.3684944 -0.1733235 1.4696739
1.4200615 -0.17498815 1.4906678
1.3434505 -0.12398341 1.4577224
1.3792106 -0.12908286 1.4720156
1.4245182 -0.12023937 1.4886887
1.3363611 -0.09098158 1.4542519
1.3740144 -0.0759205 1.4648557
1.42581 -0.074219599 1.4864922
1.462579 -0.088309608 1.4969741
1.3374372 -0.030442161 1.4519761
1.3691505 -0.027982807 1.4587636
1.416162 -0.024874777 1.4758906
1.4588826 -0.019883893 1.4916759
1.3810167 0.023017552 1.458539
1.4196938 0.021119596 1.4719189
1.4639455 0.023524798 1.4906474
1.3864616 0.074817605 1.4568633
1.4217054 0.07635162 1.4674531
1.463552 0.072891891 1.4874284
1.3875105 0.10850912 1.4519528
1.4248548 0.12408569 1.4641169
1.47446 0.12458608 1.4822741
1.5125659 0.14314479 1.4903221
1.3940874 0.16777958 1.4539133
1.4247274 0.1743502 1.4585055
1.4751723 0.17327678 1.4793316
1.5271723 0.16829488 1.4978502
1.4386961 0.22162588 1.459692
1.4725595 0.22487435 1.4698164
1.5195627 0.2215364 1.4886649
1.2774929 0.26975492 1.4856864
1.2981337 0.41737074 1.4932461
1.6064032 -0.5003655 1.5004271
1.6815428 -0.50378591 1.515708
1.7191814 -0.50387233 1.5258508
1.7744143 -0.50475752 1.5193279
1.8180261 -0.50225425 1.5148425
1.8653052 -0.50679678 1.536
1.9256163 -0.50853473 1.527184
1.4370918 -0.46275035 1.5068932
1.4758726 -0.46678612 1.5179365
1.5252153 -0.47355878 1.5300293
1.5705589 -0.48971939 1.5214108
1.6317947 -0.49462509 1.531925
1.6897885 -0.49899238 1.5452924
1.7123963 -0.49946776 1.5271664
1.7756642 -0.49945444 1.5371894
1.4243577 -0.41799489 1.5081686
1.4780686 -0.42721236 1.5298129
1.5243856 -0.42710638 1.5462576
1.4173375 -0.37551716 1.5085613
1.4692404 -0.37449771 1.5295233
1.510317 -0.37142321 1.5467409
1.3976068 -0.33428338 1.5038908
1.4254375 -0.32394925 1.5060562
1.4807796 -0.32699969 1.5347998
1.5190736 -0.32049254 1.5443842
1.4330511 -0.27826053 1.5056958
1.4787892 -0.27311862 1.5239002
1.517947 -0.27521992 1.5371609
1.448058 -0.2106134 1.506757
1.4706665 -0.22807248 1.514416
1.5281686 -0.2270641 1.5407031
1.4425547 -0.17709021 1.504634
1.4754719 -0.17465569 1.5125808
1.5330263 -0.17073864 1.5381413
1.557412 -0.18629912 1.549822
1.4817448 -0.12254348 1.5127398
1.5315722 -0.1294937 1.5338929
1.5668138 -0.11737704 1.5464945
1.4485148 -0.06471429 1.5009788
1.4810147 -0.071364745 1.5054849
1.5211514 -0.076291814 1.5213509
1.5649493 -0.074031532 1.5399375
1.4832224 -0.035260808 1.5057206
1.53061 -0.028297743 1.5240843
1.5738145 -0.028827237 1.5415058
1.5227805 0.026851201 1.5160396
1.5743431 0.019234335 1.5368956
1.6085863 0.030628756 1.5489419
1.5195806 0.077218391 1.5104401
1.5767795 0.07917577 1.5303729
1.6194024 0.073909245 1.5439731
1.5272112 0.11922074 1.5126318
1.5665708 0.12749888 1.5198205
1.6169372 0.12541661 1.540905
1.5213648 0.18096881 1.5013725
1.5798206 0.1762946 1.523798
1.6214823 0.16715008 1.5362986
1.6537337 0.19326827 1.5486779
1.57108 0.22063312 1.5124303
1.6226462 0.21884328 1.5316581
1.65413 0.22371228 1.5453434
1.2929139 0.2847808 1.5133367
1.2958516 0.31552187 1.5233229
1.3039331 0.32023233 1.5176458
1.2985073 0.37215155 1.503911
1.3116585 0.37361628 1.5160011
1.3186232 0.41781831 1.5182363
1.7400837 -0.50002241 1.574398
1.8350064 -0.5006085 1.5614654
1.8575401 -0.5037356 1.5606169
1.9311396 -0.50679493 1.5684946
1.9854801 -0.50509346 1.5847907
2.0125432 -0.50966346 1.5700226
1.5814559 -0.47087294 1.5608923
1.6211109 -0.47220093 1.5670899
1.6768556 -0.48081642 1.5800954
1.7215458 -0.49168456 1.5736371
1.7709123 -0.49343967 1.5752307
1.8118045 -0.49725938 1.5614529
1.8811735 -0.49903813 1.5833584
1.9454285 -0.49864587 1.5989691
1.9981556 -0.49037331 1.5730098
2.0314162 -0.48550972 1.5916494
1.5474268 -0.42787027 1.5549424
1.5717044 -0.42118934 1.5671515
1.6203576 -0.43059716 1.5821576
1.6616302 -0.4217822 1.5967774
1.5404462 -0.37640083 1.5589449
1.5798874 -0.37766847 1.5745963
1.6187235 -0.37596056 1.5869763
1.6507182 -0.38273004 1.5942438
1.534235 -0.33787063 1.5537058
1.5767757 -0.32842875 1.565318
1.6260934 -0.32307926 1.5850018
1.6589289 -0.32531357 1.5937247
1.5715839 -0.27570614 1.5588474
1.6312606 -0.2760123 1.5827994
1.6801741 -0.26736134 1.5963259
1.5752963 -0.225392 1.5549744
1.6289145 -0.21929641 1.5764269
1.6725343 -0.22799277 1.5921566
1.7049468 -0.21849526 1.5951632
1.5800511 -0.18137233 1.5574208
1.6252297 -0.17332931 1.5702939
1.6731701 -0.17090289 1.5859977
1.5893523 -0.13011909 1.5554706
1.6309093 -0.12576732 1.5744133
1.6683286 -0.11798378 1.5831906
1.7002655 -0.12417618 1.5993878
1.5923147 -0.093690589 1.554477
1.6308532 -0.069803402 1.5646981
1.6840805 -0.074939243 1.5898226
1.7146755 -0.067055814 1.5962532
1.6254225 -0.027200358 1.5616227
1.6738334 -0.024807869 1.5782884
1.7130182 -0.024173891 1.5917785
1.6343756 0.020899806 1.5560098
1.6748006 0.01716451 1.5753466
1.7201074 0.021687854 1.5913377
1.6237807 0.060952153 1.5549268
1.6735091 0.076223373 1.5691243
1.7175518 0.069291815 1.5846252
1.7556719 0.080055892 1.5939707
1.6739869 0.1222019 1.5645375
1.723379 0.12439686 1.5846714
1.7668836 0.12973675 1.5955642
1.67932 0.17802122 1.563448
1.7208081 0.1734567 1.5749028
1.7671099 0.18832302 1.5896817
1.6838739 0.22453022 1.5580328
1.7217822 0.2248738 1.5701219
1.7655964 0.22202714 1.5853437
1.3063895 0.4446148 1.5887067
1.2881171 0.46817496 1.5778337
1.6837262 -0.45235685 1.6019192
1.7215207 -0.47098717 1.6046813
1.773165 -0.47041756 1.6233504
1.826081 -0.48010316 1.6301318
1.8677764 -0.48651433 1.6296836
1.9218882 -0.4947069 1.621447
1.9784969 -0.4918476 1.6268321
2.0147882 -0.481325 1.6210895
2.0754333 -0.48700613 1.6499006
1.695089 -0.42756337 1.6091261
1.7239738 -0.42278519 1.6152016
1.7796623 -0.42928237 1.6382853
1.8211501 -0.43700024 1.6478243
1.6782687 -0.37651581 1.605701
1.725052 -0.37479126 1.6171098
1.7741722 -0.37408096 1.6368697
1.8101264 -0.36564264 1.6451031
1.6881615 -0.32834917 1.6061866
1.720165 -0.31998402 1.6120732
1.7785451 -0.32917094 1.6345638
1.8135263 -0.30635503 1.6448839
1.6903142 -0.28654927 1.6013696
1.7261361 -0.27789542 1.6106642
1.7787396 -0.27471933 1.6307181
1.8213637 -0.27498206 1.6420361
1.8546327 -0.25407928 1.6487786
1.6993917 -0.24008738 1.6068929
1.7296765 -0.22322822 1.6100261
1.7771955 -0.22685459 1.629648
1.8142464 -0.22282472 1.6364232
1.8510514 -0.23145936 1.6483622
1.7232021 -0.17803547 1.6067874
1.7770483 -0.17525212 1.6233871
1.8276831 -0.17440431 1.6421731
1.7267312 -0.12527962 1.6044444
1.7653669 -0.12973727 1.6152108
1.8173597 -0.12668884 1.6362778
1.8584485 -0.10949911 1.6450039
1.739259 -0.075530313 1.6039627
1.7746613 -0.075512536 1.6173853
1.8292154 -0.071959391 1.6375984
1.8649849 -0.074584894 1.6454459
1.7450196 -0.027339568 1.6056904
1.7766402 -0.025807001 1.6148174
1.8278357 -0.026337244 1.6306901
1.871123 -0.010078595 1.6385581
1.7742869 0.022179609 1.6126163
1.820025 0.02507133 1.6247606
1.8686851 0.02312162 1.6429743
1.7780993 0.073459566 1.6066548
1.8230907 0.076938845 1.6233788
1.8745912 0.075871915 1.6450431
1.7935181 0.11887094 1.6062546
1.8256661 0.12262017 1.6186132
1.8717327 0.12257979 1.6348597
1.9100338 0.10199372 1.6488659
1.7898892 0.16437976 1.6043534
1.8260876 0.17479797 1.6140591
1.8683373 0.17760591 1.6274269
1.7995144 0.21612269 1.602706
1.8265173 0.22483149 1.609699
1.8702513 0.22754216 1.6237166
1.917079 0.22153278 1.6404829
1.882524 -0.46392334 1.6624131
1.9289169 -0.46829218 1.6687505
1.9795741 -0.47885242 1.6811997
2.0178099 -0.48329622 1.6776597
2.0618882 -0.47894794 1.6952598
2.1104383 -0.48712507 1.6796532
1.8347479 -0.41304952 1.6532919
1.8698536 -0.42914215 1.6601793
1.9222705 -0.42994305 1.6800236
1.9654814 -0.41859221 1.6926733
1.8274906 -0.38039422 1.6531063
1.8670286 -0.37521631 1.6615688
1.9230473 -0.37323657 1.6839586
1.953613 -0.39370328 1.6943382
1.8305873 -0.3253516 1.6524343
1.8665972 -0.32383242 1.6618488
1.9184078 -0.32840684 1.6813741
1.969474 -0.31919152 1.6935587
2.0103354 -0.31581473 1.6926366
1.8863097 -0.27823469 1.6635989
1.9257778 -0.26710603 1.6792928
1.9718246 -0.27769414 1.6971431
1.8757689 -0.22096573 1.6598642
1.9248447 -0.23043312 1.6759282
1.9663131 -0.22411558 1.6881783
1.8845884 -0.1726211 1.6636969
1.9270496 -0.17132646 1.6732317
1.9646605 -0.18932968 1.6903259
2.0115387 -0.19211307 1.6980579
1.8853313 -0.13349916 1.6674019
1.9241725 -0.12855676 1.6718658
1.9673955 -0.12860784 1.6866505
2.0206292 -0.1279151 1.6999509
1.8957796 -0.099815078 1.6577648
1.9256526 -0.076432593 1.6708397
1.9699955 -0.073693976 1.6810057
1.891325 -0.043710895 1.6558431
1.9271355 -0.027320554 1.6733246
1.9672344 -0.027696675 1.6797037
2.0138547 -0.033962276 1.6978185
1.8888159 0.01586437 1.6539141
1.927706 0.023606678 1.6667849
1.9773719 0.025815627 1.6821339
2.0031478 0.030171767 1.6886468
1.8912457 0.068036176 1.6548572
1.9241968 0.074487954 1.6623938
1.9732189 0.079369999 1.6789062
2.0108471 0.076986358 1.6938651
1.9262053 0.13213767 1.6567434
1.9626359 0.12422723 1.6717273
2.0185299 0.12590028 1.6905098
1.9309791 0.17682517 1.6614726
1.9634013 0.17878637 1.6681129
2.0266252 0.17125106 1.6902863
2.0632367 0.16697185 1.688736
1.9492011 0.20596302 1.6532434
1.971251 0.22314622 1.6630543
2.0223217 0.22181761 1.6852198
2.0634317 0.22308417 1.6978954
2.0278502 -0.46401176 1.7076361
2.0786936 -0.46718511 1.7163272
2.1222451 -0.4609679 1.7252598
2.1535556 -0.45916566 1.7145777
2.2095666 -0.45248419 1.7475965
1.9833441 -0.42786008 1.703284
2.025455 -0.42759556 1.7121439
2.0758495 -0.4288626 1.7197201
2.1332307 -0.42520276 1.7389094
2.1664152 -0.43378118 1.738072
1.9937779 -0.38175008 1.7107379
2.0129845 -0.37132949 1.7075924
2.0716681 -0.37808111 1.7258073
2.1192772 -0.37047228 1.7400889
2.1661744 -0.39025894 1.7460251
1.9992814 -0.32768941 1.7030046
2.0269287 -0.33073384 1.7101108
2.072233 -0.32964209 1.7216809
2.1199398 -0.31897306 1.7368962
2.1667991 -0.32103503 1.7463164
1.9897391 -0.27357998 1.7025275
2.0314937 -0.27763867 1.7163824
2.06109 -0.27402148 1.7201294
2.1265221 -0.27412465 1.7418309
2.172895 -0.27146414 1.7467712
2.0207639 -0.22754821 1.7088457
2.0785854 -0.22003642 1.7279446
2.1265101 -0.22485165 1.7419219
2.166616 -0.22741951 1.7465565
2.0248342 -0.17393525 1.7093791
2.0903158 -0.17379376 1.733273
2.123143 -0.17545649 1.7381408
1.9974165 -0.10971291 1.7028642
2.0220315 -0.13215868 1.7080504
2.0714285 -0.12095829 1.7255251
2.1273789 -0.12672471 1.7375573
2.1547871 -0.13398206 1.7446791
1.9995962 -0.05729771 1.7068145
2.0264399 -0.078946926 1.7115266
2.0780051 -0.074652143 1.721357
2.1277573 -0.079091594 1.7341324
2.0246623 -0.026334733 1.706978
2.066586 -0.025041822 1.7159278
2.125633 -0.031796161 1.7341901
2.0222323 0.0011164643 1.7050991
2.0738509 0.030224949 1.7198592
2.1259866 0.01949143 1.7361145
2.0177355 0.059686694 1.7003082
2.0756905 0.079717897 1.7168233
2.1346753 0.071943983 1.7352778
2.1507151 0.087169014 1.7433393
2.0470786 0.10750173 1.7011757
2.0769887 0.12653655 1.7084384
2.1315784 0.1302886 1.7298445
2.0890205 0.15706728 1.7108077
2.1187232 0.19137591 1.7249355
2.1600313 0.16766363 1.7459306
2.0922885 0.23537177 1.705935
2.1290009 0.21225172 1.7239209
2.157337 0.24135977 1.736532
-1.2392442 0.64658254 1.7499187
-1.2672262 0.67466867 1.7356566
-1.2354652 0.66474026 1.7383381
-1.3090832 0.71316534 1.7486329
-1.3079332 0.98098511 1.7296252
-1.2974644 0.97379547 1.7341176
2.1803858 -0.41158447 1.7540811
2.2161002 -0.4222602 1.7588425
2.1442323 -0.38857496 1.7506388
2.1678843 -0.3657068 1.751677
2.2064276 -0.37006336 1.7600434
2.1729057 -0.33473969 1.7531219
2.1873243 -0.28161147 1.7572702
2.1459284 -0.24504213 1.750275
2.1796012 -0.22877908 1.7570946
2.1682026 -0.17192961 1.752944
2.1655297 -0.12229493 1.7540919
2.161953 -0.085087769 1.75291
2.157876 0.001261551 1.7511156
2.1698878 0.18701716 1.7523292
-1.3673886 0.63822806 1.7855592
-1.3224498 0.64398271 1.7761315
-1.2668005 0.62775654 1.7693639
-1.2434531 0.63864434 1.7589076
-1.438341 0.65657079 1.7998145
-1.3059621 0.65477234 1.7848544
-1.2814331 0.66300726 1.7635802
-1.3091172 0.71083355 1.760607
-1.2992367 0.70871067 1.779651
-1.2997797 0.86886549 1.766974
-1.3192843 0.96557045 1.7761967
-1.3142529 1.0120543 1.7845306
-1.3728818 0.64575469 1.8133947
-1.3415368 0.64613342 1.8189234
-1.4682146 0.68038434 1.8203847
-1.4246665 0.67249936 1.8146892
-1.3708675 0.67601752 1.8170867
-1.3433743 0.67886567 1.8117434
-1.4741805 0.71148819 1.8368261
-1.4381307 0.71004581 1.8428398
-1.3935236 0.72595751 1.849153
-1.3649863 0.86851054 1.8364087
-1.3333517 0.87929457 1.8012654
-1.354259 0.91988999 1.8098884
-1.3350042 0.92783034 1.8195635
-1.3206494 0.96310079 1.8099997
-1.4336618 0.69135857 1.8500794
-1.4271255 0.72517961 1.8585061
-1.3988256 0.74514496 1.8507121
-1.4080764 0.79559165 1.8950284
-1.3803082 0.77518094 1.8831518
-1.4067793 0.81723243 1.8852271
-1.3879008 0.83835858 1.8845643
-1.3778042 0.86377031 1.8772097
-1.344245 0.89491206 1.853811
-1.3898993 0.78518087 1.9128612
-1.4051269 0.82345742 1.9214197
-1.3875406 0.83087713 1.9114168
-1.3647096 0.85245848 1.9039735
-1.4050894 0.83618248 1.9500672
-1.9655145 2.212369 2.1306686
-1.932404 2.2104242 2.1372881
-1.9780058 2.2195659 2.17733
-1.9277835 2.2242522 2.1742456
-1.8957261 2.2236242 2.1819413
-2.0094452 2.2217875 2.2368269
-1.9684683 2.2199867 2.2227516
-1.9292184 2.2288132 2.2245803
-1.8892772 2.2364542 2.2249019
-1.8440125 2.2291527 2.2243774
-2.0156646 2.2128911 2.2774522
-1.9841353 2.222146 2.2743266
-1.925404 2.2238736 2.2695594
-1.8807535 2.2348905 2.2759302
-1.8373563 2.2244096 2.2592144
2.0856187 2.3760016 2.2924023
1.0837004 0.54056633 2.3398287
1.1001749 0.54270113 2.3449736
1.0749477 0.55737233 2.3328829
-2.0534742 2.1263182 2.3491595
-2.0508218 2.1916101 2.3397508
-2.0415518 2.198504 2.3166296
-2.0301692 2.2169509 2.3249617
-1.9752425 2.2233877 2.3225214
-1.9176295 2.2306561 2.3231003
-1.8651648 2.2338517 2.3202641
-1.8483222 2.2428184 2.3389182
-1.8330081 2.2672906 2.3091578
1.9836694 2.3568726 2.3301504
2.0128491 2.3711808 2.3330369
2.0735881 2.3834989 2.3387547
2.1154549 2.3739491 2.3294649
2.2112427 2.3857253 2.3450301
1.1836388 0.53742015 2.3864455
1.1325164 0.55567861 2.3669233
1.1776227 0.55417579 2.3863478
1.2078943 0.5524506 2.3884232
-2.0567806 1.8988069 2.3891692
-2.0253808 1.884387 2.3974502
-2.0547981 1.9292078 2.385535
-2.0318117 1.9147334 2.3953927
-2.0547779 1.9781133 2.3723681
-2.0365927 1.9804273 2.3901329
-2.0569406 2.0213506 2.3670263
-2.027195 2.0246465 2.3947532
-2.0575662 2.0717976 2.3749149
-2.0423973 2.0761383 2.3938725
-2.061908 2.1182241 2.3711507
-2.0339038 2.1321971 2.3806384
-2.0508926 2.1748095 2.3523982
-2.0201433 2.1751378 2.3814337
-1.9877121 2.1962109 2.3914616
-2.0249245 2.2084746 2.3658645
-1.9689134 2.2139008 2.3762889
-1.9255154 2.2194836 2.3740172
-1.8835618 2.2295976 2.3699923
-1.8544117 2.2788913 2.3720155
-1.8617477 2.3152146 2.3842201
-1.8255545 2.3183424 2.3727312
1.9332993 2.3682523 2.3804832
1.9799992 2.3739264 2.3722489
2.0289071 2.3736365 2.3800313
2.0678771 2.3794866 2.3768966
2.1236193 2.3848274 2.3754263
2.1757958 2.3860044 2.3836024
2.2152395 2.3817906 2.3777804
2.2614408 2.3842421 2.3712158
2.0592346 2.4053462 2.3552029
1.2420397 0.53945518 2.4451294
1.2396073 0.561131 2.4211636
-1.9949404 1.8866529 2.4094
-2.0167024 1.9294199 2.4063778
-1.9785415 1.9350069 2.4192033
-1.926744 1.932189 2.4390943
-2.0107932 1.9670918 2.4045858
-1.9740306 1.977293 2.4224644
-1.9274251 1.975579 2.4406283
-2.0079596 2.0247624 2.4086757
-1.9772947 2.0326972 2.4237707
-1.9382303 2.0264881 2.4393108
-2.015702 2.0884717 2.4069211
-1.9738659 2.0728233 2.4190097
-1.9258896 2.0783279 2.4365854
-2.0122128 2.1188743 2.407553
-1.9755913 2.1295888 2.4167347
-1.9325577 2.1289873 2.4296658
-2.0030899 2.1607959 2.4034743
-1.969807 2.177834 2.4054999
-1.9232674 2.1816001 2.4310532
-1.9160947 2.2082989 2.4189527
-1.885318 2.2235661 2.4237683
-1.8780625 2.2824283 2.422399
-1.8642383 2.3131597 2.4327357
-1.8274118 2.334784 2.4262719
-1.7845106 2.3414297 2.4334393
1.8326144 2.3598328 2.4318569
1.8704599 2.3645213 2.4150822
1.9203604 2.3710427 2.4233112
1.9749978 2.3764179 2.4308155
2.0281861 2.3757105 2.4248633
2.079231 2.3713777 2.4219632
2.1305594 2.3851538 2.4200387
2.1745541 2.3862705 2.4272449
2.2259941 2.3850429 2.4183564
2.2638514 2.3786387 2.4246593
2.3233871 2.3939009 2.4307361
1.2247877 0.54033083 2.4562454
-1.9033996 1.9414302 2.4516158
-1.8930001 1.92696 2.473464
-1.9031789 1.9908828 2.4606142
-1.890375 1.9779907 2.4732542
-1.9089427 2.0303047 2.4592657
-1.8944503 2.0155327 2.470037
-1.904458 2.0654075 2.4700816
-1.8956542 2.0762353 2.4744005
-1.90107 2.1240199 2.4506564
-1.8926601 2.1159434 2.4699087
-1.90534 2.1634846 2.4536486
-1.8926435 2.1798646 2.46926
-1.885251 2.2314909 2.4780595
-1.8875234 2.2786531 2.4713025
-1.8720107 2.3198321 2.4787941
-1.8331394 2.3371146 2.476315
-1.7630432 2.3409147 2.4853578
-1.7248129 2.3386478 2.4812207
-1.6938411 2.3448775 2.4932227
-1.8069394 2.3536692 2.4778905
-1.774956 2.3625221 2.4710958
1.7294543 2.3588042 2.4933753
1.7847419 2.3755865 2.485229
1.8207453 2.3691075 2.4733415
1.8760787 2.3761673 2.469594
1.917586 2.3673046 2.4701903
1.9659346 2.3662496 2.4785404
2.0307858 2.3816807 2.4744816
2.0777018 2.3773391 2.4785147
2.1237998 2.3833153 2.4713616
2.1676583 2.3806629 2.4730399
2.2183702 2.3848822 2.4815073
2.2554171 2.3892283 2.470387
2.3228972 2.3877001 2.4723709
2.3722262 2.388376 2.4535074
2.4334133 2.3846033 2.494405
-1.9161472 2.1257892 2.5283675
-1.9122365 2.1918235 2.5189457
-1.9085283 2.2245617 2.5349815
-1.8939776 2.2708855 2.51671
-1.9018875 2.3276093 2.5412636
-1.8848387 2.3348522 2.5220175
-1.8385656 2.3376732 2.5144525
-1.7613769 2.344295 2.5314741
-1.7223134 2.3379669 2.5450284
-1.6727928 2.3339794 2.5283072
-1.6209049 2.3254175 2.5063643
-1.5825058 2.3308122 2.535547
1.5969391 2.3396733 2.5409887
1.6180168 2.3456879 2.5381405
1.6831918 2.3451669 2.5198641
-1.8175967 2.3527212 2.5305738
-1.7986586 2.3593388 2.5320077
-1.6836984 2.3544192 2.513299
1.6402535 2.3532414 2.5367877
1.6723073 2.3538046 2.5389876
1.7252049 2.3706467 2.5267632
1.7777966 2.3652894 2.5205884
1.828216 2.3640177 2.5214975
1.8736284 2.3688586 2.5212293
1.9257007 2.3715029 2.5234194
1.9799649 2.3665535 2.5260174
2.0243764 2.377708 2.5218978
2.0765848 2.3789692 2.5322905
2.12674 2.3860776 2.5319202
2.1766891 2.3828096 2.5253
2.2415102 2.3851614 2.5177865
2.2786138 2.3864715 2.531678
2.3340287 2.3824222 2.5272374
2.3851912 2.3921037 2.5193219
2.4260786 2.3861504 2.5493095
2.4846406 2.3884459 2.5109651
2.528228 2.3931346 2.535253
2.5594139 2.3855457 2.5466096
-1.9261703 2.0503178 2.5566819
-1.9303282 2.124377 2.55954
-1.9274613 2.1747191 2.5646479
-1.9229882 2.2153196 2.5737746
-1.937539 2.2966118 2.594933
-1.9205697 2.3239284 2.586807
-1.880003 2.3395028 2.5742741
-1.8475845 2.3427269 2.5579679
-1.7835051 2.3466012 2.5757935
-1.7333452 2.3356357 2.5750659
-1.6743501 2.3331583 2.5787587
-1.6261599 2.3317637 2.5709405
-1.5711384 2.3325853 2.5730567
-1.5338811 2.3367727 2.5829608
-1.4830273 2.3335814 2.5918164
1.5486244 2.3434196 2.5724666
1.5648961 2.3423927 2.5623255
-1.8223329 2.3534675 2.5766971
1.5406164 2.3571141 2.5964489
1.5911455 2.3561635 2.5682025
1.6275353 2.3547378 2.5850577
1.6776295 2.3561335 2.5788498
1.7336235 2.3670144 2.5695736
1.7771409 2.3681087 2.5793149
1.8240553 2.3636947 2.5645149
1.8732277 2.3641934 2.5764129
1.9313492 2.3726172 2.574285
1.9787735 2.3685482 2.5727305
2.0345783 2.3837662 2.5900102
2.0759885 2.3812811 2.5877087
2.1225188 2.3835106 2.5747828
2.1668832 2.3835433 2.5744066
2.2212448 2.3839691 2.5676329
2.2723873 2.380718 2.5719051
2.3188314 2.3813779 2.5709505
2.391912 2.3894374 2.5799637
2.4202428 2.3894448 2.5833619
2.4567389 2.3788929 2.5614238
2.5239069 2.387934 2.5771968
2.5739748 2.3798995 2.574219
2.639493 2.395016 2.57898
2.7944853 2.3966031 2.5926898
-1.9519235 2.1673434 2.6227369
-1.9444685 2.2870808 2.6176794
-1.917565 2.3132613 2.6139169
-1.8850129 2.3434343 2.6197345
-1.8453299 2.3445385 2.6038969
-1.7714691 2.345948 2.6092219
-1.729718 2.3438237 2.6303346
-1.6713667 2.335825 2.6242609
-1.6176863 2.3282664 2.6160161
-1.5772179 2.3285856 2.6218741
-1.5258931 2.3349912 2.629102
-1.4724994 2.329483 2.6225653
-1.4301742 2.3279121 2.6346531
-1.3796396 2.3300993 2.6366625
-1.3355423 2.3122127 2.6316414
1.3919818 2.3367095 2.6405804
1.4046413 2.329653 2.6247311
1.5289648 2.3483176 2.6280549
1.6413074 2.3449266 2.6021564
1.654937 2.3469942 2.6374018
1.7058444 2.345386 2.6063681
-1.8637166 2.3500795 2.6436577
-1.8289974 2.3575089 2.6344657
1.4757296 2.3624666 2.6369574
1.5274519 2.3573589 2.6163538
1.5852517 2.3583562 2.626338
1.6172161 2.3573749 2.6207709
1.6686094 2.3591859 2.6083441
1.7267278 2.3601894 2.6305192
1.7704844 2.3650723 2.6194558
1.8284569 2.3701448 2.6238065
1.8759304 2.3721573 2.6295326
1.9265636 2.3714197 2.6252296
1.9797933 2.373826 2.6313248
2.0268168 2.3777146 2.6290917
2.0742202 2.3813968 2.6261854
2.1335175 2.383132 2.6229143
2.1691537 2.388432 2.6419201
2.2226605 2.3870056 2.6255836
2.2758658 2.3851931 2.6239464
2.3039804 2.3761375 2.6192045
2.4206223 2.3799894 2.638258
2.4744186 2.3764951 2.6168761
2.5296741 2.3831983 2.6132703
2.6091523 2.3929455 2.6226828
2.7955739 2.3945987 2.6401119
2.8174295 2.396287 2.6268494
2.7191153 2.4021258 2.6087999
-1.9655577 2.2199388 2.6634984
-1.9538651 2.3192415 2.6659865
-1.9360552 2.3386085 2.6805165
-1.8703724 2.3406007 2.6668079
-1.7250953 2.3366556 2.6626532
-1.6790391 2.3423417 2.6769235
-1.6284297 2.3413544 2.6827703
-1.5873618 2.3396256 2.6754558
-1.5334314 2.3338473 2.6814048
-1.4803557 2.3268521 2.6782069
-1.4243078 2.3253345 2.6742525
-1.3788524 2.3289876 2.6817331
-1.3252164 2.3298059 2.6789813
-1.2795774 2.3193307 2.6801944
-1.22806 2.3147798 2.6806259
1.2737172 2.3369253 2.6926751
1.3159437 2.3368039 2.6747105
1.3784919 2.3483772 2.6817565
1.4240501 2.3447104 2.6742575
