ply
format ascii 1.0
comment PCL generated
element vertex 1538
property float x
property float y
property float z
element camera 0
property float view_px
property float view_py
property float view_pz
property float x_axisx
property float x_axisy
property float x_axisz
property float y_axisx
property float y_axisy
property float y_axisz
property float z_axisx
property float z_axisy
property float z_axisz
property float focal
property float scalex
property float scaley
property float centerx
property float centery
property int viewportx
property int viewporty
property float k1
property float k2
end_header
3.563966 0.22676106 3.5615053
3.5388043 0.27965686 3.589061
3.5641046 0.28307366 3.5580688
3.5291522 0.33136758 3.5753126
3.5635583 0.31681782 3.5550036
3.4868667 0.36081344 3.5996711
3.5253818 0.36846533 3.5682533
3.4887147 0.42843053 3.595063
3.5206895 0.41703582 3.565762
3.4909697 0.47370967 3.5923746
3.5252335 0.47863293 3.5677884
3.5216696 0.53119051 3.5745947
3.4980416 0.57605803 3.5866444
3.5279675 0.57232881 3.5613155
3.5154381 0.62225062 3.5766454
3.558111 0.63515615 3.5544398
3.5294096 0.67004311 3.5836339
3.563005 0.67003334 3.5538089
3.4874933 0.72501856 3.5947294
3.5228536 0.72537369 3.5672274
3.4957037 0.78340638 3.5927801
3.5308781 0.78077334 3.5726719
3.5506771 0.7969712 3.5613325
3.4935839 0.81690907 3.5839648
3.5274663 0.83660042 3.5724349
3.5533478 0.82032061 3.5594633
3.5244772 0.87845814 3.5823655
3.5592172 0.8900395 3.5508657
3.5315471 0.92587692 3.579442
3.5343392 0.96953732 3.5796692
3.5205684 1.0206004 3.5893199
3.5533576 1.0202035 3.5580795
3.5264113 1.0681796 3.5835302
3.558733 1.0561445 3.5546446
3.5266395 1.114154 3.571456
3.5358045 1.1604933 3.5761461
3.5541906 1.1768658 3.5614562
3.540658 1.2146838 3.5808907
3.5582972 1.2128528 3.5553286
3.5607514 1.2639654 3.5652878
3.5377049 1.3378425 3.5850904
3.555094 1.3008662 3.5703912
3.525872 1.3865852 3.5707543
3.5610728 1.3611788 3.5573056
3.5320187 1.4387108 3.5753496
3.5385056 1.475714 3.5854442
3.5584826 1.4743391 3.5617185
3.5418372 1.5005378 3.5802753
3.5654387 1.5123799 3.5557261
3.530787 1.5645785 3.5910406
3.5723789 1.5696329 3.5579588
3.5654552 1.6220633 3.5856094
3.6027236 1.6229203 3.5563879
3.5738783 1.6733418 3.5749745
3.5450814 1.7121292 3.5979528
3.5736971 1.7264237 3.5772624
3.6015587 1.7403272 3.5555112
3.5758662 1.7810262 3.5813475
3.5813012 1.8376987 3.5880847
3.6031375 1.8366441 3.565074
3.5708385 1.8865373 3.578269
3.5819502 1.9285524 3.5726719
3.5776529 1.9689702 3.5737412
3.5810184 2.0242388 3.5857506
3.6014726 2.0428641 3.5681229
3.5890951 2.0740225 3.5889416
3.6294293 2.0762477 3.5610237
3.5778923 2.1306231 3.598475
3.6177113 2.1202824 3.5762525
3.5780699 2.1764994 3.5927284
3.6209173 2.1695926 3.5639455
3.5849147 2.2283187 3.5835495
3.6103239 2.2288685 3.5633497
3.5836763 2.2845905 3.5786281
3.6265612 2.2759876 3.5595372
-3.6363935 2.3396819 3.5638225
0.92080462 2.3498762 3.5894067
0.99495995 2.3370349 3.5530586
1.0193976 2.3477242 3.5648618
1.058043 2.3452237 3.5518768
1.1467824 2.3443093 3.5716305
1.1844251 2.3460085 3.5792675
1.2139803 2.3379736 3.587321
1.2594403 2.347615 3.5909846
1.3277706 2.3432686 3.5638192
1.3727221 2.3433027 3.5803564
1.4195164 2.3412097 3.5771785
1.547402 2.345063 3.5874376
1.5768821 2.3430405 3.5733519
1.6134496 2.3410947 3.5804327
1.8490468 2.3476462 3.5717611
1.8674242 2.3444283 3.557761
1.9674163 2.3218408 3.5726979
2.0330248 2.3489232 3.5943353
3.5365605 2.347723 3.5885489
3.5805669 2.3276138 3.578063
3.6157551 2.3016992 3.5582526
-3.6183591 2.3814797 3.5709724
-2.0007696 2.3914022 3.5850542
-1.9900216 2.3997993 3.5537364
-1.9469378 2.3989959 3.5723746
-1.8812454 2.3934174 3.5662231
-1.8380461 2.3910406 3.5722983
-1.7799716 2.3953516 3.5879846
-1.7012528 2.3942275 3.5687654
-1.6706376 2.3951025 3.5822554
-1.6237134 2.3975616 3.580482
-1.5016127 2.3952768 3.5965044
-1.4299798 2.3996141 3.5815241
-1.3695716 2.3938737 3.5684199
-1.2712932 2.3916006 3.5716574
-1.2215517 2.3932996 3.5884056
-1.1708322 2.3927903 3.5574808
-1.1190277 2.379457 3.5708876
-1.0790454 2.3897741 3.5757627
-1.0337327 2.3779335 3.5674887
-0.97339231 2.3888624 3.572937
-0.92146087 2.3916361 3.5713663
-0.869389 2.3854291 3.5719187
-0.81713629 2.3941739 3.5815074
-0.77682549 2.3856785 3.5684903
-0.71490216 2.3872097 3.5605211
-0.67491829 2.385185 3.5635262
-0.6263513 2.3811433 3.5778043
-0.57600915 2.3836684 3.5747519
-0.52537513 2.3837633 3.5675697
-0.41457617 2.3866417 3.5833333
-0.37982607 2.3744774 3.5678396
-0.32798219 2.3800256 3.5736067
-0.28224453 2.3829114 3.5743797
-0.22469643 2.3802443 3.5702131
-0.17578433 2.3788455 3.5702372
-0.12214245 2.3751087 3.5762677
-0.077210844 2.3788104 3.5788009
-0.024382746 2.3748424 3.5773983
0.024469487 2.3731463 3.5748193
0.073151544 2.3788528 3.5631714
0.1259376 2.3736999 3.570076
0.17113201 2.3761215 3.5762534
0.20743014 2.3780832 3.5842698
0.27882805 2.3681338 3.5786726
0.32820898 2.3711481 3.5800352
0.37292835 2.3768563 3.5693958
0.42599723 2.3703389 3.5708227
0.48064739 2.3642099 3.5761518
0.52480423 2.3646305 3.5719891
0.57668644 2.3662589 3.5884392
0.61410105 2.3684173 3.566731
0.73244458 2.3600771 3.5566287
0.77633637 2.3641379 3.5762589
0.82918483 2.363939 3.5873771
0.87796783 2.3617647 3.5747871
0.92549062 2.3564239 3.5568631
0.97326052 2.3564186 3.5890293
1.0405958 2.3506863 3.5648053
1.0878679 2.3668928 3.5799053
1.1161098 2.352968 3.5719314
1.2212406 2.352725 3.5658145
1.2679604 2.3546569 3.5781858
1.3024659 2.3522608 3.5864985
1.4151015 2.3542004 3.5551853
1.4801124 2.3567171 3.5840461
1.5328465 2.3590922 3.5701017
2.0427074 2.3568485 3.5519159
3.4782472 2.3909247 3.5925264
3.5274198 2.3745666 3.5882382
3.5697603 2.365757 3.5694442
-3.6116433 2.4227116 3.5661387
-3.5882521 2.4237161 3.5886905
-1.7695318 2.4021978 3.5552464
-1.7409005 2.4059086 3.5736022
-1.6524931 2.4046454 3.5579855
-1.5340744 2.4059613 3.572485
-1.4618247 2.4014196 3.5740633
-1.4168441 2.4049892 3.572001
-1.374403 2.4021771 3.5808296
-1.3381716 2.4025037 3.5699334
-1.2262003 2.4028349 3.5587556
3.4358869 2.4031305 3.5802042
-3.7734318 -0.42079479 3.6460161
3.3960471 -0.4335795 3.6240647
3.4065583 -0.4013778 3.6385674
-3.7750542 -0.39749604 3.6498456
3.4108949 -0.36828059 3.6461909
3.4175482 0.12406567 3.6248608
3.4509819 0.18038262 3.6162076
3.4744046 0.22596164 3.6173952
3.4859879 0.28302342 3.6259623
3.52544 0.29480577 3.6025891
3.4462209 0.338707 3.6432853
3.4837685 0.32785958 3.6203063
3.5270176 0.31751347 3.6025007
3.4300773 0.3677634 3.6376126
3.4766459 0.37215102 3.60903
3.4279866 0.41656011 3.6378169
3.4766538 0.4137623 3.6121414
3.4357028 0.47374165 3.6399806
3.4663501 0.47978157 3.618866
3.4300399 0.53083706 3.6483328
3.4670653 0.53137183 3.6239679
3.4326141 0.58760476 3.6435399
3.4666533 0.5764147 3.617491
-3.7444146 0.63460386 3.6328628
3.4348874 0.62186551 3.6410291
3.4760091 0.62320817 3.6206822
3.4448454 0.66890764 3.644587
3.4797673 0.66914475 3.6175177
3.4392557 0.73114842 3.6387911
3.4674389 0.72551709 3.6163499
3.4492764 0.77175003 3.63165
3.4650333 0.78703266 3.6169491
3.4292531 0.82901573 3.6421108
3.4659162 0.8297053 3.6168075
3.4442306 0.87820041 3.6487007
3.4784827 0.87827855 3.6204932
3.4708564 0.92374068 3.6330318
3.5014853 0.93834919 3.610405
3.4659014 0.97221947 3.6297741
3.5063186 0.97398341 3.6073847
3.4753923 1.0207107 3.6286936
3.4791071 1.0726689 3.6271789
3.4902093 1.1197186 3.6121418
3.4759057 1.1660056 3.636025
3.508769 1.1654973 3.6051431
3.4411519 1.2235619 3.6479566
3.4768386 1.2202083 3.6260095
3.5185888 1.2149985 3.6018105
3.486165 1.2777832 3.6378386
3.5119569 1.2605127 3.6111574
3.4839818 1.3263205 3.6354511
3.5143838 1.3261462 3.6087327
3.4861641 1.3752129 3.6298242
3.519748 1.3514564 3.6066465
3.458375 1.4363599 3.6467571
3.5008109 1.4230382 3.6073163
3.4832726 1.4753584 3.6311729
3.5154662 1.4524091 3.6142256
3.4740682 1.5132198 3.6382918
3.4881127 1.5664449 3.635479
3.5177612 1.6217937 3.6257956
3.4953735 1.6872104 3.6457872
3.5279248 1.6739517 3.6173229
3.4998972 1.713182 3.6407611
3.5200627 1.7312093 3.6251972
3.491971 1.792641 3.6471262
3.5322378 1.783004 3.6265669
3.5202453 1.8309714 3.6325264
3.5539424 1.8239208 3.6106863
3.5241776 1.8692595 3.6373374
3.5580928 1.8500746 3.6042237
3.5346985 1.9150747 3.6299236
3.5514841 1.9315629 3.6095226
3.5331309 1.9794998 3.6320961
3.5544238 1.9573255 3.6011717
3.5368621 2.0266411 3.631628
3.5572498 2.0452774 3.6142521
3.5274479 2.0856946 3.6338935
3.5636201 2.0733342 3.6086774
3.5364385 2.1276894 3.6246989
3.5688877 2.1008296 3.6017914
3.5285234 2.1761179 3.6337001
3.5529597 2.1547842 3.6062512
3.5344884 2.2259104 3.6336524
3.5645051 2.2308795 3.6086395
3.5390654 2.275172 3.6317465
3.5569456 2.2708633 3.6040964
-3.6144819 2.3370934 3.6177487
-3.5873702 2.3356647 3.6366324
1.2368522 2.3420122 3.6325152
1.4135437 2.3446331 3.6311288
1.4972645 2.3425243 3.647388
1.5186042 2.3434865 3.6419566
1.5621674 2.3466637 3.632643
3.5337763 2.316896 3.6291096
3.5671549 2.3021424 3.6010189
-3.5803554 2.3823311 3.6195526
-1.8972167 2.3953204 3.63939
-1.7393663 2.3972597 3.6079211
-1.6552815 2.3972101 3.6403382
-1.6253198 2.3945079 3.6224947
-1.5792391 2.3984978 3.6221638
-1.5316157 2.3892348 3.6227472
-1.4854085 2.3920598 3.6198392
-1.4180037 2.393482 3.620945
-1.3854218 2.3906186 3.6262627
-1.3350103 2.3925748 3.6447864
-1.270905 2.3895769 3.6129971
-1.2234725 2.3966296 3.6377468
-1.187979 2.3972592 3.626025
-1.1113873 2.3758657 3.6322148
-1.077492 2.3885736 3.6173995
-1.0195524 2.3938453 3.6248302
-0.98149776 2.3866124 3.6143694
-0.93183458 2.3883224 3.627466
-0.89920509 2.3920188 3.6185534
-0.82814729 2.3898461 3.628407
-0.77044618 2.3871553 3.6236496
-0.72754174 2.3914778 3.6200664
-0.67743802 2.383332 3.6259391
-0.61796665 2.3799827 3.6180038
-0.56937504 2.377454 3.6065872
-0.51838332 2.3923893 3.6220264
-0.47592106 2.3935137 3.6255753
-0.42236808 2.3859425 3.6353073
-0.39361027 2.392499 3.6478989
-0.31061852 2.367625 3.6158738
-0.26849842 2.386694 3.6315639
-0.22563313 2.3794825 3.6255043
-0.16889299 2.3793621 3.6250141
-0.12353472 2.3828568 3.6277437
-0.069057494 2.3739624 3.6253011
-0.024654742 2.3726091 3.6336982
0.014865463 2.3720608 3.6329017
0.074036062 2.3777459 3.6210012
0.11882567 2.380465 3.6342607
0.1731793 2.3750358 3.6343222
0.22727829 2.376657 3.6244438
0.27540508 2.3681786 3.6324108
0.32694128 2.3730135 3.6331732
0.37030381 2.3702216 3.6155629
0.42546883 2.3699555 3.6206074
0.4680959 2.3689649 3.6319504
0.51961482 2.366065 3.6152217
0.57954419 2.3582392 3.6164498
0.62074304 2.3642471 3.6205599
0.69993007 2.3633809 3.6079619
0.73046941 2.3699315 3.627444
0.78737515 2.3676643 3.6425281
0.82610941 2.3636391 3.6293705
0.87971205 2.3732398 3.6349053
0.92864221 2.3631957 3.6234322
0.9738574 2.3619912 3.6407478
1.0265362 2.3671927 3.6378639
1.0703042 2.3530872 3.62221
1.1325865 2.3572528 3.6404598
1.1776556 2.3661711 3.6439819
1.2490488 2.3662469 3.6251488
1.2847145 2.3551641 3.6416163
1.3262278 2.3561902 3.6314497
1.3542595 2.3515279 3.6151845
1.4497073 2.3533218 3.6347837
1.4802473 2.352684 3.6236949
1.5292377 2.3523524 3.6224163
1.9734561 2.3541987 3.6322923
2.0246406 2.3640385 3.6276264
3.4415269 2.3910131 3.6230655
3.4820311 2.3661659 3.6303139
3.5227211 2.3549259 3.62028
-3.5693989 2.4153073 3.6228504
-3.5427303 2.426636 3.6348574
-1.7125504 2.4038529 3.630301
-1.6825984 2.4062252 3.6460805
-1.6046933 2.405411 3.6250749
-1.5275229 2.4035771 3.6018441
-1.4645848 2.4022386 3.6208198
-1.4453136 2.4046094 3.6311471
-1.3296 2.403435 3.6190746
-1.1669347 2.4061227 3.6238556
-1.0541782 2.4045818 3.6487596
-0.87357831 2.4044135 3.6431067
-0.45158505 2.4027503 3.6177337
3.2071052 2.4088485 3.6236343
3.3638353 2.4040236 3.6412592
3.3911297 -0.47263506 3.6993594
3.4158056 -0.47289786 3.6837945
-3.7385008 -0.42088538 3.6778026
3.4106932 -0.42709127 3.6829069
-3.7632248 -0.36956266 3.6672032
-3.7323091 -0.38626778 3.6969957
3.4101014 -0.3706634 3.6874452
-3.7672517 -0.32741904 3.6702313
3.4094322 -0.32443362 3.6692357
3.4096923 -0.27952206 3.6726053
3.4128373 -0.2235474 3.679188
3.4116867 -0.16728829 3.6804371
-0.54063457 -0.10543197 3.6591096
3.4126225 -0.12235325 3.6829033
-0.56220925 -0.061909936 3.6841516
-0.54365623 -0.07062871 3.6800756
3.4144475 -0.077417307 3.6858656
-0.56176901 -0.026471328 3.6815221
-0.54422677 -0.026479177 3.6843019
3.4071321 -0.032360055 3.6785002
-0.5630579 0.017823311 3.6899631
-0.54559821 0.017828736 3.6935806
3.413641 0.023836039 3.6854627
-0.56231374 0.070912562 3.684633
-0.54479015 0.070935071 3.6876583
3.4212172 0.079989463 3.671834
-0.56070375 0.11487699 3.673336
-0.54321837 0.12374755 3.6760666
3.4193108 0.12137163 3.6827891
-0.54354763 0.1591838 3.6774004
3.4355054 0.16811435 3.6759994
3.4233506 0.2234026 3.6808305
3.4522519 0.23791805 3.6566963
3.4219809 0.2832292 3.6848297
3.4554391 0.28324449 3.6572375
3.4165668 0.32779527 3.67575
3.4589152 0.31738141 3.6584873
3.3853054 0.37184528 3.6803617
3.4174407 0.38295275 3.6508954
3.3901315 0.41737011 3.6814177
3.3868046 0.47345787 3.6760688
3.4127703 0.46239972 3.6589718
3.3910024 0.52681035 3.6772897
3.4090126 0.5423044 3.6666768
3.3895636 0.5766142 3.68347
3.4219036 0.57327229 3.6623814
-3.7377222 0.63742065 3.6703176
3.3925507 0.62230158 3.6803317
3.4119453 0.62177253 3.6588891
-3.7336349 0.67412847 3.6827674
3.4124727 0.6691736 3.6737101
3.3860667 0.73870003 3.6976824
3.4117711 0.72157556 3.6686158
3.3917956 0.78542054 3.6958103
3.4209332 0.78433388 3.6632619
3.3943982 0.83152223 3.6899981
3.4085102 0.82944596 3.6625566
3.3984611 0.87806785 3.685241
3.420814 0.87799704 3.6665316
3.3865774 0.9207148 3.6920226
3.4212341 0.9295184 3.670646
3.3931072 0.98560154 3.6998515
3.4220352 0.97266847 3.6691813
3.3995388 1.0333505 3.6959698
3.4333849 1.0168191 3.664223
3.4197955 1.0669599 3.666059
3.4507124 1.0809621 3.6529624
3.4235835 1.1177731 3.6798067
3.4613261 1.1188729 3.6550665
3.4279976 1.1760418 3.6644542
3.3971286 1.2011653 3.6942618
3.4230494 1.2368598 3.6686974
3.4501264 1.249882 3.6506007
3.4135401 1.2659664 3.6794541
3.4578779 1.2758712 3.6517725
3.423893 1.3189254 3.6793737
3.4686456 1.314734 3.6522703
3.4254966 1.3799529 3.6733692
3.4235802 1.4247166 3.6796207
3.4456096 1.4758534 3.66503
3.4325092 1.5155032 3.682653
3.4560573 1.5273018 3.6592333
3.4442277 1.556011 3.6823123
3.4636154 1.5734439 3.6674078
3.4435616 1.6375588 3.699266
3.4747334 1.6237113 3.66998
3.446624 1.6746399 3.6885114
3.4777672 1.6705006 3.663482
3.4370563 1.741141 3.6990194
3.4675879 1.7266892 3.6690617
3.4452384 1.7691889 3.6978629
3.4707916 1.7820777 3.6749413
3.474206 1.8259664 3.6856642
3.4401808 1.8750286 3.6961789
3.4740937 1.8704309 3.6709504
3.4477048 1.903219 3.6934509
3.489594 1.9372436 3.6814506
3.5068402 1.9213831 3.6596169
3.4807847 1.9736542 3.687479
3.51141 1.9790964 3.6645713
3.4867477 2.034411 3.6839709
3.5082691 2.0328279 3.6608207
3.4806128 2.0745363 3.68257
3.4890921 2.1146963 3.6829948
3.504355 2.1303957 3.6601682
3.486412 2.1803362 3.6817453
3.5134268 2.160465 3.65712
3.4777601 2.2303739 3.6798465
3.510329 2.2478075 3.6613464
3.48031 2.2770264 3.6860185
3.5137205 2.2747104 3.6516531
-3.5635364 2.3488522 3.6518352
1.2288666 2.3452704 3.6854377
1.3732419 2.3429737 3.6870997
1.4239397 2.3411922 3.668582
1.4784212 2.3454959 3.6588287
3.4465258 2.3287044 3.6929064
3.481302 2.313426 3.6769228
3.5023744 2.3330238 3.6591089
-3.5343297 2.3681672 3.6744518
-1.808089 2.3904896 3.6680233
-1.6660098 2.3915761 3.6752899
-1.6261942 2.3951912 3.696233
-1.5287964 2.3966115 3.684114
-1.4638965 2.3868845 3.6648707
-1.4274434 2.3886383 3.6560819
-1.3771198 2.3808682 3.681567
-1.3286424 2.3920758 3.6764138
-1.2537086 2.3947871 3.6715508
-1.2188084 2.3871298 3.6680934
-1.1667908 2.39607 3.674068
-1.1499366 2.3935447 3.696389
-1.0596114 2.3964868 3.6781754
-1.0281351 2.394701 3.682287
-0.9735747 2.3913321 3.6775842
-0.91577011 2.384167 3.6740215
-0.88625497 2.3911862 3.6623118
-0.82549953 2.3912067 3.673403
-0.77458131 2.390399 3.6807742
-0.72264969 2.3911533 3.6796174
-0.67394984 2.3925838 3.6995912
-0.63933009 2.386961 3.6745095
-0.5740419 2.3855317 3.6763771
-0.52709329 2.3802631 3.6777158
-0.48059171 2.3807223 3.6791706
-0.42633367 2.3884234 3.6797838
-0.36829177 2.3839605 3.6708212
-0.3302013 2.3824651 3.678159
-0.27455392 2.3768239 3.6728694
-0.2239233 2.3699348 3.6648402
-0.17454739 2.3752716 3.6751544
-0.12159991 2.3866322 3.6807947
-0.074618228 2.3702524 3.6699803
-0.024877323 2.3772852 3.6814079
0.035032369 2.3896499 3.6800447
0.074829236 2.3738096 3.6755128
0.12491065 2.3781135 3.6811244
0.17445573 2.3723176 3.6706178
0.2247216 2.3774996 3.6765444
0.2633568 2.3653758 3.6557958
0.32110825 2.3689268 3.6823788
0.37072578 2.3676646 3.6658776
0.42500186 2.3733075 3.6701581
0.47557342 2.3631892 3.6770458
0.53219402 2.3761435 3.6637866
0.64903003 2.375205 3.6755927
0.67891657 2.3640656 3.6747897
0.72947401 2.3682745 3.6669514
0.77240193 2.368232 3.6776905
0.8258031 2.3715792 3.6847339
0.87537187 2.3686466 3.6710441
0.92653364 2.3651516 3.6844089
0.97886056 2.3538721 3.6697845
1.0328419 2.3613782 3.6705813
1.0803525 2.3558669 3.6949439
1.1164764 2.3597004 3.6780503
1.1734711 2.3578475 3.6758163
1.2133223 2.3556418 3.6618657
1.2846746 2.3533471 3.6841941
1.3248003 2.3513162 3.6693287
1.3768072 2.3521261 3.655417
1.4686699 2.3631818 3.6931624
3.3784494 2.3898213 3.6711037
3.431293 2.3762431 3.6723247
3.4691989 2.352123 3.6569009
-3.5338991 2.4040895 3.6631644
-3.4955816 2.4034743 3.693151
-1.8823174 2.4035802 3.6612048
-1.8369793 2.4003735 3.6743796
-1.7257128 2.4010825 3.6697495
-1.6171886 2.4030552 3.6646888
-1.5842726 2.401053 3.6728697
-1.5324932 2.4023764 3.6930323
-1.4136769 2.4005115 3.6807721
-1.3038369 2.4111717 3.6851206
-1.2787185 2.4030099 3.6784577
-1.19511 2.4014299 3.6981595
-1.1248815 2.4046745 3.6762009
-1.0835588 2.4041929 3.6852801
-0.87156898 2.4065685 3.6896889
3.2369728 2.4069595 3.6714108
3.3285708 -0.47179693 3.7358608
3.3673468 -0.46120435 3.7167826
-3.7062838 -0.42128268 3.7117803
-3.6899724 -0.4221409 3.7393672
3.3444924 -0.4160834 3.7382083
3.3837066 -0.42319623 3.7131782
-3.7181728 -0.3690109 3.717427
-3.6919613 -0.37526965 3.7456324
3.3455505 -0.37109613 3.7433634
3.3798418 -0.37110499 3.7178464
-3.7212236 -0.32008478 3.7207139
-3.6897106 -0.31620705 3.7480068
3.3462853 -0.32603234 3.7476923
3.3785801 -0.32584268 3.7200112
-3.717288 -0.26938847 3.7349243
-3.6868074 -0.28067696 3.7474627
3.3773491 -0.28062922 3.7217355
-3.7163129 -0.22220287 3.7365708
3.3424211 -0.22421432 3.7495584
3.3738196 -0.22401255 3.7209883
-3.7134662 -0.1749652 3.7358141
3.3391092 -0.15642658 3.7486598
3.3731737 -0.16766305 3.7227473
-3.7087355 -0.12771823 3.7326405
3.3757203 -0.12270078 3.7269988
-3.7107956 -0.080737591 3.7357852
3.3384356 -0.088841505 3.7496858
3.3770816 -0.077652276 3.7294602
-3.7091739 -0.033686951 3.7347071
3.3764253 -0.032546915 3.7292523
-3.7193599 0.029833769 3.7272172
3.3754759 0.023810074 3.7281513
-3.7096801 0.083888404 3.7343478
3.3746896 0.080144964 3.7265558
3.4084549 0.08019048 3.7002089
-3.7037568 0.13071632 3.7271371
-3.681618 0.1424772 3.7483056
3.3393571 0.11386012 3.7498813
3.3759246 0.12527651 3.7268
3.4121063 0.13667642 3.7026958
-3.7029271 0.17764077 3.7245374
-3.6822522 0.17774171 3.7475736
3.3762197 0.17036115 3.725554
3.41366 0.18188043 3.7026575
-3.7054205 0.21299769 3.7253981
-3.6878109 0.22850721 3.7360744
3.3414977 0.22663672 3.7477596
3.3784673 0.22691043 3.7253697
-3.6364648 0.28170002 3.7388172
3.340265 0.28288528 3.7430761
3.377157 0.28318918 3.7205818
3.3425391 0.3281807 3.7424386
3.376045 0.32818496 3.7161291
3.3588982 0.37385738 3.735837
3.3498907 0.40799573 3.7439709
3.3600333 0.42247358 3.7255361
-3.6608369 0.49516284 3.7444897
3.3666677 0.47659937 3.734431
-3.6935983 0.53181094 3.7293961
3.3684027 0.53345841 3.7297764
-3.6868575 0.57970953 3.7384312
3.3674893 0.57859099 3.722939
-3.7233567 0.62912512 3.7241664
3.372164 0.62475777 3.7217693
-3.720819 0.6642037 3.7162037
-3.6862125 0.68798137 3.7441089
3.3788333 0.67143321 3.7222927
3.3486834 0.71765852 3.7456465
3.3748677 0.71303719 3.7183244
3.3651023 0.77062535 3.7292244
3.3713677 0.8279497 3.7346051
3.3739898 0.87771004 3.7307365
3.401684 0.89627653 3.7293992
3.3609123 0.92576396 3.720284
3.374815 0.96945292 3.7119999
3.3819551 1.0173424 3.7091911
3.378185 1.0682318 3.7073433
3.377311 1.1201996 3.7080288
3.3762996 1.1684904 3.7089698
3.3835273 1.2276509 3.7163806
3.3820357 1.2661417 3.726434
3.392555 1.3142928 3.7325165
3.4129581 1.3317243 3.7206707
3.3829923 1.3756946 3.7170825
3.401108 1.3550003 3.7224407
3.3895228 1.4182699 3.7348642
3.4031842 1.430793 3.7238162
3.3887453 1.4698315 3.7403347
3.4015851 1.4652742 3.7100654
3.4093058 1.5264734 3.7301619
3.421262 1.5791845 3.7259696
3.3954754 1.6253138 3.7411566
3.426543 1.6211509 3.7168167
3.4139049 1.6759992 3.7204566
3.3938422 1.731421 3.7470193
3.4192092 1.7242451 3.7162454
3.3981926 1.7694905 3.7371323
3.4206038 1.7888641 3.7247646
3.4259443 1.8257489 3.7245016
3.4223704 1.8663739 3.7276475
3.4225955 1.9213921 3.7291811
3.4648654 1.9369023 3.7008016
3.436074 1.9774818 3.7215803
3.4413295 2.0362628 3.7272668
3.460207 2.0330906 3.701602
3.4312236 2.0683854 3.7332687
3.4381161 2.1224477 3.7341239
3.4615993 2.1218648 3.7131741
3.4306836 2.1745458 3.7244253
3.4675078 2.1623311 3.7009153
3.4333858 2.2334659 3.725132
3.4302487 2.2765336 3.7254291
-3.5534835 2.3336065 3.7018232
-3.5174065 2.3345523 3.7343347
1.0969495 2.3490038 3.7243965
1.1154685 2.3446386 3.7126827
1.2249514 2.3368418 3.7177463
1.2936391 2.3489726 3.7203708
1.3177304 2.3444331 3.7291698
1.3888115 2.3485887 3.7395401
1.4177326 2.3444133 3.723474
3.3994408 2.3054767 3.7486625
3.4241276 2.3178816 3.7221088
-3.5093968 2.365443 3.7153575
-3.4772048 2.3703918 3.7415013
-1.8260083 2.3926194 3.7159078
-1.6653831 2.3846426 3.7125087
-1.62881 2.3990872 3.7023211
-1.5607946 2.3923962 3.7141874
-1.5008289 2.3980043 3.743994
-1.3274236 2.3933764 3.7408204
-1.2822326 2.3947866 3.7248318
-1.2242869 2.3973131 3.7291889
-1.1769373 2.3858299 3.7219467
-1.124855 2.3956604 3.7285328
-1.0766439 2.3911192 3.7097521
-1.0263071 2.3937836 3.7253246
-0.97567594 2.3961587 3.739892
-0.93366295 2.3681347 3.7022977
-0.89456141 2.3931382 3.7070215
-0.82245052 2.3915572 3.7174549
-0.77259272 2.3953371 3.7318203
-0.7185235 2.3857727 3.7248383
-0.67746502 2.3847587 3.7291558
-0.62211323 2.3914373 3.7302318
-0.57487535 2.3816409 3.7374296
-0.53368366 2.3796506 3.7389455
-0.47036362 2.3777084 3.7213874
-0.4295513 2.3862348 3.7176127
-0.38750148 2.3762064 3.70539
-0.3190783 2.3915703 3.7345254
-0.27830681 2.3894894 3.7337277
-0.22776335 2.389956 3.7370977
-0.1768043 2.3849394 3.731329
-0.12613145 2.3827553 3.7294984
-0.075566106 2.3798215 3.7259321
-0.025146924 2.3815975 3.7292533
0.025214812 2.3844514 3.7171681
0.0757332 2.3824201 3.7300253
0.12618348 2.3732572 3.7312036
0.17674713 2.3833632 3.728899
0.22664499 2.3773713 3.7174261
0.2787779 2.3925772 3.7385983
0.33963379 2.37256 3.7450442
0.38241684 2.3723111 3.7275493
0.41908878 2.3734636 3.7193737
0.48823386 2.3559554 3.7060134
0.51988351 2.3624642 3.7130857
0.59666711 2.3870878 3.7435932
0.62417066 2.375351 3.7213454
0.65509379 2.3668749 3.7249942
0.71869677 2.3706374 3.7327204
0.77960396 2.3649178 3.7247229
0.83223379 2.3695853 3.7235341
0.87277019 2.3687143 3.7148998
0.91393667 2.359334 3.713666
0.98231912 2.3663309 3.7336936
1.0230256 2.3653903 3.7235827
1.0503135 2.3573992 3.7043009
1.1426936 2.3584006 3.7295501
1.1781523 2.367306 3.736006
1.2009593 2.3510263 3.7025335
1.2671289 2.3581288 3.7279975
1.3381504 2.3541794 3.7169247
1.4679383 2.3578458 3.7317891
1.5005469 2.3595226 3.7243807
3.3299406 2.386692 3.7410746
3.3781567 2.3698645 3.738215
3.4122002 2.366478 3.7153556
-3.4666665 2.4093931 3.732821
-1.7324824 2.4039502 3.7225456
-1.5241135 2.4012759 3.742183
-1.4729645 2.408349 3.722976
-1.3647195 2.4036384 3.7478111
-1.3105416 2.4026721 3.7149348
-0.86793756 2.4043472 3.7300725
3.1824222 2.4023776 3.7014389
3.2431774 -0.49345231 3.7840743
3.2844181 -0.47280702 3.7811532
3.3037302 -0.45056978 3.7737601
-3.6623507 -0.42308271 3.7772844
3.3178329 -0.42351046 3.7669022
-3.6647644 -0.37590975 3.7795625
-3.6498766 -0.37585643 3.7907257
3.3142347 -0.37141997 3.7716327
-3.6724398 -0.31679016 3.7744584
3.3143113 -0.32625994 3.7751875
-3.6765397 -0.26540101 3.767288
3.3228798 -0.28349644 3.775018
3.3508801 -0.26998332 3.7565844
-3.6857944 -0.22255155 3.7717731
3.3213189 -0.22155818 3.7802894
3.3516009 -0.24743581 3.758682
-3.6810048 -0.17514957 3.7689505
3.2972536 -0.1566297 3.7858143
3.324086 -0.17374241 3.7733817
-3.678123 -0.12793237 3.7675724
3.2969003 -0.12279638 3.7864008
3.3335464 -0.12287126 3.7645335
-3.6750944 -0.080790184 3.7655253
3.2982354 -0.07774961 3.7888808
3.3241541 -0.073862918 3.7619889
-3.6721134 -0.033719007 3.7630157
3.2983971 -0.03264698 3.7895617
3.3304434 -0.032590669 3.7624774
-3.6730511 0.025039688 3.7639217
3.297178 0.023723016 3.7881203
3.3294563 0.023755668 3.7613313
-3.6740186 0.083833233 3.7641163
3.2952323 0.080038607 3.7851882
3.3285844 0.080069572 3.7596283
-3.6679676 0.12686326 3.7641408
3.279685 0.12492692 3.7873368
3.3260784 0.12892736 3.7626479
-3.6578698 0.1776592 3.7665839
3.2801626 0.16996114 3.7863624
3.3316226 0.17034282 3.7604048
-3.6554446 0.22449414 3.7618403
3.2798395 0.2262152 3.7834084
3.3184474 0.22657502 3.764096
-3.6544797 0.25962925 3.7588456
3.2813919 0.28260285 3.7819908
3.3146486 0.28259867 3.756516
3.282897 0.3277815 3.7805929
3.3197689 0.32813793 3.7591593
3.2704227 0.3726975 3.7838731
3.3152351 0.37397492 3.7715669
3.2810268 0.41908181 3.7921128
3.3183923 0.41955975 3.7710681
3.2841976 0.47603604 3.7900574
3.3254611 0.4729034 3.778085
-3.673852 0.53231847 3.7535114
3.278285 0.52905583 3.7914193
3.3308616 0.52748048 3.7694867
-3.6866028 0.59334916 3.7587459
3.2892058 0.57867777 3.7837539
3.3334153 0.58048797 3.7700751
-3.6804299 0.6298126 3.7695174
3.2980909 0.6142953 3.7894108
3.3302681 0.62889177 3.7727685
-3.680176 0.66533947 3.7638998
3.3282073 0.66690636 3.7734761
3.3525023 0.68432069 3.7554305
3.3297026 0.7184509 3.7671394
3.3303866 0.76418054 3.7602029
3.3399286 0.8120259 3.7627525
3.2758951 1.2724459 3.7787623
3.3215899 1.2767217 3.7651725
3.3559289 1.281009 3.7599022
3.3290191 1.3190603 3.7851901
3.369391 1.3212129 3.7644286
3.3678365 1.372067 3.7702537
3.3402104 1.4220901 3.7907376
3.3700111 1.4175863 3.7662365
3.3395224 1.4761418 3.7878714
3.369844 1.4718086 3.7638588
3.3348618 1.5168295 3.783983
3.3717649 1.527216 3.7631094
3.3398647 1.5739408 3.7864137
3.3772588 1.5748818 3.7610645
3.3354886 1.6248761 3.7864909
3.3681796 1.6313182 3.7693043
3.3360186 1.6785146 3.7915909
3.3707941 1.6781125 3.7629483
3.3478658 1.7202969 3.7910478
3.3647413 1.7367507 3.7734115
3.3303702 1.7834067 3.7924786
3.3687019 1.784762 3.7674508
3.3479285 1.8288918 3.7974668
3.3833876 1.82862 3.7687387
3.372972 1.8658321 3.7745786
3.3450577 1.9373677 3.7982023
3.3792405 1.9241269 3.7730107
3.3491056 1.963958 3.7918682
3.3706169 1.9832973 3.7778871
3.4059885 1.9810739 3.7576387
3.3345122 2.0304129 3.7934711
3.3718703 2.0310206 3.7661548
3.4150696 2.0229008 3.7505689
3.345434 2.0736492 3.7885375
3.3685968 2.0729406 3.7682183
3.4022241 2.0786374 3.7592604
3.3311338 2.1288469 3.7950675
3.3725607 2.1196699 3.7779174
3.412457 2.1217012 3.7524815
3.3741927 2.1776206 3.77858
3.4061239 2.1946828 3.7611351
3.3356647 2.2462173 3.7973418
3.3767428 2.2242804 3.7860074
3.4137526 2.2243171 3.7568233
3.3822553 2.2650599 3.7728138
-3.4690433 2.3356833 3.7768798
1.1354184 2.3446856 3.7995083
1.2840917 2.3487151 3.7692795
1.3165902 2.3427277 3.781498
1.4013141 2.3485651 3.7836895
3.3649817 2.3196735 3.774153
-3.4536972 2.3714175 3.7633252
-3.4324615 2.3740373 3.7874947
-1.7226416 2.398643 3.7672739
-1.6276995 2.3860977 3.7785149
-1.5998372 2.3980265 3.7599564
-1.3683169 2.3888283 3.768434
-1.3159642 2.3897038 3.7847223
-1.2707764 2.3915939 3.7689874
-1.1620445 2.3770335 3.7563665
-1.1241101 2.3850269 3.7789345
-1.0661267 2.3939593 3.7768078
-1.0295831 2.389782 3.7777684
-0.9816938 2.3902078 3.7733908
-0.90703225 2.3953409 3.7742138
-0.83221781 2.3888612 3.7768984
-0.77763885 2.3903949 3.7664177
-0.7278055 2.395896 3.7830558
-0.67481756 2.3909137 3.7825224
-0.62240165 2.3876829 3.7842181
-0.58064342 2.3851247 3.7851753
-0.50487357 2.3875513 3.7546244
-0.46575218 2.3961959 3.7722676
-0.42417216 2.3843553 3.7741978
-0.37268841 2.3902614 3.7707329
-0.32185575 2.3919942 3.7770426
-0.27058059 2.3800912 3.7824111
-0.22964962 2.3897481 3.7786326
-0.17857929 2.389076 3.7796538
-0.12381064 2.3763444 3.7752364
-0.07630799 2.3834288 3.77334
-0.025342375 2.3770096 3.7637179
0.025444344 2.3768144 3.7633936
0.076296344 2.3793497 3.7669063
0.12745705 2.3855371 3.7756696
0.17894663 2.3924828 3.7850776
0.2285974 2.377291 3.7589395
0.28064525 2.3882194 3.7736132
0.31764373 2.3713448 3.7727406
0.47712192 2.3805985 3.7889647
0.57792765 2.3736744 3.7670469
0.62014097 2.371834 3.7733281
0.67995608 2.3726273 3.7522807
0.72418934 2.3629224 3.7734509
0.77663887 2.3664203 3.7711945
0.82976687 2.366147 3.7730401
0.87861925 2.3675683 3.7778957
0.92318982 2.3679776 3.7778275
0.97391737 2.3679802 3.7716062
1.0281442 2.3575354 3.7691557
1.0777196 2.3642855 3.7773709
1.1213133 2.3579087 3.7794149
1.1730186 2.3571241 3.7657402
1.2210126 2.3693068 3.7747831
1.2653118 2.3527687 3.7813671
1.3628263 2.3580308 3.7637558
1.6719385 2.3857319 3.7792225
3.2491267 2.3850312 3.7595971
3.3212965 2.3746269 3.7820637
3.3522215 2.3566177 3.7632058
-3.4224482 2.4134998 3.7793832
-1.2269748 2.4021513 3.7828979
-1.1807871 2.404263 3.7750459
-1.101746 2.4027486 3.7683666
-0.9281413 2.4067345 3.7666769
-0.87496412 2.4031057 3.7706265
3.1829703 -0.47211722 3.8425896
3.2236314 -0.4617874 3.8283305
3.2622736 -0.46243304 3.8098817
-3.6229129 -0.41223794 3.8256667
3.2323828 -0.42105225 3.8355515
3.2749188 -0.41737625 3.8075774
-3.6180007 -0.36447659 3.8245492
3.2421544 -0.3723045 3.8370695
3.2777171 -0.37245035 3.8147385
-3.6571476 -0.3293463 3.8020086
-3.6165943 -0.32893056 3.8257656
-3.5769827 -0.32859218 3.8498366
3.2420712 -0.3270317 3.840353
3.2746046 -0.32685155 3.8145206
3.2459395 -0.28210846 3.8478708
3.275265 -0.28168094 3.8182709
3.2390883 -0.22500288 3.8427601
3.270915 -0.22481258 3.8162286
3.2336564 -0.16818811 3.8386729
3.2637601 -0.16796002 3.8102722
3.2315292 -0.12295349 3.8375161
3.263505 -0.12285016 3.8113523
3.2323062 -0.077863969 3.839366
3.2666004 -0.077833101 3.8158872
3.2343459 -0.03274978 3.8422737
3.2682116 -0.032719634 3.8182671
3.2359188 0.02368851 3.844105
3.2686679 0.023731427 3.8187773
3.232677 0.080090985 3.8395739
3.2657113 0.080105752 3.8146253
3.2424684 0.11352152 3.8079052
-3.6536832 0.63127935 3.8086491
-3.6154304 0.6426574 3.8335161
-3.6509912 0.66644901 3.8005307
-3.6120617 0.66579062 3.8264189
3.2705245 1.2838961 3.8386681
3.2821686 1.3165814 3.8284056
3.3013511 1.3336182 3.8164494
3.2757652 1.3670917 3.8364332
3.3248067 1.3735774 3.8103764
3.2811196 1.4218502 3.8342149
3.3168101 1.4220979 3.8086021
3.2874773 1.469521 3.835078
3.3137722 1.4729564 3.8119674
3.2896361 1.5251889 3.8353133
3.3082843 1.5229323 3.8119767
3.2915161 1.5810972 3.8345397
3.3148098 1.5732374 3.8027852
3.2821355 1.6277056 3.8379719
3.3148558 1.6243235 3.8170111
3.2851069 1.6847626 3.8372498
3.3140492 1.6793995 3.8117671
3.2849133 1.7285563 3.8368218
3.3167498 1.7365595 3.8098028
3.2852082 1.772807 3.8365853
3.3061442 1.771232 3.8152025
3.2914951 1.8001988 3.8341856
3.3145094 1.8200833 3.8236587
3.2869539 1.8833046 3.8446646
3.3188648 1.8688847 3.8176749
3.2921233 1.9225458 3.8349829
3.3234236 1.9180337 3.8113747
3.2873366 1.96315 3.8364568
3.3186824 1.9812021 3.8114033
3.2921379 2.0219927 3.8432715
3.3133302 2.0322895 3.8156242
3.3121979 2.0700734 3.8319952
3.313751 2.1118383 3.8142307
3.3399787 2.1669807 3.8164001
3.3357747 2.2188432 3.8300955
3.3198125 2.2743003 3.8335292
3.3573699 2.2856829 3.8090565
-3.4178562 2.3293874 3.8279552
1.1586783 2.3494203 3.8022459
3.2784293 2.3320894 3.8340957
3.3191435 2.3222075 3.8166423
-3.4114552 2.3768501 3.8118215
-3.3920741 2.3808486 3.8378844
-1.4106091 2.3929932 3.8356776
-1.2953647 2.3890128 3.8366554
-1.1831642 2.3989992 3.8351221
-1.113272 2.3856509 3.8286219
-1.0833642 2.3888006 3.825299
-1.0497211 2.3851044 3.8416467
-0.97245371 2.3977854 3.8330545
-0.92891759 2.3939471 3.8349876
-0.88340884 2.3948612 3.8223457
-0.81547934 2.3862777 3.8272007
-0.77426082 2.3911746 3.8122015
-0.72337902 2.3863053 3.8295796
-0.66806239 2.3830547 3.8143101
-0.62753183 2.3864839 3.8251901
-0.56983328 2.3889732 3.8252282
-0.52267236 2.3916359 3.8238592
-0.47490954 2.3889418 3.8285511
-0.4279789 2.393476 3.8141499
-0.37694177 2.3865187 3.8286073
-0.32476693 2.3845208 3.824723
-0.21602777 2.3829036 3.8214908
-0.17318614 2.3813818 3.8242986
-0.13843408 2.3805797 3.8098221
-0.077063866 2.3848312 3.8179214
-0.025672531 2.3868251 3.8216596
0.021643547 2.3769071 3.8229015
0.077270955 2.3786781 3.8294854
0.12346017 2.3813772 3.8221838
0.17693156 2.3842371 3.8287766
0.22166477 2.3918719 3.8249514
0.27231157 2.3789058 3.8123763
0.428141 2.3730841 3.8243792
0.46979791 2.3854966 3.819159
0.52704602 2.3719602 3.8240209
0.57546741 2.3851202 3.8292885
0.63810176 2.3764267 3.829423
0.67954308 2.3761716 3.8235893
0.72430986 2.3765783 3.840059
0.77476835 2.3716567 3.8242981
0.82492018 2.362314 3.8305013
0.88109225 2.367424 3.8220046
0.92359883 2.3590937 3.822691
0.97812736 2.3647981 3.8219075
1.0101213 2.3557162 3.8229146
1.0635238 2.3580532 3.8156457
1.1104698 2.3584282 3.8290088
1.225991 2.3579063 3.8004885
1.2708576 2.3570132 3.8228381
1.3763618 2.3602009 3.8116574
3.0796204 2.3922462 3.8262315
3.2299066 2.3824277 3.845412
3.2683816 2.3709948 3.8259785
3.3069649 2.3596165 3.8063183
-3.3763983 2.4289792 3.8163292
-3.3439214 2.4453731 3.8443627
-1.4718444 2.4162421 3.8340964
-1.4343771 2.4076366 3.8302042
-1.2502867 2.405659 3.829839
-1.2165942 2.4021382 3.8322935
-1.164112 2.403477 3.8473692
-1.0168312 2.4033031 3.8333793
-0.95755398 2.4077895 3.8074074
-0.93791878 2.4111171 3.81672
3.2246323 2.4033284 3.8254609
-3.291904 2.4505823 3.8182149
3.1861093 -0.45164025 3.869988
-3.5824115 -0.41307646 3.8710952
-3.546741 -0.42495185 3.8978238
-3.3136113 -0.41375187 3.8965449
3.1809583 -0.4185043 3.8883195
3.2078884 -0.41427872 3.8640277
-3.5826993 -0.36575282 3.8754306
-3.3063169 -0.37835085 3.8908436
3.1871455 -0.3692224 3.8855813
3.2126029 -0.37618577 3.8585737
-3.5683215 -0.33000171 3.8847411
-3.3015947 -0.33187747 3.8887351
3.1879766 -0.32734448 3.8824434
3.2195444 -0.32706052 3.856286
-3.3024638 -0.2745311 3.8934021
3.1893458 -0.28217763 3.8869939
3.2156935 -0.28591707 3.8686063
-3.2980757 -0.2168103 3.8912029
3.190922 -0.23090631 3.8808875
3.2178433 -0.22511643 3.8601458
-3.3026242 -0.18265188 3.8980157
3.1881955 -0.16821572 3.8694668
3.2114222 -0.16823059 3.8547833
3.1898484 -0.12313518 3.8728223
3.2108436 -0.12305017 3.8554475
3.2136719 -0.07797946 3.8597643
3.2094646 -0.032768875 3.8551927
-3.301193 0.0011424442 3.8996646
-3.2969689 0.035548471 3.8944826
3.2110035 0.023678234 3.8570058
-3.3014755 0.09301202 3.8989599
-3.2991908 0.069995925 3.8966901
3.2132711 0.080154277 3.8590541
-3.3113143 0.34669703 3.8983393
-3.3120127 0.3813352 3.8964033
-3.313704 0.41611195 3.8954012
-3.3165464 0.47415686 3.8931289
-3.324779 0.52160394 3.8977735
-3.3300622 0.55718303 3.8999002
-3.581306 0.64500219 3.8862276
-3.581203 0.6688267 3.8826368
-3.322459 0.81586105 3.8966906
-3.3275774 0.86375225 3.8941391
-3.3009362 0.90944421 3.8979394
-3.3007326 1.1269557 3.8952374
3.221801 1.2783245 3.8866532
3.2508743 1.2853192 3.8598859
3.2227414 1.3231453 3.8829687
3.2558784 1.3223903 3.855648
3.2312489 1.3735843 3.8792818
3.2661362 1.3852191 3.8501101
3.2319531 1.4262726 3.8783271
3.2300947 1.4719046 3.887043
3.2607393 1.4755123 3.8622742
3.2326937 1.5240302 3.8896332
3.2642746 1.5319833 3.8643112
3.23032 1.5780253 3.884294
3.2640219 1.5751214 3.8653796
3.2284522 1.6305137 3.8878798
3.2610135 1.6289952 3.8584943
-3.3267441 1.6920668 3.8991268
3.2315373 1.685894 3.8969581
3.260365 1.6703942 3.8673043
3.2295163 1.7408878 3.8900976
3.2590473 1.7236966 3.8703852
3.2298541 1.7751945 3.8856649
3.2652802 1.7749542 3.8589942
3.2278936 1.8047711 3.8968322
3.2649622 1.8174251 3.8670051
3.2427073 1.8734883 3.8899264
3.2703497 1.866897 3.8627474
3.2423031 1.9304115 3.8826163
3.270257 1.9238582 3.8556499
3.2372987 1.9816351 3.888196
3.2668364 1.9839894 3.8592892
3.2650168 2.0277786 3.8814516
3.275444 2.0710266 3.8768189
3.2491145 2.1145031 3.8989506
3.2717993 2.1256371 3.8728306
3.3024118 2.14186 3.8557324
3.2727094 2.1835537 3.8735218
3.3113687 2.172358 3.8540726
3.2482421 2.2290916 3.8973033
3.2810752 2.2262363 3.8649192
3.3202794 2.2029595 3.8521104
3.242286 2.2719867 3.8851154
3.274323 2.2672148 3.8617685
3.3000278 2.2554989 3.8507974
-3.3761349 2.328124 3.8707438
1.2008554 2.3489387 3.8858266
1.3100753 2.3426895 3.8713307
3.2356601 2.3245022 3.8854542
3.2660496 2.3184667 3.8600454
-3.3707545 2.3835273 3.8616743
-3.3396637 2.3894889 3.8878224
-1.4965549 2.3953774 3.888407
-1.2562832 2.3958006 3.8587105
-1.2246284 2.3966138 3.8680868
-1.1815639 2.396034 3.8775439
-1.1269685 2.3936088 3.8859761
-1.0694571 2.3844461 3.8828039
-1.0272813 2.3912847 3.8723297
-0.96941084 2.3881299 3.8784449
-0.92300647 2.3848372 3.8662679
-0.86669439 2.3916304 3.8725948
-0.82665706 2.3807003 3.8760512
-0.7785787 2.3903224 3.8817139
-0.7282353 2.3898463 3.8614388
-0.6804871 2.3868148 3.8779924
-0.6239031 2.3915837 3.8782215
-0.56657535 2.3787849 3.8786118
-0.52706432 2.3804164 3.8707538
-0.47481325 2.3803656 3.8757861
-0.42163774 2.3848858 3.8659472
-0.39109084 2.3787727 3.8802831
-0.32843146 2.3835351 3.8815026
-0.27554503 2.3822503 3.8716295
-0.23371494 2.3902268 3.8648772
-0.16136444 2.3854551 3.8817189
-0.12985656 2.3805056 3.8745558
-0.082946822 2.3805687 3.8647695
-0.025909726 2.3795083 3.8745451
0.046743065 2.376256 3.8690515
0.078025453 2.3702626 3.8806288
0.1230701 2.377969 3.8778498
0.17668822 2.3795097 3.8715477
0.2234171 2.3795428 3.8697708
0.25414115 2.3858514 3.8568432
0.31693467 2.3693535 3.8699751
0.40138775 2.3772879 3.8770924
0.47272551 2.3690791 3.8574674
0.52714556 2.373316 3.8738279
0.57885998 2.378324 3.861733
0.61280501 2.3782532 3.8798971
0.69704747 2.3693337 3.8765304
0.7281419 2.3682213 3.8702903
0.77027857 2.3689208 3.8652306
0.80212969 2.3701589 3.8623657
0.87725276 2.3702488 3.8803804
0.92554837 2.369874 3.8864164
0.97517234 2.3620577 3.8636367
1.0410047 2.3573163 3.8654664
1.0737371 2.3637831 3.8775775
1.1221731 2.3619101 3.8793249
1.1765993 2.3590648 3.8736894
1.226189 2.3566067 3.8933175
1.2868857 2.3501372 3.8664443
1.3565286 2.3598483 3.8651781
3.0124443 2.3969274 3.8844731
3.1410582 2.3961201 3.8679178
3.1867337 2.3871682 3.8892775
3.219651 2.3704805 3.8739798
-3.3348408 2.4227004 3.8719566
-3.2885017 2.4415603 3.8763554
-1.522553 2.412976 3.887114
-1.4809214 2.4093766 3.868485
-1.1455898 2.4092362 3.8615839
3.0425861 2.4014573 3.8750949
3.1224117 2.4007289 3.8928685
-3.2332699 2.4629142 3.8934851
-3.5511949 -0.40177467 3.9048314
-3.5176194 -0.40947926 3.9262569
-3.48559 -0.42478749 3.9408021
-3.2651207 -0.4201709 3.9107659
-3.2256713 -0.4243964 3.9425764
3.1123571 -0.40567598 3.9119115
3.159189 -0.40731245 3.9056365
-3.5509048 -0.36617604 3.9074349
-3.517204 -0.36641458 3.9367917
-3.2693319 -0.37809068 3.9120948
-3.2433746 -0.37912774 3.946183
3.1258302 -0.373409 3.9315555
3.1590405 -0.3732715 3.9081936
-3.5517025 -0.33068815 3.910985
-3.5306287 -0.3309651 3.9321766
-3.3799672 -0.32572541 3.9376144
-3.2716947 -0.33237422 3.9183478
-3.2427008 -0.33297098 3.9487438
3.1283581 -0.33166289 3.9305277
3.1570544 -0.32769415 3.909023
-3.3684802 -0.26642102 3.9278746
-3.2704458 -0.2747651 3.9204457
-3.2378757 -0.27497041 3.9464707
-3.0966697 -0.27075633 3.9443531
3.1721902 -0.28268468 3.9089968
-3.3691087 -0.21993825 3.9309611
-3.269809 -0.21725874 3.9226394
-3.1330535 -0.24918513 3.9482925
-3.0828743 -0.21923332 3.9400163
-3.3589222 -0.17286149 3.9209621
-3.3040161 -0.15974542 3.9004714
-3.2681308 -0.1711981 3.9224482
-3.2337177 -0.15974903 3.9464858
-3.0742784 -0.16826169 3.941798
-3.3272841 -0.12570256 3.9070897
-3.2700539 -0.12532216 3.9261308
-3.0891719 -0.12327702 3.9405832
-3.3593116 -0.08003813 3.9238057
-3.3085933 -0.079404756 3.9078195
-3.2748139 -0.079456732 3.9328058
-3.0795498 -0.081802532 3.9434774
-3.3616087 -0.03364706 3.9269934
-3.3071213 -0.033368576 3.9065776
-3.2740448 -0.033427827 3.9323578
-3.0883608 -0.021612918 3.9409645
-3.3634262 0.024445904 3.9290762
-3.2684212 0.024085915 3.9255896
-3.2324145 0.0010729579 3.9473684
-3.0887911 0.023569396 3.9414179
-3.3681238 0.082645103 3.9338527
-3.2717929 0.081614517 3.9289415
-3.0913124 0.08008416 3.9439905
-3.3683195 0.12912813 3.9329751
-3.3042192 0.12756774 3.90133
-3.2735422 0.12768313 3.9299653
-3.0747607 0.12508827 3.943392
-3.36127 0.16373417 3.9236262
-3.3210127 0.17787699 3.904896
-3.2725129 0.17365575 3.9272027
-3.086148 0.17440708 3.9491863
-3.3711524 0.22247261 3.9326754
-3.3086739 0.21981311 3.9030566
-3.273078 0.21970803 3.9259176
-3.0846283 0.22129364 3.9416671
-3.3685067 0.25717866 3.9277759
-3.3094769 0.26592362 3.9015529
-3.2749887 0.26589501 3.9257896
-3.0954895 0.28395697 3.9414444
-3.3744721 0.31591958 3.9310784
-3.3143597 0.31243235 3.9043965
-3.2772884 0.32367137 3.9248536
-3.2426636 0.32363448 3.9485672
-3.1020107 0.31856784 3.9476082
-3.3885477 0.35235739 3.9449465
-3.2809544 0.38170663 3.9248924
-3.1069453 0.38724211 3.9488454
-3.3242559 0.44056559 3.9056487
-3.2823453 0.42802745 3.9225338
-3.1085949 0.4101826 3.9490435
-3.47633 0.47507271 3.9465988
-3.2744744 0.47469965 3.9304359
-3.3020856 0.53321183 3.9134302
-3.2725887 0.51903135 3.9322743
-3.0808098 0.50028282 3.9484437
-3.3144817 0.57259256 3.9088128
-3.2677131 0.5679394 3.9339292
-3.1912971 0.57609546 3.9488773
-3.0855689 0.56925642 3.9469321
-3.5378172 0.64570791 3.9281507
-3.3505673 0.60723978 3.9180167
-3.3186882 0.61970919 3.9077666
-3.2739782 0.61539978 3.9356096
-3.5377331 0.66956013 3.9245932
-3.3129265 0.67424756 3.9080393
-3.2796557 0.67452806 3.934396
-3.3244743 0.73486304 3.9127846
-3.2827163 0.73326838 3.9293103
-3.3156917 0.78504324 3.9087961
-3.2862358 0.77763337 3.9339743
-3.3022993 0.82826442 3.9149303
-3.283433 0.82935476 3.9366665
-3.3043737 0.86375493 3.9109936
-3.2817526 0.88140559 3.9249785
-3.3107326 0.93550652 3.9048107
-3.2690175 0.92190921 3.9239357
-3.3253546 0.97484481 3.9147196
-3.2802706 0.97188199 3.9278731
-3.3193519 1.026239 3.911382
-3.2845085 1.017284 3.9311702
-3.3070142 1.0703435 3.9167328
-3.2826977 1.0700493 3.9324417
-3.3043299 1.1046983 3.9052193
-3.2900095 1.1195486 3.9300489
-3.3233609 1.170125 3.9130111
-3.2867987 1.1696725 3.9369531
-3.31951 1.2202802 3.9185481
-3.2842035 1.2203065 3.9441774
3.168623 1.2383187 3.9291151
-3.31637 1.270942 3.92454
-3.2885747 1.2693541 3.9366515
3.1752501 1.2759981 3.9277687
3.2055326 1.2624418 3.9010465
-3.3193369 1.3196119 3.9145806
-3.2828569 1.3192332 3.9390771
3.1460333 1.3135091 3.9491053
3.1735044 1.3273525 3.9252739
-3.3215041 1.3729324 3.9257078
-3.2823637 1.3714852 3.9473488
3.1737156 1.3736767 3.9312279
3.2032347 1.3883725 3.9092495
-3.3206146 1.4179803 3.9188635
-3.2856073 1.4205606 3.9367783
3.1769342 1.4276552 3.9338515
3.2055485 1.4129138 3.9048774
-3.3192706 1.4726706 3.916049
-3.2791808 1.4707532 3.9368281
3.1817393 1.4770519 3.9249246
3.2208257 1.4906009 3.9009218
-3.3167119 1.5248636 3.9200482
3.1750886 1.5267795 3.9239731
-3.321219 1.5807017 3.9319386
-3.2986932 1.5934955 3.947088
3.1780877 1.5814768 3.9345169
3.2068696 1.5781289 3.9013975
-3.3266916 1.6316359 3.9213152
-3.288471 1.632635 3.9360085
3.1870794 1.6336209 3.9289527
-3.3121996 1.6767272 3.9187782
-3.2887256 1.697317 3.9466529
3.1642294 1.6799251 3.9385128
3.2082734 1.6862026 3.9146464
-3.3116536 1.7209116 3.918438
3.191684 1.7140081 3.9314504
3.2123582 1.7242526 3.9061587
-3.3158305 1.7659265 3.9325252
3.1854258 1.7651011 3.9285817
-3.3256543 1.8181623 3.9342492
3.1964326 1.8383353 3.9416428
3.2235737 1.8274369 3.915962
-3.3273134 1.8853611 3.9441144
3.1852841 1.8751552 3.9364088
3.2203677 1.8745136 3.9094539
-3.3225238 1.9300275 3.9272432
3.1492388 1.9115323 3.9467719
3.1859257 1.9312632 3.9403894
3.2158272 1.9257746 3.9163258
-3.3209929 1.985615 3.9276474
-3.2905192 1.9697616 3.9441082
3.1969228 1.9744709 3.9383206
3.22084 1.9864229 3.915184
-3.3482497 2.0392089 3.9432325
3.1845005 2.0093715 3.9401309
3.2141736 2.0264421 3.9142866
-3.3327858 2.0745926 3.9317319
3.1998007 2.0897343 3.9453664
3.2301238 2.0733156 3.9169002
-3.3213196 2.1260412 3.9366322
3.2169349 2.1298513 3.9253049
-3.3437998 2.1767957 3.9273067
3.1919527 2.1748564 3.9486284
3.2244215 2.1718316 3.9167547
-3.3548965 2.2091248 3.9280391
-3.3303468 2.2220006 3.941102
3.1952996 2.2142553 3.9347153
3.2281239 2.2100861 3.9130452
-3.3256397 2.2775831 3.934438
3.1810875 2.2712197 3.9405551
3.2108166 2.2647786 3.9150894
-3.3298471 2.3295918 3.9237273
-3.2965064 2.3465569 3.9401157
1.2118826 2.3489501 3.9315517
1.2964242 2.3460257 3.9052532
3.1766505 2.3266888 3.9337807
3.2119317 2.3252804 3.9047921
-3.3552046 2.3524246 3.9123192
-3.3240447 2.3734872 3.9108891
-3.2956443 2.3711722 3.9257975
-1.50059 2.3799958 3.9094942
-1.2216483 2.3903015 3.905653
-1.166959 2.3884873 3.9155016
-1.1342438 2.387563 3.9213557
-1.0782444 2.3826873 3.9250553
-1.0254227 2.3916194 3.9357126
-0.98463774 2.386704 3.9195557
-0.92500228 2.3797967 3.9189212
-0.88155633 2.3775549 3.9227464
-0.828224 2.3946409 3.9452741
-0.76216888 2.3885789 3.945158
-0.72770846 2.3804941 3.9363832
-0.68415487 2.3872528 3.9309649
-0.628398 2.3877227 3.9160993
-0.58492243 2.3826854 3.9128306
-0.52292496 2.3885107 3.9291651
-0.4682768 2.3791771 3.9188597
-0.43829691 2.3877792 3.9358048
-0.36298764 2.3895416 3.9222517
-0.33319247 2.3915334 3.9498103
-0.27923113 2.3824618 3.937901
-0.2260194 2.3875949 3.9267874
-0.18389866 2.3867345 3.9270675
-0.12073853 2.3751433 3.9318187
-0.071559824 2.3825104 3.9154785
-0.015762521 2.3846607 3.948983
0.02212454 2.3824604 3.9276078
0.07907249 2.3818564 3.9437613
0.12114571 2.3800602 3.9399853
0.15210724 2.3808646 3.9183941
0.25741217 2.3745053 3.9258642
0.37443167 2.3836927 3.9340253
0.42652702 2.3751285 3.9269662
0.48111206 2.3899403 3.9356647
0.52146852 2.3812108 3.9172225
0.57954961 2.3735111 3.925209
0.63210809 2.3738887 3.9226859
0.6718238 2.3808234 3.9218402
0.7252987 2.3722246 3.9227588
0.77678668 2.3677506 3.9076595
0.82322371 2.3691838 3.9259231
0.86279774 2.3673117 3.9239151
0.92061013 2.3632896 3.9223583
0.97821027 2.3580916 3.918334
1.0168713 2.358278 3.9268181
1.0768654 2.357959 3.9296918
1.1397457 2.3549778 3.9107571
1.1599731 2.3526008 3.9019403
3.0805395 2.3969698 3.9125371
3.1338656 2.3826683 3.9409697
3.1755798 2.3746128 3.9165885
-3.304985 2.4158444 3.9165487
-3.2712719 2.4200075 3.9389818
-3.2469704 2.4481065 3.9239156
-1.6045521 2.4049878 3.9227383
-1.5643439 2.4069917 3.9222679
3.0031579 2.4090543 3.9206686
-3.4676666 -0.40181237 3.9670353
-3.2131743 -0.41428265 3.9720101
-3.4787245 -0.36615396 3.9602416
-3.4472117 -0.36535966 3.9687207
-3.2152662 -0.37992314 3.9774003
3.0860939 -0.37743291 3.9603231
-3.5142813 -0.31977916 3.9592929
-3.4762936 -0.31530383 3.975961
-3.446368 -0.32979891 3.9703345
-3.2117524 -0.33338031 3.9763913
-3.5314231 -0.2735337 3.9815693
-3.4730647 -0.27184325 3.9823608
-3.2246659 -0.27935228 3.9664171
-3.1984687 -0.26406181 3.9860241
-3.1343293 -0.28446504 3.9697921
-3.0645647 -0.27095148 3.9682045
-3.4674737 -0.22399069 3.9783816
-3.2287245 -0.21763201 3.9599638
-3.1766324 -0.2172631 3.9827943
-3.0602057 -0.23096159 3.9645176
-3.0473318 -0.22520985 3.9698105
-3.4698236 -0.18043314 3.9754438
-3.448792 -0.16440594 3.9815726
-3.225317 -0.17545716 3.9647429
-3.1966896 -0.17175549 3.9878254
-3.1484246 -0.17041509 3.9710171
-3.4745598 -0.12896545 3.9676712
-3.4457495 -0.12880111 3.9790971
-3.2286258 -0.12554336 3.9630108
-3.1777902 -0.12540559 3.9873974
-3.0638175 -0.1231804 3.9512978
-3.0344927 -0.11166747 3.956816
-3.472352 -0.081565544 3.9661469
-3.4448271 -0.081495374 3.9790211
-3.2237067 -0.077253148 3.9710267
