ply
format ascii 1.0
comment PCL generated
element vertex 1548
property float x
property float y
property float z
element camera 0
property float view_px
property float view_py
property float view_pz
property float x_axisx
property float x_axisy
property float x_axisz
property float y_axisx
property float y_axisy
property float y_axisz
property float z_axisx
property float z_axisy
property float z_axisz
property float focal
property float scalex
property float scaley
property float centerx
property float centery
property int viewportx
property int viewporty
property float k1
property float k2
end_header
-1.5356599 2.3930817 3.1786382
-1.4755138 2.3922532 3.1592772
-1.4203353 2.3951933 3.1852577
-1.3665946 2.3867006 3.1509869
-1.3327905 2.3934782 3.1734865
-1.2721581 2.3950572 3.1766984
-1.2382004 2.3932858 3.1652703
-1.1754572 2.3938999 3.1762819
-1.1256989 2.3917975 3.1745465
-1.091969 2.3986366 3.1788013
-1.0201635 2.3920493 3.1699059
-0.9675042 2.3870182 3.1725178
-0.92422044 2.3919091 3.1750526
-0.87085539 2.3888054 3.1737278
-0.81509489 2.3925936 3.1880827
-0.77011132 2.3887224 3.1673152
-0.72381401 2.3863118 3.1728694
-0.67208999 2.3909264 3.1740346
-0.62087154 2.3846402 3.1702955
-0.57608682 2.3869052 3.1802351
-0.51562703 2.3845782 3.1765239
-0.47833133 2.3849871 3.1847837
-0.42849317 2.3825397 3.1753552
-0.36983249 2.3835635 3.1686332
-0.32011107 2.3816826 3.18449
-0.271716 2.3848205 3.1806781
-0.22942941 2.3851717 3.1779947
-0.17537481 2.3844841 3.1798391
-0.12116007 2.3793814 3.175066
-0.079405755 2.3815258 3.1847985
-0.027819252 2.3782363 3.178771
0.022406297 2.3720076 3.1669862
0.076142527 2.3689537 3.1709216
0.12574333 2.3754416 3.1783624
0.17502944 2.3699198 3.1777787
0.21957538 2.3706515 3.1678278
0.27817541 2.3648145 3.1737392
0.32476416 2.3681626 3.1799653
0.38172257 2.3671594 3.1682673
0.41889918 2.3651247 3.1793711
0.4691456 2.3669543 3.1708751
0.52874899 2.3686807 3.1798744
0.57508606 2.3642819 3.1852782
0.62745261 2.3569086 3.167047
0.67553335 2.3671792 3.1733158
0.71786594 2.3643601 3.1678314
0.77866596 2.3594341 3.1797276
0.82534939 2.3627737 3.1748464
0.87537974 2.3578153 3.1660619
0.92665762 2.356173 3.1610608
0.97394913 2.3580198 3.1746783
1.0365615 2.3502722 3.1814013
1.0728999 2.3522084 3.1678429
1.1144351 2.3560972 3.1746213
1.1700692 2.3502181 3.1622133
1.230266 2.3648846 3.1784985
1.2755834 2.3558362 3.1764266
1.3268788 2.3545597 3.1771424
1.3802547 2.3562872 3.1811669
1.4164207 2.3538015 3.1638727
1.4869772 2.3573315 3.1840689
1.5256149 2.3535628 3.17311
1.5729591 2.3532598 3.1851962
1.6273444 2.3531766 3.1836555
1.6723701 2.3529892 3.1854343
1.7192446 2.3535414 3.1799095
1.7937394 2.3539057 3.1753404
1.8117251 2.3520296 3.1632667
1.8681335 2.3547366 3.1862295
1.9817697 2.353689 3.1723449
2.0379722 2.3531811 3.1894574
2.0628812 2.3588941 3.1859858
2.1889126 2.3672645 3.1786623
2.2300131 2.3584375 3.188776
2.2608831 2.3588886 3.1705105
2.3576832 2.3541307 3.1525252
2.4756551 2.3574119 3.1911788
-2.3783543 2.4161897 3.1796808
-2.3103068 2.4096174 3.1838963
-2.0686753 2.4056497 3.168237
-1.7117441 2.4063587 3.1665146
-1.6786538 2.4006181 3.1723621
-1.2159129 2.4046414 3.1894219
-1.1672716 2.4006267 3.1593068
-1.0671873 2.404825 3.181937
-0.8291142 2.4012301 3.1725261
3.6433463 -0.46645272 3.2430725
3.6737335 -0.46292636 3.2163858
3.6377997 -0.42226422 3.2431941
3.6784639 -0.42439997 3.2387092
3.7028008 -0.42464009 3.21945
3.6413603 -0.39002261 3.249851
3.6816468 -0.3798613 3.2257936
3.6364887 -0.34602383 3.2496767
3.6732242 -0.32459041 3.2233913
0.9822219 -0.26664293 3.2091269
1.0011039 -0.28472981 3.2079132
3.6751668 -0.27031213 3.2293291
3.7150564 -0.27076602 3.2034421
0.98594815 -0.23741718 3.2159843
1.0162272 -0.22918305 3.2052855
3.6738098 -0.22668169 3.2309315
3.7130818 -0.22701994 3.2045465
3.6741786 -0.17650957 3.2297776
3.7092514 -0.17231803 3.2040091
0.97292089 -0.12590134 3.204901
1.082346 -0.11876873 3.2036958
1.1259012 -0.11200303 3.2301583
3.7070589 -0.1177872 3.2041433
0.98432338 -0.088115394 3.2046428
1.081871 -0.087018736 3.2029593
1.112725 -0.076513931 3.2230358
1.1658068 -0.080494203 3.2452078
3.6644745 -0.074111991 3.2285478
1.1147075 -0.031768724 3.2242343
1.1639515 -0.032039132 3.2405815
3.6691504 -0.030703735 3.2331841
3.7072339 -0.030686632 3.2058544
0.98506284 0.021164613 3.2065234
1.0811605 0.0080800178 3.2015843
1.1108617 0.020635813 3.216682
1.421674 0.024718389 3.2098525
3.6816311 0.028073803 3.2400086
3.7138662 0.023800747 3.2115085
0.97944403 0.063070901 3.2000093
1.0935578 0.084780149 3.2036788
1.1081007 0.071654007 3.2046738
3.6922953 0.06737633 3.2326589
3.7163641 0.078373536 3.2128487
1.1019374 0.12745927 3.2105215
3.8890777 0.12567016 3.2354183
3.9102869 0.12568866 3.2117808
3.9236488 0.16907874 3.2292869
3.9359765 0.21687141 3.2287183
3.9593771 0.21695593 3.2065587
3.9249725 0.27769333 3.2321682
3.977464 0.27470699 3.2175076
3.8978415 0.33970901 3.2294533
3.9318588 0.32944804 3.2172079
-3.4282992 0.38079906 3.2316434
3.8859615 0.37338018 3.2370243
3.920218 0.3735171 3.203526
3.975951 0.38806343 3.206542
-3.511699 0.43428949 3.2111969
-3.4798598 0.4148421 3.2170382
-3.4026213 0.4223274 3.2420447
-3.368093 0.42060608 3.2482305
3.8843157 0.41483891 3.2382641
3.9241524 0.42347908 3.2153585
3.8880928 0.47625771 3.2481632
3.9175682 0.47154698 3.2152925
3.8908656 0.52177346 3.2446353
3.9184363 0.53381133 3.224546
3.8947353 0.57883877 3.2397432
3.9168441 0.59013134 3.2150083
3.8914142 0.62355238 3.2299168
3.9141002 0.61231941 3.2092352
3.9133282 0.67061251 3.2197909
3.8797657 0.71592069 3.2458758
3.9210603 0.71733952 3.2180109
3.8926096 0.78653491 3.2433872
3.9231877 0.77043599 3.2138848
3.9141908 0.83419669 3.2310958
3.9574451 0.84763896 3.2020745
3.9133289 0.88426608 3.2264345
3.8821335 0.92584133 3.2461314
3.9177949 0.93097353 3.2195337
3.8844554 0.96063906 3.2398293
3.9282396 0.96306992 3.2139072
3.8983951 1.0328268 3.2340167
3.881984 1.0804023 3.2495944
3.9158311 1.0834802 3.2361715
3.8883557 1.1166689 3.2453196
3.9267993 1.1063747 3.2181249
3.897337 1.1538085 3.2429383
3.935008 1.2044436 3.2189307
3.9431601 1.2764827 3.2042639
3.8932755 1.3992532 3.2491345
3.9185774 1.3534131 3.2443275
3.9046719 1.4500879 3.2422628
3.9796023 1.5875901 3.2191849
3.9715247 1.6246163 3.2197905
3.9746242 1.6783074 3.2245059
4.0032296 1.6923056 3.2017124
3.9667501 1.727597 3.2197835
3.9437778 1.7808833 3.2435365
3.9732044 1.783455 3.2261508
4.0021691 1.7857707 3.2083545
3.9725046 1.8244634 3.2312891
4.0183506 1.8290733 3.2064655
3.9799347 1.861805 3.2306197
4.0021667 1.8808069 3.2142775
3.9464891 1.9011452 3.2411997
3.9768009 1.9241438 3.231308
4.0097141 1.9085072 3.2100041
3.9827375 1.9713122 3.232146
4.0251164 1.9643333 3.201329
3.9790039 2.0341237 3.2311161
4.0039473 2.014287 3.2038383
3.980732 2.0817277 3.2189527
3.9754906 2.1283636 3.2387877
4.011981 2.1284046 3.2066627
3.9833188 2.1693385 3.227778
4.0256715 2.1602187 3.2061646
3.9698238 2.2262869 3.2255638
3.9453928 2.2930012 3.2459788
3.9630868 2.2767627 3.2253733
0.93629986 2.3437545 3.2162008
0.9792245 2.3488884 3.2325573
1.0195687 2.3457134 3.2175839
1.1592821 2.3473063 3.2004364
1.2797034 2.3430526 3.2363887
1.3480866 2.3470249 3.2194486
1.3764669 2.3460796 3.2217739
1.4340492 2.344944 3.2268357
1.4741124 2.3480515 3.2165656
1.5218258 2.343714 3.2337246
1.5621245 2.3465734 3.2221949
1.6152964 2.3487585 3.2476523
1.7400937 2.3406966 3.2238874
1.7615271 2.3432884 3.2183728
1.826755 2.3448784 3.2364039
1.8946671 2.3436804 3.2004297
1.9289273 2.341696 3.2270882
1.9936726 2.3479149 3.2041578
2.0230353 2.3389885 3.2210357
2.0879672 2.3458645 3.2228856
2.1280782 2.3467474 3.2270348
3.9348485 2.3326998 3.2304027
-3.9437871 2.3608975 3.2326145
-1.7825865 2.3932781 3.2324657
-1.7217382 2.3948832 3.2329371
-1.6679585 2.3914428 3.2243857
-1.6196706 2.3941078 3.2320104
-1.5836964 2.3935392 3.2244177
-1.510878 2.3952916 3.2350917
-1.4667079 2.3958056 3.2317715
-1.4195051 2.3907571 3.220479
-1.373709 2.3951972 3.2274308
-1.331457 2.3884468 3.2208617
-1.2632055 2.3948824 3.2197511
-1.2270997 2.3927729 3.2241101
-1.1724415 2.3929014 3.2252016
-1.1241504 2.3903384 3.2355874
-1.0794411 2.3942709 3.2304337
-1.0266111 2.3847556 3.2306409
-0.98379421 2.3944194 3.227375
-0.90301853 2.3904305 3.2156348
-0.87527168 2.3905303 3.2220407
-0.82880634 2.3946536 3.2285483
-0.76587373 2.3897984 3.2213109
-0.71922672 2.3830585 3.2057972
-0.67648649 2.3939059 3.2284753
-0.62102395 2.3930616 3.2363117
-0.57466549 2.3914905 3.241055
-0.53525603 2.3888695 3.2247324
-0.47048569 2.3880594 3.2257378
-0.42329866 2.3859687 3.2161531
-0.37851918 2.3907242 3.2271121
-0.32334855 2.3876588 3.2277496
-0.2767368 2.3781996 3.2183621
-0.23178591 2.3827198 3.2273376
-0.18096773 2.3764906 3.2356675
-0.12250545 2.3791492 3.2272866
-0.077054039 2.3771064 3.2256556
-0.031700302 2.3741043 3.2221773
0.022783507 2.3727512 3.2203913
0.072542123 2.3709576 3.2262037
0.12798031 2.3710814 3.2303281
0.17645109 2.3709989 3.2142525
0.22204918 2.3753898 3.217948
0.27218816 2.3680475 3.2226458
0.33188498 2.370959 3.2280791
0.36888346 2.3731005 3.2307923
0.42345014 2.368036 3.2273626
0.47656444 2.3607244 3.2112987
0.5312416 2.3616076 3.2056229
0.57222092 2.362577 3.2375479
0.62188005 2.3646224 3.2239449
0.67742664 2.3616107 3.2321074
0.71714181 2.3623204 3.2286334
0.77441287 2.3653183 3.2352376
0.82686496 2.3658209 3.2347836
0.87082815 2.3597469 3.2165818
0.90883672 2.3535099 3.217932
0.98567742 2.351553 3.215621
1.0322295 2.3547871 3.2472029
1.0800958 2.3573556 3.2382536
1.1259924 2.3555355 3.2225997
1.1825117 2.3563755 3.2470324
1.2236308 2.3596554 3.2233253
1.2755206 2.3542106 3.2143722
1.3185345 2.3567793 3.2312548
1.4146314 2.353842 3.2272279
1.4754955 2.3502762 3.2196815
1.5142132 2.3511052 3.2058125
1.5840254 2.3505564 3.2196956
1.6224173 2.3532197 3.2225959
1.6874239 2.354686 3.2262948
1.7167437 2.3549128 3.2134426
1.7876019 2.3519313 3.2209799
1.8170621 2.3520458 3.2069416
1.8729707 2.3535028 3.228837
1.9769729 2.3516874 3.2199988
2.0727155 2.3500404 3.2140629
2.1918302 2.361053 3.2169454
2.2379301 2.3571265 3.2341957
2.2694402 2.3579633 3.2164807
2.3084531 2.3561759 3.2154903
3.8925877 2.3646834 3.2473791
-3.9262147 2.4022934 3.2403228
-2.3721826 2.4206736 3.2198262
-2.2748055 2.4155762 3.2177567
-1.7700042 2.4072049 3.2313097
-1.5625442 2.4005373 3.2226422
-1.5293598 2.4035783 3.2194862
-1.4833558 2.4013093 3.2127118
-1.3055046 2.4030972 3.2180915
-1.291324 2.4025652 3.2424641
-0.93620241 2.4043059 3.2277436
3.5820827 -0.46568254 3.288944
3.6187949 -0.4661409 3.2615819
3.5832224 -0.42552641 3.2878554
3.6156716 -0.42226332 3.2638135
3.5922339 -0.3786346 3.2875617
3.6270993 -0.37557328 3.2654946
3.5891485 -0.32403627 3.2896569
3.6241946 -0.32001761 3.265121
3.5856185 -0.26946583 3.2906089
3.6227965 -0.26974902 3.2636597
3.5887017 -0.22627223 3.2962058
3.6233141 -0.22633553 3.2669177
3.584111 -0.1717632 3.2947187
3.6172702 -0.17172764 3.2642078
1.1801805 -0.11415356 3.2845781
3.5853951 -0.12843572 3.2975848
3.6263397 -0.11779961 3.2744114
1.1688135 -0.09687797 3.2532871
3.5805712 -0.074101202 3.294487
3.6208568 -0.07419166 3.2704852
3.5825942 -0.030778941 3.2968736
3.6216102 -0.030773569 3.2716897
1.1723615 0.040759727 3.2638724
3.5822456 0.045096051 3.2962916
3.6235352 0.023547543 3.2733586
3.6736975 0.0018830351 3.2575786
1.1790727 0.065455787 3.282275
3.5821476 0.066772714 3.2958431
3.6268156 0.074364647 3.2823622
3.672513 0.078286409 3.2555585
3.7129526 0.089692153 3.2502463
1.1854129 0.11502738 3.2989674
3.7204676 0.11247507 3.2971907
3.7657013 0.11290838 3.2751644
3.8328502 0.12916343 3.2843707
3.8651283 0.12557423 3.2566833
3.8701568 0.17113553 3.2798362
3.8685608 0.22297764 3.2798905
3.9128079 0.21677941 3.2509923
3.8740718 0.27718437 3.2726471
3.914577 0.25076973 3.2503741
3.8709197 0.3289488 3.2700071
3.9203787 0.31903979 3.2500908
3.8351512 0.37376899 3.2977877
3.8557096 0.37363327 3.273736
-3.4563355 0.44763824 3.2508473
-3.4113204 0.40231264 3.2527099
3.8373568 0.42202649 3.2806892
3.8540189 0.40723625 3.2688425
3.8287659 0.47436967 3.2809751
3.8593256 0.47543716 3.2654572
3.8244591 0.52730125 3.2842367
3.8618152 0.53213078 3.2601514
3.8464582 0.57827789 3.2821465
3.8695054 0.57839316 3.2600892
3.833708 0.62320065 3.2849622
3.8674042 0.62823915 3.2644665
3.8271232 0.65788549 3.2945485
3.8687599 0.67061818 3.2655382
3.8442199 0.72899359 3.2969937
3.8595269 0.727642 3.2682483
3.8249042 0.776887 3.287333
3.8681941 0.78613222 3.2644854
3.8688552 0.84554464 3.2739277
3.8746524 0.88107467 3.2712364
3.848995 0.94018114 3.2989092
3.8663011 0.91602629 3.277194
3.8445477 0.96195883 3.2895222
3.8619108 0.97207165 3.2596469
3.8334756 1.0191939 3.286448
3.8650713 1.0243759 3.2635648
3.8344691 1.0568839 3.2991748
3.8693969 1.0686002 3.2629776
3.8464592 1.1062173 3.2968049
3.8585062 1.1179264 3.2828302
3.8503864 1.1534237 3.286952
3.8656301 1.2249759 3.2650859
3.850292 1.2761661 3.2934787
3.8697734 1.3136388 3.2777548
3.8874743 1.3739022 3.2522745
3.8752632 1.5034107 3.2843273
3.8685765 1.580626 3.2941351
3.9297037 1.5864117 3.2614439
3.8770213 1.6077063 3.2921398
3.9230957 1.6240454 3.2631741
3.922631 1.6758974 3.2743192
3.8916457 1.7429242 3.2988255
3.9214978 1.7284913 3.2657034
3.8973384 1.7813345 3.2885766
3.9211569 1.7813776 3.2665277
3.9208817 1.8226107 3.2720401
3.9357657 1.8656322 3.268904
3.9235466 1.9195056 3.2794638
3.8942444 1.9711442 3.2961543
3.9235725 1.973809 3.2787304
3.9581537 1.9790895 3.2655725
3.9224708 2.0278993 3.2765129
3.9693906 2.0212219 3.2583129
3.8932147 2.0801711 3.2921209
3.9327524 2.0819199 3.2623773
3.9292316 2.1296458 3.2839351
3.9303732 2.1651618 3.276103
3.9507895 2.1837978 3.2573254
3.9298677 2.2294967 3.2845211
3.961395 2.2142682 3.2541416
3.9244521 2.2827446 3.2763498
-3.913558 2.3451624 3.2552984
-3.8917327 2.3344526 3.2850709
0.89897734 2.348268 3.2696586
0.95481414 2.3481505 3.2566154
1.1218984 2.3486958 3.2929494
1.2258477 2.3483784 3.2618613
1.3783398 2.3445349 3.2884891
1.4176905 2.3460703 3.2770143
1.4799414 2.3437185 3.2716551
1.5206761 2.3374624 3.2672892
1.5745226 2.3457892 3.2595642
1.6272625 2.3465796 3.2835338
1.6984601 2.3444026 3.2947307
1.7288574 2.345593 3.2833152
1.7769703 2.3413947 3.2726333
1.8233142 2.3460746 3.2872977
1.8758557 2.3446984 3.2713408
1.912641 2.3382487 3.2775712
1.9748751 2.3462248 3.2765934
2.0018549 2.3409007 3.2857223
2.1142378 2.3447828 3.2825887
2.1624899 2.3427377 3.2772188
3.8908052 2.3356586 3.2766788
3.923491 2.3191988 3.2568886
-3.9235518 2.3759069 3.2509017
-3.8788755 2.3819027 3.2786064
-3.8428338 2.3963633 3.2952282
-2.2060964 2.398659 3.2800109
-1.7730588 2.3872461 3.2729275
-1.7265671 2.3955941 3.2776396
-1.6941564 2.3917036 3.285512
-1.631588 2.3921406 3.2681382
-1.568787 2.3940132 3.2678564
-1.528994 2.3928106 3.2817771
-1.4761515 2.3938735 3.275032
-1.422343 2.3924816 3.2643485
-1.3721062 2.3888984 3.2766654
-1.3301718 2.3923244 3.2756062
-1.2768434 2.3920286 3.2720604
-1.2220178 2.3908889 3.2741311
-1.174044 2.3889008 3.2747884
-1.1256955 2.3948147 3.2816315
-1.0861963 2.3914907 3.2875829
-1.0068133 2.3797944 3.2517464
-0.97422957 2.3917181 3.2773492
-0.92288011 2.3949611 3.2813766
-0.8718006 2.3878858 3.256891
-0.82230443 2.3823092 3.2719746
-0.77986461 2.3918889 3.2815087
-0.72460407 2.3932357 3.2711632
-0.67382878 2.3894486 3.2782834
-0.62519765 2.3859026 3.2717097
-0.57813883 2.3873835 3.2715068
-0.52671242 2.3895271 3.2722824
-0.47190303 2.3907821 3.2752862
-0.42314464 2.3867421 3.2749686
-0.37762415 2.3824518 3.2662075
-0.33040056 2.3864579 3.2758451
-0.27136773 2.3882351 3.2772133
-0.22458971 2.3844366 3.2657976
-0.15984102 2.3760626 3.2573445
-0.12360307 2.3823531 3.2672112
-0.068810038 2.3868654 3.2746906
-0.022932332 2.3811119 3.2852666
0.026004091 2.3809035 3.2729857
0.090227865 2.379343 3.275938
0.12423836 2.3741617 3.2918568
0.16977172 2.3767941 3.2758858
0.22515954 2.3804781 3.278327
0.28022692 2.3755121 3.2771065
0.32500315 2.3624377 3.2646432
0.37281975 2.3753297 3.2785342
0.42768154 2.3734882 3.2706196
0.47957119 2.3680983 3.271965
0.52563131 2.3727705 3.2801831
0.57752228 2.3707783 3.2759149
0.62274086 2.3624196 3.2666354
0.66303831 2.3573382 3.2654011
0.73333001 2.3630714 3.2771239
0.77458501 2.3568611 3.269897
0.82900512 2.3619211 3.2759566
0.87747753 2.3617778 3.271281
0.93222487 2.3617225 3.2820148
0.97731274 2.3574903 3.2650602
1.0431229 2.3607402 3.2925851
1.0782518 2.3550043 3.2746179
1.1321318 2.3563039 3.2750423
1.1797719 2.3571236 3.2758391
1.2741385 2.35811 3.2823272
1.3248495 2.3540299 3.2799017
1.3629974 2.3538368 3.2666173
1.4258931 2.353271 3.2643983
1.6752032 2.3563974 3.2646923
1.7213678 2.355068 3.2570865
1.9750645 2.3531857 3.2728195
2.0310369 2.3513534 3.2896483
2.0855668 2.367296 3.289818
2.1536803 2.3545084 3.2788415
2.2217636 2.362062 3.2712374
2.2696276 2.3589122 3.2718799
2.3101854 2.3583131 3.2730093
3.869555 2.3655679 3.2695673
-3.9086289 2.4066246 3.2671754
-2.2656937 2.4181941 3.2818367
-2.2375112 2.4102576 3.2835557
-2.1957681 2.40802 3.2513936
-1.6086878 2.4018159 3.2937474
-1.427708 2.4014916 3.276577
-0.95136017 2.400398 3.2568476
-0.93394154 2.4038107 3.2659183
-0.79587722 2.4024889 3.2558012
3.8009176 2.4024563 3.2685165
3.4895897 -0.47446367 3.342663
3.5359185 -0.46228182 3.3343668
3.551101 -0.47683421 3.3198202
3.5325851 -0.42158204 3.3289986
3.5656826 -0.41072485 3.300323
3.5316 -0.38891208 3.3314619
3.5629947 -0.37503767 3.3150034
3.5451965 -0.30234441 3.3317406
3.5619874 -0.32873851 3.3209476
3.5297418 -0.26944411 3.3397696
3.5637016 -0.26949054 3.3108671
3.5423393 -0.22616586 3.3341646
3.564199 -0.22613539 3.3140831
3.5411072 -0.17186683 3.3357108
3.5621841 -0.17179637 3.3149281
1.2177329 -0.11617365 3.3387094
3.5377188 -0.11752758 3.3345037
3.5712669 -0.11400691 3.3119259
1.2172222 -0.082923777 3.337935
3.540432 -0.074243575 3.3380766
3.5580006 -0.0741174 3.3140459
1.2121998 -0.016359622 3.3248174
3.5391786 -0.030860426 3.3374171
3.5594571 -0.0308073 3.3159261
1.2227788 0.025027741 3.3288262
3.537164 0.023322998 3.3354537
3.5710349 0.019061616 3.3104203
1.1900666 0.090779155 3.3124549
1.2188976 0.074772194 3.3300486
3.5369449 0.066657528 3.3347039
3.5601213 0.081341416 3.3291214
3.6070228 0.089065082 3.3182433
1.2178302 0.13316759 3.338335
3.6910138 0.1125211 3.3326643
3.7742279 0.13653433 3.3440669
3.8016825 0.13676274 3.3265066
3.7803462 0.15922628 3.3485882
3.8186321 0.17074034 3.3189759
3.820297 0.22709288 3.3174012
3.8271933 0.2838755 3.3196011
3.7889664 0.32850707 3.3452792
3.826375 0.32889032 3.3152323
3.7808416 0.37275422 3.3339558
3.8064699 0.37313169 3.314671
3.7775936 0.41736543 3.3264189
3.8063989 0.41810715 3.309922
3.7925465 0.47536877 3.3329582
3.8101816 0.47480538 3.3065803
3.7741971 0.53072655 3.3302803
3.8151007 0.54307115 3.3018701
3.7701049 0.57678688 3.3410988
3.8155386 0.57865298 3.3181539
3.7826324 0.62396997 3.3451226
3.8095105 0.61973304 3.3134098
3.7844861 0.66448045 3.3258324
3.8243651 0.68200386 3.309093
3.7922034 0.72760272 3.3356342
3.824152 0.72187567 3.3229914
3.7760863 0.78332388 3.3313403
3.8170047 0.75077927 3.311049
3.7832372 0.82724816 3.3359976
3.8216534 0.83666849 3.3119261
3.7923923 0.88033807 3.347259
3.8317795 0.88454598 3.3105695
3.7967253 0.92704612 3.3404596
3.8346925 0.91657799 3.3130431
3.7984748 0.9617579 3.3336952
3.8235886 0.97956371 3.3236828
3.8218091 1.0728947 3.3120811
3.7985947 1.1055651 3.3396614
3.8156347 1.1214439 3.321995
3.7825651 1.1766858 3.3478177
3.8272569 1.1533355 3.3091536
3.7897925 1.2135789 3.3436701
3.8249769 1.2522256 3.3212657
3.824873 1.3296776 3.3409729
3.835012 1.3757818 3.3127518
3.8235691 1.5014104 3.3245564
3.8567505 1.5287826 3.3019941
3.8350122 1.6097691 3.3409622
3.86973 1.6322783 3.3212757
3.8681302 1.6781989 3.3244929
3.8374867 1.7279577 3.3423605
3.8723152 1.7254473 3.3172264
3.847496 1.7682885 3.3359463
3.8680966 1.7864386 3.3184776
3.8773656 1.824544 3.3197627
3.8388176 1.8750705 3.3434966
3.8808615 1.8601249 3.3158
3.9038584 1.8795621 3.3000276
3.8737204 1.9185607 3.3218431
3.8456709 1.9587777 3.3451529
3.8637524 1.9759684 3.3248374
3.8783715 2.0300694 3.3237092
3.874722 2.0832362 3.3186879
3.8715379 2.1187437 3.3305969
3.8452139 2.1547413 3.3487883
3.8762064 2.1707358 3.3267636
3.9070339 2.1865933 3.3045738
3.8801365 2.2290425 3.3268878
3.8421848 2.2652717 3.3393359
3.8755603 2.2828398 3.3192298
-3.8607001 2.3330247 3.3497908
0.97007936 2.3478019 3.3305466
1.2113228 2.346777 3.3252187
1.2949352 2.3499925 3.3251185
1.3269697 2.3458915 3.329236
1.395421 2.3378243 3.3142006
1.529071 2.3458753 3.3217788
1.5705116 2.339551 3.3172715
1.6381224 2.3453543 3.337229
1.6762426 2.3447385 3.3278546
1.7490548 2.3397155 3.3103998
1.8274564 2.344243 3.3296254
1.8665756 2.3430839 3.3090041
1.9399698 2.3391871 3.3144233
1.996205 2.3376949 3.3327343
2.0267718 2.3495948 3.3390982
3.829649 2.321774 3.3455839
3.8651037 2.3316514 3.3151863
-3.8409374 2.3672948 3.3251743
-2.2009449 2.3948331 3.3286011
-1.9055579 2.3996615 3.3424892
-1.7917778 2.3768697 3.3086536
-1.7217718 2.396637 3.3276398
-1.6711576 2.3955805 3.3476989
-1.6105405 2.3995342 3.3340306
-1.565629 2.3930035 3.3263867
-1.5196499 2.3892663 3.3234484
-1.4675502 2.3920424 3.318507
-1.4323195 2.3941097 3.3203175
-1.3744689 2.3904905 3.3206034
-1.3221195 2.3933308 3.3216975
-1.2824377 2.3887472 3.3204696
-1.2271481 2.3878691 3.3224385
-1.1801125 2.3900042 3.3261368
-1.12468 2.3938885 3.3206911
-1.0698913 2.3918321 3.3190649
-1.0270339 2.3955972 3.3357506
-0.97134215 2.3904288 3.3283985
-0.91859943 2.3920338 3.3200593
-0.87536716 2.3950899 3.3243036
-0.82589024 2.3869572 3.3264923
-0.78039026 2.387496 3.3259065
-0.72485793 2.3965683 3.3268411
-0.67243451 2.3897111 3.3352461
-0.6277982 2.3902631 3.3241851
-0.57449049 2.3922136 3.3159091
-0.51828688 2.3917649 3.3226697
-0.46835575 2.3846996 3.3309796
-0.42310023 2.3812244 3.3185213
-0.37672979 2.382293 3.3244858
-0.32518578 2.383924 3.3219233
-0.27432761 2.3891299 3.3273551
-0.22693947 2.3815639 3.3159719
-0.18057744 2.3831739 3.3168252
-0.12508319 2.3824778 3.3215551
-0.069366179 2.3788898 3.3178053
-0.02312121 2.371551 3.3262358
0.018620886 2.3792918 3.3280163
0.075077504 2.3793368 3.3219814
0.12520415 2.3746986 3.3288646
0.17175905 2.3769224 3.3303316
0.22722118 2.3745081 3.3243153
0.2704775 2.3682425 3.3251946
0.32472602 2.3704205 3.3213539
0.3768287 2.3730354 3.3298843
0.42852896 2.3728242 3.3209579
0.47124043 2.3707058 3.3355505
0.52597207 2.3651116 3.3210354
0.5808146 2.3562984 3.3104486
0.62968272 2.3699455 3.3135948
0.67808914 2.3650742 3.3215384
0.72786731 2.3673775 3.3316662
0.77821779 2.3585329 3.3191462
0.82202232 2.3586183 3.320405
0.872967 2.3600142 3.3313301
0.92870027 2.357785 3.3158214
0.9749164 2.357506 3.3243763
1.0219121 2.3677363 3.328393
1.0693803 2.3581667 3.3216066
1.1187519 2.3559678 3.3319235
1.172693 2.3605349 3.3271985
1.2407107 2.3576856 3.3127289
1.2702283 2.3582017 3.3320506
1.3612947 2.3552237 3.3328013
1.435194 2.3555949 3.3290629
1.4782764 2.3524005 3.3299193
1.5344371 2.3540549 3.3334129
1.5919402 2.3521364 3.3074911
1.9301562 2.3517709 3.3423605
2.0644243 2.3576334 3.3342302
2.101969 2.365334 3.3284507
2.1957636 2.357255 3.3124692
2.2245238 2.3554766 3.3189633
2.2650309 2.3549402 3.3208673
2.3148882 2.3530278 3.3418746
2.3558249 2.3520217 3.3146715
3.7328079 2.3811369 3.348917
3.7769983 2.378217 3.3029037
3.8232403 2.364038 3.3324831
3.8561201 2.3723717 3.3000557
-3.8285017 2.4230082 3.3398299
-2.3547835 2.4036863 3.3075705
-2.3222063 2.4135852 3.3472843
-2.2820864 2.4041343 3.3257265
-1.8794904 2.4126217 3.329608
-1.8444852 2.4136004 3.3003147
-1.7564671 2.4031434 3.3233101
-1.6801401 2.4026716 3.3253534
-1.6437792 2.4046798 3.3288901
-1.0346971 2.4040818 3.3199396
3.4621401 -0.46436733 3.3781056
3.502126 -0.45445442 3.3572626
3.445523 -0.4095341 3.3881354
3.4769149 -0.42149556 3.377079
3.5015216 -0.43266585 3.3591504
3.4459677 -0.38795224 3.3907592
3.4767098 -0.37266833 3.381804
3.51511 -0.37865502 3.3574362
3.446012 -0.30141503 3.3983281
3.4801428 -0.31825578 3.3797688
3.5185418 -0.32881552 3.3611584
3.4428227 -0.27952 3.3967588
3.4795043 -0.26898551 3.3726475
3.483731 -0.22597596 3.3794527
3.5206752 -0.22619772 3.3541977
3.4829521 -0.17175521 3.3813629
3.5179622 -0.17182939 3.3543043
3.4809382 -0.11753656 3.3813772
3.513869 -0.11749297 3.3523755
1.240508 -0.083336338 3.3518028
1.2512586 -0.067207724 3.3810966
3.4771106 -0.074143164 3.3786571
3.5144992 -0.074191019 3.353987
1.2447602 -0.033331897 3.3638549
3.4806488 -0.030910073 3.3826036
3.5166531 -0.030887444 3.3565624
1.2706245 0.017054636 3.3838348
3.4807389 0.023214409 3.3826342
3.5141754 0.02327772 3.3541355
1.2406565 0.067028224 3.3523481
1.2728281 0.084771149 3.3889759
3.4787481 0.073771276 3.3867519
3.5211647 0.081368923 3.3734779
1.2487504 0.10951142 3.3734241
1.253462 0.13524455 3.3855126
3.6752255 0.13523279 3.3796117
3.7330978 0.13619286 3.369884
1.2760791 0.15281737 3.3959513
3.7344851 0.17033228 3.3906577
3.7665832 0.17424017 3.363517
3.7426398 0.22699648 3.3950701
3.7772233 0.2271025 3.3631992
3.7405086 0.27186209 3.3902252
3.7767205 0.28611937 3.3713715
3.7401185 0.32805818 3.3854306
3.7686706 0.3286438 3.3691628
3.7230082 0.37248003 3.3867097
3.7568836 0.37256366 3.3544867
3.7224662 0.41735271 3.3815711
3.7593098 0.41777653 3.3519888
3.7267997 0.47406009 3.3789504
3.7684593 0.47513986 3.3535347
3.7263737 0.53024113 3.3712511
3.7309422 0.57591456 3.3688941
3.6973367 0.62090552 3.3942485
3.7289238 0.61747432 3.3676431
3.7547975 0.63435662 3.3605216
3.7390337 0.66943634 3.3826499
3.7615409 0.66944921 3.3607957
3.7332897 0.72707498 3.3882697
3.7688262 0.72744095 3.3570614
3.7349911 0.78412217 3.3787782
3.763284 0.7512542 3.3688371
3.735723 0.83212554 3.3911238
3.7578328 0.83203697 3.3687968
3.7406323 0.87881148 3.3855536
3.7677338 0.87986702 3.3676133
3.7629712 0.92708766 3.3739107
3.770056 0.96984118 3.3629735
3.7833662 1.0268316 3.361167
3.7316177 1.0709521 3.3873031
3.7748263 1.0707848 3.3705945
3.7314446 1.1113561 3.390671
3.7634883 1.1168222 3.3688807
3.734942 1.1645856 3.3936229
3.7610829 1.1655908 3.3746021
3.7458348 1.2141774 3.3895574
3.7699454 1.2261119 3.3650119
3.723937 1.2722912 3.394196
3.7719667 1.275616 3.366293
3.7376275 1.3001654 3.3991196
3.7808797 1.3264165 3.3661318
3.7674012 1.3764081 3.3809476
3.7352617 1.4240388 3.3999662
3.7821195 1.4125748 3.3605094
3.7437396 1.4740355 3.3906732
3.7686796 1.4630109 3.3744867
3.7497785 1.5466775 3.3695784
3.767385 1.5209708 3.3515172
3.790812 1.5774933 3.3542049
3.7940209 1.6241858 3.386003
3.8182964 1.6245015 3.3644528
3.7822535 1.6886863 3.3945403
3.8160031 1.6760604 3.364707
3.7873843 1.7266994 3.3841748
3.8105454 1.7264774 3.3616371
3.7747459 1.7795128 3.3956919
3.8192635 1.7836888 3.370482
3.7898002 1.8345485 3.3881693
3.8313553 1.8253359 3.3654876
3.7813826 1.8722519 3.3861566
3.8220067 1.8626155 3.3628359
3.7921367 1.9318079 3.3954298
3.8193576 1.9213642 3.3655808
3.7931697 1.9564868 3.3851092
3.8218067 1.979149 3.3741028
3.7953751 2.0430613 3.3958912
3.8321211 2.0311749 3.3693252
3.7777615 2.0953517 3.3997757
3.8147211 2.0816536 3.3828232
3.858566 2.0753682 3.3533676
3.7904129 2.1268184 3.3990066
3.8305943 2.1184905 3.3664551
3.8230457 2.1769507 3.378618
3.7861562 2.2364683 3.3888001
3.825911 2.2259815 3.3654778
3.7909777 2.2852674 3.3861616
3.8256311 2.2823319 3.3613751
-3.8410716 2.3361001 3.3757255
0.9591971 2.3485494 3.3738995
1.1207591 2.3480666 3.3734031
1.1673814 2.3451841 3.3973939
1.3035791 2.3462777 3.3585095
1.3742839 2.3483582 3.3815553
1.4437822 2.3463807 3.3981149
1.4699612 2.341013 3.3798537
1.5212245 2.3442841 3.3664265
1.5628822 2.3477128 3.3563352
1.6294607 2.3386567 3.3596723
1.6860275 2.3423955 3.388974
1.7885387 2.3456826 3.3501546
1.8280985 2.3378105 3.3658104
1.9386317 2.3417237 3.3692174
1.9901974 2.344337 3.3734205
2.0653512 2.3498313 3.3703501
2.203557 2.3461568 3.3932428
3.7786901 2.3206472 3.3867171
3.8026242 2.3326156 3.3582399
-3.8148563 2.3632171 3.3638685
-3.7854948 2.3695607 3.3932991
-1.9294589 2.3963981 3.3740029
-1.8672661 2.3924699 3.3724871
-1.8463554 2.3917322 3.3809979
-1.7143991 2.3942213 3.3731809
-1.6634222 2.3931782 3.3929036
-1.6245341 2.3880076 3.3656082
-1.5791407 2.3922064 3.3794663
-1.5274925 2.3855088 3.3733275
-1.475749 2.3897963 3.370012
-1.4230255 2.3917234 3.3630083
-1.3692636 2.3910322 3.3767176
-1.3141506 2.384994 3.3744545
-1.2707419 2.38659 3.3695726
-1.2179074 2.3883135 3.3673232
-1.1644061 2.3910265 3.3732889
-1.129275 2.3914623 3.370034
-1.0737026 2.3891184 3.3675804
-1.0219369 2.394408 3.3752899
-0.95440817 2.389286 3.3768559
-0.92374963 2.3843932 3.3764026
-0.87273651 2.3853817 3.369031
-0.82391346 2.3821456 3.3741112
-0.77152503 2.3915558 3.3784826
-0.73079461 2.3913467 3.3789654
-0.67269373 2.38379 3.3743153
-0.62071353 2.3890555 3.3803227
-0.57652158 2.3900018 3.3651512
-0.52357239 2.3875225 3.3722155
-0.4795433 2.3845694 3.3794854
-0.42833644 2.3845172 3.3748059
-0.36993989 2.379833 3.3586047
-0.32773432 2.3844674 3.3811409
-0.27710819 2.3822193 3.3783674
-0.22077431 2.3827808 3.3824494
-0.17639737 2.386399 3.3680046
-0.12645556 2.3810389 3.3744986
-0.070094995 2.3762791 3.3690431
-0.020261701 2.3757818 3.381232
0.023460269 2.3783219 3.3724554
0.084248647 2.3720288 3.3720384
0.12649223 2.3796711 3.3725905
0.16861272 2.3750088 3.3737857
0.23301697 2.3696177 3.3686645
0.28493711 2.3638711 3.3610091
0.32014686 2.3734818 3.3760235
0.37066072 2.3654766 3.3753552
0.42921749 2.3777456 3.3875837
0.47393617 2.3656337 3.3653555
0.51819456 2.3613603 3.3666296
0.57148558 2.3713942 3.3807025
0.62761945 2.3694303 3.3699405
0.67605197 2.3643956 3.3742175
0.72792459 2.3590322 3.3673639
0.7687397 2.3620958 3.3678837
0.82232976 2.3582916 3.3780189
0.87930042 2.3580992 3.3662417
0.93231368 2.36237 3.3811526
0.98055315 2.3540022 3.3773139
1.0203644 2.3575993 3.3732901
1.0765681 2.3547885 3.3547916
1.1260047 2.3590784 3.3891726
1.177979 2.3534358 3.3798065
1.2257173 2.3533368 3.3768933
1.277843 2.3523965 3.3764071
1.3803204 2.35409 3.3744669
1.4261322 2.3532264 3.3717918
1.4638371 2.3508563 3.3544617
1.5359089 2.3669021 3.3989682
1.6076652 2.3555648 3.3519101
1.7259623 2.3580875 3.3838527
1.7666723 2.3677375 3.3831005
1.9086534 2.3627865 3.3729448
1.9677598 2.3522305 3.3742015
2.070169 2.3553333 3.3781676
2.1314507 2.3660684 3.3657
2.1620851 2.3592756 3.3708274
2.2572908 2.3585939 3.3871877
2.3067214 2.355566 3.379657
3.7140532 2.3847744 3.3750768
3.7768176 2.3657482 3.3774338
-3.8121269 2.4080105 3.3536193
-3.7907217 2.4101033 3.3777947
-2.2493634 2.4035161 3.3709426
-1.8166714 2.4030185 3.3904586
-0.99498999 2.4042506 3.3698862
3.6076076 2.4118702 3.3795183
3.3870621 -0.46460879 3.4452453
3.4190602 -0.46447301 3.4166553
3.3796203 -0.43113983 3.4413085
3.415807 -0.42074665 3.4182148
3.4172497 -0.3775906 3.4240012
3.4173443 -0.32347614 3.4287889
3.4525208 -0.33450189 3.4021311
3.4175968 -0.26664498 3.4210174
3.4151602 -0.22584188 3.4332376
3.4525924 -0.2261152 3.4098077
3.3989167 -0.17146966 3.439786
3.431752 -0.17883389 3.4183958
3.3991876 -0.13905963 3.4412675
3.4247272 -0.1197084 3.4270453
3.4509377 -0.12850353 3.4124527
1.28067 -0.067868866 3.4102345
1.3115947 -0.059999488 3.4424062
3.4257824 -0.074291237 3.4291382
1.2865877 -0.02543062 3.4263551
1.3111739 -0.034180149 3.4415336
3.4222612 -0.03095717 3.4261334
1.3096386 0.0087898439 3.4375734
3.4258251 0.029301858 3.4296205
3.450985 0.0015123913 3.414402
1.3123573 0.068693064 3.4275811
3.4376357 0.077302217 3.4205136
1.2841223 0.1111317 3.4185159
1.3098874 0.11186844 3.4369082
3.4808364 0.11081679 3.4422104
3.5211158 0.11110698 3.4202704
1.3286731 0.15500607 3.4353511
3.6860323 0.17009532 3.429945
3.7084804 0.17012416 3.4087989
3.6951058 0.22675858 3.4354286
3.7154043 0.2266755 3.4121883
3.6957889 0.29429981 3.4315221
3.71369 0.27954376 3.4211423
3.6819422 0.32779902 3.4368637
3.717443 0.32801545 3.4067404
3.6273198 0.37058574 3.4442773
3.6724401 0.37181628 3.4239199
3.6714878 0.41657925 3.4184661
3.6416509 0.46185377 3.4482617
3.678899 0.47389835 3.423017
3.7023799 0.47519034 3.4196727
3.686131 0.53081387 3.4183059
3.676264 0.57345748 3.438297
3.7034459 0.57681441 3.4068465
3.6670136 0.62142777 3.4291806
3.6787717 0.66864347 3.4326777
3.7147617 0.6690892 3.4027009
3.639261 0.72398895 3.4487956
3.6859219 0.72658938 3.4291923
3.7199137 0.70399171 3.4014235
3.6869054 0.78342855 3.4191914
3.6856213 0.81963551 3.4321892
3.71035 0.83149266 3.4102783
3.685744 0.88206595 3.4332225
3.7141066 0.87786776 3.4037461
3.6853259 0.92466164 3.430268
3.7253771 0.92618865 3.4035192
3.6866941 0.97360742 3.4418037
3.7245629 0.97461152 3.4128776
3.6952505 1.0217134 3.4381633
3.7295742 1.0189732 3.4139032
3.6754336 1.0799022 3.4470994
3.7126317 1.0545819 3.4025185
3.6875401 1.1145411 3.4274032
3.7002871 1.1034694 3.4211514
3.6929739 1.1657822 3.4405665
3.7182293 1.1780409 3.417681
3.675045 1.2366254 3.445704
3.7142255 1.2266512 3.421279
3.6853294 1.2864096 3.440588
3.7044897 1.2850555 3.4154215
3.6839876 1.3480096 3.4415941
3.7366643 1.3271117 3.4119883
3.6775205 1.373131 3.4491961
3.7173917 1.3750629 3.4214921
3.6858647 1.4461768 3.4322424
3.7080569 1.4224937 3.418087
3.6853416 1.4801613 3.4346683
3.709065 1.5256548 3.4276414
3.7368209 1.5843421 3.4349911
3.7599227 1.5841794 3.4126718
3.7393029 1.6282306 3.4360611
3.7691178 1.6236044 3.4068921
3.7303581 1.6747272 3.4391556
3.7649114 1.6721393 3.4143374
3.7359533 1.7324152 3.4372208
3.7671976 1.7282901 3.4093518
3.7307911 1.7734394 3.4299281
3.7515528 1.7917048 3.4129498
3.7423885 1.8346853 3.4322925
3.7609029 1.8321002 3.4055567
3.7503996 1.8746521 3.423398
3.7384973 1.9047929 3.4452567
3.7679117 1.9196515 3.4227648
3.7485361 1.9582568 3.4319468
3.773421 1.979032 3.4177885
3.7393363 2.0267613 3.438381
3.7684782 2.0210545 3.4085052
3.7414968 2.085042 3.4291503
3.7655153 2.0642717 3.400727
3.739768 2.1256673 3.4405992
3.7652299 2.1263244 3.4199564
3.7462132 2.1538098 3.4341311
3.7711728 2.1751716 3.4192638
3.8066912 2.1605072 3.4012947
3.7434292 2.2278526 3.443975
3.7719715 2.2213337 3.4135597
3.7397332 2.28232 3.4366431
3.7620459 2.2809739 3.4131167
-3.7723336 2.331821 3.423346
1.1489285 2.3470597 3.4054565
1.2360007 2.3457344 3.4206696
1.2575879 2.3495667 3.4204605
1.3447503 2.3454874 3.4298384
1.4148513 2.3474097 3.4098163
1.4507977 2.3379588 3.4258211
1.6493006 2.3470607 3.4121845
1.6604512 2.3427229 3.4467626
1.7217826 2.3438091 3.4234445
1.8396668 2.345212 3.4224284
1.8687598 2.3357093 3.4409268
3.7328315 2.3350401 3.4258208
3.7586503 2.3358073 3.4055696
-3.7666211 2.3732316 3.419976
-3.7436728 2.3743472 3.4430566
-1.9765009 2.3977919 3.4284821
-1.8664905 2.3869531 3.4362838
-1.8160995 2.395304 3.4253581
-1.793613 2.3925922 3.430593
-1.5713766 2.3906803 3.4252551
-1.5229808 2.3896868 3.4267378
-1.4727362 2.3973067 3.4276817
-1.4189482 2.3918254 3.4227679
-1.326766 2.3881621 3.4182787
-1.270413 2.3937454 3.4304693
-1.2095865 2.3907053 3.415381
-1.167882 2.3855541 3.4190633
-1.1191692 2.3955865 3.4272244
-1.077563 2.3900189 3.4293363
-1.0191717 2.3934922 3.4183836
-0.9793095 2.396544 3.4290798
-0.92112982 2.3907974 3.4366295
-0.87029606 2.3881457 3.4265153
-0.82787466 2.383363 3.4243846
-0.77611244 2.3918469 3.4368494
-0.71997118 2.3859925 3.4221797
-0.67796117 2.3809574 3.4241152
-0.63073492 2.3860006 3.4283288
-0.57548261 2.3857028 3.4330063
-0.52999449 2.3882854 3.4296987
-0.47215292 2.3855803 3.4324112
-0.42625737 2.3842394 3.4225123
-0.37598681 2.390125 3.4293292
-0.3249777 2.3850067 3.4324024
-0.27554053 2.3859909 3.4308457
-0.22252783 2.3761182 3.4233804
-0.17457867 2.3791389 3.4073582
-0.12783177 2.3782454 3.4265015
-0.075773999 2.3835382 3.4259071
-0.026785597 2.3750153 3.4299095
0.028468609 2.3783667 3.4190698
0.076897204 2.3798892 3.4338422
0.12767942 2.3735776 3.4198008
0.17881578 2.3728671 3.4207256
0.21962674 2.3763702 3.4264677
0.27059281 2.3785958 3.4299579
0.32744536 2.3732245 3.4277132
0.37890446 2.3720052 3.4344962
0.41979146 2.3733523 3.426367
0.47912171 2.3723052 3.412322
0.52346921 2.3656626 3.4261694
0.57221001 2.3703229 3.4269383
0.62429494 2.3642826 3.4204648
0.67343444 2.3693833 3.4206564
0.7231074 2.3662329 3.4275107
0.77130866 2.3576958 3.4259472
0.81907064 2.3572788 3.4165173
0.86940473 2.3542218 3.4219036
0.92596501 2.364692 3.4327629
0.97066158 2.35726 3.4248714
1.0289372 2.3580143 3.412364
1.0786837 2.362309 3.4313927
1.1243708 2.3565588 3.4270806
1.1816757 2.3542714 3.4498842
1.223393 2.3590953 3.4458628
1.280452 2.3556304 3.4233649
1.3217798 2.3544533 3.4193764
1.3924892 2.3596284 3.4375894
1.4897914 2.3526528 3.4367948
1.5317993 2.3559468 3.4270802
1.5778978 2.3551929 3.431252
1.6278623 2.3680627 3.4262249
1.7731291 2.3583758 3.4272463
1.8163867 2.3618343 3.4143124
1.9285265 2.3564241 3.4262419
1.9815941 2.3604345 3.4330583
2.039525 2.3572083 3.4236431
2.0640254 2.3511472 3.4253294
2.1449454 2.3506963 3.434437
2.1684053 2.3534107 3.4270191
2.2557442 2.3578858 3.4416041
3.6462045 2.3884053 3.4434171
3.6694436 2.3875818 3.4211886
3.7206156 2.3665249 3.4282033
-3.7625918 2.4158626 3.4178886
-3.7213767 2.4381249 3.4322822
-2.024734 2.4078839 3.4484501
-1.9881541 2.4098425 3.4194031
-1.7768428 2.4041834 3.4103799
-1.7464622 2.4043922 3.4240193
-1.6924499 2.4058774 3.4024971
-1.6291206 2.4018745 3.4215455
-1.4029458 2.400357 3.4128962
-1.3652149 2.4037373 3.4309554
-1.2348118 2.401675 3.4253111
-0.78257632 2.4014089 3.4105132
3.6131017 2.4073126 3.4423466
3.3478546 -0.46523684 3.4860983
3.366106 -0.46473789 3.4643798
3.3497605 -0.43293431 3.4916778
3.3674271 -0.41611376 3.4710112
3.3498504 -0.36780587 3.4981296
3.3744087 -0.38062963 3.4735711
3.344892 -0.34557986 3.494832
3.3738306 -0.32350582 3.4656789
3.3715062 -0.26918104 3.4672437
3.3723078 -0.22593614 3.4706903
3.3698647 -0.17613101 3.4746315
3.3742423 -0.1241551 3.4729073
3.3765955 -0.074479386 3.480557
3.3723145 -0.031077215 3.4766488
3.3783569 0.023081003 3.4828279
3.4065092 0.001444789 3.4509256
3.3784881 0.077326283 3.4822195
3.4103441 0.077360809 3.4539275
3.3818061 0.10996797 3.484849
3.467561 0.11105717 3.4699407
3.6225572 0.1360373 3.4760919
3.6328309 0.170122 3.4845555
3.6677065 0.17024229 3.4547446
3.6285481 0.23793282 3.4979305
3.6646013 0.22688715 3.4698591
3.6326506 0.28327224 3.4988785
3.6629095 0.2830537 3.4645803
3.6308486 0.33123311 3.4792747
3.6507688 0.3167204 3.4715388
3.5904932 0.3713246 3.4925952
3.6101694 0.37108815 3.4697261
3.5966499 0.40563336 3.4952745
3.6274724 0.41960564 3.473114
3.6140697 0.4738237 3.4835165
3.6508989 0.49678195 3.4528821
3.6252418 0.53167093 3.4871149
3.6569028 0.5314194 3.4540901
3.6228516 0.57640743 3.4784713
3.6617305 0.58855468 3.4505782
3.6276002 0.62231326 3.4761648
3.6316106 0.66819113 3.4725788
3.6195788 0.72003138 3.4730136
3.6230459 0.78418499 3.4858599
3.6613629 0.77382261 3.4610224
3.6218159 0.82928646 3.475419
3.6658711 0.83162892 3.453701
3.6326625 0.8743971 3.4839447
3.6613646 0.87874353 3.4607828
3.6416392 0.92793679 3.4955602
3.6586466 0.92649913 3.4690819
3.63112 0.97670251 3.487798
3.665776 0.96262544 3.4676526
3.6287315 1.0162703 3.4901917
3.6634178 1.0251312 3.4642823
3.6319768 1.0690544 3.4945796
3.6615107 1.0649763 3.4666328
3.6375399 1.1166896 3.4872942
3.6587071 1.116181 3.4645538
3.6273117 1.1707251 3.4879749
3.6706867 1.1659684 3.4626074
3.6478326 1.2236443 3.4665458
3.6760533 1.2023102 3.4573381
3.6195207 1.2719064 3.4895554
3.6621721 1.2863553 3.4618959
3.6257234 1.3478054 3.4943783
3.6657917 1.3223875 3.4539189
3.6315899 1.373245 3.4921167
3.6547537 1.3848982 3.4668922
3.6417458 1.423736 3.4855261
3.6625991 1.4344842 3.4578509
3.6450996 1.4717407 3.4718812
3.6875134 1.5263854 3.4509635
3.6697969 1.5807709 3.4814105
3.7133768 1.5843631 3.4568748
3.6793199 1.6203507 3.4763603
3.7189786 1.6104252 3.4527178
3.6866477 1.6687998 3.4729252
3.707592 1.6869737 3.4568317
3.677712 1.7252091 3.4795008
3.7120042 1.7127621 3.4509754
3.6822062 1.7729073 3.4722898
3.7008357 1.7901446 3.4535646
3.6911898 1.8209574 3.4778948
3.7187231 1.8227762 3.45965
3.6897123 1.8802599 3.4990282
3.7184956 1.8646215 3.4652293
3.6923687 1.9178044 3.4848285
3.7185061 1.918905 3.4651489
3.6845224 1.9747142 3.4989665
3.7205899 1.9746711 3.4663961
3.7140749 2.032738 3.4811964
3.6802845 2.0828662 3.4919553
3.7137783 2.0794685 3.466301
3.6931863 2.1268356 3.4857423
3.7172437 2.1266851 3.4639058
3.6785951 2.1692653 3.4976759
3.7171171 2.1703987 3.4671876
3.6922414 2.2142088 3.4914713
3.7144756 2.2341843 3.4740379
3.6861455 2.2995067 3.4910142
3.7132313 2.2795153 3.465903
-3.7285404 2.3353109 3.4715538
0.6015988 2.349128 3.4790163
1.1878549 2.3468511 3.4787092
1.3738769 2.3418472 3.4581411
1.4173107 2.3446279 3.4930522
1.5342553 2.3449707 3.4757755
1.5617663 2.3426435 3.4692762
1.7597648 2.3473325 3.4614232
1.9186037 2.3385334 3.473021
3.6722336 2.3355832 3.4799573
3.7076759 2.3223152 3.4533715
-3.7141049 2.3807027 3.4725459
-3.6952143 2.3625727 3.4937358
-1.8525486 2.3955073 3.4580424
-1.8353146 2.3999505 3.4737666
-1.7726202 2.3990271 3.4994624
-1.5650209 2.3915975 3.4749649
-1.5192714 2.3953273 3.4828746
-1.4715843 2.3916848 3.4635141
-1.4175172 2.3851869 3.4712939
-1.3753605 2.3915262 3.4735003
-1.3263955 2.3907216 3.4804409
-1.2814045 2.3942297 3.4853082
-1.2233293 2.393043 3.4681334
-1.1797249 2.3899641 3.4648533
-1.140891 2.3913267 3.4775126
-1.0718623 2.3854542 3.4754934
-1.0333589 2.3908219 3.4621174
-0.97438908 2.3903077 3.4749823
-0.92527986 2.3899198 3.4851184
-0.87749159 2.3847029 3.4767904
-0.82184994 2.3934636 3.470705
-0.7719962 2.389683 3.4740582
-0.72203016 2.3850479 3.4755938
-0.67232466 2.3805625 3.476701
-0.62300754 2.3864264 3.4731143
-0.56916094 2.3835444 3.4760296
-0.52760988 2.3806102 3.4703524
-0.4754279 2.3829136 3.4666784
-0.42427287 2.376884 3.47592
-0.37894428 2.3801954 3.4719887
-0.31650305 2.3840561 3.4729612
-0.27320743 2.3783584 3.477067
-0.2249641 2.3756435 3.4757626
-0.17715092 2.3854811 3.4732385
-0.12960197 2.3824062 3.4894736
-0.066908367 2.382031 3.4712408
-0.023997324 2.3854849 3.4958184
0.020173866 2.382314 3.4759133
0.071850277 2.3748918 3.4797871
0.11987402 2.3774269 3.4824598
0.17692898 2.3720405 3.4726675
0.22456267 2.3698421 3.4673131
0.27255997 2.3718851 3.4676144
0.32518244 2.3675711 3.4673676
0.36308292 2.3676918 3.4806855
0.43460718 2.3737271 3.4832857
0.47501814 2.3707247 3.4681764
0.52506608 2.3704913 3.4816067
0.5782243 2.3596413 3.4744346
0.63130343 2.3617649 3.4743371
0.67455816 2.3663507 3.4649644
0.72064906 2.3608625 3.4790466
0.77713776 2.3561666 3.4622629
0.82664835 2.3596809 3.4585772
0.86930013 2.3511147 3.4774442
0.9205392 2.357996 3.4776609
0.97971839 2.3548944 3.4702206
1.0266491 2.3573413 3.4777188
1.0669401 2.3607242 3.4900696
1.1371984 2.3637347 3.4770231
1.1618882 2.3540728 3.4832602
1.2172209 2.3593318 3.4765339
1.2739407 2.3602507 3.4758565
1.3144789 2.3618805 3.4662831
1.4333658 2.3581662 3.4657149
1.473205 2.3539219 3.4898598
1.5134957 2.3540661 3.4759586
1.6301715 2.3623757 3.4813347
1.8458394 2.3587296 3.4935117
1.8694887 2.3624952 3.4898126
1.9034308 2.3532705 3.4572573
1.9733052 2.3544698 3.4769301
2.0301785 2.3512974 3.4948227
2.0802231 2.3604903 3.487335
2.1069758 2.3551128 3.4631574
2.2092566 2.353554 3.4589953
3.5524001 2.3993478 3.47245
3.6245241 2.3874397 3.4865844
3.6966856 2.3680933 3.4671717
-3.7142057 2.4166276 3.4616568
-3.6862922 2.4270358 3.4730978
-1.9687583 2.4137754 3.4615338
-1.9190276 2.4142404 3.4609766
-1.8227447 2.4106631 3.4984748
-1.7709751 2.4034793 3.4596472
-1.71208 2.4072342 3.4910285
-1.6789329 2.4039221 3.4987376
-1.6221793 2.4012556 3.4695387
-1.4517394 2.4087334 3.4987168
-1.2845013 2.4013119 3.4525521
-1.1653653 2.4010534 3.4863479
-1.1254599 2.4005458 3.4961205
-1.0186328 2.4022884 3.4833956
3.5895603 2.4079239 3.4640729
3.3317628 -0.4660579 3.5099216
3.3348122 -0.42296666 3.5178232
3.3316047 -0.37909293 3.5186512
3.340632 -0.32506648 3.522593
3.3578048 -0.30338275 3.5117452
3.3455114 -0.28151599 3.5207772
3.3542988 -0.26044047 3.5314245
3.3462651 -0.22381693 3.5318515
3.3547642 -0.23786889 3.5128109
3.348088 -0.17309822 3.5361364
3.3565214 -0.18358749 3.5173736
3.3461249 -0.11796094 3.5087936
3.3476968 -0.063754573 3.5115893
3.3605616 -0.0857853 3.5247164
3.3462503 -0.042033877 3.5103223
3.3501043 -0.020363962 3.5145018
3.3545427 0.023104131 3.5190411
3.3433394 0.066780321 3.5474892
3.3518491 0.077405497 3.5154905
3.3677781 0.12482554 3.5173197
3.4661288 0.11168347 3.5096107
3.5465062 0.13599759 3.5482192
3.5828362 0.13615432 3.5213082
3.5843012 0.17039916 3.5424523
3.6067772 0.17043012 3.5224347
3.5880272 0.22688054 3.5432656
3.6144259 0.22118464 3.5167742
3.5897825 0.28337634 3.5413938
3.6131163 0.28347242 3.5221028
3.5793548 0.33309728 3.5271244
3.6128676 0.31726629 3.5193031
3.5468988 0.37137747 3.5335369
3.5669808 0.37116987 3.511498
3.5645645 0.41699541 3.5256083
3.5717185 0.4740901 3.5263674
3.5334435 0.51837236 3.5458941
3.5768766 0.53111625 3.5243654
3.5425313 0.58730644 3.5457172
3.5827253 0.57712507 3.5238926
3.5384588 0.62039196 3.5365491
3.5773873 0.62134272 3.5117953
3.5433867 0.65506786 3.5361149
3.5783298 0.67013049 3.5177312
3.5722382 0.72628284 3.5318468
3.6038551 0.70323002 3.5034368
3.5739594 0.78330505 3.5229044
3.6133871 0.7504862 3.5043974
3.581707 0.83042771 3.5213909
3.5779467 0.87769204 3.5292397
3.608737 0.89109582 3.5143139
3.5695662 0.92397505 3.5320587
3.6106095 0.92579401 3.5083222
3.5782089 0.97190493 3.5298183
3.6132057 0.96072751 3.5027463
3.5834167 1.0222907 3.5450623
3.6016316 1.0209916 3.5200567
3.5730159 1.0711635 3.5361168
3.6109333 1.0695791 3.5171432
3.5776711 1.1158388 3.5364437
3.6165791 1.1172707 3.5100565
3.5841689 1.163923 3.5298362
3.5892317 1.2271068 3.5392275
3.6077137 1.2255818 3.5141261
3.5762115 1.2844136 3.5300128
3.6174505 1.2983943 3.5017393
3.5771446 1.335308 3.5375438
3.5744772 1.3851576 3.5409594
3.610913 1.3741772 3.5155199
3.5806103 1.4224846 3.5348716
3.6197176 1.4358622 3.5036569
3.5829396 1.4982255 3.5336742
3.606277 1.498252 3.512871
3.61955 1.5697941 3.5165279
3.5991857 1.6331574 3.548183
3.6365099 1.6222433 3.5232246
3.6257622 1.6776339 3.5286636
3.656569 1.6733825 3.5012803
3.6303339 1.725188 3.5222313
3.6289742 1.7857813 3.5356026
3.6557055 1.7793641 3.5041118
3.6318748 1.8310747 3.5355921
3.6730444 1.8237786 3.5048826
3.6309319 1.8746721 3.5314677
3.6685498 1.8615714 3.5157318
3.6360199 1.913591 3.5364258
3.6706333 1.9189861 3.5085535
3.6406984 1.9770896 3.5461454
3.6610076 1.9750249 3.5210557
3.6367481 2.0301282 3.5412335
3.6693099 2.0365896 3.5184433
3.6373572 2.0860453 3.5401759
3.6575489 2.0837178 3.5148664
3.6380734 2.1230645 3.5223932
3.6652577 2.1247456 3.5038009
3.6417427 2.1886814 3.5456951
3.6587942 2.171989 3.5235229
3.6485307 2.2174039 3.5393972
3.6688774 2.2362902 3.5202968
3.637594 2.2751915 3.5476906
3.6686342 2.2823348 3.513078
-3.6812391 2.3366876 3.516577
0.60640401 2.3484719 3.5169911
1.0681744 2.3437502 3.5046809
1.1173449 2.3446076 3.5364037
1.1986768 2.3483212 3.5211244
1.2290637 2.3493748 3.5144157
1.2727801 2.3465586 3.5191202
1.3035005 2.3380532 3.5178454
1.39036 2.3498433 3.5106642
1.4230263 2.3339238 3.5180116
1.4707723 2.3459492 3.5226097
1.5296077 2.3384547 3.5352404
1.5797961 2.3374817 3.515439
1.6232537 2.3328943 3.5224693
1.9967728 2.3490031 3.5067916
3.6270721 2.3291807 3.5258923
3.6643107 2.3260014 3.5015779
-3.6677265 2.3812866 3.5281661
-2.0299027 2.3967905 3.5288329
-1.9842653 2.3928578 3.543457
-1.9028299 2.3914552 3.5275521
-1.8216655 2.3916321 3.5388784
-1.7880125 2.3989906 3.5417609
-1.7294204 2.3964663 3.5129437
-1.6129053 2.3973293 3.5131431
-1.5515729 2.3974741 3.5361605
-1.5210397 2.3977549 3.5475233
-1.4775536 2.3975434 3.5163901
-1.4231198 2.3913732 3.5244882
-1.3835001 2.3929045 3.5398889
-1.3172623 2.3837271 3.5304582
-1.2815709 2.3932254 3.5272405
-1.2161402 2.383121 3.5295582
-1.1726741 2.3911283 3.5219688
-1.1180526 2.3861356 3.5175712
-1.0691975 2.3879099 3.5325537
-1.0369656 2.3923008 3.526124
-0.97156483 2.3878202 3.5130551
-0.92767811 2.3837192 3.5326736
-0.87026083 2.3805254 3.522778
-0.83053815 2.3892403 3.5234232
-0.77906334 2.391964 3.5164881
-0.73335367 2.3853581 3.5276966
-0.67895585 2.3844676 3.521436
-0.61996078 2.3879466 3.5252771
