ply
format ascii 1.0
comment PCL generated
element vertex 1500
property float x
property float y
property float z
element camera 0
property float view_px
property float view_py
property float view_pz
property float x_axisx
property float x_axisy
property float x_axisz
property float y_axisx
property float y_axisy
property float y_axisz
property float z_axisx
property float z_axisy
property float z_axisz
property float focal
property float scalex
property float scaley
property float centerx
property float centery
property int viewportx
property int viewporty
property float k1
property float k2
end_header
1.2514343 -0.48584896 2.0250249
1.0329499 -0.020721611 2.0198722
1.0413471 0.010718565 2.0363307
1.4976113 0.091722228 2.0278783
1.4735854 0.12938973 2.0210981
0.69186497 0.18810175 2.0363507
0.72046709 0.18587585 2.0152118
1.4631796 0.17356445 2.013262
0.4749712 0.24958952 2.0462296
0.516379 0.24951674 2.0388489
0.55823809 0.24817382 2.0199125
0.68690681 0.21814078 2.0299783
0.72510964 0.21539344 2.0184426
1.4699992 0.22392309 2.016608
-0.10952798 0.2630055 2.0284355
-0.094744533 0.26734936 2.0247958
0.24825642 0.27529466 2.038568
0.26686531 0.26933613 2.0485406
0.4793191 0.26401916 2.0164208
0.52853554 0.25476217 2.0247838
0.55389982 0.25069982 2.0423336
1.4842715 0.27315366 2.0236397
1.4945807 0.30909491 2.0175288
1.50322 0.33131039 2.024262
1.5196781 0.37804896 2.0213475
1.5369085 0.42753297 2.0191042
1.5480967 0.47685969 2.0067878
1.5540441 0.47715613 2.0302989
1.5489061 0.50036365 2.0031564
1.5625657 0.52823186 2.0158327
1.567541 0.56528115 2.0142853
-0.12702926 -0.50825059 2.0742867
-0.07475996 -0.50405407 2.0730507
-0.037588783 -0.50173593 2.0642154
0.017563662 -0.50076902 2.0603907
0.07339903 -0.50557643 2.0793703
0.12346341 -0.50373048 2.0701993
0.17358184 -0.50297731 2.0647113
0.22659418 -0.50249892 2.0681098
0.27150929 -0.50348347 2.0685699
0.30437756 -0.50295472 2.0545626
-0.93102008 -0.47025523 2.0697005
-0.88414294 -0.46994743 2.082793
-0.82465631 -0.4715476 2.0719416
-0.78741676 -0.47391704 2.07583
-0.71667165 -0.47537819 2.0785539
-0.67560607 -0.4768801 2.0744812
-0.62008989 -0.47990704 2.0796809
-0.57131225 -0.48592067 2.0799146
-0.5140928 -0.48077598 2.066977
-0.47968304 -0.48227072 2.0791502
-0.4220635 -0.48597348 2.0806444
-0.37045199 -0.48235676 2.0771585
-0.32310811 -0.48496342 2.0803502
-0.27229524 -0.48597679 2.0743403
-0.22442138 -0.48415139 2.070214
-0.16999815 -0.49579182 2.0860434
-0.027901497 -0.49941689 2.0764875
0.022510817 -0.49780425 2.0625601
0.11439283 -0.49810126 2.0908613
0.28690568 -0.49748468 2.0772543
0.30690154 -0.4969826 2.0732372
0.66450053 -0.47260681 2.0992157
1.0456702 0.01618721 2.0570924
1.0568467 0.032157492 2.0540688
1.4982296 0.10395873 2.0505524
0.64199471 0.19129655 2.084615
0.66787434 0.18790522 2.0599558
1.476915 0.17888072 2.061903
0.50255084 0.21943271 2.0919442
0.58352804 0.23656528 2.0934818
0.63813341 0.22312072 2.0820243
0.67273676 0.21948662 2.0769453
0.71793407 0.22493359 2.052074
1.4800289 0.22548792 2.0626218
-0.086296558 0.26645738 2.0558426
-0.012454144 0.27011889 2.0852752
0.0025429323 0.26995665 2.0840509
0.24469757 0.26235557 2.0947151
0.27368855 0.27615267 2.0616314
0.46955344 0.25114298 2.060307
0.52511561 0.25374341 2.0734243
1.4908516 0.2766901 2.0682919
1.498624 0.30425519 2.0808034
1.507194 0.3250244 2.0671284
1.5186561 0.36769825 2.0634964
1.5440854 0.41721272 2.0663006
1.5509453 0.42589778 2.0665247
1.5700977 0.47418624 2.0724895
1.5761797 0.51897782 2.0601251
1.6014769 0.54547304 2.0893536
-0.12287232 -0.50708038 2.1208284
-0.074442707 -0.50329924 2.1138914
-0.02622124 -0.50204277 2.1184618
0.031694088 -0.50560099 2.1333568
0.074338026 -0.50192738 2.1081207
0.13643259 -0.50146854 2.1155229
0.17681319 -0.5039584 2.1329041
0.22289729 -0.50489849 2.131968
0.27156821 -0.50292045 2.1321199
-0.97631824 -0.47283345 2.1253209
-0.92363197 -0.47404408 2.148226
-0.88375264 -0.47043952 2.1416638
-0.77551234 -0.47295445 2.1277909
-0.71335828 -0.47011381 2.1288218
-0.67326152 -0.47889903 2.127094
-0.63188016 -0.48043862 2.1302035
-0.57600456 -0.47987241 2.1193364
-0.52673101 -0.48206252 2.1191666
-0.47725031 -0.48371837 2.1162624
-0.42575663 -0.48185259 2.1195228
-0.37502471 -0.47916782 2.127594
-0.32739565 -0.48447165 2.1326449
-0.27944827 -0.48445418 2.1290162
-0.22333038 -0.48909202 2.1286619
-0.17871912 -0.49032298 2.1182406
-0.10632265 -0.49802735 2.1360826
-0.080424607 -0.49830791 2.1380289
-0.023260389 -0.49737662 2.1349549
0.023427583 -0.49845538 2.1395795
0.13683778 -0.49549034 2.1240444
0.30720496 -0.49551696 2.1123195
0.59930366 -0.48994383 2.1424387
0.6107865 -0.48636132 2.1237047
0.65704161 -0.47481057 2.1112745
1.0727773 0.032969922 2.1102724
0.53921938 0.19282958 2.1339529
0.57682902 0.18959269 2.1319113
0.61749387 0.18987969 2.1157141
0.52670091 0.2231497 2.124922
0.57619917 0.21951169 2.1402104
0.62157625 0.22308166 2.1264944
1.5258785 0.24025816 2.1494939
-0.038149476 0.26484933 2.1238828
0.25787449 0.26553625 2.1193058
1.5231118 0.25179321 2.1445024
1.5286076 0.33418399 2.1195307
1.5704104 0.38928518 2.146976
1.5788351 0.43087584 2.1281376
1.6110569 0.49151519 2.1378751
1.6222599 0.51348269 2.1491728
1.6336373 0.58123159 2.1258101
1.6537189 0.61330086 2.1461906
-0.15473585 -0.5036214 2.1581831
-0.13446026 -0.50617081 2.1700282
-0.065210551 -0.50242329 2.1844382
-0.018531192 -0.50063413 2.1804922
0.016023844 -0.50133067 2.1874728
0.075981289 -0.5027281 2.1571026
0.11665384 -0.50231963 2.1731417
0.19506066 -0.50216234 2.1973739
0.22110704 -0.50463802 2.1777682
0.27452573 -0.5034824 2.1854844
0.48661137 -0.50528431 2.180939
0.53801715 -0.51377481 2.1611626
-0.93257302 -0.47031686 2.1854658
-0.7732572 -0.47209606 2.1795695
-0.73143619 -0.47571832 2.165693
-0.67987823 -0.479141 2.18014
-0.62275237 -0.47860092 2.1739135
-0.56851923 -0.4794223 2.1766434
-0.52266794 -0.48059812 2.1723595
-0.47436285 -0.47962099 2.1795628
-0.42950031 -0.48015499 2.1753011
-0.37306756 -0.48146951 2.1631527
-0.3262637 -0.48084834 2.1737516
-0.27361679 -0.48884943 2.1815398
-0.23304074 -0.48738265 2.1780283
-0.17858675 -0.49097571 2.1765606
-0.10316889 -0.49747613 2.1809015
-0.06099407 -0.49886131 2.1880279
-0.018547414 -0.49927032 2.1903329
0.066427425 -0.49914259 2.1891465
0.23658505 -0.49958616 2.1833296
0.29781768 -0.49533427 2.1595857
0.48941386 -0.49738121 2.1951659
0.53010178 -0.48397812 2.1913867
0.57778627 -0.48729128 2.1707118
0.6098786 -0.48346019 2.161694
0.54989034 0.17897511 2.1553757
0.56126565 0.17924902 2.1568387
0.48911002 0.23270783 2.1725874
0.53847301 0.21019645 2.1516531
0.60459352 0.22184666 2.1506946
1.5326216 0.22324485 2.1605363
0.044112846 0.26962769 2.1621382
0.27024558 0.26409197 2.1926277
0.3132064 0.26321381 2.1814854
1.5384029 0.27853188 2.1636372
1.5476567 0.31917301 2.1967266
1.5552263 0.3243261 2.1825507
1.5653286 0.37421051 2.1783617
1.5814829 0.42279473 2.1770091
1.5962015 0.46909788 2.177536
1.6080203 0.48604405 2.1654575
1.6166233 0.53133947 2.1675918
1.6283933 0.5756762 2.1699071
1.6375879 0.61350149 2.1670709
-0.16047736 -0.50054651 2.2415483
-0.12884697 -0.50461709 2.2212427
-0.083175965 -0.50463045 2.2128673
-0.029334957 -0.50206685 2.2025239
0.029483194 -0.50315833 2.2073097
0.084691621 -0.50251865 2.2035406
0.12984236 -0.50308973 2.2293661
0.17484912 -0.50318998 2.2128673
0.23631413 -0.50291657 2.214536
0.2705245 -0.50283027 2.2281075
0.32014203 -0.50484133 2.2160568
-0.89258105 -0.46454805 2.2279134
-0.75209045 -0.4731068 2.2477512
-0.74286348 -0.47843036 2.218544
-0.6731829 -0.47838405 2.2334428
-0.62001693 -0.47530568 2.2287066
-0.57517529 -0.47869167 2.2258737
-0.52998459 -0.47800815 2.2162993
-0.47207987 -0.48021042 2.2221
-0.42614836 -0.483502 2.2333264
-0.3736482 -0.48366311 2.2245545
-0.31840616 -0.48710459 2.2331369
-0.27587739 -0.48362079 2.2181816
-0.22486942 -0.48962316 2.2307856
-0.19377822 -0.49131683 2.2489944
-0.10518083 -0.49638724 2.225039
-0.072831281 -0.49655384 2.2266059
-0.035221279 -0.49910015 2.2386613
0.024311628 -0.49655169 2.2272968
0.072970651 -0.49683374 2.2278779
0.12180598 -0.49779916 2.2307599
0.17083752 -0.49869582 2.2327175
0.2193259 -0.4980557 2.2270491
0.2732338 -0.49763703 2.2212155
0.31775263 -0.49956045 2.225966
0.49213389 -0.48920786 2.2263956
0.5115397 -0.48148432 2.2089739
0.55155391 -0.48280701 2.222285
1.5562439 0.23460819 2.2175295
0.24131727 0.26518333 2.2040224
0.27842918 0.26517636 2.2010736
1.5491922 0.29494083 2.2016511
1.5511798 0.27073666 2.2069647
1.5626799 0.34702602 2.2150948
1.5728182 0.37421414 2.2262201
1.5835714 0.4360384 2.2077124
2.1174839 2.3541775 2.2374363
-0.15135634 -0.50644255 2.2684546
-0.13022327 -0.50436497 2.2857695
-0.013603155 -0.50218976 2.2526767
0.12331816 -0.50397843 2.2585211
-0.72907799 -0.47280332 2.2513978
-0.6863088 -0.47437567 2.268532
-0.62713146 -0.47520423 2.2843115
-0.57656997 -0.47555718 2.2835784
-0.51648384 -0.4802072 2.270436
-0.47216684 -0.48052603 2.2784441
-0.42185187 -0.48016244 2.2721953
-0.37194526 -0.48041031 2.2810149
-0.32045561 -0.48255163 2.2727942
-0.2679103 -0.48590469 2.2823167
-0.22435775 -0.48749837 2.2821007
-0.17985976 -0.49257043 2.2818565
-0.11173809 -0.49511877 2.2876971
-0.075824618 -0.49220994 2.2774696
-0.02362535 -0.49324328 2.2737591
0.02473614 -0.49294004 2.2618203
0.078012414 -0.49493051 2.2807052
0.12397148 -0.49569446 2.2723279
0.17381473 -0.4965618 2.2741776
0.22313809 -0.49560595 2.2669244
0.27270365 -0.49568123 2.2637005
0.31619298 -0.49479276 2.2558489
0.49576029 -0.49281552 2.2788699
0.73449862 -0.46854028 2.2884562
1.5662527 0.28805405 2.2518418
1.5685408 0.30726343 2.2531574
-2.156707 2.3880403 2.263108
-2.1467907 2.3962317 2.282414
2.0476146 2.3520668 2.2805698
2.0998001 2.3726289 2.2777719
2.1264665 2.3653738 2.2751482
2.1788669 2.3675113 2.2766447
2.2015941 2.3554132 2.2620838
-2.207073 2.406821 2.2987387
-2.1344101 2.4017844 2.2992575
-0.15577194 -0.50988692 2.3362842
-0.13361743 -0.50046861 2.3477881
0.6479404 -0.50667256 2.319808
-0.75907445 -0.47686106 2.3264678
-0.72407341 -0.47679961 2.3337593
-0.67569596 -0.47711426 2.3147569
-0.60864925 -0.47299603 2.3363554
-0.52576607 -0.47822347 2.3284531
-0.42350361 -0.47748381 2.3268809
-0.37412485 -0.47976327 2.3438311
-0.30699068 -0.48448384 2.3163126
-0.27518365 -0.48463663 2.3196676
-0.22338533 -0.48646158 2.3321328
-0.17852844 -0.49127617 2.3391764
-0.11777487 -0.49007729 2.3361156
-0.080749728 -0.48994103 2.3328261
-0.027020885 -0.49397039 2.3196433
0.025234893 -0.49307171 2.3154302
0.076192439 -0.49319339 2.3290048
0.12619871 -0.49322301 2.3139739
0.17664909 -0.49311882 2.3113253
0.2203031 -0.4958455 2.3327215
0.27837399 -0.49296016 2.324677
0.32599679 -0.49302328 2.3278723
0.72175598 -0.47519478 2.3259361
1.9935324 2.3685913 2.3417361
2.029459 2.3619103 2.3276792
2.0771158 2.3681686 2.3177533
2.1226339 2.3679521 2.3253267
2.1748047 2.3647249 2.3223212
2.2317076 2.3765936 2.3301563
2.2697167 2.3783448 2.32423
2.3206201 2.3812006 2.3463807
-2.2255318 2.4184256 2.3352838
-2.1703691 2.4146976 2.3357728
-2.1278007 2.4147243 2.3371761
-2.0902321 2.4108913 2.3426685
-0.15931873 -0.50990814 2.3911276
-0.14595626 -0.51524156 2.361304
-0.76864719 -0.47472399 2.3769174
-0.73056132 -0.47313228 2.3765881
-0.6744417 -0.47528663 2.3992801
-0.64099526 -0.47254676 2.3909264
-0.52784431 -0.47822773 2.3763745
-0.46984982 -0.47851056 2.3707929
-0.41960323 -0.47453281 2.3718607
-0.36772239 -0.47865143 2.3784838
-0.32439506 -0.48229378 2.3612666
-0.28203925 -0.4805558 2.3710508
-0.23271771 -0.48278823 2.3708386
-0.16972372 -0.49486285 2.3756149
-0.066119552 -0.48876882 2.3783066
-0.025652777 -0.49168441 2.3642037
0.025873741 -0.4930881 2.3709404
0.076639861 -0.4905324 2.3808377
0.1197192 -0.49024132 2.3744459
0.17274551 -0.49031913 2.3630517
0.22961137 -0.49064487 2.3663442
0.27433214 -0.49052814 2.3771281
0.33473119 -0.48886403 2.3929393
0.35144946 -0.48781645 2.3861613
0.66995108 -0.47963274 2.3594918
0.70448518 -0.47923791 2.3506021
0.67656064 -0.35439473 2.3981435
0.67518491 -0.31829947 2.3965402
0.58890468 -0.26943919 2.3998208
0.63111889 -0.27604911 2.3953047
0.67334902 -0.27418783 2.3867924
0.59470576 -0.23154323 2.3929799
0.62870914 -0.22798616 2.391058
0.67564857 -0.22828309 2.3814619
0.59326863 -0.17247717 2.3959122
0.62679595 -0.17483431 2.3866634
0.67295665 -0.17305815 2.3812735
0.58821285 -0.12001435 2.3950005
0.62631446 -0.12225722 2.3869824
0.67385787 -0.12243747 2.381762
0.59409672 -0.075754784 2.3970625
0.62687725 -0.075713791 2.3904052
0.67383432 -0.075730272 2.382952
0.59562325 -0.025595244 2.3973625
0.62571889 -0.029017402 2.3866374
0.673087 -0.02905268 2.380924
0.59248751 0.023399858 2.3966603
0.62673789 0.021440936 2.387974
0.67231482 0.023367016 2.3782287
0.54974341 0.058240093 2.3972323
0.58059186 0.068970859 2.397392
0.62488663 0.07565093 2.382808
0.67216831 0.075747974 2.3768702
0.58144397 0.11937048 2.3961036
0.62516367 0.12221956 2.3824849
0.67202532 0.1222682 2.3751006
0.58492357 0.16601045 2.3993423
0.62297207 0.15393898 2.3869145
0.67848533 0.15150513 2.3751354
-2.0249455 2.3955064 2.3620036
1.924192 2.367542 2.3852723
1.9733067 2.3665144 2.3718407
2.0171919 2.3604627 2.3738482
2.0702605 2.3731484 2.3789051
2.1218348 2.3646023 2.3717582
2.1726995 2.3732431 2.3720031
2.2256122 2.374444 2.3797894
2.279747 2.3667257 2.3649549
2.3381441 2.3720529 2.3760636
2.3702559 2.3772449 2.3695879
2.4141181 2.3756571 2.3869584
2.4578984 2.3643401 2.3953607
-2.3834581 2.4086244 2.3908246
-2.3208776 2.4180987 2.3780892
-2.2779269 2.4194498 2.3744934
-2.2256091 2.4106839 2.3748615
-2.1838257 2.4119155 2.3634615
-2.1309009 2.4109442 2.3768609
-2.0745623 2.4143124 2.3786871
-0.15607384 -0.50672579 2.4333498
-0.14282641 -0.50730193 2.4078069
-0.71183503 -0.47243944 2.4429743
-0.68494236 -0.47247794 2.4151132
-0.61889964 -0.4783116 2.4253507
-0.5834291 -0.47868311 2.4332104
-0.51167256 -0.47870749 2.4441342
-0.40865198 -0.48212403 2.411839
-0.35958192 -0.47942901 2.4033015
-0.32239771 -0.48219514 2.4207807
-0.2226152 -0.48397952 2.4251437
-0.18421942 -0.49140215 2.4161727
-0.12679143 -0.49260578 2.4395285
-0.073091038 -0.49234894 2.4246964
-0.026313687 -0.49167305 2.4220161
0.026321035 -0.49184203 2.4228368
0.068984181 -0.48554182 2.4110601
0.13790947 -0.48683107 2.4255564
0.17329608 -0.48731503 2.426471
0.22039562 -0.48953733 2.4249136
0.27949873 -0.48898253 2.4343359
0.3235378 -0.48760545 2.4278185
0.35989088 -0.4876391 2.4450622
0.56485164 -0.48997495 2.4311311
0.68550128 -0.47879407 2.4158852
0.68637812 -0.44344613 2.4236073
0.54155588 -0.30765599 2.4293973
0.56942719 -0.30673563 2.4176538
0.61817646 -0.30750641 2.4160211
0.68119359 -0.32710376 2.4171877
0.53857857 -0.27655599 2.4183629
0.57202178 -0.27661365 2.4101741
0.60736001 -0.2750656 2.4048569
0.53640103 -0.22853778 2.4118006
0.56922483 -0.22692759 2.4076989
0.53529322 -0.17541984 2.4097254
0.56662387 -0.17706953 2.4076428
0.53482318 -0.12266907 2.4097254
0.56237781 -0.12514916 2.4084837
0.53686064 -0.076186515 2.4201691
0.56768006 -0.075941071 2.4072897
0.53459388 -0.029156305 2.410605
0.5689016 -0.030327423 2.4072394
0.53584629 0.023520734 2.4162617
0.56535959 0.023445277 2.406317
0.62348336 0.041062389 2.4013119
0.53533083 0.076100878 2.4131966
0.56921315 0.087638497 2.4024084
0.53397465 0.12261106 2.4057629
0.56155455 0.12847196 2.4016588
0.36868653 0.1887947 2.4499085
0.53538549 0.16974045 2.4101992
0.56304961 0.16611814 2.4043355
0.6001088 0.16400144 2.4018748
1.8341793 2.3618803 2.4339569
1.8890464 2.3685312 2.4294384
1.9359269 2.3659003 2.4289446
1.9747703 2.3621051 2.4146225
2.0467384 2.3788617 2.4452674
2.0799313 2.3766444 2.4194441
2.128407 2.3738916 2.4242716
2.1769576 2.3749974 2.4248619
2.2257688 2.3712668 2.4279733
2.2777829 2.3692136 2.4252419
2.3287468 2.3688281 2.4209414
2.3737144 2.3669765 2.4265692
2.425709 2.3685853 2.4258754
2.4758866 2.371968 2.4412699
2.5397179 2.3699067 2.4374559
-2.4299181 2.4184129 2.43379
-2.3647633 2.4174142 2.4187412
-2.3202882 2.4182637 2.4293337
-2.2702785 2.4219992 2.4266906
-2.2235475 2.4196365 2.4333501
-2.1787741 2.4179764 2.4185145
-2.1245048 2.4097013 2.4278991
-2.0766463 2.4107151 2.4335952
-2.0247312 2.4146621 2.4189103
-1.9733897 2.4172142 2.4290526
-0.16602148 -0.50720859 2.4950373
-0.56554735 -0.48382825 2.4631829
-0.46419975 -0.4791351 2.4526765
-0.41997162 -0.47936609 2.4808652
-0.37528273 -0.48035485 2.4691045
-0.33453438 -0.48215556 2.4823442
-0.27333739 -0.48856649 2.4780214
-0.21383709 -0.48192975 2.4899347
-0.18690495 -0.48662469 2.4526064
-0.11652221 -0.49308708 2.4727345
-0.074954227 -0.49183914 2.4828572
-0.026870981 -0.49099362 2.4792356
0.020940747 -0.4891482 2.4699564
0.074554399 -0.48646131 2.4681506
0.11596476 -0.48733902 2.4591098
0.18275739 -0.49114388 2.4757018
0.22797616 -0.48321646 2.4703865
0.26993868 -0.48546931 2.4835558
0.3253268 -0.48323384 2.4887779
0.35866138 -0.48207021 2.479713
0.69549388 -0.4250434 2.4587095
0.70468217 -0.36278659 2.4526186
0.27341831 -0.30035049 2.4975772
0.23318192 -0.26964504 2.4961991
0.27229586 -0.27256262 2.4893885
0.32429293 -0.27546465 2.4784234
0.36680999 -0.2742745 2.4727693
0.23685366 -0.2397542 2.4987488
0.27685776 -0.22300844 2.4884148
0.32612088 -0.2219815 2.4794829
0.36558837 -0.21986434 2.4680164
0.23651406 -0.17357628 2.4986575
0.27274457 -0.17181905 2.4881613
0.32394779 -0.17233141 2.4742064
0.36514071 -0.17211649 2.4674158
0.23260096 -0.12789211 2.4972062
0.27165499 -0.12531309 2.491014
0.32342285 -0.12456512 2.4719763
0.36487854 -0.12452255 2.4675083
0.23738822 -0.074094988 2.4983222
0.27144808 -0.077509217 2.490335
0.32381058 -0.077189043 2.4761746
0.3640523 -0.076911665 2.4632058
0.23958628 -0.031025678 2.4967291
0.27566516 -0.030668264 2.4863784
0.32736304 -0.02854987 2.4715457
0.36413389 -0.029553376 2.4643507
0.2378744 0.023907579 2.495549
0.27124846 0.023876807 2.4892581
0.32332635 0.023775833 2.4730413
0.3638885 0.023722423 2.4626958
0.23441853 0.080654748 2.4953125
0.27283809 0.07852751 2.486836
0.3243773 0.076166913 2.4707971
0.36346126 0.076856807 2.4590616
0.22987562 0.12540625 2.4936807
0.27536771 0.12403188 2.481755
0.32699922 0.12548026 2.4667671
0.36307687 0.12401301 2.455174
0.19458438 0.19158001 2.4996035
0.23118944 0.17170903 2.4942458
0.27135751 0.17297968 2.4863048
0.32367283 0.17226735 2.4717898
0.36318213 0.16915466 2.4599099
0.23255125 0.21043114 2.4928222
0.27119058 0.20862938 2.4830165
0.32324165 0.20762804 2.4668894
0.36132503 0.20481189 2.4532712
-1.8148265 2.392554 2.4919119
1.7681624 2.3649771 2.4793408
1.8259754 2.3660164 2.4753568
1.8726734 2.3588252 2.4754701
1.9167008 2.357466 2.4759297
1.9714252 2.3728426 2.4854374
2.021183 2.3709655 2.4706736
2.0748944 2.3702335 2.4716578
2.1252387 2.3723276 2.4665778
2.1764257 2.3714876 2.4733775
2.2263196 2.3684559 2.4775267
2.2764869 2.3744411 2.4971914
2.3131754 2.3747694 2.4718184
2.3716066 2.3692932 2.4810519
2.4226227 2.3650424 2.4673331
2.4814799 2.3675478 2.4755013
2.5206952 2.3682778 2.4952216
2.5716927 2.3629429 2.4639032
2.6267624 2.377677 2.4823854
-2.4536355 2.4047725 2.4687295
-2.4224513 2.4108117 2.4711449
-2.3809133 2.4155092 2.4710484
-2.3262494 2.415961 2.4877796
-2.2787092 2.4132874 2.4719331
-2.2292547 2.4175129 2.4692967
-2.1824427 2.4239869 2.4685922
-2.138176 2.4046609 2.4672048
-2.0764606 2.4125624 2.4682617
-2.0351791 2.4150321 2.4819982
-1.9787675 2.4080756 2.4731717
-1.9279381 2.4145417 2.470597
-1.873311 2.4121716 2.485249
-1.8441002 2.4081814 2.4974325
-0.15423709 -0.50817674 2.5003097
-0.66312963 -0.46873391 2.5007861
-0.54042923 -0.48169956 2.5223253
-0.43926424 -0.47916701 2.5217535
-0.35342345 -0.47941956 2.5320079
-0.31048837 -0.48050702 2.5193403
-0.26345155 -0.48163009 2.5244784
-0.22947812 -0.48359045 2.5303895
-0.17266013 -0.49297327 2.5234575
-0.12857635 -0.48490772 2.5222709
-0.075722069 -0.48513672 2.5118041
-0.030978167 -0.48384339 2.5186715
0.024956614 -0.48299098 2.5143373
0.070160292 -0.48144272 2.5252609
0.11977116 -0.48415753 2.5242028
0.17136903 -0.48256338 2.5170658
0.23390141 -0.48585278 2.5091584
0.31899899 -0.48594049 2.5034418
0.37407252 -0.48212904 2.5445862
0.58228511 -0.4839232 2.5281432
0.088444985 -0.30475417 2.5430212
0.12444928 -0.30351061 2.5316207
0.1786899 -0.3026914 2.5226839
0.22704251 -0.30249175 2.5184927
0.039733633 -0.28687817 2.5488002
0.071292281 -0.27520502 2.5427384
0.1243429 -0.27283925 2.5310235
0.17802861 -0.27146775 2.5160584
0.21153797 -0.27059099 2.506115
0.039658885 -0.2193179 2.5482683
0.071203284 -0.22379141 2.5428326
0.12431772 -0.22429076 2.5334432
0.17765291 -0.22275181 2.5139129
0.22361243 -0.21966453 2.5060127
0.25837123 -0.21621561 2.503993
0.039628409 -0.17652951 2.5484142
0.071577109 -0.17621158 2.5382719
0.12544215 -0.17527013 2.5330079
0.17767963 -0.17458744 2.5165274
0.22327885 -0.17392623 2.5045662
0.25572675 -0.19246295 2.5089703
0.075825013 -0.12730478 2.5393245
0.12811281 -0.12788762 2.5281138
0.17754717 -0.12633364 2.5167084
0.21069928 -0.12176663 2.5036104
0.033491209 -0.072928593 2.5482421
0.079371393 -0.079866566 2.5401466
0.12979697 -0.078422822 2.5273335
0.17731427 -0.078088202 2.514395
0.21888615 -0.079542108 2.5066359
0.039558139 -0.024277912 2.5476892
0.075784713 -0.029589437 2.5393362
0.12816438 -0.029825168 2.5307789
0.1775379 -0.030045209 2.5183823
0.21787763 -0.02940871 2.5083165
0.03553794 0.020309612 2.5499079
0.075772285 0.024275072 2.5394752
0.12970629 0.024158131 2.5262883
0.17746 0.024089491 2.5171266
0.21878956 0.024006054 2.5062251
0.02893774 0.080613397 2.5485065
0.075736471 0.078773476 2.5372424
0.12981218 0.078498542 2.5274932
0.17732193 0.07816422 2.5146587
0.21434678 0.074966796 2.5063393
0.030471064 0.11258236 2.5486698
0.076737277 0.12633523 2.5425556
0.12666483 0.12836978 2.5305109
0.17773709 0.12655456 2.5192099
0.20673898 0.12585275 2.5039368
0.039648775 0.19496624 2.5486484
0.072511427 0.17794071 2.5419075
0.12415369 0.1756352 2.5324922
0.17626771 0.17327118 2.5136876
0.20939592 0.17759922 2.5048454
-0.0090670213 0.21893334 2.5428863
0.027437665 0.21605766 2.544872
0.075842813 0.21228898 2.5357358
0.12959829 0.21096665 2.5186245
0.17723693 0.2102586 2.5081573
0.21120238 0.2081966 2.5057714
1.6487057 2.3653674 2.5498595
1.6922873 2.378516 2.5444345
1.7246548 2.3670402 2.5282657
1.7785802 2.3643892 2.5321856
1.8191669 2.3622501 2.5142102
1.87598 2.3630807 2.5313084
1.9336545 2.3626924 2.5357285
1.9782666 2.3739767 2.5248904
2.0241151 2.3684669 2.5284877
2.0678399 2.3693838 2.5295315
2.1293323 2.3743815 2.5216441
2.1750884 2.3670363 2.5219085
2.2221413 2.3651066 2.5193017
2.2785819 2.3678491 2.5295737
2.3374691 2.3781502 2.5211227
2.370821 2.3684022 2.52613
2.4300675 2.3670714 2.5237586
2.4758406 2.3612258 2.5151069
2.5311537 2.3679938 2.5348186
2.5802131 2.3689008 2.5246058
2.6213291 2.3660514 2.5252581
2.6595609 2.3602877 2.5226705
2.7193964 2.3682179 2.5429337
-2.4519596 2.4026759 2.5125015
-2.4199893 2.4081056 2.545217
-2.3663738 2.4166434 2.5212648
-2.323935 2.4142015 2.531745
-2.2819974 2.4177971 2.5219767
-2.2467575 2.4181495 2.502353
-2.1727555 2.4161236 2.5279157
-2.1244297 2.4207556 2.5245421
-2.0808291 2.4212441 2.5328355
-2.0374169 2.4209735 2.5325148
-1.9721727 2.4044535 2.520611
-1.9251177 2.4136639 2.5268636
-1.8815787 2.4120665 2.5311129
-1.82584 2.4097285 2.5314171
-1.7852656 2.4110785 2.5377138
-0.31883535 -0.48290095 2.553632
-0.29857871 -0.4777391 2.596348
-0.20860234 -0.48575726 2.5763202
-0.17395645 -0.4800109 2.5729897
-0.12120324 -0.48008236 2.5769784
-0.077587031 -0.48453814 2.5745811
-0.024163956 -0.47914976 2.5738273
0.015551955 -0.48347893 2.5697005
0.078283228 -0.48808956 2.5934808
0.13251337 -0.48049223 2.5516193
0.17785352 -0.48654523 2.5820425
0.21837492 -0.48410559 2.5669765
0.2707504 -0.48528677 2.5700076
0.31950712 -0.48688874 2.5748761
0.35389566 -0.48841298 2.5800982
0.07670413 -0.30655718 2.5583227
-0.17130274 -0.28035831 2.5990415
-0.12493639 -0.27106279 2.5957942
-0.076123349 -0.27734649 2.5854387
-0.027700666 -0.27722019 2.5733578
0.018842649 -0.27373838 2.5574009
0.051983431 -0.25655323 2.5527453
-0.15857244 -0.23012009 2.5983295
-0.12721755 -0.22965522 2.5940609
-0.077186167 -0.22853938 2.5826392
-0.027577005 -0.22706917 2.5667095
0.017213147 -0.22772621 2.5581572
0.051997054 -0.24439903 2.5541844
-0.16153629 -0.18640964 2.598058
-0.12581626 -0.18097799 2.5929303
-0.077066444 -0.17883892 2.5815048
-0.027571402 -0.17785472 2.5676386
0.015323308 -0.17724858 2.5588982
-0.17083716 -0.13046113 2.5995603
-0.12189005 -0.13223557 2.5954211
-0.077068806 -0.12947887 2.5829451
-0.027520975 -0.12861146 2.5660543
0.021410197 -0.1281696 2.5573738
0.051825993 -0.10960091 2.5517099
-0.1706617 -0.074457526 2.5982914
-0.11603109 -0.085099243 2.5927258
-0.076976001 -0.080072276 2.5814755
-0.02752167 -0.079616517 2.5676818
0.019658372 -0.080221765 2.5589347
0.055859979 -0.073032245 2.5512769
-0.15826862 -0.037216626 2.5996716
-0.12551942 -0.029515075 2.5947897
-0.076849148 -0.030719619 2.5774488
-0.027547285 -0.03061809 2.5695953
0.020158026 -0.030854385 2.5550921
0.051918082 -0.048780277 2.5574286
-0.15809035 0.03104094 2.5967484
-0.12296623 0.021687694 2.5927341
-0.076979093 0.024678282 2.5819201
-0.027535731 0.024533616 2.5681579
0.018860828 0.025137251 2.5551317
-0.15831856 0.086986884 2.599642
-0.12355413 0.079089455 2.5926871
-0.076964147 0.080131702 2.5812378
-0.027543353 0.079684198 2.5677805
0.013751148 0.077678911 2.5522387
-0.15805341 0.14264852 2.5936427
-0.12553738 0.13156761 2.5928967
-0.076996066 0.12943329 2.5804527
-0.027566217 0.12879904 2.5684602
0.018351244 0.13325003 2.5556366
0.055917431 0.12597893 2.5524399
-0.16439338 0.19862385 2.593226
-0.12372159 0.17933713 2.5929556
-0.077053033 0.17887236 2.580411
-0.027553059 0.17783754 2.5661626
0.020190589 0.17585145 2.5552039
0.051901828 0.16472957 2.5533552
-0.15801337 0.21079834 2.58992
-0.12247782 0.21415247 2.5816896
-0.072715171 0.21307562 2.5699482
-0.030167589 0.21372807 2.5639966
0.015318701 0.21077491 2.554996
1.6957949 2.3488605 2.5773766
-2.738111 2.3928866 2.5757937
-1.9454035 2.3987849 2.5853779
-1.8786472 2.3999085 2.5869324
1.5426486 2.3602231 2.5998738
1.5744716 2.3567255 2.5780044
1.6230723 2.3660395 2.5807188
1.6765902 2.3634012 2.5704517
1.7355522 2.3580332 2.5816672
1.7712388 2.3612175 2.5790265
1.8280971 2.3573551 2.5686908
1.8814788 2.3634293 2.5700624
1.9268037 2.3676569 2.5763061
1.980937 2.3711202 2.5755579
2.0174978 2.3636847 2.5682402
2.0783501 2.3642433 2.5722468
2.1233568 2.3689153 2.5793362
2.1642919 2.3621399 2.577105
2.2322462 2.3769743 2.5782022
2.2771142 2.3669536 2.5750725
2.3318882 2.3758922 2.5753112
2.3684025 2.365881 2.5781476
2.4248679 2.3659322 2.5769985
2.4723382 2.3659201 2.574259
2.5112016 2.3663702 2.5708342
2.5697138 2.3663254 2.5765271
2.6789751 2.3569069 2.5767264
2.7087531 2.3660581 2.5720825
-2.7841361 2.4158707 2.5857079
-2.7221894 2.4070799 2.5644474
-2.4555726 2.4057574 2.5626049
-2.3723123 2.4167118 2.5791311
-2.3246737 2.4059539 2.5629406
-2.2817755 2.4186034 2.5690589
-2.2102151 2.4198198 2.5754213
-2.1738148 2.4192674 2.5770149
-2.1177523 2.4160235 2.5725708
-2.0723348 2.4142542 2.5707002
-2.0312731 2.4170058 2.5733511
-1.9750532 2.4118159 2.572932
-1.9216871 2.4093895 2.5747716
-1.8640451 2.4102998 2.5703826
-1.8161283 2.4113722 2.5601501
-1.7655991 2.4067888 2.5733614
-1.7265044 2.4142258 2.5770824
-1.6798859 2.4100254 2.5975523
-0.26165503 -0.47920406 2.6069865
-0.21256395 -0.47810516 2.6276197
-0.17321636 -0.46617067 2.6109316
-0.13940352 -0.47519839 2.6268532
-0.078862853 -0.4800708 2.6195078
-0.030489018 -0.47579685 2.6205568
0.022216251 -0.48046139 2.6223578
0.073184982 -0.48282558 2.6346614
0.11765541 -0.47994483 2.6356728
0.17524265 -0.48402011 2.6380455
0.22529167 -0.48206913 2.6248837
0.27628729 -0.48250702 2.6240866
0.32791561 -0.48380557 2.6273043
0.36850452 -0.48689067 2.6407313
-0.16753633 -0.42360577 2.625797
-0.16172408 -0.37424389 2.6395423
-0.16608119 -0.318753 2.6266
-0.12613066 -0.3003107 2.6103265
-0.16713722 -0.26778802 2.6119163
-0.13820831 -0.291049 2.6022656
-0.096635051 -0.2993812 2.6030827
-0.16956115 -0.22788729 2.6028972
-0.17133376 -0.16944276 2.6054263
-0.14604487 -0.16160369 2.6005883
-0.16269289 -0.13057126 2.6020904
-0.14287353 -0.1242495 2.6008031
-0.16406201 -0.08178813 2.6061652
-0.13822594 -0.076094538 2.6023521
-0.16581063 -0.030221086 2.6063573
-0.13346064 -0.037220776 2.6010175
-0.16878438 0.022239834 2.6121399
-0.14324476 0.037422538 2.6091983
-0.1657704 0.080047689 2.6050277
-0.14192651 0.087069623 2.6032579
-0.16710548 0.12671103 2.6060231
-0.13381217 0.12458418 2.6062853
-0.16519199 0.17463863 2.6068275
-0.14203821 0.18257709 2.6020882
1.677314 0.24258 2.6274772
-1.7753069 2.3979833 2.6051996
-1.5597161 2.3995941 2.6473916
1.4755584 2.3622055 2.6366701
1.5241967 2.361203 2.6235816
1.5732374 2.3676691 2.6235707
1.6169692 2.363977 2.633975
1.672497 2.3590951 2.6299815
1.7262789 2.352684 2.6260912
1.7734814 2.3603032 2.6308212
1.8215568 2.3595731 2.6259601
1.8812673 2.3676865 2.6191101
1.9203407 2.3696146 2.6298084
1.9742678 2.3671942 2.6239748
2.0242853 2.3651326 2.6245542
2.0780098 2.3663032 2.6204245
2.1284506 2.363745 2.6270831
2.1638856 2.3541245 2.6318369
2.2270601 2.3679152 2.6237497
2.2685022 2.3683186 2.6304085
2.3183603 2.3719153 2.6251035
2.3727365 2.3700588 2.6305428
2.4282131 2.368674 2.6280365
2.4770784 2.3695278 2.6264491
2.5207717 2.3650024 2.6186311
2.5628135 2.3610523 2.6299052
2.6027036 2.3676009 2.629431
-2.8285198 2.4094188 2.6261654
-2.7928514 2.4121096 2.6235046
-2.5168483 2.4271371 2.6379337
-2.2781224 2.4160655 2.62921
-2.2210388 2.4135597 2.618233
-2.1700449 2.4171362 2.6212614
-2.1171134 2.4178231 2.6206324
-2.0752342 2.4108918 2.6221979
-2.0259814 2.4146829 2.6240075
-1.9717726 2.4131529 2.6346328
-1.9315974 2.4150338 2.6200068
-1.8744271 2.4083328 2.6238048
-1.8316898 2.4215133 2.6178889
-1.7750444 2.4006286 2.6299791
-1.7253329 2.4076107 2.6244025
-1.6670073 2.409126 2.6300848
-1.6282493 2.4110332 2.6275892
-1.5906637 2.4070122 2.6418881
-0.2645441 -0.47506109 2.6808541
-0.21501897 -0.47502223 2.6586597
-0.1506808 -0.46176732 2.6606288
-0.10713187 -0.47412062 2.6951098
-0.061066631 -0.47604695 2.6696358
-0.02892554 -0.47655684 2.6728048
0.024945011 -0.47960296 2.6899331
0.061550401 -0.4790957 2.6867313
0.11937271 -0.47720632 2.6748633
0.17667732 -0.47523135 2.6616929
0.28961584 -0.4814446 2.6901984
0.3270095 -0.47902748 2.6737618
0.36609119 -0.47941017 2.6725695
-0.15087356 -0.44306573 2.6661687
-0.17631802 -0.37831816 2.6678441
-0.16321811 -0.33932871 2.6675508
-0.11892328 -0.32161987 2.6830888
-0.18860094 -0.11506525 2.6752331
-0.18819405 -0.068058938 2.6704559
-0.1888241 -0.038378254 2.6797953
-3.1579938 0.020078633 2.6617393
-3.1409764 0.0017030076 2.6812942
-0.18762162 3.774049e-05 2.6628833
-0.18885064 0.076882288 2.6795614
1.8444729 0.18605581 2.6933098
1.661242 0.24651119 2.6910188
1.7280098 0.23424715 2.69293
1.8375742 0.20754784 2.6819589
-2.0071254 2.3974111 2.6741107
-1.77165 2.399225 2.6503868
-1.5113795 2.3917971 2.6607962
-1.4494809 2.3896701 2.6879539
1.3731087 2.3623562 2.6851032
1.4335294 2.3649814 2.6760008
1.4796209 2.3652463 2.6771026
1.5224214 2.3597004 2.6710308
1.581166 2.3621726 2.6798
1.631435 2.3588536 2.678015
1.6749216 2.3576989 2.6828196
1.7261157 2.3587186 2.676383
1.7782382 2.3606467 2.6699617
1.8265047 2.3594301 2.6815557
1.8858887 2.3682775 2.6741531
1.9322748 2.3630571 2.680196
1.9689986 2.365016 2.6748459
2.0176008 2.3608525 2.6735339
2.0772851 2.363317 2.6722248
2.1252718 2.36219 2.672287
2.175247 2.3680406 2.6949677
2.2164142 2.3627198 2.6727638
2.2758482 2.3669589 2.6702356
2.3296528 2.3647296 2.6759984
2.3763721 2.3673189 2.6797161
2.4201057 2.3602178 2.6674187
2.4705105 2.3623157 2.6674523
2.5293679 2.371763 2.6755178
2.5697567 2.3623161 2.6952567
2.6243968 2.3765974 2.6820431
2.6532454 2.3761179 2.6592879
-2.9081466 2.4065669 2.6846328
-2.8678098 2.4101515 2.6685903
-2.8481579 2.4105933 2.6845362
-2.7980907 2.4051778 2.6584077
-2.4930258 2.4320178 2.6809697
-2.4463146 2.4146247 2.6829202
-2.3265982 2.4093537 2.6861777
-2.2680669 2.4066887 2.6748168
-2.2189071 2.4130845 2.6731257
-2.1653762 2.4046736 2.6719723
-2.1261964 2.4072847 2.6753912
-2.0707729 2.4091358 2.6745567
-2.0300999 2.4029834 2.6684585
-1.9845312 2.4058862 2.66941
-1.9244549 2.4117293 2.6730592
-1.8715992 2.420598 2.6802464
-1.8254045 2.4193904 2.677788
-1.7753537 2.4072666 2.6814337
-1.7275399 2.4095862 2.6778386
-1.6708779 2.4105105 2.6733932
-1.6299123 2.4117 2.68066
-1.5742403 2.4101782 2.6812375
-1.496695 2.4099867 2.6939938
-0.14175093 -0.47482762 2.7363474
-0.062368479 -0.47305566 2.7280607
0.12571439 -0.47659847 2.7214489
-0.15319951 -0.40427887 2.7119672
-3.1453581 0.0016582264 2.7363493
1.79988 0.19504452 2.7461865
1.8186089 0.18579873 2.7232258
1.646775 0.23304844 2.7139895
1.6777443 0.23332505 2.7035148
1.7282329 0.22518045 2.7240646
1.7858605 0.20924482 2.7390771
1.8375443 0.20921822 2.7115624
1.4644905 2.3478732 2.7359028
1.6341822 2.3446748 2.7252631
-2.9477124 2.3979287 2.7473495
-2.8693671 2.397866 2.724298
-2.2546299 2.3941033 2.733546
-2.2046518 2.3999934 2.7307391
-2.1663809 2.3974242 2.7052391
-2.1273966 2.3956134 2.7283347
-1.6778882 2.3996379 2.7447863
-1.5164049 2.3960884 2.7031331
-1.4177446 2.3945048 2.7095966
-1.3439652 2.3866243 2.7314949
1.2367774 2.3633816 2.7439339
1.2713186 2.3639863 2.7309105
1.3319553 2.3674819 2.725162
1.3806311 2.3621893 2.731389
1.4257293 2.3614657 2.7289143
1.4812933 2.3599911 2.7166719
1.5226218 2.3572013 2.7215765
1.567786 2.3595338 2.7320495
1.6122185 2.3543727 2.7247684
1.6853991 2.3671639 2.7323852
1.7245295 2.3631487 2.7252989
1.7759275 2.3633718 2.7173927
1.8389854 2.3691442 2.7323766
1.8782816 2.3640759 2.722281
1.9214668 2.3545294 2.7238646
1.9715865 2.3620234 2.7272332
2.0232038 2.3604817 2.7254436
2.0789042 2.3629897 2.7277861
2.1249092 2.3637879 2.7216015
2.1792831 2.3638527 2.7318814
2.2206817 2.358633 2.7179117
2.2735033 2.3652306 2.7168853
2.3295369 2.3600521 2.728673
2.3762388 2.3638065 2.7393739
2.4221132 2.3615935 2.7185929
2.4879189 2.368288 2.7422802
2.5190759 2.3608317 2.7132149
2.5887566 2.3690758 2.7465789
2.7053246 2.365227 2.7032449
2.7982664 2.373786 2.7030883
-2.9237337 2.4073431 2.7294612
-2.8898776 2.4082696 2.7021959
-2.6216254 2.4298506 2.7349746
-2.5712078 2.4302139 2.7214458
-2.5193269 2.428534 2.7054787
-2.497515 2.4263165 2.7173765
-2.3292301 2.4126573 2.7308254
-2.2846091 2.4057095 2.7334671
-2.2362566 2.4035649 2.7152467
-2.1881862 2.4026196 2.7466266
-2.1165228 2.4031804 2.7255487
-2.0724616 2.4048071 2.7343025
-2.0336614 2.4105682 2.7236636
-1.9807773 2.4110723 2.7283614
-1.9306684 2.4137411 2.7270751
-1.8781438 2.4188716 2.734515
-1.8277423 2.4097214 2.7283838
-1.7728491 2.4092312 2.7206948
-1.7179899 2.4101756 2.7286503
-1.6709162 2.4075096 2.7195442
-1.6183202 2.4044075 2.7227445
-1.5670662 2.4071095 2.723175
-1.5254116 2.4103222 2.7191272
-1.481733 2.4118426 2.7295721
-1.4245063 2.4059656 2.7225134
-1.3811517 2.4062586 2.7425325
1.7296301 0.18801151 2.7902524
1.7738231 0.18795274 2.7674372
1.8705791 0.16880551 2.7933459
1.7226928 0.2140227 2.7672012
1.7634491 0.21010816 2.7653604
1.0420566 2.3487754 2.7936413
1.1427851 2.3460698 2.7557769
1.6304302 2.3469675 2.7712228
1.6591175 2.3498836 2.7607393
1.9300133 2.3486981 2.7751741
2.4290137 2.3485699 2.7732754
-2.9254923 2.3965926 2.7618814
-2.2394202 2.3981183 2.7513223
-2.0028892 2.3994746 2.7699845
-1.4021518 2.3923268 2.7896636
-1.3677486 2.3958392 2.7715931
-1.3244916 2.3966146 2.7910154
-1.2767388 2.390168 2.7644546
-1.2443162 2.3943825 2.7830856
-1.169301 2.3828399 2.7956438
1.1264415 2.3652596 2.7874103
1.1811845 2.363389 2.7831731
1.2226064 2.3653588 2.7739356
1.2794471 2.3612838 2.7753026
1.3218706 2.3631282 2.7735243
1.3792336 2.3593075 2.7718811
1.4343252 2.3591192 2.7790146
1.4736559 2.3590188 2.7866478
1.5197684 2.3623927 2.7698138
1.5802926 2.3561995 2.7704842
1.6069804 2.3516414 2.7904172
1.6926982 2.363008 2.7839198
1.7236103 2.3578525 2.7694392
1.7734846 2.357018 2.7720013
1.8200126 2.3660624 2.77069
1.8615627 2.3637867 2.7825305
1.9044156 2.3694568 2.7809772
1.9762201 2.3600981 2.7658541
2.031966 2.3637125 2.7823155
2.0833757 2.3603959 2.7742798
2.1322095 2.3607252 2.7739003
2.1739752 2.3596013 2.7754805
2.2316027 2.3713467 2.7816391
2.278013 2.3705938 2.772356
2.3139942 2.3589914 2.7749357
2.3933196 2.3709905 2.7911899
2.4151397 2.3639069 2.7617989
2.4830065 2.3627374 2.7783403
2.5234895 2.3632443 2.7840989
2.5751381 2.3746638 2.7679441
2.6077044 2.3665082 2.7803638
2.6500797 2.3689537 2.7530301
2.7259996 2.3705502 2.7796893
2.7612004 2.3734629 2.7860844
-3.0085759 2.4094958 2.7814791
-2.9897931 2.4111762 2.7998097
-2.636688 2.4329839 2.7826238
-2.5825663 2.4398403 2.7834892
-2.5490353 2.4373381 2.7514052
-2.4102359 2.4072757 2.770813
-2.3872213 2.4036875 2.7806783
-2.3236511 2.4075856 2.7830796
-2.2175217 2.4052625 2.7791557
-2.1793604 2.4042149 2.7792866
-2.1168685 2.4065068 2.7854683
-2.07125 2.4063427 2.7837963
-2.0396571 2.4100146 2.7643602
-1.9704546 2.4031675 2.7739363
-1.924626 2.4115047 2.7786229
-1.8850565 2.416616 2.7812314
-1.8092527 2.4077284 2.7680144
-1.7777092 2.411088 2.7700202
-1.7349162 2.411299 2.7730319
-1.6692204 2.4039154 2.7765207
-1.6301484 2.4083717 2.7830985
-1.5831947 2.405067 2.7717819
-1.5266813 2.4063058 2.7755976
-1.473719 2.4059324 2.7669659
-1.4398103 2.4052844 2.7720969
-1.396776 2.4006901 2.7657244
-1.3255106 2.4035866 2.7721794
-1.2649045 2.4005525 2.7834208
1.6997823 0.19552052 2.8040192
1.7016246 0.18070653 2.8078282
1.8322253 0.16947782 2.8282478
0.87220478 2.349432 2.843781
1.3976233 2.3466403 2.8411152
1.420944 2.3414955 2.8234389
1.4772007 2.3470604 2.806381
1.5993938 2.3487995 2.8304527
1.9599383 2.3478127 2.8455076
-2.999789 2.3981845 2.8224244
-2.2008038 2.399087 2.8278689
-2.1813729 2.3987837 2.8403523
-2.0718675 2.3991115 2.8174119
-1.6169026 2.3973758 2.8140821
-1.5874639 2.3937161 2.8232489
-1.4890623 2.3980267 2.836565
-1.4242136 2.3970599 2.8252249
-1.3698378 2.3973186 2.8106885
-1.2285745 2.3970292 2.8295376
-1.1779703 2.3946297 2.8205531
-1.1139364 2.3936219 2.8295989
-1.0895857 2.3972771 2.8426673
-1.0486726 2.3832054 2.8371696
0.93473941 2.3570099 2.8367846
0.97909117 2.3610458 2.8292906
1.0246383 2.3588748 2.8301499
1.0734155 2.3626411 2.8231449
1.1223434 2.3576787 2.8245525
1.1744895 2.3542616 2.8183203
1.2324408 2.3586533 2.8244097
1.2759306 2.364974 2.8319495
1.3269992 2.3572547 2.8287618
1.3701537 2.3604407 2.8191955
1.4173698 2.3531699 2.8035483
1.4542698 2.3527348 2.825238
1.5257744 2.3587668 2.8209746
1.5723997 2.3642504 2.8167434
1.6312745 2.3560703 2.8257003
1.6762773 2.3585365 2.8202107
1.7189993 2.3598237 2.827507
1.7673383 2.3562641 2.8274286
1.8309423 2.3591137 2.8216791
1.878457 2.3644722 2.8322954
1.9278527 2.3592601 2.8166027
1.9865206 2.3623502 2.8238146
2.0180767 2.3614187 2.8332024
2.0721939 2.3627911 2.8293071
2.1311364 2.3551614 2.8280165
2.1790795 2.356425 2.8144011
2.2258217 2.3615453 2.8287103
2.2849813 2.3685617 2.8132048
2.3241968 2.3598993 2.8364143
2.3680935 2.365088 2.8236001
2.413281 2.3615913 2.8099499
2.4858751 2.3742144 2.8336256
2.5357316 2.3733668 2.848274
2.5505164 2.3686304 2.8277631
2.6311734 2.3677206 2.8191297
2.6789963 2.3730526 2.8301773
2.7140834 2.367626 2.810431
2.7953877 2.3822918 2.8341858
-2.7007625 2.423239 2.8230176
-2.6747828 2.4282572 2.8255014
-2.6448951 2.4295971 2.8235557
-2.3952217 2.4019957 2.8482072
-2.3439052 2.4093337 2.8473244
-2.2798674 2.4026465 2.8294544
-2.2227345 2.4020877 2.8184221
-2.1624546 2.4076009 2.8204389
-2.1338124 2.4075496 2.8392553
-2.0733781 2.4008644 2.8195393
-2.0213897 2.4028361 2.8095829
-1.9676973 2.4038239 2.8218374
-1.9221525 2.4130876 2.8272245
-1.8731214 2.4165697 2.8175087
-1.8324921 2.4108653 2.8245189
-1.7776338 2.4129231 2.8261688
-1.7250856 2.415544 2.8165052
-1.6707399 2.4094799 2.835933
-1.6412659 2.4066992 2.8158228
-1.5623126 2.4007001 2.8057427
-1.5279669 2.4029939 2.8257008
-1.4740165 2.4059436 2.8156261
-1.3721697 2.4013712 2.815495
-1.3197459 2.4110651 2.8319747
-1.2678545 2.4052153 2.8257351
-1.2232261 2.4040318 2.8043308
-1.1440558 2.4022944 2.8308668
1.8041087 0.17042616 2.8632627
0.68248463 2.3407116 2.8759534
0.80327064 2.346885 2.8576107
1.1335907 2.3463151 2.8669746
1.3268716 2.3462369 2.8697655
1.3546642 2.346169 2.8968298
1.426164 2.3469412 2.8680832
1.9425147 2.3492382 2.858434
1.9539306 2.3442733 2.8886847
2.0871782 2.3490489 2.8614352
-2.470607 2.3976245 2.8900566
-2.2745419 2.398015 2.8744357
-2.1793928 2.39746 2.8636322
-1.6616849 2.3999743 2.8780265
-1.4709845 2.394372 2.8789482
-1.4264375 2.3979537 2.8644435
-1.3739583 2.3999755 2.889662
-1.2653141 2.3985372 2.8923817
-1.2198867 2.3907375 2.8859072
-1.1733451 2.3960907 2.8760178
-1.1343718 2.3967881 2.8721616
-1.0775064 2.3959758 2.8717914
-1.0225844 2.3941948 2.8776927
-0.93798 2.3870306 2.8751771
-0.87855929 2.3899102 2.8948238
0.73236203 2.3648896 2.8968451
0.77472538 2.3634319 2.8856544
0.83868915 2.3611801 2.8790553
0.87529534 2.3607128 2.874927
0.91474843 2.3586211 2.8703978
0.97482932 2.359803 2.8779116
1.0226332 2.3623781 2.8796661
1.0808485 2.3579807 2.8733442
1.112142 2.356101 2.8876624
1.1783687 2.3532987 2.8703213
1.2243861 2.3592482 2.865164
1.2794671 2.3614452 2.8818002
1.3054829 2.3570766 2.8560247
1.3820946 2.3563583 2.8812652
1.4302299 2.3536344 2.8761988
1.4761126 2.3557987 2.8592315
1.5256727 2.3569524 2.8681924
1.5749174 2.3598275 2.8728831
1.620689 2.361872 2.8811817
1.6794643 2.3704317 2.8790472
1.7268813 2.3602676 2.8770232
1.7763325 2.3635914 2.8882077
1.8303063 2.3645172 2.8819737
1.874243 2.3639743 2.8783214
1.9174684 2.362102 2.87255
1.9823622 2.3558106 2.8916287
2.0232303 2.3595564 2.8731375
2.0642071 2.3552146 2.8869605
2.1236751 2.3590713 2.8799357
2.168648 2.3570197 2.870939
2.2266991 2.3587735 2.8846931
2.2841194 2.3651783 2.8743222
2.3109422 2.3564968 2.8730409
2.3677125 2.3548069 2.8812585
2.4144154 2.358819 2.8731182
2.4557686 2.3737109 2.8547237
2.5360489 2.3629668 2.8811493
2.5554025 2.3515429 2.8981225
2.6470914 2.3799298 2.8872302
2.6583753 2.3719058 2.8620896
2.7894983 2.3741386 2.878773
-2.7608669 2.4173317 2.8765264
-2.7149587 2.424603 2.8703961
-2.6689689 2.4210086 2.870398
-2.3624926 2.4086814 2.8841035
-2.3340893 2.4095364 2.8801036
-2.2317526 2.4028928 2.8628159
-2.1205609 2.4069991 2.8755755
-2.0659161 2.40622 2.8804913
-2.0263577 2.4075174 2.8722997
-1.9696841 2.410378 2.8772054
-1.9159094 2.4099948 2.870662
-1.8777553 2.4074163 2.8736522
-1.8261976 2.4093711 2.8766472
-1.7775573 2.4037986 2.8763051
-1.7292366 2.413023 2.8739331
-1.6855406 2.4079113 2.8781614
-1.6230683 2.4017878 2.8586988
-1.5889361 2.4051602 2.8806009
-1.5478238 2.4019482 2.8548398
-1.4636425 2.4003215 2.8514977
-1.4058657 2.4112372 2.8536158
-1.3762857 2.4051871 2.8768044
-1.3237976 2.40434 2.868294
-1.282006 2.4027891 2.8668623
-1.2304233 2.4060011 2.8659334
-1.0412661 2.4059713 2.869756
-0.9787097 2.4021268 2.8834739
1.610152 0.18568379 2.9455576
1.6182621 0.20118073 2.942389
-1.3435292 0.42693761 2.9148607
-1.3509136 0.48195881 2.9250255
-1.3375403 0.46486574 2.9164672
-1.3265591 0.51596975 2.9049559
0.88500738 2.349339 2.9093747
1.0207846 2.3491123 2.9426003
1.2845186 2.3477972 2.9265864
1.3236661 2.3451159 2.9268458
1.3670158 2.3496103 2.9356911
1.7108052 2.3495986 2.9002461
1.863923 2.3488352 2.9482701
2.1857162 2.3472233 2.9401276
2.387639 2.3451312 2.9003932
2.4058487 2.3431418 2.9362919
-2.2686017 2.392772 2.9191549
-2.1122568 2.3989847 2.9340281
-2.0664535 2.3988035 2.9145687
-2.0273404 2.397866 2.9369993
-1.9212161 2.3994079 2.9101739
-1.8113072 2.3977027 2.924495
-1.7937328 2.39922 2.9364715
-1.5699162 2.3995736 2.922226
-1.4201279 2.3967378 2.9440851
-1.3893404 2.3931475 2.9122894
-1.3129892 2.3964627 2.9347603
-1.2657288 2.3983641 2.9298651
-1.1798545 2.3872757 2.9077189
-1.1220448 2.3916249 2.918571
-1.0748177 2.3921857 2.9272094
-1.0206162 2.3965404 2.9231732
-0.97630578 2.3913491 2.9230824
-0.92134833 2.3938859 2.9238548
-0.87098175 2.3918395 2.9254441
-0.82620877 2.3917909 2.9241912
-0.7874611 2.3877831 2.9257212
-0.72285205 2.3901684 2.9313087
-0.6628623 2.3924553 2.9461255
-0.61862534 2.3889215 2.949641
-0.59869832 2.3785012 2.9397461
0.32894608 2.3587298 2.9498937
0.44984356 2.3655446 2.9453459
0.47538865 2.3647146 2.940959
0.51916957 2.3692846 2.9406178
0.5742811 2.3620062 2.9311647
0.62295926 2.365396 2.9322612
0.67214233 2.3655663 2.9302444
0.72350413 2.365025 2.9243715
0.78172833 2.363239 2.9266071
0.82767892 2.3668213 2.9293747
0.86076748 2.3539066 2.9215627
0.9304024 2.3612161 2.9273953
0.96891195 2.3598299 2.9244614
1.0170034 2.3579075 2.9198236
1.069643 2.3556683 2.9224577
1.1293234 2.3562725 2.9186983
1.1781155 2.3571813 2.9219966
1.2274947 2.3628957 2.9220281
1.2674224 2.3579857 2.9286983
1.3328027 2.3545876 2.9178665
1.389186 2.3568211 2.9374261
1.4261559 2.3585625 2.924634
1.4721464 2.3579583 2.9278717
1.5216073 2.3605113 2.9157813
1.579495 2.3612733 2.9310563
1.6336986 2.3579013 2.92061
1.6780393 2.3596568 2.9224396
1.7403678 2.3588805 2.9429336
1.7774383 2.3588376 2.9233718
1.8200129 2.3574927 2.9275379
1.8805572 2.3602333 2.9244595
1.9290791 2.3596926 2.929775
1.9694428 2.3552372 2.9446492
2.0206733 2.3596945 2.9217625
2.0737336 2.3578 2.9332559
2.1260064 2.3533962 2.9245932
2.1778772 2.3581445 2.9159763
2.2347107 2.3580675 2.9280295
2.2812653 2.3562992 2.9271059
2.3364112 2.3627515 2.9185705
2.3694015 2.356329 2.9351654
2.4464767 2.3632534 2.9472284
2.4668403 2.3540859 2.9142182
2.5211413 2.3574073 2.9172955
2.6007304 2.3543181 2.9252543
-2.8240356 2.4323251 2.9357471
-2.7561126 2.4313068 2.9091187
-2.7269194 2.4237728 2.9159629
-2.5029345 2.4087408 2.9420705
-2.4557607 2.4026003 2.9105284
-2.3800423 2.4066756 2.9196815
-2.3210611 2.4065766 2.9090505
-2.2259228 2.4085872 2.9267156
-2.1789012 2.4085922 2.9083164
-2.0720816 2.405369 2.9224887
-2.0152991 2.4027061 2.9057915
-1.9789103 2.4095292 2.9277487
-1.9298283 2.4101951 2.9231973
-1.8712087 2.4051862 2.9258678
-1.8341167 2.4030766 2.9207604
-1.7691143 2.4052744 2.9266059
-1.7217114 2.4051797 2.9189653
-1.6986032 2.4080367 2.913986
-1.5325706 2.4075298 2.9311824
-1.4829645 2.4104302 2.9374328
-1.4360251 2.4111853 2.9189894
-1.3666509 2.4006543 2.9324985
-1.3363099 2.4013216 2.9197686
-1.2868323 2.4043775 2.9304736
-1.2301006 2.404542 2.9389992
-1.169669 2.4026537 2.9325936
-0.91823304 2.4031985 2.9018071
1.5321782 0.18649521 2.9918196
1.575069 0.18608661 2.9673798
1.6323633 0.18646398 2.9515738
1.5325727 0.20206347 2.9918528
1.5745962 0.20150545 2.9657218
0.91445398 2.3460147 2.967649
0.99214095 2.3466976 2.983561
1.008371 2.3434348 2.9744439
1.1856173 2.3453007 2.9960942
1.223037 2.348434 2.9877958
1.3403682 2.3477645 2.98245
1.3587189 2.3482938 2.9761157
1.598879 2.3467827 2.9510646
1.6490425 2.3477056 2.9706006
1.6987801 2.3469007 2.9877269
2.137012 2.3468966 2.9708436
2.1729982 2.3448942 2.9772584
2.2909262 2.3467655 2.970691
2.3290617 2.3455412 2.9770672
2.3921804 2.3491724 2.9578946
-2.212043 2.3951194 2.9611926
-1.8782945 2.3979676 2.9775417
-1.8274528 2.3954229 2.9673984
-1.7895433 2.3999534 2.9839842
-1.3726747 2.3964858 2.9729359
-1.3207518 2.3975105 2.9848611
-1.2737795 2.3955793 2.9610238
-1.2034743 2.3989727 2.9909937
-1.1328585 2.3887169 2.9750893
-1.0755773 2.3876681 2.9701128
-1.0285852 2.3906131 2.9700127
-0.92677659 2.392421 2.9701557
-0.86960155 2.3857381 2.9704351
-0.82516813 2.3842051 2.9790244
-0.76944524 2.3889806 2.9751062
-0.72691399 2.3919158 2.9844005
-0.67210275 2.3881288 2.9815295
-0.62473297 2.3827589 2.9660683
-0.5815568 2.3909929 2.9812021
-0.52911448 2.3863449 2.9776907
-0.48698631 2.3881342 2.9802666
-0.42660925 2.3792956 2.9655418
-0.37978327 2.37888 2.9786086
-0.32330146 2.3804429 2.9777577
-0.27198651 2.3844278 2.9870059
-0.21958244 2.3782711 2.9827967
-0.1677639 2.3754756 2.9820433
-0.11576904 2.3682108 2.9749646
-0.081819102 2.3789039 2.989296
-0.038585626 2.369879 2.9786983
0.021536 2.3748503 2.9850757
0.072865419 2.3666461 2.9740989
0.124168 2.3643503 2.9698212
0.17251338 2.3623803 2.9785173
0.23236188 2.371686 2.9819748
0.27991506 2.3707447 2.9823892
