ply
format ascii 1.0
comment PCL generated
element vertex 1504
property float x
property float y
property float z
element camera 0
property float view_px
property float view_py
property float view_pz
property float x_axisx
property float x_axisy
property float x_axisz
property float y_axisx
property float y_axisy
property float y_axisz
property float z_axisx
property float z_axisy
property float z_axisz
property float focal
property float scalex
property float scaley
property float centerx
property float centery
property int viewportx
property int viewporty
property float k1
property float k2
end_header
-2.0727234 2.3796353 2.6237257
-2.0418561 2.3740795 2.6126013
-1.8184017 2.3640842 2.6303983
-1.7793185 2.3738811 2.6233344
-1.7198708 2.3733268 2.620368
-1.6735976 2.3828974 2.6307275
-1.6212261 2.3811812 2.6172924
-1.5801277 2.3808625 2.6226251
-1.5285825 2.3781273 2.632504
-1.4667075 2.3617005 2.6400173
-0.60783851 -0.48100471 2.652303
-0.58433318 -0.47655547 2.6684999
-0.25528899 -0.4782972 2.6747479
-0.11182091 -0.47301301 2.6515334
-0.086698897 -0.47104076 2.6656606
-0.0096520549 -0.46591869 2.6873515
-0.45166671 -0.27289906 2.6914384
-0.42822477 -0.27044353 2.6688282
-0.45623544 -0.22969151 2.694917
-0.43129963 -0.22232692 2.6663623
-0.4653376 -0.1821879 2.6988742
-0.43548718 -0.17310356 2.6709561
-0.46366683 -0.11668022 2.6915181
-0.43419731 -0.12215457 2.6721573
-0.45704514 -0.077744246 2.6923132
-0.43041363 -0.084624127 2.6659744
-0.38176191 -0.064119466 2.6721299
0.17559057 -0.051032946 2.6723197
0.18239637 -0.025559779 2.6787374
0.20610085 -0.012641161 2.6527088
0.19501711 0.019221013 2.6751513
0.20987172 0.025474453 2.6601105
0.19589892 0.051407147 2.6869781
0.2183927 0.065710381 2.6692803
0.24057144 0.12194093 2.6801178
0.24870057 0.16796756 2.696619
0.26396468 0.17744334 2.6753197
0.27243504 0.21155742 2.6725283
0.62501246 0.28268397 2.6765459
0.67224056 0.29560485 2.6565874
0.63598174 0.32431817 2.6895993
0.671395 0.32275707 2.6647494
0.71368492 0.34212688 2.6812534
0.64062202 0.37458947 2.687536
0.67544693 0.37208438 2.662992
0.70704412 0.35849097 2.6545606
0.64207435 0.42814174 2.6883156
0.67057294 0.42534128 2.66536
0.75054705 0.44583657 2.6541867
0.64065772 0.47528151 2.6894886
0.67302567 0.47678307 2.6643655
0.76408964 0.45921054 2.6516273
0.6365031 0.52200001 2.6943741
0.66569787 0.5225209 2.6696963
0.64109963 0.5714305 2.6955774
0.67068046 0.56913364 2.6690602
0.70448625 0.59543532 2.6688259
0.76943493 0.6130271 2.6745338
0.82850271 0.63748968 2.6790504
0.85767025 0.64089 2.6569281
0.83673877 0.67444712 2.6807106
0.86665195 0.67608529 2.6567128
0.83170474 0.72698832 2.6884634
0.86260992 0.72658962 2.6633654
0.83313429 0.77562243 2.6875396
0.86199522 0.77488768 2.6615729
0.83356029 0.82354277 2.6851599
0.86221772 0.82521385 2.6595571
0.83673596 0.87451196 2.6847663
0.86433405 0.87472057 2.6587195
0.83586383 0.92413205 2.6867511
0.86137402 0.92641556 2.6633451
0.83156598 0.97986722 2.6854377
0.85907441 0.97223598 2.6623418
0.83319873 1.0235966 2.6860609
0.86264688 1.0244172 2.6604316
0.84053558 1.0674056 2.6849077
0.86447716 1.0804999 2.6615632
0.83513474 1.1254183 2.6901331
0.86060458 1.1232834 2.6645801
0.83879137 1.1775115 2.6817756
0.86513329 1.1711022 2.6654572
0.84184682 1.2253116 2.6883068
0.86496145 1.2267036 2.6643822
0.83846211 1.2828689 2.6922386
0.86380929 1.274286 2.6638865
0.83825046 1.3272499 2.6897173
0.86897558 1.3244843 2.664305
0.84227931 1.3694839 2.6892438
0.86801565 1.3756357 2.6692357
0.84145474 1.4232081 2.6944499
0.8727271 1.4226516 2.6681077
0.8436591 1.4769539 2.6931093
0.87383711 1.4734766 2.6685264
0.83778912 1.5222882 2.6996658
0.87200165 1.5280381 2.6711395
0.84373474 1.5773296 2.6993396
0.87657756 1.5775971 2.6747375
0.90959555 1.578524 2.6511118
0.87532228 1.6255686 2.6780837
0.90536577 1.6225309 2.653775
0.87664658 1.6769694 2.6794732
0.90717411 1.6741433 2.6555135
0.87546396 1.7230461 2.6815116
0.90825176 1.7251029 2.6544173
0.88030005 1.7751875 2.6779363
0.9038021 1.7706547 2.6548765
0.88008088 1.8257896 2.6815498
0.91304618 1.8342433 2.6572101
0.87449455 1.8732239 2.6870224
0.91131067 1.8704462 2.6559925
0.88482732 1.9233665 2.6825087
0.91310984 1.9189544 2.6587481
0.88205004 1.9746227 2.6859124
0.90867484 1.9727067 2.6595831
0.88815337 2.0274529 2.6804461
0.91738927 2.0241418 2.6576681
0.8880403 2.0768867 2.6860552
0.91112036 2.0743713 2.6597719
0.88137311 2.1243885 2.6859326
0.91026223 2.1221342 2.6616457
0.88154489 2.169121 2.6883578
0.91908503 2.1829751 2.6636977
0.8916617 2.2199268 2.6848962
0.9109506 2.217227 2.6703346
-2.3143055 2.3775153 2.6614027
-2.27525 2.3662422 2.6687679
-2.215174 2.3709135 2.671881
-2.1746533 2.375845 2.6618798
-2.1217654 2.377712 2.6780849
-2.0595226 2.3777118 2.6741011
-2.0320854 2.3869607 2.6851094
-1.9859129 2.3847034 2.6888669
-1.7693774 2.3724532 2.676574
-1.7201241 2.3804016 2.6717019
-1.6718963 2.3835199 2.6828549
-1.6238397 2.3780222 2.6705804
-1.5768077 2.3862019 2.6777687
-1.5265889 2.3846672 2.6815434
-1.4810711 2.3790331 2.6703265
-1.4280218 2.3826895 2.688174
-1.3857938 2.3695133 2.6891487
-0.088415682 -0.47179008 2.720288
-0.50139773 -0.27224761 2.7461519
-0.47842011 -0.27169546 2.7143223
-0.50118798 -0.23230082 2.7473898
-0.47928175 -0.22971296 2.7190344
-0.51412243 -0.15916118 2.747323
-0.48790896 -0.17538719 2.7261329
-0.50062722 -0.10604005 2.7493448
-0.48224324 -0.12724032 2.7210298
-0.50018144 -0.086070336 2.747335
-0.47193995 -0.081831336 2.721077
-0.43721637 -0.065694503 2.7333851
0.13348134 -0.052053172 2.7273445
0.15834738 -0.051649272 2.7053385
0.14171243 -0.02867282 2.7344971
0.16210869 -0.022631342 2.7143629
0.17273223 0.019624731 2.7287455
0.18952443 0.071927443 2.7342794
0.21120474 0.084510535 2.7175012
0.19345126 0.10493809 2.7427874
0.21900325 0.12313017 2.723824
0.23447798 0.17586313 2.7199638
0.24505308 0.20915177 2.7270584
0.25825453 0.22232175 2.7268088
0.59398532 0.28545219 2.7303481
0.61595082 0.28992751 2.7057915
0.59293789 0.32150111 2.7333984
0.61108565 0.32382065 2.7119632
0.59064418 0.37380752 2.7395189
0.61249346 0.37751105 2.7136307
0.73529005 0.39934212 2.7050531
0.59223199 0.42165208 2.7423096
0.61348057 0.42455503 2.7134035
0.59193176 0.47494015 2.7350323
0.61363608 0.47141808 2.7144709
0.59269762 0.52244604 2.7328231
0.61466563 0.52670163 2.7122722
0.5909341 0.56414938 2.7353287
0.61817986 0.57485527 2.7158959
0.67738962 0.60672635 2.726496
0.73789144 0.62920123 2.7387516
0.77315927 0.63449538 2.7187974
0.80086005 0.64892089 2.704721
0.77800304 0.67308956 2.7293818
0.80822736 0.68032277 2.7051091
0.77697343 0.72351551 2.7350252
0.81023091 0.72313899 2.7077901
0.77975076 0.77375317 2.7303979
0.81126004 0.77392542 2.7058523
0.77986515 0.82428497 2.7321343
0.81050396 0.82776242 2.7047913
0.77927423 0.87418234 2.7344718
0.807221 0.87666231 2.7119577
0.77682561 0.92616683 2.7325296
0.8100974 0.9240405 2.7074993
0.78281283 0.97437316 2.7294941
0.81053019 0.97099584 2.7062595
0.77920771 1.0205625 2.7319276
0.80742919 1.0338891 2.7097845
0.77985293 1.0747144 2.7366567
0.81315321 1.0791848 2.7114902
0.77951539 1.1281806 2.737371
0.81049657 1.1229963 2.7095015
0.78664893 1.1793519 2.7367001
0.8179642 1.173535 2.7100353
0.78447956 1.2257079 2.737776
0.81573319 1.2256695 2.7127635
0.78711569 1.2803166 2.7369323
0.81448567 1.2710533 2.7127471
0.78876162 1.3257108 2.7338333
0.81445932 1.3230914 2.7120545
0.78713477 1.3758408 2.7400744
0.8117761 1.3754951 2.7165062
0.7859627 1.4277389 2.7407994
0.81946945 1.4216096 2.7172875
0.79121989 1.4678078 2.7426984
0.81972474 1.4737241 2.7174621
0.79317504 1.516659 2.7419322
0.82377946 1.5284929 2.7189312
0.7916503 1.5613559 2.7497246
0.82263869 1.5746602 2.7230151
0.79743183 1.6252031 2.7465231
0.82597578 1.6241461 2.7211299
0.85070211 1.6349603 2.7010953
0.79978472 1.6525401 2.7442648
0.82409275 1.6762425 2.7244112
0.85329854 1.6548647 2.7022686
0.82524872 1.7245315 2.7264955
0.82712138 1.775339 2.7243531
0.85227275 1.7732443 2.7053461
0.82341701 1.8235804 2.7285891
0.85577387 1.8109593 2.7004313
0.82678682 1.8728161 2.7294941
0.85239935 1.8982219 2.708338
0.82941866 1.9224201 2.7278361
0.85685802 1.9314382 2.7091413
0.8284142 1.9749794 2.7291994
0.86095405 1.9718671 2.7037427
0.82447535 2.0230672 2.7339849
0.85941011 2.0177448 2.7065668
0.82853979 2.0723977 2.7348537
0.86596012 2.0647929 2.7074518
0.83294135 2.1195786 2.7311485
0.8578003 2.1233604 2.7103765
0.83571905 2.1728494 2.7350142
0.85933065 2.1874502 2.715899
0.83986282 2.22877 2.7324727
0.87201613 2.2315922 2.70578
0.82267874 2.2601697 2.7399232
-2.3533571 2.3600199 2.7481413
-2.2760098 2.377322 2.7204745
-2.2223072 2.3697484 2.7122583
-2.18081 2.3745346 2.717823
-2.1245131 2.3829837 2.7317281
-2.0756276 2.3791072 2.7341423
-2.0237832 2.3803389 2.7243395
-1.9740157 2.3740392 2.7231221
-1.9358001 2.3700523 2.71823
-1.7225742 2.3799348 2.7210071
-1.6740946 2.3833635 2.7322614
-1.6197273 2.387325 2.7299936
-1.5676359 2.3827748 2.7234488
-1.5238941 2.3777936 2.7274461
-1.4699326 2.3915806 2.7191768
-1.4308896 2.3845718 2.7274766
-1.3695192 2.3860085 2.7194567
-1.3355904 2.3871055 2.7357459
-0.55116957 -0.27045786 2.7918193
-0.52607906 -0.26801002 2.7690601
-0.5503121 -0.22502172 2.7900677
-0.52838433 -0.22232608 2.7657127
-0.55031782 -0.18226242 2.7921572
-0.52422529 -0.18024977 2.7638614
-0.55097365 -0.11486766 2.7978113
-0.52689844 -0.12765631 2.7676849
-0.52502346 -0.075379409 2.7801995
-0.4718256 -0.060152035 2.7799878
0.096653089 -0.05325672 2.7914426
0.10924634 -0.05290287 2.7725954
0.12278035 -0.026506921 2.7797382
0.1406095 0.014898052 2.7714639
0.14980443 0.053280834 2.7872107
0.16796122 0.075750291 2.7723832
0.18605512 0.1262939 2.7787039
0.2058946 0.14094846 2.7615888
0.19035392 0.16029069 2.7919769
0.21264057 0.17944624 2.7761698
0.21647489 0.20871203 2.7815063
0.58709884 0.53621709 2.770678
0.58338243 0.57103986 2.7707138
0.60074824 0.59741956 2.7606144
0.59508306 0.60546523 2.7997949
0.64872485 0.61791056 2.7835171
0.67685264 0.62538123 2.7805676
0.71585411 0.6410082 2.773952
0.69573426 0.65082759 2.7959409
0.72759002 0.67602754 2.7750301
0.75780702 0.67905354 2.7519002
0.69946986 0.72393531 2.7992294
0.7313574 0.72528183 2.7756584
0.75984573 0.7290203 2.7508144
0.72507411 0.77339256 2.7805901
0.75061697 0.78878975 2.7595532
0.72491175 0.82616538 2.7799275
0.75188798 0.82479107 2.7571499
0.72430402 0.87494373 2.7819533
0.75379294 0.87551779 2.7536888
0.73061764 0.92381203 2.7787824
0.75664216 0.92068154 2.7545393
0.73240781 0.97559625 2.7768068
0.75929195 0.97990203 2.7505751
0.73035282 1.0215455 2.7769632
0.75030684 1.0428492 2.7571561
0.7272445 1.0754129 2.780956
0.75710011 1.0757023 2.7606821
0.73271346 1.1296858 2.7831097
0.75546795 1.1209822 2.7562397
0.73562723 1.1772556 2.7813792
0.76330787 1.1737127 2.7572482
0.73462707 1.2234515 2.7811401
0.75832099 1.2227509 2.761519
0.73327255 1.2771428 2.7858601
0.76304668 1.26807 2.7591648
0.73740226 1.3302485 2.7859302
0.76393312 1.3181447 2.7592914
0.7307353 1.3809605 2.791481
0.76022208 1.3694769 2.7657409
0.73502797 1.4187955 2.7852526
0.76189286 1.4204617 2.7644444
0.73752087 1.4679462 2.7893541
0.76965755 1.4787563 2.7646084
0.74010241 1.5178334 2.788353
0.76879692 1.5305667 2.7652168
0.73663968 1.5826601 2.792304
0.77114719 1.5784163 2.7668231
0.739878 1.6288749 2.7936356
0.77067506 1.6245018 2.7679482
0.74837565 1.6719009 2.7894545
0.77718306 1.6777072 2.7640691
0.73954993 1.7324106 2.7952399
0.76940572 1.7234856 2.7669916
0.74435765 1.7745471 2.7983737
0.77884305 1.7737249 2.7673802
0.80043429 1.7928355 2.7500179
0.74358362 1.8264675 2.7951345
0.77425945 1.8251764 2.7712653
0.77494645 1.8776573 2.7764211
0.74542111 1.9409887 2.7988467
0.7782892 1.9258087 2.7765751
0.80354315 1.9447484 2.7587826
0.77757269 1.974156 2.7762618
0.80496013 1.9638977 2.7546425
0.77177179 2.0216117 2.78234
0.80128121 2.0416996 2.7721691
0.77240151 2.0764775 2.786701
0.80322564 2.0706701 2.7642674
0.78094226 2.1291254 2.7864504
0.80762219 2.1141729 2.7593102
0.78492928 2.1726007 2.779891
0.81134665 2.1792676 2.7579832
0.77940834 2.2281957 2.7871537
0.8145147 2.227433 2.7645905
0.77994627 2.2705643 2.7803915
0.80857241 2.2500198 2.7630613
-2.2982423 2.362396 2.7918539
-2.2480574 2.3691235 2.7899764
-2.1275921 2.3785069 2.7764511
-2.074075 2.3800061 2.7829294
-2.0296874 2.3796079 2.7647946
-1.9854679 2.3809969 2.7799799
-1.9329901 2.3820019 2.7840464
-1.7212073 2.3741865 2.7646902
-1.6741459 2.3801351 2.7786262
-1.6276745 2.3839655 2.7746999
-1.5755898 2.3802369 2.7686329
-1.5247139 2.3956916 2.7900076
-1.472891 2.3916993 2.7721012
-1.4187973 2.3951526 2.7767005
-1.3776165 2.3933964 2.7733402
-1.3062807 2.3952727 2.796638
-1.2797413 2.3913875 2.7741446
-1.2238595 2.3882608 2.7825875
-1.1901594 2.3900771 2.7977955
-1.3376518 2.413343 2.7899752
-0.60426986 -0.26236591 2.8461316
-0.57962519 -0.27433732 2.8288889
-0.60436565 -0.22096373 2.8488855
-0.57842863 -0.22581832 2.8257751
-0.6027776 -0.15838058 2.8440864
-0.57458478 -0.17215274 2.8179443
-0.60288554 -0.12395149 2.8456936
-0.57231545 -0.12938356 2.8168991
-0.60332197 -0.068880185 2.8489671
-0.56873149 -0.074835338 2.817548
-0.51781738 -0.054090828 2.8067603
-0.48950759 -0.053958148 2.8028996
-0.42487517 -0.054336395 2.829397
-0.37780705 -0.054414589 2.8376696
0.070967317 -0.054015826 2.8317144
-0.6030966 -0.020603171 2.8483658
-0.56928706 -0.027200351 2.8209321
-0.52522552 -0.027036224 2.8095765
-0.47828427 -0.02705094 2.8180902
-0.43140122 -0.0302459 2.8372753
-0.3789252 -0.040919181 2.8462489
0.088334993 -0.028907359 2.8315589
0.11045247 -0.020027855 2.8034639
-0.60209 0.0069597075 2.8436375
-0.56955367 0.02054687 2.8223493
-0.52130878 0.020554027 2.8259878
-0.4783144 0.015279364 2.8411021
-0.44769537 5.8377133e-05 2.8430002
0.094866864 0.013588835 2.838151
0.11954638 0.025304979 2.8212175
-0.60238719 0.089581728 2.8440607
-0.57175708 0.075427108 2.83267
-0.53425521 0.068593033 2.8386245
0.13202159 0.074495405 2.8348274
0.15102749 0.080571748 2.8095198
-0.5786773 0.12201916 2.845932
-0.54694176 0.11015919 2.8490136
0.13887641 0.10838377 2.8352747
0.16510662 0.12808572 2.8198402
0.17886387 0.17551886 2.8220582
-0.60304773 0.20686114 2.8430686
0.19236474 0.20247102 2.8197443
0.20471448 0.21476586 2.8027835
0.56351972 0.24597064 2.81984
0.59545505 0.28229603 2.8357975
0.59663808 0.32424662 2.838448
0.59684378 0.37265882 2.8354676
0.59660459 0.42078477 2.8297868
0.59654331 0.47590044 2.8236234
0.59509015 0.51602483 2.8118818
0.57590157 0.56793469 2.8152158
0.63913184 0.63109851 2.8241386
0.67096329 0.6397869 2.8150463
0.6475243 0.65810233 2.836297
0.67574531 0.67677319 2.8182487
0.66826445 0.72605884 2.8298073
0.67190212 0.77408344 2.8280141
0.70249051 0.78299922 2.8009567
0.67533606 0.82440853 2.8269496
0.70402539 0.81271726 2.8015985
0.67489934 0.87644035 2.8283007
0.64622337 0.92838526 2.8461645
0.67840511 0.92367834 2.8258903
0.71011573 0.93283206 2.8013468
0.68206567 0.97521073 2.8236625
0.7121315 0.96381783 2.8026097
0.67203057 1.0258251 2.8328366
0.70198315 1.0263985 2.8070462
0.67483169 1.0724057 2.8324862
0.70430356 1.0727142 2.8049901
0.68196541 1.1260043 2.8241026
0.70702004 1.1199212 2.8038597
0.6831699 1.1749074 2.8294318
0.71073741 1.1691328 2.8059871
0.67630619 1.2285628 2.8376789
0.70787233 1.2199458 2.8114052
0.67896646 1.2774529 2.8348346
0.70942807 1.2659788 2.8105962
0.6850192 1.3315328 2.836658
0.71448398 1.3193196 2.8088777
0.69224232 1.377367 2.8277481
0.71070957 1.3701181 2.8088455
0.68233389 1.4245909 2.8372405
0.71245611 1.4283955 2.8162541
0.68072271 1.4691528 2.838104
0.71221 1.4769565 2.8122227
0.68910998 1.5216368 2.833565
0.71657962 1.531036 2.8114471
0.69041497 1.5746917 2.8381982
0.71404451 1.5796285 2.8170173
0.68574208 1.6186341 2.8425553
0.71399277 1.6271207 2.8183224
0.6877284 1.6755334 2.8416576
0.7241742 1.6768798 2.812783
0.69142532 1.7231781 2.839294
0.72174877 1.7216767 2.8139362
0.6892249 1.7760555 2.8451416
0.72151566 1.7731274 2.8190794
0.69317663 1.8254132 2.8422291
0.72066832 1.8191755 2.8195088
0.69615835 1.8647538 2.8384669
0.72374934 1.8729832 2.8200088
0.72057414 1.9186959 2.8245366
0.72394568 1.9770037 2.8290329
0.7510215 1.9794434 2.8064783
0.6971007 2.0314107 2.8453789
0.72529912 2.0229194 2.821661
0.73555321 2.0787044 2.8270898
0.73216659 2.1225667 2.8318689
0.75332725 2.1344042 2.8165629
0.72745538 2.1790421 2.8344326
0.75564486 2.1737185 2.8044889
0.72927833 2.2279835 2.8261123
0.76078427 2.2213995 2.8022063
0.72049898 2.2748046 2.8322649
0.75212753 2.2779293 2.8129942
0.69259107 2.3177972 2.8444171
0.72314829 2.3081787 2.8255746
0.75422531 2.300971 2.8094289
-2.3662994 2.3729916 2.8138149
-2.2812738 2.3646722 2.8079939
-2.2151766 2.3747535 2.8228266
-2.1677904 2.3734169 2.8039565
-2.1233814 2.3759964 2.8221238
-2.072336 2.380748 2.8320658
-2.0251803 2.3681045 2.8167937
-1.9752653 2.3718038 2.8084881
-1.9290113 2.381382 2.8301475
-1.8771605 2.3766832 2.8197346
-1.8376372 2.3778961 2.8335843
-1.6706281 2.3698933 2.8058748
-1.6170406 2.3795314 2.8276951
-1.5751375 2.3886209 2.8216162
-1.5228708 2.3860044 2.8228962
-1.4720926 2.3849773 2.8251648
-1.43027 2.3879142 2.8190339
-1.3691885 2.391711 2.8259549
-1.3261223 2.389003 2.8361869
-1.2818599 2.3923559 2.8272851
-1.2384247 2.399195 2.8287988
-1.1722895 2.3948824 2.8229911
-1.1061691 2.3955939 2.8348832
-1.0340464 2.3892894 2.8498585
-1.3314747 2.40925 2.8057301
-1.2584028 2.4039304 2.8276529
-1.2164836 2.4077039 2.848701
-1.1384929 2.4089398 2.8417225
-0.62717837 -0.2706846 2.8771243
-0.65836006 -0.21116766 2.8987796
-0.62303776 -0.225761 2.8688638
-0.62628388 -0.17686409 2.8728623
-0.63016051 -0.12524758 2.872695
-0.62366575 -0.077061884 2.8707709
-0.35241681 -0.054703474 2.8549252
-0.32042801 -0.055095524 2.8778667
-0.28791958 -0.055468373 2.8996258
-0.010286981 -0.055153769 2.891927
0.03084817 -0.054812144 2.8739121
-0.65739501 -0.013978529 2.8994656
-0.62688887 -0.029736105 2.8733654
-0.41283295 -0.018240837 2.8576462
-0.37414616 -0.026183652 2.8676491
-0.33255011 -0.029585278 2.8882844
0.037960231 -0.027522905 2.8898008
0.063759416 -0.024605131 2.8712361
-0.65691072 8.4583633e-05 2.897342
-0.62640727 0.02374414 2.8767896
-0.46078759 0.035774637 2.8550787
-0.42573112 0.020210136 2.8676338
-0.3844181 0.016446808 2.8876836
0.044882201 3.6623813e-05 2.8906457
0.074474998 0.02249375 2.8728497
-0.65713483 0.056315489 2.8979311
-0.62437826 0.073714837 2.8669124
-0.51682425 0.082785457 2.8581123
-0.47306836 0.076066665 2.8696404
-0.42660505 0.073255867 2.8875227
-0.39252797 0.055642076 2.895427
0.08913321 0.070406228 2.8841615
0.11262079 0.075086206 2.8578272
-0.65749794 0.12667505 2.8980155
-0.62192631 0.12517808 2.8675761
-0.56192553 0.13109122 2.8528621
-0.52699 0.12579559 2.8654234
-0.47963911 0.12365484 2.8827071
0.12373081 0.12204913 2.8785279
-0.65835631 0.18317741 2.8997653
-0.62271899 0.17402494 2.8694551
-0.57340938 0.17495631 2.8581946
-0.52826065 0.17174058 2.8768001
-0.48770964 0.17210005 2.8934798
0.13868228 0.16835433 2.8858724
0.15682413 0.17531791 2.8636749
-0.63249481 0.20975852 2.879838
-0.57225144 0.20820731 2.8663342
-0.52657056 0.20933343 2.8880827
0.16800861 0.20574403 2.8664596
0.58148575 0.27205488 2.8877907
0.58804244 0.32043052 2.8946118
0.58805043 0.36965704 2.8927722
0.58735579 0.42210782 2.8896492
0.59116274 0.4678261 2.8918488
0.5891673 0.52921695 2.8868518
0.56397873 0.57452232 2.8628788
0.5874123 0.61693305 2.8785076
0.61818713 0.64014959 2.8647723
0.61810869 0.67645252 2.8756955
0.58968353 0.729132 2.8970203
0.62126791 0.72437447 2.873004
0.62431288 0.77227294 2.8690069
0.59310281 0.82682335 2.8967178
0.62322456 0.82499325 2.874059
0.59506279 0.87285936 2.8975539
0.62638968 0.87353849 2.8693476
0.59752649 0.92718005 2.8987169
0.62716788 0.91922247 2.8732431
0.65115261 0.94985944 2.8645885
0.59862673 0.96515739 2.8958883
0.62595469 0.97304797 2.8747241
0.65048933 0.97765189 2.8549073
0.62157494 1.0244468 2.8783436
0.65179861 1.0084306 2.8536792
0.62500519 1.0746878 2.8788767
0.65550345 1.0866102 2.8512311
0.62613946 1.1280388 2.8807878
0.65793276 1.1197368 2.853832
0.62774044 1.1749862 2.8756323
0.66013914 1.167279 2.850944
0.62707019 1.2248795 2.880837
0.65419722 1.2181197 2.8560727
0.62737823 1.2772737 2.8819387
0.65368521 1.2706403 2.8622601
0.6302892 1.3279555 2.8807392
0.65964597 1.3195184 2.8570237
0.62800395 1.3782835 2.8812835
0.66576827 1.3750176 2.8571212
0.63606191 1.422986 2.878485
0.65963763 1.4282708 2.857923
0.62761807 1.4736038 2.887706
0.65953529 1.484046 2.8645396
0.63061768 1.5264041 2.8840022
0.66473198 1.5283495 2.8580277
0.63459539 1.5782065 2.8852847
0.66514313 1.5728862 2.8586144
0.63319641 1.6221497 2.8829598
0.66642159 1.6325213 2.859894
0.63237172 1.67635 2.8871374
0.659899 1.6752033 2.8632421
0.63583589 1.7245648 2.8855639
0.66317147 1.7223293 2.8598702
0.63971579 1.7743496 2.8848941
0.66790199 1.7736769 2.8619571
0.63835013 1.832185 2.8967838
0.66698056 1.8243674 2.8662698
0.64002967 1.8688359 2.8886166
0.66754073 1.8757585 2.8684514
0.64615154 1.9269086 2.8956172
0.67629486 1.9263133 2.8654697
0.67439175 1.972654 2.8705289
0.6398958 2.038398 2.8994336
0.67298615 2.0190377 2.8789027
0.64211464 2.0700419 2.8955462
0.6751796 2.0710137 2.8783996
0.70846826 2.0704815 2.8560212
0.67581493 2.1261911 2.8774416
0.70765698 2.1195092 2.8546877
0.6776039 2.1723843 2.875443
0.71067977 2.1532173 2.8518381
0.67280388 2.2213233 2.8782184
0.70273584 2.2294853 2.8585653
0.64487737 2.2851758 2.8941178
0.67476815 2.2724574 2.8716185
0.64344954 2.3370249 2.8897839
0.67562473 2.3187773 2.8689125
-2.336019 2.3816905 2.8517854
-2.2026906 2.3626964 2.8581879
-2.1054955 2.3779871 2.853126
-2.0694928 2.3802681 2.8800838
-2.016885 2.382093 2.8692768
-1.9788953 2.3792498 2.8569448
-1.9257536 2.3816872 2.8777225
-1.8750335 2.3835886 2.8655884
-1.8274494 2.3821592 2.8901622
-1.6069841 2.3732443 2.8640566
-1.5806391 2.3835018 2.8721635
-1.5223724 2.3838394 2.8698282
-1.4824802 2.3875287 2.8769615
-1.42546 2.3872733 2.8689125
-1.3724513 2.3818312 2.8641131
-1.3257154 2.383517 2.872864
-1.2674755 2.3903093 2.8705869
-1.2353196 2.3920219 2.8944561
-1.0542885 2.395968 2.8523633
-1.230937 2.4012077 2.8714788
-1.1717356 2.4025912 2.8799822
-1.1191984 2.4062576 2.8809779
-1.0787098 2.4030545 2.8719063
-1.0193913 2.4160256 2.8897848
-0.671583 -0.26997343 2.921355
-0.67806935 -0.22550148 2.9306793
-0.67202836 -0.17770161 2.9279585
-0.67572457 -0.12583321 2.9216781
-0.6769309 -0.077907212 2.9200752
-0.26861817 -0.055785842 2.9174547
-0.22742796 -0.055957988 2.9286385
-0.17100331 -0.055816162 2.9235606
-0.12179073 -0.055662017 2.9170053
-0.073090151 -0.055699326 2.9199533
-0.031247208 -0.055623244 2.916446
0.0035225842 -0.055341236 2.9017673
-0.67770636 -0.029978124 2.9161692
-0.30806765 -0.024984896 2.9053688
-0.27548528 -0.027848946 2.9161639
-0.22782411 -0.028004574 2.9341252
-0.17923744 -0.03410368 2.9441755
-0.12637883 -0.038591497 2.943063
-0.068151742 -0.03112144 2.9405129
-0.024446132 -0.027931597 2.9334178
0.010477848 -0.027752405 2.9144194
-0.67813975 0.023279672 2.9201386
-0.3641932 0.030697202 2.9049511
-0.32488301 0.021054748 2.9178896
-0.27708322 0.021132186 2.9330463
-0.23523431 0.01409716 2.9385514
-0.080858357 0.01411105 2.9492536
-0.016099403 0.01128876 2.9459233
0.024455478 0.021012137 2.9269764
0.059045535 0.027794247 2.9087231
-0.67598414 0.077931151 2.9159303
-0.40824729 0.090802096 2.9065504
-0.372632 0.078875758 2.914314
-0.32669193 0.077361055 2.9335856
-0.27421847 0.064467564 2.9450147
0.04566196 0.070208825 2.9402668
0.067147493 0.083572753 2.9162936
-0.68159181 0.12479542 2.9248037
-0.45762366 0.13282987 2.9039669
-0.4234964 0.1260878 2.9133098
-0.37574673 0.12704478 2.9398286
-0.33275038 0.12292475 2.9413872
0.07753741 0.12404429 2.9322534
0.10594515 0.13501684 2.9234178
-0.6772601 0.17546082 2.9255669
-0.46727628 0.17841686 2.9118366
-0.42601985 0.17616221 2.9289532
-0.38263187 0.16492039 2.9427536
0.11721519 0.17447664 2.9329047
-0.65951991 0.21171971 2.9035971
-0.50099051 0.2103003 2.9047549
-0.47425297 0.21087973 2.9158833
-0.43487373 0.21223366 2.9389894
0.14313237 0.20941576 2.918617
0.52789736 0.29058602 2.9298961
0.56453496 0.2904309 2.9093392
0.52930301 0.32687122 2.9352591
0.56418532 0.32676744 2.9113815
0.53068542 0.37759534 2.9389458
0.56452334 0.37721556 2.9126446
0.53609347 0.42647818 2.9414582
0.5638805 0.42562672 2.917495
0.53415912 0.46991017 2.9393878
0.56848514 0.47842151 2.913305
0.542687 0.5224781 2.93678
0.56604093 0.52694768 2.9177554
0.53870648 0.5741328 2.9392548
0.56372142 0.56737691 2.9197245
0.54041195 0.62797856 2.9375143
0.56928539 0.62646282 2.9119971
0.53831798 0.67928332 2.9455888
0.56971031 0.67373914 2.9170139
0.5393706 0.72403574 2.9443588
0.56759715 0.72219366 2.9174201
0.53782594 0.77233016 2.9441042
0.57124448 0.77619296 2.9169157
0.53845364 0.82230067 2.9427867
0.57048905 0.82297736 2.9187951
0.54075801 0.88064599 2.944597
0.57101333 0.87369651 2.9195294
0.53943002 0.91937941 2.9417832
0.57464725 0.92620105 2.92155
0.54760647 0.970339 2.9431343
0.57243431 0.97688311 2.9210873
0.60086018 0.99060959 2.9015901
0.5486728 1.0164263 2.9385474
0.573726 1.0301046 2.9238613
0.60327846 1.0384799 2.902597
0.5371353 1.0669655 2.9470747
0.57162559 1.0770851 2.925648
0.60527802 1.0859516 2.9009535
0.57368284 1.1253798 2.9244349
0.60616726 1.1022453 2.9013283
0.54291832 1.1907952 2.9487247
0.57588732 1.1743399 2.9234483
0.57812065 1.2236432 2.9217291
0.57581717 1.2737786 2.9260998
0.60056353 1.268435 2.9049609
0.57595074 1.3257501 2.9304688
0.60312098 1.3188154 2.9029744
0.57255918 1.3767248 2.9302251
0.60521114 1.3534523 2.9030924
0.57593399 1.4271669 2.928601
0.61016351 1.4251899 2.9057808
0.57551187 1.4747652 2.9319687
0.60616028 1.4795078 2.9075522
0.57414985 1.5262519 2.9329278
0.60675043 1.5229062 2.9094429
0.54756093 1.5691258 2.9480016
0.57848638 1.577122 2.9274817
0.6046617 1.5716238 2.908582
0.58025175 1.6281751 2.9299626
0.60827875 1.6275419 2.906908
0.58356744 1.6766416 2.9301343
0.61167967 1.675614 2.9065506
0.58186537 1.7210671 2.9339011
0.60996896 1.7306108 2.9105194
0.58311474 1.7695769 2.9371679
0.61268115 1.7791783 2.9145911
0.59118772 1.8219129 2.938406
0.61663008 1.8304173 2.914387
0.59185743 1.8766868 2.9429092
0.61623776 1.8820852 2.9172442
0.58690608 1.9190004 2.9435194
0.61403263 1.9226362 2.9183896
0.59074181 1.9723139 2.9416945
0.62079185 1.9725194 2.9203348
0.65309072 1.9962723 2.9007881
0.59557408 2.0295584 2.9437864
0.62478095 2.0178778 2.9214602
0.59856498 2.0727749 2.9403095
0.62371731 2.0735579 2.9271934
0.62541866 2.1262796 2.925777
0.58911139 2.1564515 2.9450009
0.62321669 2.1784041 2.9309845
0.65359443 2.1820388 2.9029176
0.59444499 2.2266421 2.9410727
0.62326682 2.2226217 2.9211729
0.59360534 2.2844303 2.941066
0.62510711 2.2683799 2.9120243
0.57914245 2.3309894 2.9421546
0.61645716 2.3221083 2.9142561
-2.0508647 2.3837507 2.9452922
-2.0202012 2.3894219 2.926657
-1.9619858 2.376698 2.939414
-1.9203387 2.3841641 2.9190836
-1.8723491 2.3789387 2.9188616
-1.825386 2.3729408 2.9202318
-1.7967045 2.3783727 2.9009178
-1.608268 2.3838446 2.9211042
-1.5630056 2.3861153 2.9322405
-1.5231048 2.3790431 2.9227996
-1.47228 2.3839788 2.9226995
-1.4279968 2.3886523 2.9288375
-1.3719854 2.3851614 2.9273357
-1.3222852 2.3901823 2.9252927
-1.2774627 2.3823705 2.9122181
-1.2224571 2.3866498 2.9228523
-1.1798599 2.3932912 2.9285076
-1.130477 2.3949673 2.9350815
-1.0096042 2.3993652 2.9421864
0.57061368 2.3689799 2.9322989
0.60962188 2.3539879 2.9065855
-1.4028225 2.4008267 2.9178982
-1.1254655 2.4020593 2.9097073
-1.0684962 2.4073176 2.9260883
-1.0286254 2.4074593 2.9234316
-0.9760291 2.4151597 2.9227636
-0.93126678 2.416249 2.9271443
-0.87109548 2.4172833 2.932461
-0.82763356 2.4181638 2.9442606
-0.71115905 -0.23332776 2.9975598
-0.70113117 -0.17969196 2.957572
-0.70522505 -0.14458017 2.9761364
-0.16311303 -0.019735921 2.9586732
-0.12064389 -0.019717483 2.9578362
-0.090420105 -0.01875904 2.9549065
-0.21841927 0.033112589 2.9651787
-0.17324646 0.021277787 2.9624135
-0.1240502 0.021316871 2.9714699
-0.073688135 0.021757262 2.9632175
-0.030715888 0.02829197 2.9603581
0.0035816303 0.04226701 2.9504888
-0.27008775 0.088143595 2.9585109
-0.22402595 0.076388724 2.9763906
-0.17200483 0.072461173 2.9811239
-0.12637918 0.069518387 2.9841318
-0.070995755 0.074662074 2.9890535
-0.024807671 0.078171775 2.9763148
0.019868137 0.079370737 2.9599929
-0.36444312 0.14160901 2.9503593
-0.31608814 0.13151553 2.9657888
-0.27378663 0.12811463 2.9719217
-0.22879331 0.12342152 2.9909139
-0.18250401 0.10026959 2.9965787
-0.060708418 0.11442623 2.9953084
-0.021359656 0.1178357 2.9911985
0.026842825 0.12672316 2.978338
0.060093369 0.13423166 2.958389
-0.70211208 0.17293692 2.9617586
-0.36580989 0.18479243 2.9598522
-0.325679 0.17399082 2.9735222
-0.2871049 0.17000341 2.9921975
0.046309274 0.16369987 2.9795451
0.075953953 0.17580105 2.9751167
0.10257786 0.19093862 2.958756
-0.40870044 0.21332741 2.9568527
-0.37426129 0.21397986 2.968996
-0.32623109 0.2080227 2.9901774
0.075138271 0.2074208 2.9926162
0.10997082 0.21278042 2.9665091
0.5195632 0.43718868 2.9530945
0.51995093 0.48771462 2.9500554
0.52611947 0.52496523 2.9531276
0.51701558 0.57856905 2.9649639
0.51850939 0.62371153 2.9675436
0.51821411 0.67854273 2.9639134
0.5193013 0.72634834 2.9563773
0.51856697 0.77389592 2.952616
0.52257258 0.82594901 2.9580708
0.52186465 0.87268502 2.9596062
0.5236448 0.9330461 2.9652915
0.52510124 0.97749615 2.9610639
0.52413589 1.0261188 2.9702609
0.51810163 1.0735821 2.9681389
0.52698553 1.1214199 2.9638653
0.52720606 1.1690649 2.9642472
0.52614272 1.2240858 2.9618835
0.52598208 1.2716373 2.9629672
0.52372122 1.3212702 2.9626815
0.5505048 1.3289623 2.9531188
0.52421987 1.3777193 2.9677832
0.52864659 1.4253179 2.9659908
0.52953941 1.4742014 2.9693267
0.52239603 1.5247047 2.9701774
0.52542228 1.5726869 2.9713023
0.55155194 1.5962167 2.9632993
0.52125102 1.6230565 2.9775372
0.5527578 1.6311032 2.957057
0.52819997 1.6724807 2.9756227
0.55534256 1.6781225 2.9544547
0.52806526 1.724061 2.9831293
0.55870122 1.7279348 2.9551306
0.53809953 1.7683005 2.9818547
0.55657607 1.7862551 2.9695501
0.53255081 1.8199078 2.9865327
0.5629704 1.8218476 2.9631145
0.53075385 1.8730561 2.9903665
0.56912816 1.8687133 2.960186
0.53538084 1.9212557 2.9886391
0.56495649 1.9276558 2.9706912
0.54338378 1.9764037 2.9889617
0.56905907 1.9737943 2.9642079
0.53493053 2.0240693 2.9952259
0.56713003 2.0241308 2.966491
0.53988117 2.093034 2.9958136
0.56930268 2.0783105 2.9697783
0.535245 2.1190929 2.9893315
0.57292581 2.1278312 2.9682713
0.54408145 2.1684246 2.9855723
0.57116443 2.1786015 2.9677098
0.54173982 2.2254214 2.9879022
0.571697 2.2281501 2.9635921
0.5341087 2.2652183 2.9861298
0.56434566 2.2786584 2.9693418
0.52654904 2.3286364 2.9875009
0.55837077 2.31985 2.9600132
-2.0131562 2.3845563 2.969517
-1.9287871 2.3801172 2.9798944
-1.8926805 2.392128 2.959698
-1.834375 2.3780155 2.9682741
-1.7702935 2.3772659 2.9789791
-1.738342 2.3815265 2.9804921
-1.6516491 2.3833137 2.9833834
-1.5087585 2.3858631 2.9700756
-1.4740735 2.3779109 2.9865711
-1.4264122 2.3799653 2.9762235
-1.371945 2.3860538 2.977581
-1.3246613 2.3881919 2.9698298
-1.2764893 2.3871617 2.9767745
-1.2264754 2.3911452 2.9718363
-1.1744303 2.3910635 2.9745922
-1.1211749 2.3952754 2.9755523
-1.0768747 2.3948455 2.9667878
-1.0287666 2.391032 2.9705563
0.49084663 2.3897424 2.9874949
0.52123612 2.3775785 2.974828
0.55487961 2.3578522 2.9540708
-0.98070258 2.4061151 2.9776192
-0.9244532 2.413151 2.9722929
-0.8756603 2.4149683 2.97769
-0.82367706 2.4146438 2.9756427
-0.7792424 2.4223247 2.9782529
-0.73205948 2.4207246 2.9687743
-0.67986369 2.4223516 2.9812686
-0.62753004 2.4232757 2.9920266
-0.58156276 2.4147346 2.988874
0.44012013 2.4060628 2.9979529
0.46645352 2.4070692 2.9959259
-0.18273959 0.086067051 3.0009415
-0.11099107 0.086017616 3.0015726
-0.0966684 0.086023502 3.0021114
-0.21207538 0.13668901 3.0078406
-0.17671102 0.1273142 3.0101588
-0.12594144 0.12246542 3.0152385
-0.08021652 0.12704273 3.0109961
-0.025084313 0.13658917 3.010601
0.0036485633 0.1434411 3.0036473
-0.26135111 0.17577031 3.0083663
-0.22701147 0.17308138 3.0134792
-0.17719853 0.17370774 3.0265825
-0.12649713 0.17364676 3.0269239
-0.077938169 0.1738618 3.0315132
-0.025322117 0.17401591 3.0352607
0.021031275 0.17502615 3.0273824
-0.30657226 0.21651243 3.0096035
-0.27484137 0.20845883 3.0146236
-0.2281661 0.20871465 3.0269637
-0.17737509 0.20286886 3.0288906
-0.11278693 0.20390433 3.0464458
-0.098235689 0.20392527 3.047092
-0.025394939 0.20357569 3.04282
0.025389686 0.20645893 3.0318067
0.068328708 0.21564859 3.0073438
0.51639426 0.58601397 3.0040872
0.51276642 1.7849084 3.0080752
0.5130052 1.8303677 3.0096474
0.50999874 1.8771499 3.006691
0.51320112 1.9217803 3.0096977
0.52133703 1.9699098 3.016098
0.51099902 2.0210869 3.0212808
0.52143198 2.0778902 3.0155928
0.51187634 2.1241357 3.0281491
0.522443 2.1752903 3.0152466
0.51704526 2.2311263 3.0094609
0.48937231 2.2871881 3.0390267
0.51015413 2.2752597 3.0132
0.47891462 2.3243797 3.0278785
0.50570029 2.3173203 3.0093586
-2.0729444 2.3705287 3.0043013
-1.9987015 2.3940015 3.0419657
-1.8515043 2.3742764 3.0431085
-1.8422768 2.3815064 3.0148528
-1.7306714 2.3909588 3.0434642
-1.5134621 2.3893564 3.014348
-1.4567816 2.3724315 3.0125365
-1.4234335 2.387218 3.0285063
-1.3705508 2.384701 3.0255749
-1.3275523 2.38696 3.0157819
-1.2757949 2.3840542 3.0305305
-1.2311316 2.3936722 3.0247872
-1.1718454 2.389993 3.0267756
-1.1135821 2.3904226 3.0272446
-1.0733169 2.3900778 3.0203059
-1.0240813 2.3929613 3.0264435
-0.98836356 2.3980999 3.0190599
-0.91419888 2.3912015 3.0292149
-0.88002008 2.3990552 3.0243871
0.43786418 2.3826482 3.0358486
0.47025695 2.3725357 3.0187113
-1.2163304 2.4063609 3.0353341
-1.1505597 2.4014008 3.0121088
-1.132599 2.4015791 3.0181358
-1.0350715 2.4027123 3.0121982
-0.96036899 2.4041023 3.0166988
-0.92649615 2.4017408 3.013329
-0.82684171 2.4059381 3.0199637
-0.7748847 2.4125195 3.0290239
-0.72201943 2.4194193 3.0214126
-0.67415512 2.4270308 3.0317752
-0.62482202 2.4293208 3.0348334
-0.58934689 2.4292593 3.0406404
-0.52422148 2.4282746 3.0234728
-0.47034326 2.4186125 3.0270243
-0.41767392 2.4279618 3.0282564
-0.37257028 2.420516 3.0237141
-0.32836506 2.4175198 3.0241356
-0.27579352 2.4170454 3.0278604
-0.22277862 2.4121759 3.0253155
-0.17089085 2.4201906 3.0381775
-0.11785194 2.4114108 3.0292063
-0.074206874 2.4104033 3.029094
-0.030662952 2.4217913 3.0440128
0.021862974 2.4122849 3.0321293
0.074415416 2.4164643 3.0367033
0.12706198 2.4185374 3.037883
0.17937367 2.4157913 3.0322647
0.23216802 2.4187684 3.0330763
0.27655667 2.4236999 3.0362551
0.32016796 2.4217672 3.0302718
0.37567332 2.4105434 3.0243285
0.41617784 2.4100761 3.0227485
-0.23083089 0.21994947 3.0621066
-0.054661028 0.20435178 3.0541899
0.032866679 0.20414566 3.0513182
0.5113638 2.0120265 3.0833862
0.50886416 2.2360361 3.0859385
0.43352872 2.2951655 3.0909338
0.48231843 2.2854991 3.0833149
0.50753134 2.2562346 3.0626192
0.3923547 2.3458376 3.0950429
0.42718336 2.324878 3.0729578
0.46731055 2.3064387 3.0679431
-1.8334824 2.3757052 3.0550573
-1.7632511 2.3904719 3.0707188
-1.7072185 2.3789389 3.079253
-1.6733361 2.3806772 3.0764737
-1.4689986 2.3888433 3.0734642
-1.4194397 2.3909836 3.0695488
-1.373992 2.3881736 3.0694513
-1.3318022 2.3905361 3.0755575
-1.271871 2.3886864 3.0680313
-1.2202691 2.3910253 3.079433
-1.1800867 2.3947258 3.0819538
-1.1219559 2.3953142 3.0787649
-1.0839598 2.3956695 3.0623965
-1.022733 2.3948119 3.0695
-0.97897363 2.3962612 3.0804088
-0.92187667 2.393364 3.0665698
-0.86930287 2.3971345 3.0845017
-0.83010536 2.3969853 3.0752206
-0.78256613 2.3978574 3.0687299
0.37859082 2.3763595 3.0818732
0.41559917 2.369463 3.0620601
-1.2408733 2.4003563 3.0568926
-1.1428994 2.4051902 3.0577924
-1.0686963 2.4021323 3.0760243
-0.96965647 2.4002943 3.0637767
-0.87565643 2.4017491 3.065135
-0.78481185 2.4046974 3.077528
-0.7285102 2.4072161 3.0709748
-0.67432112 2.4153359 3.0719652
-0.62012762 2.418977 3.0744655
-0.57357085 2.4381278 3.0778391
-0.53492445 2.4347539 3.0733862
-0.42300257 2.4410212 3.0784893
-0.37807319 2.4383678 3.0799208
-0.33310309 2.4352071 3.0801303
-0.27809665 2.4200649 3.0652978
-0.22647764 2.4343424 3.0869629
-0.17212413 2.4194841 3.0709293
-0.11911636 2.4182928 3.0714719
-0.072004795 2.4124246 3.076524
-0.026482688 2.4181509 3.0815556
0.022031808 2.4127548 3.0662651
0.07497482 2.4160299 3.0697486
0.12793078 2.4170735 3.0696495
0.17675841 2.4177051 3.0769625
0.22581105 2.4180002 3.0832424
0.27310911 2.4148889 3.0727313
0.32311729 2.4172239 3.0751324
0.37118307 2.4089117 3.0685101
0.51148808 2.2125592 3.1218276
0.38358909 2.2932086 3.1280882
0.42723098 2.2908161 3.1202316
0.47780132 2.2862511 3.128962
0.34178597 2.3352699 3.137414
0.37286499 2.3199298 3.1211255
0.40854594 2.3024149 3.1035876
-1.8805454 2.3946342 3.1317477
-1.8226175 2.3925159 3.1347816
-1.7712994 2.3951473 3.1192782
-1.7017566 2.3788395 3.1258252
-1.6738077 2.3855152 3.1058316
-1.6494993 2.3779571 3.1047833
-1.430709 2.3933406 3.1163812
-1.3978856 2.3947644 3.1107712
-1.3127759 2.3946462 3.1018639
-1.2261264 2.3885334 3.1226623
-1.1728071 2.3863585 3.1107485
-1.1354499 2.3913953 3.1168265
-1.0567634 2.3981216 3.1115134
-1.0254891 2.3952112 3.1255531
-0.9839949 2.3991435 3.1327939
-0.92151791 2.3977902 3.1095181
-0.87318242 2.3897402 3.1098943
-0.84951764 2.3995612 3.1289122
-0.78489888 2.3964427 3.1384923
-0.60345525 2.3968594 3.1006355
0.29083711 2.398746 3.1397221
0.3289201 2.3819766 3.1375301
0.36483315 2.3639002 3.1103432
-1.3757406 2.4050994 3.1348324
-1.3236144 2.4049439 3.1334066
-1.2864969 2.4149623 3.1413825
-1.1139841 2.4045625 3.1423206
-1.0858121 2.4016716 3.1081772
-0.96469176 2.405786 3.1284499
-0.92610455 2.4035702 3.1287868
-0.81951457 2.4063494 3.1327183
-0.77321297 2.4064682 3.1183109
-0.72300315 2.409421 3.1232357
-0.67449522 2.4103494 3.118552
-0.63770562 2.4075778 3.1212101
-0.57121164 2.4207351 3.1197088
-0.5204109 2.4245822 3.1262019
-0.48073921 2.4360237 3.1171987
-0.42637852 2.4335773 3.1204946
-0.37324294 2.4383638 3.132283
-0.3151297 2.435945 3.1308875
-0.27711728 2.4395704 3.1361954
-0.22881198 2.4417126 3.1305873
-0.17460828 2.4360921 3.1262047
-0.12044781 2.428931 3.1190822
-0.075749174 2.4179549 3.1232853
-0.031073002 2.417443 3.117543
0.022339031 2.4199164 3.1264935
0.075940624 2.4211872 3.1274602
0.12941682 2.4190238 3.1232388
0.17759366 2.4240439 3.1335452
0.214562 2.4182408 3.1270018
0.26752448 2.4127181 3.1164689
0.32464668 2.402019 3.1067307
0.33778772 2.2920361 3.1889696
0.38525888 2.2913504 3.1837349
0.42849088 2.2917271 3.1704111
0.46745384 2.2799809 3.1706631
0.50110465 2.2710004 3.1538677
0.29177016 2.3345413 3.192915
0.32052746 2.3202093 3.1708977
0.36992276 2.3001997 3.1740382
-1.3910475 2.3964746 3.1569054
-1.1459819 2.3950028 3.1575902
-1.0283412 2.3988693 3.1584263
-0.97891957 2.3973801 3.1787598
0.27927205 2.3734958 3.1765754
0.30909246 2.3746362 3.1584301
-1.3695972 2.408505 3.1832242
-1.3250396 2.4058716 3.1747844
-1.2760191 2.4164844 3.1773014
-1.2388345 2.4127171 3.1940625
-1.1816847 2.4111371 3.1702328
-1.1242331 2.4080586 3.1831589
-1.0819201 2.4061997 3.1733611
-1.0154338 2.4120195 3.1807046
-0.95001948 2.4058158 3.1508882
-0.92695105 2.4080944 3.1785915
-0.87896508 2.4123938 3.1770706
-0.83315277 2.4129052 3.1879501
-0.77370936 2.4089358 3.1763148
-0.72724169 2.4159348 3.1765957
-0.67078322 2.4148006 3.1761465
-0.62329078 2.4121239 3.171423
-0.58057576 2.4103742 3.1720562
-0.51768494 2.4122686 3.1780696
-0.47560403 2.4197459 3.1668024
-0.43042269 2.4203603 3.1728561
-0.37987512 2.4234543 3.1786733
-0.32574144 2.4306836 3.1702261
-0.26820269 2.4376037 3.1924706
-0.22702269 2.4359965 3.1719415
-0.17679441 2.440114 3.1834068
-0.12220049 2.43626 3.1804647
-0.085642859 2.4358013 3.1634216
-0.031522837 2.434582 3.1742537
0.031690568 2.4265442 3.1869507
0.076810755 2.4214723 3.1796534
0.13111478 2.4233179 3.1806488
0.17896552 2.4123824 3.1760302
0.22133054 2.4124024 3.1797245
0.26259318 2.4073055 3.1646416
-0.26761168 2.4504082 3.1741834
0.34765625 2.2940152 3.2383347
0.37613621 2.2901952 3.2184551
0.42400494 2.2873893 3.2306333
0.47722301 2.2829909 3.2184367
0.50824291 2.2763267 3.2141178
0.23987918 2.3266611 3.2384846
0.2750167 2.3216736 3.2216763
0.31051567 2.3044822 3.2204409
-1.8623594 2.3921692 3.2070451
-0.96230161 2.3996997 3.2148144
0.22495355 2.3796189 3.2279496
0.25778186 2.3610859 3.2139997
-1.8256781 2.4057763 3.2253165
-1.771489 2.4092243 3.2340205
-1.7356303 2.410408 3.2298501
-1.660557 2.4165006 3.2064846
-1.5820806 2.40083 3.2149799
-1.4094177 2.4089952 3.2108054
-1.3610545 2.4079287 3.2266982
-1.3163432 2.4081616 3.2289398
-1.2789934 2.4163446 3.2266617
-1.2201062 2.4090428 3.2186298
-1.171737 2.4103329 3.211622
-1.1271659 2.415601 3.232609
-1.0734125 2.414149 3.2325802
-1.031256 2.4086998 3.2101276
-0.9255349 2.4130342 3.2174098
-0.87932283 2.4054654 3.2172973
-0.82584256 2.418093 3.22475
-0.77207541 2.4171038 3.2187674
-0.72451425 2.4191706 3.2182927
-0.67432356 2.4046919 3.2071474
-0.61977744 2.4065373 3.2186205
-0.57144517 2.4153636 3.2259104
-0.53269863 2.4164732 3.2267635
-0.4755806 2.4127173 3.2252018
-0.42605937 2.4198179 3.226042
-0.3757121 2.424634 3.2286417
-0.3244445 2.4229114 3.2218933
-0.26991451 2.4256999 3.2296855
-0.22413808 2.4254944 3.2322361
-0.17817666 2.4318438 3.2252271
-0.12372696 2.439101 3.2369239
-0.072228074 2.4414067 3.2271104
-0.031857118 2.4365511 3.2176852
0.018251361 2.431529 3.2199161
0.072905391 2.4191937 3.2205865
0.12846646 2.4167733 3.2212811
0.1689648 2.4161406 3.2313011
0.20469436 2.4020238 3.2195399
-3.7952352 0.16970068 3.2976387
0.26698846 2.2991083 3.2516017
0.32343665 2.2962677 3.2795835
0.4232865 2.2850356 3.2726266
0.46804962 2.2816577 3.2628572
0.17857574 2.3354967 3.2898884
0.22290424 2.319032 3.267025
0.28393957 2.3024807 3.2793286
0.32191035 2.3035715 3.2540298
0.36968568 2.3006506 3.282032
-1.9237697 2.3921585 3.2713485
-1.8337225 2.3995171 3.2810571
0.17922248 2.3808641 3.28107
0.2052402 2.3536351 3.260134
-1.8174386 2.4044015 3.2972887
-1.7492718 2.4132516 3.2973034
-1.6827991 2.4093733 3.2746425
-1.5682025 2.4197478 3.2952242
-1.5447346 2.4137936 3.2949562
-1.3039505 2.4067948 3.2859998
-1.2788578 2.4150591 3.2656138
-1.2249284 2.4219537 3.2932339
-1.173438 2.4143207 3.2569027
-1.1314144 2.4261146 3.2867723
-1.0719469 2.4151499 3.2770383
-1.0196047 2.429054 3.2816219
-0.97937453 2.4329252 3.2777891
-0.92379069 2.4205761 3.2540021
-0.86909288 2.4249101 3.2724998
-0.81897658 2.4157238 3.2699358
-0.77051359 2.4198518 3.2665336
-0.72887659 2.4260757 3.2792811
-0.67408895 2.418309 3.2629728
-0.62863553 2.4223564 3.2759273
-0.57088643 2.4144602 3.2734852
-0.52698255 2.4179463 3.2720213
-0.45634669 2.4163489 3.2540891
-0.4187251 2.4120646 3.2522752
-0.37307468 2.414396 3.2599392
-0.33255386 2.4166529 3.2755723
-0.2725645 2.4217927 3.2779655
-0.22579572 2.4158573 3.272758
-0.17989077 2.4274483 3.2727973
-0.12434074 2.4235575 3.2695916
-0.069073036 2.4242334 3.2718189
-0.023032114 2.4280944 3.2775631
0.023070008 2.4257669 3.2744472
0.081935987 2.4194484 3.2687123
0.12766944 2.4116671 3.2833016
0.1655172 2.4051404 3.270061
-3.7726724 0.17368214 3.3331516
0.17924833 2.2980587 3.3272171
0.23766644 2.2939608 3.3306456
0.33552828 2.2984815 3.3183687
0.37320107 2.2931406 3.3295486
0.41507471 2.2855597 3.3170002
0.12925781 2.3267884 3.3338039
0.16251168 2.3139892 3.3143215
0.21251468 2.3058395 3.3125947
0.27461654 2.3076353 3.3238049
0.30912107 2.3072195 3.3330772
0.37295926 2.3025956 3.3212261
-1.9379909 2.3895569 3.3082716
-1.8997878 2.3923955 3.3323681
-1.7340528 2.3998129 3.3276465
0.097532749 2.3775585 3.3336031
0.12306075 2.3723598 3.3183205
0.15227211 2.3717818 3.3056889
-1.7266219 2.4094503 3.3010724
-1.6882424 2.4114654 3.3213413
-1.6179206 2.4156008 3.3126514
-1.5269876 2.4125953 3.343981
-1.3211097 2.4189515 3.3410513
-1.2723141 2.419832 3.3163216
-1.2374152 2.4272671 3.3386793
-1.1742187 2.4233787 3.3378818
-1.123041 2.4301815 3.3354883
-1.0726385 2.4251583 3.3415499
-1.026904 2.4225302 3.3195415
-0.97533536 2.4345257 3.3300838
-0.9262569 2.4281247 3.3126576
-0.86899877 2.4322374 3.3214743
-0.82157969 2.4324827 3.331634
-0.79506683 2.4384704 3.3454444
-0.71291375 2.4370849 3.3202636
-0.67353606 2.4311063 3.3184369
-0.62522054 2.4266152 3.3197489
-0.5770874 2.4217894 3.319957
-0.51675928 2.4294968 3.3294203
-0.47292691 2.4264078 3.3210783
-0.4258132 2.4248185 3.3239377
-0.37979698 2.4297926 3.3353038
-0.32223141 2.4296923 3.3216019
-0.27467859 2.4216738 3.3139622
-0.21971814 2.4318161 3.3311746
-0.17209858 2.4199269 3.3170929
-0.1256706 2.4212966 3.3206177
-0.069777094 2.4213474 3.3219988
-0.023253478 2.4242363 3.3265018
0.027944345 2.4167368 3.325259
0.075313911 2.4096115 3.3203492
0.11572174 2.4068675 3.3011391
-3.7606976 0.15884688 3.3510535
-3.7408156 0.1700995 3.3745253
0.13482648 2.2965035 3.3819928
0.17173819 2.2927654 3.3751755
0.22358274 2.2898104 3.3721681
0.27365366 2.2915277 3.3681037
0.32027403 2.293323 3.3675511
0.36588439 2.2791123 3.3615012
0.090288296 2.3231976 3.3738704
0.11596734 2.3097732 3.3648651
0.031042684 2.3889289 3.3874466
0.070170179 2.376224 3.3689454
-1.9304022 2.4103382 3.3986759
-1.8503969 2.407187 3.3822389
-1.8164496 2.4095976 3.354212
-1.7056403 2.416173 3.3679039
-1.6825213 2.4282467 3.3826816
-1.6228113 2.4177938 3.3593953
-1.5739402 2.419486 3.3816984
-1.5216196 2.4256516 3.3894961
-1.4208366 2.4169123 3.3898215
-1.2606686 2.4152107 3.3545334
-1.2163843 2.4239793 3.3815064
-1.1727366 2.4241204 3.3737526
-1.120006 2.4253004 3.3696082
-1.0870529 2.4382615 3.3980353
-1.0296447 2.4274611 3.3761916
-0.9807319 2.4358864 3.3804328
-0.92035645 2.4342608 3.3819077
-0.8749975 2.4328547 3.3757768
-0.81959504 2.4357033 3.3754528
-0.77012062 2.4403992 3.3722811
-0.73414111 2.4405394 3.3724906
-0.67986137 2.4350917 3.3610229
-0.62798178 2.4327929 3.3811393
-0.57690489 2.4420142 3.3862703
-0.52709031 2.4322255 3.3788731
-0.47739667 2.4210234 3.3689423
-0.36919719 2.428865 3.3814261
-0.32499713 2.431407 3.3606482
-0.27325416 2.4274085 3.3680017
-0.2216682 2.4254632 3.3775883
-0.17741041 2.4251316 3.3730433
-0.12315722 2.4193084 3.3692977
-0.070469566 2.4174461 3.3716068
-0.020307317 2.4189751 3.3681183
0.014137654 2.4171512 3.371727
-3.7141874 0.17038381 3.4131193
-3.677506 0.17017938 3.4421153
0.12357012 2.2955818 3.4247143
0.17390418 2.2939224 3.4331017
0.23031996 2.2940767 3.4307644
0.2801384 2.2851095 3.4270942
0.31379771 2.2858653 3.4133091
0.023565007 2.3282952 3.4307892
0.076684944 2.3150308 3.4168794
-0.014197193 2.383956 3.4365473
0.019839343 2.3683715 3.4177742
-1.8276038 2.4082794 3.4269917
-1.7553457 2.4166222 3.4414358
-1.7058543 2.404547 3.4415054
-1.6688342 2.4174325 3.4164295
-1.623763 2.4172969 3.4191465
-1.5741093 2.4305322 3.4453592
-1.5102584 2.4295349 3.4224219
-1.470644 2.4303019 3.4380066
-1.4316124 2.4152739 3.4272635
-1.2150477 2.421191 3.4194806
-1.1774455 2.4296956 3.4329364
-1.1312778 2.4300013 3.4148238
-1.0719805 2.433593 3.4255931
-1.0210092 2.4337285 3.4282219
-0.98030949 2.4395008 3.426177
-0.92948633 2.4341624 3.4296188
-0.870529 2.4325216 3.4396155
-0.82568341 2.4296222 3.414506
-0.76924449 2.4392221 3.42923
-0.71839941 2.4405046 3.4204221
-0.67390186 2.4381211 3.428086
-0.62009442 2.4330711 3.4250093
-0.57200122 2.4427493 3.4262381
-0.52365994 2.4413929 3.4304786
-0.47119296 2.4480548 3.4364841
-0.42606193 2.4424036 3.4236
-0.39811796 2.4376407 3.4384999
-0.31997123 2.4462669 3.4192359
-0.28007829 2.4315774 3.4013796
-0.21500719 2.4282885 3.438086
-0.17287552 2.4245074 3.4220846
-0.1332306 2.4238992 3.4257278
-0.071344547 2.4176812 3.4277418
-0.028436102 2.4113283 3.4192657
-0.57372403 2.4500844 3.4365711
-3.6643064 0.17056471 3.4717345
-3.6463268 0.18201898 3.4962385
0.099795721 2.2995143 3.4820185
0.11836969 2.2912817 3.4690962
0.17919266 2.2866199 3.4753799
0.22285542 2.2855668 3.4756927
0.25978243 2.2863622 3.4556746
-0.052518889 2.3327065 3.4943171
-0.023764681 2.3324194 3.4749227
0.028495006 2.3093851 3.4691472
0.071181312 2.3050931 3.4718173
0.13803974 2.3036115 3.4872243
-0.057471476 2.3774948 3.4837618
