ply
format ascii 1.0
comment PCL generated
element vertex 1483
property float x
property float y
property float z
element camera 0
property float view_px
property float view_py
property float view_pz
property float x_axisx
property float x_axisy
property float x_axisz
property float y_axisx
property float y_axisy
property float y_axisz
property float z_axisx
property float z_axisy
property float z_axisz
property float focal
property float scalex
property float scaley
property float centerx
property float centery
property int viewportx
property int viewporty
property float k1
property float k2
end_header
1.574061 0.41610113 1.6709334
1.6414058 0.440943 1.6612084
1.6617403 0.40490553 1.6601576
1.4091214 0.45266002 1.679813
1.4534256 0.46035114 1.6935689
1.503204 0.45596886 1.6946608
1.5538969 0.46184883 1.6919141
1.3899609 0.99011356 1.6981411
1.4150693 0.99644554 1.6972153
1.3446537 1.0379678 1.6868224
1.3761748 1.0268373 1.6833904
1.4190142 1.0232139 1.6850835
1.4563007 1.0281721 1.6821139
1.3381854 1.0730358 1.6744602
1.3655362 1.060352 1.6627202
1.4250057 1.0539825 1.6696155
2.0718255 1.0820638 1.6672982
2.0589609 1.1276832 1.6654266
-1.4868553 -0.50289768 1.7363174
1.5801969 -0.51094276 1.7117934
1.6462772 -0.50914222 1.7140424
1.6745293 -0.50351119 1.7256002
-1.5228066 -0.49727666 1.7405055
-1.4662066 -0.49944922 1.7319009
-0.75676036 -0.48488009 1.7306025
-0.72312737 -0.48725685 1.7342514
-0.6747027 -0.48651323 1.7239553
-0.62202877 -0.48584387 1.721941
-0.57362384 -0.48357332 1.7224652
-0.52411276 -0.482703 1.7281548
-0.47719777 -0.48206297 1.7255507
-0.42599413 -0.47835121 1.7229078
-0.380328 -0.4777481 1.7266818
-0.32375178 -0.48016924 1.724099
-0.27067223 -0.47971076 1.7301037
-0.22478446 -0.48134726 1.7253752
-0.17347756 -0.48370281 1.7298167
-0.1283177 -0.48149443 1.7245646
-0.078935005 -0.48143443 1.726169
-0.027844079 -0.48010147 1.7254964
0.019858124 -0.47816545 1.7284279
0.071609497 -0.47437626 1.7210181
0.12244394 -0.47109497 1.7300141
0.17068832 -0.46676052 1.7295594
0.22839089 -0.46617365 1.7236218
0.27213198 -0.46502966 1.7314522
0.32502311 -0.46394402 1.7331375
0.37253317 -0.46015078 1.7292379
0.42269203 -0.45903358 1.725808
0.47699076 -0.45752534 1.7278349
0.52519017 -0.45446935 1.726293
0.55135381 -0.45390394 1.7163048
0.67547107 -0.45451158 1.7062602
0.71639729 -0.45384973 1.7110503
0.77600467 -0.45358807 1.7167987
0.82999229 -0.45210782 1.7273475
0.87895775 -0.45400327 1.7181482
0.91918141 -0.45353729 1.7224016
0.97001714 -0.45202947 1.7257926
1.0267327 -0.45326561 1.726738
1.0739533 -0.45286989 1.7206384
1.1049124 -0.45026284 1.742141
1.1935655 -0.45110101 1.7001846
1.2787906 -0.45291835 1.7147737
1.3279697 -0.45519018 1.7300642
1.3778821 -0.45904922 1.7255865
1.4245801 -0.47003663 1.7166157
1.4821279 -0.48385963 1.7249005
1.5393307 -0.49574167 1.7194479
1.5567541 -0.49067739 1.7415159
1.6896591 -0.49375263 1.7232689
1.7155395 -0.48383725 1.710897
1.7803915 -0.48136628 1.7147937
1.8154227 -0.47789252 1.740633
0.54609776 -0.44371152 1.7312813
0.55444169 -0.44858396 1.7122262
0.68563932 -0.44668415 1.7089075
0.72625351 -0.4463408 1.7288494
0.78476882 -0.4495222 1.731192
0.89714044 -0.44718796 1.7234933
0.91447955 -0.44659585 1.7364073
0.96996701 -0.44916692 1.7032082
1.1315455 -0.43085539 1.7234083
1.1653665 -0.42130533 1.7161402
1.2296128 -0.4475995 1.7146648
1.2694137 -0.44812673 1.7223846
1.1334985 -0.37512544 1.7212937
1.1745254 -0.3764742 1.7226723
0.18552186 -0.30006778 1.724249
1.1175132 -0.3370412 1.7022929
1.1672521 -0.32380843 1.7102028
0.18113841 -0.2742956 1.72576
0.17968775 -0.22417706 1.7254705
0.17652483 -0.17442486 1.7299688
0.17518927 -0.12565608 1.7288028
0.17824404 -0.081394494 1.7207233
-0.91678637 0.22680752 1.7145288
-0.77309942 0.23344527 1.7342788
1.3264567 0.24540839 1.7302498
1.3800288 0.23913687 1.7290317
1.4341687 0.22528586 1.7241943
1.4765769 0.22988032 1.7268583
1.5163279 0.23101099 1.7263547
1.5632268 0.22202972 1.7439013
1.2462255 0.28437257 1.7458754
1.271897 0.28965336 1.7395386
1.3256648 0.2717244 1.7186207
1.3743482 0.27553982 1.7146175
1.4297343 0.27581927 1.7147756
1.4743509 0.2724857 1.7168716
1.5190557 0.26511353 1.7105129
1.5856023 0.2688278 1.7132308
1.6203269 0.27793095 1.7265577
1.2457191 0.32346737 1.7396134
1.2706405 0.32283187 1.7237163
1.3256675 0.32895979 1.7145076
1.3704565 0.32389337 1.7140036
1.4535561 0.30494067 1.7037455
1.2363503 0.37474149 1.7349343
1.2759557 0.37223202 1.7352879
1.3193271 0.37686908 1.7244692
1.364296 0.37914443 1.7031149
1.2411238 0.40779683 1.7452784
1.2631764 0.41075137 1.7400237
1.3238795 0.41307604 1.7382312
1.3825018 0.41683501 1.7148578
1.4148136 0.4463214 1.7216258
1.4309499 0.47944322 1.7398374
1.4818212 0.47332731 1.7257321
1.523948 0.47474718 1.7274597
1.5639979 0.47084579 1.7290082
1.437245 0.52393639 1.7444074
1.4776269 0.50859064 1.7462541
1.5035514 0.51323938 1.7429919
1.4432973 0.55869669 1.7449802
1.4728791 0.57499033 1.7400949
1.2612238 0.63385487 1.7468777
1.328544 0.62248278 1.7450103
1.2188077 0.68107212 1.7438492
1.2745767 0.67439723 1.741708
1.2270553 0.7088595 1.7436514
1.3094383 0.70024991 1.7426592
1.5183669 0.72604185 1.7398523
1.445709 0.79754466 1.7495987
1.3360361 0.93826467 1.7433211
1.3798616 0.93778527 1.7395436
1.4122503 0.93859351 1.7337089
1.3294692 0.97437888 1.7316998
1.3708488 0.97324252 1.7157652
1.4202216 0.97603506 1.7123823
1.3237872 1.0264567 1.7211609
1.3666464 1.0066836 1.7018458
1.455991 1.0136682 1.714373
1.2891717 1.0860288 1.7293222
1.3127061 1.0653447 1.7162993
1.2921411 1.1059439 1.7270302
-1.4996936 -0.50020522 1.774016
1.6266216 -0.50948924 1.766175
1.6797615 -0.51048833 1.7764331
1.7028848 -0.50588322 1.7891273
-0.80143672 -0.49517426 1.7981148
-0.76068509 -0.48184228 1.7657583
-0.72512764 -0.48706657 1.7780982
-0.6741516 -0.48479354 1.7734866
-0.63276064 -0.48399335 1.7715155
-0.57243001 -0.48385242 1.7705654
-0.52517974 -0.48267579 1.7768391
-0.4741489 -0.48064578 1.7697841
-0.42585957 -0.47889858 1.7728628
-0.36747631 -0.47827202 1.773488
-0.32518408 -0.48013175 1.7686073
-0.2704199 -0.48038402 1.7827721
-0.22377665 -0.48183358 1.7704991
-0.17817101 -0.48270115 1.7786682
-0.12236603 -0.48241606 1.7807537
-0.073351711 -0.48178139 1.7723129
-0.017216489 -0.47678024 1.7677376
0.025273474 -0.47750247 1.7749282
0.074040219 -0.47234476 1.77161
0.12733644 -0.46979898 1.7734684
0.17378242 -0.46744463 1.7793704
0.21832332 -0.46403328 1.7724239
0.28025094 -0.46264523 1.7680056
0.3281461 -0.46008667 1.7772851
0.37908515 -0.45997337 1.7720755
0.42719907 -0.46025443 1.7840469
0.4769842 -0.45693687 1.7714155
0.51736885 -0.45565048 1.7804855
0.77793652 -0.45386282 1.7666103
0.82949245 -0.45520362 1.7843899
0.87324184 -0.45301294 1.7666517
0.91573709 -0.45174965 1.7712665
0.96964467 -0.45271599 1.7661095
1.0698242 -0.45370805 1.7759746
1.1016097 -0.45198596 1.7781372
1.3754324 -0.45455694 1.7673445
1.4295907 -0.46467954 1.7755119
1.4669676 -0.47170562 1.7757367
1.5323063 -0.48636913 1.7738545
1.5795919 -0.49042511 1.7901858
1.6259243 -0.49620113 1.7901949
1.7369641 -0.49091873 1.7646273
1.7716566 -0.48334703 1.7761898
1.8172176 -0.47510371 1.7696056
1.894347 -0.47190389 1.7996727
0.53184968 -0.44918475 1.7830135
0.76321673 -0.44633502 1.7657814
0.82491404 -0.44846976 1.7994753
0.89129442 -0.44892326 1.77852
0.91975141 -0.44909957 1.7687013
1.1104393 -0.4467732 1.7728492
1.1842512 -0.41225457 1.7878588
1.4113541 -0.44820735 1.7860954
0.16650794 -0.30263042 1.7913345
0.14917257 -0.25500762 1.7966692
0.16397108 -0.27326024 1.766935
0.14886953 -0.23291834 1.7949263
0.16214472 -0.22638744 1.7700989
0.14750494 -0.16239694 1.783357
0.15944006 -0.17432199 1.7721871
0.14832091 -0.12245591 1.7952844
0.15947834 -0.12490693 1.7710911
0.14796688 -0.081421509 1.7924912
0.16018316 -0.078991212 1.7691727
1.4656836 0.19905379 1.7905871
1.551491 0.18214454 1.7946235
-0.99357218 0.22787619 1.799026
-0.90677673 0.23093852 1.7729871
-0.87959594 0.22985053 1.7730701
-0.83323795 0.23106633 1.7726828
1.2499932 0.24593981 1.7559233
1.2727802 0.23581542 1.7762389
1.3248938 0.24038714 1.7757956
1.3678107 0.22271912 1.7726408
1.4230565 0.21535209 1.7693692
1.4865854 0.21463099 1.7747532
1.520257 0.20987518 1.7554089
1.5695262 0.20707229 1.768663
1.2438934 0.29711968 1.7704573
1.2691159 0.27314261 1.7769096
1.316834 0.26847553 1.7733477
1.2323072 0.33020279 1.7716045
1.2619165 0.33011818 1.7618356
1.3241813 0.30579978 1.7534721
1.1888372 0.3793242 1.7862755
1.2200819 0.36975634 1.7731169
1.2922603 0.38034046 1.757038
1.3032062 0.39062944 1.7505665
1.2457278 0.41702065 1.7773975
1.2847619 0.4320519 1.7695473
1.3184472 0.42937458 1.759951
1.3755728 0.44180393 1.7795298
1.4047216 0.44709533 1.776418
1.3274176 0.46257341 1.7908134
1.3912299 0.4668625 1.787205
1.4126818 0.47747868 1.7692177
1.481631 0.49532604 1.7512429
1.4142569 0.52528852 1.7649633
1.4744043 0.53034061 1.7594414
1.5171213 0.53762084 1.77483
1.5544319 0.5377599 1.7785532
1.2356471 0.58566165 1.7833062
1.2816849 0.5806728 1.7801143
1.3250204 0.5828771 1.779603
1.3635064 0.58672249 1.7913148
1.4129736 0.57281679 1.7697734
1.4700058 0.58753383 1.7865242
1.5211356 0.57487702 1.7655842
1.5595312 0.5744164 1.7967376
1.1956048 0.63580531 1.7889214
1.2243619 0.62351549 1.7746434
1.2739865 0.62129521 1.7588339
1.3224984 0.62298834 1.7646167
1.3727528 0.64174044 1.781422
1.4275073 0.622805 1.779092
1.4759899 0.62541324 1.7794414
1.5243261 0.62391967 1.7846884
1.5798333 0.62649679 1.7945238
1.6102066 0.63699335 1.7972609
1.1940271 0.67856115 1.7948843
1.2202883 0.67234129 1.770998
1.2727093 0.67892283 1.7770376
1.3249942 0.67301828 1.7727879
1.3765774 0.66903019 1.7858555
1.430124 0.67622173 1.7855062
1.4738185 0.67991626 1.7684695
1.5200683 0.67724162 1.7888851
1.5866804 0.67990083 1.7934661
1.6218008 0.67570084 1.7901958
1.1908584 0.71237767 1.7952226
1.2151691 0.72208804 1.7796532
1.2696203 0.73285216 1.7889795
1.3305994 0.72447014 1.784332
1.3836156 0.72798061 1.7936236
1.4222709 0.72526759 1.7757897
1.4728423 0.72143364 1.7681521
1.5287902 0.71716839 1.7680146
1.5770452 0.71943915 1.7864028
1.6070428 0.72282189 1.7934248
1.387857 0.77072424 1.7790556
1.4301919 0.76513416 1.7677274
1.4756883 0.75878268 1.7606138
1.5356156 0.75882995 1.7850307
1.5733858 0.77118951 1.7804947
1.342589 0.89170754 1.7860798
1.3711679 0.88765764 1.7775186
1.3226664 0.92302114 1.7726018
1.3709631 0.91597366 1.7556899
1.4238027 0.92986083 1.7555542
1.2988998 0.97275966 1.7812349
1.3065584 0.97169948 1.7672722
1.3092442 1.0218165 1.7684731
1.295177 1.0650557 1.7546799
1.3092023 1.0722506 1.7847782
1.2966875 1.1066004 1.7889292
-1.4785438 -0.50392509 1.8095779
1.6700287 -0.50450003 1.806892
1.7322706 -0.50317138 1.8227636
-1.5512844 -0.49537766 1.8401533
-0.82015401 -0.48792276 1.8309308
-0.77849275 -0.48503125 1.8246127
-0.72730094 -0.48356634 1.8245796
-0.67785972 -0.48335472 1.8299181
-0.62156773 -0.48420626 1.8203669
-0.57517225 -0.48278075 1.8296819
-0.52230418 -0.48073977 1.8190273
-0.47455564 -0.48066378 1.8254853
-0.4225319 -0.4827702 1.8296953
-0.379345 -0.48103818 1.8293015
-0.32390329 -0.48139092 1.8252435
-0.28765562 -0.48168421 1.813978
-0.22631884 -0.48155373 1.8243997
-0.17613466 -0.48159379 1.8231243
-0.12302183 -0.48103902 1.8328496
-0.070705958 -0.47858015 1.8204662
-0.02539452 -0.47760794 1.8254687
0.026520224 -0.47519761 1.8237069
0.075316668 -0.47285059 1.8403889
0.12428055 -0.46744832 1.8253791
0.17512368 -0.46679601 1.8237116
0.23089974 -0.46312052 1.8280046
0.27179068 -0.46367761 1.8233846
0.31690812 -0.46351767 1.8376826
0.37305632 -0.46052864 1.8215781
0.43293688 -0.4575997 1.8198442
0.47623751 -0.45573461 1.8210242
0.51158684 -0.4506011 1.8060086
0.84020764 -0.45166299 1.8091611
0.87120217 -0.4540236 1.8249335
0.93065953 -0.45265898 1.8284397
0.97453225 -0.45437163 1.8199037
1.0268915 -0.45591918 1.8275344
1.080075 -0.45447654 1.8263204
1.4391086 -0.45365721 1.8009038
1.4849186 -0.46487179 1.8160496
1.520496 -0.48181546 1.8153296
1.5696325 -0.4831844 1.8224876
1.6221983 -0.49290061 1.8082108
1.6752988 -0.49819401 1.8364956
1.7792187 -0.48910412 1.8332306
1.824308 -0.47559318 1.8352101
1.8832475 -0.47510493 1.833205
0.49026257 -0.4468233 1.834093
0.50399882 -0.44284922 1.8144213
0.79561585 -0.44777226 1.8056989
0.82053727 -0.44801548 1.8139606
0.86442465 -0.44995302 1.8391483
0.92145461 -0.44971707 1.8178046
1.0990661 -0.44828829 1.8389249
1.1040113 -0.4462522 1.8260452
0.14468485 -0.30260235 1.8463132
0.14041565 -0.27005592 1.8271493
0.15355703 -0.28664377 1.8114595
0.14122981 -0.22388466 1.8237197
0.14198336 -0.17705101 1.8226376
0.13843012 -0.12572727 1.8246642
0.13351001 -0.083144657 1.830835
1.2681479 -0.056711916 1.8210931
1.3304253 -0.051085692 1.8423415
1.327811 -0.028433215 1.8430684
1.3463362 0.093419202 1.8426636
1.3491596 0.12469124 1.8450369
1.3603516 0.13381056 1.842418
1.3448381 0.1914181 1.8344643
1.3881489 0.17966475 1.8400277
1.4209335 0.19287154 1.822773
1.5315193 0.18962485 1.8142356
-1.0179539 0.22374885 1.8440689
-0.98801112 0.22878049 1.8100488
-0.92729628 0.22672224 1.8139645
-0.8988905 0.22550328 1.8128304
-0.82095814 0.23405899 1.8309958
-0.78778607 0.23391736 1.8400851
1.2827992 0.23604918 1.8239053
1.325578 0.22396411 1.8231438
1.3709795 0.20651212 1.8121517
1.4435475 0.20176291 1.8431566
1.4626724 0.20006107 1.8067944
1.5316684 0.2043955 1.8198669
1.5618582 0.20557298 1.8147926
1.1407949 0.29149362 1.8327273
1.1979737 0.2693038 1.8159211
1.2262305 0.2753801 1.8204916
1.2600243 0.26881108 1.8155334
1.2341441 0.31723174 1.8194964
1.1893816 0.38594323 1.817102
1.222873 0.37919211 1.8233868
1.1804013 0.40131563 1.8212452
1.235127 0.41421452 1.8232363
1.2667181 0.43544036 1.8225431
1.085045 0.49175802 1.8342749
1.1202741 0.46855554 1.8490669
1.1608766 0.49821034 1.8461128
1.2282227 0.48774061 1.8337501
1.2588875 0.49154088 1.841954
1.3192372 0.46426067 1.8291361
1.377033 0.47264695 1.816792
1.415472 0.49976245 1.8213595
1.0724323 0.52873838 1.843298
1.1253293 0.52636468 1.8417939
1.1696211 0.52840477 1.82812
1.2266085 0.53051275 1.8368638
1.271065 0.51944864 1.8394592
1.3030503 0.53002989 1.8467127
1.4124113 0.53253877 1.8201846
1.0449417 0.58665949 1.8455852
1.0731941 0.57020968 1.8308808
1.1243677 0.57315999 1.8236545
1.1691887 0.5679872 1.8197374
1.2195921 0.57282633 1.8166822
1.2765992 0.55791306 1.8239225
1.3269005 0.56448501 1.8303822
1.3783695 0.57865143 1.828245
1.4072273 0.57354647 1.8188084
1.5902176 0.5815981 1.8109938
1.6086252 0.56940871 1.8149223
1.0821147 0.60539705 1.8290297
1.1279155 0.61162615 1.8251286
1.1937516 0.63944572 1.8108082
1.2072127 0.61648345 1.8258828
1.383611 0.6086477 1.8139955
1.4106907 0.62888855 1.8122075
1.5264579 0.63642716 1.8027438
1.5644481 0.64305806 1.8051672
1.626904 0.6233328 1.814442
1.657618 0.63411433 1.8337798
1.1871099 0.66415983 1.8037634
1.3811464 0.68622142 1.8020214
1.4122885 0.67050791 1.8034652
1.5454491 0.66709232 1.8030219
1.5686817 0.67405653 1.8039736
1.6394722 0.66104901 1.8031856
1.1917378 0.72490245 1.8118505
1.2294632 0.73857433 1.8053823
1.3213307 0.73335278 1.8218409
1.3681074 0.71525729 1.8033794
1.5103898 0.74065721 1.8035889
1.6356004 0.72839135 1.8078369
1.2408916 0.77303779 1.8365942
1.2648891 0.76771623 1.8312583
1.3211876 0.76574928 1.8448902
1.3702345 0.77537858 1.827378
1.5306764 0.76462698 1.8111267
1.6340828 0.75937819 1.8089713
1.2349041 0.83797592 1.8390862
1.3068222 0.8481949 1.8475354
1.3621609 0.80534327 1.8323084
1.1484135 0.8915922 1.8483963
1.1737238 0.88104135 1.8333707
1.2127017 0.88341463 1.8391027
1.319564 0.87775767 1.8176789
1.3605016 0.87656313 1.8261144
1.4128489 0.89297068 1.8039236
1.134437 0.92398077 1.8375413
1.1740885 0.92574507 1.8166605
1.2078638 0.92839271 1.8168659
1.2963656 0.94092357 1.8165848
1.3073461 0.91964442 1.8162756
1.1327989 0.95556867 1.8307574
1.1681064 0.96466267 1.8194433
1.2309917 0.97881204 1.8374774
1.2979584 0.9679299 1.8200557
1.3193741 0.99636769 1.8313283
1.3144852 1.0247771 1.8197374
1.314261 1.1103783 1.8191434
1.7387577 -0.50521487 1.8821459
1.7671491 -0.5032928 1.873206
-0.85844058 -0.48344171 1.8569654
-0.83306503 -0.48559314 1.8747017
-0.76299602 -0.48604012 1.8760637
-0.72565436 -0.48252729 1.8714839
-0.66583049 -0.4832381 1.8688867
-0.63143194 -0.48567289 1.8791517
-0.56581217 -0.47885126 1.8733211
-0.53022712 -0.48291615 1.8742732
-0.4791255 -0.4813596 1.875192
-0.42362562 -0.48142815 1.8697506
-0.37664837 -0.48322612 1.8727959
-0.33150586 -0.48217869 1.8852503
-0.27613765 -0.48326102 1.8748437
-0.22672412 -0.48135513 1.8708079
-0.17264275 -0.48281926 1.8642809
-0.12994067 -0.4806003 1.87932
-0.076891772 -0.47924095 1.8753228
-0.025076268 -0.47491869 1.875864
0.025110088 -0.47314361 1.8687911
0.076607049 -0.46912304 1.8735439
0.12255742 -0.46772534 1.8771927
0.17419446 -0.46380293 1.8705554
0.21493459 -0.46353421 1.8757114
0.27737337 -0.46354932 1.8780962
0.32714665 -0.46296659 1.8762224
0.37434971 -0.45917842 1.864427
0.42629847 -0.4581604 1.8700095
0.48093614 -0.4596895 1.8910513
0.89490783 -0.45571408 1.8560172
0.91776848 -0.45410669 1.8808919
0.97145891 -0.45457929 1.8717037
1.0233107 -0.4542644 1.8704526
1.0810888 -0.4533028 1.8728321
1.5298021 -0.46801907 1.8624284
1.5635052 -0.47489136 1.8821099
1.6199291 -0.4912352 1.8716068
1.6760718 -0.49550596 1.893823
1.7213778 -0.49439692 1.8909662
1.7817516 -0.48862809 1.8769381
1.8162369 -0.47325873 1.8772682
1.9257097 -0.47668698 1.8688722
1.967936 -0.47796077 1.8723289
2.0888319 -0.46944788 1.8970014
2.1186736 -0.46541208 1.8896714
0.92699409 -0.44472122 1.8899782
2.1231723 -0.42596418 1.8944845
2.0939896 -0.35373309 1.8992665
2.1183531 -0.37479398 1.8944147
2.1246998 -0.33655062 1.8943563
0.12481795 -0.27492124 1.8703218
0.120693 -0.22581233 1.8764018
0.12044524 -0.17553291 1.869473
0.11860771 -0.12529518 1.8714833
0.12047162 -0.079127118 1.8768411
1.3261294 -0.059081294 1.8563354
1.3299599 -0.020317784 1.8623505
1.3458099 0.017900413 1.8810968
1.3567271 0.030060599 1.8721861
1.3596181 0.069176733 1.8784842
1.3492206 0.14653258 1.8641835
1.3706031 0.12249333 1.8608948
1.344014 0.18325359 1.8671303
1.3762175 0.17158999 1.8643633
1.4104066 0.18672231 1.8624223
-1.0134856 0.22490939 1.8576146
-0.91305214 0.23146981 1.8642439
-0.86963934 0.23272423 1.890913
-0.82954592 0.23100096 1.8877244
1.2771429 0.23846881 1.856304
1.3257873 0.21324679 1.8713007
1.3749036 0.2177211 1.8835359
1.4054118 0.22892189 1.8725696
1.1863205 0.28988561 1.8680437
1.2666146 0.28810269 1.855932
1.0474243 0.32174861 1.8988025
1.0762211 0.3113265 1.8851438
1.1412532 0.3078537 1.888543
1.1697487 0.31325081 1.870296
1.2239072 0.33010769 1.8800434
1.2525018 0.31024042 1.8737981
1.1829137 0.37882817 1.8971291
1.2237099 0.37990984 1.8831601
1.2607019 0.35098091 1.8594781
1.1840113 0.42065027 1.8721178
1.225668 0.43235224 1.8835943
1.2749897 0.44013411 1.8608305
1.0721433 0.49456733 1.8798616
1.1226281 0.48391205 1.8620282
1.1714799 0.47553781 1.8684298
1.2221836 0.47168222 1.8739003
1.2807705 0.4718304 1.8688463
1.3269461 0.48625046 1.8703357
1.3777579 0.4907994 1.8566152
1.4214324 0.48895812 1.8606607
1.040603 0.54188895 1.8594275
1.0659791 0.5172767 1.866052
1.1021334 0.52488804 1.850247
1.1934416 0.50852227 1.8539727
1.2208709 0.51955128 1.8564892
1.2858484 0.53176177 1.8593785
1.3321989 0.52290428 1.8684133
1.3755938 0.52723879 1.8687798
1.4216387 0.52955341 1.8716574
1.0335302 0.56948435 1.8679782
1.0553544 0.55177701 1.8502077
1.2000387 0.59387922 1.8674283
1.3327088 0.55372447 1.8636986
1.361842 0.56232071 1.8607004
1.4167565 0.56386799 1.8699344
1.0291684 0.60655665 1.8876545
1.085139 0.61163497 1.8619647
1.1289558 0.62783468 1.861972
1.1958061 0.62532967 1.8797801
1.2102655 0.62752092 1.8759897
1.6808106 0.62561172 1.8645976
2.0921202 0.63747865 1.8927739
2.1201313 0.6318379 1.8844814
1.2213471 0.67855477 1.8804986
2.0829656 0.67296565 1.8955154
2.1186836 0.67401648 1.8831048
2.1506474 0.6519841 1.8833166
1.2163763 0.72672021 1.8694503
2.122766 0.70340711 1.8906695
1.2284079 0.77899516 1.8915154
1.2735964 0.79008961 1.8740356
1.3294452 0.78346539 1.8597275
1.3555346 0.77513403 1.8565331
1.1458334 0.84348398 1.8957473
1.1804851 0.83383441 1.8795239
1.2232749 0.82845598 1.8766223
1.2910326 0.82303435 1.8759203
1.3205559 0.84609956 1.8710169
1.3630757 0.82793915 1.8858511
1.1312256 0.87900394 1.8792521
1.1669331 0.86249065 1.8621062
1.2334689 0.86778164 1.8623476
1.2837716 0.87532586 1.8807544
1.3122064 0.88334268 1.888525
1.3592644 0.88618416 1.8948009
1.1161104 0.92366844 1.8697358
1.2415292 0.91331679 1.8588244
1.282094 0.92487258 1.892065
1.3164862 0.92253357 1.8816293
1.4267408 0.90470231 1.8702081
1.1281803 0.96442604 1.8711568
1.3199315 0.96048445 1.8743696
1.1849358 1.0114183 1.8958719
1.2176623 1.0370842 1.8934499
1.3256687 1.0082128 1.8764281
-0.92421949 -0.49219751 1.9319534
-0.88322735 -0.49166012 1.9220581
-0.82112586 -0.48971578 1.9291332
-0.77807117 -0.4868257 1.9193333
-0.72409517 -0.4831076 1.9252805
-0.6786263 -0.48517227 1.9164542
-0.62516856 -0.48479286 1.9220862
-0.5869323 -0.4849512 1.9278456
-0.52657765 -0.48350286 1.9300944
-0.468885 -0.48207024 1.9283342
-0.42904997 -0.4821938 1.9298199
-0.37830353 -0.48536482 1.931784
-0.32155427 -0.48318121 1.9241141
-0.27234393 -0.48310718 1.934548
-0.22293565 -0.48481688 1.9308385
-0.17593023 -0.48311234 1.9223706
-0.12684536 -0.47914743 1.9286112
-0.076516844 -0.47733456 1.9230673
-0.033671159 -0.476096 1.9320464
0.027954901 -0.47326124 1.9254249
0.077478662 -0.46891662 1.9284515
0.12205359 -0.46575749 1.9290018
0.17616208 -0.4641287 1.9222385
0.20945835 -0.46347976 1.9297405
0.280958 -0.46257961 1.9301596
0.3246291 -0.46130535 1.9203099
0.37332225 -0.4601523 1.9233527
0.42299551 -0.45968491 1.9268112
0.47491449 -0.4571979 1.9237621
0.9749856 -0.45323229 1.9151231
1.0156989 -0.45538786 1.9238811
1.0689595 -0.45379671 1.9242891
1.6275953 -0.48722476 1.9221382
1.7249131 -0.48064482 1.9170802
1.7828708 -0.4881447 1.9230638
1.8085427 -0.479105 1.9250998
1.9357491 -0.47668704 1.9295781
1.9812239 -0.46703577 1.9237162
2.0269439 -0.45883361 1.9306732
2.0699687 -0.46103519 1.9096177
0.98566318 -0.44800851 1.9378549
1.0865111 -0.4496471 1.9062307
2.0449686 -0.42818099 1.9401528
2.0778651 -0.42534205 1.9194685
2.1119215 -0.42918944 1.9027284
2.1692557 -0.40090856 1.9124855
2.0441198 -0.37299502 1.9443312
2.0717866 -0.3733758 1.9229292
2.1150093 -0.3752867 1.9031556
2.1654704 -0.38080251 1.912499
2.0377474 -0.33391488 1.9442551
2.071898 -0.33426636 1.9172263
0.095836572 -0.27409652 1.9451631
0.10716615 -0.27538881 1.9174738
0.095447712 -0.22336543 1.9413944
0.10579146 -0.22531138 1.9175044
0.093514681 -0.17456265 1.9369197
0.10650258 -0.17399898 1.9130062
0.09486153 -0.12489438 1.9350637
0.10445245 -0.12697436 1.9167204
0.094664522 -0.083034694 1.9325014
0.10772377 -0.073295213 1.9185721
1.3576447 0.085407846 1.9100057
1.3493055 0.13822493 1.9062135
1.3598869 0.12687391 1.9101162
1.360898 0.17083693 1.9100159
-0.96866071 0.22929753 1.9188157
-0.93325412 0.22794464 1.9182349
-0.89420027 0.22681339 1.9205598
1.2280563 0.2911087 1.9022382
1.0386537 0.32213965 1.9052151
1.0730213 0.33881596 1.936193
1.1251112 0.32470682 1.9251516
1.1708288 0.33154961 1.9164363
1.2312671 0.32563999 1.9155327
1.2625386 0.34972405 1.9270564
1.0584998 0.35905433 1.9375656
1.1736642 0.37340835 1.9120697
1.2223868 0.37158844 1.9121978
1.2594087 0.37737375 1.9274538
1.1463084 0.44256711 1.9140378
1.1749228 0.4259246 1.9236243
1.217225 0.42834195 1.9167453
1.2716479 0.4429014 1.9263647
1.0730859 0.4891912 1.9199381
1.1258094 0.47085413 1.9163622
1.1803029 0.45997739 1.926779
1.2228369 0.45789558 1.9123282
1.0403699 0.52831155 1.9287995
1.0590498 0.52928728 1.9158973
1.255963 0.5367465 1.9049082
1.4304339 0.52164793 1.9099578
1.8212153 0.52461243 1.915782
1.8764431 0.51674056 1.9434202
1.0313119 0.56964529 1.9301337
1.0332202 0.61519748 1.9329381
1.0730077 0.63140303 1.9287181
1.1147565 0.63884538 1.9244822
2.0348175 0.62913704 1.9369278
2.0670147 0.63034326 1.9142065
2.1031413 0.62334299 1.9203234
1.0686444 0.65467751 1.9475925
1.1312327 0.66157407 1.9350646
1.1778762 0.67367482 1.9314811
1.222526 0.68469715 1.9236225
2.03145 0.67096788 1.9392594
2.0585244 0.66909999 1.9120334
2.1866455 0.68276918 1.9089112
1.1936154 0.72071201 1.9485884
1.2187985 0.72068208 1.9359678
1.2549138 0.74183416 1.9433749
2.1294179 0.7099309 1.9207337
1.189998 0.75196445 1.9493836
1.2126542 0.78212768 1.9307138
1.2517505 0.75640833 1.9333739
1.7878137 0.77098912 1.9246477
1.1371663 0.83779174 1.9137818
1.1805735 0.83120596 1.9161688
1.2180415 0.8124817 1.9177494
1.2861152 0.83254349 1.920543
1.3328737 0.84998155 1.9150881
1.1164507 0.87376851 1.9211034
1.294224 0.8577438 1.9222914
1.3223374 0.85791838 1.906812
1.3811665 0.88415867 1.914615
1.41336 0.89361495 1.9378318
1.1177557 0.92549092 1.9258937
1.2815574 0.92346603 1.9004385
1.3104444 0.91143262 1.9042013
1.4235203 0.90933764 1.9266081
1.4619983 0.91228324 1.9275749
1.1314979 0.98217958 1.9300209
1.2908307 0.96944457 1.9155701
1.3196416 0.97874767 1.9126832
1.1406044 1.0320585 1.9445031
1.1692425 1.0275662 1.9242179
1.2088084 1.0438557 1.914748
1.3248987 1.0121794 1.9403633
1.3567374 1.0406801 1.9436402
1.1392773 1.0640327 1.9420971
1.1836584 1.0705289 1.9300517
1.2319752 1.074421 1.9275522
1.2771704 1.0682319 1.9377763
1.3731549 1.0706637 1.9313656
1.2048414 1.1005014 1.9231768
1.3883598 1.1293083 1.9269879
1.3991166 1.1701268 1.9428562
-1.2582803 -0.49095351 1.9881577
-1.2298512 -0.49701011 1.974638
-1.1729749 -0.49357173 1.9833498
-1.1252025 -0.49182713 1.9813713
-1.0700216 -0.49644268 1.9862329
-1.0214034 -0.49085778 1.9781736
-0.97138822 -0.49044743 1.9725877
-0.92934024 -0.49134055 1.9627429
-0.87704813 -0.49075794 1.9773067
-0.81684226 -0.4854199 1.9712671
-0.77552646 -0.48480293 1.9802381
-0.71903384 -0.48621663 1.982888
-0.67319447 -0.48556048 1.983139
-0.63343966 -0.48419666 1.9781369
-0.57527202 -0.48083898 1.9646728
-0.51813322 -0.47998324 1.9654557
-0.4639996 -0.4760868 1.9641373
-0.41155103 -0.4869833 1.9753339
-0.37683898 -0.48621935 1.9767758
-0.32462311 -0.48359984 1.9781119
-0.27066803 -0.48765531 1.9943211
-0.23043291 -0.48517045 1.9874359
-0.1812412 -0.48350334 1.9839116
-0.12211268 -0.477584 1.9694332
-0.074028753 -0.47551093 1.9638927
-0.022823237 -0.47453374 1.9782028
0.014058414 -0.47393852 1.9830757
0.06959869 -0.47031108 1.9753323
0.1258515 -0.46671313 1.983731
0.17959495 -0.46676651 1.9840046
0.2331235 -0.46772707 1.9844772
0.26846913 -0.46574637 1.9750339
0.32411566 -0.45989695 1.9709438
0.37262729 -0.46034646 1.9672197
0.44645578 -0.45853633 1.9784236
0.47401705 -0.45782536 1.9619579
1.0379572 -0.45757407 1.9673827
1.0662194 -0.45549279 1.9737659
1.6924609 -0.49555504 1.9592624
1.726203 -0.49275693 1.969802
1.760913 -0.48423186 1.9975133
1.8794082 -0.47805369 1.9806271
1.9229681 -0.46926945 1.9700963
1.9773352 -0.45600924 1.9725288
1.0495236 -0.44989944 1.9791313
1.0580918 -0.44908804 1.9714571
1.9883655 -0.42405713 1.9877429
2.0206397 -0.42262471 1.9626619
1.9870175 -0.37688056 1.9905332
2.01843 -0.37296596 1.9669234
1.9888308 -0.33427408 1.9909987
2.0138662 -0.33419082 1.9684087
0.084536761 -0.27101168 1.9745518
0.082542606 -0.22489019 1.9781768
0.082710519 -0.17291656 1.9752066
0.080237292 -0.12506683 1.9752308
0.081161618 -0.080510527 1.9731662
1.9519678 0.075772271 1.9993578
1.9537911 0.13836934 1.9982249
1.9409611 0.156091 1.9838703
1.9507842 0.17561588 1.9925337
-0.92565519 0.23097834 1.9507265
1.0374049 0.34171954 1.9707942
1.051814 0.33969465 1.9510239
1.1110811 0.34373403 1.9548688
1.1566381 0.34965229 1.9770333
1.2963588 0.3345488 1.959687
1.916683 0.32590169 1.9824814
1.044351 0.35443613 1.9827014
1.0706297 0.37338725 1.974223
1.1124293 0.3737807 1.9837129
1.2356426 0.36936241 1.9647168
1.3210685 0.35191327 1.99555
1.085412 0.40166056 1.9940126
1.1459587 0.44697917 1.9784777
1.1593825 0.43325815 1.9692898
1.0497127 0.49734163 1.9951838
1.0741248 0.49363989 1.9888502
1.1389259 0.46862888 1.9798486
1.0386926 0.52543342 1.9815254
1.0578799 0.50859755 1.9758735
1.8440329 0.54082179 1.9613209
1.8846473 0.52486879 1.9625711
1.9190387 0.52680308 1.9758384
1.0184654 0.57460123 1.9713825
1.8274555 0.56781971 1.983767
1.8672942 0.56837106 1.9809154
1.0248688 0.62193483 1.9760303
1.064059 0.64453602 1.9537342
1.7857729 0.62573922 1.9798939
1.9814012 0.63045377 1.9842669
2.0131917 0.62992924 1.9616703
1.0803851 0.67014116 1.9822737
1.1244302 0.68270242 1.9753851
1.1679451 0.69246089 1.9574327
1.8197542 0.6727134 1.9951514
1.9488043 0.66013074 1.9986551
1.9766448 0.67591852 1.9839911
2.0067735 0.68005097 1.9602778
1.085452 0.71492481 1.9909396
1.1315188 0.71891093 1.9936286
1.173184 0.72385973 1.9683409
1.2279688 0.72677708 1.9563807
1.8223484 0.73349094 1.9669032
1.8808197 0.73672026 1.9981471
2.063338 0.70517975 1.9567583
1.1873448 0.77181453 1.9723775
1.2246351 0.76439959 1.9641562
1.2564448 0.75484186 1.9669254
1.8196703 0.75982696 1.967526
1.8627057 0.77260387 1.9900432
1.9384252 0.78794694 1.9973979
1.1407956 0.84299141 1.9558716
1.2116903 0.84107512 1.9778904
1.8291117 0.81943727 1.9838158
1.92222 0.81234992 1.9957898
1.1350532 0.85779834 1.9661127
1.1530097 0.87143391 1.9972408
1.849595 0.85407436 1.996673
1.1183461 0.93927258 1.9573125
1.4460002 0.90835917 1.9502121
1.1403821 0.98560822 1.9921492
1.1358684 1.0243508 1.9788789
1.3371527 1.0422177 1.977083
1.125429 1.0666976 1.9627972
1.1653769 1.0779815 1.9542549
1.2706075 1.0723718 1.9516288
1.3727624 1.0777668 1.9849235
1.3830158 1.1238363 1.9802552
1.3848099 1.1705496 1.9787081
1.4019421 1.1605222 1.9529557
-1.1012453 -0.50346226 2.0078344
-1.219152 -0.49281278 2.0163977
-1.1815568 -0.49316171 2.0350654
-1.1234215 -0.49422392 2.0268176
-1.0786159 -0.49199337 2.0262721
-1.0138413 -0.48685202 2.0144529
-0.97873783 -0.48781323 2.0316906
-0.92427421 -0.4888013 2.0221658
-0.87458783 -0.49064618 2.0272827
-0.81736982 -0.48771009 2.030499
-0.76955748 -0.48905438 2.0287535
-0.71829844 -0.48493505 2.027837
-0.6860857 -0.48155975 2.0202348
-0.6265167 -0.48299339 2.0085099
-0.57934672 -0.48562831 2.0298543
-0.52858967 -0.48322061 2.0286531
-0.47739965 -0.48485684 2.0218236
-0.42633486 -0.48500052 2.0153248
-0.37763616 -0.48630264 2.0273573
-0.32110327 -0.48785928 2.0331059
-0.27546793 -0.48647207 2.0316882
-0.2260778 -0.48455435 2.019094
-0.17636226 -0.48392835 2.0211625
-0.13031347 -0.48354229 2.0376611
-0.075406134 -0.47816885 2.0321879
-0.026982104 -0.47228041 2.0271642
0.02205015 -0.47168335 2.0159726
0.076248683 -0.46887064 2.0263929
0.13998097 -0.47131214 2.0199647
0.17011392 -0.46818483 2.0270529
0.22008546 -0.46655822 2.030127
0.27395874 -0.46387538 2.02283
0.32099488 -0.46168244 2.0199728
0.38085312 -0.46188134 2.0300145
0.42450154 -0.46158493 2.0182393
0.45972443 -0.4571425 2.0160611
1.68472 -0.47983512 2.0227501
1.7256336 -0.48872146 2.0198839
1.7734886 -0.48490667 2.0361414
1.8238727 -0.47830588 2.0217767
1.8741381 -0.46380597 2.0238853
1.9207057 -0.45646334 2.0184331
1.9525394 -0.4548319 2.004812
1.9334205 -0.42607048 2.0358269
1.9627321 -0.42403233 2.0093119
1.9353907 -0.37296993 2.03702
1.9632164 -0.37014201 2.0117238
0.08083234 -0.30353278 2.0372236
1.933864 -0.319585 2.0391178
1.9630032 -0.32672018 2.0158317
0.065170117 -0.27446577 2.0323412
1.9390903 -0.27135497 2.0347486
1.9637696 -0.27112606 2.0210671
0.065804012 -0.22526516 2.0206411
1.9339459 -0.21725485 2.0379465
1.9581887 -0.21991482 2.0205615
0.06399253 -0.17412175 2.0225627
1.9331689 -0.17124783 2.0376964
1.9579644 -0.1688955 2.0126855
0.061402719 -0.11992635 2.0244586
1.9314461 -0.12735824 2.0346065
1.9571537 -0.1222504 2.0123513
0.062170234 -0.082367592 2.0291836
1.9315788 -0.08076971 2.0316877
1.9616014 -0.080784746 2.0092609
1.9277644 -0.030570753 2.0338042
1.9585917 -0.030523958 2.0073068
1.9291545 0.01833432 2.0329785
1.9591657 0.019624284 2.0079384
1.9283383 0.069754072 2.0334244
1.9584044 0.067640066 2.0061703
1.9283986 0.11993335 2.0314038
1.9562473 0.11349899 2.0021205
1.9290881 0.17016865 2.0289607
1.8816422 0.22852564 2.0435433
1.9266891 0.22010067 2.030396
1.9521499 0.22297178 2.0133011
1.8934909 0.27996212 2.0352256
1.9270662 0.2735495 2.0287595
1.9550266 0.27157408 2.0110576
1.1994221 0.34842262 2.0281947
1.2049835 0.34689772 2.0144289
1.9389366 0.30249897 2.0140965
1.9574353 0.30343655 2.0096147
1.0295594 0.37558439 2.0147142
1.0577245 0.38534403 2.0043945
1.1351647 0.39324674 2.0112133
1.1647379 0.37412417 2.0292773
1.2153455 0.36301824 2.0065327
1.0326341 0.41715536 2.0218844
1.0732855 0.4291521 2.0133936
1.1241264 0.42481998 2.0117776
1.1593115 0.43490696 2.0083756
1.208186 0.42769042 2.0318761
1.0419552 0.47515953 2.0248184
1.0781639 0.47327912 2.0189538
1.1211532 0.47061285 2.0087256
1.0339577 0.52046663 2.0210457
1.0242089 0.57688606 2.0268142
1.8072091 0.58552408 2.0283928
1.8816752 0.58084404 2.0188193
1.9186928 0.58773363 2.014555
1.0134015 0.62338221 2.0135934
1.7702414 0.60206157 2.0037839
1.8283268 0.61755168 2.0456591
1.8743629 0.62278718 2.0391402
1.926697 0.62205797 2.0210512
1.958322 0.62910753 2.0054059
1.0362556 0.6560362 2.018023
1.0794816 0.69045591 2.003022
1.107646 0.6915729 2.0021858
1.8308681 0.66160411 2.0199735
1.8809488 0.67554677 2.0296826
1.9266901 0.6741221 2.0200496
1.0957308 0.72784704 2.0170405
1.1206884 0.73100883 2.0106168
1.8846111 0.71721858 2.0189807
1.9256943 0.72453856 2.0120802
1.1414137 0.76194996 2.0183239
1.8844409 0.76617277 2.0055699
1.9234022 0.77800864 2.0123148
1.8802398 0.82187605 2.0114925
1.9124497 0.82535368 2.0099778
1.1654363 0.8762148 2.0296199
1.2009287 0.85942918 2.0134966
1.8855191 0.88060939 2.0182443
1.9108405 0.86392784 2.0159254
1.1434011 0.94901705 2.0054715
1.152236 0.94496393 2.0252373
1.1418936 0.96816444 2.0310407
1.1379031 1.0202428 2.0391092
1.1546544 1.0024806 2.0372787
1.1428673 1.06481 2.0466919
1.3493165 1.0967429 2.0032592
1.3622295 1.0916026 2.0006642
1.3648294 1.1286271 2.0130215
1.3480159 1.1517392 2.0338461
1.3703269 1.1711066 2.0169106
1.3753222 1.2082946 2.0127802
1.7946596 -0.65762687 2.083065
1.7798206 -0.6419192 2.0811181
-1.2108943 -0.48961863 2.0634964
-1.1609647 -0.48741478 2.0732903
-1.1227282 -0.49070355 2.0765915
-1.0733588 -0.48866075 2.0678544
-1.0199792 -0.48937863 2.079639
-0.96099406 -0.48838219 2.0812497
-0.91807747 -0.48694831 2.0745516
-0.87255418 -0.48785919 2.0662589
-0.82154334 -0.48590246 2.0716774
-0.77282494 -0.48517776 2.0813656
-0.72583526 -0.48549989 2.0802097
-0.66230756 -0.48297521 2.0725396
-0.63431853 -0.49063334 2.0887353
-0.57618082 -0.48444265 2.0724199
-0.52101314 -0.48244429 2.0732474
-0.47763053 -0.48835564 2.0690055
-0.42437744 -0.48634127 2.0741889
-0.3677389 -0.48697415 2.0687613
-0.32937258 -0.48358721 2.0676162
-0.2721678 -0.48448905 2.0743575
-0.22587574 -0.48738769 2.0840554
-0.17488512 -0.48183784 2.0763681
-0.1273618 -0.47960803 2.056119
-0.078927726 -0.47885627 2.0998442
-0.032797769 -0.4743948 2.0810599
0.026022477 -0.47533134 2.0776784
0.065271527 -0.47415948 2.0681562
0.1271853 -0.46953246 2.0745516
0.16397814 -0.46721348 2.0761225
0.22612584 -0.46457836 2.0642371
0.27735111 -0.46810955 2.0876732
0.33255213 -0.46700469 2.0773261
0.36288202 -0.46559605 2.0835559
0.42334744 -0.46006706 2.0757225
1.7356951 -0.47634092 2.0693924
1.7871826 -0.47337762 2.0789871
1.8286389 -0.46259582 2.0740697
1.8714148 -0.45368001 2.0607898
1.8743247 -0.42422867 2.0815296
1.9099863 -0.42069656 2.0569029
1.8791662 -0.37319028 2.0832558
1.9100571 -0.37300012 2.0575581
1.8832741 -0.33671656 2.0883861
1.9102476 -0.32235751 2.0650463
0.042664167 -0.2606971 2.0914609
0.054033268 -0.27734306 2.0638502
1.9131085 -0.27078092 2.0646517
0.042443808 -0.22444937 2.0832615
0.051895559 -0.22712238 2.0619061
1.896534 -0.2201698 2.0732322
1.9118375 -0.22417398 2.0579002
0.040714279 -0.17425491 2.0833609
0.051770709 -0.17731938 2.0600438
1.892786 -0.16933906 2.0731108
1.9093927 -0.16649382 2.0576129
0.03803565 -0.12756038 2.0907102
0.051752504 -0.13787968 2.0612745
1.8905166 -0.12510008 2.0732536
1.9046108 -0.12811902 2.0589609
0.042317059 -0.089485884 2.0835166
0.054066986 -0.078539908 2.0577974
0.48342898 -0.050028902 2.062902
1.8920659 -0.079993002 2.0666544
1.9075552 -0.082965776 2.0542686
0.48822352 -0.040407479 2.0835013
1.894504 -0.03069675 2.0687113
1.8947425 0.019589072 2.0690184
1.9100627 0.038385786 2.050108
0.51056993 0.050865863 2.0887141
1.8934181 0.069800518 2.0665672
1.8927786 0.12000458 2.0638237
1.8932344 0.17027587 2.0612235
1.8934464 0.20566273 2.0547283
1.8854308 0.27054057 2.0551567
1.0154425 0.38347951 2.0564189
1.1926868 0.38042095 2.06003
1.223511 0.37860662 2.0627639
1.0319278 0.439291 2.0632534
1.2293485 0.41084501 2.0821681
1.04162 0.47640562 2.0595956
1.1107945 0.48779038 2.091855
1.0433215 0.50970531 2.0572546
1.0459045 0.57122838 2.0774469
1.0223987 0.62296921 2.0619583
1.8262362 0.60633826 2.0584068
1.8583245 0.61705315 2.0568044
1.1045473 0.73482573 2.0509858
1.1390829 0.98629391 2.0623271
1.1502938 0.98555768 2.0642171
1.1324975 1.0284131 2.0618312
1.1536537 1.0799638 2.0950274
1.7386451 -0.65327215 2.1006658
1.7774712 -0.66412205 2.1058643
1.7375013 -0.64027953 2.1025302
1.758763 -0.64344686 2.1041121
-1.252238 -0.49030408 2.1114244
-1.173743 -0.48853296 2.135365
-1.1224384 -0.48676741 2.1157649
-1.0793977 -0.4850449 2.1231351
-1.0305114 -0.48733678 2.1228392
-0.97289127 -0.48486161 2.1298344
-0.92065507 -0.48519173 2.1293211
-0.87095994 -0.48643276 2.1223204
-0.81774598 -0.48562551 2.1242111
-0.78078055 -0.48282149 2.1204154
-0.72335613 -0.48531476 2.1358197
-0.68256092 -0.48165703 2.1381669
-0.6285165 -0.48378354 2.1081662
-0.5694232 -0.48275757 2.1148696
-0.52331674 -0.48378587 2.1276131
-0.4737283 -0.4867644 2.1245301
-0.42093432 -0.49147883 2.1287062
-0.3756648 -0.48706299 2.1147723
-0.32109594 -0.48548722 2.1232786
-0.28010154 -0.48308772 2.1070776
-0.22334941 -0.48280457 2.1238647
-0.17734167 -0.48053172 2.1150231
-0.12144431 -0.48078591 2.1305633
-0.077024005 -0.47753513 2.1174302
-0.024882389 -0.47506535 2.1230147
0.021725276 -0.47160053 2.1291566
0.074802443 -0.47423571 2.1264174
0.11873461 -0.47048527 2.1371803
0.18338501 -0.47230199 2.1254668
0.22090048 -0.47099447 2.1373904
0.2721895 -0.46660534 2.129631
0.32404372 -0.46647748 2.1242228
0.38161218 -0.46707499 2.1206374
0.41804686 -0.46260807 2.1457043
1.7289511 -0.46401283 2.1134853
1.7711284 -0.45937386 2.1165309
1.8019356 -0.45215911 2.1008475
1.7915535 -0.42864662 2.1459661
1.8254316 -0.42470872 2.1216476
1.793517 -0.39297494 2.1492059
1.8285942 -0.37559313 2.1307402
1.8549421 -0.3734501 2.1038315
0.053461019 -0.30519745 2.1182899
1.8442649 -0.3381176 2.1449554
1.8617615 -0.33582264 2.1219621
1.9168056 -0.31689867 2.1289959
0.035976421 -0.27880213 2.1186745
1.9348612 -0.28814888 2.1392291
0.028028553 -0.2240231 2.127049
0.027387949 -0.17495123 2.1252728
0.024689348 -0.11909419 2.1368709
0.032893986 -0.080907226 2.1193984
0.47598505 -0.051395062 2.1222255
0.48334673 -0.027406951 2.1237185
1.8925194 -0.012115291 2.1380744
0.49666983 0.0052235965 2.1197715
0.50526851 0.02819684 2.1302326
1.8937976 0.00069401343 2.1395254
1.9070258 0.0199442 2.1262028
0.5166139 0.067575559 2.1352589
1.9115187 0.067498997 2.1319551
0.53219217 0.11956238 2.1311131
0.54765725 0.16776706 2.1471939
1.0211473 0.39443192 2.1093507
1.0320408 0.40752518 2.1170204
1.0559957 0.47143844 2.1168313
1.1019211 0.48876381 2.1003876
1.1446977 1.0708146 2.1103978
-1.2844189 -0.4897964 2.1938114
-1.1725817 -0.488547 2.1998792
-1.1159239 -0.48813236 2.1559386
-1.068668 -0.48475793 2.1555998
-1.0458944 -0.48466569 2.163214
-0.97753811 -0.48247507 2.1746809
-0.92869943 -0.48501655 2.1736326
-0.87915552 -0.48409194 2.1777096
-0.82169652 -0.4835211 2.1677113
-0.77352321 -0.48434147 2.1840434
-0.72912633 -0.48503542 2.1842408
-0.67185581 -0.48400202 2.1784091
-0.63024724 -0.48684213 2.173604
-0.57604849 -0.48222089 2.1620703
-0.5303241 -0.48454499 2.1808591
-0.47607064 -0.4867717 2.1867568
-0.43131965 -0.4856852 2.1717081
-0.37891757 -0.48697239 2.1813688
-0.32783774 -0.48658314 2.1663008
-0.27442589 -0.48529127 2.1736925
-0.218283 -0.48049179 2.1645062
-0.17377999 -0.4791432 2.1692085
-0.13420637 -0.47643495 2.171062
-0.071294807 -0.47548833 2.1810513
-0.023702554 -0.47528291 2.1808133
0.034204945 -0.46568707 2.169986
0.075033776 -0.46987909 2.174099
0.12578338 -0.46771732 2.1772115
0.16779934 -0.46991944 2.1821563
0.2246698 -0.47023225 2.1753104
0.26891783 -0.4684175 2.1889136
0.32149419 -0.46755749 2.1801248
0.37287375 -0.46529669 2.1639552
0.40708682 -0.46281087 2.1741946
0.045231875 -0.4464922 2.1992559
1.7751524 -0.42238945 2.1603131
1.7847672 -0.37407434 2.1594534
1.8122469 -0.35606316 2.1529753
1.7918488 -0.34432831 2.1785126
1.8247498 -0.33503634 2.1769826
1.8770505 -0.3156051 2.1689365
1.909116 -0.31043744 2.1505239
0.012312873 -0.27315399 2.1794801
1.8839324 -0.28888023 2.1854172
1.9242917 -0.27367401 2.1719654
0.0078982897 -0.22532293 2.1896539
1.9425182 -0.24992064 2.1952817
-0.0078387 -0.18395445 2.1989281
0.0078681316 -0.17755958 2.1849999
0.0084164338 -0.12624508 2.1832435
0.013040598 -0.08506351 2.1831264
0.43036714 -0.052750058 2.18591
0.45833832 -0.05232048 2.1640635
1.8446003 -0.050872199 2.1909342
1.8538048 -0.05075819 2.1775377
0.44412675 -0.028177803 2.191489
0.46504796 -0.022869088 2.1704988
1.8466091 -0.025136063 2.193639
1.8655226 -0.023436163 2.1703541
0.48059437 0.020145306 2.1732068
1.8481658 0.00063498103 2.1955974
1.8778703 0.0038899926 2.1695573
1.9144624 0.035298627 2.1666529
0.49089211 0.062260479 2.182302
0.51077962 0.080693632 2.1635432
1.8103122 0.064687245 2.1978936
1.8821255 0.082114078 2.1852365
1.9099562 0.06218987 2.1630116
0.51994908 0.12647995 2.1751621
1.8456814 0.12948103 2.1893032
1.8651493 0.11055583 2.1887972
0.53692448 0.17465506 2.1759572
0.55487823 0.19121799 2.1743131
0.55555516 0.20696537 2.1907086
-1.2701213 -0.4875114 2.2214684
-1.2155008 -0.48710108 2.2417355
-1.113521 -0.48819363 2.2202785
-1.0953861 -0.48531657 2.2113757
-0.95774639 -0.48011875 2.2293365
-0.91698557 -0.48813006 2.2221997
-0.86959648 -0.48131764 2.2307332
-0.82170707 -0.483367 2.2240784
-0.7760359 -0.48522627 2.2447331
-0.72137421 -0.48019525 2.2132652
-0.68215442 -0.48313814 2.2129889
-0.62305534 -0.48297995 2.2102015
-0.57280052 -0.48223004 2.2158082
-0.52016002 -0.48273882 2.2180383
-0.49490571 -0.48664653 2.2227864
-0.42032588 -0.48569882 2.2285745
-0.37212092 -0.48338363 2.2234142
-0.32280582 -0.48365381 2.226047
-0.27501488 -0.48228085 2.227612
-0.22855587 -0.4801226 2.2275007
-0.17848949 -0.47875288 2.2306149
-0.12007835 -0.47803402 2.2220683
-0.073137909 -0.47704768 2.2394814
-0.02427968 -0.47529367 2.231957
0.0081786234 -0.47678742 2.2390676
0.07266584 -0.46817291 2.2239604
0.13238589 -0.47165835 2.2298784
0.17127042 -0.4698956 2.2198927
0.22979283 -0.4701812 2.226552
0.27625641 -0.46596786 2.2205052
0.32646137 -0.46392471 2.2150044
0.37605003 -0.46511361 2.215569
0.40081716 -0.4625541 2.2002609
0.04562242 -0.42349291 2.2216744
0.045528345 -0.37443584 2.2227039
0.023810875 -0.30626106 2.2003145
0.061951309 -0.33915943 2.2401817
1.8236681 -0.31299359 2.2030499
-0.023091365 -0.2735436 2.2251937
1.8349941 -0.28542662 2.2173724
1.8667554 -0.2716502 2.2111225
-0.051043823 -0.20433016 2.2484014
-0.023980802 -0.22348841 2.2237315
1.8803145 -0.2449121 2.2311563
1.9153142 -0.24695244 2.2203364
-0.051058043 -0.19362874 2.2496417
-0.026198605 -0.17374086 2.2222939
-0.023921574 -0.12746468 2.2244112
0.0026731212 -0.11554043 2.2004399
-0.021633869 -0.080371186 2.2255232
0.0079226829 -0.073507801 2.2013242
0.39432216 -0.053592212 2.2258806
0.40943 -0.053461626 2.2186325
0.42560279 -0.02719472 2.2244532
1.7939548 -0.01229946 2.2274203
1.8220229 -0.023566492 2.2097714
-1.9957658 0.027562112 2.2289762
0.43992421 0.020467656 2.2314997
0.45639291 0.023838645 2.2098761
1.7860328 0.022640023 2.2279012
1.8166525 0.013485356 2.2123885
1.9205103 0.013860593 2.2189097
-1.981295 0.070364557 2.2319932
0.44657916 0.059600323 2.2396894
0.47298279 0.077692941 2.2231417
0.50487506 0.096224628 2.2005868
1.7906575 0.064943448 2.2265599
1.8176836 0.077914365 2.2098453
1.8674724 0.08506836 2.2047193
-1.9625679 0.12105086 2.2390716
-1.947464 0.14100236 2.2459002
-1.7817935 0.14184195 2.2204742
0.48747838 0.12314853 2.2289941
0.50835919 0.13454424 2.2144394
1.8308878 0.10394769 2.2093081
1.8542135 0.10419033 2.2006035
-1.9369168 0.16737631 2.2446756
-1.7887428 0.16175096 2.2280219
0.49510995 0.15576054 2.2374811
0.51523042 0.1763707 2.2251222
-1.9163355 0.22231673 2.245826
-1.8250293 0.20955954 2.2451155
0.53545547 0.21209131 2.2305303
0.55744332 0.22088864 2.2046447
-1.2422211 -0.49060693 2.2506199
-1.1176536 -0.48599607 2.2724457
-1.0734744 -0.48476484 2.2810769
-1.0367663 -0.48732269 2.2744327
-0.99729478 -0.49404094 2.2903755
-0.94252706 -0.48405701 2.2545273
-0.78277171 -0.48160046 2.2840509
-0.71121454 -0.47973686 2.2906015
-0.672427 -0.48381376 2.2605391
-0.62406695 -0.48124355 2.2572243
-0.58693963 -0.48295227 2.2724018
-0.54962623 -0.48473254 2.2874146
-0.47468042 -0.4885194 2.2613471
-0.43258929 -0.48553753 2.2803028
-0.36851627 -0.48214874 2.2715364
-0.32956055 -0.48007035 2.2746336
-0.27980959 -0.47646758 2.2798343
-0.21852 -0.47570142 2.2805669
-0.1752298 -0.4751738 2.2714281
-0.12738587 -0.47678748 2.2723205
-0.074368998 -0.4741447 2.2791424
-0.024787687 -0.47262618 2.2725635
0.0082710879 -0.47139537 2.2667427
0.073999755 -0.46559066 2.2651618
0.13125317 -0.46960938 2.2740057
0.18262187 -0.4692902 2.262795
0.22838275 -0.46857548 2.2786782
0.27251092 -0.4655169 2.2825899
0.32134926 -0.46659613 2.2837431
0.36114365 -0.4630208 2.2620685
0.057399921 -0.44237977 2.2616887
0.046532765 -0.34996086 2.2752082
-0.066757344 -0.2703501 2.273355
-0.06812685 -0.22603361 2.2761688
-0.070209228 -0.17241859 2.2757676
-0.06787654 -0.1247987 2.2726159
-1.8542073 -0.078426443 2.2632997
-1.8420128 -0.06952735 2.2652223
-0.06854032 -0.083405949 2.2733719
-0.040315919 -0.075296238 2.2552438
-1.857152 -0.019172497 2.2678704
-1.844936 -0.025713244 2.2695234
0.3961421 -0.043656006 2.2677732
0.40624031 -0.025397992 2.2621911
-1.8579419 0.020415742 2.2687473
-1.8437561 0.020396635 2.2763782
0.42273459 0.020245735 2.267921
-1.852195 0.072987109 2.2607715
-1.8351815 0.072796792 2.2648444
0.4375338 0.069808044 2.2645874
0.45382813 0.094632186 2.2565458
-1.8536139 0.12574226 2.2605298
-1.8373902 0.12551734 2.2656143
0.46407375 0.12641081 2.269141
-1.9370172 0.18803693 2.2560613
-1.8560715 0.17864694 2.2605309
-1.8330323 0.17767653 2.2572842
0.4845292 0.1751155 2.2759516
0.50790805 0.19772542 2.2589552
-1.9147149 0.21379346 2.2531121
-1.8509326 0.21103661 2.2519245
0.51226175 0.21401319 2.2673509
0.56669593 0.23227081 2.2636805
-2.1142392 2.3790867 2.2775288
-2.0739546 2.3625846 2.2787533
-2.0464604 2.3604045 2.2936106
-1.9028447 -0.47247589 2.3369603
-1.8768961 -0.4694348 2.3309727
-1.1827822 -0.48874754 2.3333137
-1.0565264 -0.48787278 2.3036211
-1.0097332 -0.48829004 2.3207405
-0.99649155 -0.48764488 2.3213139
-0.93466437 -0.48643163 2.3328271
-0.86362624 -0.48605621 2.3286846
-0.75448775 -0.48928142 2.3298633
-0.68584168 -0.48199937 2.3073595
-0.57728225 -0.48461977 2.3209517
-0.52901518 -0.48827934 2.331183
-0.47528431 -0.48376125 2.3224607
-0.41916522 -0.48059115 2.3236253
-0.38129166 -0.48062667 2.3282125
-0.32624698 -0.47656241 2.3326688
-0.27455738 -0.47825652 2.3311892
-0.22327764 -0.47714481 2.3321581
-0.17780082 -0.47428298 2.3319998
-0.1242443 -0.47069374 2.3165653
-0.070115753 -0.47137532 2.3214216
-0.025179416 -0.47118631 2.3210974
0.008394964 -0.46806559 2.3058224
0.086859532 -0.47028112 2.3156819
0.12363499 -0.47173747 2.321732
0.17358474 -0.46707961 2.325412
0.2140359 -0.46492004 2.3180561
0.28165933 -0.467067 2.3280125
0.32381314 -0.46548471 2.3241372
-1.9662154 -0.44316354 2.340596
-1.9314631 -0.4330869 2.3391852
-1.8990983 -0.43733367 2.3378515
-0.11804926 -0.27303326 2.3337421
-0.090359591 -0.28105047 2.3049419
-0.12069047 -0.22204512 2.3279066
-0.096556067 -0.22628993 2.3059094
-0.11874311 -0.1745448 2.3260219
-0.096436307 -0.17917624 2.3056862
-0.12059526 -0.12415739 2.3321359
-0.096330389 -0.12663589 2.3053958
-0.11704818 -0.081492953 2.3280513
