ply
format ascii 1.0
comment PCL generated
element vertex 1424
property float x
property float y
property float z
element camera 0
property float view_px
property float view_py
property float view_pz
property float x_axisx
property float x_axisy
property float x_axisz
property float y_axisx
property float y_axisy
property float y_axisz
property float z_axisx
property float z_axisy
property float z_axisz
property float focal
property float scalex
property float scaley
property float centerx
property float centery
property int viewportx
property int viewporty
property float k1
property float k2
end_header
0.20762841 -0.32209316 0.90331686
-0.73190236 -0.27495685 0.92497987
0.099197268 -0.27458653 0.94924617
0.12598039 -0.27539048 0.93929118
0.17539378 -0.2742722 0.91865396
0.20639881 -0.27765039 0.9035812
-0.732871 -0.22507998 0.92350763
0.095885493 -0.22031233 0.94876349
0.12464593 -0.22467157 0.93739003
0.17496948 -0.22483476 0.91599113
0.20480078 -0.22767489 0.90209782
-0.75539172 -0.19901052 0.90992045
-0.73538458 -0.19742461 0.92678988
0.09099517 -0.17075078 0.94719803
0.12565702 -0.17467956 0.93430406
0.1745681 -0.17483942 0.91274971
0.20111707 -0.18857037 0.9013353
0.08795812 -0.12355933 0.94458455
0.12463538 -0.12582006 0.93084592
0.1716228 -0.12497319 0.90969431
-0.69421571 -0.0824119 0.94834322
0.084051266 -0.074671619 0.94214994
0.12519957 -0.076204546 0.92655987
0.16470499 -0.075388692 0.90802193
-0.70491898 -0.025395665 0.94493645
-0.6947186 -0.020208526 0.94812423
0.078952298 -0.025854241 0.93967319
0.12581193 -0.026171019 0.92174083
0.15977854 -0.029495478 0.90583086
-0.70544851 0.024258118 0.94523287
-0.69507068 0.017516071 0.94815499
0.045060109 0.038937636 0.94761372
0.075116783 0.024767069 0.93641448
0.12644345 0.024198692 0.91637993
0.15619133 0.019311605 0.90214568
-0.70432889 0.075127125 0.94667876
-0.69675082 0.056160647 0.94800067
0.040029883 0.080808908 0.94611037
0.074700676 0.075879127 0.93144113
0.12432295 0.073579721 0.91136575
0.15308911 0.052129745 0.90080565
-0.70563865 0.1324207 0.94457966
-0.69335961 0.12579653 0.948385
0.034710601 0.12733889 0.94298172
0.074602507 0.12482589 0.92670912
0.11845326 0.12295462 0.90865666
-0.70177162 0.16536202 0.93396223
-0.68957305 0.17694739 0.94275683
0.028854964 0.17659263 0.94028443
0.074976824 0.17435502 0.92187613
0.11194578 0.17438036 0.90598917
-0.68144459 0.22003098 0.94157106
0.025352599 0.22214566 0.93795365
0.075806618 0.22165716 0.91812813
0.10984439 0.22090736 0.90320998
-0.68294841 0.27048373 0.94577742
0.13376381 0.26336578 0.93282175
0.18063489 0.2768108 0.91998214
0.29440853 0.28177726 0.90809977
0.32088074 0.29185238 0.91997415
0.36426297 0.29620168 0.91113788
0.40022787 0.29937676 0.90523338
-0.67620933 0.32665604 0.94081229
0.29695004 0.30522761 0.91945809
0.33275524 0.31779256 0.91804838
0.37551522 0.32482818 0.92276907
0.42258692 0.3299599 0.91578752
0.46343574 0.34018862 0.90361685
0.5000298 0.33597144 0.90323269
-0.67457736 0.37253553 0.94006771
0.29432929 0.37907299 0.93644655
0.30799717 0.38136896 0.93580955
0.37814042 0.35519111 0.91193879
0.42643923 0.35960376 0.91632879
0.46286118 0.36052281 0.9075042
-0.67049092 0.43104026 0.93776804
0.29461578 0.40105253 0.93834221
0.30661654 0.40447465 0.93376601
-0.66716188 0.47168803 0.94019389
0.47804779 0.48721355 0.90555209
-0.66953844 0.52750355 0.94015312
-0.71251905 0.59132779 0.92829317
-0.68652898 0.58540958 0.93487489
-0.71010774 0.62926543 0.91440374
-0.68213975 0.62600571 0.92552531
-0.73775446 0.65724564 0.91971821
-0.66627395 0.67179775 0.92130935
-0.66223395 0.71788508 0.91308713
-0.65824592 0.76060152 0.92224181
-0.64965081 0.75509888 0.93297797
-0.66874337 -0.52068937 0.97382587
-0.62456626 -0.53907233 0.97537613
-0.5730567 -0.54444468 0.97605932
-0.52472764 -0.54633522 0.97622228
-0.47487155 -0.54559082 0.97279996
-0.42388937 -0.54603815 0.97604036
-0.3755447 -0.54442686 0.97542048
-0.32572091 -0.54048336 0.97179246
-0.27409148 -0.53466588 0.97576559
-0.22403584 -0.52921158 0.97657895
-0.17379937 -0.52445316 0.97685361
-0.12455124 -0.51904756 0.97685236
-0.075818002 -0.51279503 0.97520012
-0.02886956 -0.50771981 0.96735007
0.012830537 -0.50313097 0.95549089
-0.70276999 -0.45401582 0.95021784
-0.683025 -0.47614995 0.97508711
-0.053565558 -0.49539319 0.99712735
-0.020846181 -0.47927693 0.98861533
0.023160972 -0.4752661 0.96902102
0.059411827 -0.46510383 0.9553569
-0.7058084 -0.4212473 0.95785803
-0.69035 -0.42663077 0.98136693
-0.0082092145 -0.42704067 0.99721646
0.023786435 -0.42521551 0.98178494
0.069461554 -0.42324737 0.96021718
-0.70746064 -0.37344718 0.96382904
-0.69292581 -0.37664574 0.98833501
-0.0042646918 -0.3698684 0.9986403
0.024500282 -0.37431777 0.98541176
0.074990898 -0.37525707 0.96136945
0.10155297 -0.37262902 0.95067894
-0.70895487 -0.32318404 0.96713465
-0.6951803 -0.32777029 0.99230975
-0.0036796706 -0.32800791 0.99900943
0.025754336 -0.32463509 0.98546529
0.07565251 -0.32433224 0.96193308
0.10055809 -0.33048606 0.95107639
-0.7097193 -0.27555883 0.96915215
-0.69703293 -0.27504584 0.99389076
-0.0047600139 -0.27155685 0.99815726
0.025249813 -0.27473509 0.98443115
0.075492524 -0.27484602 0.96089178
-0.71040988 -0.22501071 0.96895021
-0.69612312 -0.22580272 0.9951629
-0.0074720276 -0.22264965 0.99672008
0.025157491 -0.22504117 0.98179972
0.071928903 -0.22556208 0.95984805
-0.71449155 -0.17990741 0.97337973
-0.69797856 -0.16688485 0.96799898
-0.011840147 -0.17318298 0.99532259
0.024493696 -0.17501651 0.97881413
0.06767568 -0.17621329 0.95899528
-0.71414524 -0.12629049 0.97391039
-0.69725507 -0.12624112 0.96762651
-0.01556328 -0.12397169 0.99308884
0.02503667 -0.12479886 0.97451293
0.06393753 -0.12513208 0.9564417
-0.7091102 -0.0735958 0.95846057
-0.69297844 -0.072033122 0.95738244
-0.019680416 -0.073379911 0.99085557
0.024273293 -0.074234776 0.97022998
0.058139715 -0.075376794 0.95439339
-0.7090857 -0.030818457 0.98818582
-0.68855554 -0.029794738 0.95327759
-0.051264443 -0.0071434565 0.9991715
-0.024172304 -0.025440659 0.98833984
0.024113024 -0.02535131 0.96540737
0.053454109 -0.030977527 0.95195848
-0.70404351 0.02223951 0.99097812
-0.69007766 0.026637904 0.9534952
-0.055772509 0.030240973 0.9970578
-0.024722366 0.02346834 0.98369294
0.022603968 0.022208305 0.96094513
0.051065296 0.0045501976 0.95021784
-0.70975381 0.073399723 0.96615386
-0.69361633 0.076528855 0.96106911
-0.059442434 0.077752322 0.99400288
-0.024618624 0.074817091 0.97793144
0.016548114 0.071837731 0.95828384
-0.70698601 0.12334287 0.97305745
-0.69435418 0.12544374 0.96599364
-0.065706097 0.12661894 0.9914096
-0.024104197 0.12530148 0.9722352
0.0103154 0.12213086 0.95597315
-0.70351887 0.15931869 0.99121565
-0.69362074 0.17426941 0.97673589
-0.070840955 0.17577535 0.98870736
-0.024551509 0.1748386 0.96651226
0.0054010963 0.16933224 0.95317674
-0.68831074 0.22558384 0.98175383
-0.10190523 0.2246844 0.99873257
-0.073777497 0.2212394 0.9868235
-0.025197221 0.22054072 0.96366954
0.0018312886 0.21571653 0.951639
-0.68229067 0.27497259 0.97838086
0.12552479 0.27074328 0.95926839
-0.67752099 0.3247239 0.97775865
0.52133721 0.3235485 0.95523643
-0.67340398 0.37477487 0.97684735
0.31155217 0.36950636 0.95198649
-0.66875935 0.42388168 0.97618437
-0.64910066 0.41884145 0.98731023
-0.665806 0.47310957 0.97656226
-0.66532201 0.52361566 0.97565836
-0.70537275 0.58843541 0.9582755
-0.66475278 0.57427162 0.97393692
-0.66968948 0.62806088 0.97221953
-0.64591688 0.64477021 0.98673195
-0.65803492 0.67289954 0.96019042
-0.64679033 0.67802209 0.97733593
-0.65926111 0.72856134 0.95537573
-0.65465105 -0.5175696 1.0077782
-0.62840098 -0.52530825 1.0255442
-0.57501173 -0.54012531 1.0244188
-0.52440864 -0.54470813 1.0249672
-0.47458318 -0.54606557 1.0269121
-0.42404619 -0.54559523 1.0271288
-0.37486431 -0.54403883 1.025305
-0.3237392 -0.53964239 1.0236355
-0.27612177 -0.53119373 1.0257612
-0.22472857 -0.52372468 1.0256871
-0.17417793 -0.51478177 1.0262269
-0.12735066 -0.50808525 1.0194579
-0.088242158 -0.50377727 1.006532
-0.65991467 -0.47283164 1.0158029
-0.64225119 -0.48207918 1.0381507
-0.15536393 -0.49712145 1.0487154
-0.12225167 -0.47889727 1.0394132
-0.075414777 -0.47453791 1.0176821
-0.037540551 -0.46066278 1.0045954
-0.66661364 -0.4252215 1.0229723
-0.64747769 -0.44473147 1.0466205
-0.10822785 -0.42867708 1.0460465
-0.075260028 -0.42540675 1.0300888
-0.032326307 -0.42302343 1.0088195
-0.67175591 -0.37564379 1.0254154
-0.10401976 -0.37437278 1.047387
-0.076057196 -0.37433171 1.0340738
-0.028915469 -0.37554818 1.0109185
-0.67650014 -0.324404 1.0257654
-0.10478047 -0.3234351 1.0475045
-0.075247273 -0.32447743 1.0335517
-0.027735401 -0.32542071 1.0109088
-0.6797021 -0.27442712 1.024901
-0.10467961 -0.27261773 1.0468081
-0.074450865 -0.2748327 1.0316111
-0.029302249 -0.27607167 1.0099834
-0.71568543 -0.20138547 1.0318789
-0.68025392 -0.22419882 1.0256208
-0.10894235 -0.22429997 1.0460395
-0.075107351 -0.2244284 1.0290902
-0.031770553 -0.22551148 1.0085647
-0.71803248 -0.17550638 1.0385206
-0.68580252 -0.19941737 1.0338478
-0.11328334 -0.17236981 1.0442206
-0.075123779 -0.17517054 1.0254612
-0.035633903 -0.17649271 1.0071634
-0.71407002 -0.1280288 1.0354239
-0.69629657 -0.10922673 1.0440156
-0.1176279 -0.12260787 1.0422685
-0.074889876 -0.12509196 1.0213639
-0.038756948 -0.12615608 1.004366
-0.71261013 -0.074252807 1.0280349
-0.69493723 -0.071460694 1.039251
-0.12083043 -0.07365907 1.0391132
-0.074329928 -0.075473078 1.0168937
-0.043303624 -0.079450987 1.0023633
-0.70814502 -0.026519876 1.0205252
-0.69305432 -0.023693018 1.0368108
-0.15572889 -0.015827987 1.0492219
-0.12476408 -0.026440958 1.0362643
-0.074326828 -0.027014075 1.0123353
-0.046596859 -0.043019582 1.0009763
-0.70591748 0.021765191 1.0152026
-0.69077587 0.025127374 1.0340325
-0.15864353 0.02714707 1.0466014
-0.12493052 0.02471499 1.0311295
-0.078951724 0.022136858 1.0096511
-0.70567405 0.074365795 1.0093701
-0.69055653 0.074049212 1.0299666
-0.16245151 0.073192872 1.0442836
-0.12443421 0.076331869 1.0253063
-0.083771147 0.072754309 1.006409
-0.7035706 0.11437982 1.0048057
-0.68503577 0.12411324 1.0235972
-0.1691272 0.12389985 1.0420543
-0.12417607 0.12533036 1.0199927
-0.089505635 0.12176824 1.0039821
-0.68056428 0.17427602 1.0178553
-0.17178464 0.17532967 1.0389794
-0.12379073 0.17500298 1.0151154
-0.094756745 0.16714256 1.001129
-0.67224777 0.22610626 1.0221653
-0.17350619 0.21967109 1.0368903
-0.12684123 0.2227127 1.0125256
-0.66815001 0.27586943 1.0243341
-0.15462291 0.25310743 1.0440729
-0.12469911 0.26690453 1.0354161
-0.086802386 0.28499198 1.0482265
0.092295334 0.29080787 1.0302882
0.12397005 0.29565209 1.0172088
-0.66301417 0.32506746 1.0231252
-0.6495738 0.3285951 1.0403749
-0.069259517 0.30708528 1.0465696
0.121366 0.31384492 1.0424381
0.19429833 0.33507654 1.0326461
0.20355324 0.33480644 1.0272346
-0.65836561 0.37450054 1.0215725
-0.64807105 0.38208222 1.0329208
0.12725137 0.38307068 1.048908
0.16335972 0.38424879 1.0407714
0.54628485 0.36934045 1.0100425
-0.65582114 0.42254287 1.0179302
-0.6467458 0.42095515 1.0335732
0.55764019 0.4225266 1.0413342
-0.65464264 0.4714216 1.0147723
-0.64411438 0.47946689 1.021082
-0.65371305 0.5251897 1.0104239
-0.6460529 0.52429909 1.0242404
-0.65331161 0.56625187 1.0087035
-0.64398795 0.56901717 1.0165871
-0.65968627 0.62339669 1.0124043
-0.6412254 0.62791646 1.0277272
-0.64171129 0.65273952 1.0056851
-0.61293542 -0.51594865 1.0690928
-0.57701367 -0.53228635 1.0761201
-0.52577668 -0.54078633 1.0756449
-0.47519422 -0.543432 1.0762159
-0.4242104 -0.54369056 1.0749791
-0.3735646 -0.54162729 1.075924
-0.3242414 -0.53349888 1.0756459
-0.2739428 -0.52124006 1.077895
-0.22751606 -0.51177102 1.0704037
-0.18559149 -0.50557977 1.0584918
-0.62179941 -0.47448477 1.0743225
-0.59748828 -0.4984653 1.0936935
-0.25398621 -0.49371007 1.0984198
-0.22018343 -0.47773147 1.090492
-0.17643398 -0.47500414 1.0690253
-0.14234467 -0.46359825 1.0563811
-0.65319133 -0.40673891 1.0521587
-0.63413638 -0.42507523 1.0755943
-0.20878604 -0.42850098 1.0963905
-0.17583157 -0.42535818 1.0803503
-0.13258702 -0.42341879 1.0589713
-0.65419513 -0.36877117 1.0565127
-0.6375078 -0.37542927 1.0812522
-0.20356683 -0.37839061 1.0980424
-0.17434035 -0.37467268 1.0838423
-0.12865883 -0.3752515 1.0604661
-0.6560033 -0.32358971 1.060459
-0.63989443 -0.32579845 1.0850089
-0.20314015 -0.3313061 1.0986614
-0.17481817 -0.32384419 1.0847203
-0.12951112 -0.3259818 1.0611173
-0.65745717 -0.27521533 1.0620922
-0.64173257 -0.27512062 1.0866419
-0.20411558 -0.27471527 1.0989374
-0.17426975 -0.27456683 1.0835479
-0.12845127 -0.27685696 1.0590587
-0.66025066 -0.22334567 1.064029
-0.64292282 -0.22416459 1.0868566
-0.20533419 -0.21737376 1.0960138
-0.17475943 -0.22508389 1.0809406
-0.13386478 -0.22627613 1.0595138
-0.70526886 -0.1747534 1.0707095
-0.69298166 -0.17962439 1.0678035
-0.64434105 -0.19856183 1.0884502
-0.21076311 -0.1751525 1.0952895
-0.17575034 -0.17441556 1.0779135
-0.13682939 -0.17710486 1.0577092
-0.70235813 -0.12806354 1.0983021
-0.69455677 -0.12582685 1.068759
-0.21863684 -0.12346148 1.092941
-0.17430912 -0.12521064 1.0715275
-0.14089592 -0.12854874 1.0545852
-0.6929962 -0.075990841 1.0706199
-0.22208239 -0.073595144 1.0879377
-0.17336437 -0.074453585 1.0652906
-0.14281936 -0.086085491 1.0530558
-0.83738768 -0.017148193 1.0872768
-0.68988395 -0.0265458 1.0711839
-0.25518423 -0.02263331 1.0979452
-0.22515307 -0.026818551 1.084161
-0.17757449 -0.026133742 1.0617955
-0.83543909 0.0076583824 1.0824528
-0.68882734 0.022057153 1.073805
-0.25774109 0.024936644 1.0956241
-0.22568224 0.023289764 1.0792475
-0.18278928 0.021675492 1.0592724
-0.68663263 0.073220551 1.0743608
-0.25890523 0.074373357 1.0915667
-0.22513437 0.075476363 1.0735961
-0.18720655 0.073749386 1.0563363
-0.68397093 0.12460643 1.0779054
-0.26201534 0.12459453 1.0892841
-0.22439039 0.12544259 1.0689754
-0.19411533 0.12393076 1.0543691
-0.67899925 0.17310116 1.069258
-0.26307741 0.17489438 1.0857683
-0.22520365 0.17459065 1.0653421
-0.19682962 0.17020649 1.0522952
-0.66749114 0.22058718 1.060735
-0.26539606 0.2204659 1.0854206
-0.22489914 0.21973316 1.0637083
-0.19831181 0.22025494 1.0510894
-0.66631985 0.26792568 1.0656297
-0.15907548 0.27164897 1.0659941
-0.12083244 0.28756553 1.0589832
-0.077799365 0.28586543 1.0672209
-0.66510183 0.3153097 1.0651386
-0.13500161 0.30238903 1.0653514
-0.060231768 0.308099 1.0640945
0.075595543 0.31378806 1.0830884
0.10908651 0.31531435 1.0671704
-0.65948009 0.36907029 1.0600839
0.13383116 0.3816244 1.0603368
0.16477376 0.37898812 1.0773166
0.56681412 0.45480189 1.0576682
-0.63132828 0.62670481 1.0753574
-0.63105607 0.65513992 1.0734717
-0.57381296 -0.51799244 1.1214314
-0.52516085 -0.53293645 1.124719
-0.47464001 -0.53877676 1.1278788
-0.42541355 -0.53965628 1.1255767
-0.37607005 -0.53567743 1.1249204
-0.32454729 -0.51997125 1.1254187
-0.28154925 -0.50796306 1.1128973
-0.24949241 -0.50176269 1.102739
-0.60437071 -0.46368098 1.1061147
-0.58474088 -0.47625569 1.1286113
-0.31783578 -0.47603685 1.1387712
-0.27461669 -0.47283456 1.1186178
-0.24275033 -0.46627143 1.1056902
-0.60948771 -0.42347148 1.1134951
-0.59177786 -0.42626473 1.1382141
-0.31053317 -0.42854023 1.1448821
-0.27478805 -0.42377305 1.1290257
-0.23274592 -0.42383754 1.1087931
-0.61275578 -0.3741695 1.1189072
-0.59567612 -0.37921709 1.1438845
-0.30658448 -0.37705052 1.1475855
-0.27544332 -0.37516007 1.1341369
-0.22750895 -0.37417677 1.1103861
-0.61530066 -0.32398298 1.1227949
-0.59641212 -0.32868519 1.1467261
-0.30249679 -0.31821913 1.1475998
-0.27404475 -0.32619745 1.1347927
-0.22774997 -0.32427698 1.112178
-0.61690557 -0.27500191 1.1246752
-0.59958458 -0.27308968 1.1493181
-0.30327901 -0.27672085 1.1485187
-0.27496219 -0.27393878 1.1350609
-0.22731699 -0.27502388 1.1109852
-0.87309569 -0.22333647 1.1468145
-0.61859649 -0.22457989 1.1244472
-0.27483287 -0.22455466 1.1369616
-0.22862168 -0.22694211 1.1093694
-0.70414984 -0.17769925 1.1181495
-0.69583559 -0.1779038 1.1138057
-0.62730092 -0.19601104 1.1312945
-0.30551818 -0.1621554 1.1466975
-0.27561298 -0.17562039 1.1326385
-0.23554173 -0.1759124 1.1083357
-0.87291241 -0.11027366 1.1405655
-0.7036916 -0.12683587 1.1179881
-0.69839507 -0.11773893 1.1092821
-0.31317002 -0.12167341 1.1454726
-0.27497762 -0.1248633 1.1259965
-0.24118082 -0.12931101 1.1054049
-0.87572479 -0.073983669 1.1367024
-0.70264357 -0.074699551 1.1273497
-0.69715762 -0.076883733 1.1073198
-0.31832474 -0.072427429 1.1420563
-0.2745021 -0.076517068 1.1187021
-0.24496382 -0.088331446 1.1025459
-0.90074581 -0.019477215 1.1493092
-0.87859124 -0.02204678 1.1269646
-0.70382273 -0.031405512 1.1282498
-0.69620699 -0.025966523 1.1077325
-0.3182655 -0.026017182 1.137574
-0.27805823 -0.027739469 1.1160767
-0.90117753 0.046414878 1.1491588
-0.89424866 0.019900216 1.1408962
-0.70202637 0.021396425 1.1280298
-0.69655287 0.023559524 1.1129267
-0.32083583 0.023136016 1.1345621
-0.28197733 0.025126496 1.1133686
-0.90193748 0.069541417 1.1491512
-0.88213843 0.079048425 1.1370519
-0.70118511 0.066808902 1.1252955
-0.69823599 0.083097793 1.1196833
-0.32367972 0.075031288 1.1327866
-0.28633532 0.076020636 1.1119732
-0.9052012 0.12937532 1.1490093
-0.8763656 0.12727834 1.1370187
-0.69094044 0.11952663 1.105342
-0.32327777 0.1243948 1.1282022
-0.28972793 0.12477323 1.1102833
-0.88271415 0.1546388 1.1401148
-0.32340598 0.17481294 1.1257337
-0.28994933 0.17381813 1.1066107
-0.32348916 0.22194134 1.1239871
-0.2912766 0.21809544 1.1059197
-0.057763554 0.28493643 1.1016657
-0.048686542 0.33686125 1.133424
0.025660956 0.32612064 1.1408397
0.08512596 0.3278963 1.1338443
0.13807112 0.34307745 1.1296601
0.1701173 0.34868276 1.1352868
0.084132493 0.37543061 1.1369115
0.13929604 0.38034096 1.1344478
0.07433264 0.41844216 1.1349794
0.11564486 0.4225941 1.1417959
0.095681518 0.47702044 1.1287334
-0.62066358 0.5968166 1.1347302
-0.61813331 0.62981009 1.1256089
-0.61585498 0.66195118 1.1327825
-0.59811068 0.65218014 1.1410135
-0.5565818 -0.51011014 1.1599187
-0.52748364 -0.51948142 1.1757941
-0.47621205 -0.52947879 1.175279
-0.42551148 -0.53200448 1.1750182
-0.3749916 -0.52520335 1.1763517
-0.34040928 -0.51458132 1.159284
-0.56095791 -0.47129786 1.1662461
-0.54191041 -0.48132581 1.1876489
-0.35820118 -0.49611545 1.1984545
-0.33522242 -0.4582465 1.152671
-0.56745404 -0.42475417 1.1744153
-0.54843801 -0.43777213 1.1957859
-0.33351976 -0.42301369 1.1595914
-0.57413006 -0.37464607 1.1759009
-0.35150933 -0.35593385 1.1856275
-0.32772866 -0.37445769 1.1591556
-0.57912093 -0.32479498 1.1759953
-0.32561982 -0.3253552 1.1608442
-0.58363926 -0.27406323 1.1736532
-0.35299888 -0.25991151 1.1858523
-0.32550922 -0.27554679 1.1590618
-1.0160344 -0.24873847 1.1924179
-0.96334308 -0.2339413 1.1974802
-0.92346859 -0.21646737 1.1869373
-0.89023852 -0.21726269 1.1676022
-0.60053384 -0.24312027 1.1561252
-0.58334631 -0.22448143 1.176777
-0.35077044 -0.24064894 1.1809045
-0.32546294 -0.22486845 1.1618836
-0.29985982 -0.23018658 1.1514223
-0.95617479 -0.17440711 1.1966147
-0.92416185 -0.17711474 1.1857674
-0.89506918 -0.16368686 1.1712717
-0.72435558 -0.17639937 1.1837306
-0.69822562 -0.19705346 1.1886802
-0.61857051 -0.19273095 1.1696328
-0.58283454 -0.19218779 1.1846225
-0.53770781 -0.1651393 1.1845618
-0.326428 -0.17773661 1.1586256
-1.0109162 -0.10797999 1.1991225
-0.97186357 -0.12242058 1.1911696
-0.92613804 -0.12619635 1.178266
-0.88755596 -0.13207011 1.1593202
-0.72160852 -0.11532696 1.1902208
-0.55775017 -0.14739983 1.1976519
-0.53961325 -0.12698658 1.1876636
-0.35182914 -0.12158608 1.1757847
-0.33497989 -0.12817261 1.1575365
-1.0151362 -0.074949145 1.1963147
-0.97451305 -0.074878901 1.18683
-0.92512059 -0.075338751 1.1691356
-0.89327914 -0.062235147 1.1511523
-0.71803015 -0.068785667 1.190129
-0.54390955 -0.088257082 1.1945306
-0.34232268 -0.077211596 1.1569494
-1.0211556 -0.024536638 1.1916828
-0.97442919 -0.02717451 1.1764572
-0.92638332 -0.026774308 1.162413
-0.71859515 -0.026236527 1.1865652
-0.69817293 -0.012403343 1.1802056
-0.54895157 -0.048832525 1.1994929
-0.34406096 -0.025456326 1.1536644
-1.0599631 0.021908468 1.1971467
-1.0221027 0.024838891 1.1861982
-0.97466046 0.024469158 1.1738164
-0.92784369 0.023584835 1.1589028
-0.71760041 0.022951968 1.1861461
-0.54813147 0.048961341 1.19762
-0.34299269 0.011340641 1.1502571
-1.0585686 0.073496237 1.1936735
-1.0275098 0.076596327 1.18407
-0.97570604 0.075739294 1.1688491
-0.92496979 0.07477612 1.1562079
-0.89430666 0.099102162 1.1502079
-0.71652812 0.0729523 1.1823934
-0.69604045 0.072439939 1.1815531
-0.55542099 0.094972372 1.1961849
-0.54365742 0.083450243 1.1925099
-1.0672127 0.11990727 1.1933746
-1.0246067 0.12544128 1.1770704
-0.97228181 0.12519185 1.1622865
-0.92797291 0.12470731 1.1570195
-0.89693189 0.12913054 1.1511512
-0.71658242 0.12333669 1.1838621
-0.55824369 0.11780817 1.1982422
-0.53924745 0.12790191 1.1855154
-0.96676946 0.15038414 1.1593826
-0.92328328 0.15840086 1.1627237
-0.71844816 0.1725857 1.1824788
-0.55632699 0.17847595 1.1890185
-0.53596306 0.17569061 1.1808108
-0.55742836 0.22130735 1.1884334
-0.53133196 0.22867757 1.1853538
-0.55439878 0.25199211 1.1851852
-0.52646214 0.26864502 1.1846536
-0.31678182 0.28057939 1.1858008
-0.2954894 0.28207335 1.1902249
-0.5278967 0.32567933 1.1839596
-0.3139376 0.32512444 1.1885897
-0.29687294 0.32233196 1.1955638
0.038159974 0.33350393 1.1809789
0.067257993 0.33024091 1.1699302
-0.52213073 0.37573454 1.1837262
-0.31217673 0.3739374 1.190819
0.040332746 0.3730053 1.1824313
0.072597772 0.36851311 1.1707939
0.13247843 0.38357177 1.1629145
0.15059997 0.39013264 1.1527549
-0.51952124 0.43051675 1.1860878
-0.31423685 0.42528552 1.1938099
0.12044698 0.42124569 1.1773287
-0.51504755 0.47002241 1.1770501
-0.31272388 0.47565129 1.1962522
0.094976269 0.49093172 1.153821
-0.52748662 0.5292995 1.199632
-0.31246489 0.52691692 1.1941967
-0.6057632 0.59619665 1.1697848
-0.58954906 0.59145695 1.1832886
-0.31283122 0.57536548 1.194364
-0.60763013 0.62476397 1.1613928
-0.59023803 0.62899381 1.1842176
-0.53920227 0.64663732 1.1861143
-0.31184188 0.62403309 1.1938674
-0.60955548 0.67439836 1.1696626
-0.58608097 0.65946108 1.188221
-0.31982824 0.67899501 1.1927656
-0.29951054 0.66330564 1.1976062
-0.32128397 0.72468644 1.1887224
-0.29898307 0.73384124 1.1974169
-0.35160685 0.77348822 1.1992346
-0.32139948 0.77421516 1.1886983
-0.29711229 0.78704655 1.1973422
-0.31872222 0.82094419 1.1880288
-0.29862219 0.80439734 1.1964319
-0.31523553 0.87275422 1.1909364
-0.2983017 0.87309802 1.1950324
-0.31375465 0.92498487 1.1909584
-0.29685703 0.9274081 1.1949413
-0.31991038 0.96830171 1.1935486
-0.29738033 0.96476549 1.1957994
-0.51309723 -0.51014 1.213063
-0.47461072 -0.51469022 1.2260097
-0.42574275 -0.51490366 1.2262676
-0.38299534 -0.51345915 1.2186567
-0.51896429 -0.4730517 1.2225465
-0.48801193 -0.48837408 1.2446543
-0.41575423 -0.48963472 1.2453378
-0.38399813 -0.47713119 1.2375087
-0.550179 -0.40575865 1.2025349
-0.52993858 -0.4252249 1.2259551
-0.40165374 -0.44157055 1.2489054
-0.38001218 -0.43050447 1.2398082
-0.55289161 -0.37278205 1.2075766
-0.53468078 -0.37531349 1.2313073
-0.37436062 -0.37591097 1.2395465
-0.55669153 -0.32441613 1.20926
-0.53795379 -0.32438606 1.2340049
-0.37729368 -0.33007079 1.2425487
-1.1008381 -0.26211828 1.2345304
-1.0736094 -0.25423163 1.2326027
-1.0384748 -0.25245544 1.2050483
-0.5589481 -0.27399772 1.2109925
-0.53939837 -0.27534625 1.2361736
-0.3759293 -0.27538261 1.2402928
-1.0664356 -0.22215112 1.236292
-1.0260006 -0.2250047 1.2214453
-0.97530949 -0.21693076 1.2061485
-0.55818695 -0.22504871 1.2136061
-0.53941798 -0.22503905 1.2375528
-0.37598392 -0.23256351 1.2369057
-1.1086556 -0.15715718 1.2441804
-1.0726467 -0.17432638 1.2332677
-1.0255761 -0.17593579 1.2175748
-0.98075527 -0.17436759 1.2041706
-0.7202183 -0.17362791 1.2085656
-0.56912279 -0.18526126 1.2127976
-0.53319025 -0.1765871 1.2288153
-0.38030997 -0.17243394 1.2455842
-1.1069322 -0.12852703 1.2395852
-1.0730529 -0.12434357 1.2274041
-1.0251029 -0.12863025 1.209684
-0.99456561 -0.13694838 1.2015301
-0.72475535 -0.13311294 1.2052236
-0.56563401 -0.12320932 1.2103546
-0.53345245 -0.12245952 1.2263498
-0.38012484 -0.11979784 1.239115
-1.154652 -0.06421645 1.2451243
-1.1240886 -0.070035823 1.2423258
-1.0716196 -0.073387615 1.2199626
-1.031883 -0.086647056 1.2054499
-0.99657154 -0.091057807 1.2008829
-0.72182691 -0.088397786 1.2033052
-0.56575829 -0.072969459 1.212833
-0.53437769 -0.075110599 1.2266995
-0.38557839 -0.079875581 1.2425834
-1.1586938 -0.023342155 1.2452281
-1.1268381 -0.025831601 1.2370892
-1.074132 -0.024605634 1.213027
-1.0360429 -0.040976159 1.201679
-0.72677851 -0.022296147 1.2010143
-0.56261355 -0.025356043 1.211072
-0.53504604 -0.026486374 1.2295982
-0.38977078 -0.026955824 1.2434701
-1.1587523 0.020749627 1.2434561
-1.1241921 0.024149371 1.2287401
-1.0782132 0.022247512 1.2091753
-0.5647971 0.023972005 1.2136476
-0.53353983 0.024483692 1.23019
-0.40476862 0.025902256 1.2474865
-0.38927478 0.02446793 1.2399679
-1.1656524 0.080501132 1.2391449
-1.1276474 0.076449424 1.2245939
-1.0856552 0.071202777 1.207683
-0.56302893 0.071985841 1.2064291
-0.53127056 0.074821681 1.2290394
-0.40847617 0.07772246 1.2465678
-0.38859987 0.076253884 1.2363621
-1.2008797 0.12466124 1.2467673
-1.171056 0.11915076 1.2416823
-1.1167881 0.11955295 1.2128258
-1.0884866 0.12439284 1.2032524
-0.71123058 0.13293056 1.2035418
-0.57178628 0.12652598 1.2137593
-0.52821565 0.12318935 1.231324
-0.41031307 0.12762444 1.2452668
-0.38901713 0.1251678 1.2349688
-1.013569 0.17442226 1.2411171
-0.71734297 0.18760164 1.2050471
-0.56974393 0.16739325 1.2111183
-0.52715296 0.17334618 1.2311326
-0.41915855 0.17890732 1.2466805
-0.39040709 0.174621 1.2353159
-0.71443015 0.20015964 1.2020127
-0.59076118 0.2255045 1.2444973
-0.52482045 0.22361122 1.2345371
-0.41729218 0.23095693 1.245519
-0.38811222 0.22379531 1.2302706
-1.0507001 0.25240716 1.2475777
-1.0426621 0.28560519 1.2459617
-0.57005787 0.27966639 1.2073305
-0.5250181 0.27733028 1.2328678
-0.42071217 0.27538726 1.2456611
-0.37587494 0.27746493 1.222989
-0.34183788 0.28437012 1.2053005
-0.27935386 0.28959498 1.2210368
-1.0217942 0.30747059 1.2297076
-0.57572699 0.30782491 1.2148459
-0.52359664 0.32431713 1.2338059
-0.42420655 0.32550097 1.2452173
-0.37626782 0.3254824 1.2247977
-0.34195817 0.32288408 1.2051485
-0.28193092 0.32433417 1.2262331
0.054703481 0.33994648 1.2069498
-0.59135455 0.38891527 1.2496505
-0.52182758 0.37491715 1.2352948
-0.45109409 0.35717332 1.2497911
-0.42277691 0.37519601 1.2443004
-0.37518123 0.37341616 1.2237209
-0.33212006 0.37747663 1.204989
-0.28604162 0.37342408 1.2231442
-0.10247343 0.37945205 1.2419857
0.048699778 0.35405555 1.2019763
0.11932561 0.38295004 1.219604
0.19028194 0.38362503 1.2273061
-0.52150947 0.42454949 1.2382222
-0.42328864 0.42456526 1.244719
-0.37453702 0.42580846 1.2248974
-0.32896966 0.42497563 1.20568
-0.2878637 0.42541084 1.2261705
0.11410505 0.41999552 1.2251273
-0.68111247 0.49186492 1.2450647
-0.52254635 0.47415298 1.2379435
-0.42354614 0.4758108 1.2440833
-0.37512362 0.47387555 1.2249707
-0.32969365 0.47589141 1.2078012
-0.28788385 0.47522959 1.2311926
-0.68327761 0.50028104 1.2469037
-0.52149212 0.52469474 1.2362486
-0.42264852 0.52495986 1.2430203
-0.37526923 0.52470088 1.2251606
-0.32850763 0.52434492 1.2057408
-0.28960779 0.52614969 1.2284253
-0.18308918 0.52987254 1.2427849
-0.6667397 0.59911579 1.2480736
-0.62064409 0.57497454 1.2352293
-0.56768072 0.59063774 1.2163911
-0.52417535 0.57656538 1.2372605
-0.49672794 0.55839252 1.2456812
-0.42235923 0.57535732 1.243165
-0.37436438 0.57485551 1.2241032
-0.33073556 0.57453561 1.2065421
-0.28733721 0.57509542 1.2276723
-0.56648004 0.62217408 1.2161975
-0.5292927 0.62833792 1.237307
-0.423538 0.62588042 1.2398735
-0.3760967 0.62547618 1.2226294
-0.33450982 0.62444937 1.2067878
-0.2870864 0.6263808 1.2242646
-0.6027199 0.69111001 1.2219006
-0.57382143 0.66234183 1.2086613
-0.51982272 0.6725288 1.2355164
-0.45099205 0.65559888 1.2497401
-0.42234462 0.67348504 1.2368405
-0.37393382 0.67619199 1.2142448
-0.33924362 0.66090328 1.2037326
-0.28447607 0.67479289 1.2262458
-0.51527607 0.72845626 1.2357686
-0.42187366 0.72443402 1.23622
-0.37452754 0.72455508 1.2127939
-0.34730971 0.72894114 1.2016752
-0.28476638 0.72429752 1.2244796
-0.51301515 0.77466828 1.2318125
-0.47534984 0.76293051 1.2466458
-0.4256174 0.77514088 1.2394984
-0.37555104 0.77306533 1.2131577
-0.28275612 0.77337933 1.2266229
-0.51388478 0.8261559 1.2339369
-0.45131364 0.8321507 1.2478894
-0.42549357 0.82474774 1.2413598
-0.37514597 0.82651252 1.2196937
-0.34288681 0.84301066 1.2041955
-0.28337756 0.82592988 1.2247388
-0.5143016 0.87378502 1.2330226
-0.45553446 0.89336061 1.2492212
-0.42384183 0.87508482 1.2405951
-0.3750318 0.87578326 1.2228318
-0.34090957 0.87420964 1.2061105
-0.28237414 0.87437069 1.2247958
-0.51373696 0.92438233 1.2362825
-0.46379074 0.92599189 1.24862
-0.42224467 0.92481065 1.2395134
-0.37401909 0.92415905 1.2207454
-0.34086215 0.91931951 1.20665
-0.2816985 0.92494619 1.2259254
-0.50831741 0.97847414 1.2371342
-0.48284674 0.98466629 1.2468619
-0.42619514 0.97506338 1.2404975
-0.37507039 0.97413433 1.2207212
-0.34335086 0.96461606 1.2065389
-0.28215685 0.97189635 1.2250217
-0.50657088 1.0249747 1.2364562
-0.45091295 1.0343349 1.2481203
-0.4268916 1.0207871 1.2413481
-0.38242379 1.0095875 1.224122
-0.27827317 1.0043907 1.2368317
-0.50183475 -0.45430672 1.251145
-0.47223437 -0.46952257 1.2587459
-0.42915228 -0.46975225 1.256026
-0.39282081 -0.4552606 1.2502573
-0.50582361 -0.42046854 1.2557644
-0.47649196 -0.4256233 1.2679007
-0.42583108 -0.42373839 1.2617511
-0.39128503 -0.41193417 1.2525567
-0.50941163 -0.37313455 1.2604171
-0.47531572 -0.37572291 1.2745986
-0.42506588 -0.37545118 1.2669456
-0.39141712 -0.37287968 1.2552407
-0.5152424 -0.32393399 1.2610729
-0.4758006 -0.32541472 1.2779211
-0.42528376 -0.32508692 1.27
-0.39371508 -0.32568413 1.2583275
-1.2168369 -0.28106898 1.2955055
-1.1680909 -0.26621214 1.2790629
-1.121448 -0.25810602 1.259097
-0.51405865 -0.27463484 1.2645477
-0.47675097 -0.27584404 1.2803441
-0.4234505 -0.27455258 1.2690481
-0.39058244 -0.27421987 1.2555975
-1.2041181 -0.22320418 1.298637
-1.1690705 -0.22434075 1.2794397
-1.1248785 -0.22690256 1.2639291
-1.091266 -0.22964291 1.2517602
-0.51543051 -0.22553368 1.2642318
-0.47513592 -0.22541505 1.2799982
-0.42522922 -0.22561321 1.2685959
-0.39239338 -0.22207429 1.2570798
-1.2082008 -0.16872394 1.2950159
-1.1785662 -0.17527127 1.28096
-1.1276342 -0.17900337 1.2612437
-0.65252101 -0.18062258 1.2984045
-0.62934053 -0.17561731 1.2902478
-0.51588219 -0.17425004 1.2614083
-0.47723642 -0.17624281 1.2756022
-0.42711809 -0.17315553 1.2679547
-0.39321968 -0.17749752 1.257681
-1.2509148 -0.13689879 1.2984835
-1.2195421 -0.12300805 1.2915522
-1.1699777 -0.12571736 1.2712427
-1.1350894 -0.12130611 1.2572385
-0.65041208 -0.14776781 1.2971671
-0.62851346 -0.12458946 1.2859721
-0.51474535 -0.12491603 1.2614012
-0.47639996 -0.12421011 1.2738087
-0.42494553 -0.12433199 1.2630141
-0.39262259 -0.13341111 1.2538708
-1.2609504 -0.080434255 1.2977352
-1.2250744 -0.08706338 1.2874595
-1.169457 -0.078667879 1.2589809
-1.1376791 -0.090743721 1.2537402
-0.65475029 -0.070229009 1.2945932
-0.62922066 -0.075161085 1.2830534
-0.59873492 -0.090263106 1.2580317
-0.5123477 -0.071842507 1.2608511
-0.47422108 -0.072884619 1.2706032
-0.42389277 -0.076399773 1.2586914
-0.39687875 -0.071351342 1.2511736
-1.2148787 -0.020129712 1.2685804
-1.1877474 -0.033832155 1.2588378
-0.65242815 -0.033240281 1.2910402
-0.62734872 -0.025086569 1.2771766
-0.51001984 -0.025748514 1.262954
-0.47660092 -0.025581665 1.2704585
-0.42679942 -0.026940402 1.2566228
-0.39928031 -0.033858825 1.2509245
-1.2628732 0.032745142 1.2836106
-1.2261951 0.026042197 1.2715017
-1.1861899 0.020872954 1.256372
-0.6526525 0.017524181 1.2916176
-0.62663835 0.023939302 1.2749346
-0.50790137 0.021417873 1.2609828
-0.47662714 0.022240384 1.2690222
-0.42856869 0.0243745 1.2547076
-1.2725819 0.080709428 1.2880225
-1.2271781 0.074715406 1.2718974
-1.18751 0.072727717 1.2556192
-0.65295327 0.066905595 1.2910603
-0.62730992 0.07655295 1.2758774
-0.50762272 0.071352504 1.2605252
-0.47668412 0.072922535 1.2678272
-0.4337317 0.076962128 1.2538079
-1.2693855 0.11580976 1.2798303
-1.2228857 0.11679778 1.2604582
-1.1882021 0.12059766 1.2554688
-0.65484285 0.12411445 1.2916714
-0.62493491 0.12614244 1.2742463
-0.59967005 0.1391311 1.2566431
-0.50689805 0.12429167 1.2604671
-0.47673211 0.12367395 1.2665298
-0.43233365 0.12640455 1.2522396
-1.0233371 0.18820094 1.2577097
-0.65758353 0.17098531 1.2909499
-0.62530482 0.17501713 1.2749147
-0.50769114 0.17641163 1.2587587
-0.47561443 0.17490734 1.2651854
-0.43579334 0.16968124 1.2515267
-1.053038 0.2323014 1.2680976
-1.0399925 0.22817586 1.2740923
-0.66938007 0.23746836 1.2786318
-0.62925065 0.22506221 1.2765031
-0.59663904 0.2278249 1.2567632
-0.50631124 0.22656552 1.2570307
-0.47565636 0.2245964 1.2641019
-0.43403852 0.21988925 1.2510839
-1.0515229 0.26185861 1.2613745
-1.0409343 0.27648646 1.2638087
-0.66881222 0.27449724 1.2745519
-0.62737435 0.27415723 1.2745732
-0.50697064 0.27380979 1.2590865
-0.47574422 0.27421868 1.2632629
-0.44603512 0.27304852 1.2521284
-0.25930858 0.29824486 1.2617112
-1.0431552 0.30643159 1.2569748
-0.66811347 0.3245489 1.2772446
-0.6292243 0.32447916 1.2786465
-0.59601545 0.33839464 1.2538762
-0.5066855 0.32520518 1.2566607
-0.47644922 0.32573605 1.2628393
-0.44931543 0.31447783 1.2526793
-0.25978771 0.32828012 1.2711041
-0.2421045 0.32448366 1.2883747
-0.67128485 0.37530491 1.2815711
-0.62685436 0.37364239 1.2760944
-0.59580147 0.36655235 1.2559774
-0.50500733 0.37484273 1.255055
-0.47844097 0.37492082 1.2626561
-0.44736019 0.39138088 1.2520126
-0.26274118 0.37675124 1.2716733
-0.23771551 0.37217855 1.2953082
-0.16707899 0.38624072 1.2892751
-0.12779391 0.3856242 1.2699089
-0.09824042 0.39312023 1.2653327
-0.035932846 0.39403155 1.2705128
0.0236609 0.39115775 1.2831022
-0.67277008 0.42849573 1.2780221
-0.62986881 0.42481282 1.2793161
-0.597844 0.41983798 1.2569733
-0.50592715 0.42453679 1.25597
-0.4769555 0.42701086 1.2625544
-0.44915256 0.41549066 1.2518272
-0.26276603 0.42518872 1.2757964
-0.2044877 0.40587413 1.2981287
-0.16719858 0.42605862 1.2944719
-0.1231189 0.42638943 1.2763617
-0.09566395 0.41743377 1.287468
0.026998756 0.41894284 1.285484
-0.67360044 0.47490576 1.2771412
-0.62982994 0.47662857 1.2811644
-0.59708995 0.47115326 1.2594404
-0.50614053 0.47599357 1.2548177
-0.47795558 0.4749068 1.2618377
-0.44721109 0.47503558 1.2520157
-0.26437262 0.47553116 1.2767942
-0.16308688 0.47084537 1.2952989
-0.12309142 0.47542003 1.2764683
-0.095322631 0.47201133 1.2963403
-0.6731168 0.52592313 1.2787492
-0.62815893 0.52558672 1.2813953
-0.59721053 0.53448534 1.2590103
-0.50413436 0.52489793 1.2549281
-0.47574717 0.52477384 1.2608044
-0.44581699 0.52143902 1.2507343
-0.2653144 0.52601576 1.2732292
-0.20481777 0.53604949 1.2579424
-0.16591087 0.51820588 1.2747083
-0.12413371 0.52380604 1.2752898
-0.09613654 0.51840144 1.296243
-0.67295116 0.57613212 1.2777817
-0.62835974 0.56839788 1.2752281
-0.50388908 0.57710344 1.2556938
-0.47790414 0.5747903 1.2606294
-0.4489094 0.56671983 1.2517937
-0.26203752 0.57499462 1.2720112
-0.2340547 0.57363707 1.2862515
-0.19097109 0.55860066 1.2544662
-0.12720436 0.55550599 1.2846917
-0.67618698 0.60053945 1.2684201
-0.50310147 0.62424856 1.2530667
-0.47729144 0.62457383 1.2593267
-0.44693029 0.6195538 1.2501297
-0.26168671 0.62400311 1.269042
-0.24729283 0.62938732 1.2946146
0.05499649 0.63315368 1.2943463
-0.50220329 0.67716449 1.254082
-0.4777168 0.6754896 1.259583
-0.44783363 0.68817693 1.2505007
-0.26059547 0.67486447 1.2689115
-0.24564481 0.67367423 1.2939628
-0.63088459 0.74015868 1.2849344
-0.50281817 0.72013611 1.2530284
-0.47621846 0.72427499 1.25826
-0.44648337 0.73463356 1.2511954
-0.25955504 0.72362548 1.2687807
-0.24549249 0.73013026 1.2946137
-0.70866209 0.78874922 1.2936244
-0.68716824 0.76948887 1.2905385
-0.63348389 0.76834565 1.2932532
-0.47925055 0.77477157 1.2584972
-0.25928336 0.77503443 1.2687393
-0.24662885 0.7782324 1.2930453
-0.7202819 0.82172251 1.2953777
-0.62848419 0.82340294 1.2906069
-0.5042513 0.81994998 1.2504513
-0.47952911 0.82491195 1.2593645
-0.25992846 0.82508355 1.2677113
-0.24554807 0.82450134 1.2930304
-0.65376025 0.86952543 1.2992824
-0.62945539 0.86326784 1.2903955
-0.50371945 0.88749081 1.2561697
-0.47814181 0.87225622 1.2591354
-0.25953966 0.87255526 1.2678697
-0.24639729 0.87907839 1.2913536
-0.62641579 0.92185163 1.2906246
-0.50299364 0.91461313 1.2540648
-0.48073736 0.92350322 1.2597893
-0.4496676 0.91790253 1.2525389
-0.25926447 0.92336231 1.2698361
-0.24579635 0.9252947 1.2935741
-0.62675589 0.96288526 1.2926418
-0.50354016 0.95917451 1.2502451
-0.47928458 0.973602 1.2598004
-0.25970447 0.97754836 1.2702088
-0.24654981 0.97334349 1.2935369
-0.72187793 1.0498056 1.2982258
-0.65270281 1.0304452 1.2999821
-0.63400352 1.0190917 1.2963939
-0.50661129 1.0174623 1.2538441
-0.4785111 1.0251594 1.2592667
-0.25934699 1.0177802 1.2718192
-0.24686114 1.0293256 1.2961043
-0.50393856 1.0610291 1.2560939
-0.48461574 1.0604788 1.2633991
-0.63497376 1.1153358 1.2998031
-1.255888 -0.26666442 1.3175435
-1.2208104 -0.26304114 1.3050058
-1.1978244 -0.26347381 1.3005601
-1.2719929 -0.22921649 1.3314264
-1.2280132 -0.22231518 1.3079929
-0.7107408 -0.20773011 1.3347393
-0.6891796 -0.20619202 1.3309476
-1.2666107 -0.17780413 1.3176816
-1.2367342 -0.17052159 1.3082997
-0.71826512 -0.19750036 1.3448437
-0.6733411 -0.1719844 1.3234149
-0.64493191 -0.16152616 1.300947
-1.2699831 -0.12130329 1.3128114
-1.2389106 -0.14453505 1.3003248
-0.67677289 -0.12330271 1.3261131
-1.2618964 -0.094202876 1.3029708
-0.68534195 -0.077880129 1.3327719
-0.70637566 -0.0349117 1.348387
-0.68480843 -0.029032966 1.3302474
-0.70538098 0.024645541 1.3465998
-0.6840086 0.024255088 1.3292792
-0.70351583 0.083942689 1.3412548
-0.68301588 0.075842939 1.325915
-0.68437064 0.12431085 1.3258899
-0.68609941 0.17585817 1.3268148
-0.70414406 0.21856949 1.3442411
-0.6753512 0.21491186 1.3112421
-0.78102112 0.28750515 1.3352265
-0.78312832 0.32992885 1.3395172
-0.22868226 0.33125937 1.3253697
-0.059928842 0.34687328 1.328396
-0.77720642 0.37029275 1.3392949
-0.70589447 0.39256486 1.304493
-0.2274631 0.37369558 1.3243434
-0.19135459 0.38554126 1.3054019
-0.060937107 0.36797649 1.3337252
-0.78056127 0.40239704 1.3443899
-0.72167736 0.43099961 1.3208367
-0.23080225 0.42492464 1.3255538
-0.18529926 0.41952452 1.3041474
-0.077034391 0.43171772 1.3240968
0.02664371 0.43057978 1.3137754
0.06665922 0.42028224 1.3341351
-0.23139478 0.47403133 1.3264436
-0.18724154 0.47749227 1.3084596
-0.081914492 0.47515824 1.3212681
0.030924262 0.47231218 1.3419054
-0.25294167 0.52260435 1.3013391
-0.2335614 0.52416217 1.3259945
-0.19043857 0.51096827 1.3097864
-0.080369733 0.52271676 1.3254807
0.032204859 0.52247506 1.342921
0.069400765 0.53140152 1.3489813
-0.23229618 0.57298225 1.3174191
-0.087712593 0.55499387 1.3292928
0.03869066 0.56866086 1.3430778
0.058626141 0.58101445 1.3407826
-0.2282093 0.62406111 1.3230088
-0.19782278 0.60570312 1.343335
0.047168944 0.62572658 1.3387601
0.055779077 0.61850578 1.320812
-0.22798903 0.67489332 1.3255081
0.043182101 0.65613574 1.3416972
0.050118215 0.67036843 1.3374436
-0.22902401 0.72425932 1.3230751
-0.67114353 0.78426868 1.3050331
-0.6439023 0.78795993 1.3040311
-0.22795925 0.7724964 1.3259097
-0.71144587 0.82884437 1.3087559
-0.67431664 0.8247332 1.3075379
-0.64276469 0.81631124 1.3027337
-0.22901788 0.8235445 1.3242667
-0.71468145 0.87575603 1.3109363
-0.6763407 0.8746323 1.3122886
-0.63900197 0.88152695 1.3051186
-0.22777919 0.87396032 1.3260604
-0.71644604 0.92303401 1.3148947
-0.67403179 0.92475671 1.3126956
-0.64100426 0.92170519 1.3034745
-0.23106007 0.92478693 1.3245703
-0.71809983 0.97579807 1.3181362
-0.67867959 0.97573394 1.3153255
-0.64180142 0.97205704 1.3054026
-0.23126389 0.97592783 1.3245192
-0.71498644 1.026668 1.3215626
-0.67638153 1.0235901 1.3169403
-0.63901246 1.0127814 1.3031652
-0.23305897 1.0267668 1.3244715
-0.71519148 1.073776 1.315001
-0.6752106 1.0743111 1.3171413
-0.64036423 1.0755761 1.3087159
-0.22832425 1.0633172 1.3332138
-0.71367079 1.1266433 1.3166538
-0.6789121 1.1265544 1.3219738
-0.64571363 1.1157063 1.3045316
-0.71617562 1.1671451 1.3168257
-0.68204939 1.1604875 1.3233111
-0.64836949 1.1513798 1.3177557
-0.71096933 -0.20551312 1.35443
-0.7214694 -0.17529538 1.369393
-0.69575649 -0.17952603 1.3521211
-0.7195915 -0.12394329 1.3673948
-0.72421765 -0.074861445 1.370349
-0.72047681 -0.025989098 1.3672134
-0.72090858 0.02319584 1.3673581
-0.72183228 0.074861288 1.3660561
-0.723288 0.12516607 1.3684558
-0.71948791 0.17534408 1.3604337
-0.80008125 0.23781256 1.3924235
-0.75498939 0.24760443 1.3748642
-0.72661704 0.22027726 1.3659378
-0.7742734 0.2773107 1.3691032
-0.74622887 0.25437376 1.3740844
-0.78079146 0.32005867 1.3656914
-0.76689333 0.37645265 1.3714695
-0.21866925 0.38071164 1.353129
-0.051523332 0.37257543 1.3602171
-0.032948643 0.38111907 1.3811594
-0.76094455 0.41264626 1.3848282
-0.2220436 0.43248755 1.3533186
-0.055456378 0.43395254 1.3640068
-0.037483342 0.43409261 1.3849517
0.065250412 0.42483997 1.3576567
-0.21965317 0.47861508 1.3547299
-0.05881976 0.4755137 1.3633676
-0.043584943 0.47305831 1.3905545
0.024885956 0.47659266 1.3537179
0.066775359 0.4782626 1.3884559
-0.21865462 0.51813883 1.3520679
-0.058443036 0.52642196 1.366731
-0.046714067 0.52293926 1.3863128
0.04304368 0.5247038 1.3600332
0.062775746 0.52461612 1.3776667
-0.070367679 0.55707854 1.365857
0.042016476 0.5790326 1.3566637
0.057759035 0.56173211 1.3550587
-0.20667675 0.63755316 1.3623732
-0.1880407 0.62862533 1.3845108
0.035135396 0.62619567 1.3634166
-0.20725943 0.67332691 1.3622601
-0.1923707 0.67569649 1.3877001
0.036115751 0.66621393 1.3661819
-0.20733041 0.72799939 1.3634222
-0.19286849 0.72264528 1.3873222
-0.20740132 0.77656132 1.3632267
-0.19304791 0.77619684 1.3905537
-0.20927751 0.82710296 1.3639765
-0.1951452 0.82409728 1.3886871
-0.20652303 0.8741017 1.3701657
-0.19446371 0.87638652 1.3928101
-0.20913292 0.92664045 1.3665115
-0.19554859 0.92530149 1.3908033
-0.21173654 0.9708125 1.3610673
-0.19615355 0.97279572 1.3922185
-0.20836803 1.0248768 1.3706318
-0.19495003 1.0283412 1.3924276
-0.21090658 1.0742114 1.3643752
-0.19786337 1.0757022 1.3936737
-0.20620601 1.105546 1.3769907
-0.19707377 1.1116446 1.3909899
-0.79014605 0.2410243 1.401679
-0.80372155 0.29177064 1.4420933
-0.78967404 0.29256445 1.4289632
-0.80427182 0.32501817 1.4398924
-0.78888184 0.32374406 1.4371142
-0.80196655 0.36738673 1.4433966
-0.78512096 0.3752408 1.4187328
-0.019617146 0.37976658 1.4105041
0.0017954712 0.39217687 1.4461647
-0.77931362 0.42496559 1.4058713
-0.017070329 0.42454171 1.4280174
0.015831089 0.4003773 1.4355731
-0.022381552 0.47715986 1.4241832
0.0017991429 0.47898164 1.4324564
0.069274113 0.47564816 1.4028114
-0.026956379 0.52043647 1.422986
0.0018176357 0.51194084 1.4410057
-0.040935554 0.55575675 1.4217151
-0.16951236 0.63710898 1.4192327
-0.17246051 0.67658406 1.4276569
-0.17372563 0.72350168 1.4259926
-0.1750745 0.77455682 1.4254225
-0.17715976 0.82597154 1.4238709
-0.17794892 0.87462872 1.4245045
-0.17938532 0.9250688 1.4245657
-0.17714565 0.97595567 1.4259853
-0.18013808 1.0222186 1.4246505
-0.18102294 1.0757083 1.4245892
-0.18060438 1.1208295 1.4259255
-0.17343836 1.1539444 1.4419348
-0.80245733 0.33279684 1.4506441
0.0089056836 0.39061052 1.4541368
-0.0053119743 0.42378458 1.4522543
0.0057059103 0.42633808 1.4678168
-0.0053608334 0.49228978 1.4515508
0.0054589305 0.45551714 1.4691565
-0.007825817 0.5306623 1.456594
0.0018648749 0.5363003 1.4758921
-0.019916287 0.55126929 1.4515361
-0.15613221 0.67954654 1.4553218
-0.14127575 0.67738217 1.4798728
-0.15594865 0.73120469 1.4611406
-0.14111701 0.72196525 1.4872571
-0.15494469 0.77701765 1.4633108
-0.14161851 0.77637047 1.4896379
-0.1565316 0.82367373 1.4627788
-0.14314656 0.82792044 1.4886512
-0.15796705 0.87395358 1.4617141
-0.14381938 0.87894529 1.4896866
-0.15817323 0.92980856 1.4641304
-0.14398295 0.92094284 1.4876919
-0.1565219 0.97442621 1.4664286
-0.14439115 0.97659713 1.4901999
-0.15861163 1.0272077 1.467455
-0.14366867 1.0289577 1.4913765
-0.16045773 1.0724021 1.4629662
-0.14584698 1.0754178 1.4908373
-0.16048378 1.1256407 1.462256
-0.14468522 1.1158834 1.489121
-0.15622717 1.1644034 1.475052
-0.14419852 1.175642 1.4965696
0.00189929 0.55371708 1.5013462
-0.11779917 0.68325204 1.5276653
-0.12354855 0.72619265 1.5215745
-0.12389381 0.77552688 1.5233166
-0.12439098 0.82627922 1.5249701
-0.12347451 0.87419802 1.5277458
-0.12340983 0.92540902 1.5286639
-0.12775734 0.97779781 1.5239352
-0.12769258 1.0272049 1.5251025
-0.12539621 1.0776063 1.5299543
-0.12852788 1.1254754 1.5264866
-0.12857625 1.1762735 1.5264044
-0.12571324 1.2142401 1.5304775
-0.10112783 0.68246335 1.5631924
-0.089093782 0.67819458 1.582564
-0.10544603 0.72494179 1.5617118
-0.090934403 0.72389686 1.5848703
-0.10705066 0.77562737 1.5592716
-0.091433167 0.77353668 1.585704
-0.10686347 0.82385898 1.5621668
-0.093090288 0.82695788 1.5847415
-0.10624927 0.87244701 1.562292
-0.093657307 0.87889063 1.5836653
-0.10636387 0.92646056 1.5664976
-0.095203005 0.9255777 1.5835695
-0.10962971 0.96834081 1.5561839
-0.095639423 0.97413617 1.5839336
-0.10611054 1.0217496 1.5654736
-0.092855021 1.0240926 1.5926001
-0.10595757 1.0731959 1.5698555
-0.093780287 1.0736022 1.5884359
-0.10680325 1.1275754 1.5670383
-0.093384266 1.1265075 1.5916824
-0.10819715 1.1797116 1.5683781
-0.093400501 1.1767753 1.5920439
-0.10880341 1.2169212 1.5639107
-0.097409524 1.2238787 1.5874963
-0.11136302 1.2553062 1.5746671
-0.098362148 1.2587154 1.5884448
-0.054621894 0.64783859 1.6112068
-0.07015498 0.68205094 1.6202132
-0.070285104 0.72361809 1.6259556
-0.071883768 0.7740398 1.6270269
-0.074007712 0.82287467 1.6238536
-0.073250279 0.87530869 1.6261458
-0.076011434 0.92706043 1.6213782
-0.074565485 0.97747731 1.6258092
-0.076499149 1.0229112 1.6208327
-0.077561177 1.0764576 1.6234912
-0.076368116 1.1256937 1.6271809
-0.078517884 1.1756322 1.6254349
-0.079144008 1.2275892 1.6284696
-0.079803742 1.27458 1.6288799
-0.07344126 1.3084452 1.6433532
-0.056180313 0.6871438 1.6512251
-0.039112672 0.67599124 1.6768357
-0.056492943 0.71751881 1.6524391
-0.043851759 0.72394437 1.6786767
-0.057136856 0.77085125 1.6569172
-0.044963516 0.77602482 1.6790098
-0.057794727 0.83112401 1.6581976
-0.042684026 0.82272333 1.6844277
-0.054115508 0.87708235 1.6644872
-0.04255889 0.87108737 1.6839495
-0.055049621 0.9235608 1.6624233
-0.040854197 0.92922384 1.6858933
-0.054720186 0.9746173 1.6647803
-0.039495904 0.97583818 1.6906747
-0.056323711 1.0241684 1.6602312
-0.041136149 1.0224674 1.692668
-0.055960018 1.0730041 1.6669984
-0.041645866 1.0755792 1.6950089
-0.056526762 1.1276327 1.6673839
-0.043783791 1.1208481 1.6879299
-0.057650696 1.1725678 1.6618171
-0.04441401 1.1743978 1.6924094
-0.058519088 1.2276018 1.6652669
-0.045227814 1.2387433 1.6993431
-0.058666199 1.285043 1.6758716
-0.045486741 1.2650127 1.6977025
-0.059235297 1.3228188 1.6765636
-0.046240006 1.3345925 1.6956071
-0.018291714 0.68587059 1.7244843
-0.021648074 0.72405303 1.722927
-0.022829792 0.774005 1.7221617
-0.022352772 0.82522911 1.7242079
-0.023748012 0.87396532 1.7233199
-0.021928234 0.92381626 1.7270499
-0.023296285 0.97507995 1.7252529
-0.025198728 1.0252869 1.7247753
-0.026285075 1.0746623 1.7240138
-0.026719047 1.119537 1.7228981
-0.026908863 1.173581 1.7282597
-0.031458843 1.2216854 1.7200806
-0.032977503 1.2671329 1.7195488
-0.036746226 1.3226799 1.7235286
-0.035183344 1.366482 1.7249193
-0.0065427716 0.68401951 1.7503277
0.0066360943 0.68234539 1.7583739
-0.0065930085 0.72678232 1.7530164
0.0061997897 0.72657251 1.7638754
-0.0066500781 0.77755821 1.7545433
0.0072354097 0.77129722 1.7641063
-0.0067052739 0.82656169 1.7550434
0.0091236429 0.82856625 1.7759718
-0.0067665158 0.87929595 1.755036
0.009999902 0.87742192 1.78193
-0.0068175737 0.92232734 1.7545048
0.0054293401 0.92193818 1.7783608
-0.0068901423 0.97354823 1.7564564
0.0054905042 0.97397357 1.7848865
