ply
format ascii 1.0
comment PCL generated
element vertex 1511
property float x
property float y
property float z
element camera 0
property float view_px
property float view_py
property float view_pz
property float x_axisx
property float x_axisy
property float x_axisz
property float y_axisx
property float y_axisy
property float y_axisz
property float z_axisx
property float z_axisy
property float z_axisz
property float focal
property float scalex
property float scaley
property float centerx
property float centery
property int viewportx
property int viewporty
property float k1
property float k2
end_header
-0.33009231 0.42571241 1.2048752
-0.28792995 0.42334336 1.2263244
0.11377274 0.41787276 1.2263814
-0.52018237 0.47466901 1.2361126
-0.42271605 0.47423407 1.2438309
-0.37504423 0.47453162 1.2250391
-0.33043569 0.47701517 1.2065827
-0.28849825 0.47470221 1.2296749
-0.68360174 0.50394738 1.2464162
-0.51984447 0.52586454 1.2362926
-0.45274162 0.54017663 1.2499415
-0.42471457 0.52412146 1.2441518
-0.3753849 0.52561283 1.2252254
-0.32940066 0.52300721 1.2054756
-0.28921187 0.5253458 1.2285798
-0.17995477 0.52767622 1.2415924
-0.67294097 0.5914827 1.2463399
-0.62493801 0.57894462 1.2437421
-0.56642663 0.59219474 1.2173017
-0.52352625 0.57845891 1.2390283
-0.42430145 0.57316595 1.2434978
-0.37473366 0.57545954 1.2242367
-0.32943079 0.57380038 1.2067468
-0.28695583 0.57647616 1.2283252
-0.5674358 0.62461537 1.2180712
-0.52737701 0.62699419 1.2381541
-0.42391688 0.62597519 1.2405167
-0.37544811 0.62537014 1.2226025
-0.33246163 0.62497342 1.2056657
-0.28612101 0.62616539 1.2260783
-0.57121295 0.66333473 1.21413
-0.51908612 0.671574 1.2311519
-0.42396238 0.67426181 1.2378826
-0.37473714 0.67445219 1.2143793
-0.33147553 0.66157722 1.2033151
-0.2856679 0.67552704 1.2246666
-0.51505208 0.72371298 1.2305362
-0.42238626 0.72402453 1.2367674
-0.37399012 0.7237224 1.2122667
-0.34669024 0.72652698 1.2000694
-0.28469712 0.72360379 1.2247033
-0.51434952 0.77686006 1.2315818
-0.49908054 0.79036552 1.2486259
-0.42613545 0.77451724 1.2398556
-0.37621036 0.77364099 1.213634
-0.28486359 0.77404237 1.2226115
-0.51461446 0.82831997 1.2318907
-0.45136672 0.8287009 1.2499425
-0.4255825 0.82491767 1.2416008
-0.3762095 0.82621539 1.2200071
-0.34417725 0.84032637 1.2033077
-0.28284094 0.82477266 1.2247952
-0.51245713 0.87596124 1.2335583
-0.47348151 0.87875849 1.246562
-0.4221732 0.87517804 1.2401428
-0.37446186 0.8751533 1.2219684
-0.33941039 0.87820935 1.2052332
-0.28232783 0.87496632 1.2242582
-0.51099378 0.92458326 1.2345968
-0.47435418 0.93427134 1.2460971
-0.42352459 0.92513919 1.2407675
-0.37325227 0.92436332 1.2207617
-0.33840132 0.92144221 1.2041911
-0.28204507 0.92539638 1.2251495
-0.50958818 0.97513038 1.2371284
-0.46781147 0.97669911 1.2453471
-0.4257015 0.97591341 1.2414271
-0.37556523 0.97254789 1.2196578
-0.3420659 0.97196048 1.2032803
-0.28273278 0.97351605 1.2242073
-0.50482076 1.0271717 1.2400734
-0.45104063 1.0346278 1.2484738
-0.42539585 1.0202516 1.2404085
-0.38298947 1.0110683 1.2259158
-0.27070731 1.0053853 1.2442751
-0.50929177 1.053411 1.2386335
-0.50167769 -0.4508965 1.251615
-0.47231966 -0.46940041 1.2581859
-0.42964992 -0.468299 1.2565268
-0.38938174 -0.45499229 1.250235
-0.50563508 -0.41929111 1.2558743
-0.47644478 -0.42558128 1.2677842
-0.42510942 -0.42364696 1.2616464
-0.39255112 -0.41800687 1.2525728
-0.50861251 -0.37413234 1.2611843
-0.47494522 -0.37529469 1.274732
-0.42451379 -0.37611061 1.2670475
-0.39046115 -0.37257129 1.2550496
-0.51524645 -0.32394242 1.2610894
-0.47672191 -0.32538816 1.2780377
-0.4253262 -0.32509539 1.2697372
-0.39188048 -0.3272123 1.2572181
-1.2086999 -0.26809561 1.2965078
-1.1708633 -0.26048777 1.2771654
-1.1357808 -0.25971341 1.2636596
-0.51417744 -0.27469906 1.2648377
-0.47713888 -0.275433 1.2801577
-0.42380989 -0.27488449 1.2687548
-0.39050633 -0.27417195 1.2553525
-1.2021904 -0.21882758 1.2971947
-1.1763422 -0.22719161 1.2882438
-1.1278313 -0.22668186 1.2636812
-1.0976619 -0.23304786 1.2501613
-0.66161531 -0.20291573 1.2982889
-0.51532626 -0.22491328 1.2651137
-0.47516993 -0.22543322 1.2800992
-0.42485991 -0.225812 1.2688099
-0.39244437 -0.22009304 1.2574182
-1.204385 -0.17413031 1.2902486
-1.1697066 -0.17595452 1.2782313
-1.1284606 -0.17487773 1.2603157
-0.65249634 -0.16510132 1.2998695
-0.6276921 -0.17257641 1.2914162
-0.51752734 -0.17515613 1.2610352
-0.47639215 -0.17644845 1.2757367
-0.42606506 -0.17277065 1.26728
-0.39269871 -0.17703645 1.2573674
-1.2158573 -0.12245398 1.2912894
-1.1716878 -0.12596892 1.2682712
-1.14125 -0.13575472 1.2590486
-0.6559034 -0.10052013 1.2955024
-0.62895763 -0.12499951 1.2868966
-0.59869397 -0.10316647 1.2572489
-0.51667041 -0.12394173 1.2599446
-0.47637653 -0.12420458 1.2737591
-0.4246709 -0.12380815 1.2622209
-0.39309892 -0.13057104 1.2536505
-1.2158073 -0.086548783 1.280158
-1.176788 -0.083832718 1.2647568
-1.1482173 -0.075728483 1.251875
-0.65506053 -0.066867143 1.2953446
-0.62868041 -0.075083956 1.2819439
-0.5970701 -0.07973697 1.2549797
-0.50954831 -0.071979485 1.2618167
-0.474435 -0.072923779 1.2711848
-0.42259541 -0.075821601 1.258533
-0.39660633 -0.078653842 1.2515101
-1.2670571 -0.031799458 1.2905997
-1.2135758 -0.023934849 1.2685899
-1.1839921 -0.022775533 1.2596377
-0.65257984 -0.026580187 1.2914212
-0.62632996 -0.02620239 1.2777065
-0.51043963 -0.026964802 1.2608255
-0.47490183 -0.02500823 1.2698052
-0.42479235 -0.028235197 1.2562096
-0.39943218 -0.036961533 1.2513356
-1.2609006 0.03403936 1.2815894
-1.2267629 0.02704506 1.2736045
-1.1845263 0.019826034 1.2577577
-0.65223575 0.023469187 1.2907276
-0.62460804 0.023078913 1.2741911
-0.50831574 0.021022705 1.2625873
-0.47610101 0.022308566 1.2689396
-0.43106425 0.02380473 1.2553678
-1.2657392 0.078128122 1.2803813
-1.2227991 0.074486136 1.2673738
-1.1862243 0.070104986 1.2557724
-0.65163058 0.086805247 1.2875857
-0.62814748 0.074261591 1.2755967
-0.50722611 0.0726097 1.2603263
-0.47680888 0.072940037 1.2681661
-0.43366706 0.076417804 1.2541531
-1.269537 0.11756731 1.2808954
-1.2223207 0.11433318 1.2650368
-1.1963229 0.11720299 1.2572265
-0.6541661 0.12396864 1.2903376
-0.62524301 0.12704502 1.2748173
-0.59973645 0.12944627 1.257533
-0.50705171 0.12239985 1.2596761
-0.47735834 0.12377748 1.2668731
-0.4357675 0.12562717 1.2534493
-1.0186422 0.19087923 1.2560372
-0.65757847 0.15822861 1.2944541
-0.6251092 0.17495127 1.2744954
-0.5089795 0.17621107 1.2587876
-0.47678497 0.17567185 1.2660257
-0.43909866 0.16807595 1.2525196
-1.0527594 0.23973018 1.2666129
-1.0378914 0.22579859 1.268733
-0.66986626 0.2382547 1.2796372
-0.62871349 0.22573249 1.2761942
-0.59391713 0.22669764 1.2511556
-0.50572854 0.22569671 1.2593753
-0.47505012 0.2253319 1.2646427
-0.44104567 0.22342873 1.2530595
-1.0527914 0.26591304 1.2622242
-1.0395752 0.27189741 1.2639308
-0.66896588 0.27480614 1.2761289
-0.62798488 0.27616596 1.2747566
-0.50419724 0.27572149 1.2595153
-0.47624493 0.27440298 1.2633992
-0.44610834 0.27518594 1.2520285
-0.2614466 0.29711804 1.2565112
-0.66881335 0.32488665 1.2785789
-0.62838459 0.32620034 1.2774868
-0.59483987 0.33444721 1.2520527
-0.50520432 0.32677627 1.2575306
-0.47584644 0.32626185 1.2633389
-0.44487333 0.32598078 1.2510446
-0.26037225 0.32690191 1.2684532
-0.2420316 0.32437325 1.2879747
-0.70134759 0.37610909 1.2992152
-0.66969466 0.37483239 1.2796093
-0.62640452 0.37319252 1.2763036
-0.5963369 0.39883843 1.2586341
-0.50542933 0.37646958 1.2563622
-0.4771553 0.37459376 1.2618645
-0.44615826 0.37754041 1.2514284
-0.26231274 0.37515235 1.2731551
-0.2358892 0.36680272 1.2940253
-0.16602935 0.38888434 1.2888142
-0.12847562 0.38508311 1.2702156
-0.098073833 0.39245358 1.2631869
-0.035960056 0.39432994 1.271475
-0.70843148 0.43401378 1.2910594
-0.67270231 0.42757702 1.2784554
-0.62830806 0.4249002 1.2785085
-0.59873134 0.41378605 1.2604933
-0.50546962 0.42416763 1.2566946
-0.47681144 0.4268848 1.2621987
-0.44936752 0.42212766 1.2508948
-0.2625995 0.42618644 1.2766277
-0.20478037 0.40645504 1.2999867
-0.16735353 0.4265722 1.2952728
-0.12288728 0.42587778 1.2760466
-0.094188295 0.42030728 1.2919321
0.026752017 0.41511416 1.273736
-0.67444241 0.47363299 1.275813
-0.62738115 0.47603083 1.2786148
-0.59700596 0.46434316 1.2611537
-0.50313014 0.47528586 1.2582109
-0.47638166 0.47517672 1.2618916
-0.44749966 0.47857907 1.2519475
-0.26424214 0.47494704 1.2771598
-0.16270809 0.47178271 1.2947732
-0.12285876 0.47599182 1.27689
-0.09534803 0.47216648 1.2966716
-0.67335469 0.52413356 1.2777102
-0.62733763 0.52468878 1.279857
-0.59588838 0.52312428 1.2594689
-0.50454056 0.527969 1.2568569
-0.47525638 0.52382839 1.2612089
-0.26464868 0.52737713 1.2748799
-0.21175839 0.5364638 1.2686415
-0.16919459 0.52006018 1.2751186
-0.12465855 0.52380455 1.2753612
-0.096114278 0.51938194 1.2956218
-0.67175555 0.57495445 1.2781518
-0.6282497 0.5674023 1.2773453
-0.59881914 0.56663376 1.2520905
-0.50485349 0.56363058 1.2531155
-0.47749683 0.57466877 1.2604673
-0.26189807 0.57537282 1.2723047
-0.23081119 0.57425785 1.2851549
-0.19238997 0.55648774 1.2536529
-0.12491653 0.5560258 1.2847668
-0.50243306 0.62491417 1.2548015
-0.47608969 0.62320787 1.259637
-0.44654024 0.61232054 1.2515191
-0.26145643 0.62544686 1.2702323
-0.2471004 0.62553012 1.2947724
-0.50361305 0.67733371 1.2528117
-0.47872069 0.6737991 1.2596296
-0.44931525 0.69727921 1.2517419
-0.26216614 0.67492032 1.2662882
-0.24661854 0.67534739 1.2906891
-0.62761945 0.73783368 1.2825702
-0.50322503 0.72396046 1.2548596
-0.47638756 0.72403949 1.2583908
-0.44830927 0.73050714 1.2507315
-0.25976607 0.72704387 1.2694504
-0.24656303 0.72259516 1.2917042
-0.7088809 0.78373176 1.2896007
-0.67896241 0.76402628 1.2930893
-0.63087374 0.77795786 1.2947499
-0.50421679 0.7627641 1.2538376
-0.47742179 0.77377188 1.258572
-0.26141864 0.77390784 1.2644156
-0.24567915 0.77393037 1.2933667
-0.71714753 0.8217324 1.2948571
-0.6509583 0.81076664 1.2997804
-0.63181531 0.82311648 1.2928205
-0.5016554 0.82992232 1.2521908
-0.47687569 0.82397455 1.2583468
-0.25891399 0.82393485 1.2685125
-0.24563648 0.82382458 1.2938519
-0.71895361 0.85164791 1.2925396
-0.63383842 0.87975889 1.298924
-0.47738498 0.87310964 1.259268
-0.26029271 0.87519687 1.2657418
-0.24625325 0.87528169 1.2910939
-0.62691057 0.92835367 1.2881153
-0.47995281 0.92253578 1.2593446
-0.25851399 0.92540944 1.2702754
-0.2458376 0.92546856 1.2937806
-0.62755257 0.96939629 1.2909027
-0.50296551 0.99128801 1.2576642
-0.47954446 0.97556305 1.2607626
-0.26041785 0.97781146 1.2669493
-0.24716079 0.97428679 1.2937647
-0.71447456 1.0349844 1.287753
-0.63142478 1.0442313 1.2947462
-0.50072539 1.0285556 1.2554183
-0.47621396 1.0245916 1.2585726
-0.25679746 1.0186189 1.2749636
-0.24522769 1.0265666 1.2951273
-0.62875175 1.0733042 1.2948153
-0.50162536 1.0695795 1.2630782
-0.48345008 1.0579207 1.2603643
-1.265332 -0.26581538 1.3247588
-1.2305199 -0.26627728 1.3106731
-1.2637521 -0.22806869 1.3236207
-1.2228733 -0.2240511 1.3080077
-0.70777369 -0.20686023 1.3291625
-0.6832667 -0.20394421 1.3250054
-1.2638967 -0.17598 1.3150249
-1.2405987 -0.17665292 1.3114265
-0.67353773 -0.17671494 1.3237103
-0.64607733 -0.18205832 1.3013388
-1.2730664 -0.12262078 1.3176478
-1.2415732 -0.14484568 1.3031195
-0.67249501 -0.12718238 1.3219599
-1.2666812 -0.087543733 1.3092974
-0.68419194 -0.078585863 1.3319007
-0.68504286 -0.02752219 1.3313171
-1.2819372 0.0087178219 1.3060136
-0.68356705 0.027230514 1.3290037
-0.68232292 0.075742915 1.3245943
-0.68519431 0.12442946 1.3274816
-0.6788708 0.17543952 1.3171506
-0.68178529 0.21415569 1.3204089
-0.77912259 0.27896249 1.343789
-0.70241153 0.28321558 1.3026705
-0.78388304 0.32908016 1.3359056
-0.22869924 0.33128113 1.3254735
-0.057316456 0.34738553 1.3435341
-0.77755547 0.37112951 1.3367184
-0.70544952 0.38882113 1.3044755
-0.25053257 0.39126801 1.3010793
-0.22822404 0.37458247 1.3237242
-0.19239791 0.38436985 1.305616
-0.060359985 0.35763413 1.3367906
-0.044314761 0.3942019 1.3385102
-0.76769507 0.40295801 1.3205574
-0.71882117 0.43327439 1.3117923
-0.22987312 0.4252491 1.3257674
-0.18769734 0.41790381 1.3046637
-0.076030888 0.42948994 1.3236344
0.022127721 0.43665269 1.323735
0.064176813 0.40914702 1.3229797
-0.23119006 0.47443146 1.3260784
-0.187021 0.47847453 1.3083428
-0.080897965 0.47789514 1.3229806
0.034684297 0.47220016 1.3396412
-0.25016716 0.51042372 1.3082925
-0.23268741 0.52626663 1.3258793
-0.18987769 0.51063281 1.3101689
-0.08131475 0.52377617 1.323326
0.033609968 0.52351642 1.3441569
0.069276914 0.52707297 1.347496
-0.23399603 0.57450145 1.3158149
-0.095158353 0.55780566 1.3205291
0.038030922 0.56718183 1.3476872
0.058911938 0.57506126 1.3408147
-0.22784145 0.62529641 1.323545
-0.19663917 0.60207909 1.3352976
0.047810066 0.62842345 1.3383731
0.055390328 0.60631156 1.3141993
-0.22837192 0.67556781 1.324859
0.04450231 0.6595704 1.3387759
-0.22902645 0.72428608 1.3231503
-0.70582414 0.79402369 1.3056775
-0.66938621 0.78132623 1.304125
-0.64458293 0.78465104 1.3017731
-0.22894424 0.77394241 1.323908
-0.70779806 0.82745403 1.3054944
-0.67588288 0.8254323 1.3078732
-0.64917278 0.82086217 1.3012919
-0.22852276 0.82601154 1.3252561
-0.71153575 0.87513989 1.3082137
-0.67707312 0.87488902 1.3088795
-0.63971877 0.87466723 1.3029385
-0.22997272 0.87361801 1.3244746
-0.71415555 0.92693853 1.3135206
-0.67527628 0.92262769 1.3123674
-0.64310724 0.9228735 1.3046044
-0.23073782 0.92313969 1.3243318
-0.71674377 0.97639149 1.3163999
-0.67577398 0.9732126 1.3151717
-0.64333808 0.97634041 1.3072994
-0.23037173 0.97407895 1.3272971
-0.71472275 1.0231346 1.3181884
-0.67508429 1.0267919 1.3184394
-0.64226121 1.0249213 1.3135853
-0.23064935 1.0240411 1.327113
-0.71323109 1.0780314 1.3197737
-0.6743288 1.0739512 1.3186427
-0.64448404 1.0821065 1.3099794
-0.2291411 1.0630624 1.3306228
-0.71680284 1.1281749 1.3238444
-0.67733186 1.1251026 1.3207911
-0.64200372 1.1211076 1.3066406
-0.71358323 1.1661366 1.3210679
-0.6819765 1.1603757 1.3231922
-0.71445584 -0.2037942 1.3586217
-0.72205848 -0.17661251 1.3703952
-0.69660753 -0.16915922 1.3547733
-0.71808517 -0.12571704 1.3660284
-0.6933676 -0.13326733 1.3512843
-0.72416818 -0.07216277 1.3715954
-0.7214188 -0.026833842 1.3678358
-0.71705133 0.02431117 1.3621025
-0.69979554 0.00715779 1.3521389
-0.72023159 0.078412525 1.3651913
-0.71822172 0.12629494 1.3593638
-0.72226024 0.17448445 1.363891
-0.78475779 0.2438858 1.3886405
-0.72694755 0.22610196 1.3665652
-0.77439231 0.2798706 1.3696663
-0.74561346 0.25779548 1.3724434
-0.78079551 0.32302788 1.3639728
-0.05107848 0.34954512 1.3520641
-0.77555221 0.37989125 1.3716139
-0.21857652 0.38054976 1.3525553
-0.052550454 0.37509778 1.3620828
-0.032225888 0.37848967 1.3805809
-0.75828022 0.41670927 1.3810592
-0.74562955 0.43262118 1.3561654
-0.2208561 0.44184589 1.354785
-0.057256214 0.43685132 1.3618832
-0.039100286 0.43154302 1.3826675
0.069024801 0.43554986 1.36488
-0.21972293 0.47876844 1.3551759
-0.058288038 0.47119865 1.3624252
-0.043006264 0.47529322 1.3897918
0.024752671 0.47883454 1.3578542
0.066513173 0.47104788 1.3862163
-0.21953456 0.51689655 1.3531408
-0.058928236 0.52322501 1.3646817
-0.044532631 0.52257895 1.3911344
0.040913705 0.51958269 1.3644677
0.063213214 0.52254748 1.3794457
-0.071378887 0.5558778 1.3628302
0.041011665 0.57785922 1.3540553
0.057726629 0.56418216 1.3535311
-0.20683996 0.6354062 1.3609802
-0.18806322 0.62759179 1.3850267
0.034830783 0.62498522 1.3674443
-0.20658733 0.67478281 1.3604674
-0.19255097 0.67214966 1.3859059
0.03492406 0.66637844 1.3676164
-0.20727214 0.72782296 1.3630778
-0.19326839 0.72106659 1.3872422
-0.20836253 0.77589107 1.3639599
-0.19360343 0.77548367 1.3891712
-0.20861329 0.82386923 1.3651266
-0.19519717 0.82575446 1.388348
-0.20670982 0.87448138 1.367523
-0.19446291 0.87639427 1.3927988
-0.20931867 0.92450523 1.3648189
-0.19487037 0.92527902 1.3931252
-0.20960985 0.97532117 1.3646823
-0.19607599 0.97326648 1.3911977
-0.20773837 1.025635 1.3699956
-0.1949721 1.0192801 1.397976
-0.21122648 1.0745058 1.3672643
-0.19638236 1.0722882 1.3944613
-0.20641191 1.10665 1.3783656
-0.1992598 1.1074494 1.3879945
-0.78347135 0.24583776 1.4027073
-0.78374153 0.28723991 1.4228004
-0.80320615 0.31998628 1.4453011
-0.79015386 0.32285479 1.4292195
-0.80258721 0.36208609 1.4367324
-0.78624439 0.36940467 1.4202302
-0.016953468 0.38219538 1.4149208
0.0017934929 0.38820028 1.445181
-0.77955168 0.42009357 1.407416
-0.019915177 0.42501479 1.4240496
-0.020983314 0.47710159 1.4258353
0.0029831871 0.47494984 1.4341259
0.069335625 0.48302579 1.4024318
-0.026201434 0.52168185 1.4248348
0.0018158258 0.51144058 1.4395685
-0.040886112 0.55508554 1.419998
-0.16951564 0.63814974 1.4189368
-0.14571524 0.6495015 1.4463251
0.023245318 0.62882972 1.4051818
-0.17239659 0.67601997 1.4265584
0.023534343 0.65112901 1.4180356
-0.17370424 0.72387087 1.4264362
-0.17508522 0.77273202 1.4253865
-0.17609273 0.82395792 1.4261516
-0.17823131 0.87467921 1.4214283
-0.17903641 0.92477083 1.4243578
-0.17855977 0.97612476 1.4269443
-0.17855971 1.0250022 1.4255539
-0.17947488 1.0731407 1.4263028
-0.18184742 1.1201282 1.4244809
-0.17351727 1.1544694 1.442591
-0.80735242 0.31804624 1.4551266
-0.79452807 0.34044614 1.4521205
-0.80509764 0.35717726 1.4512522
-0.79996121 0.3505615 1.4606644
0.0053610732 0.39503312 1.4566901
-0.0053220456 0.42817542 1.4542481
0.0057129338 0.42623454 1.4674751
-0.0053673154 0.49647915 1.4524586
0.0054469411 0.45443285 1.4656593
-0.0081199463 0.52707779 1.4557551
0.0018578256 0.53427309 1.4703132
-0.019926757 0.55155909 1.4522991
-0.15550308 0.67845619 1.4624233
-0.13965096 0.67662591 1.4820212
-0.15489376 0.72977614 1.4631494
-0.14205961 0.72342163 1.485831
-0.15466383 0.77909505 1.4632908
-0.14144385 0.77548611 1.4879296
-0.157043 0.82624924 1.4626126
-0.14326829 0.82477093 1.4869092
-0.15792912 0.87373221 1.4613431
-0.14504713 0.87644792 1.4867579
-0.15795696 0.92720538 1.4643067
-0.14326099 0.91918314 1.4892958
-0.15801039 0.9720884 1.4671215
-0.14212231 0.97706491 1.4910927
-0.15712662 1.0248845 1.4706827
-0.14382081 1.0285858 1.4935703
-0.15848482 1.0758027 1.4657197
-0.14774922 1.0742757 1.4843633
-0.16030468 1.1282991 1.4633629
-0.1455853 1.1210823 1.4869044
-0.15596268 1.1670113 1.4763676
-0.1442081 1.1757355 1.4966593
-0.11973092 0.68348259 1.5254498
-0.12210766 0.72897571 1.5261382
-0.12220291 0.77333426 1.5245067
-0.12335142 0.82231569 1.5251299
-0.12435837 0.87394738 1.525903
-0.12432867 0.92713332 1.5276097
-0.12473611 0.97609603 1.5287635
-0.12673138 1.0257502 1.5272453
-0.12941523 1.0756055 1.5228043
-0.1295388 1.1254182 1.5241685
-0.12703665 1.1739519 1.526292
-0.12580329 1.2166036 1.530592
-0.07689476 0.64706141 1.56485
-0.10305659 0.68608665 1.5611366
-0.088650122 0.67859244 1.580281
-0.1048872 0.72226083 1.5604908
-0.091122441 0.72534168 1.5880092
-0.10522845 0.7788195 1.5628198
-0.091810927 0.77169287 1.5863974
-0.10667978 0.82240236 1.5593786
-0.092671379 0.82188606 1.5858201
-0.10471439 0.87101257 1.5597693
-0.094018646 0.87684274 1.5841144
-0.10754222 0.92743009 1.5621778
-0.094716176 0.92670023 1.585484
-0.10579648 0.97687978 1.5648432
-0.095550589 0.97101229 1.5832546
-0.10512276 1.0239005 1.569222
-0.092645623 1.0218049 1.5889976
-0.10619602 1.0735873 1.5646567
-0.091876738 1.0648016 1.5895422
-0.10673296 1.126871 1.5660769
-0.094995417 1.1228597 1.5898831
-0.10805901 1.1782814 1.5664628
-0.093433805 1.180274 1.5909449
-0.10954701 1.2267234 1.5680982
-0.097052716 1.2194295 1.5816599
-0.098551735 1.2611625 1.5914927
-0.070885196 0.68632847 1.6254082
-0.070341058 0.72562885 1.6266819
-0.073369011 0.77422625 1.6248616
-0.074486203 0.82453924 1.6223037
-0.072828412 0.87597245 1.6261637
-0.074386068 0.92816734 1.6242537
-0.077497996 0.97671407 1.6220728
-0.074733861 1.0231478 1.6238583
-0.076814361 1.0759825 1.6250501
-0.079104528 1.1248446 1.6219487
-0.077666745 1.1741128 1.6255264
-0.080566429 1.2276418 1.6249216
-0.080538116 1.2713114 1.6246922
-0.073715813 1.3133367 1.6494967
-0.056171481 0.6828813 1.6521627
-0.042017151 0.67765105 1.6739161
-0.056576822 0.71928704 1.6546912
-0.042954084 0.72308052 1.6804388
-0.057104059 0.77887595 1.653141
-0.044893544 0.77475661 1.6762125
-0.057734698 0.83028316 1.6564677
-0.043616541 0.82177174 1.6805499
-0.056255095 0.87925887 1.6619651
-0.045264397 0.87156498 1.679566
-0.055547148 0.92320138 1.6669601
-0.040293634 0.92366254 1.6916049
-0.055211306 0.97711593 1.663785
-0.04060068 0.96830451 1.6891811
-0.05521331 1.0299027 1.664197
-0.042849895 1.0202812 1.6890155
-0.056287151 1.072672 1.6603308
-0.043419834 1.074994 1.6921648
-0.056647021 1.1279258 1.6663135
-0.043848462 1.1225333 1.6904074
-0.058497731 1.1789943 1.6657442
-0.044423115 1.1699492 1.6953245
-0.057899386 1.2259552 1.668313
-0.045027681 1.2285521 1.6945044
-0.059434637 1.2757056 1.6745948
-0.045608848 1.2780147 1.6964588
-0.060072426 1.3180773 1.6741999
-0.046019625 1.3088616 1.6998436
-0.046522908 1.3525479 1.6996151
0.010801382 0.64619625 1.7265049
-0.017900331 0.68126273 1.722826
0.0022151764 0.66335708 1.7467862
-0.019476544 0.7208786 1.7241442
-0.022977121 0.7754795 1.7223769
-0.022958364 0.82600582 1.722813
-0.024405943 0.87391287 1.7202841
-0.024005203 0.92614454 1.7204523
-0.023269873 0.97537953 1.7239964
-0.027394822 1.0226423 1.7190485
-0.026125101 1.0765502 1.7220498
-0.026839027 1.1262196 1.7289177
-0.027936608 1.173444 1.7269738
-0.031593736 1.2234548 1.7219665
-0.033591792 1.2767515 1.7244644
-0.035577931 1.3273648 1.7240133
-0.032224808 1.3601739 1.7283616
0.0072653699 0.68452293 1.7586793
-0.0066186646 0.74064136 1.7565908
0.0066920379 0.72810614 1.7621906
-0.0066359406 0.77144718 1.7522283
0.0067499899 0.77510196 1.7663101
-0.0067157648 0.82487983 1.7588263
0.0088806646 0.8253178 1.7726223
-0.0067671249 0.87034667 1.7584956
0.0090182861 0.87278306 1.7812874
-0.0068373904 0.92501593 1.7595673
0.006338899 0.92416495 1.7852123
-0.0092169782 0.98116541 1.7600765
0.0063844956 0.96945339 1.78306
-0.0088390987 1.0256851 1.7612451
0.0039636814 1.0246261 1.7823342
-0.0086153299 1.075004 1.7634449
0.0024139672 1.0837159 1.7845131
-0.0095223337 1.1323835 1.7632575
0.0024500783 1.1393627 1.7940519
-0.010404515 1.175692 1.7612314
0.0024669247 1.1770828 1.7926964
-0.01119226 1.2235105 1.7695162
0.0024854969 1.2210531 1.7894377
-0.014398746 1.2711029 1.7660588
0.0025099074 1.2686806 1.7891712
-0.013161942 1.3187479 1.7703212
-0.014796936 1.3806688 1.7711287
-0.012714341 1.4073007 1.7689197
0.020907784 0.89089191 1.8000646
0.027583523 0.92845565 1.8196759
0.022841038 0.97678655 1.8236983
0.02168043 1.0245497 1.8229357
0.019206379 1.0754116 1.8196632
0.017701715 1.1227241 1.8200624
0.01736192 1.1777407 1.8236979
0.018312244 1.2315274 1.8303204
0.014127774 1.2756121 1.8201042
-0.0075997398 1.3416966 1.8012266
0.0069551505 1.326943 1.8150845
-0.0076761739 1.3857117 1.8001741
0.0067316806 1.375861 1.8189182
0.01049684 1.4228849 1.8282053
0.013181794 1.4536855 1.8272313
0.037296034 0.97944766 1.8585287
0.055105347 0.97257233 1.8761564
0.038821895 1.0300896 1.8629369
0.051657159 1.0130682 1.8815776
0.038778733 1.0783873 1.8685213
0.0524089 1.0727801 1.8907346
0.038775973 1.1270701 1.8713534
0.057769842 1.1173365 1.8865907
0.037935775 1.1772944 1.8742419
0.053587597 1.1803132 1.8962698
0.0381933 1.2212589 1.8700068
0.053943098 1.2172686 1.8949375
0.036457542 1.2740431 1.8726286
0.032282744 1.3254563 1.8646117
0.032910895 1.3705133 1.8726833
0.066344105 1.3798851 1.8925308
0.030308863 1.4208111 1.8699261
0.067036122 1.415751 1.8997155
0.029622639 1.474135 1.873233
0.072106577 0.99432576 1.9132389
0.065919846 1.0286448 1.9151571
0.067579113 1.0748527 1.9208833
0.066186197 1.1221281 1.9161532
0.062290013 1.1795148 1.9176064
0.062575698 1.2354 1.9230163
0.061022691 1.275423 1.9159065
0.044673961 1.3188199 1.9007063
0.060815327 1.3271127 1.9122226
0.045345917 1.3867377 1.9024787
0.058759879 1.3755641 1.9127846
0.045733679 1.4201812 1.906092
0.056759138 1.4269843 1.914958
0.046316158 1.4765005 1.9070585
0.057513196 1.4788423 1.9204127
0.046667606 1.5151837 1.9041064
0.058309156 1.5215472 1.9330117
0.05903288 1.5517006 1.9497448
0.52303141 0.6772604 1.9984202
0.52910966 0.63671762 2.0363114
0.56934232 0.64413363 2.0413387
0.51744348 0.66579825 2.0137534
0.57013971 0.67565781 2.0226333
0.54224432 0.70580298 2.0485718
0.59491134 0.70674282 2.0411196
0.60690212 0.70861346 2.0443542
0.50997013 0.63698161 2.0650227
0.57460189 0.63444 2.0634196
0.60745621 0.64174867 2.0819683
0.49044144 0.67928994 2.0733254
0.50151479 0.66010487 2.0699239
0.58805293 0.6760568 2.0636044
0.60721564 0.65200663 2.0788379
0.49789825 0.70610487 2.0918207
0.61102468 0.71957529 2.0771112
0.47896338 0.6880942 2.1095006
0.57659745 0.72958511 2.1145546
0.59099144 0.75179714 2.1436334
0.63928998 0.69154304 2.1663349
0.64068985 0.71505976 2.1660538
0.65571034 0.74161404 2.1718459
2.1859553 2.3386817 2.2460153
2.1307187 2.359395 2.2367005
2.166585 2.3534837 2.2428019
2.0135908 2.3421359 2.2877178
2.094455 2.3494112 2.284807
2.1090062 2.3465784 2.2706161
2.0743122 2.3630741 2.279896
2.1400385 2.3533139 2.2803869
2.1577516 2.3539019 2.2693479
2.2469707 2.3676913 2.2914834
2.0256512 2.3489444 2.3299627
2.0604606 2.3496437 2.3078854
1.9877292 2.3516052 2.3193624
2.0291886 2.3530247 2.3339839
2.0825727 2.3553104 2.3020074
2.1243305 2.3563349 2.3260005
2.1775141 2.3587286 2.3244278
2.2251883 2.3635929 2.3204112
2.276782 2.3632677 2.333003
2.3304589 2.3821681 2.3411515
1.900267 2.3381026 2.3556287
1.9575922 2.3493619 2.375541
1.9374108 2.3541887 2.3762126
1.9797381 2.3552763 2.370311
2.0290301 2.3555582 2.3785579
2.069185 2.3568909 2.3812504
2.1211755 2.3638973 2.3710845
2.1690748 2.3605092 2.3746209
2.2280056 2.3677425 2.3741729
2.2762108 2.3632572 2.3758602
2.329113 2.3689709 2.3772051
2.3653865 2.3633556 2.3710382
1.7790414 2.3343239 2.4265645
1.8171096 2.3398674 2.4112821
1.9359827 2.3474736 2.4272032
1.9619765 2.3493059 2.4336245
2.1365094 2.3456542 2.4147675
1.8291993 2.3553903 2.427218
1.8769836 2.3581355 2.4251862
1.9213144 2.3626132 2.4197354
1.9889784 2.3521307 2.4408996
2.0307286 2.3602283 2.4260833
2.0875626 2.3576827 2.4256034
2.1207085 2.3564448 2.42222
2.1807423 2.3650069 2.4163747
2.2308199 2.3718271 2.4217608
2.2747352 2.3715525 2.4270425
2.3136184 2.3656719 2.4261897
1.6779363 2.3346074 2.4876795
1.7107056 2.3332331 2.4663453
1.7787924 2.3449171 2.4690573
1.8286692 2.3465154 2.4673388
1.8748422 2.3474185 2.4767098
1.9020271 2.3480778 2.4501429
1.9653631 2.3468616 2.475806
1.745441 2.3573518 2.4816484
1.7731166 2.3515935 2.4760776
1.9283502 2.3523991 2.4810152
2.0315924 2.3640451 2.4736209
2.0663605 2.3647676 2.4727457
2.1217299 2.3690434 2.4780056
2.1750298 2.3699558 2.4717731
2.2214584 2.369298 2.4676883
2.2902207 2.3698597 2.4795678
2.3245373 2.3587706 2.4809694
1.5750008 2.3321877 2.5419855
1.6207836 2.3496988 2.5424807
1.6773574 2.348947 2.5288866
1.7479028 2.3493714 2.5477285
1.7811264 2.3477178 2.5252063
1.8313472 2.3394842 2.5223191
1.8604501 2.3435254 2.5103958
1.9315262 2.3493814 2.5158
1.665079 2.3643162 2.5390408
1.7204624 2.3569908 2.5256319
1.7730366 2.3570037 2.5242519
1.8947684 2.3559442 2.5289814
1.922684 2.360003 2.5384879
1.9752817 2.3614376 2.5279281
2.0311756 2.3604317 2.5249376
2.0721593 2.3649573 2.5337553
2.1167006 2.3658011 2.5268748
2.1727798 2.3690591 2.5158002
2.2753429 2.3828127 2.5124679
1.5262111 2.335124 2.5722034
1.5872431 2.3473899 2.5832655
1.6294852 2.3451889 2.5698235
1.6773074 2.3471413 2.5852671
1.7264948 2.3477633 2.5847139
1.770296 2.340667 2.5749424
1.8071703 2.3469591 2.5898776
1.6769331 2.3552036 2.5778756
1.7316517 2.3507214 2.5593824
1.7982219 2.3527873 2.5633235
1.8294438 2.3514299 2.5695934
1.8816415 2.3526394 2.5528414
1.9344822 2.3579683 2.5841439
1.9707206 2.3594694 2.5703504
2.0235586 2.3613229 2.5748155
2.0764976 2.3576016 2.5734005
2.111815 2.3533597 2.5755553
2.1830392 2.3718901 2.5582566
2.2140388 2.367311 2.5741305
2.5859911 2.3717036 2.5994015
1.3799479 2.3306878 2.63766
1.4215628 2.3436539 2.6364837
1.480763 2.3419173 2.6202843
1.5215487 2.3369253 2.6152637
1.5724729 2.3421271 2.6221812
1.6242443 2.3431849 2.6246684
1.6704503 2.3400457 2.6282394
1.7220235 2.3468404 2.6195526
1.7818059 2.340198 2.6220057
1.9383047 2.3473051 2.6359124
1.9741216 2.3473666 2.6130378
1.4522185 2.3520899 2.6337383
1.7236773 2.3523302 2.6473341
1.7641895 2.3596313 2.6352401
1.8418115 2.3626647 2.6353297
1.8804392 2.3666246 2.6179259
1.922294 2.367533 2.6359105
1.97703 2.3508239 2.616833
2.0179353 2.358258 2.6245637
2.0690351 2.3664422 2.6266837
2.1653059 2.3640666 2.6023858
2.5724952 2.3769858 2.6195662
1.2142874 2.320405 2.694037
1.2746632 2.3386774 2.6947176
1.3259979 2.339695 2.6743453
1.3678932 2.3364191 2.6881306
1.4230312 2.3344228 2.6788235
1.4740214 2.3365419 2.6670263
1.5261946 2.3400102 2.6557941
1.5683981 2.3387659 2.6712162
1.6352868 2.3387427 2.6754887
1.6752782 2.338259 2.679847
1.7177289 2.3473182 2.663413
1.7803462 2.3456628 2.686774
1.8169003 2.3470452 2.667532
1.3661513 2.3504715 2.6716573
1.7232349 2.3581369 2.6975534
1.7720405 2.3542948 2.6775322
1.8467529 2.3625271 2.6744235
1.8812186 2.362412 2.6675336
1.9190054 2.3565583 2.663269
1.9952574 2.3651066 2.6728492
2.0367076 2.369478 2.6831074
2.543926 2.3668938 2.6721661
2.5818937 2.3645353 2.690465
1.1259173 2.3286946 2.7383599
1.1697699 2.332222 2.7271271
1.2378918 2.3407593 2.7305803
1.2741576 2.33638 2.7280521
1.3313414 2.338439 2.7255306
1.3771974 2.3307695 2.7225809
1.4322712 2.3377721 2.7361517
1.4817343 2.3352046 2.7245734
1.528195 2.3435807 2.7182896
1.5795192 2.340621 2.7208405
1.6189538 2.339839 2.7158265
1.6646694 2.3415403 2.7245827
1.7363219 2.3461142 2.7127128
1.214247 2.352881 2.738379
1.7202879 2.3606384 2.7444415
1.7916226 2.3543549 2.7362289
1.8268771 2.3535254 2.714354
1.8778399 2.3627386 2.7131443
1.920584 2.3625555 2.7157207
1.9638262 2.3709564 2.7026496
0.24482548 2.2159436 2.7765923
0.27881956 2.2310095 2.7929461
0.32714334 2.2298794 2.7872002
0.37510693 2.2270105 2.7785804
0.42377821 2.2284806 2.7746603
0.45710406 2.233567 2.7767713
0.47746259 2.2532923 2.7990272
0.97460485 2.3298542 2.7894211
1.0175308 2.3315642 2.7784989
1.0753539 2.3329561 2.7756157
1.1230304 2.3363783 2.7762556
1.1762967 2.3450828 2.7779799
1.2234716 2.3448932 2.7781796
1.2758226 2.3336105 2.7693522
1.3173046 2.3376837 2.7767246
1.369691 2.3383656 2.7775233
1.4113126 2.3441184 2.7803009
1.4711958 2.3352764 2.7657433
1.5276127 2.3432508 2.776927
1.5690694 2.3437505 2.7773149
1.612542 2.3467984 2.780149
1.6693153 2.3463986 2.7910171
1.7563773 2.3492217 2.790277
1.4437946 2.3533664 2.7920413
1.642804 2.3519814 2.7725441
1.6804497 2.3583782 2.7832174
1.7145821 2.3572128 2.7699203
1.7743726 2.3581634 2.7733498
1.8250442 2.3563294 2.7627664
1.8570937 2.3625801 2.754164
2.3178885 2.3727577 2.7979434
2.3579462 2.3743436 2.7724059
0.28373069 2.2213604 2.8239555
0.32568771 2.2275066 2.8234053
0.38009682 2.2320623 2.8315785
0.42867792 2.2297049 2.8228474
0.47643614 2.2374489 2.8297324
0.50230008 2.2921529 2.8449101
0.82977849 2.3259287 2.8238761
0.87944514 2.3236055 2.8080914
0.93215442 2.3419075 2.8348663
0.97451621 2.329973 2.829963
1.0308723 2.3303251 2.8215148
1.0713795 2.3347836 2.8240573
1.125059 2.3325961 2.8239071
1.1782105 2.3349676 2.8138747
1.226222 2.3407278 2.8261805
1.2692833 2.3362334 2.8255301
1.3289396 2.3321621 2.8202159
1.378697 2.3402805 2.8271472
1.4238118 2.3462102 2.8291211
1.4714521 2.3430357 2.8226495
1.5138049 2.3314514 2.8052626
1.5713391 2.3447716 2.8278961
1.6209342 2.3410974 2.8077292
1.6648917 2.3449581 2.8186557
1.7306776 2.345216 2.840225
1.7519517 2.3493984 2.8354781
0.87355888 2.3530798 2.848196
0.90710175 2.3516786 2.8374364
1.4893962 2.3523939 2.8086886
1.7227262 2.3525465 2.8139145
1.9895296 2.3608537 2.8499141
2.0332141 2.3681655 2.8354425
2.0901961 2.3607736 2.8329842
2.1346917 2.359771 2.8499167
2.2304902 2.361728 2.8381345
2.2717061 2.3647482 2.8153694
2.370204 2.3672628 2.8007405
2.4205294 2.3591657 2.8000009
0.28302261 2.2154169 2.8667641
0.33034647 2.2266953 2.8667028
0.38334966 2.2264917 2.8717184
0.41822401 2.2310767 2.8844788
0.47105104 2.2291093 2.8774486
0.50329852 2.238395 2.8884754
0.51548058 2.2888341 2.8874187
0.53169471 2.3182061 2.8845737
0.57013202 2.3319714 2.8851328
0.63234484 2.3434322 2.8889811
0.68244594 2.340647 2.8758478
0.72865504 2.3383026 2.8744452
0.77914894 2.3425138 2.8745074
0.81682515 2.3363793 2.8661194
0.8782196 2.3398688 2.8811634
0.92567867 2.3364716 2.8727
0.96575785 2.3358607 2.8694355
1.0239791 2.3382776 2.8820548
1.0769849 2.3365381 2.8720772
1.1190283 2.3345103 2.8772194
1.1710709 2.3387644 2.8708608
1.217252 2.3307519 2.870692
1.2744778 2.3345833 2.8828475
1.3173862 2.3361528 2.8779817
1.3649591 2.3378391 2.8707666
1.418432 2.332911 2.8660889
1.4718553 2.3453381 2.8849938
1.5218005 2.3443232 2.8809719
1.5597303 2.3385267 2.8744428
1.6187112 2.3408446 2.8906572
1.6599652 2.3479235 2.8813248
1.7611278 2.3433795 2.8635647
0.71999693 2.3524907 2.8834674
1.4643037 2.3511403 2.8575797
1.5319424 2.3552358 2.8727231
1.5742986 2.3557701 2.8737819
1.6314358 2.3538237 2.8771813
1.6560775 2.3605986 2.8615394
1.9849035 2.3588307 2.8953359
2.0232763 2.3596396 2.8732541
2.0754879 2.3572228 2.8833933
2.1244643 2.3599484 2.8810058
2.1676149 2.3654337 2.8626764
2.3490222 2.3654904 2.8634992
0.32364067 2.2233052 2.9185338
0.37127277 2.2280302 2.9234803
0.43008941 2.2302423 2.9198763
0.46883464 2.2315955 2.9249902
0.5246712 2.2335458 2.9281349
0.53641713 2.2812033 2.9236751
0.5469799 2.3157854 2.9175811
0.57560527 2.3286271 2.9296918
0.62390077 2.3380976 2.9254289
0.67180175 2.3387136 2.9224708
0.7279709 2.3398325 2.9194558
0.78385228 2.3393877 2.9290266
0.82593757 2.3366356 2.9156671
0.87108088 2.3410666 2.9366615
0.9245894 2.3294761 2.9159968
0.97520769 2.3427362 2.9254432
1.0244946 2.337641 2.9256034
1.0823659 2.3374145 2.919771
1.1308489 2.341831 2.9346631
1.1836984 2.3375156 2.9200284
1.2258776 2.3375797 2.9332743
1.2748365 2.3349447 2.924202
1.3231726 2.3355091 2.9320858
1.3790987 2.3351903 2.9191039
1.4169139 2.3400207 2.9401956
1.4744846 2.3458557 2.9244876
1.5203826 2.3418405 2.9220986
1.5772994 2.3466592 2.9196329
1.6045768 2.3466811 2.9066906
0.60117763 2.3542747 2.9084291
0.75938362 2.3518724 2.9081094
1.4507841 2.351254 2.94293
1.8892895 2.3570731 2.9480791
1.9262973 2.3562791 2.9255316
1.9748702 2.3598754 2.9263811
2.0284255 2.3687449 2.9329672
2.1105247 2.3561513 2.9071274
2.1827633 2.3739583 2.9418933
2.2044315 2.3763819 2.9321706
2.4776011 2.3844073 2.9130008
0.3406755 2.2127044 2.9713256
0.37182575 2.2195771 2.974314
0.41969723 2.22982 2.9698017
0.48162413 2.228276 2.9734371
0.53369278 2.2285945 2.9811604
0.56670845 2.2333248 2.988333
0.56261921 2.28526 2.9695237
0.58358955 2.3176475 2.9756279
0.62327605 2.3415422 2.9756711
0.67907941 2.3406582 2.9694929
0.73235971 2.340904 2.9678802
0.78243548 2.3465521 2.9764242
0.82992983 2.3438978 2.973736
0.87760085 2.3411462 2.9702857
0.93570012 2.3466301 2.9808066
0.97638369 2.3361902 2.9823332
1.0246835 2.3360255 2.9684734
1.068229 2.3405662 2.9746819
1.1253748 2.3357267 2.9739964
1.1657928 2.3413644 2.9595094
1.2175494 2.3379772 2.9745262
1.2624056 2.3384123 2.9592113
1.3425715 2.3359184 2.9639206
1.4307069 2.3447003 2.9813313
1.4966596 2.3484325 2.9590166
2.098413 2.347034 2.9952056
0.82869017 2.3509173 2.9952574
0.91807652 2.3553083 2.9794049
1.314959 2.3507304 2.9964957
1.3828316 2.3586369 2.9820642
1.4726253 2.3536234 2.9773622
1.5109483 2.3524601 2.9997849
1.6208986 2.3548496 2.9674146
1.7035348 2.3534696 2.9960895
1.7621341 2.3569911 2.972146
1.863889 2.3606803 2.9683394
1.9215399 2.3546536 2.9713116
1.9840941 2.3650074 2.9999721
2.0224235 2.3649197 2.9771671
2.0600128 2.3557699 2.9860363
2.1280208 2.3572495 2.9710751
2.1805577 2.3626084 2.9720378
2.22224 2.3562746 2.9833641
2.3245251 2.3609049 2.9750907
2.397728 2.3745918 2.9509273
0.49392191 1.7963538 3.0478663
0.49655429 1.8387767 3.0493255
0.52695435 1.8330832 3.0298746
0.49908549 1.8894274 3.0456657
0.52699465 1.8761894 3.0276797
0.56841552 1.873759 3.0209203
0.48590946 1.9439794 3.0486805
0.52485961 1.9263461 3.0326743
0.57411122 1.9251205 3.0238535
0.48764181 1.9759448 3.0471354
0.52020395 1.9730319 3.0383606
0.5655809 1.9690453 3.0183241
0.60412598 1.9502693 3.0424442
0.49032211 2.0287647 3.0424643
0.52328211 2.0266387 3.0349092
0.57296503 2.0246308 3.0248373
0.47608098 2.0648448 3.0475082
0.52621394 2.0801113 3.0296047
0.57691824 2.0749619 3.0260785
0.49679616 2.1235304 3.0462999
0.52932256 2.1263039 3.0289214
0.57703346 2.1221073 3.0261755
0.48634514 2.1818554 3.043005
0.533907 2.1766224 3.0197475
0.57198513 2.1729295 3.0114763
0.38500014 2.2136564 3.0237226
0.43445092 2.2241311 3.0314167
0.47701231 2.2189682 3.0205209
0.51615584 2.2102516 3.0145068
0.58558393 2.2146885 3.0104585
0.59299266 2.2773862 3.0276845
0.59462965 2.3097088 3.0199895
0.62745297 2.3318601 3.0185475
0.67288202 2.3351731 3.0270839
0.72330093 2.341603 3.0227339
0.76819307 2.3447993 3.0179052
0.83531511 2.3431444 3.0363235
0.87343991 2.3428366 3.0234065
0.91866702 2.3416243 3.0141129
0.97448015 2.3371613 3.0234902
1.0297196 2.3366399 3.0318785
1.0771897 2.3429375 3.0270112
1.1257412 2.342011 3.0295751
1.1804302 2.3467016 3.025157
1.2308972 2.3409584 3.0219853
1.2734133 2.3398833 3.0189281
1.3290131 2.3415117 3.0165539
1.3788495 2.3491335 3.0089309
1.4208553 2.3401906 3.0185575
1.5647571 2.341244 3.0414829
1.7146171 2.349966 3.0283449
2.0875485 2.3468342 3.0260229
2.1162112 2.3473644 3.0339894
0.79991388 2.3518679 3.0383644
0.81698102 2.3501201 3.032213
0.93040365 2.3512807 3.0426478
1.0188899 2.3500638 3.0171738
1.1416328 2.3653743 3.0393841
1.1753738 2.351733 3.0277205
1.4074353 2.3512993 3.0008674
1.5228946 2.3525224 3.035939
1.6235193 2.3548939 3.0154643
1.6671839 2.3548293 3.0160365
1.7180836 2.3547509 3.0344505
1.753031 2.3511186 3.0110373
1.8638808 2.3536711 3.0017505
2.012373 2.367754 3.0357976
2.0623682 2.361186 3.0427694
2.180315 2.3533285 3.0049343
2.2431304 2.3585892 3.0250511
2.272805 2.368902 3.0252461
0.39773968 1.7715845 3.0864916
0.42850786 1.7775179 3.083576
0.46378431 1.7897171 3.0755601
0.3983418 1.8153546 3.0732939
0.43254006 1.8293171 3.0758758
0.47605515 1.8247136 3.0631917
0.41915283 1.8789269 3.0842078
0.47110161 1.8730104 3.0594265
0.41867796 1.9228154 3.0819008
0.46874654 1.9168903 3.0592411
0.38729522 1.9575719 3.0638194
0.42363688 1.9717749 3.0825691
0.46384192 1.9727827 3.0622699
0.39290437 2.0282333 3.0870762
0.42636052 2.0266831 3.0812292
0.4663544 2.0254991 3.0576701
0.61503017 2.0109358 3.0845823
0.39431059 2.0779161 3.0762281
0.42833269 2.0784531 3.0734587
0.47197843 2.0742941 3.0564697
0.62107903 2.073611 3.0927589
0.39671677 2.1247406 3.0767722
0.43061805 2.1237178 3.0716429
0.47415829 2.1252284 3.0584922
0.39233813 2.1844516 3.0710914
0.43254381 2.1711977 3.0644329
0.46045914 2.1731224 3.0541697
0.60840625 2.1752667 3.0712903
0.41686487 2.2008102 3.064466
0.62151784 2.2420053 3.0836852
0.61947441 2.2851863 3.0863409
0.63184589 2.3235126 3.0742059
0.67599678 2.333518 3.0731871
0.72275829 2.3418508 3.0759227
0.77416205 2.3453445 3.0793788
0.82479221 2.3457766 3.0781837
0.87620008 2.3476367 3.0780549
0.92636651 2.3457417 3.0723214
0.97370499 2.3459008 3.0726879
1.0178261 2.3451865 3.0721185
1.0774877 2.3451755 3.0675344
1.1257966 2.3427515 3.06844
1.1761401 2.3440475 3.0735478
1.211832 2.3426609 3.0727341
1.2679807 2.3446453 3.082566
1.3150198 2.3468833 3.0692666
1.3563476 2.3458476 3.0723844
1.4282714 2.3428586 3.0737088
1.4638441 2.3431382 3.0872192
1.5324618 2.3424575 3.0714152
1.5975082 2.3434632 3.0727556
1.6278027 2.3448632 3.075609
1.6512983 2.3479266 3.098685
2.0754139 2.3453977 3.055074
0.80633759 2.3529162 3.0740874
1.0576766 2.3613009 3.0965097
1.5883299 2.3576403 3.0997093
1.673251 2.3559453 3.0726497
2.1312706 2.355206 3.0890713
2.1660266 2.3608003 3.0782313
2.2248328 2.361326 3.0934675
0.62893134 2.1345234 3.1134083
0.63520885 2.1821547 3.1300688
0.63560474 2.2185841 3.1123424
0.64481449 2.3130536 3.1210461
0.67435074 2.3317614 3.124254
0.72276342 2.3421474 3.1335008
0.77848172 2.3464029 3.1310215
0.82345688 2.3494563 3.1198115
0.8534773 2.3489094 3.1306622
0.92699963 2.343112 3.1236525
0.97381306 2.3469324 3.1173944
1.0221052 2.3447914 3.1201999
1.0591241 2.3463314 3.1122169
1.1222898 2.3461628 3.1317699
1.1821898 2.3413482 3.1217456
1.2328421 2.3465166 3.1366529
1.2753818 2.3392098 3.12713
1.3310132 2.3451738 3.1140842
1.3774316 2.3383963 3.1134644
1.4311719 2.3471365 3.1477573
1.4871026 2.3465796 3.1247919
1.5030824 2.3422539 3.1113832
1.5662249 2.3479958 3.1364546
1.6643761 2.3474238 3.1355839
0.72199327 2.350513 3.1237125
0.77587843 2.3507562 3.1134694
0.83416975 2.3546185 3.1246834
0.88241923 2.3538485 3.1310539
1.088842 2.3521104 3.1248319
1.1155925 2.3504093 3.101706
1.2350038 2.3515248 3.1041498
1.3667352 2.3519015 3.1383622
1.4133489 2.3518903 3.1208117
1.4714731 2.351577 3.1389956
1.5828185 2.3539422 3.1175833
2.0796664 2.3639355 3.1358736
2.1118193 2.3566582 3.1285567
2.1809835 2.3571124 3.1128545
0.65132338 2.0986891 3.1627176
0.66251117 2.1881359 3.1887279
0.66292548 2.2162013 3.1760759
0.66510874 2.2503252 3.1715288
0.67086655 2.3192458 3.1701369
0.71057284 2.3360205 3.1778469
0.76822031 2.3462343 3.1814594
0.8413043 2.3472533 3.167825
0.87191725 2.3418999 3.1657991
0.92096448 2.346669 3.1862164
0.99542809 2.3401952 3.1774056
1.0252368 2.3454239 3.1772673
1.0947969 2.3474433 3.1803517
1.1219894 2.3463535 3.1708651
1.1737033 2.3389432 3.1834183
1.2529054 2.3483112 3.1725094
1.3548071 2.3448606 3.1725669
1.408832 2.3474333 3.1774533
1.4869862 2.3423851 3.1601162
1.5256215 2.3392785 3.1819763
1.5730515 2.3392172 3.1622171
1.6214324 2.3445861 3.1720598
1.6528461 2.3389902 3.1707869
0.76799649 2.3515978 3.1768732
0.8165983 2.3546822 3.1836648
0.89934444 2.3563681 3.167819
0.96930832 2.3528256 3.1834304
1.0649917 2.3520319 3.1762247
1.1742319 2.3522604 3.1771176
1.2182562 2.3533351 3.191376
1.3240937 2.3520057 3.18097
1.3779716 2.3524055 3.1759703
1.4361759 2.3519056 3.1950662
1.4644797 2.351706 3.1839018
1.530651 2.3514681 3.1569929
2.0959711 2.3512316 3.1527843
0.68395126 2.182003 3.2125385
0.6885823 2.2237904 3.2196565
0.69198143 2.3131688 3.2216969
0.72819722 2.3454847 3.2248125
0.75692016 2.3493896 3.2250774
0.82710052 2.3479481 3.2465277
0.88191342 2.3462965 3.2324014
0.94662601 2.3465018 3.2177794
0.97049844 2.3456581 3.2395048
1.0271521 2.3431623 3.2311335
1.0765098 2.3495145 3.2274809
1.1191809 2.3416481 3.2194054
1.1603668 2.3495026 3.2034307
1.2342068 2.3472524 3.2170494
1.2927336 2.3495517 3.2422535
1.311698 2.3496039 3.2359974
1.3722239 2.3464532 3.2308309
1.4253795 2.3463624 3.2323136
1.4738433 2.3476567 3.216033
1.5195528 2.3402271 3.2289171
1.5712624 2.3458772 3.2172639
1.6132733 2.3428433 3.2239046
1.6524129 2.3463883 3.2277658
0.73465735 2.3552024 3.200592
0.78602433 2.35413 3.226238
0.82317138 2.3551695 3.2202139
0.85915715 2.355319 3.2253501
0.92376637 2.358901 3.2413478
0.98523223 2.3504908 3.2141685
1.1727374 2.3556266 3.2487707
1.2100115 2.3549271 3.2364423
1.3175449 2.3525224 3.2180901
1.3799676 2.3519957 3.2298591
1.4778284 2.3539922 3.2247722
1.6226099 2.350682 3.203526
0.69885552 2.2844088 3.2525327
0.73252356 2.3320503 3.2716918
0.78241807 2.3464282 3.2658055
0.8142814 2.3457713 3.2838442
0.88961744 2.3481393 3.2715285
0.9185794 2.3445976 3.2726097
0.98152137 2.3488405 3.290082
1.0250279 2.3409786 3.2674158
1.0741081 2.3460107 3.2621193
1.1179794 2.3405111 3.2814419
1.2341911 2.346251 3.2559738
1.3216616 2.3435502 3.2748179
1.3725262 2.3463817 3.2794905
1.42615 2.3393865 3.273807
1.4775965 2.3400257 3.2664585
1.5265176 2.3464398 3.2798376
1.5688938 2.3421168 3.2778323
1.6402191 2.3372157 3.2622612
1.6676831 2.3484895 3.2696025
0.77570891 2.3508396 3.2798662
0.84403217 2.3508878 3.2853279
0.86388361 2.3541627 3.2859888
0.96429092 2.3526242 3.299886
1.0043232 2.3582811 3.2986908
1.1817575 2.35484 3.2851887
1.2182229 2.3519294 3.2697339
1.2711513 2.3526564 3.2747226
1.6185358 2.3578124 3.2837942
0.71813941 2.196089 3.3034334
0.72644383 2.2770526 3.3119996
0.7509349 2.2766764 3.3454831
0.74859399 2.3254201 3.3043761
0.77365118 2.3387926 3.3323164
0.82959169 2.3440812 3.3165524
0.86916333 2.3497415 3.3168621
1.0358698 2.3468108 3.3129461
1.0897485 2.3420184 3.3316331
1.1123437 2.3495481 3.3372211
1.1762191 2.3436506 3.3237314
1.2193339 2.3466907 3.329525
1.2785231 2.3415055 3.3272705
1.3221704 2.3398468 3.3281279
1.3711116 2.3423238 3.3192267
1.4337633 2.3434353 3.3313439
1.5354997 2.3407502 3.3107929
1.5678192 2.3403296 3.3419154
1.6219248 2.3475754 3.3324974
1.6776748 2.3428609 3.3010936
0.88850224 2.3511956 3.3149018
0.93579274 2.3535349 3.3209469
0.97306687 2.3549993 3.3407199
1.0109946 2.3549438 3.3315496
1.0755599 2.3508568 3.3088322
1.1342924 2.3554816 3.3404064
1.151163 2.3508484 3.3284976
1.2372702 2.3511391 3.3035293
1.5153894 2.3549151 3.3421147
1.6124245 2.3534508 3.3013358
0.75286847 2.2357559 3.378767
0.77784526 2.3236609 3.3654945
0.80102783 2.3325779 3.3825212
0.92019683 2.3464429 3.3793566
1.0293745 2.3466816 3.3744864
1.0718298 2.3462434 3.3833864
1.1016238 2.3482816 3.37884
1.1764275 2.3439584 3.3514485
1.2149335 2.3435154 3.3811507
1.279269 2.3372672 3.3517041
1.3610771 2.3424501 3.3762782
1.4276848 2.3438528 3.3703747
1.4624618 2.3447397 3.3887756
1.5443476 2.3495049 3.3665061
1.5830113 2.3431756 3.3858914
1.6254672 2.3471696 3.3759027
0.84107322 2.3575313 3.3732338
0.8769635 2.3544447 3.377018
0.91534299 2.3530426 3.3509183
0.98047131 2.3538115 3.3770077
1.0667524 2.3542461 3.3565173
1.1330354 2.3536043 3.3787379
1.2492044 2.353363 3.3867157
1.2681479 2.3524468 3.3794913
1.3363283 2.3503942 3.3973417
1.4036338 2.3648591 3.3986716
1.4861306 2.3537648 3.3658504
1.5172011 2.3532939 3.3831072
1.6585621 2.3518438 3.3704541
0.77999067 2.2696013 3.4073884
0.81507826 2.3293228 3.427459
0.87092674 2.3487353 3.4330878
0.92824572 2.347703 3.4195547
1.0059575 2.3495102 3.4047127
1.0706809 2.3454752 3.4234157
1.1201684 2.3477273 3.4142342
1.184195 2.3398924 3.4260926
1.2262707 2.34582 3.4236348
1.2685046 2.3445799 3.4376211
1.325424 2.3461385 3.4369845
1.3792299 2.3416543 3.4268668
1.5301912 2.3434896 3.4291687
1.56271 2.3474131 3.4237633
1.6167474 2.3434618 3.41891
1.6730388 2.346211 3.4478016
0.84559393 2.3510778 3.4019661
0.87188214 2.3513215 3.4369156
0.93052125 2.3534985 3.4279504
0.98085272 2.3585811 3.4246097
1.0343165 2.3509488 3.4410224
1.0742925 2.3534384 3.435097
1.1713815 2.3532379 3.4090273
1.2885675 2.3525553 3.415884
1.3236034 2.3527296 3.426837
1.4190286 2.3543434 3.4198885
1.4890841 2.3515112 3.4351215
1.5934409 2.3533673 3.4450982
1.6627417 2.3519032 3.4151368
0.83576375 2.3291075 3.4699764
0.87470496 2.3421578 3.4786747
0.92830539 2.3432417 3.4734602
0.96458882 2.3415177 3.4697254
1.0124607 2.3483744 3.4834409
1.0987557 2.3446982 3.4566195
1.1163596 2.3412714 3.4746151
1.2268078 2.345998 3.4663467
1.2922608 2.3377125 3.4768145
1.3258456 2.3445597 3.4778893
1.3575673 2.3479347 3.4735546
1.4285856 2.3490822 3.4670193
1.5064226 2.3430648 3.4597144
1.6238847 2.348187 3.4706924
1.6643065 2.3421388 3.4913375
0.98674548 2.3532572 3.4557786
1.0305336 2.3546948 3.4684911
1.0747731 2.3564005 3.4812584
1.1430616 2.3555129 3.4623458
1.1681693 2.3517761 3.4814124
1.2291467 2.3504291 3.4729426
1.3850117 2.3608208 3.4861963
1.4696542 2.353261 3.4787176
1.5655491 2.3517277 3.4989834
0.9034037 2.3445642 3.5011911
0.95125854 2.3467155 3.536042
1.0280322 2.3420365 3.5114458
1.0744205 2.3443015 3.5322692
1.1381514 2.3465607 3.5342908
1.154934 2.3402929 3.519702
1.2359058 2.3434842 3.5028124
1.272041 2.3451815 3.5170636
1.3168719 2.3440671 3.52387
1.399004 2.3442345 3.5433989
1.4142491 2.3460963 3.5191026
1.47123 2.3466964 3.523735
1.518103 2.3464246 3.5301075
0.98387134 2.353971 3.5405426
1.072862 2.3540359 3.5200613
1.1825639 2.3558462 3.5378046
1.2108133 2.3525918 3.524781
1.2797751 2.3511496 3.5027339
1.3726419 2.3539083 3.5231187
1.4456775 2.354466 3.5456469
1.525843 2.352977 3.5155289
0.98558396 2.339493 3.5732162
1.030118 2.3494997 3.5652819
1.1873928 2.3454103 3.5628588
1.2400357 2.3491721 3.5989897
1.270183 2.3487782 3.5898981
1.3910813 2.3447032 3.5922017
