ply
format ascii 1.0
comment PCL generated
element vertex 1493
property float x
property float y
property float z
element camera 0
property float view_px
property float view_py
property float view_pz
property float x_axisx
property float x_axisy
property float x_axisz
property float y_axisx
property float y_axisy
property float y_axisz
property float z_axisx
property float z_axisy
property float z_axisz
property float focal
property float scalex
property float scaley
property float centerx
property float centery
property int viewportx
property int viewporty
property float k1
property float k2
end_header
-2.914299 0.17060366 4.0556583
-2.8873093 0.16698849 4.0772271
-0.30552435 0.17471035 4.0573664
-0.27802959 0.17572625 4.0825515
-0.24961418 0.17631675 4.0977259
0.33771423 0.1762414 4.0911813
0.35504079 0.15565974 4.0649357
-2.9218745 0.21075922 4.064652
-0.31550276 0.22341356 4.0590305
-0.27795574 0.22445343 4.079875
-0.24298237 0.221918 4.0948305
0.33669543 0.22446382 4.0772657
0.35523677 0.22385195 4.065062
-2.9142907 0.2673102 4.0625324
-2.8984096 0.28442821 4.0727887
-0.31564912 0.27208292 4.058908
-0.27769658 0.27297804 4.074141
-0.24969681 0.25474238 4.0963717
0.33767208 0.27407235 4.0871043
0.35506368 0.27240738 4.0610933
-2.9195838 0.32966164 4.0551171
-2.8838911 0.32608739 4.0795269
-0.31742221 0.32632291 4.053915
-0.27868646 0.32290533 4.0865197
0.33858609 0.32385015 4.0958171
0.35652488 0.3223418 4.0754752
-2.9151666 0.3759014 4.0680313
-0.31443366 0.37400031 4.0631704
-0.27906981 0.3722938 4.0891829
0.33844155 0.36295587 4.0918989
0.35499817 0.37928927 4.0547047
-2.9176784 0.42173213 4.0679641
-0.58230507 0.44054258 4.0606022
-0.32109925 0.43205658 4.0660033
-0.27913401 0.421381 4.0870652
0.33837801 0.42171979 4.0874138
0.36077049 0.42902628 4.0615573
-2.9579782 0.47963566 4.0517864
-2.9181454 0.46730459 4.0646281
-0.5829165 0.49001354 4.0611501
-0.32683885 0.47831139 4.0645814
-0.28155601 0.47113457 4.0901022
0.33791217 0.47009119 4.0782523
0.35638332 0.47840419 4.0637307
-2.9637232 0.5491029 4.05265
-2.9223363 0.52496928 4.0648718
-0.36564386 0.52673334 4.0554671
-0.32747775 0.52812201 4.0682874
-0.2817809 0.52650845 4.0888262
0.33915478 0.52098 4.0893326
0.3567588 0.5277968 4.0640101
-2.9662549 0.57243699 4.0535626
-2.9276989 0.58299381 4.0661192
-0.58645797 0.58172828 4.0780621
-0.32785937 0.5777182 4.0688524
-0.27862731 0.5752396 4.096127
0.33976433 0.57113671 4.0923381
0.35886195 0.58002812 4.0835772
-2.9346991 0.63018465 4.0703788
-0.36630309 0.62541181 4.0536017
-0.33094266 0.62540811 4.0718117
0.33926234 0.61945105 4.0815816
0.35820937 0.62804741 4.0713382
-2.9643855 0.67750806 4.0605307
-2.932605 0.67808443 4.0840759
-1.0726542 0.65878826 4.0559511
-0.58662492 0.67063826 4.0701628
-0.36707023 0.67566544 4.0569077
-0.32693449 0.67529643 4.0828743
-0.29122227 0.6518302 4.0991278
0.34057567 0.67121667 4.0922203
0.35818917 0.67706841 4.0659218
-3.0112855 0.71491152 4.0522661
-2.9411101 0.72329432 4.0670357
-1.2622089 0.73238581 4.062295
-1.2289122 0.73190409 4.0766649
-1.1819767 0.73541021 4.0866313
-0.58968782 0.71379226 4.0869322
-0.37259874 0.73077285 4.0572805
-0.33305487 0.72418827 4.0831079
0.34056053 0.73037815 4.0853276
0.35910237 0.72799402 4.0706539
-2.969115 0.77049297 4.0537419
-2.9290323 0.77484012 4.0804667
-1.266485 0.78184766 4.0665178
-1.223603 0.7821731 4.0887542
-0.59238327 0.77680624 4.0983582
-0.40754166 0.78589636 4.0545845
-0.3735823 0.78103489 4.0734072
-0.3310678 0.76723719 4.0884275
0.34197325 0.7829833 4.0962152
0.36154339 0.78246748 4.0922656
-2.9727232 0.82233924 4.05826
-2.9382772 0.81572169 4.0873208
-1.3203663 0.82532543 4.0574508
-1.2740391 0.82258797 4.0715318
-1.2364631 0.82459795 4.0901608
-0.40768522 0.82549542 4.050777
-0.37249324 0.82674271 4.0718193
-0.33205703 0.8230291 4.0935712
0.34219962 0.83309275 4.0924416
0.36157751 0.81223625 4.0888195
-2.9751103 0.86749953 4.0694222
-2.9229457 0.87721705 4.0859427
-1.3261517 0.87425905 4.057169
-1.278136 0.87618095 4.0773253
-1.2410364 0.87873292 4.0979533
-0.4087874 0.87698507 4.0548573
-0.36813241 0.8765375 4.0756793
-0.32583687 0.86042911 4.0939083
0.34226656 0.87294245 4.0877185
0.35955504 0.86679357 4.0578523
-3.0027788 0.92670202 4.0515442
-2.9738171 0.91243398 4.068923
-1.3195393 0.92757517 4.0625877
-1.2756504 0.92681998 4.0853209
-1.2433845 0.9213295 4.0995293
-0.40991983 0.92883277 4.0587292
-0.37209615 0.92321277 4.0816789
0.34217778 0.92229676 4.0794163
0.36011133 0.92735451 4.0553832
-3.0077267 0.95141608 4.0538416
-2.9731381 0.97464508 4.0702758
-2.940124 0.96360523 4.0952597
-1.3149619 0.98019248 4.0626483
-1.2907945 0.9688769 4.0806394
-0.41068208 0.98004264 4.0585012
-0.37848228 0.97183114 4.0816078
0.33546883 0.97150242 4.0878968
0.36177325 0.98116231 4.0663424
-3.0160289 1.0237968 4.0511537
-2.969939 1.0355427 4.077024
-2.9476168 1.0009395 4.0989599
-1.3137935 1.0284562 4.0693731
-1.2899896 1.0282273 4.0918498
-0.42164952 1.0222716 4.0616951
-0.38401315 1.0277698 4.0862207
0.34326237 1.0247332 4.0764785
-3.0140448 1.0970502 4.0561967
-2.9712608 1.0818839 4.0786309
-1.3279153 1.0770721 4.0637183
-1.285077 1.0778233 4.0909271
-0.45167476 1.0823965 4.0513272
-0.4229168 1.0751144 4.0652251
-0.38673973 1.0757018 4.0858779
0.34400693 1.0767816 4.076695
-3.0057387 1.133301 4.0599203
-2.9649425 1.1310697 4.0728626
-2.9325619 1.1436933 4.0942826
-1.3537519 1.1327883 4.0651574
-1.3290741 1.1204863 4.0734024
-1.2845693 1.1250007 4.0926042
-0.45993522 1.1294709 4.0574207
-0.42459628 1.1293492 4.0722256
-0.38950276 1.1304908 4.0915728
0.3448199 1.1292795 4.077261
0.36273274 1.1229 4.0529375
-3.010993 1.182071 4.0560675
-2.9731338 1.1809515 4.0732965
-2.9385424 1.1694013 4.0972757
-1.3657846 1.1754923 4.0596523
-1.3287435 1.1688592 4.0842118
-1.2878091 1.1795614 4.0927134
-0.57448596 1.1593113 4.0540409
-0.46410882 1.1731529 4.0566168
-0.42631298 1.1740406 4.0810261
-0.39742944 1.1776228 4.0955253
0.34570491 1.1722982 4.0800982
-3.0209403 1.2329214 4.0579767
-2.987123 1.2334636 4.0810971
-1.3690211 1.2299452 4.0584626
-1.3259494 1.2250413 4.0789542
-1.2763971 1.2227879 4.0931616
-0.46429747 1.2278526 4.0661535
-0.4270592 1.2263756 4.0781527
-0.39810723 1.2199535 4.0945172
0.34729871 1.2280389 4.0888996
-3.0610223 1.2986665 4.0503559
-3.0199356 1.2844348 4.0675716
-2.9757259 1.2878509 4.0910769
-2.9250023 1.2906003 4.0960426
-1.3743421 1.2762287 4.0651312
-1.3241884 1.2778798 4.0825725
-1.283554 1.2787604 4.0947909
-0.46770579 1.2778376 4.06848
-0.42880222 1.2818438 4.0843029
-0.39917183 1.2636518 4.0971441
0.34658265 1.2757285 4.0700397
-3.0278401 1.3350137 4.0656652
-2.9950738 1.3361645 4.090785
-1.3680857 1.3217349 4.0705395
-1.3243099 1.321609 4.0878162
-0.46892241 1.3215393 4.0703816
-0.42533809 1.3271873 4.0911264
0.34810814 1.3217381 4.0792027
-3.0633678 1.3876601 4.0536604
-3.0209229 1.384281 4.0763264
-1.4111298 1.3751285 4.0521178
-1.3738852 1.3706309 4.0672741
-1.3218329 1.3692924 4.0906816
-0.50031608 1.3952698 4.0608306
-0.47176042 1.3703105 4.0666766
-0.43178552 1.3618534 4.0968847
0.34868816 1.3744652 4.0745778
0.36155757 1.3790036 4.0658989
-3.0549045 1.4248017 4.0553432
-3.0190043 1.4364991 4.0734286
-2.9847326 1.4370987 4.0968108
-1.4605501 1.4243782 4.0527396
-1.3727155 1.4254963 4.0693984
-1.3387636 1.4284664 4.0953903
-0.50813329 1.4320172 4.0607896
-0.47041732 1.4270115 4.0789919
-0.44324732 1.4168451 4.0963674
0.34985319 1.4195983 4.0787301
0.35170728 1.4475121 4.0954418
-3.0665922 1.466006 4.0602245
-3.0267024 1.4758471 4.0732336
-2.992007 1.4763041 4.0963287
-1.3787559 1.4788709 4.0661187
-1.3412087 1.4836833 4.0895014
-0.51256895 1.4722326 4.0597472
-0.47691563 1.4737307 4.07725
0.3516041 1.4776654 4.0867214
-3.068599 1.5027218 4.0519638
-3.0327921 1.5145931 4.0704904
-2.9987836 1.5154334 4.0947695
-1.4158072 1.5268519 4.0631776
-1.3776023 1.531188 4.0851808
-0.51459712 1.5188496 4.0654578
-0.47887483 1.5274962 4.0817628
0.35135013 1.5173374 4.073472
-1.4193801 1.5623651 4.0647554
-1.3915589 1.5666665 4.0838904
-0.5297426 1.5744375 4.0700178
-0.47664547 1.5688713 4.0822363
0.36062416 1.5773628 4.0714445
-3.1035948 1.628386 4.0629959
-3.0752995 1.6261497 4.0728054
-3.0344849 1.6236112 4.0890131
-0.52827847 1.6247715 4.0658994
-0.47942808 1.6192913 4.0948524
0.36379698 1.6294479 4.0711837
-3.112556 1.681493 4.0580688
-3.0661216 1.6758831 4.0677509
-3.033884 1.6780028 4.0956602
-0.55024016 1.6769735 4.0608244
-0.5209192 1.671634 4.0787086
-0.49114668 1.6652882 4.0941334
0.33582613 1.6738726 4.0978694
0.36122498 1.6777111 4.068192
-3.1243525 1.7363994 4.0561275
-3.0764444 1.7281281 4.073709
-3.0418983 1.7308466 4.0895615
-0.55099744 1.7101876 4.0573511
-0.52109063 1.7244666 4.0831943
-0.49284431 1.7125723 4.0962706
0.36255202 1.725183 4.0712171
-3.1039233 1.7628293 4.0680237
-3.0681913 1.7753541 4.0877275
-3.0292423 1.7981679 4.0982995
-0.55223954 1.7553481 4.0540385
0.33741069 1.7648416 4.0927958
0.35757592 1.7723054 4.0816026
-3.1082559 1.8139907 4.0554953
-3.0730987 1.8147426 4.0807071
-3.0365348 1.826851 4.0990915
0.33923185 1.8370091 4.0954709
0.36298791 1.8253778 4.0679231
-3.116209 1.8764057 4.0612755
-3.0743053 1.8625644 4.0731907
-3.0379748 1.8642662 4.0870972
0.35969701 1.8766543 4.0761623
-3.1219251 1.9273119 4.0586991
-3.0791328 1.9327265 4.089098
-3.0403242 1.9022865 4.075983
0.36139965 1.9169958 4.0850439
-3.1212697 1.9837785 4.0616503
-3.0771649 1.9776678 4.0859246
0.36198756 1.9620608 4.0774584
-3.1583087 2.003989 4.056107
-3.1165297 2.0200682 4.0755105
-3.0677664 2.0383289 4.0914679
0.34347123 2.0291092 4.0897098
0.36831766 2.0206439 4.0709414
-3.1269772 2.0696111 4.0614424
-3.0772722 2.0708091 4.0836086
0.34474158 2.0684481 4.0933361
0.37114644 2.0758092 4.0647855
-3.1187608 2.1304767 4.0774145
-3.0767956 2.1272388 4.0955768
0.34541959 2.1150482 4.0856447
0.36562857 2.1302178 4.0646648
-3.1263337 2.1731007 4.0702724
-3.0765655 2.1785457 4.0909557
0.341315 2.1760612 4.0803261
-3.1541498 2.233933 4.0582628
-3.1265934 2.2095091 4.0632381
-3.0773191 2.234993 4.0852065
0.34084854 2.2343986 4.0763831
-3.1162176 2.2587719 4.0709038
-3.0838885 2.2784917 4.0657463
-3.0455945 2.2653694 4.0950251
0.26248586 2.2605076 4.0725021
0.32226485 2.2775164 4.0762053
-3.0706999 2.3030093 4.0608401
-3.0240867 2.3075247 4.0769958
-2.9870439 2.32128 4.0848889
-2.9348736 2.3344691 4.0754285
-2.8786869 2.3414631 4.0902338
-2.628123 2.3333116 4.0719175
-2.4793797 2.3431671 4.0720286
-2.4310515 2.3426216 4.0949945
-1.8724332 2.3371809 4.0782838
-1.7329689 2.3304524 4.0852971
-1.6713991 2.3351984 4.0872064
-1.5274739 2.328383 4.0638962
-1.4536507 2.3356369 4.0988779
-1.4159458 2.3289981 4.0963078
-0.86887044 2.3286579 4.0849524
-0.84361625 2.3302307 4.0673447
-0.79944509 2.3283999 4.0707598
-0.56902158 2.341825 4.0756388
-0.52472866 2.3378372 4.0730419
-0.47147533 2.3420117 4.0852318
-0.4120408 2.3472726 4.0678506
-0.38362879 2.3458982 4.0753708
-0.31755635 2.3477035 4.0592523
0.2789233 2.3174965 4.0866685
0.31240675 2.3270805 4.0704036
-2.3797355 2.3512144 4.0745478
-2.2337642 2.3586161 4.0956354
-1.5981783 2.3501236 4.0849361
-0.60399359 2.3514893 4.088964
-0.36180258 2.355381 4.0698352
-0.34126264 2.3627474 4.0839567
-0.2756584 2.3577716 4.0789804
-0.22171287 2.3698189 4.0789313
-0.17799219 2.3639047 4.070364
-0.1241687 2.3665454 4.0763841
-0.073810704 2.3711069 4.0773959
-0.026930738 2.3763168 4.0712347
0.027058551 2.3789451 4.0757222
0.080969363 2.3741698 4.0670285
0.12413479 2.3739698 4.0658779
0.17854705 2.3750815 4.0779181
0.20054698 2.3629668 4.0913067
0.28606147 2.3532643 4.070684
-0.073923171 -0.41439003 4.1233649
-0.087165363 -0.37538099 4.1305203
0.30102608 -0.35513863 4.1197453
-0.093914643 -0.32645887 4.1394939
0.30733779 -0.32855132 4.1174526
-0.16212288 -0.25557795 4.1149569
-0.12132993 -0.27235132 4.1316342
0.30665597 -0.27194408 4.1332436
-2.8306005 -0.22613567 4.1138244
-2.7760127 -0.21411526 4.1245294
-0.17184655 -0.22593798 4.1132603
-0.12359302 -0.22753385 4.1432948
0.31055281 -0.22665361 4.1209478
-2.802438 -0.15777425 4.1202321
-2.7722344 -0.17119023 4.1294951
-0.21067698 -0.17638554 4.1038933
-0.17213075 -0.17710268 4.1215372
-0.12840196 -0.18281172 4.1400833
0.31076556 -0.1774015 4.1255169
-2.8247726 -0.1350984 4.1083589
-2.7760017 -0.12365618 4.1272383
-0.21077013 -0.12743473 4.1068687
-0.17217994 -0.12793005 4.1238122
-0.13329387 -0.12838316 4.1395025
0.31054968 -0.12807597 4.1237102
-2.7744923 -0.078379214 4.125813
-2.7285371 -0.089685097 4.1477132
-0.21055847 -0.078333981 4.1034985
-0.17220381 -0.078715593 4.1254883
-0.13346656 -0.079085298 4.1456261
0.31043327 -0.078763925 4.1227455
-2.8210716 -0.033160977 4.1044836
-2.7786286 -0.030906063 4.1233282
-2.7394075 -0.033177387 4.1419086
-0.21067035 -0.029351912 4.1060781
-0.17234588 -0.029514814 4.1293526
-0.13353482 -0.029638235 4.1481495
0.31065622 -0.029510412 4.1261215
-2.8209858 0.023390351 4.1043339
-2.7748666 0.023343718 4.1267772
-0.2183861 0.02357813 4.1033974
-0.17222655 0.019761443 4.1265788
-0.13352756 0.0099498434 4.1479597
0.31115851 0.019808872 4.1327701
-2.8230343 0.079963595 4.1067257
-2.778868 0.079970188 4.1321692
-0.21573144 0.07364738 4.1086035
-0.17258412 0.079009369 4.1344509
0.31074008 0.078961633 4.1266756
-2.8518174 0.13685541 4.1021814
-2.8143194 0.12534752 4.1155996
-2.7680411 0.1252705 4.1378708
-0.22083466 0.12770675 4.1113586
-0.17641874 0.12628445 4.1308899
0.31107408 0.12842058 4.1304054
-2.8539658 0.17099455 4.1042295
-2.8191872 0.17093259 4.121419
-2.7721124 0.17080262 4.1426511
-0.22106151 0.17700084 4.1143923
-0.18266194 0.17788704 4.1364284
0.31547841 0.18243457 4.1218243
-2.8578935 0.21671042 4.1081553
-2.8212914 0.22310838 4.1179576
-2.773272 0.21624979 4.1427097
-0.21791901 0.22955142 4.1153512
-0.19254214 0.2272705 4.1342993
0.31115645 0.22721286 4.1287637
-2.8610928 0.27381518 4.1100249
-2.8167293 0.27758014 4.1177087
-2.7759566 0.26847419 4.1397161
-0.25078273 0.28536612 4.112896
-0.22160721 0.27595463 4.1208572
-0.18285894 0.27695295 4.1372218
0.31145599 0.27686012 4.1305127
-2.865098 0.34256533 4.1117349
-2.8228374 0.33019537 4.119082
-2.7927403 0.33065283 4.1429925
-0.25041479 0.32425094 4.104938
-0.22180644 0.32552272 4.1222229
-0.18315564 0.32695603 4.1416526
0.31191611 0.32676768 4.1342926
-2.859952 0.37606621 4.1019669
-2.8255372 0.37602067 4.119957
-2.7861698 0.38007954 4.1450973
-0.95843756 0.36146182 4.1249156
-0.25100192 0.37424707 4.1117902
-0.22192551 0.37502909 4.1216092
-0.18522361 0.37269104 4.1409049
0.31834847 0.37939903 4.1289511
-2.8629084 0.42200208 4.1026897
-2.829644 0.42210397 4.1224437
-2.7966461 0.42225268 4.1422787
-0.60891348 0.43580186 4.1068587
-0.25092229 0.42333704 4.1073523
-0.22219306 0.4249019 4.1235523
-0.19339843 0.426736 4.1423512
0.31553185 0.42289814 4.1325536
-2.8678854 0.46835548 4.105895
-2.8320248 0.46806329 4.122016
-2.7963943 0.46779585 4.1380577
-0.62348056 0.46902758 4.1344609
-0.25614083 0.47313586 4.1084886
-0.22256911 0.47509524 4.1269164
-0.19360991 0.47686553 4.1433005
0.32043657 0.47322366 4.1062989
-2.8644133 0.52682441 4.1180205
-2.8177907 0.52619195 4.1367569
-1.0323302 0.54407537 4.1147633
-0.6127435 0.51826632 4.1265607
-0.25186163 0.52373409 4.1152296
-0.22314756 0.52596235 4.1337628
-0.19382802 0.52713144 4.1440115
0.32112861 0.52363634 4.1112356
-2.8614943 0.58038038 4.1157489
-2.8206527 0.584391 4.1395087
-1.052209 0.56952089 4.1498284
-0.61624563 0.57133484 4.1457558
-0.59092319 0.55634618 4.1118703
-0.25167206 0.57272977 4.1077752
-0.22363617 0.5867632 4.1375046
-0.19418359 0.55798376 4.149045
0.32123512 0.57321829 4.1082401
-2.8690145 0.63542897 4.1202703
-2.8302448 0.62764019 4.1410899
-1.0660428 0.64692408 4.1131344
-0.59333771 0.61846566 4.1230016
-0.27199981 0.62346548 4.1113358
-0.22374555 0.62687933 4.1358252
0.31604254 0.62879449 4.1222577
-2.8782375 0.67584485 4.1286936
-2.8345864 0.68219966 4.1407647
-1.1152205 0.69279671 4.1339183
-1.0964357 0.69379663 4.1435895
-0.27014515 0.67699212 4.1155715
-0.22634038 0.67442 4.1418524
0.31372008 0.67721206 4.130302
-2.8721793 0.72608578 4.1285048
-2.8314502 0.72447145 4.1381688
-1.1510737 0.73044825 4.1040974
-1.1243435 0.72826838 4.1372738
-1.0965726 0.71428865 4.1417513
-0.5924328 0.73703367 4.1036057
-0.27312684 0.72544795 4.1177917
-0.22807758 0.73291391 4.1427422
0.31726286 0.7308771 4.1272311
-2.8652761 0.77619857 4.1266003
-2.8300297 0.76727319 4.1377606
-1.1755242 0.7780261 4.1187935
-1.1354165 0.78280872 4.1385064
-0.59405577 0.77896661 4.1098995
-0.31253427 0.78414392 4.1037922
-0.2735351 0.7762785 4.1177702
-0.23487294 0.7799685 4.139071
0.31921721 0.773022 4.1255698
-2.8659012 0.81969982 4.1286368
-1.2130218 0.83053142 4.1078005
-1.1772811 0.82674825 4.1244292
-1.1434214 0.83092928 4.1418781
-0.59429967 0.82927483 4.1050749
-0.31301421 0.82510936 4.1049175
-0.2744371 0.82877201 4.1250315
-0.22519377 0.81113726 4.1416664
0.32039565 0.81846082 4.1226549
-2.8694191 0.86422014 4.1345139
-1.214457 0.87142873 4.1195526
-1.1754893 0.87292588 4.1348019
-1.1468649 0.87457514 4.1485596
-0.59573793 0.87134743 4.1094589
-0.32070276 0.89104754 4.1095924
-0.2751449 0.8709535 4.1301818
-0.23606712 0.87438428 4.1481414
0.31689841 0.87571204 4.1215324
-2.942059 0.92939889 4.1044536
-2.8752797 0.91233945 4.1350312
-2.8438561 0.92758477 4.1484246
-1.2669777 0.94413394 4.1021128
-1.2220064 0.92802525 4.1211605
-1.1794339 0.92738247 4.1409478
-1.1485032 0.90672839 4.1499491
-0.32460731 0.92929405 4.1113963
-0.27864891 0.92179477 4.1379433
0.31558934 0.92169541 4.1243191
-2.8727903 0.97011954 4.136601
-2.8460937 0.9515065 4.1475139
-1.2623042 0.98003268 4.1050668
-1.226265 0.97639573 4.1218014
-1.1760437 0.98327589 4.1435013
-0.35470673 0.97955787 4.1032944
-0.32507092 0.97062391 4.1110129
-0.28668419 0.97620392 4.1366549
-2.8725324 1.0301362 4.1365824
-1.2617984 1.0200806 4.1089363
-1.2232573 1.0222979 4.1264882
-1.1841512 1.0241892 4.1424551
-0.35541716 1.0215921 4.1049461
-0.32647797 1.0251244 4.1207247
-0.28734708 1.0187957 4.1395955
0.32179317 1.0257088 4.1233582
-2.9336562 1.0857785 4.1086359
-2.8712695 1.0788574 4.1287365
-1.2618407 1.0733969 4.1070662
-1.2295884 1.0735211 4.1320319
-1.1818247 1.0784984 4.1443243
-0.35634887 1.0744846 4.1071186
-0.32724082 1.077854 4.1217098
-0.29846308 1.0729094 4.1447816
0.31613532 1.0745878 4.1341519
-2.9398713 1.123158 4.109726
-2.8976073 1.1248674 4.1427269
-1.256459 1.1275598 4.108592
-1.2229296 1.1281676 4.1320477
-1.1875556 1.1183048 4.146028
-0.36753964 1.1232268 4.1114459
-0.32839283 1.122062 4.1288943
-0.29898047 1.1254469 4.1429482
0.32770646 1.1292119 4.1162572
-2.9506638 1.1976973 4.108675
-2.8748522 1.1836839 4.1436033
-1.2642822 1.1663309 4.1027279
-1.2250996 1.1724921 4.1285963
-0.36729336 1.1782461 4.1220298
-0.33150983 1.1724203 4.1336255
-0.29925632 1.1569333 4.14113
0.31855929 1.1730778 4.1217303
-2.9560926 1.2351809 4.1077147
-2.8816762 1.2334597 4.1424055
-1.2259799 1.2226603 4.1260715
-0.3694618 1.2253034 4.1143932
-0.33080244 1.2219226 4.1415863
0.31962562 1.2176 4.1276264
-2.9578805 1.2712166 4.1014256
-2.8919842 1.2850077 4.1456575
-1.2638323 1.2798398 4.1027851
-1.2299924 1.2773834 4.1269078
-0.40021321 1.2973543 4.1013818
-0.3700906 1.2679582 4.113018
-0.33128512 1.2747325 4.1373773
0.32280841 1.2641343 4.1150436
-2.9611168 1.3368173 4.1138821
-2.8957572 1.3220778 4.1420684
-1.2755616 1.3315065 4.1166558
-1.2416942 1.3207219 4.1328268
-0.41122901 1.3306094 4.1028109
-0.37168756 1.3243712 4.1197972
-0.32604939 1.3170551 4.1406403
0.33057183 1.322156 4.1153998
-2.971338 1.3672994 4.1128168
-1.2778143 1.3781986 4.129137
-0.41823941 1.3827662 4.1113262
-0.3728494 1.3795749 4.1212211
-0.34335351 1.3739544 4.139195
0.32417595 1.371335 4.1103091
-2.9640317 1.4178767 4.1084342
-1.3132921 1.4242195 4.111527
-1.2816477 1.4245487 4.1313257
-0.41389644 1.4210597 4.1107359
-0.37440795 1.4264433 4.1289229
-0.34529662 1.4435946 4.1482496
0.3322407 1.4208343 4.1152821
-2.9686782 1.4765158 4.1111865
-1.3139918 1.4674993 4.1158228
-1.2758461 1.4721941 4.1384435
-0.46621853 1.4965004 4.1001182
-0.4260298 1.4686979 4.1190248
-0.3767243 1.4765265 4.1444855
0.33274207 1.4741844 4.1091185
-2.9774885 1.5167201 4.1126137
-1.3517538 1.5483779 4.1075797
-1.3245766 1.516722 4.116097
-1.290736 1.5196249 4.1389656
-0.46689236 1.5191938 4.1008239
-0.42737493 1.5247469 4.1188602
-0.37739781 1.5205309 4.1415558
0.33448786 1.5230949 4.1203904
-1.3259833 1.555464 4.1338353
-0.42870131 1.5811919 4.1182055
-0.37806261 1.554323 4.1409693
0.33626738 1.5725912 4.1315656
-3.0011208 1.6250274 4.1147866
-2.9678411 1.6283611 4.1309991
-2.9365139 1.62251 4.1441822
-0.45019513 1.6357578 4.1099682
-0.42687622 1.6293548 4.1304269
-0.39019608 1.623818 4.1424375
0.32992718 1.616793 4.1281438
-3.0112362 1.6788114 4.1124916
-2.9732823 1.6778018 4.1318421
-2.9323621 1.6870996 4.142498
-0.46260738 1.674371 4.1189842
-0.42259586 1.6806117 4.1374564
0.33910793 1.6693585 4.1438141
-3.0197182 1.7319717 4.1072679
-2.9837863 1.7321591 4.1298084
-2.9415665 1.7286587 4.1430979
-0.462749 1.7268404 4.1049695
-0.42304128 1.7241899 4.1298018
-0.39347741 1.7424445 4.1474977
0.33808446 1.7267475 4.1133542
-3.0096712 1.7799674 4.1095667
-2.9648077 1.783725 4.1343994
-2.9209137 1.7670159 4.1495528
-0.49524769 1.7522037 4.1069603
-0.43331793 1.7547807 4.1179838
0.33882898 1.7931155 4.1036334
-3.0142868 1.8280984 4.117003
-2.9744954 1.8260603 4.1346025
-2.9316266 1.8220785 4.1473098
0.33945811 1.8173394 4.1047769
-3.0167038 1.8661524 4.1064472
-2.9817295 1.8671196 4.1309605
0.3361325 1.886591 4.134624
-3.0218885 1.9260232 4.1186628
-2.9879944 1.927828 4.1451693
0.33137578 1.9310982 4.1328306
-3.0346401 1.9834086 4.1162186
-2.9812961 1.9806417 4.1407881
0.34365001 1.9773047 4.1103482
-3.0564163 2.0266397 4.1059294
-3.0162852 2.0245366 4.1248713
-2.9796159 2.0247343 4.1480203
0.34644672 2.0253603 4.1326942
-3.0216074 2.0652115 4.1164813
-2.986083 2.0662608 4.1415024
0.32638335 2.0652692 4.1384287
-3.0523491 2.1399384 4.106503
-3.0288868 2.1284902 4.1295724
-2.9872863 2.12538 4.146646
0.32727718 2.124589 4.1301064
-3.0661905 2.1996357 4.1024532
-3.0203638 2.181083 4.1204233
-2.9829996 2.1810479 4.1435742
0.31220543 2.1748343 4.1286488
-3.0303664 2.2258072 4.1169219
-2.9828494 2.241147 4.1353469
0.27619889 2.2417798 4.1337986
0.31763995 2.2182384 4.1122065
-3.021625 2.2661262 4.1123238
-2.9791489 2.2748356 4.1229682
-2.9245329 2.2836609 4.1409388
-0.10311285 2.2704995 4.1437459
-0.081311926 2.2682967 4.1401129
0.28688967 2.273402 4.1185994
0.30867875 2.2636471 4.123744
-2.9754324 2.308502 4.110249
-2.9317911 2.3151929 4.1289349
-2.8659134 2.3189371 4.1279216
-2.8197885 2.331562 4.1372209
-2.7648153 2.3412671 4.1200552
-2.7196522 2.3341923 4.1283703
-2.6811876 2.3327248 4.1459904
-2.6275859 2.3423109 4.12784
-2.5860193 2.3377728 4.1391091
-2.5111923 2.3490119 4.1358109
-2.4816005 2.3439069 4.138937
-2.4243178 2.3352265 4.1471963
-2.3822491 2.3415909 4.1163688
-2.3389289 2.3460195 4.1466622
-2.261873 2.3397288 4.104362
-2.2447999 2.3465621 4.1269569
-1.8103352 2.3457251 4.1178212
-1.7855066 2.3433018 4.1214972
-1.6350787 2.3480811 4.1242032
-1.5602814 2.3384211 4.1278095
-1.4625314 2.3273063 4.1338139
-1.4401355 2.3276103 4.1404691
-1.3758631 2.336937 4.1220384
-1.1382234 2.3216572 4.1225014
-0.89130431 2.3236785 4.129952
-0.61831415 2.3427043 4.1198893
-0.57859951 2.3370435 4.1302533
-0.52896953 2.3348541 4.1151462
-0.47557271 2.3404896 4.1300154
-0.42339787 2.3414855 4.1200504
-0.37266025 2.3423221 4.1251721
-0.32931474 2.3442743 4.1313934
-0.29876181 2.3476887 4.1073298
-0.23524228 2.3426731 4.1492338
-0.11076818 2.3259964 4.1393666
-0.074332111 2.3237317 4.135931
0.22340518 2.3210535 4.1352119
-2.5633187 2.3524578 4.116992
-2.1789637 2.3630791 4.1292276
-1.8671722 2.3594668 4.1255684
-1.8411731 2.3557775 4.1273608
-0.62901944 2.3637347 4.1077938
-0.34276852 2.3514004 4.1112995
-0.26677555 2.3531425 4.1185303
-0.22308832 2.3518062 4.118114
-0.17963603 2.3529727 4.1217375
-0.12514229 2.3521745 4.1218162
-0.067046285 2.3582747 4.1177678
-0.027142368 2.3624723 4.1175814
0.031728007 2.370182 4.126236
0.085637473 2.3743906 4.1298518
0.12517911 2.3719568 4.1091051
0.15758966 2.3688264 4.1028614
0.21240354 2.3525679 4.119894
0.22609435 -0.46198463 4.1909657
-0.054580424 -0.41739756 4.1534905
-0.024944505 -0.41061264 4.1864777
0.018484145 -0.42781416 4.1904087
0.24629347 -0.42198086 4.1948085
0.26515925 -0.40003785 4.1758914
-0.062742218 -0.3749541 4.1704941
-0.024915995 -0.37016356 4.184432
0.24626701 -0.36166453 4.1980019
0.27436817 -0.369001 4.165627
-0.064731024 -0.32906303 4.1725392
-0.026906719 -0.32402202 4.1854782
0.27293438 -0.32376939 4.1768951
-0.074566573 -0.2787689 4.1686702
-0.034964271 -0.27035236 4.1931267
0.27600041 -0.27486894 4.1645713
-2.732152 -0.21106184 4.1652503
-2.6975846 -0.20377047 4.1893969
-0.074541919 -0.22894299 4.1697431
-0.034968391 -0.22030602 4.1954918
0.27259478 -0.22352882 4.1758108
-2.7231412 -0.16914777 4.1605749
-2.6975112 -0.16969408 4.1903973
-0.11386161 -0.16839117 4.1509466
-0.074579529 -0.17922722 4.1730213
-0.034952544 -0.17014335 4.1950946
0.28412458 -0.1793334 4.1695361
0.30317283 -0.18874684 4.1562357
-2.7235112 -0.12387975 4.1623306
-2.6969728 -0.13559125 4.1904869
-0.11400265 -0.12891886 4.1569862
-0.074707456 -0.12965877 4.1814542
-0.034976348 -0.10013273 4.1993899
0.27281412 -0.1238042 4.1816912
-2.719559 -0.074801892 4.164794
-0.11395323 -0.079284213 4.1559482
-0.074650533 -0.079699509 4.1789227
0.27627483 -0.075709119 4.1739812
-2.71995 -0.037045922 4.1657596
-2.699918 -0.04479447 4.1964684
-0.11399756 -0.029700529 4.157969
-0.074752435 -0.029895298 4.1846271
0.27715865 -0.033144046 4.1677618
-2.7229283 0.023340838 4.1626472
-0.11896621 0.024858108 4.1584229
-0.074809894 0.020038558 4.1877456
0.27480248 0.020033913 4.1825161
-2.7237287 0.079983853 4.1632838
-0.12412249 0.079568028 4.1647296
-0.080504991 0.077086918 4.1859932
0.27696395 0.076018751 4.1844358
-2.7301631 0.12558445 4.1722484
-0.15348488 0.13876635 4.1503372
-0.12428755 0.12942958 4.169559
-0.084866524 0.13000929 4.1886492
0.27319044 0.12411498 4.187232
-2.7236683 0.1732879 4.1747556
-0.15368767 0.17864694 4.1547885
-0.12428924 0.17918092 4.1680388
-0.084961668 0.17016858 4.1922565
0.27687013 0.17591684 4.1811128
0.30304265 0.16892329 4.1547771
-2.7324066 0.21657595 4.1727171
-0.16364063 0.22829628 4.1538873
-0.12426986 0.22889283 4.1657038
-0.084885396 0.22001712 4.1873398
0.27828336 0.21994996 4.1807079
-2.7684431 0.29634136 4.1544991
-2.7317684 0.27333775 4.1691165
-0.15393718 0.27830955 4.1579189
-0.12646516 0.27511308 4.170527
-0.095034592 0.27042323 4.1912775
0.28455961 0.27952781 4.17206
-2.7651863 0.32717237 4.1630845
-2.736129 0.3349044 4.1800275
-0.86574578 0.34442693 4.1777482
-0.83337253 0.34360123 4.1718531
-0.15405849 0.32824582 4.1588163
-0.12280226 0.32380611 4.1795945
-0.095219642 0.32110462 4.1970901
0.28503758 0.33002645 4.1766739
-2.7694397 0.36469549 4.1517367
-2.731056 0.37868112 4.1755137
-0.95953745 0.38058734 4.1894374
-0.15909606 0.38311908 4.1573653
-0.12487574 0.37001297 4.1796589
-0.095233932 0.37131539 4.1950035
0.27874783 0.36718187 4.1808953
0.3035557 0.37816226 4.1527405
-2.772994 0.42211229 4.1528282
-2.7256079 0.42179766 4.1731544
-2.6797085 0.42170987 4.195137
-0.9684763 0.42325309 4.1872859
-0.66223001 0.41468257 4.1916418
-0.63559937 0.40052769 4.1525145
-0.16438165 0.42870912 4.1623783
-0.1249746 0.42030144 4.1795239
-0.095270187 0.42167234 4.1934576
0.28056377 0.4258281 4.179316
0.30438277 0.43905807 4.160183
-2.7648501 0.46821761 4.159739
-2.7182772 0.46802902 4.1813498
-2.6830022 0.45641175 4.1975427
-0.96691298 0.47598884 4.1843543
-0.61676961 0.48154804 4.1568904
-0.16667244 0.47542381 4.1665473
-0.12525752 0.471421 4.1856389
0.2860395 0.47165889 4.1824932
0.30444297 0.47907248 4.1580834
-2.8089783 0.52710974 4.1512995
-2.7703962 0.52628773 4.1627288
-2.7228065 0.52176082 4.1881342
-2.6894855 0.54888952 4.199235
-1.0121396 0.54950356 4.1609116
-0.96874386 0.5175373 4.1584125
-0.16275099 0.52358741 4.1648188
-0.12545381 0.52238452 4.1882291
-0.095545329 0.51347792 4.1989284
0.28613013 0.52196431 4.179884
0.30444843 0.52898121 4.1541877
-2.7766843 0.58473665 4.1662264
-2.7323194 0.57765234 4.1878257
-1.0555433 0.59172606 4.1610513
-1.0287538 0.58369076 4.1826496
-0.99649131 0.55210322 4.1839132
-0.64460135 0.56865311 4.1988192
-0.21459465 0.55925053 4.1578155
-0.17487353 0.57672024 4.1634908
-0.12563312 0.57342833 4.18993
0.28607517 0.57206678 4.1747656
0.30495793 0.56985015 4.1576586
-2.8175676 0.6435082 4.151268
-2.7790663 0.63108563 4.1645527
-2.7310019 0.6305421 4.1845717
-1.0549312 0.62195814 4.155611
-1.033801 0.62221116 4.1850624
-0.17276728 0.62396425 4.1686125
-0.13581017 0.61414194 4.1892185
0.27914381 0.62070405 4.1874228
0.30528617 0.6104809 4.15839
-2.8107712 0.6790843 4.1599474
-2.7820785 0.67477626 4.1716309
-2.7355602 0.67749143 4.1859822
-1.068596 0.67512727 4.1620207
-1.0448399 0.66934168 4.1961384
-0.61986214 0.66542614 4.1611128
-0.17550279 0.67249471 4.1693707
-0.13625479 0.67675221 4.1967745
0.2880218 0.6769954 4.193234
-2.8014359 0.71410573 4.1646757
-2.7736423 0.72784877 4.1768618
-2.7316449 0.72537118 4.1974101
-1.1000443 0.73701972 4.1524291
-1.0738208 0.72470403 4.1771002
-1.0363026 0.74266636 4.1967735
-0.63452303 0.71085387 4.1857057
-0.2149799 0.71031547 4.1501307
-0.17593481 0.72448665 4.1741209
-0.13647847 0.72845817 4.1980491
0.28802726 0.72752166 4.1877098
0.30578205 0.72174305 4.1534872
-2.8073006 0.7732532 4.1652851
-2.7749496 0.77386063 4.1866679
-1.1148963 0.77093154 4.1640644
-1.0764973 0.77285826 4.1818757
-1.0477121 0.764094 4.1969337
-0.21551627 0.77226186 4.1533723
-0.1765772 0.77759403 4.18325
0.28780502 0.77746058 4.178484
0.30613452 0.78278941 4.1510568
-2.8228087 0.82055116 4.1580505
-2.773401 0.81956446 4.1774487
-1.116192 0.82891929 4.1696858
-1.0800475 0.82712096 4.1889319
-0.62778908 0.83730328 4.1947384
-0.22325565 0.83977842 4.1648026
-0.17955099 0.82268965 4.1795182
0.28790119 0.81813097 4.1747694
0.30702293 0.8454513 4.1552563
-2.8338075 0.87012231 4.1668067
-2.7790551 0.86747557 4.1786313
-1.1202737 0.87793189 4.1702328
-1.082767 0.88099736 4.1922555
-0.21667701 0.87726068 4.162466
-0.17477381 0.87452263 4.1879463
0.28407389 0.87750638 4.1856995
-2.8505073 0.90652645 4.1621957
-2.8279216 0.91832572 4.1735735
-2.7872171 0.91638529 4.183126
-1.1281064 0.92265904 4.1687918
-1.096758 0.91511285 4.1998091
-0.25717273 0.94844949 4.1533413
-0.22725675 0.91965938 4.1656971
-0.18158749 0.92179376 4.1864228
0.28870785 0.92168248 4.1724553
0.3080149 0.94916046 4.1541815
-2.8513281 0.97649109 4.1508465
-2.815788 0.96462023 4.1706686
-2.7813396 0.96473044 4.1895838
-1.1520172 0.9611789 4.1546588
-1.1250545 0.97502345 4.1737652
-1.0920517 0.97793788 4.1929851
-0.2575393 0.98011434 4.1545553
-0.22776492 0.97233272 4.1671963
-0.18801476 0.97632074 4.1856523
0.28866559 0.96207106 4.1657495
0.30847839 0.9809314 4.1557255
-2.8580139 1.0253595 4.1516304
-2.8257747 1.0208194 4.1706409
-2.7834785 1.0315423 4.1925273
-1.1553522 1.0261503 4.1564512
-1.1222274 1.0321058 4.178762
-1.088124 1.0103312 4.1937408
-0.25773236 1.0212992 4.1511526
-0.22817411 1.024839 4.1667194
-0.18843675 1.0192107 4.1883307
0.29116124 1.0316856 4.1920094
0.30952355 1.0146942 4.1649408
-2.8687363 1.0993378 4.1528687
-2.831629 1.0751677 4.1737099
-2.7977648 1.0872756 4.1917381
-1.1651397 1.0667975 4.1588316
-1.1252098 1.0765491 4.1826091
-0.2686182 1.0749915 4.1542439
-0.23124199 1.0762858 4.1773267
-0.19252183 1.0774497 4.1941833
0.29078534 1.0711086 4.1797509
-2.8662674 1.1404152 4.1564331
-2.8223588 1.1282872 4.1807694
-2.7796509 1.1478446 4.199605
-1.1620749 1.136364 4.1619101
-1.1256626 1.1260188 4.1817179
-0.26990977 1.1311857 4.1654563
-0.2303158 1.1265342 4.1894989
-0.19965552 1.1166633 4.1937995
0.29114962 1.1235741 4.1759706
0.31006348 1.1282879 4.1528978
-2.8524075 1.184072 4.1579418
-2.8198328 1.1851294 4.1807632
-2.7809801 1.1718191 4.1964865
-1.2057087 1.1904111 4.1502419
-1.1776681 1.1832597 4.1701775
-1.1219007 1.1783174 4.179935
-1.0847006 1.1741375 4.1946077
-0.30024034 1.1811017 4.1508741
-0.27031007 1.1736258 4.1637726
-0.22877598 1.1742885 4.1908941
0.29296041 1.1819617 4.1924415
-2.8575704 1.2331663 4.1545115
-2.8270645 1.2352033 4.1805992
-2.7904942 1.2345963 4.1974487
-1.1730282 1.2289851 4.1684051
-1.1292181 1.2241356 4.1872568
-0.30623859 1.2305841 4.1539021
-0.27122039 1.2185458 4.1699138
-0.23139393 1.2245035 4.1919804
0.29334885 1.2143953 4.1920671
0.31181806 1.2471247 4.1547399
-2.8675468 1.2846069 4.1575255
-2.8315618 1.2842798 4.1758852
-2.7948461 1.2836075 4.1927376
-1.2100468 1.2575706 4.1522303
-1.1714298 1.2716478 4.170126
-1.1343412 1.2771816 4.1963902
-0.30183139 1.2794794 4.1543941
-0.27218291 1.2742513 4.1742382
-0.24197508 1.2774493 4.1860232
0.29347908 1.2766894 4.1814923
0.31280884 1.2921119 4.1594601
-2.8642449 1.335662 4.164381
-2.8165185 1.3354019 4.1894031
-1.2165121 1.3275261 4.160603
-1.176284 1.3191326 4.178266
-0.30292669 1.3354921 4.1584959
-0.27315441 1.3304083 4.1784444
-0.24314445 1.3353758 4.1953173
0.29391035 1.3301685 4.176744
0.3129465 1.3234682 4.1547089
-2.8668253 1.3821312 4.1646132
-2.822207 1.385453 4.1855249
-1.2209346 1.3773131 4.1655684
-1.1748682 1.3643078 4.1908526
-0.31584865 1.3751228 4.1576262
-0.27438846 1.3778046 4.1880136
-0.24376096 1.3698785 4.1991386
0.29573497 1.3799217 4.1935406
0.31320161 1.3553487 4.1513519
-2.8817968 1.4171931 4.1618381
-2.8248825 1.4322058 4.1857076
-1.2647381 1.4186319 4.1521535
-1.2248219 1.4320865 4.1667976
-1.1812856 1.4318256 4.1925697
-0.32002115 1.4200895 4.1623769
-0.28585726 1.4247296 4.1942196
0.2955831 1.4207132 4.1819267
0.31472296 1.423843 4.1573663
-2.9015288 1.4667015 4.1620908
-2.8739307 1.464775 4.1700153
-2.8400548 1.4676038 4.1832557
-1.2275544 1.4777751 4.1655364
-1.1778743 1.482126 4.1886764
-0.32718664 1.4755727 4.1765432
-0.27572143 1.4677746 4.1890192
0.29564536 1.4521211 4.1755095
0.31614256 1.4820921 4.1637435
-2.9099357 1.5187832 4.1601443
-2.8716993 1.5193716 4.167666
-2.8353508 1.5089736 4.1809301
-1.2624611 1.5239456 4.157793
-1.2238092 1.5289266 4.1804714
-1.1921041 1.5186467 4.19098
-0.32474595 1.5257127 4.172123
-0.28641194 1.5004175 4.1849103
0.29768816 1.5352719 4.1864309
0.31696838 1.5275441 4.1642962
-2.8825119 1.5711629 4.1781158
-2.8290937 1.5698863 4.1872749
-1.2763399 1.5598458 4.1574769
-1.2216983 1.5582767 4.1647577
-1.1946993 1.5648258 4.1888971
-0.36515689 1.5813793 4.1682167
-0.31921095 1.5810283 4.1851053
-0.28816336 1.5620117 4.1972961
0.29937473 1.5965011 4.1966343
0.31753555 1.5719388 4.161056
-2.9086049 1.6185484 4.1618171
-2.8673608 1.6258469 4.1801476
-2.8327188 1.6060419 4.1908703
-0.36653912 1.6172199 4.1625304
-0.32034516 1.628749 4.1889858
0.29926643 1.6274366 4.1867237
0.31840488 1.6388729 4.1557131
-2.9176617 1.6718136 4.1590748
-2.8699923 1.673759 4.1778064
-0.37243995 1.6688358 4.1695094
-0.3213737 1.6761208 4.1908216
0.3071315 1.6777525 4.1859207
-2.9160442 1.7278348 4.1552429
-2.8802969 1.7280939 4.1766353
-2.8443775 1.7282579 4.1973939
-0.37350267 1.7202595 4.1683526
-0.32229513 1.7232133 4.1908526
0.31083512 1.7175467 4.1776404
-2.9158626 1.7955462 4.1579933
-2.877099 1.78193 4.1796689
-0.41549098 1.7677968 4.1500487
-0.35307285 1.7502478 4.1687284
-0.32296723 1.7586126 4.1904459
0.31154862 1.7742157 4.1715813
-2.9130251 1.8256168 4.16958
-2.8783557 1.8267348 4.1930437
0.31569713 1.8272071 4.1649008
-2.9555261 1.8859116 4.1628885
-2.9233181 1.8687314 4.1708026
-2.8818882 1.8641214 4.194582
0.31114039 1.8703626 4.1898956
-2.9586592 1.9246955 4.1531706
-2.9207945 1.9239297 4.1732068
-2.8732502 1.9262123 4.1936173
-0.17999101 1.9330715 4.1896324
0.30465129 1.9240093 4.1826243
-2.9522889 1.9982277 4.1691246
-2.9283521 1.9767357 4.1746793
-2.8950222 1.9804256 4.191287
-0.17140533 1.9778348 4.1841688
0.31271702 1.9871613 4.1762271
-2.95667 2.025898 4.1652794
-2.918159 2.0248373 4.1849537
-0.16697782 2.0373583 4.1910152
0.28582561 2.0168247 4.1960764
0.31601661 2.0246992 4.1587601
-2.9653816 2.0690498 4.1621137
-2.9225571 2.0649929 4.176013
-2.8849258 2.0645683 4.1967592
-0.1677698 2.0795004 4.1994581
0.28697121 2.0682526 4.1977925
0.3065601 2.0759234 4.1609678
-2.9702327 2.109648 4.1531253
-2.9321487 2.1213927 4.1687431
-2.894063 2.1207147 4.1892872
0.28708532 2.1232202 4.1799445
0.30699411 2.121979 4.1511555
-2.9600568 2.1824737 4.1614676
-2.9173555 2.1784697 4.176106
-2.8776286 2.1766191 4.1943998
0.28097001 2.1826317 4.1783385
-2.9662049 2.2244873 4.1532388
-2.9258356 2.2347343 4.1658697
-2.8876657 2.2341399 4.1868639
-0.081571884 2.242902 4.1663966
0.27279127 2.2260165 4.1781592
-2.9150977 2.2735376 4.1585989
-2.8864269 2.2854946 4.1810279
-0.038038045 2.2868981 4.1502748
0.2469561 2.2608597 4.1950498
-2.8690894 2.3016331 4.1820412
-2.8231528 2.3196476 4.1793313
-2.7764623 2.3243136 4.1806893
-2.7448449 2.3310134 4.1783557
-2.6327276 2.3332539 4.173244
-2.5995221 2.3364866 4.1982913
-2.4267497 2.3370388 4.1833639
-2.3593051 2.3423064 4.1939116
-1.8236196 2.3397682 4.1584077
-1.7815769 2.3453741 4.1841822
-1.703169 2.3333364 4.1853166
-1.670989 2.3436913 4.1598649
-1.6436858 2.3375204 4.156045
-1.58255 2.3318229 4.1631517
-1.4211746 2.333565 4.1570783
-1.3885299 2.3358059 4.169878
-1.2521029 2.3365364 4.1514239
-1.1894296 2.3458052 4.1829829
-1.0926024 2.3316398 4.1762652
-0.61903143 2.3299699 4.1620049
-0.57619596 2.327585 4.1786904
-0.52399707 2.3284574 4.1771359
-0.46720344 2.3313713 4.1628799
-0.42415965 2.3365545 4.1756253
-0.38050199 2.3390126 4.1831598
-0.31920928 2.3399119 4.176405
-0.26894739 2.3392372 4.1657219
-0.22188479 2.3408766 4.1788015
-0.18122187 2.3407321 4.1719284
-0.14054793 2.3307707 4.1632833
-0.030982075 2.3335302 4.1699004
-2.3207176 2.3517985 4.1678991
-2.2984204 2.3535147 4.1817989
-2.2291732 2.3550694 4.1523981
-1.8833557 2.3565805 4.1718578
-0.66082692 2.3553374 4.1867442
-0.016447417 2.3567417 4.1790934
0.0055512954 2.3696489 4.1538868
0.082621902 2.3658848 4.1706753
0.12653798 2.3650842 4.1684151
0.17041628 2.3741426 4.1591797
0.20417316 2.3615239 4.1839309
0.18832068 -0.46796256 4.2464857
0.2074666 -0.46526325 4.2213812
0.033370513 -0.4151879 4.2122812
0.076003291 -0.42495835 4.2285495
0.10681477 -0.42683336 4.2467346
0.21765918 -0.42498183 4.2257695
0.025294719 -0.37276921 4.2139316
0.076028802 -0.37450451 4.2331963
0.1067548 -0.38596147 4.2468796
0.22776006 -0.37943941 4.2279654
-0.014964155 -0.30099699 4.2003279
0.025287084 -0.32219827 4.2141414
0.076080702 -0.32409456 4.2385879
0.23737623 -0.32306623 4.221395
-0.014981207 -0.27119985 4.2064419
0.025319623 -0.2721543 4.2211652
0.072745971 -0.2770144 4.2436118
0.23728614 -0.27249229 4.222115
-0.01497824 -0.22093898 4.2075038
0.025343481 -0.22193307 4.2265844
0.065980695 -0.22296058 4.2458377
0.23715687 -0.22189577 4.2217383
-0.014962323 -0.17052555 4.2045546
0.025364446 -0.17154281 4.2295866
0.065953448 -0.1722059 4.2455888
0.23754558 -0.17173158 4.2301469
0.26621771 -0.1706605 4.2026396
-0.023001412 -0.12448958 4.2098866
0.025354754 -0.12107755 4.2308955
0.065932505 -0.1316206 4.2451525
0.23745672 -0.12117108 4.2295547
-2.7030048 -0.067608073 4.2010555
-0.025011474 -0.070256263 4.2107701
0.025395744 -0.070698321 4.2369709
0.2372496 -0.07059513 4.2266712
-2.7043881 -0.02209449 4.2035332
-0.025033277 -0.030099615 4.2136965
0.01524972 -0.030219555 4.2306576
0.23759897 -0.030259378 4.233016
0.2666432 -0.020058859 4.2114878
-2.7032764 0.012060874 4.2017922
-0.025027664 0.020163992 4.2146158
0.02539634 0.020279834 4.2394357
0.23740955 0.02023807 4.2298083
-0.055042852 0.080245376 4.2016444
-0.025021173 0.070379831 4.2112322
0.025395272 0.070840344 4.2388391
0.23744856 0.070774354 4.2300563
-2.7113519 0.13768138 4.2125373
-0.055112019 0.12050164 4.206254
-0.025081867 0.12092701 4.2211814
0.015277165 0.12148595 4.241035
0.23758022 0.12132848 4.2315884
-2.7134359 0.16063848 4.2151375
-0.055088364 0.17060013 4.2032995
-0.025104281 0.17150214 4.2254548
0.011910995 0.17558248 4.2428513
0.24674144 0.17119801 4.213613
-2.7096767 0.21747324 4.2072792
-0.055135813 0.22096021 4.2053504
-0.025087664 0.22175242 4.2207518
0.013264773 0.22286479 4.24196
0.24799265 0.22267085 4.2334042
0.26656252 0.23133078 4.2059526
-2.7115288 0.27469936 4.2075334
-0.065204404 0.27131429 4.2056017
-0.025138192 0.27259678 4.2256894
0.011916146 0.27013087 4.2401719
0.24765393 0.27288055 4.2256813
0.26669097 0.27169514 4.2063904
-2.7142868 0.33211839 4.2086325
-0.91384822 0.34731928 4.2070189
-0.89249527 0.346955 4.2055449
-0.065304093 0.32202682 4.209496
-0.025155282 0.32343528 4.2281775
0.0051595946 0.32455596 4.2428384
0.24005969 0.3200551 4.2329621
0.26672697 0.32203928 4.2046056
-2.7126329 0.36619663 4.2038717
-2.672421 0.38327807 4.2218161
-0.92618078 0.37884006 4.2134628
-0.88879824 0.38034871 4.2362146
-0.065320626 0.3724789 4.2084417
-0.025229361 0.37494421 4.2366352
0.0051683756 0.3758972 4.247457
0.24858108 0.37534702 4.2363882
0.26758876 0.38365483 4.2148714
-2.6589723 0.42201763 4.2093554
-2.6259227 0.42217147 4.2273688
-2.5918045 0.42216486 4.2433968
-0.95776641 0.43040293 4.2094188
-0.92486107 0.4240343 4.2336321
-0.88944632 0.41147339 4.2373743
-0.065477118 0.42382011 4.2153087
-0.02728634 0.42198434 4.2379141
0.0051669921 0.40627345 4.2445769
0.24335822 0.42581832 4.2309384
0.26720208 0.41333821 4.2068901
-2.6706054 0.47209182 4.2079906
-2.6242266 0.46745244 4.2209663
-2.5783143 0.46735793 4.2415085
-0.95880747 0.47194999 4.2110038
-0.92849481 0.47142977 4.2386184
-0.68016493 0.47063464 4.2355766
-0.075546555 0.47425202 4.2115335
-0.025298672 0.47753406 4.241128
0.2488744 0.47733158 4.2346668
0.26747227 0.47431612 4.2069416
-2.6760762 0.52152282 4.209033
-2.6292171 0.52539569 4.223824
-2.5846639 0.52056915 4.2424898
-0.96443033 0.52625465 4.2316298
-0.94498551 0.52691853 4.2400532
-0.67046422 0.52223289 4.2362013
-0.069968089 0.52891749 4.218029
-0.035502966 0.52888125 4.2414422
0.24921888 0.52884787 4.2365427
0.26757625 0.52495402 4.2046208
-2.6797457 0.58351856 4.2038417
-2.6342216 0.58353525 4.2261543
-1.0019424 0.58595961 4.2039728
-0.97462541 0.5777722 4.2250409
-0.94726086 0.56959265 4.2466698
-0.66949707 0.57256514 4.2256832
-0.64686376 0.55027103 4.2153583
-0.07586953 0.57757878 4.2210751
-0.035572134 0.58084249 4.245306
0.24912988 0.57949114 4.2306652
0.26816303 0.57669514 4.2094965
-2.6810575 0.63345027 4.2146778
-2.6257424 0.62423134 4.2319078
-2.5997093 0.64060456 4.2355819
-1.0109072 0.63182646 4.2073355
-0.97584891 0.63013154 4.2253776
-0.94946134 0.64356309 4.2495708
-0.67211688 0.61587596 4.2384038
-0.64655197 0.61111063 4.2077246
-0.12111898 0.63137412 4.202177
-0.078452572 0.62606984 4.2189174
-0.035581652 0.62176383 4.2426119
0.24906728 0.62001038 4.2258043
0.26847002 0.64825952 4.2075257
-2.7060707 0.69018543 4.2094097
-2.6744895 0.67537308 4.2183118
-2.6378593 0.67885309 4.2453709
-1.0170585 0.6713773 4.2140989
-0.97791755 0.66250962 4.2310801
-0.6500898 0.65541446 4.2266569
-0.11623415 0.67778993 4.203619
-0.073167957 0.67643243 4.2232828
-0.035652477 0.67406815 4.2458692
0.24979581 0.65238774 4.2351451
0.25945508 0.68166798 4.2234979
-2.7083783 0.72528052 4.208488
-2.6728642 0.72499692 4.2237883
-2.6431801 0.72629464 4.2480826
-1.0183669 0.7240119 4.2137842
-0.97076863 0.73740488 4.2386532
-0.67401946 0.72054636 4.2395926
-0.11646902 0.71970791 4.2076578
-0.076243967 0.72303814 4.2277169
0.24340755 0.72842121 4.2347431
0.26897961 0.72053015 4.2078791
-2.7276938 0.77352905 4.2084217
-2.6810272 0.77334321 4.2303805
-1.0504638 0.78680384 4.2053642
-1.0217507 0.77824134 4.2215424
-0.9875536 0.78475183 4.2436395
-0.6531226 0.77163756 4.2336435
-0.12479012 0.77582443 4.2085438
-0.076483041 0.77634883 4.2347379
-0.035785682 0.78932667 4.2488308
0.26002768 0.77490181 4.2221198
-2.7272561 0.82392722 4.2147579
-2.6828883 0.81736732 4.2351155
-1.0520353 0.81908095 4.2076149
-1.0228686 0.82064176 4.2207918
-0.97859555 0.82565701 4.2432785
-0.6611762 0.81078213 4.2357316
-0.1271095 0.82444221 4.2124128
-0.076663323 0.82927364 4.2378774
0.26044235 0.82722431 4.2225366
-2.7285511 0.86975694 4.2193713
-2.6732702 0.87317795 4.2434592
-1.0540138 0.87257367 4.2084117
-1.0268105 0.87595528 4.2299271
-0.98702675 0.87762755 4.2448373
-0.65532303 0.88778692 4.2330308
-0.62982893 0.8605113 4.2055979
-0.12942185 0.87313002 4.2150784
-0.076852493 0.87228328 4.2424121
0.23122528 0.87330139 4.2437439
0.25837988 0.87410802 4.2158976
-2.7564077 0.9176811 4.2071295
-2.7238028 0.91840714 4.2281146
-2.6757824 0.91265988 4.2411251
-1.0725211 0.92820966 4.2050796
-1.027844 0.92899424 4.2265954
-0.9971019 0.9190684 4.2356296
-0.63334483 0.90651888 4.2232885
-0.15784015 0.93749082 4.2010427
-0.12573686 0.92492282 4.2211494
-0.082818933 0.92773932 4.2401977
0.26083884 0.93070328 4.2145538
-2.7607665 0.9656384 4.2056193
-2.7290645 0.9667418 4.2281952
-2.6930718 0.96632993 4.2438326
-1.0648274 0.96611881 4.2092466
-1.020588 0.97379273 4.2351775
-0.65977257 0.99774373 4.246253
-0.63552302 0.99232894 4.2253356
-0.15823688 0.97050267 4.206955
-0.12799288 0.97359794 4.2210865
-0.097737387 0.9783752 4.2423444
0.26516518 0.97843027 4.2224612
-2.7677839 1.0147225 4.2076859
-2.7237389 1.0156504 4.235292
-1.0685908 1.0281713 4.208622
-1.0324872 1.0275649 4.230803
-0.65768492 1.0153068 4.2295032
-0.17092685 1.0323765 4.207972
-0.13057533 1.0249317 4.230927
-0.098019913 1.0225146 4.2481022
0.27210134 1.0226612 4.2169948
-2.7665737 1.0911378 4.2071109
-2.722647 1.0717962 4.2288795
-1.1032193 1.0669369 4.2008705
-1.0734178 1.078979 4.2107544
-1.024981 1.0761305 4.2371507
-0.63878018 1.0597522 4.2368088
-0.16577061 1.0739986 4.2093468
-0.12677677 1.0770447 4.2334275
0.26095319 1.0767632 4.228231
-2.7642937 1.1323296 4.2113972
-2.7272055 1.1331071 4.2342687
-1.0751601 1.1227002 4.2100544
-1.0468249 1.126071 4.2281284
-0.63551587 1.116356 4.2043538
-0.16988154 1.123137 4.219039
-0.1398039 1.1296396 4.2442436
0.26632106 1.1271477 4.2172146
-2.7696686 1.1892818 4.207623
-2.7260742 1.1790613 4.2359552
-1.0607144 1.175895 4.2220216
-1.0322988 1.1861608 4.2486286
-0.20058453 1.173322 4.2038589
-0.17232174 1.1730515 4.2193632
-0.13297771 1.1752964 4.2389159
0.27316618 1.1646428 4.2089167
-2.7690282 1.2354895 4.2128296
-2.7353158 1.2361763 4.2333341
-1.1119008 1.2440056 4.2018809
-1.0720204 1.2290666 4.2220187
-1.032588 1.2182766 4.2436061
-0.62011135 1.2301664 4.2227707
-0.20132926 1.2293246 4.2095346
-0.16880083 1.2269808 4.2249708
-0.14001063 1.214336 4.2350669
0.27136937 1.2237076 4.2253499
-2.762568 1.2849972 4.2158408
-2.7225883 1.2904178 4.2419953
-1.1148803 1.2790606 4.2065153
-1.0734411 1.279129 4.2308021
-1.0347964 1.2527274 4.2462916
-0.64518589 1.2592705 4.2442946
-0.21204227 1.2730339 4.2087955
-0.17163523 1.2804009 4.2344427
0.26546788 1.2804401 4.2313576
-2.7674327 1.3344791 4.2115793
-2.7225296 1.3355842 4.2394295
-1.1238279 1.3290682 4.2139239
-1.0749485 1.3273551 4.2321734
-1.0242877 1.3282276 4.2488613
-0.21469513 1.3242157 4.2101173
-0.17531867 1.320132 4.2314267
0.27703694 1.3274918 4.2394342
-2.7750847 1.3855252 4.2110276
-2.7417281 1.3747302 4.2358718
-1.1634532 1.3816752 4.2002559
-1.1233587 1.3740028 4.21981
-1.0714378 1.3756914 4.2346849
-0.21693629 1.3822937 4.2153316
-0.17269553 1.3720737 4.2427282
0.27107638 1.376117 4.2172108
-2.781846 1.4363698 4.2085781
-2.7404144 1.4176283 4.2397389
-1.1671517 1.4180577 4.2061119
-1.1275544 1.4219003 4.2256331
-1.0747337 1.4227095 4.2377901
-1.043211 1.4341575 4.2431674
-0.26563054 1.4277813 4.2041564
-0.22482091 1.4335052 4.2226944
-0.17287844 1.4154553 4.2377853
0.27757108 1.4348178 4.2243547
-2.775893 1.4750961 4.2139096
-2.7364953 1.4593463 4.2392936
-1.1314427 1.4742665 4.217463
-1.0790018 1.4713155 4.2443705
-0.22524923 1.4782609 4.2210689
-0.18435 1.4757062 4.2477536
0.28539097 1.4846145 4.2260056
-2.8062065 1.5143247 4.2008944
-2.7707505 1.5144622 4.2202978
-2.7345171 1.5141678 4.2381582
-1.1824625 1.5389198 4.2065177
-1.1280701 1.524605 4.2207713
-1.0920315 1.5066866 4.2434211
-0.27431321 1.524291 4.209641
-0.23621264 1.5230739 4.2184057
0.28523386 1.5188283 4.2151375
-2.8129938 1.5538285 4.2004976
