ply
format ascii 1.0
comment PCL generated
element vertex 1489
property float x
property float y
property float z
element camera 0
property float view_px
property float view_py
property float view_pz
property float x_axisx
property float x_axisy
property float x_axisz
property float y_axisx
property float y_axisy
property float y_axisz
property float z_axisx
property float z_axisy
property float z_axisz
property float focal
property float scalex
property float scaley
property float centerx
property float centery
property int viewportx
property int viewporty
property float k1
property float k2
end_header
-1.2201463 2.3217435 3.9783163
-1.0776451 2.3264861 3.9792113
-0.96260947 2.3239319 3.9874604
-0.89609218 2.3402686 3.9805124
-0.80771923 2.3436565 3.9772673
-0.77003068 2.3339033 3.9736507
-0.73922443 2.3407741 3.9589136
-0.69779509 2.3445299 3.9711049
-0.52729243 2.3442888 3.9904215
-0.48129901 2.3491809 3.9573941
0.37764612 2.3316603 3.9723461
0.40631703 2.3220031 3.9627647
-2.5159349 2.3581145 3.9558535
-2.3981504 2.3585095 3.9544644
-2.2531641 2.3522563 3.9504251
-2.1920207 2.3608391 3.9969361
-0.83007246 2.3571165 3.9736993
-0.65813929 2.3551219 3.9945464
-0.63167983 2.3576672 3.9559293
-0.52443737 2.3528674 3.9595518
-0.46180412 2.3576732 3.9736001
-0.429914 2.3574951 3.9759743
-0.37263775 2.3662207 3.9769425
-0.32360318 2.3670423 3.977035
-0.28139481 2.3690355 3.9827962
-0.22738828 2.3698123 3.9640684
-0.17867823 2.3719494 3.9845915
-0.11658397 2.3812294 3.9755499
-0.068873934 2.3870554 3.974926
-0.030001963 2.3843477 3.9782505
0.03080203 2.3846321 3.9757133
0.083085112 2.3822353 3.9741793
0.12215358 2.3891034 3.97738
0.16992147 2.3836784 3.9782398
0.22785547 2.3844371 3.9660995
0.2703464 2.3748121 3.970479
0.32402453 2.3691823 3.980612
-2.9775012 -0.52910537 4.0151834
-3.0333548 -0.46250305 4.008316
-2.9942617 -0.49908274 4.011426
-3.0564308 -0.42180723 4.0130529
-0.31250623 -0.42314276 4.0103078
-0.27532837 -0.42515898 4.0312419
-0.2472713 -0.42673603 4.0474629
-0.16957869 -0.40712681 4.0492196
-3.0550182 -0.38736299 4.013957
-3.0446987 -0.36329246 4.00209
-0.32207224 -0.37501183 4.0124521
-0.27888229 -0.3805041 4.0387301
-0.15009339 -0.36811647 4.0495486
-0.12618671 -0.37764239 4.0268321
-3.0648961 -0.31987578 4.0317264
-0.35931739 -0.30662102 4.0000849
-0.32232252 -0.32717603 4.0183001
-0.28044236 -0.32399869 4.0409727
-0.13356815 -0.32841417 4.0406075
0.35140723 -0.31755447 4.0173864
-3.0434132 -0.28351542 4.005477
-0.35960451 -0.27809089 4.0046258
-0.3223919 -0.2791191 4.0215755
-0.27564943 -0.29019186 4.0435238
0.35314664 -0.28044653 4.0391178
-3.0047512 -0.21413043 4.0014181
-2.9641294 -0.22496061 4.0120468
-2.92313 -0.22064424 4.0397997
-0.36584774 -0.22365057 4.0047226
-0.32241455 -0.22137158 4.024066
-0.27880296 -0.21918805 4.0451431
0.3621037 -0.22198021 4.033103
-3.0039158 -0.15750107 4.0023599
-2.9681952 -0.16476695 4.0125294
-2.9295352 -0.17413777 4.0327477
-0.35908052 -0.15318112 4.003087
-0.32215571 -0.17309478 4.0221772
-0.2852256 -0.17402001 4.0458169
0.36142072 -0.17339672 4.0271564
-2.9688993 -0.12353488 4.0219593
-2.9403696 -0.12379546 4.0491209
-0.35897493 -0.12441729 4.0025325
-0.32264367 -0.12519117 4.0297046
-0.28540486 -0.12575121 4.0495071
0.36135003 -0.12517881 4.0274425
-3.006444 -0.078365937 4.0074978
-2.9714999 -0.078372598 4.0263066
-2.9334154 -0.078301072 4.04039
-0.35967469 -0.076662391 4.0110765
-0.32276881 -0.077032 4.0318441
-0.28522709 -0.096657999 4.047493
0.36176753 -0.077073991 4.0327344
-3.0042124 -0.033049308 4.0049782
-2.9675331 -0.033043951 4.0213795
-2.9229927 -0.03680497 4.0411167
-0.36601999 -0.031907257 4.0106702
-0.33221436 -0.028836232 4.0291929
0.36103114 -0.028825698 4.025177
-3.0014615 0.046116728 4.0011349
-2.9674985 0.02347856 4.0213275
-2.9205232 0.018914331 4.0406561
-0.36931491 0.019241614 4.0115147
-0.32812467 0.022078676 4.0299277
0.37026122 0.019264275 4.0198603
-3.0025764 0.080063775 4.0021429
-2.9699748 0.080072984 4.0240626
-2.9266567 0.083749332 4.045485
-0.37332267 0.079541728 4.0096297
-0.32549757 0.074824639 4.0355525
0.36301506 0.083216377 4.0105829
-3.0041666 0.125377 4.0032849
-2.9721067 0.12542097 4.0259819
-2.9338284 0.12521303 4.0398121
-0.37912461 0.12487765 4.0120749
-0.33268821 0.12545663 4.033639
0.36989617 0.12494978 4.0146084
-3.0176609 0.16718793 4.0053477
-2.9718366 0.17069547 4.0242338
-2.9341495 0.17045602 4.0388966
-0.36993966 0.1730603 4.0159669
-0.33537668 0.1702137 4.0415497
0.3702693 0.16350874 4.0177364
-3.0090997 0.2162552 4.0066648
-2.97405 0.21615054 4.0254521
-2.9401929 0.21613383 4.0454512
-0.37608394 0.22328988 4.0180464
-0.34354898 0.22271386 4.0445547
0.35375553 0.22292811 4.048111
-3.0108674 0.27308741 4.0061612
-2.9724443 0.27263412 4.0204597
-2.9406617 0.27283105 4.0433021
-0.37808678 0.27226835 4.0219936
-0.34391955 0.27138972 4.0469475
0.36408746 0.27430379 4.0311437
-3.0144203 0.34153333 4.0066586
-2.9747548 0.32953459 4.0201683
-2.9436653 0.31848532 4.044786
-0.41735044 0.32634321 4.0001073
-0.38051704 0.32772106 4.019289
-0.33593029 0.33319992 4.0415683
0.3728117 0.32922754 4.0386596
-3.0222659 0.38227355 4.0140953
-2.9834507 0.372655 4.0363507
-0.41789502 0.36520588 4.0031319
-0.38112152 0.37648919 4.022903
-0.34405369 0.37813818 4.0428848
0.37189871 0.37670493 4.0259943
-3.0532796 0.4346925 4.0068336
-3.0297444 0.41830158 4.0064206
-2.9868565 0.42190593 4.0296354
-2.9464238 0.42098683 4.0410333
-0.42414182 0.42640758 4.0060825
-0.37600523 0.42245322 4.0243979
-0.33961543 0.42228478 4.0451717
0.36836773 0.43135884 4.0371037
-3.0536437 0.46899682 4.0041409
-3.0243254 0.46797353 4.0095062
-2.9763191 0.46755436 4.0333943
-0.42313725 0.47054911 4.0090251
-0.37801528 0.4758901 4.0243006
0.36624956 0.47110412 4.0287609
-3.0589693 0.5270049 4.0052886
-3.0150201 0.52114618 4.0182934
-2.9714613 0.53031927 4.0316648
-0.5565542 0.50348938 4.0125928
-0.41968864 0.52120072 4.0090518
-0.37353256 0.52413046 4.0348811
-0.34536618 0.50609303 4.0491977
-3.0775416 0.57406819 4.0022659
-3.0291014 0.57771003 4.0220976
-2.9916954 0.58439779 4.0422516
-0.42316109 0.57816809 4.0141912
-0.37729836 0.57672888 4.0357199
-3.0704389 0.6208173 4.0095859
-3.0316675 0.63136756 4.0234947
-2.992666 0.63037169 4.0379925
-1.0378674 0.61014718 4.0064888
-0.41571224 0.62787002 4.0237451
-0.38485947 0.62381119 4.0420718
0.35513654 0.64210701 4.0344219
-3.0769944 0.69117296 4.0088935
-3.0273967 0.68010032 4.0247517
-2.9781711 0.67249155 4.0425715
-1.3114187 0.69836807 4.0008888
-1.272898 0.67416799 4.0170245
-1.2383925 0.66671896 4.0092297
-0.46536312 0.6837489 4.0094213
-0.4231858 0.67152697 4.0282321
-0.38554227 0.67372739 4.0440702
-3.0660546 0.72581166 4.0117555
-3.0170236 0.72505832 4.0359144
-1.3565775 0.74115252 4.0023103
-1.316219 0.73521018 4.0247545
-1.281543 0.71596831 4.0398612
-1.2393652 0.70273548 4.0434375
-0.58234996 0.74406964 4.0313878
-0.4710229 0.7286492 4.0109339
-0.42445707 0.72236365 4.0348077
-3.11025 0.7887435 4.0157838
-3.0656128 0.7717182 4.0041218
-3.0277698 0.76973164 4.0302739
-1.3591619 0.77267206 4.0059786
-1.3245929 0.77592951 4.0321708
-1.2865685 0.76717699 4.0495586
-0.46631685 0.77259058 4.0070567
-0.42534944 0.77278477 4.0372677
-3.1201713 0.8114931 4.0024796
-3.0769591 0.82077694 4.0113993
-3.0277343 0.81992048 4.0358543
-2.9891591 0.83032435 4.0494146
-1.4039888 0.82561809 4.0028191
-1.3779517 0.82286656 4.0164185
-1.3300585 0.82559937 4.0339403
-0.5008803 0.83668494 4.000308
-0.47331759 0.82981664 4.0178161
-0.42598313 0.82294011 4.0368576
-3.0808852 0.86809051 4.0085154
-3.0290177 0.86643475 4.029685
-2.9923639 0.85428268 4.0498619
-1.4061524 0.86720049 4.0030637
-1.3703787 0.87587345 4.0252624
-1.319754 0.87542981 4.0436468
-0.50232744 0.89764285 4.0033822
-0.47555226 0.87526304 4.013761
-0.43997002 0.87699479 4.0369797
-3.1002657 0.92825204 4.0006542
-3.0781059 0.91694784 4.0187812
-3.0332708 0.91119623 4.0351987
-1.4100322 0.93025267 4.0045829
-1.3781097 0.92112523 4.0284729
-0.56336862 0.92126369 4.013061
-0.51646942 0.92568403 4.0070224
-0.47344941 0.92565644 4.0222611
-0.43948752 0.92060441 4.0383897
0.37705523 0.92456925 4.0243363
-3.1157529 0.97949332 4.0114613
-3.0729904 0.96535832 4.0255928
-3.0343685 0.96413946 4.0421405
-1.4141573 0.97354203 4.0095148
-1.3768306 0.97582829 4.0288315
-1.3395786 0.98846447 4.0468426
-0.56560755 0.9741075 4.0212278
-0.52066702 0.97636777 4.0062976
-0.47679636 0.97358048 4.0266719
-0.44213223 0.97335696 4.0426669
0.37273595 0.98089015 4.0220098
-3.1158276 1.0144691 4.0043373
-3.077065 1.0131904 4.0215034
-3.0442266 1.0254996 4.0435028
-1.4274666 1.02652 4.0070229
-1.3797647 1.0288279 4.0285182
-1.341298 1.0305502 4.0449204
-0.56526095 1.0227118 4.010509
-0.51102597 1.0223975 4.0142403
-0.47414866 1.0261835 4.0322146
-0.44934219 1.0076481 4.0424304
0.37902817 1.0336118 4.0279784
-3.1145811 1.0880063 4.0099421
-3.0804827 1.0791657 4.0276246
-3.0495968 1.0739557 4.0407238
-1.4171588 1.0721906 4.0138516
-1.3740059 1.0730095 4.036438
-1.3452903 1.0847762 4.0476036
-0.57067579 1.0821521 4.0401773
-0.52290374 1.0757033 4.0124154
-0.48037735 1.0799967 4.0400095
0.37255454 1.0700846 4.0233574
-3.1067922 1.1244771 4.0144963
-3.0705853 1.1332861 4.0410094
-1.4248482 1.1239438 4.0135121
-1.3842922 1.1283287 4.040576
-0.52837253 1.12622 4.0147762
-0.48280579 1.1266086 4.0352125
0.37453669 1.1285944 4.0244017
-3.1152642 1.1745008 4.0142198
-3.0831811 1.1794622 4.0349946
-1.4514723 1.190308 4.0129251
-1.4257981 1.1771584 4.0188293
-1.3802176 1.176105 4.0422788
-0.56130528 1.1825453 4.0261168
-0.52024996 1.1796131 4.0197072
-0.48241389 1.1741034 4.0401096
0.37169966 1.1795478 4.0306692
-3.1123714 1.2366955 4.0185094
-3.0769184 1.2366008 4.040781
-1.4656274 1.2243685 4.01437
-1.4282725 1.2276108 4.0355291
-1.3884698 1.2292737 4.0383821
-0.56260794 1.2251503 4.0273261
-0.52252877 1.224632 4.0292873
0.38174537 1.2195555 4.0231791
-3.1120975 1.2813381 4.0144339
-3.0722048 1.2889122 4.0365801
-1.5006661 1.2999948 4.0011106
-1.4625801 1.2624034 4.0079474
-1.4219018 1.2723819 4.0402217
-0.55886519 1.2727344 4.0271559
-0.52390933 1.2677869 4.0315185
-0.49522465 1.2709837 4.0442867
0.37601885 1.258902 4.0257306
-3.1306088 1.3172728 4.0145173
-3.0742531 1.3324757 4.0439548
-1.4747558 1.3251649 4.0181909
-1.4266542 1.3235438 4.0343814
-0.55658472 1.3342063 4.0353041
-0.52661753 1.3245299 4.0413241
0.37649217 1.3135839 4.0193801
-3.1505802 1.3777488 4.0092111
-3.1313133 1.3604097 4.0196528
-3.0845842 1.3747336 4.0388198
-1.5104085 1.391506 4.0069542
-1.4700379 1.3874147 4.0225086
-1.4225221 1.3762096 4.0406981
-1.3895011 1.3951555 4.0498285
-0.55780828 1.377363 4.0348902
-0.52706194 1.3758317 4.0331788
-0.49840266 1.3798642 4.047658
0.37984285 1.3744382 4.024538
-3.1561165 1.4158645 4.0057554
-3.118993 1.4151629 4.0271883
-3.084686 1.4276252 4.0483475
-1.5132267 1.4253184 4.0064726
-1.4736437 1.4272674 4.0231414
-1.4236414 1.4293315 4.0424728
-1.3896729 1.4369793 4.0398717
-0.55898011 1.4205606 4.0337362
-0.53899801 1.4209772 4.0368557
0.37613454 1.4243006 4.0279388
-3.1721144 1.4708512 4.0115166
-3.1290021 1.4673947 4.0257516
-3.0894237 1.4655535 4.043859
-1.5082151 1.4617699 4.0155859
-1.474571 1.4761178 4.0267344
-1.4257085 1.4731889 4.0375223
-1.3953331 1.4742004 4.0481939
-0.56077218 1.4756624 4.0341039
-0.53360158 1.4615551 4.0383434
0.37412539 1.463029 4.0345249
-3.1686001 1.5167979 4.0085988
-3.1188221 1.5237989 4.0351086
-3.093679 1.5033491 4.0384278
-1.5102499 1.5264659 4.0039043
-1.4766924 1.5159489 4.0223851
-1.4310831 1.5207002 4.0414958
-0.56298566 1.5322142 4.036922
-3.2002323 1.5924104 4.0119243
-3.1617165 1.5851625 4.0098591
-3.1360571 1.5842992 4.0236235
-1.47342 1.5525966 4.0229702
-1.4350814 1.5565038 4.0441313
-0.56346846 1.5741454 4.0294847
-0.54454458 1.5781527 4.0416994
0.3703866 1.5829662 4.0389032
-3.2542644 1.6072147 4.0325565
-3.2051387 1.6310947 4.0056286
-3.1674716 1.6322685 4.0189829
-3.1288128 1.6208175 4.0345788
-0.56403375 1.6163967 4.0222569
-0.54690319 1.6361213 4.0450068
0.3893775 1.6282876 4.0100813
-3.2124393 1.6711211 4.0019722
-3.1712468 1.6805997 4.0159907
-3.1150737 1.6763346 4.0378022
-0.56747484 1.6671965 4.0350895
0.38176709 1.6696777 4.028801
-3.1868203 1.7311983 4.0117106
-3.1254284 1.7284865 4.0432258
0.37927106 1.7212834 4.0244565
-3.2218609 1.7676672 4.0058093
-3.1696188 1.7656677 4.0343928
-3.1278486 1.7747999 4.0472603
0.38454926 1.7844801 4.0273266
-3.2103815 1.8046076 4.0010767
-3.1798975 1.820244 4.0288944
0.38832006 1.8134332 4.021996
-3.2036467 1.8881209 4.01088
-3.1744266 1.8730576 4.0264492
-3.1493449 1.8604232 4.0469451
0.39047512 1.8717108 4.0286813
-3.2167809 1.9328108 4.0121231
-3.1742997 1.9293702 4.0301905
-3.1284587 1.9115348 4.048243
0.38857138 1.9169576 4.0317869
-3.2191377 1.9787216 4.0234241
-3.1737993 1.9735349 4.038218
-3.1395016 1.9674642 4.0423179
0.38963029 1.969059 4.0268483
0.40031779 1.9964476 4.0197568
-3.2272887 2.0209174 4.0175519
-3.1688304 2.0152113 4.0401077
0.37967315 2.0284457 4.0114698
-3.2225795 2.075459 4.0138164
-3.1808889 2.0725212 4.0337739
0.38298726 2.0881386 4.030921
-3.2237282 2.1216352 4.0224609
-3.1830125 2.1318789 4.0383077
0.37666187 2.1305909 4.0242276
-3.2341487 2.1660681 4.0180159
-3.1798773 2.175626 4.0413399
0.37437338 2.1726308 4.0237265
-3.2537165 2.2084248 4.0000768
-3.2198935 2.2248456 4.0149779
-3.1796939 2.211735 4.0334921
-3.1409338 2.2245729 4.0412583
0.260685 2.234359 4.0489049
0.37276718 2.2262056 4.0275607
-3.2141211 2.2684786 4.0035763
-3.1742506 2.268054 4.016634
-3.135272 2.2670002 4.0403051
0.23914012 2.2531054 4.0366268
0.34736043 2.2873204 4.0450201
0.36678776 2.275238 4.022265
-3.1338029 2.3034959 4.0199461
-3.0716112 2.3193004 4.024982
-3.0269859 2.3137269 4.0398006
-2.9742732 2.3265197 4.0304613
-2.7083037 2.3279238 4.0490594
-2.6244144 2.331425 4.0351405
-2.5050862 2.3464255 4.000443
-2.3602762 2.3438659 4.0041943
-2.2023294 2.3486831 4.0269523
-2.1106029 2.3474391 4.0046892
-1.6442189 2.3194957 4.0106473
-1.5386465 2.3227155 4.0231047
-1.4514976 2.3188004 4.0145969
-1.4320557 2.3230677 4.028151
-1.3850174 2.3183625 4.0319557
-1.3100331 2.3248708 4.0123758
-1.2730343 2.3173604 4.0075436
-1.2394966 2.315963 4.0130415
-1.1040391 2.3284976 4.0165963
-0.82561243 2.3318851 4.0248256
-0.77370214 2.3381109 4.0436721
-0.715976 2.3372068 4.0263157
-0.66109717 2.3441966 4.0219927
-0.55313772 2.3422644 4.0308361
-0.53206652 2.344079 4.0361257
-0.47870165 2.3459077 4.0442972
-0.44460747 2.3470914 4.0260234
0.34244725 2.3331227 4.0324564
0.36747339 2.3221407 4.0117149
-2.4396048 2.351759 4.0462165
-2.1684272 2.3603268 4.006433
-0.83533478 2.3504913 4.0085378
-0.64135528 2.3506415 4.0356712
-0.56408119 2.3752046 4.0167484
-0.47614634 2.3548708 4.0134902
-0.41178554 2.3540483 4.017406
-0.36941823 2.3566551 4.0249681
-0.32637489 2.3552141 4.0252752
-0.26766565 2.361763 4.0282269
-0.21959382 2.3686056 4.030581
-0.16600311 2.3790507 4.0273237
-0.12306604 2.3778045 4.0263362
-0.069612384 2.3802238 4.0314107
-0.026683971 2.3762331 4.0250359
0.026896343 2.3821547 4.0350518
0.08049567 2.3812981 4.0330877
0.12316626 2.377018 4.025033
0.1764424 2.3736665 4.0178552
0.22940278 2.3685136 4.0071373
0.27305359 2.3665633 4.0246992
0.31191799 2.3598666 4.0188255
-0.21877551 -0.42793527 4.0599608
-0.19000341 -0.41909385 4.0701771
-0.26690736 -0.36886775 4.0539484
-0.22868268 -0.36988181 4.0666261
-0.18170291 -0.37319902 4.0616736
-0.092008814 -0.38770118 4.0516787
-0.26679277 -0.33960038 4.0538406
-0.22859327 -0.32108405 4.0676789
-0.17317577 -0.33024064 4.0618792
-0.11191373 -0.32131323 4.0739794
0.32665715 -0.32166675 4.0709138
-3.0520644 -0.27497607 4.0617099
-0.27698004 -0.26240286 4.0642681
-0.22877924 -0.27263069 4.0731945
-0.17671262 -0.27568284 4.0720468
-0.1406046 -0.29106858 4.0602236
0.32905817 -0.27721205 4.0784082
0.35461017 -0.25247225 4.0570936
-2.8898036 -0.21408406 4.0645561
-2.8473773 -0.21433406 4.0935354
-0.26731911 -0.23331043 4.0666928
-0.22872411 -0.22391957 4.0745492
-0.1908654 -0.22516704 4.0985847
0.33044517 -0.22779523 4.0811949
-2.9145575 -0.15763406 4.0567842
-2.8946533 -0.16913088 4.0730085
-2.8451681 -0.16891822 4.0919676
-0.26647899 -0.17441435 4.0557542
-0.22855122 -0.17508358 4.0727267
-0.19054943 -0.1857 4.09305
0.33595458 -0.17517674 4.0700898
-2.9125464 -0.12359947 4.0548649
-2.8861327 -0.12345461 4.0622497
-2.8322277 -0.12720339 4.0893726
-0.26631671 -0.1258844 4.0544319
-0.22909635 -0.12672679 4.0834537
0.33704454 -0.12691037 4.0844526
-2.9123549 -0.078340009 4.0554399
-2.8843133 -0.082198612 4.0752845
-2.8244777 -0.078160636 4.0865369
-0.27464193 -0.073716626 4.0634584
-0.23471144 -0.08077497 4.0849004
0.33734837 -0.078141101 4.0888877
-2.909534 -0.021773091 4.0520163
-2.8772306 -0.036838263 4.065731
-2.8290253 -0.036826402 4.0860677
-0.30493081 -0.028991863 4.0519986
-0.2768912 -0.029101808 4.0684562
-0.23903784 -0.02922192 4.087369
0.33608502 -0.029159581 4.0739722
-2.9136097 0.046087775 4.0574627
-2.8854072 0.0234091 4.0624776
-2.8377414 0.017745189 4.0949178
-0.30481982 0.0097387526 4.050559
-0.27658036 0.01948542 4.0637403
-0.23924667 0.019606056 4.0910096
0.3368423 0.019586543 4.0831456
0.35462674 0.019484242 4.0621657
-2.9143038 0.068734862 4.0581527
-2.8856187 0.079870254 4.0621748
-2.8445094 0.079968065 4.0928812
-0.30565953 0.097121194 4.0609231
-0.27721396 0.077914603 4.0726748
-0.24133292 0.074339673 4.0926933
0.33733153 0.078261487 4.088583
0.35449421 0.068016887 4.0602894
-2.9126401 0.12525347 4.0546989
-2.884058 0.12908117 4.0737462
-2.8477278 0.12533128 4.096581
-0.3057059 0.12623475 4.0609922
-0.2778272 0.12682985 4.0807219
-0.24272804 0.13043399 4.0931916
0.33606046 0.12665339 4.0723643
0.35421228 0.12618895 4.056118
-2.9146237 0.17062755 4.0561104
-2.893615 0.17069712 4.071147
-2.8443708 0.17042854 4.0904312
-0.31041864 0.17958958 4.0575891
-0.27746156 0.17536741 4.0742068
-0.23957898 0.17614998 4.0941081
0.3371996 0.17594571 4.0849481
0.3543452 0.17475891 4.0564265
-2.9175856 0.2161082 4.0584812
-2.8980651 0.20499013 4.0761514
-2.8475895 0.20459121 4.093822
-0.31609172 0.22382811 4.0666208
-0.27802852 0.224511 4.0808344
-0.24281169 0.22177322 4.0920453
0.33785117 0.23503174 4.0909047
-2.9134202 0.26868924 4.0679245
-2.8974426 0.29567572 4.0707951
-0.31585163 0.27225795 4.0614967
-0.27820566 0.27348682 4.081584
0.33759642 0.27396137 4.0861807
0.35467783 0.25265244 4.0575418
-2.9508512 0.34200764 4.0531645
-2.9156914 0.33385429 4.0642648
-2.8981214 0.31843302 4.0703778
-0.31278253 0.31782934 4.0617752
-0.27865177 0.32283467 4.0857835
0.33729476 0.32262093 4.0801954
0.3548224 0.32078403 4.056015
-2.9526672 0.37635809 4.0532079
-2.9239342 0.37556398 4.0579891
-2.8855712 0.37926698 4.0782743
-0.31449977 0.3740764 4.0639768
-0.27152544 0.36957765 4.0867991
0.33294421 0.37209839 4.0844727
0.35513082 0.36971977 4.0567975
-2.9129539 0.42104462 4.0613728
-0.58455575 0.41277906 4.0783544
-0.31506586 0.43329549 4.0674796
-0.27934444 0.42169517 4.0900903
0.33806965 0.42133212 4.0836887
0.3558659 0.41923377 4.0620871
-2.9175072 0.46721494 4.0637445
-0.58212596 0.46975657 4.057147
-0.32701442 0.47858405 4.0668468
-0.28456306 0.46632347 4.091135
0.33882245 0.47138286 4.0892363
0.35548389 0.48692802 4.0527196
-2.9606204 0.51430482 4.0520105
-2.9283071 0.52562726 4.068656
-2.8986738 0.52273089 4.0542455
-0.58315539 0.54903293 4.0578189
-0.32507882 0.53067088 4.0690246
-0.27969736 0.52038568 4.0876646
0.33977959 0.52193844 4.0968666
0.35666516 0.52767628 4.062942
-2.9678502 0.58418965 4.0544133
-2.9304218 0.58353907 4.0698876
-0.58538234 0.58065444 4.0705824
-0.36587259 0.56610036 4.0545492
-0.32833675 0.57852387 4.074573
-0.27594623 0.56762642 4.0906305
0.33949295 0.57065183 4.0890718
0.3584339 0.57933468 4.0787063
-2.9705808 0.63051724 4.0526114
-2.9364128 0.63053215 4.0727468
-1.0594106 0.64289939 4.0875454
-0.58357036 0.60828465 4.0551295
-0.366763 0.62619036 4.0586925
-0.3313725 0.62623709 4.0772676
0.33973601 0.62033558 4.0872784
0.35808462 0.61800981 4.0709262
-2.9382143 0.67674685 4.0693688
-1.1045303 0.68615574 4.0942912
-1.0756629 0.66063607 4.0673275
-0.58996397 0.67445546 4.0933294
-0.36692214 0.6753931 4.0552711
-0.32675728 0.67490834 4.0805936
-0.29124725 0.66176289 4.0984244
0.34072229 0.67150253 4.0939822
0.35961396 0.67974401 4.0820971
-2.9787731 0.72980314 4.0657897
-2.9378183 0.71959847 4.0705237
-1.2669977 0.73725879 4.0597334
-1.2310199 0.7318182 4.065598
-1.178178 0.73852557 4.0854435
-1.1496192 0.74978679 4.096415
-0.58851194 0.73215574 4.0764465
-0.3775928 0.72605914 4.0587015
-0.33214051 0.7261067 4.0756783
-0.29145956 0.72154951 4.0947857
0.34125116 0.72200096 4.0947857
0.35901803 0.71797436 4.0708694
-2.974946 0.77201247 4.0617161
-2.925607 0.77110636 4.0838056
-1.266409 0.7818023 4.066257
-1.2238646 0.77218455 4.0909772
-1.1917588 0.77110529 4.0915236
-0.36922213 0.77817136 4.069273
-0.31935307 0.77547789 4.0897875
0.34141657 0.77184057 4.090775
0.36075249 0.77087039 4.0845451
-2.9701138 0.81394452 4.055943
-2.9272447 0.81755078 4.0788774
-1.2728962 0.82186514 4.0679727
-1.2378412 0.82552028 4.0947194
-0.37518123 0.8281489 4.0659995
-0.32746905 0.81958449 4.0866838
0.34170595 0.82199669 4.0878582
0.36135164 0.82161045 4.0849447
-2.9711633 0.87000322 4.0726824
-1.2772145 0.87555254 4.0744119
-1.2399347 0.8779434 4.0943418
-0.41519228 0.87336856 4.0533242
-0.3681705 0.87669712 4.0764127
-0.33242503 0.85372275 4.0940585
0.34302756 0.87489867 4.0967932
0.3606233 0.87922502 4.0684905
-3.0042369 0.91557986 4.0556374
-2.9682312 0.91516191 4.0744371
-2.9302227 0.92565459 4.0879045
-1.3604546 0.93787074 4.0520778
-1.3211056 0.92867726 4.06739
-1.2725439 0.93045193 4.086462
-1.2432849 0.93149447 4.0975924
-0.41485435 0.93376005 4.0575891
-0.37264061 0.92454618 4.0875888
0.3422249 0.92242908 4.079977
0.36027604 0.91787732 4.0587544
-3.0095768 0.96360403 4.0540862
-2.9703898 0.9698531 4.0719509
-2.9377215 0.9859879 4.0874577
-1.3181157 0.97318774 4.0622411
-1.2757502 0.9737947 4.0901423
-1.2450511 0.96356279 4.0985079
-0.41732493 0.98345327 4.0580306
-0.37578285 0.97348887 4.0872498
-0.33401024 0.95753556 4.0988779
0.34306464 0.97441626 4.0822639
0.36061466 0.9681412 4.054913
-3.0207431 1.0254098 4.0574431
-2.9809568 1.0328068 4.0776958
-2.9441652 1.0230019 4.0895166
-1.3133942 1.0281584 4.0681133
-1.2775604 1.016227 4.0890088
-1.2483104 1.0277444 4.0988569
-0.42140177 1.0216669 4.0593095
-0.38414297 1.0281206 4.087626
0.34459168 1.0286821 4.092268
0.36208779 1.0217001 4.0633345
-3.015852 1.0860524 4.0611897
-2.9697666 1.0862194 4.0898156
-1.3259156 1.076721 4.0714726
-1.2835219 1.0666814 4.092659
-0.45176259 1.0726887 4.0538774
-0.42310789 1.0756092 4.0670638
-0.37871528 1.0716345 4.0867829
0.34474668 1.0791042 4.0854607
0.36215129 1.0714958 4.0554409
-3.024859 1.1361008 4.0628128
-2.9753759 1.1350513 4.0872016
-1.3575644 1.1165634 4.0571141
-1.3215599 1.1213851 4.0702386
-1.2786195 1.1231462 4.0951028
-0.57652509 1.1233077 4.0760689
-0.45357317 1.1268332 4.0610251
-0.42481083 1.1299121 4.0742817
-0.39596805 1.1231593 4.0899673
0.34459764 1.128587 4.0746264
-3.029355 1.1846933 4.0578427
-2.9819615 1.1844536 4.0853872
-2.9435663 1.1948164 4.0987921
-1.3553314 1.1753386 4.0616298
-1.3287184 1.1732154 4.0760469
-1.2756865 1.1676027 4.0913663
-0.57584506 1.1620539 4.0636315
-0.46102229 1.1787456 4.0579677
-0.42584473 1.1727483 4.0765343
-0.39018431 1.179387 4.0898037
0.34537411 1.1711566 4.0761976
-3.0543401 1.2487333 4.0537748
-3.0269718 1.2295052 4.0674882
-2.9828968 1.2372342 4.0820198
-1.3643651 1.2253979 4.0563846
-1.3200952 1.2280731 4.0799398
-1.2869273 1.2165241 4.0945735
-0.47269678 1.2275798 4.0584531
-0.42845401 1.2205527 4.0728793
-0.39649025 1.2049539 4.0799155
0.34746066 1.2285981 4.0908093
0.36451137 1.228277 4.0532494
-3.0568063 1.2733096 4.0509782
-3.0220861 1.2853292 4.0704656
-2.9703224 1.283301 4.0923872
-1.3713155 1.2734168 4.056201
-1.3239092 1.2776188 4.0817437
-1.2726724 1.2782511 4.0954752
-0.57742637 1.28579 4.0500088
-0.46661177 1.2748433 4.0589976
-0.42870465 1.2815495 4.0833974
-0.39982778 1.2961049 4.0974317
0.34876138 1.2837526 4.0956244
0.36535525 1.2811613 4.0521317
-3.0257185 1.3318826 4.0716004
-2.9793048 1.334385 4.0923705
-1.3751326 1.3184928 4.0580721
-1.3285899 1.323823 4.0867839
-0.5791055 1.3197615 4.0551214
-0.47817495 1.3192772 4.0625553
-0.4237791 1.3234248 4.0863132
0.34817261 1.3219376 4.079968
0.3669253 1.3369355 4.0584903
-3.0524259 1.3999276 4.0589228
-3.0316863 1.3689337 4.0742378
-2.9766235 1.3858428 4.0991101
-1.3709688 1.3706911 4.0681825
-1.321166 1.368614 4.0886574
-0.58165193 1.3660728 4.0637541
-0.47640732 1.3674459 4.0664787
-0.43066221 1.3684864 4.0840487
0.34904206 1.3657293 4.081068
0.36800793 1.3912942 4.0589018
-3.0604262 1.4273771 4.0626731
-3.0219367 1.414142 4.0842619
-1.3674178 1.4253883 4.0674057
-1.3362446 1.4153018 4.0903006
-1.2930788 1.4034504 4.0985036
-0.51091272 1.4269915 4.0566077
-0.47003326 1.4258311 4.0756516
-0.44259831 1.4249611 4.0879207
0.34907663 1.4265703 4.0672426
0.35074705 1.4028903 4.0939574
-3.0689511 1.4671246 4.0633507
-3.035567 1.4682447 4.0887299
-1.3695557 1.4802543 4.072494
-1.3426418 1.4747658 4.0965714
-0.50899023 1.4750341 4.0576148
-0.47302675 1.4755527 4.0723267
-0.44413286 1.4809594 4.0896158
0.35107487 1.4754474 4.0805693
-3.0703268 1.5234271 4.0647807
-3.0333948 1.5128975 4.0803356
-2.9990165 1.5274816 4.0914283
-1.4057825 1.5379064 4.0644112
-1.3816345 1.5265796 4.0775247
-0.52764803 1.5231017 4.0628061
-0.47545397 1.5240827 4.082871
0.36128095 1.5163935 4.0702868
-1.4092364 1.562804 4.0685682
-1.3933737 1.5687099 4.0892167
-0.51656717 1.5758125 4.0674405
-0.48210946 1.580265 4.0820427
0.36591434 1.5658474 4.0724435
-3.0785251 1.6277354 4.0668001
-3.0298951 1.6192961 4.0920606
-0.52399123 1.6290081 4.0635366
-0.4792152 1.6185515 4.0930409
0.36180568 1.6235228 4.073657
-3.0740116 1.6801878 4.0782175
-3.0341096 1.6781293 4.095964
-0.5501104 1.6868616 4.0568829
-0.52627444 1.6773335 4.0695295
-0.49116611 1.6757165 4.0913129
0.35552323 1.6796644 4.0826082
-3.0809639 1.7324433 4.0703301
-3.0432978 1.7316422 4.0914431
-0.56173819 1.721868 4.056489
-0.52193582 1.7266097 4.0715561
-0.49331105 1.7349771 4.093996
0.36527485 1.7185084 4.0642238
-3.1004138 1.7729807 4.0589638
-3.0867143 1.7790496 4.0885291
-3.0495234 1.7715693 4.0867143
-0.55240279 1.755867 4.0552368
0.3672635 1.7795036 4.0705853
-3.1304367 1.8198234 4.0605049
-3.0754936 1.8161565 4.0838923
-3.0360539 1.8265616 4.0984421
0.36870632 1.8280075 4.0735698
-3.1169462 1.8768455 4.0622354
-3.0821922 1.8673648 4.083662
0.36479461 1.8761301 4.0746651
-3.1208618 1.9332525 4.0635967
-3.0848188 1.9270833 4.0822148
0.38072476 1.9401474 4.0558028
-3.1250052 1.9861495 4.0665126
-3.0851545 1.9842715 4.0867224
0.3691093 1.9733549 4.0750456
-3.11695 2.0259075 4.0645037
-3.0808306 2.0264761 4.0898061
0.36366364 2.0238547 4.0778298
-3.1275022 2.0699651 4.0621443
-3.0800197 2.0726631 4.0872498
0.34456694 2.0674052 4.0912609
0.36411983 2.0792093 4.0637569
-3.1547437 2.1295905 4.0508595
-3.1176417 2.1310225 4.0659423
-3.0785408 2.1185997 4.0833969
0.34456077 2.1203501 4.0714836
0.36434883 2.1122119 4.05446
-3.1207902 2.1804521 4.0673442
-3.0777943 2.1877367 4.0888324
0.3470057 2.1781638 4.0840015
-3.1276183 2.2114649 4.0544376
-3.0758543 2.2226071 4.0789995
0.34263238 2.227247 4.0790715
-3.101589 2.2823215 4.0643473
-3.0795584 2.2736216 4.0753665
-3.0260351 2.2850392 4.0814571
-2.9878378 2.2969272 4.0980973
0.26350835 2.2800791 4.0839725
0.33443603 2.2678947 4.0740371
-3.1006813 2.3067288 4.0508642
-3.0018239 2.3134708 4.055367
-2.9778419 2.3141291 4.0723052
-2.925667 2.3370183 4.0875754
-2.8856478 2.3370965 4.0751829
-2.7476599 2.3408256 4.0575538
-2.6184175 2.3126924 4.0626745
-2.5716202 2.3379848 4.0790114
-2.3658144 2.3491695 4.0767455
-2.316076 2.3468065 4.0950561
-2.1743319 2.3453424 4.0931993
-1.5142403 2.3252716 4.0617456
-1.4356267 2.32459 4.0825253
-1.3310484 2.3398769 4.086638
-1.125958 2.3295531 4.063673
-0.87073988 2.3446434 4.0890322
-0.82074475 2.3272104 4.065382
-0.73281509 2.3240647 4.0723834
-0.60262167 2.346148 4.0796762
-0.5692246 2.3427644 4.0772758
-0.5245415 2.3369865 4.071559
-0.48087895 2.3349771 4.0720382
-0.42780185 2.3404472 4.0860581
-0.36096165 2.3499062 4.0603757
-0.23101993 2.3436248 4.0565281
0.24252413 2.3065565 4.0848241
0.27876878 2.330822 4.0787663
0.31575173 2.3235385 4.0733681
-2.1425078 2.3595576 4.0763249
-0.86534446 2.351896 4.0542135
-0.60098493 2.3614438 4.0592093
-0.5776968 2.3548024 4.050148
-0.41526845 2.3523531 4.0607462
-0.38295558 2.3526113 4.0635757
-0.32938129 2.35533 4.0717878
-0.27513942 2.3532352 4.0711327
-0.2108292 2.3582273 4.0826783
-0.17819241 2.3665042 4.0748277
-0.12406335 2.3646755 4.0731492
-0.073748969 2.3695614 4.0747161
-0.026960436 2.3758435 4.0704231
0.027104741 2.3804395 4.0782828
0.080805987 2.3689957 4.0581651
0.12420207 2.3747098 4.0671444
0.17828077 2.3772762 4.0700316
0.22139008 2.3691454 4.0700622
-0.087155126 -0.36877763 4.1308413
0.30085415 -0.3549358 4.1173925
-0.094139263 -0.33717093 4.1488905
0.28304094 -0.32756516 4.1478405
0.30126673 -0.32582518 4.1246028
-0.16212368 -0.25557876 4.1149702
-0.12138321 -0.27251121 4.1337013
-0.094000287 -0.28715259 4.1451545
0.28249538 -0.29720667 4.1412911
0.30545068 -0.27084291 4.1168761
-2.8122206 -0.2142666 4.1100264
-2.7655232 -0.21418948 4.1315808
-0.16228028 -0.22629513 4.1200123
-0.12684204 -0.22414255 4.1417933
0.31089211 -0.21702445 4.1257248
-2.8216205 -0.16887449 4.1028194
-2.7735748 -0.16873722 4.1224523
-2.7307014 -0.15759933 4.149518
-0.166527 -0.17434642 4.122642
-0.12851419 -0.17305799 4.1437073
0.31060147 -0.1773874 4.1231103
-2.8109741 -0.12368886 4.1110258
-2.7718728 -0.12140928 4.1302338
-0.17186046 -0.12770899 4.1167345
-0.13339557 -0.12847865 4.1426606
0.31048587 -0.12805811 4.1229315
-2.7722318 -0.078317784 4.1224852
-0.21056131 -0.068520993 4.1036739
-0.1721411 -0.078695402 4.1244335
-0.13346094 -0.079090886 4.145452
0.31110421 -0.078916155 4.1316986
-2.8195832 -0.021840742 4.1023774
-2.775759 -0.033179797 4.1281643
-0.21073525 -0.029365998 4.1073427
-0.17236011 -0.029514475 4.1297202
-0.13353492 -0.029638506 4.1481524
0.32109222 -0.029586352 4.1327147
-2.8142767 0.029077254 4.1170349
-2.7763281 0.027163424 4.1365218
-0.21064244 0.019657478 4.1055279
-0.17238824 0.019764448 4.1302576
-0.13344322 5.356847e-05 4.1453619
0.31492424 0.019748945 4.1173186
-2.8166487 0.080098465 4.1199479
-2.7689984 0.080014616 4.1401787
-0.21565954 0.083420731 4.1071343
-0.17492193 0.07648167 4.1313834
0.31249204 0.074973196 4.1236076
-2.81668 0.12544437 4.1190715
-2.7694962 0.12533759 4.1400127
-0.21743329 0.12436355 4.109076
-0.17657557 0.13036755 4.1345701
0.32022685 0.12810069 4.1202531
-2.8150325 0.17068136 4.1153584
-2.7847142 0.17088415 4.1386766
-0.21097052 0.17676461 4.1093841
-0.17823495 0.17486705 4.1324649
0.31280547 0.17370197 4.1259546
-2.852628 0.22763976 4.1001081
-2.8146873 0.2229517 4.1173582
-2.7718778 0.22275762 4.1357775
-0.21811777 0.22975571 4.1189523
-0.18282057 0.22748172 4.1384311
0.32609311 0.22287911 4.1085091
-2.8574848 0.27347407 4.1048417
-2.8212061 0.27757081 4.1152048
-2.7742932 0.27306819 4.1415725
-0.25032818 0.28485239 4.1054411
-0.22577643 0.27310926 4.1202292
-0.18294781 0.27710667 4.1392546
0.31745633 0.27306953 4.1228843
-2.8607054 0.33066916 4.1061583
-2.826298 0.33061153 4.1241279
-2.7785358 0.33030665 4.1446652
-0.25050676 0.32435715 4.1064463
-0.22167481 0.32532781 4.1197586
-0.19281949 0.32652175 4.1358814
0.31556949 0.32381228 4.1387515
-2.8603861 0.36475098 4.1034169
-2.8257403 0.37603527 4.1202083
-2.7894974 0.37572509 4.1351318
-0.25059092 0.3932876 4.103868
-0.22185268 0.37494293 4.1204433
-0.19316429 0.37667862 4.1404891
0.31204394 0.37647876 4.1331925
-2.8686366 0.42284745 4.110898
-2.834398 0.42281395 4.1293478
-2.795892 0.42214823 4.141161
-0.61530578 0.44037685 4.149972
-0.25088209 0.42327321 4.1066937
-0.2225094 0.42549568 4.1294537
-0.19360846 0.42719322 4.1468506
0.32085359 0.42447561 4.1152053
-2.8696835 0.4686386 4.1084704
-2.8339498 0.46837249 4.1248198
-2.7933931 0.46728644 4.1336174
-0.25900221 0.47689658 4.1065812
-0.22288674 0.47581157 4.1329236
-0.19370042 0.46715754 4.1459951
0.31238002 0.47597632 4.1308999
-2.8638756 0.53089005 4.1122627
-2.8197172 0.52280939 4.1346869
-1.0234476 0.54471344 4.1212754
-0.98696315 0.54682416 4.1439075
-0.25149196 0.52296126 4.10919
-0.22316182 0.52598822 4.1340857
-0.19408014 0.53777051 4.1485677
0.31255698 0.52589011 4.1294336
-2.8611443 0.58030033 4.1152205
-2.8169911 0.58362526 4.1341333
-0.61395156 0.59916943 4.1275129
-0.251636 0.58251154 4.1062841
-0.22668874 0.57613796 4.1334743
0.32248333 0.57543826 4.1242042
-2.8563435 0.63049263 4.117692
-2.8235331 0.63080883 4.1384344
-0.2719917 0.62344617 4.1112041
-0.22396503 0.62746876 4.1397257
0.313936 0.62782311 4.1382651
-2.8635061 0.67798823 4.1222382
-2.828593 0.67785263 4.1401215
-1.0971807 0.69426799 4.1464052
-0.59333277 0.67831147 4.1166692
-0.26716718 0.67789078 4.118978
-0.22434945 0.67842442 4.1415982
0.31814554 0.67605484 4.1229424
-2.9237428 0.71596271 4.1122565
-2.8705735 0.72569203 4.126195
-2.8334062 0.72499353 4.1410236
-1.1509703 0.73038268 4.1037292
-1.1229769 0.72739649 4.1322637
-0.59429884 0.7193737 4.1188898
-0.26338652 0.72591847 4.1208868
-0.22451204 0.72884345 4.1390557
0.31408101 0.72786427 4.1296296
-2.8643396 0.77313346 4.13344
-1.1742294 0.78785628 4.1186132
-1.141274 0.7781921 4.1408763
-0.2732645 0.77552688 4.1138458
-0.23458242 0.76902378 4.1352034
0.31894958 0.77240115 4.1223478
-2.8658755 0.81969464 4.1285639
-2.825572 0.81801307 4.1390343
-1.2112963 0.82826895 4.114645
-1.1742549 0.83097243 4.1362557
-0.59785825 0.84428972 4.1282978
-0.27419069 0.82805723 4.1214404
-0.23551698 0.82222748 4.1452732
0.31517828 0.83042145 4.1314206
-2.9381642 0.8702051 4.1092248
-2.8729925 0.86798131 4.1313152
-2.8356247 0.86714721 4.1463175
-1.2192639 0.87339133 4.1108398
-1.1734122 0.87138015 4.1275063
-1.1464158 0.87423903 4.146934
-0.59953278 0.87689692 4.1356363
-0.32388794 0.87735343 4.1093616
-0.2749728 0.87042242 4.1276326
0.32107398 0.87223023 4.1242771
-2.8726661 0.91150445 4.1312566
-1.2187051 0.92334265 4.1139932
-1.1848533 0.93275988 4.1401119
-0.32279152 0.92379713 4.1146955
-0.27595615 0.92370307 4.134974
0.31624991 0.92361003 4.1327267
-2.8708367 0.96364605 4.1349201
-2.8482835 0.9638474 4.1485586
-1.2251594 0.9796325 4.1174173
-1.1814059 0.98052347 4.1397228
-0.35481328 0.99984896 4.1012979
-0.32162902 0.97362852 4.1092625
-0.27621013 0.97481388 4.1311917
0.31967139 0.970653 4.1262436
-2.9250956 1.0360866 4.1063499
-2.8688519 1.0289019 4.1384764
-1.2261696 1.0175174 4.114604
-1.1834477 1.0235701 4.1399903
-0.35555339 1.032001 4.1048536
-0.32627627 1.0244646 4.1181493
-0.28009501 1.0229677 4.1386375
0.31895489 1.0222147 4.1264935
-2.9299054 1.0844008 4.1033802
-2.8722508 1.084585 4.1370721
-1.2582517 1.078122 4.1051402
-1.2245981 1.075122 4.1218987
-1.1903654 1.0716727 4.1368265
-0.35578069 1.0627294 4.1023355
-0.32689044 1.0766866 4.1172357
-0.29117301 1.0709101 4.1374097
0.31794906 1.0749415 4.1313601
-2.9414239 1.1354578 4.1092739
-2.8768976 1.1306523 4.1423306
-1.2559681 1.1374462 4.1050105
-1.2263393 1.1283827 4.1181574
-1.1921096 1.1284314 4.1393971
-0.36946219 1.1239204 4.1099529
-0.32785666 1.1202292 4.1221585
-0.29934075 1.136957 4.1460848
0.31864884 1.1228579 4.1323247
-2.9429779 1.1711664 4.1034603
-2.8801565 1.1975974 4.1485534
-1.2207114 1.1743656 4.1282821
-0.36378312 1.172667 4.1176195
-0.32940301 1.1762298 4.1320586
-0.29961026 1.1684654 4.1440949
0.31899992 1.1746577 4.1272235
-2.9526381 1.2454751 4.1000381
-2.9499388 1.2208695 4.1020403
-2.8825409 1.2338333 4.1436472
-1.2688518 1.2276394 4.1122556
-1.2212868 1.2238885 4.1314225
-0.37569746 1.2278453 4.1153002
-0.32061544 1.2253348 4.1414928
0.31986076 1.2286534 4.1285276
-2.9395845 1.2734623 4.1224508
-2.8898363 1.2840614 4.1425767
-1.2750332 1.2806334 4.1030645
-1.2323017 1.2692012 4.1237092
-0.40702689 1.2637705 4.1087232
-0.37054974 1.269515 4.1181068
-0.32546741 1.2779745 4.1411467
0.32259902 1.2632762 4.1122737
-2.9385691 1.3319453 4.1058011
-2.8956823 1.3338521 4.1388741
-1.2706289 1.3286072 4.1155734
-1.224494 1.3182887 4.143189
-0.40228876 1.3448359 4.1137137
-0.37165496 1.3242396 4.1194053
-0.33540988 1.3217944 4.1366944
0.32589522 1.3239492 4.1212254
-2.953805 1.3980559 4.1110082
-2.9495778 1.3724021 4.1116538
-1.2747201 1.3748561 4.1191049
-1.2392666 1.3926182 4.1473331
-0.40275282 1.3769813 4.1115284
-0.37361744 1.3824553 4.1298141
-0.33562389 1.3759286 4.1454897
0.32188287 1.3743687 4.1250496
-2.9731112 1.4253304 4.1076202
-1.3139541 1.4249468 4.1136117
-1.2706679 1.424041 4.1321559
-1.2402549 1.4254086 4.1430125
-0.41351074 1.4197497 4.106957
-0.37419915 1.4256417 4.1266875
-0.34417892 1.4286354 4.1372566
0.33240709 1.4317856 4.1148963
-2.982785 1.4657055 4.1105947
-1.3162485 1.4739881 4.1141505
-1.2748393 1.471027 4.13519
-0.41506544 1.4661467 4.1125975
-0.37602022 1.4737642 4.1367087
-0.34584752 1.4665538 4.1498933
0.3336347 1.4781432 4.1201692
-2.9723117 1.5140851 4.105463
-1.3528223 1.5496018 4.1108265
-1.3243287 1.5248954 4.1130066
-1.2820683 1.5142025 4.1363492
-0.42727041 1.5209161 4.1186538
-0.37913814 1.5254283 4.1362939
0.33440062 1.5227085 4.1192837
-1.3653208 1.5730112 4.1081715
-1.3164293 1.5567467 4.1396985
-1.2962351 1.5580949 4.148108
-0.46815029 1.5644587 4.1011429
-0.4265171 1.5749378 4.1244097
-0.37857449 1.5666853 4.143487
0.3297106 1.5742291 4.1363068
0.35462838 1.5623372 4.103467
-3.0004387 1.6366864 4.109901
-2.9804068 1.6184627 4.1192741
-2.9336638 1.6209469 4.1401324
-0.4573282 1.6297191 4.1134934
-0.42162409 1.6350901 4.1395903
0.33690923 1.627459 4.1255465
-3.0091124 1.6776286 4.1095905
-2.9696071 1.6757212 4.1267405
-2.9342866 1.6882069 4.1452169
-0.46214825 1.6726704 4.1147957
-0.42271543 1.6810668 4.1385818
0.33806106 1.6746033 4.1280823
-3.0173097 1.7305892 4.1039925
-2.9779544 1.7287745 4.1217403
-2.9421344 1.7290096 4.1438923
-0.46372065 1.7200713 4.1167631
-0.4235056 1.7260493 4.134244
0.33287656 1.7218318 4.1393723
0.35794973 1.722249 4.1014409
-3.0112669 1.7809068 4.1117435
-2.9670286 1.7866882 4.1280236
-2.9373646 1.7817726 4.1442971
-0.46467486 1.7549235 4.1159039
-0.42340779 1.7570331 4.1240258
0.33952895 1.7758827 4.1184697
0.35939038 1.7708578 4.1055036
-3.0234396 1.814123 4.1099129
-2.9776065 1.8279836 4.1389704
-2.9253516 1.8181785 4.138433
0.34137768 1.8381208 4.1246834
0.3612076 1.8426455 4.1067729
-3.0577018 1.8886346 4.1089063
-3.0272622 1.8727064 4.1208048
-2.9805832 1.864872 4.1390271
0.33588707 1.8852181 4.1315861
-3.0638685 1.9293258 4.1026344
-3.0217986 1.9259493 4.1185188
-2.9691141 1.923543 4.1432948
0.33327618 1.9255918 4.1314321
0.36303577 1.936177 4.1000276
-3.0529864 1.9749932 4.1217422
-3.0242445 1.9846556 4.1265116
-2.9817348 1.9809281 4.141397
0.33432364 1.9742026 4.1302948
-3.0586352 2.0157444 4.1140676
-3.0203812 2.0272772 4.1304464
-2.9775586 2.0233364 4.1451564
0.33514783 2.021579 4.1256075
-3.0614545 2.0547352 4.1021986
-3.0262821 2.0684109 4.1228404
-2.9846277 2.0652494 4.1394854
0.32058141 2.0731945 4.1293516
-3.0543108 2.1413138 4.1091423
-3.0241632 2.1251633 4.123095
-2.9842038 2.1231959 4.1423755
0.31674594 2.1260264 4.1335139
-3.0606582 2.1707153 4.1064582
-3.0229332 2.1829247 4.1239324
-2.9830751 2.1811004 4.1436806
0.31942993 2.1769922 4.1224856
-3.027072 2.2233834 4.1124358
-2.9809043 2.2396955 4.1326594
0.2759043 2.239445 4.1294794
0.31433603 2.2274625 4.1133151
-3.0508306 2.2567213 4.1080413
-3.0184693 2.25125 4.1139512
-2.9724448 2.2812333 4.1180892
-2.9437306 2.2763929 4.1487918
-0.10316464 2.2716291 4.1458321
-0.081314191 2.2683482 4.1402321
0.28715584 2.275521 4.1224155
0.30856729 2.2844815 4.1134677
-2.9620073 2.3211837 4.1003222
-2.9331121 2.316262 4.1308155
-2.8707275 2.3202827 4.116066
-2.7803741 2.3316267 4.1238232
-2.7444935 2.3344538 4.1150603
-2.699141 2.337677 4.1481156
-2.6213987 2.3367953 4.1181202
-2.5909948 2.3313112 4.1213303
-2.5231919 2.3489218 4.129487
-2.4875007 2.3494794 4.1487775
-2.3878384 2.347085 4.1260266
-2.3207512 2.3397558 4.141078
-2.2938159 2.3482599 4.1085458
-1.7270875 2.3419249 4.1382933
-1.6534829 2.3418784 4.1061935
-1.5640031 2.3439989 4.1376553
-1.5200354 2.3401542 4.1157923
-1.4855114 2.3392072 4.1237297
-1.3733844 2.3326864 4.1145344
-1.3380104 2.3297107 4.1178155
-1.1469499 2.3279088 4.1067772
-0.90101647 2.3223875 4.1426611
-0.88589263 2.3337693 4.1161361
-0.61719352 2.3385246 4.1125407
-0.57464558 2.3321671 4.1300316
-0.52955019 2.3373508 4.119545
-0.47537312 2.3395073 4.1282821
-0.4206655 2.3391814 4.1321282
-0.37581772 2.3429563 4.1181312
-0.32673034 2.3426647 4.1207051
-0.28880888 2.3444366 4.1259437
-0.10891302 2.3324022 4.1348701
-0.076049089 2.3276486 4.126946
0.22363636 2.3234482 4.1394935
0.28705049 2.3180501 4.1031079
-2.2643895 2.3546243 4.1358151
-2.2076623 2.3559072 4.1013656
-1.7310592 2.3546762 4.1064081
-1.6166275 2.3543904 4.1423135
-1.417493 2.3501213 4.1364765
-0.62998825 2.3673754 4.1141205
-0.26675799 2.3529229 4.1181459
-0.22313088 2.3522494 4.1188908
-0.17969029 2.3538518 4.1232777
-0.13604216 2.3523846 4.1219449
-0.059709467 2.3589385 4.1111336
-0.030789709 2.3675551 4.1185012
0.022964578 2.3702683 4.1264315
0.081755891 2.3752456 4.1156144
0.12520817 2.3727145 4.1104183
0.16532366 2.3687465 4.1182327
0.21347129 2.3645573 4.1408911
0.21626434 -0.46246332 4.1956429
-0.064590782 -0.41795024 4.1588907
-0.021604119 -0.41384384 4.1851521
0.011801277 -0.42147255 4.194159
0.24627866 -0.44206601 4.1932416
0.2656177 -0.40072951 4.1831112
-0.062598035 -0.37812406 4.1611991
-0.026934605 -0.3764247 4.1872077
0.0051023578 -0.3810004 4.1931372
0.27463996 -0.3693634 4.1696382
-0.070686415 -0.32700247 4.1718378
-0.029969705 -0.31558546 4.193306
0.26551074 -0.32042918 4.1858463
-0.068943135 -0.27615243 4.1720071
-0.024927851 -0.27027082 4.1919794
0.27467906 -0.26955783 4.175252
-2.7174799 -0.21489476 4.1734142
-0.11390599 -0.23784225 4.1504078
-0.074504375 -0.22881289 4.1673331
-0.034932151 -0.22006486 4.1911445
0.27304921 -0.22390893 4.1827393
0.30285007 -0.23817581 4.1501937
-2.7120481 -0.17172317 4.1757965
-0.11398566 -0.18841006 4.1549277
-0.074588031 -0.17923462 4.17312
-0.028262049 -0.16676061 4.1940956
0.27677971 -0.17573857 4.1797385
-2.725184 -0.12393936 4.1649017
-0.11394005 -0.12884428 4.1547041
-0.071864292 -0.12537655 4.1819277
-0.03494034 -0.1200358 4.194716
0.27298066 -0.12390137 4.1843252
-2.7250986 -0.07862325 4.1655579
-2.6956446 -0.06742397 4.1896162
-0.1138825 -0.079239525 4.1533685
-0.077151507 -0.077208392 4.1787014
0.27913594 -0.079655819 4.1719432
-2.7206886 -0.035603058 4.1730433
-0.1139724 -0.029693028 4.1570511
-0.074669413 -0.029859766 4.1803374
-0.03495007 -0.039991457 4.1968508
0.27515075 -0.029950006 4.1876903
0.30291978 -0.029723655 4.1553769
-2.7605965 0.00071906019 4.1511188
-2.7261384 0.023363268 4.1675658
-0.12201673 0.023875717 4.1610675
-0.084766068 0.02001849 4.1853294
0.27699405 0.024069522 4.1852636
0.30267221 0.019899901 4.1519647
-2.7193663 0.082319357 4.170404
-0.15347162 0.09912543 4.1507411
-0.12399179 0.079472221 4.160008
-0.077237599 0.077403173 4.1837745
0.27652651 0.075878963 4.1778936
0.3026135 0.099248871 4.1504011
-2.7198374 0.12313553 4.1703124
-0.15347068 0.11893914 4.1503649
-0.12409208 0.12921622 4.1626706
-0.084737934 0.12981123 4.1823864
0.2730478 0.12404367 4.1852012
0.30299079 0.12917131 4.1550169
-2.7633231 0.17094803 4.1523352
-2.7244515 0.1733382 4.1759691
-0.15361214 0.18846351 4.1524692
-0.1243666 0.17928421 4.1707044
-0.084938817 0.17013511 4.1912742
0.2771664 0.17610261 4.1853576
0.30305302 0.19872825 4.1540518
-2.731725 0.21652532 4.1716762
-0.15371329 0.22827774 4.153883
-0.12443908 0.22921711 4.1716733
-0.085019767 0.22036816 4.1937218
0.28492081 0.22992226 4.1793809
0.30363667 0.22897756 4.1610279
-2.7675707 0.29624796 4.1531897
-2.7334397 0.27347875 4.1716609
-0.15388036 0.27821317 4.156384
-0.12446746 0.27910277 4.1704669
-0.089973196 0.28025866 4.1885748
0.27910057 0.26739073 4.1910553
0.30306599 0.29807791 4.1503048
-2.7338929 0.33038419 4.1691532
-0.86838299 0.34547609 4.190474
-0.84841567 0.34561509 4.1949463
-0.16390879 0.32808384 4.1565008
-0.12473381 0.32962373 4.1768937
-0.08836782 0.32051721 4.1896586
0.27563164 0.32071984 4.1868577
0.30357867 0.33838636 4.1553154
-2.7696438 0.37610042 4.1512356
-2.7253139 0.37622777 4.1761136
-0.95851964 0.38018385 4.185009
-0.16411074 0.37824652 4.1587052
-0.12466107 0.36934972 4.1722169
-0.088487886 0.37448296 4.1927333
0.28517276 0.37016732 4.1764488
0.30366904 0.37830347 4.1542912
-2.7624977 0.4222427 4.1600132
-2.7146535 0.42186296 4.1795397
-0.97136021 0.42740986 4.1766086
-0.64215171 0.42488599 4.1939945
-0.16418049 0.42818585 4.1573081
-0.1251355 0.42085788 4.1850104
-0.095286272 0.42172965 4.1941662
0.27809668 0.42163244 4.1878815
0.30391425 0.42842883 4.1544542
-2.7657619 0.46836996 4.1611032
-2.7213874 0.46855527 4.1861439
-0.97217178 0.47862166 4.1764021
-0.62509578 0.47609845 4.1672921
-0.16875565 0.48172045 4.1612592
-0.12535384 0.4717873 4.1889081
-0.095474392 0.46279424 4.1996737
0.28586543 0.47137225 4.1799488
-2.7699654 0.52620739 4.1620693
-2.7215292 0.52564126 4.181066
-2.6879516 0.52574551 4.1990962
-0.96825981 0.51726788 4.1563358
-0.61945623 0.50379479 4.1734157
-0.17063574 0.52731884 4.1619787
-0.12535955 0.52200228 4.1851759
0.28614816 0.52201861 4.1801457
-2.7758322 0.584562 4.1649761
-2.7324018 0.58503646 4.191865
-1.0539789 0.5806731 4.1558456
-1.027706 0.58309895 4.1784353
-0.62887776 0.57373518 4.1620741
-0.21442741 0.58874732 4.1518402
-0.17501755 0.57050627 4.1673317
-0.12900479 0.57011914 4.1905017
0.27982357 0.57635283 4.1815753
0.30462703 0.5792169 4.1522241
-2.7790582 0.63108468 4.1645632
-2.7348702 0.63143432 4.190485
-1.0562713 0.62276727 4.1608887
-1.0410695 0.62591028 4.1852822
-0.62114811 0.62639731 4.173912
-0.17531036 0.62160528 4.1697903
-0.13598377 0.62501782 4.1935754
0.28575638 0.62153339 4.1653757
-2.7782345 0.68071193 4.1712766
-2.7326679 0.67388844 4.1898189
-1.0680134 0.68016309 4.1676087
-1.0419282 0.65720326 4.185554
-0.62060654 0.68641245 4.1639276
-0.17546523 0.67234397 4.1683931
-0.13616166 0.67628825 4.1939054
0.28616616 0.67264009 4.1662178
0.30514708 0.6602248 4.1514578
-2.7774851 0.72536236 4.1736741
-2.7277634 0.73582333 4.1899018
-1.1020244 0.72809774 4.1611223
-1.077301 0.73329955 4.1756878
-1.0427229 0.73990518 4.179451
-0.63422656 0.71050984 4.1836786
-0.17603256 0.724796 4.1759686
-0.13636941 0.72787452 4.194695
0.28246781 0.72122562 4.1812239
0.3056584 0.70141095 4.1540751
-2.8176103 0.77293026 4.1573596
-2.7683425 0.77201462 4.1766939
-2.7322948 0.77158076 4.1920114
-1.1145022 0.77066284 4.1626177
-1.0766773 0.77299148 4.1825485
-1.0468097 0.77375847 4.1920261
-0.61757356 0.77172846 4.179997
-0.21558103 0.77249759 4.1546197
-0.17643058 0.77689654 4.1795235
-0.13657771 0.77959806 4.1950946
0.28767073 0.77709651 4.1765351
0.306104 0.78271133 4.1506429
-2.8049455 0.81870419 4.1548424
-2.7746177 0.81993771 4.1792831
-1.1251433 0.82676876 4.1650047
-1.0796221 0.82678413 4.1872621
-1.0494981 0.80676442 4.1988354
-0.62703538 0.8159014 4.1923904
-0.21630304 0.8254208 4.1621056
-0.179635 0.82302147 4.1811056
0.28743795 0.82686871 4.1667233
0.30641752 0.80360329 4.1523504
-2.8126559 0.86716115 4.1588707
-2.7814066 0.86819994 4.1821747
-1.1185739 0.87659317 4.1638789
-1.0845221 0.87617254 4.1856251
-0.6500268 0.88061196 4.1988196
-0.62472594 0.85353929 4.1715231
-0.22666502 0.8769362 4.1605978
-0.18063082 0.87849933 4.1859899
0.27898058 0.88250095 4.1850162
-2.8334951 0.91639543 4.158474
-2.7767637 0.91755086 4.1810608
-2.7486038 0.90350199 4.1971974
-1.164996 0.92265058 4.1550717
-1.1266491 0.91732657 4.163981
-1.0942287 0.92337811 4.1885595
-0.22914405 0.92520046 4.1623826
-0.17778911 0.92517132 4.1922889
0.28801188 0.91946816 4.162396
-2.8170416 0.96504927 4.1725268
-2.7842283 0.96573478 4.1939349
-1.1528727 0.97224259 4.1560726
-1.1254821 0.97539616 4.1753688
-1.0883923 0.98162949 4.190805
-0.60417455 0.95477897 4.157135
-0.22557636 0.97570169 4.1637449
