ply
format ascii 1.0
comment PCL generated
element vertex 1509
property float x
property float y
property float z
element camera 0
property float view_px
property float view_py
property float view_pz
property float x_axisx
property float x_axisy
property float x_axisz
property float y_axisx
property float y_axisy
property float y_axisz
property float z_axisx
property float z_axisy
property float z_axisz
property float focal
property float scalex
property float scaley
property float centerx
property float centery
property int viewportx
property int viewporty
property float k1
property float k2
end_header
-1.2639542 -0.51351249 1.5725543
-1.228934 -0.5150128 1.5752361
-1.177724 -0.51068085 1.5699768
-1.1219432 -0.50926083 1.5797906
-1.0761464 -0.50972843 1.5825248
-1.0225731 -0.50542819 1.5730426
-0.98167372 -0.50245303 1.5621719
-0.93025512 -0.50240409 1.56802
-0.86293048 -0.50252926 1.5659626
-0.82904959 -0.50151187 1.5758426
-0.77028573 -0.50150871 1.5696535
-0.73231751 -0.50176853 1.5652118
-0.67330766 -0.5031386 1.5702956
-0.62497181 -0.50480211 1.5734061
-0.57319367 -0.50619096 1.5774891
-0.52716106 -0.50694281 1.5720582
-0.47140968 -0.5078333 1.5713359
-0.42161718 -0.50785726 1.573796
-0.37363234 -0.50745469 1.5695709
-0.32755896 -0.50966072 1.5801526
-0.27517492 -0.50872755 1.5719712
-0.22622755 -0.51103461 1.5723815
-0.17472535 -0.51050133 1.5741709
-0.12328491 -0.51021022 1.5765638
-0.075880013 -0.51055437 1.577479
-0.025203865 -0.50857031 1.5720108
0.026462553 -0.50934875 1.5759782
0.075932994 -0.50977522 1.5772856
0.12816164 -0.50903809 1.5775276
0.16943377 -0.50455815 1.5714068
0.48528641 -0.52455407 1.5654519
0.5213837 -0.53123444 1.5731289
0.57547969 -0.53256172 1.5779041
0.62635815 -0.52980304 1.5732855
0.67551738 -0.52235872 1.5757622
0.72273856 -0.50968766 1.5741465
-0.97212553 -0.49716347 1.5782416
-0.92272907 -0.49658006 1.5766716
-0.87315589 -0.49719006 1.5822941
-0.80938131 -0.49853754 1.5856934
-0.77374268 -0.49752167 1.5728472
-0.7147733 -0.49908701 1.5800622
-0.68765891 -0.49951923 1.5824485
0.18690026 -0.47643363 1.5874119
0.22087929 -0.4805828 1.571637
0.25374883 -0.49573618 1.5595326
0.73953515 -0.47759995 1.5790968
0.75541186 -0.46276659 1.5581874
0.18428034 -0.42487317 1.5873511
0.20655097 -0.42580166 1.561982
0.46780917 -0.40254506 1.5764791
0.74473017 -0.4327068 1.5896211
0.75823736 -0.42249799 1.5679464
0.18934253 -0.38049343 1.5872239
0.21124944 -0.36871061 1.5666462
0.43543258 -0.35914156 1.5712322
0.74919707 -0.37670496 1.5962305
0.76176274 -0.37407157 1.5708838
0.23502181 -0.33562946 1.5790558
0.26520464 -0.31446266 1.5695288
0.42221001 -0.32286218 1.5728374
0.74746966 -0.33526018 1.5990634
0.76280254 -0.32459089 1.5720177
0.28553 -0.28009549 1.5801828
0.3050935 -0.26105708 1.5688754
0.39437434 -0.27004549 1.5547923
0.41293386 -0.2766065 1.5802593
0.76499718 -0.27347273 1.5726863
0.29680634 -0.2365867 1.5972407
0.31252354 -0.22432797 1.5717667
0.38817844 -0.22207013 1.5584072
0.41056824 -0.22397879 1.5878258
0.76284277 -0.22247046 1.5763477
0.2958667 -0.16237624 1.5982081
0.31607533 -0.17529529 1.5708585
0.38724566 -0.17578875 1.5590614
0.40958706 -0.17307864 1.5843374
0.74946427 -0.18875122 1.5997677
0.76480919 -0.17432585 1.5733196
0.32610351 -0.12483986 1.5713426
0.38248399 -0.13146269 1.5556666
0.42006046 -0.12318502 1.5743079
0.47657013 -0.11753187 1.5739688
0.51187694 -0.10976455 1.5882416
0.76369214 -0.12485512 1.5756824
0.33701557 -0.081472591 1.5820301
0.36965331 -0.070812114 1.5594893
0.42714745 -0.073964499 1.5620928
0.46256664 -0.075045757 1.5852158
0.53210115 -0.079851769 1.5818421
0.55454934 -0.055170003 1.5911237
0.76281458 -0.076747455 1.5746907
0.34938771 -0.042414747 1.5931647
0.37644061 -0.026803734 1.5760596
0.42334798 -0.02507804 1.5596964
0.46204013 -0.026021073 1.5730929
0.76222843 -0.028168863 1.5745795
0.38615245 0.016646108 1.5893863
0.4238106 0.022349752 1.5742694
0.46958476 0.026183212 1.5822961
0.53468257 0.046404246 1.5581863
0.74595088 0.037657 1.5955827
0.7610113 0.023379451 1.572075
0.43169519 0.064501077 1.592169
0.4722009 0.068996623 1.5935482
0.53923368 0.054192945 1.5590231
0.74649042 0.08250989 1.5894517
0.76086885 0.074688561 1.5673314
0.48601013 0.11329022 1.5852852
0.74344957 0.10605273 1.5920218
0.75845957 0.10937409 1.5739285
0.48750252 0.19042076 1.5717098
0.56310606 0.19766511 1.5831569
0.97679788 0.18462193 1.5773916
1.0042024 0.17610076 1.5574813
1.2875704 0.1871845 1.5647459
1.3027081 0.18490084 1.5730432
0.39348024 0.223175 1.5763834
0.42606434 0.23048738 1.5844349
0.46204492 0.22687173 1.5843248
0.93467563 0.22487582 1.5755589
0.96793658 0.21236731 1.5645971
0.39337066 0.26739168 1.5533988
0.42273173 0.27083266 1.5605906
0.46172407 0.27102077 1.5708466
0.35822326 0.34457529 1.590484
0.4483813 0.30026504 1.5521619
0.45742276 0.30115181 1.5552038
0.1986251 0.39730224 1.576143
0.22947355 0.37930655 1.5800687
0.26710647 0.36138058 1.5721339
0.3260093 0.37707317 1.5742399
0.36570704 0.3523472 1.5509396
0.18269223 0.40755028 1.5702659
0.34474045 0.40833309 1.5546323
1.6276939 1.0387244 1.5523849
1.580922 1.084403 1.5721531
1.6243235 1.077172 1.5654913
1.5829792 1.1306419 1.5851151
1.6198732 1.1234537 1.5697745
1.5817637 1.1764318 1.5754632
1.6186119 1.1702908 1.5618488
1.5891265 1.2150049 1.5810473
1.6200274 1.2300048 1.5712647
1.6226666 1.2765571 1.5789319
1.6280671 1.321853 1.5734438
1.62767 1.3749591 1.5761412
1.6300594 1.4240971 1.5720546
1.631326 1.4741707 1.5731899
1.6305039 1.5225132 1.5815939
1.62528 1.5692798 1.5941596
-1.3640895 -0.51493663 1.6080072
-1.325707 -0.52228481 1.6373273
-1.2786769 -0.51580834 1.6208529
-1.215493 -0.51479888 1.6097312
-1.1748849 -0.51136172 1.6313307
-1.1159155 -0.50884235 1.6222925
-1.0707543 -0.5056029 1.6262248
-1.0343854 -0.50173235 1.6269352
-0.77277583 -0.50223255 1.6129783
-0.72163558 -0.50163722 1.6224626
-0.67015225 -0.50323677 1.6200523
-0.62205058 -0.50479829 1.6219169
-0.57480425 -0.50452322 1.6225866
-0.52010542 -0.5070684 1.6243427
-0.47562402 -0.50860423 1.6261275
-0.42408141 -0.50915122 1.6200011
-0.37509307 -0.50930208 1.6264364
-0.3244504 -0.50869316 1.6226363
-0.27020589 -0.51017106 1.62463
-0.22298817 -0.51028156 1.6229061
-0.18027714 -0.5119645 1.627327
-0.12839301 -0.51109606 1.6187682
-0.071916953 -0.51256388 1.6312644
-0.026085103 -0.51164603 1.6316586
0.023144456 -0.50868511 1.6241295
0.076781563 -0.50666034 1.626827
0.12063157 -0.5039615 1.6215899
0.49908912 -0.52133656 1.6022098
0.52751952 -0.52650207 1.6240506
0.57544541 -0.52768093 1.6233236
0.62577802 -0.52695745 1.6243596
0.6764887 -0.51545858 1.6290188
0.7062816 -0.50621706 1.6168796
-1.011546 -0.49757913 1.6312097
-0.97887945 -0.49469766 1.6276895
-0.93273407 -0.49492565 1.6107422
-0.877527 -0.49290365 1.6237965
-0.82503116 -0.49502927 1.6225774
-0.77592719 -0.49773958 1.629251
-0.72673285 -0.4977147 1.6387312
-0.68930131 -0.49732292 1.6222152
0.13740636 -0.47205994 1.6356891
0.17005 -0.48179063 1.6176394
0.2081321 -0.49147129 1.6044422
0.50898862 -0.48183107 1.6447434
0.69648081 -0.48927602 1.6459255
0.71581501 -0.47305638 1.6246142
0.13664325 -0.42665464 1.6353252
0.15959352 -0.42418826 1.6107086
0.72801238 -0.42361125 1.624966
0.14168814 -0.38701695 1.639598
0.16900644 -0.37266886 1.6168901
0.44900787 -0.35509783 1.6069756
0.46847203 -0.37684992 1.6333386
0.73189384 -0.37526044 1.6260594
0.18945786 -0.34165663 1.627887
0.2230967 -0.32144392 1.6180536
0.25139928 -0.30782378 1.6020095
0.43955827 -0.31411999 1.6087153
0.4553811 -0.3317565 1.633839
0.73410237 -0.32463989 1.6259593
0.24601284 -0.29351884 1.6344194
0.26584044 -0.2716369 1.6163759
0.44138497 -0.27226636 1.6349891
0.7366069 -0.27446693 1.6257005
0.75398195 -0.26837689 1.6014681
0.28334898 -0.22680129 1.617483
0.43215981 -0.22296762 1.622448
0.7352218 -0.22396022 1.62804
0.75221527 -0.2388978 1.6009665
0.2843821 -0.17682047 1.6239172
0.43234646 -0.17684326 1.6229134
0.45203072 -0.1646563 1.6385592
0.73751557 -0.17501494 1.624685
0.75075126 -0.1973017 1.6018147
0.29273602 -0.13505691 1.6232319
0.30709064 -0.11092535 1.6140625
0.44324684 -0.13234846 1.6084774
0.46163496 -0.11717917 1.6239872
0.53043962 -0.10718113 1.6063778
0.7388981 -0.12753904 1.6239436
0.75102317 -0.12742393 1.6073689
0.31918091 -0.072645724 1.6195452
0.47488451 -0.076733641 1.6077964
0.55734217 -0.071829334 1.6111027
0.73834592 -0.079227105 1.6247605
0.75050813 -0.057430986 1.6090635
0.3360824 -0.029634815 1.6244007
0.35175642 -0.015485704 1.604269
0.73804766 -0.028819596 1.6238083
0.34605995 0.010253849 1.6368834
0.36677009 0.029235471 1.6191832
0.73501635 0.022876624 1.6249529
0.38623515 0.071368448 1.6285518
0.41869965 0.082648702 1.6112839
0.47045708 0.088250861 1.6037877
0.73049831 0.075484559 1.6237267
0.39495113 0.10429578 1.6479068
0.42452294 0.12242775 1.6339023
0.47301129 0.12359296 1.6196954
0.72942734 0.10785431 1.6279088
0.75126863 0.11540131 1.6083552
0.39131251 0.17335224 1.6403767
0.42162523 0.17593552 1.6236531
0.46057877 0.176971 1.6376797
0.93831885 0.18622568 1.6267406
0.95672959 0.1782611 1.6052051
1.2803133 0.18349925 1.6162655
0.39402491 0.20391701 1.6035241
0.42181531 0.20603716 1.6031072
0.47469521 0.22207604 1.6221292
0.87772137 0.22764169 1.6344997
0.92368126 0.21715599 1.6244241
0.20620455 0.3927691 1.6063077
0.28039023 0.36010182 1.6258479
0.31036535 0.36373869 1.6108288
1.5804808 1.2771624 1.6140426
1.5873345 1.3173927 1.638108
1.6058687 1.3294179 1.6146988
1.5933126 1.3727133 1.6372477
1.6055988 1.373773 1.6132591
1.5914602 1.4116119 1.6417278
1.6097848 1.4299375 1.617885
1.5965924 1.4669442 1.6411122
1.6107758 1.4774743 1.6155064
1.5987594 1.5184174 1.6431228
1.6101561 1.5240712 1.6183023
1.6114312 1.5760741 1.6260471
1.6105257 1.6215209 1.628027
1.5976551 1.65851 1.6472179
1.6083376 1.6693224 1.6339411
1.6041836 1.7162632 1.6482592
-1.3178432 -0.52167946 1.6730922
-1.2725892 -0.52060747 1.6800423
-1.2237574 -0.51406127 1.6709214
-1.1673834 -0.50931627 1.6735526
-1.1161416 -0.51079756 1.6840236
-1.0741086 -0.50294769 1.6793941
-0.72312903 -0.50062352 1.6575813
-0.67317235 -0.50168616 1.667011
-0.62940145 -0.50273013 1.6716495
-0.57265747 -0.5046916 1.6743443
-0.52424401 -0.5050149 1.6768626
-0.47588733 -0.50736576 1.6742553
-0.42543745 -0.50710851 1.6723323
-0.37702081 -0.5079869 1.6819226
-0.32433486 -0.50985658 1.6700894
-0.27997905 -0.5101406 1.6735569
-0.22194934 -0.50927794 1.6736561
-0.17337544 -0.51148885 1.6774328
-0.12341926 -0.5129571 1.6715149
-0.075162619 -0.51227993 1.6781653
-0.024718065 -0.51031029 1.6824579
0.022641316 -0.50637019 1.6767331
0.072332792 -0.50531352 1.6735874
0.11470789 -0.50270408 1.6764388
0.53647131 -0.51420075 1.6620773
0.57588011 -0.51656055 1.6740763
0.62379044 -0.51921946 1.6741308
0.66622704 -0.50925785 1.6706063
-1.0590279 -0.49312946 1.6867222
-1.0423205 -0.49669597 1.6675694
-0.96970421 -0.49470779 1.6517004
-0.9032585 -0.492861 1.6722686
-0.86395729 -0.49155176 1.6632028
-0.82842445 -0.49357849 1.6766188
-0.77240872 -0.49514532 1.6715333
-0.72804374 -0.49478865 1.6828982
-0.68197489 -0.49837002 1.6847271
-0.61334085 -0.499562 1.6767445
-0.58361894 -0.49951324 1.6922535
0.12822863 -0.48694977 1.669946
0.52655011 -0.48070696 1.6817578
0.55681801 -0.49860901 1.695325
0.68135256 -0.47606602 1.6762701
0.70345718 -0.45310664 1.6547658
0.11934828 -0.42303202 1.66819
0.49674043 -0.40229455 1.6782417
0.50923067 -0.42246377 1.6873093
0.69039071 -0.42841238 1.6833904
0.70639342 -0.42109811 1.6601161
0.13429321 -0.38146079 1.6658185
0.15603632 -0.35865122 1.6697743
0.4873482 -0.37632897 1.6804233
0.50159347 -0.39352447 1.6966819
0.69245595 -0.37518167 1.6875881
0.71010917 -0.37383729 1.6630692
0.1755898 -0.34300289 1.6632372
0.21150222 -0.32218754 1.6598282
0.47738385 -0.3375392 1.6818519
0.69182497 -0.32261756 1.6902106
0.71046126 -0.32587242 1.6657159
0.25992292 -0.2739428 1.6615437
0.46612015 -0.27141163 1.6860113
0.69383478 -0.276553 1.6924294
0.71185404 -0.27611968 1.667749
0.27690351 -0.21077947 1.6545836
0.45666993 -0.2217447 1.6720556
0.69426423 -0.2312924 1.6935704
0.71029234 -0.22461392 1.6694256
0.27382779 -0.19980624 1.6532664
0.46221638 -0.16695955 1.6693113
0.69515443 -0.17527795 1.6945195
0.71138924 -0.17234838 1.670101
0.29034877 -0.12008737 1.6595426
0.48065677 -0.13981074 1.6761093
0.69502842 -0.12066029 1.6941561
0.71285391 -0.12320286 1.6700312
0.29740286 -0.097068153 1.6774428
0.30975327 -0.073712006 1.6714592
0.69474792 -0.068289563 1.6987772
0.71253169 -0.071771115 1.6728832
0.32125109 -0.027084127 1.6738259
0.69700408 -0.042511251 1.6933005
0.71244329 -0.02451425 1.6717381
0.33794174 0.015556931 1.6745244
0.3534683 0.044523206 1.6688869
0.69547325 0.031352263 1.6935086
0.71062607 0.019243356 1.6693293
0.37008971 0.079463236 1.6676546
0.6914953 0.074467763 1.6876632
0.70825553 0.071557112 1.6626372
0.3869198 0.12734216 1.6744901
0.41380879 0.12923545 1.6553538
0.46560097 0.14644636 1.6578288
0.69061857 0.10636777 1.6872654
0.70715284 0.10613126 1.6632025
0.37304282 0.17185161 1.6702245
0.44665191 0.15365323 1.6504364
0.47699642 0.17375474 1.6676736
0.89668643 0.18173769 1.6946346
0.91620857 0.17896375 1.6704746
1.2390319 0.18091166 1.686607
1.263272 0.18418826 1.6614283
0.49112749 0.21174721 1.6638901
0.50744724 0.2005399 1.6935216
0.82810175 0.2273747 1.6888511
0.88237107 0.21724455 1.6800953
0.90860587 0.20678937 1.6583203
0.25526136 0.37575629 1.6716549
1.5272326 1.2810642 1.6983567
1.5563339 1.2879813 1.6575848
1.5738213 1.329362 1.6783254
1.5753326 1.3775965 1.6772661
1.5821638 1.4286438 1.6723952
1.5829628 1.4737109 1.6740026
1.5833251 1.5229669 1.6743861
1.5863718 1.5762123 1.676994
1.60106 1.5749693 1.6519198
1.5875223 1.6271124 1.6733789
1.586574 1.6772707 1.6760284
1.5891799 1.7240233 1.6744872
1.5869002 1.7611259 1.6792136
-1.3688112 -0.52144277 1.7429911
-1.331219 -0.52156633 1.7321835
-1.2732286 -0.51480687 1.7177218
-1.2351688 -0.51445836 1.7383852
-1.1759735 -0.51090169 1.7304394
-1.1323996 -0.50668347 1.7338787
-1.096287 -0.50164592 1.706499
-0.80811435 -0.50061828 1.7390579
-0.67461091 -0.50087076 1.7077818
-0.62221205 -0.50356579 1.731856
-0.56933999 -0.50257295 1.7263269
-0.52281648 -0.50357217 1.7320647
-0.46853656 -0.50430983 1.7211502
-0.42380008 -0.50647354 1.7281535
-0.37309194 -0.50647902 1.7201166
-0.32446593 -0.50823772 1.7269722
-0.2711747 -0.51036686 1.7277267
-0.22544582 -0.50835353 1.7299478
-0.17074607 -0.50918919 1.7286114
-0.12753817 -0.50935185 1.7130356
-0.079922467 -0.51113021 1.7240223
-0.026705632 -0.50866824 1.7239361
0.023275761 -0.50636202 1.7210393
0.076107517 -0.50439042 1.7272767
0.11042444 -0.50234193 1.7234806
0.58776873 -0.50234681 1.7187473
0.62456524 -0.50687444 1.7144883
0.65016007 -0.50768775 1.7054397
-1.1010295 -0.49862069 1.7357745
-1.0826731 -0.49974015 1.7047087
-0.80263418 -0.49167946 1.7049609
-0.77435565 -0.49511647 1.721841
-0.72282428 -0.49555683 1.7352917
-0.67218286 -0.49614981 1.7208337
-0.63716185 -0.49766213 1.7322798
-0.49768639 -0.4997946 1.7458389
0.54180723 -0.47268903 1.7129954
0.56918907 -0.47432265 1.715923
0.63318765 -0.47768983 1.7321353
0.65816218 -0.47155181 1.7083038
0.53257412 -0.42242122 1.7142776
0.56841433 -0.42812634 1.721204
0.6417048 -0.42740986 1.7397848
0.6641041 -0.42331269 1.7152871
0.13453931 -0.38079709 1.7045326
0.49416155 -0.36042467 1.7070556
0.52626109 -0.37654248 1.7255661
0.56088048 -0.39197966 1.7305129
0.64328158 -0.37725121 1.7454978
0.66671026 -0.37532088 1.7194097
0.49167797 -0.32196495 1.7192587
0.50897598 -0.32179916 1.7396617
0.64403707 -0.32519203 1.7459196
0.66765678 -0.32594573 1.7229202
0.48029023 -0.27803129 1.7075672
0.64425367 -0.29890552 1.7497889
0.66957253 -0.27447328 1.7241539
0.47188652 -0.2390027 1.7051777
0.67266172 -0.22320554 1.7236418
0.67453474 -0.17620058 1.7241174
0.67387974 -0.12557247 1.7283579
0.27646473 -0.071851708 1.7399505
0.30913055 -0.078124665 1.7362661
0.61333668 -0.055862065 1.7331302
0.67661381 -0.073333435 1.7272389
0.24350891 -0.027052395 1.7336056
0.28333712 -0.022218365 1.7327809
0.30895832 -0.026078288 1.7271062
0.61725408 -0.012892489 1.7447548
0.67872226 -0.025828822 1.7241347
0.27811071 0.020683704 1.7403183
0.32246077 0.025522936 1.7292205
0.64680481 0.039298251 1.7476451
0.67437607 0.021946609 1.7243812
0.28794384 0.065166883 1.7350019
0.35887721 0.069483198 1.7207308
0.63322777 0.079131737 1.7426302
0.66721088 0.072258696 1.7207447
0.26115289 0.1295792 1.735544
0.33061719 0.13061246 1.7418674
0.38014627 0.12885734 1.7109725
0.63025004 0.10668999 1.734798
0.66380656 0.10752529 1.7152574
0.26246607 0.15539336 1.7429166
0.36078 0.17264035 1.7263857
0.49591622 0.16746059 1.7019068
0.51084 0.18367751 1.7213432
0.87774682 0.18466078 1.7253371
1.2226232 0.1798041 1.7139169
0.83182627 0.22151612 1.735073
0.86897504 0.21152321 1.717579
1.4982361 1.1742187 1.7445943
1.5167403 1.1912539 1.7370845
1.5401469 1.3228568 1.737733
1.5542837 1.3275253 1.7129999
1.5450045 1.3789601 1.7411222
1.5572827 1.3744866 1.7159213
1.5457327 1.4228694 1.7405775
1.5605425 1.4260178 1.7161055
1.5413666 1.466307 1.745544
1.5601017 1.4757564 1.721159
1.5471127 1.5268176 1.7443607
1.5615565 1.5229628 1.7224466
1.5458386 1.5627549 1.7479403
1.5622662 1.5758128 1.7228237
1.5627369 1.6276489 1.7225301
1.5480622 1.6996033 1.7496812
1.560956 1.6766275 1.7293826
1.5660398 1.7209755 1.7226784
1.5699652 1.7722216 1.7267277
-1.3235751 -0.51980335 1.7631283
-1.2714081 -0.51522237 1.7716993
-1.2289526 -0.51119804 1.7763886
-1.1758937 -0.5046593 1.7733841
-1.141032 -0.50241071 1.7805722
-0.70079029 -0.50205231 1.7778143
-0.65988463 -0.5022018 1.7894201
-0.60310024 -0.50210613 1.7665286
-0.57033294 -0.50368261 1.7741474
-0.53142506 -0.50416195 1.7801291
-0.47997543 -0.50281596 1.7757627
-0.42391965 -0.50446725 1.7789979
-0.37473157 -0.50679404 1.7769337
-0.32856306 -0.50548798 1.7658185
-0.27028608 -0.504659 1.7772367
-0.22918895 -0.50521094 1.7792879
-0.17806639 -0.5085535 1.7727741
-0.12380653 -0.50829607 1.7717336
-0.075290434 -0.50936383 1.7773182
-0.026281353 -0.50891149 1.7743864
0.023903964 -0.50802886 1.7736254
0.073263779 -0.50673425 1.7796115
0.10960957 -0.50217378 1.7777802
-1.1205313 -0.49769011 1.7686732
-0.81030935 -0.49384677 1.76966
-0.77789813 -0.49296954 1.7633213
-0.72727287 -0.49399513 1.7807312
-0.68133652 -0.49749717 1.7804239
-0.62076724 -0.49804217 1.7726341
-0.59446311 -0.4971613 1.7859052
0.11584194 -0.49811471 1.7847722
0.59881055 -0.48511642 1.7563976
0.62470281 -0.47624144 1.7706766
0.58969432 -0.40040627 1.7725612
0.63303918 -0.41742149 1.7557398
0.53880167 -0.35907036 1.7827549
0.56997877 -0.38278931 1.757951
0.6363765 -0.37190551 1.7620505
0.52964509 -0.3296575 1.7592552
0.5538007 -0.33794153 1.7883202
0.63299525 -0.32413462 1.7600805
0.63691705 -0.27481225 1.7587762
0.65248561 -0.25910819 1.7503583
0.63633072 -0.22447379 1.7619989
0.65227222 -0.22389889 1.7530651
0.63618749 -0.17599501 1.7653743
0.65110022 -0.17526956 1.753678
0.63624448 -0.12758932 1.768326
0.65157533 -0.12712125 1.7577682
0.2854858 -0.059156168 1.7570379
0.31196442 -0.059365701 1.7606641
0.63700092 -0.076922372 1.7690461
0.65379405 -0.076846518 1.7571059
0.24625196 -0.016802043 1.7532429
0.27085519 -0.028289948 1.7559805
0.3123332 -0.029723071 1.7632353
0.6389991 -0.026254043 1.7656425
0.65407193 -0.02421896 1.7559997
0.26594254 0.021086564 1.7515444
0.31449082 0.03802935 1.7509339
0.63531536 0.020360531 1.7590469
0.65757573 0.0044718296 1.7512288
0.28306633 0.07283581 1.7578957
0.31364635 0.074544422 1.7550132
0.36054063 0.076840848 1.7635525
0.62824923 0.05819482 1.7528491
0.28546956 0.12253997 1.7602861
0.3154853 0.12284026 1.7537949
0.37626764 0.14459306 1.7520686
0.2842389 0.17538947 1.7653806
0.32096353 0.17393036 1.7687943
0.3505668 0.19125023 1.7516015
0.8454318 0.18344377 1.7838364
0.85962933 0.17686941 1.7672144
1.1898732 0.18038811 1.7721735
1.2130132 0.18021664 1.7575858
0.78091538 0.22154447 1.7812496
0.82612783 0.21159406 1.7788131
0.85296941 0.20831734 1.7531322
1.4954385 1.1463243 1.7834458
1.4945587 1.1572266 1.7758207
1.5139047 1.1898086 1.7886302
1.5256221 1.2285976 1.7849778
1.5159073 1.2764988 1.7842638
1.5218658 1.3272655 1.7777493
1.5258998 1.3747222 1.7778697
1.5269564 1.4241054 1.773608
1.5290897 1.4744594 1.7737213
1.5370392 1.5275047 1.7730738
1.5332566 1.5737686 1.7770777
1.5378528 1.6261439 1.7772501
1.5526332 1.6138831 1.7557939
1.5355377 1.6742857 1.7779917
1.5358857 1.7209781 1.7777449
1.552027 1.7439742 1.7579937
1.5406435 1.773284 1.7779205
1.5574194 1.7630171 1.7542714
1.5349869 1.8082749 1.7791939
1.5552255 1.8014185 1.7552705
-1.3543698 -0.52551115 1.8271396
-1.326547 -0.52221102 1.8089877
-1.2360237 -0.50722331 1.8041621
-1.1768845 -0.51089853 1.8271896
-0.70614618 -0.50054127 1.8482412
-0.66489828 -0.50028408 1.8186148
-0.60121679 -0.50129414 1.8380127
-0.57277453 -0.50174439 1.8159468
-0.52184147 -0.50114495 1.8229914
-0.47102597 -0.50445384 1.8286226
-0.42676848 -0.50580275 1.8153332
-0.37162018 -0.50262403 1.8251369
-0.32348317 -0.50544983 1.820608
-0.27578336 -0.50601089 1.830882
-0.2181953 -0.50566089 1.8226448
-0.1719159 -0.50588477 1.8224546
-0.12475876 -0.50618511 1.8246751
-0.073494747 -0.50772679 1.8208241
-0.028177792 -0.50929022 1.8176543
0.023749191 -0.50636226 1.8303045
0.070862994 -0.50457376 1.8192178
0.10403118 -0.50556844 1.8347316
-0.71495467 -0.49143752 1.8086481
-0.67346913 -0.49737933 1.8243743
-0.62780297 -0.49677697 1.828419
-0.569139 -0.49779049 1.8238262
-0.52754778 -0.49768794 1.8301878
0.63355076 -0.4836086 1.8178324
0.82371002 0.18117759 1.820473
1.1759446 0.18245102 1.8232161
0.72326243 0.21270499 1.8363472
0.77051389 0.21644643 1.8229719
0.81316155 0.20402947 1.816017
1.2401475 0.33852211 1.8301954
1.2614818 0.34835765 1.8400449
1.236897 0.36615667 1.8460604
1.2558907 0.36235297 1.8434372
1.5005277 1.1474639 1.8185416
1.4920166 1.1702716 1.8354416
1.5028793 1.1779819 1.812192
1.4946976 1.2252089 1.8349046
1.5085378 1.2207975 1.8084277
1.492864 1.2731439 1.8370628
1.5044385 1.2774309 1.8153844
1.4934335 1.3242488 1.836239
1.506404 1.3296993 1.8132133
1.4951173 1.3761072 1.8345095
1.507203 1.3776288 1.8138436
1.4957216 1.4260384 1.8384604
1.508769 1.423098 1.8147606
1.4972292 1.4827994 1.842627
1.5105916 1.4732956 1.8191823
1.4978414 1.52097 1.8499968
1.5121763 1.525593 1.819428
1.4983081 1.5723674 1.8476982
1.5117861 1.575892 1.8229866
1.4942763 1.6134231 1.8437784
1.5128269 1.6256471 1.8204453
1.4943171 1.6595075 1.8444082
1.5117111 1.6773512 1.8271816
1.5131531 1.7248292 1.8220229
1.5162988 1.7771306 1.8273371
1.5198857 1.8228701 1.8269033
-1.3655453 -0.52126515 1.8549972
-1.2872779 -0.51768625 1.8813021
-1.2381033 -0.52093524 1.8695366
-0.73512191 -0.50271988 1.869765
-0.69001049 -0.50125134 1.8758372
-0.59447455 -0.50200421 1.8813438
-0.51763219 -0.50107133 1.8739134
-0.49969229 -0.50193918 1.8613743
-0.42274693 -0.50510842 1.861678
-0.38060802 -0.50524849 1.8824949
-0.32497534 -0.50368762 1.8646977
-0.27044949 -0.50409645 1.8708256
-0.23282097 -0.50595868 1.8797753
-0.17859028 -0.50629127 1.8684671
-0.12787044 -0.50897449 1.8829374
-0.073747456 -0.50858903 1.8757956
-0.025173986 -0.50814039 1.8750204
0.027200876 -0.5064224 1.8762149
0.080832742 -0.50752938 1.8681533
0.10381165 -0.50726777 1.8877634
-0.75494629 -0.49835271 1.8667092
-0.7222743 -0.49566475 1.8645942
-0.6676352 -0.49949914 1.886513
-0.62394518 -0.49801227 1.8787982
-0.57711905 -0.49727738 1.8661292
-0.53219616 -0.49677888 1.8832028
-0.47030199 -0.4987832 1.8606815
-0.43122885 -0.49857605 1.8726214
0.11190704 -0.49761426 1.8693713
0.79352963 0.18409611 1.8829339
0.80592924 0.18292047 1.8617579
1.1108705 0.17579022 1.8823304
1.1516081 0.18331201 1.8965095
0.72809631 0.21596716 1.8661982
0.77746731 0.20804979 1.8680049
0.80256903 0.20725463 1.8521137
1.2368586 0.37603498 1.8699982
1.266294 0.39722285 1.8820591
1.4766595 1.1489902 1.8754792
1.4736596 1.1765558 1.8773006
1.4756184 1.2250333 1.8722085
1.4733728 1.2760441 1.8775343
1.4712886 1.3271731 1.8780727
1.4768318 1.3765696 1.8752778
1.4795978 1.4243238 1.874671
1.4824831 1.4735426 1.87521
1.4813014 1.5240397 1.8761439
1.4829129 1.5756425 1.8714659
1.4730926 1.6212611 1.8706063
1.481755 1.6778221 1.8802673
1.4893579 1.724912 1.8717719
1.4924253 1.7751322 1.8792657
1.5018637 1.7629032 1.8533559
1.4915476 1.8209692 1.883116
1.5056581 1.8283315 1.8602327
1.4941335 1.8548927 1.8774376
-0.70398486 -0.50026357 1.9310359
-0.6851511 -0.50344729 1.9066306
-0.61009711 -0.50146931 1.9161806
-0.59409952 -0.50019521 1.9144539
-0.50649923 -0.50244111 1.9139791
-0.4757978 -0.50257325 1.9287362
-0.40960413 -0.50189382 1.9143534
-0.37973011 -0.50510579 1.9182558
-0.32400709 -0.50517416 1.9228411
-0.28367952 -0.50621957 1.9159088
-0.22386472 -0.50720519 1.9248989
-0.17754062 -0.50717986 1.9367259
-0.12445081 -0.50734085 1.9238626
-0.076670289 -0.50621146 1.9213383
-0.025684288 -0.50522316 1.9183991
0.025959164 -0.50908536 1.9331193
0.077569783 -0.50932074 1.9248867
0.10517429 -0.50458193 1.9141954
-0.70918792 -0.49703047 1.9160476
-0.6658029 -0.49862227 1.9335369
-0.62857753 -0.49736524 1.9264827
-0.56808287 -0.49707413 1.9071525
-0.52540612 -0.49895212 1.9231516
-0.40962467 -0.49821958 1.9392473
-0.36383775 -0.49855256 1.9172595
0.1147612 -0.49628189 1.9194974
0.7752344 0.18170622 1.9265682
0.8081829 0.16517609 1.9191467
0.73104173 0.21175672 1.9341745
0.76625037 0.20677714 1.9195724
1.4034293 0.54515469 1.948522
1.3925267 0.56294984 1.9282454
1.4028544 0.63890642 1.9476242
1.3738743 0.70275104 1.9324043
1.3510172 0.79257017 1.940334
1.4367064 1.1477073 1.9349775
1.4503978 1.1397201 1.906056
1.4401138 1.1755193 1.9348012
1.456234 1.1744006 1.9092455
1.445516 1.2239352 1.9309165
1.4558611 1.2220938 1.9071535
1.4452522 1.2780292 1.9385425
1.4551502 1.2745014 1.9182262
1.4441684 1.3212173 1.9317518
1.455712 1.3230003 1.9109126
1.4423723 1.3842432 1.9399583
1.4556441 1.373135 1.9164032
1.4449326 1.4302329 1.9401802
1.4565398 1.4232274 1.9183278
1.4443239 1.4800965 1.9395941
1.4588169 1.4711109 1.9171143
1.4450659 1.5322323 1.9399657
1.4580847 1.5212313 1.9152201
1.4475832 1.5740553 1.9394363
1.4610039 1.5763623 1.9129299
1.4446169 1.6242777 1.9449759
1.456556 1.6251116 1.9277086
1.4594578 1.6780208 1.9270352
1.4659774 1.7281444 1.923472
1.468446 1.7765005 1.9250177
1.4757055 1.8257345 1.9134289
1.4806799 1.8684603 1.927833
-0.63247508 -0.50076801 1.9720893
-0.58325464 -0.50195599 1.9657381
-0.50625521 -0.50370967 1.9875166
-0.47836226 -0.50037593 1.9785061
-0.4164446 -0.50263822 1.9972031
-0.38148099 -0.50212359 1.9669189
-0.32685056 -0.5036751 1.9715255
-0.2759515 -0.50879723 1.9572408
-0.22812741 -0.50685215 1.9735075
-0.16567619 -0.50417894 1.9672216
-0.12467299 -0.50616705 1.9671848
-0.069700167 -0.50950116 1.9721185
-0.029525964 -0.50552815 1.9638869
0.019418256 -0.51304507 1.9865847
0.071281739 -0.50694972 1.9621761
0.11303551 -0.50470853 1.9717515
-0.6577704 -0.49633616 1.9692469
-0.6049546 -0.49953905 1.9511818
-0.53444874 -0.49779087 1.9580085
-0.47470224 -0.49656954 1.9634411
0.7375024 0.18570189 1.9796866
0.75982839 0.1771623 1.9603782
1.0852956 0.176373 1.9709378
0.72814989 0.20605867 1.9602855
1.3932724 0.43912768 1.9852775
1.4049966 0.44001317 1.9721521
1.3971909 0.4839662 1.9980636
1.4066408 0.4758516 1.9792216
1.3984426 0.50691056 1.9953959
1.4064317 0.52376837 1.9785874
1.4080687 0.57610947 1.9829643
1.3992879 0.62074852 1.9882634
1.4073124 0.62707794 1.9781711
1.3986464 0.68705934 1.9836884
1.4052382 0.67328602 1.9815235
1.3923287 0.71796536 1.9809322
1.4025499 0.71464616 1.9857869
1.3641995 0.77193063 1.9686046
1.3863292 0.88407087 1.9918684
1.3824959 0.91060644 1.9754713
1.3891491 0.98738593 1.982682
1.3819463 1.0554566 1.9678639
1.3952186 1.1168321 1.9913743
1.4204049 1.1466815 1.9787582
1.4216173 1.1782693 1.9766525
1.4244056 1.2248093 1.9738263
1.4259858 1.275188 1.9733096
1.4257407 1.3265675 1.9754063
1.4243752 1.3732929 1.9735756
1.4268626 1.424661 1.9740472
1.429337 1.4742005 1.9742386
1.4304214 1.5236942 1.9735091
1.4300692 1.571605 1.9753156
1.4317238 1.6241586 1.9757044
1.4353871 1.6774454 1.9786531
1.4521755 1.6871494 1.9521761
1.4387225 1.72437 1.9750563
1.4421744 1.7662646 1.9721228
1.453444 1.7953426 1.9691062
1.4439955 1.8282018 1.9950519
1.4582956 1.8281574 1.9667079
1.4596587 1.8753723 1.9676176
1.4626497 1.9101484 1.981365
-0.62574601 -0.50386256 2.0084181
-0.59543604 -0.50666094 2.0266571
-0.507231 -0.50463229 2.0344305
-0.40342632 -0.50485766 2.0080757
-0.37144694 -0.5037384 2.0319371
-0.32913065 -0.50486779 2.0171747
-0.27491397 -0.50494152 2.0233297
-0.2329267 -0.50019157 2.0071933
-0.15940677 -0.51016235 2.0109725
-0.12022917 -0.51012337 2.0125959
-0.061345674 -0.51086658 2.0173278
-0.027207738 -0.510243 2.0289707
0.0098078921 -0.50823581 2.0177197
0.068054207 -0.51136237 2.0191078
0.11059105 -0.50586569 2.0165343
0.73869956 0.16647562 2.021296
1.3667779 0.43822211 2.0182102
1.3836576 0.47308573 2.0248523
1.38401 0.52805912 2.0262103
1.385662 0.57692617 2.0231085
1.3847153 0.62608951 2.0280886
1.3858128 0.67130059 2.0230658
1.3852798 0.72526515 2.0247922
1.3832371 0.77088493 2.0274158
1.3878411 0.82758105 2.0315793
1.3872401 0.87369853 2.0287025
1.3890798 0.92823333 2.0307195
1.3903275 0.97948503 2.02897
1.4012666 0.96636021 2.0121255
1.3896259 1.0275213 2.0319548
1.4013383 1.0404125 2.008805
1.3934782 1.073673 2.027427
1.4040803 1.0997508 2.0153997
1.3933512 1.1210332 2.0312591
1.4047092 1.1414311 2.0113497
1.3911269 1.1749449 2.0399888
1.4061376 1.1760713 2.0116942
1.3907586 1.2218691 2.0353365
1.4038991 1.2254684 2.0124273
1.3920021 1.2793816 2.0364249
1.406407 1.2729067 2.0103583
1.3921943 1.3251189 2.0352695
1.4067459 1.3246653 2.0073707
1.3941206 1.3737744 2.0338461
1.406716 1.3751245 2.0081308
1.3931606 1.4291131 2.0372603
1.4050822 1.42309 2.0112672
1.3928705 1.4806129 2.0392115
1.4068348 1.4703757 2.0155139
1.3930999 1.517146 2.0429289
1.4087118 1.5248691 2.0150058
1.3943975 1.5889314 2.04369
1.406642 1.5700375 2.0204692
1.3967936 1.6256908 2.042563
1.4103236 1.6211468 2.0197091
1.409857 1.6733584 2.0241554
1.3967838 1.7093735 2.0407233
1.4152613 1.7271429 2.0235372
1.422528 1.7751776 2.0203691
1.4252785 1.8218673 2.0235844
1.4308056 1.8737329 2.0312445
1.451517 1.8769307 2.0019951
1.4347248 1.9143639 2.0241289
1.4515878 1.922912 2.0074394
-0.6041823 -0.5038206 2.0581703
-0.41926691 -0.50682098 2.0719137
-0.34507793 -0.51120234 2.0844843
-0.29999861 -0.50418836 2.0600779
-0.067653455 -0.51149231 2.0609548
-0.025230618 -0.51223934 2.0752566
0.017709211 -0.51481771 2.0750542
-0.42539194 -0.49921617 2.0686686
1.3207765 0.39630681 2.0699813
1.347587 0.431364 2.0956631
1.3558801 0.44568551 2.0705688
1.3481078 0.46028003 2.0917404
1.3598495 0.47567523 2.0743847
1.3475275 0.54519135 2.0994146
1.3617442 0.5214864 2.071125
1.3484111 0.56295478 2.0971832
1.3605014 0.57298696 2.0723658
1.360505 0.62174231 2.0735872
1.3487144 0.67331827 2.0972681
1.3625976 0.67448425 2.0692427
1.3451874 0.74219805 2.0987623
1.3597703 0.7220214 2.0732892
1.3480357 0.76738119 2.0964057
1.3632507 0.77625841 2.0710537
1.3433752 0.81893462 2.0993307
1.365786 0.82412106 2.0735974
1.3641558 0.87430859 2.0770786
1.366657 0.92499989 2.0729604
1.368798 0.9768002 2.0743599
1.3497744 1.0075521 2.0999062
1.3680825 1.0266614 2.0755339
1.3715106 1.0754491 2.0751073
1.3716038 1.1267937 2.0753844
1.3681954 1.175794 2.0751424
1.3698367 1.225527 2.0768869
1.3712201 1.2696793 2.0744612
1.3697075 1.3236868 2.0772948
1.3729326 1.3763666 2.0726883
1.3739479 1.4254872 2.0747044
1.3758993 1.473788 2.0732722
1.374736 1.5265126 2.0779951
1.3777045 1.5741718 2.0757706
1.3771442 1.6220711 2.076386
1.3875721 1.6763113 2.0711653
1.3909445 1.7246969 2.0796638
1.3921587 1.7729601 2.0839379
1.4033175 1.7738262 2.0623107
1.3982563 1.8240752 2.0812674
1.4076481 1.8252761 2.0613589
1.3969206 1.874689 2.0962808
1.4116187 1.874184 2.0673285
1.3993593 1.9187545 2.0972965
1.4141141 1.9282904 2.0758464
1.4229724 1.9602194 2.0804348
-0.3729572 -0.51115596 2.1261461
-0.31461155 -0.50435233 2.1265588
-0.26537877 -0.5049969 2.1108787
-0.24568878 -0.50690788 2.120528
-0.025579372 -0.51252425 2.1087041
0.012941965 -0.51530701 2.1202574
1.0423133 0.18006489 2.1266189
1.3314718 0.42659241 2.1284766
1.3353171 0.47546971 2.1218984
1.3349891 0.52447599 2.1232924
1.3322867 0.57735598 2.1259856
1.3336186 0.62641501 2.1239169
1.3339574 0.6791001 2.1264262
1.3333067 0.72400665 2.1253531
1.3342826 0.77307504 2.1239846
1.3354045 0.82490999 2.1290932
1.3506769 0.84724903 2.1031337
1.3361038 0.87559241 2.1254961
1.3381609 0.92655843 2.1269166
1.3520122 0.9279421 2.105505
1.3358932 0.97443229 2.1348944
1.3529681 0.97736919 2.1102638
1.3383464 1.0234567 2.1305158
1.356699 1.0310247 2.1033661
1.3365835 1.0762494 2.1326458
1.3536758 1.0749247 2.1089578
1.3400208 1.1236662 2.1323521
1.3552542 1.1243241 2.1056366
1.3375211 1.1711658 2.1338351
1.3558888 1.1726596 2.1156607
1.3405342 1.2284646 2.1313591
1.3567394 1.216372 2.1122715
1.3392026 1.2776144 2.1289663
1.3531747 1.2813079 2.1047726
1.3409042 1.3220559 2.1243272
1.3557374 1.3215719 2.1053843
1.3384519 1.3724412 2.1374667
1.352809 1.3682797 2.1108787
1.3403264 1.4254968 2.1352959
1.3548855 1.4213382 2.1106281
1.3419293 1.4769454 2.1358175
1.3563161 1.473369 2.1126308
1.3425969 1.5314703 2.1318228
1.3570415 1.5185175 2.1077132
1.3470255 1.5752577 2.1335123
1.3564707 1.5891649 2.1207936
1.3480587 1.6212487 2.1447301
1.357656 1.6252548 2.1190965
1.3489287 1.6862518 2.1431131
1.3654014 1.6779363 2.1195149
1.3631936 1.7259785 2.1247492
1.3721843 1.7727437 2.1236293
1.3783535 1.8244692 2.1219218
1.3753977 1.875489 2.1303151
1.389354 1.9294701 2.1257434
1.3847334 1.9692315 2.1322498
1.4012167 1.9694152 2.106796
-0.30836061 -0.50540048 2.1708233
-0.28591931 -0.50558376 2.169678
-0.23994176 -0.50632936 2.1646755
0.9899568 0.16655752 2.1734951
1.0296906 0.17782426 2.1619787
1.2914128 0.37309253 2.1903563
1.3166825 0.38643515 2.1848588
1.3100483 0.4242937 2.1787319
1.2948033 0.49217725 2.1978796
1.3122019 0.47515804 2.1718717
1.2972045 0.52872121 2.1956143
1.3111798 0.52482611 2.1686618
1.295792 0.56372452 2.1864631
1.3102649 0.57420707 2.1704729
1.2927434 0.6273253 2.1943669
1.3093202 0.62386715 2.1713371
1.2984393 0.67207342 2.1944671
1.3097051 0.67313784 2.16728
1.2970059 0.72265589 2.1931207
1.3086747 0.72617018 2.1698687
1.2977697 0.77481866 2.1945341
1.3140723 0.77623934 2.1685226
1.2946301 0.82400727 2.1958556
1.3102279 0.82610554 2.1722491
1.3138835 0.87779421 2.1743293
1.2936635 0.92228508 2.1994865
1.3148563 0.92364788 2.1727164
1.2996049 0.9697575 2.1947706
1.314141 0.97490704 2.1705499
1.3134776 1.0229515 2.1750438
1.2981395 1.0589273 2.1891522
1.3159448 1.0742606 2.1754227
1.2986307 1.1199176 2.1969433
1.3146241 1.1259551 2.1758142
1.3157831 1.1757824 2.1728835
1.3179903 1.2265409 2.1737652
1.315585 1.2768034 2.1751041
1.3164946 1.3255517 2.1758945
1.3193852 1.3746005 2.1763813
1.3176919 1.4246347 2.1767228
1.3223857 1.4746972 2.1709707
1.3213388 1.5218041 2.1760035
1.3256406 1.5747954 2.1734385
1.3326699 1.6280845 2.1761086
1.3357043 1.6727843 2.1742978
1.3379726 1.7246795 2.1773863
1.3443855 1.7734741 2.1826007
1.3550606 1.7915056 2.168036
1.3459244 1.8205787 2.1816056
1.3587316 1.8329996 2.161618
1.3493555 1.8568673 2.1936185
1.3571963 1.8792595 2.175035
1.3643237 1.9324907 2.1760995
1.3663425 1.9719006 2.1693637
1.3633816 2.008172 2.1849437
-2.0957944 2.3205941 2.1991904
-0.2890808 -0.50791848 2.2158778
-0.2398935 -0.50682396 2.2149444
0.99148548 0.17533341 2.2191575
1.0100439 0.18125437 2.2169547
1.280515 0.38059804 2.228574
1.2821465 0.42275819 2.2257497
1.2834663 0.47185984 2.2223034
1.2798105 0.52575594 2.2289476
1.281081 0.57338071 2.2250161
1.2794799 0.62238634 2.2235603
1.2805685 0.67625338 2.2267463
1.2822055 0.72330236 2.2272561
1.2842847 0.77528572 2.2257683
1.2813764 0.82505482 2.2278996
1.284889 0.87553447 2.2269385
1.3006375 0.86955202 2.2006104
1.2825372 0.9242059 2.228168
1.2866772 0.97107393 2.2209833
1.2866595 1.0237561 2.2258954
1.2870047 1.0765229 2.2249353
1.3029866 1.0503758 2.2021739
1.2845827 1.1235045 2.2279236
1.2897743 1.1725233 2.2210512
1.3015077 1.1970493 2.2020676
1.2892777 1.2259063 2.2267261
1.3064787 1.2208084 2.2017968
1.2880961 1.2764335 2.2278962
1.2838807 1.3285131 2.2300889
1.300613 1.3239375 2.2079353
1.2894441 1.3749524 2.2282376
1.3025465 1.3718135 2.2054844
1.2878194 1.4248328 2.230819
1.3029437 1.4119278 2.2030671
1.2895848 1.4775385 2.2317109
1.3043954 1.4743937 2.208792
1.2929901 1.5236953 2.2223501
1.3068954 1.546191 2.2111974
1.296386 1.5645827 2.2339001
1.3069224 1.5854287 2.2171378
1.2931064 1.6334749 2.2444398
1.3094908 1.620389 2.2183826
1.2993472 1.6689618 2.2377243
1.3123864 1.6734487 2.2199879
1.3173339 1.7295458 2.2267535
1.3235087 1.7797225 2.2257681
1.327296 1.8308178 2.2250552
1.3288845 1.8748825 2.2232499
1.3363433 1.922248 2.2249689
1.3377525 1.9768124 2.2349517
1.3537487 1.9755602 2.2080207
1.3386608 2.0184295 2.2295847
-2.1647677 2.3249812 2.2378707
-2.1266708 2.3329949 2.2367718
-2.0711932 2.3306484 2.231158
-2.0253801 2.3167768 2.2401218
0.78010619 -0.50274265 2.2726195
0.7400679 -0.45351589 2.2695191
0.75873005 -0.49427074 2.2649152
0.74682975 -0.44621614 2.2917993
0.88501644 0.17088389 2.2691145
0.93159169 0.17785163 2.2740896
0.97355264 0.17822471 2.2667687
1.2436503 0.37690255 2.2914703
1.2603904 0.38625744 2.2655973
1.2467195 0.42830729 2.2905331
1.2597631 0.42845958 2.2727618
1.2433063 0.48666367 2.2939889
1.2591962 0.47741604 2.2698615
1.2454031 0.53015077 2.2907753
1.2580849 0.52496332 2.2691169
1.2451521 0.58063823 2.2905931
1.2577094 0.57613248 2.2636631
1.2441031 0.6249432 2.2893713
1.2603908 0.63013262 2.2694254
1.2461808 0.67112172 2.2931798
1.2592247 0.67429078 2.2672663
1.2442331 0.72494924 2.2895095
1.2593048 0.72345436 2.2630172
1.2453555 0.77008563 2.2875836
1.2608224 0.775015 2.2642615
1.2467247 0.82114965 2.2867243
1.2582681 0.82619572 2.2683649
1.243241 0.87096 2.2960517
1.2603089 0.87422878 2.2685485
1.245527 0.91651297 2.2870367
1.2593697 0.92834473 2.2702982
1.2447295 0.97592872 2.2978971
1.2606676 0.97501248 2.268023
1.2476549 1.016333 2.2903457
1.260949 1.022177 2.2698925
1.2466253 1.0900432 2.2942703
1.2625803 1.0716293 2.2695389
1.249119 1.1114968 2.2915072
1.2598994 1.1262809 2.2720058
1.2493453 1.1881802 2.2953644
1.2665248 1.1749891 2.2668769
1.2447622 1.2203575 2.2947538
1.2627198 1.2250584 2.2678533
1.2480829 1.2649959 2.2945881
1.2625927 1.2758942 2.2712774
1.2475145 1.3308076 2.2993412
1.2638967 1.3256327 2.27037
1.2430203 1.386903 2.2989082
1.2617779 1.3771281 2.2769313
1.2460498 1.4036556 2.2978134
1.2648704 1.4259785 2.2791595
1.2685894 1.4723029 2.2778566
1.2712272 1.523648 2.273788
1.2770708 1.5751783 2.2737901
1.2792206 1.6210277 2.2751136
1.2878144 1.6816607 2.2707632
1.3022847 1.6589017 2.251642
1.2855237 1.7262907 2.2813716
1.3053536 1.7296972 2.2562137
1.2894806 1.7833089 2.2817514
1.3035834 1.7743552 2.2656012
1.2957907 1.8215139 2.2802694
1.3103173 1.8119586 2.257647
1.3089149 1.871117 2.276608
1.2970128 1.904736 2.2953279
1.3097467 1.9227225 2.2779362
1.2964507 1.969607 2.2949595
1.31616 1.9751704 2.2696006
1.3147609 2.0254741 2.2753391
1.3074806 2.0573997 2.2853625
-2.2648678 2.3238773 2.2891164
-2.2257061 2.3277373 2.2813482
-2.1815832 2.3214407 2.2709181
-2.121073 2.3271472 2.2776628
-2.0671597 2.3324506 2.2659624
-2.0238519 2.3351293 2.2826185
-1.9976965 2.3432322 2.2993071
0.78326809 -0.47517619 2.3211536
0.80410707 -0.47587806 2.3110225
0.77707273 -0.44220757 2.3285539
0.80415356 -0.44109392 2.3159451
1.2275058 0.38032839 2.329289
1.2298766 0.42146119 2.3229718
1.2293625 0.47168365 2.3262377
1.2273809 0.52314442 2.3257158
1.2253515 0.57100981 2.3224664
1.2295287 0.62238836 2.3208845
1.2271667 0.67569029 2.3253496
1.2263254 0.7220158 2.3262002
1.2260875 0.770823 2.326561
1.2287837 0.82418901 2.3228824
1.2263268 0.8754366 2.3248115
1.2286739 0.92563581 2.3254936
1.2299241 0.9749561 2.3264325
1.2287804 1.0271102 2.3280659
1.2318065 1.0744891 2.3217914
1.2291341 1.127564 2.3275547
1.2341188 1.1748939 2.3217661
1.2304922 1.2277421 2.3277109
1.2298007 1.2750955 2.3267126
1.2334535 1.3238208 2.3251543
1.234334 1.3715119 2.3278284
1.2369382 1.4272383 2.3300455
1.2384714 1.4714371 2.3291037
1.2543292 1.4895289 2.3123434
1.2389716 1.5169051 2.329648
1.2534686 1.5244861 2.3180697
1.2423112 1.5711852 2.3323667
1.2582542 1.5754845 2.3152311
1.2458061 1.6092811 2.3337319
1.2629719 1.633631 2.3250909
1.2402689 1.6591113 2.3474314
1.2657334 1.6764897 2.3218956
1.2633828 1.7286911 2.3297021
1.2736063 1.7773199 2.3251045
1.2762742 1.8200793 2.3204098
1.279426 1.8719597 2.3224993
1.2845881 1.9238857 2.3241222
1.2790617 1.9714506 2.3309045
1.2873198 2.0267599 2.326839
1.3004565 2.0431075 2.301513
1.2798274 2.071769 2.3327343
-2.3570855 2.3105779 2.3287125
-2.3154233 2.3132992 2.3200068
-2.2811272 2.3185017 2.3212006
-2.2342293 2.3238392 2.3208399
-2.1783893 2.3239763 2.3285019
-2.1239755 2.3201458 2.3251903
-2.0852807 2.3323696 2.3236632
-2.026371 2.331187 2.3210607
-1.9772364 2.3344038 2.3255301
-1.9303588 2.3335419 2.3285258
-1.8786243 2.3216999 2.3439407
1.1901395 0.38230905 2.3935916
1.2062378 0.38280055 2.3648295
1.1934906 0.43264559 2.3899293
1.2090901 0.42700222 2.3649747
1.192124 0.48234686 2.391371
1.2061439 0.47625631 2.3702669
1.1921176 0.52436584 2.3823047
1.2093066 0.5308612 2.3647692
1.1922586 0.5697487 2.3897493
1.2060391 0.5768258 2.3630137
1.1909678 0.62247974 2.3866277
1.2089624 0.62507373 2.3620453
1.1938653 0.67442143 2.3822811
1.2056305 0.67044461 2.3611953
1.191557 0.72253674 2.382659
1.2069279 0.72806185 2.3615038
1.1908026 0.77209032 2.3876603
1.2093691 0.77859437 2.3619812
1.1930256 0.82474303 2.3823607
1.2093428 0.82029372 2.3569388
1.1917878 0.87683755 2.3874807
1.2067796 0.87258101 2.3636284
1.1928064 0.92153949 2.3881075
1.2095051 0.92663747 2.3632467
1.1910909 0.9734295 2.3865824
1.2064484 0.97547871 2.3651843
1.1914232 1.0218136 2.3925743
1.2040329 1.0274522 2.3710196
1.1934377 1.0728565 2.3869507
1.2072827 1.0742995 2.3656783
1.1941553 1.11893 2.390043
1.2074636 1.1261379 2.3648436
1.1957585 1.1730127 2.3916667
1.2101678 1.1772183 2.3668427
1.1946886 1.2238308 2.3913682
1.2093565 1.2224667 2.3676724
1.1975682 1.2752155 2.3921692
1.2086439 1.2679602 2.365392
1.1946437 1.3061969 2.3909149
1.2124528 1.3238227 2.3691039
1.1980969 1.3649229 2.3928092
1.2127115 1.3763169 2.3733602
1.2153889 1.4231781 2.3733594
1.2180114 1.4764776 2.3759818
1.2201008 1.5253352 2.3749003
1.2243502 1.5717345 2.3745863
1.2305391 1.6273885 2.3784499
1.238186 1.6832757 2.379391
1.2424937 1.7290055 2.3740098
1.2557847 1.7226005 2.3506083
1.2400503 1.774595 2.3851664
1.255042 1.7773144 2.359756
1.2407827 1.8231596 2.3846974
1.2609814 1.8271457 2.3554776
1.2420001 1.8706284 2.3893163
1.254396 1.8734276 2.365947
1.2450396 1.9277891 2.3884118
1.2646749 1.9256541 2.3595369
1.2414749 1.9619733 2.3922524
1.2567286 1.9775654 2.3754282
1.2450597 2.0445905 2.3964911
1.2599009 2.0265291 2.3699658
1.2484381 2.0729456 2.3857863
1.2602357 2.0750103 2.3665593
1.2432653 2.1127326 2.3945093
1.2601212 2.1153562 2.3904417
-2.4841485 2.3087361 2.3892212
-2.4324675 2.3126185 2.3810263
-2.3845446 2.3149805 2.3714824
-2.3316202 2.3159795 2.3671677
-2.2723732 2.3143668 2.3738146
-2.225395 2.3199012 2.3661592
-2.1743789 2.3209598 2.3752286
-2.1221545 2.3196907 2.3671083
-2.070488 2.3231168 2.3699353
-2.0220704 2.3310165 2.3681295
-1.9737871 2.3309205 2.3758323
-1.9211941 2.3252378 2.3772464
-1.8621385 2.3325932 2.371182
-1.8255689 2.3289828 2.3889275
1.0154397 0.38289672 2.4293008
1.1715798 0.37716115 2.4295046
1.1726679 0.42154923 2.4265213
1.0169479 0.45765701 2.4237983
1.1745188 0.47259226 2.423559
1.1710713 0.52441633 2.4273076
1.17415 0.57733095 2.4251306
1.1709219 0.6280998 2.4243104
1.1710689 0.67240196 2.4230983
1.1693023 0.72359186 2.4258955
1.1737691 0.77602345 2.4258461
1.1699076 0.82539511 2.4248412
1.1698861 0.87667465 2.4253917
1.1718266 0.92672598 2.4218245
1.171365 0.97691345 2.4275653
1.1727643 1.026818 2.4217143
1.1750231 1.0762011 2.4207144
1.1713643 1.1249918 2.428169
1.1764405 1.1784396 2.4208219
1.1760747 1.2284789 2.4265523
1.1780267 1.2764113 2.4204903
1.1835775 1.3320031 2.4239068
1.1815917 1.3750732 2.4264593
1.1857109 1.4212538 2.4275322
1.2021767 1.4404111 2.4079664
1.1884297 1.4761564 2.4329522
1.2075651 1.4814934 2.4016123
1.1902405 1.5268116 2.4348629
1.2043084 1.5225874 2.4142859
1.1890584 1.5672348 2.4369676
1.2090261 1.5727985 2.4222608
1.1927396 1.6206805 2.4407954
1.2104903 1.6222795 2.4213095
1.1963499 1.67486 2.4436326
1.2156802 1.6747978 2.4187171
1.2155545 1.724905 2.421926
1.2157921 1.7764356 2.4252968
1.2173928 1.8214493 2.4224944
1.2223734 1.878244 2.4264948
1.2241038 1.9222223 2.4278286
1.223219 1.9774963 2.4307506
1.2300217 2.0253184 2.4178593
1.2288435 2.0784414 2.4190917
1.2276282 2.1176884 2.4251339
-2.6052086 2.2954218 2.4385469
-2.5652289 2.3032427 2.4355109
-2.5234985 2.3090475 2.4301708
-2.4735498 2.3067217 2.4161687
-2.4192739 2.3048661 2.4219606
-2.3750858 2.3094101 2.4243436
-2.3293767 2.3179975 2.4275665
-2.2809894 2.3144424 2.4335811
-2.2273304 2.3154216 2.4117341
-2.1801176 2.3191433 2.4252849
-2.125134 2.3338923 2.4237292
-2.0651078 2.3245747 2.4281812
-2.0313392 2.328949 2.4267411
-1.9745195 2.3262479 2.4292061
-1.9265404 2.3186595 2.4281747
-1.8739675 2.332413 2.4230161
-1.8231708 2.3305383 2.4323471
-1.7839096 2.327225 2.4280491
-1.718014 2.3202243 2.4420757
1.0545789 0.39288285 2.4888809
1.138956 0.37774935 2.4813819
1.1547824 0.37988141 2.4557276
1.0296359 0.41328865 2.4603767
1.0592797 0.41372648 2.4977784
1.1385444 0.43107876 2.4847894
1.154808 0.41969857 2.4638529
1.044488 0.45735058 2.491117
1.1412182 0.475371 2.4820466
1.15619 0.48138759 2.4565644
1.139859 0.52356684 2.4871571
1.153451 0.53062743 2.4647231
1.1395301 0.57161176 2.4763665
1.1524 0.57484585 2.4551976
1.141335 0.62731659 2.4762635
1.1554276 0.61477518 2.4548655
1.1381469 0.67125714 2.4815419
1.1543577 0.68528032 2.458703
1.1382153 0.72226864 2.4842336
1.1521279 0.72318345 2.4591043
1.1385411 0.77770883 2.481122
1.1551843 0.7704075 2.4554589
1.1420256 0.82864714 2.4759312
1.1536405 0.81273896 2.4590044
1.1403493 0.87447298 2.4823689
1.1533754 0.8759678 2.4595668
1.1401947 0.92602813 2.4816175
1.1546419 0.92539775 2.4578311
1.1390705 0.9738344 2.478827
1.1506701 0.96966088 2.4624472
1.1409121 1.0218861 2.4806201
1.1538943 1.0253179 2.4530599
1.1386956 1.0706546 2.4865475
1.1548674 1.0772911 2.4607089
1.1423136 1.1220248 2.4837356
1.1552371 1.1254965 2.4600871
1.1404282 1.169031 2.4845877
1.1567863 1.1754026 2.4612844
1.1410494 1.2237853 2.4885349
1.1580193 1.2194037 2.4614003
1.1453032 1.2798883 2.4951036
1.1574043 1.2733762 2.4654272
1.1435817 1.3245518 2.4861374
1.1584389 1.3261182 2.4636581
1.1431957 1.3764921 2.4908895
1.1588122 1.3772345 2.4690192
1.1491492 1.4255826 2.4851017
1.161539 1.4231715 2.4697165
1.1659915 1.4734267 2.4707141
1.1668653 1.5287108 2.4791517
1.1710619 1.5781002 2.4769068
1.1793016 1.6322562 2.4811351
1.1814085 1.6770793 2.4702225
1.1820384 1.7302555 2.476352
1.1832992 1.7726582 2.4768445
1.2030201 1.7705359 2.4542513
1.1892567 1.8222917 2.4728351
1.1915239 1.8758931 2.4801147
1.2047999 1.8617771 2.4522786
1.1895618 1.9289067 2.4871342
1.2049825 1.930352 2.4596767
1.1928868 1.9764066 2.4848623
1.2068448 1.9758353 2.4614582
1.1906565 2.0300541 2.4822106
1.208087 2.0284297 2.4557524
1.1921868 2.0767047 2.4824951
1.2074155 2.0774684 2.4604201
1.1923937 2.1237464 2.4878838
1.2081997 2.1299877 2.4676354
1.1918823 2.1581607 2.4802434
1.2120609 2.1523809 2.4636316
-2.6187253 2.2967367 2.4793346
-2.5601864 2.2967377 2.4746938
-2.5225632 2.3065617 2.4734318
-2.4673555 2.3082087 2.4700024
-2.4039276 2.3012025 2.4570217
-2.374433 2.30813 2.468204
-2.3209267 2.3093846 2.4710369
-2.2745464 2.308033 2.4717948
-2.2244835 2.3116288 2.4800804
-2.1706071 2.3240762 2.4730895
-2.1223197 2.3235636 2.473016
-2.0720465 2.3202219 2.4694874
-2.0306458 2.326277 2.4755869
-1.9754008 2.3114059 2.4669311
-1.9227848 2.3238959 2.4801311
-1.874751 2.3289051 2.4777946
-1.8251081 2.3268111 2.4653661
-1.7668412 2.3247743 2.4683924
-1.7313057 2.3268425 2.483196
