ply
format ascii 1.0
comment PCL generated
element vertex 1531
property float x
property float y
property float z
element camera 0
property float view_px
property float view_py
property float view_pz
property float x_axisx
property float x_axisy
property float x_axisz
property float y_axisx
property float y_axisy
property float y_axisz
property float z_axisx
property float z_axisy
property float z_axisz
property float focal
property float scalex
property float scaley
property float centerx
property float centery
property int viewportx
property int viewporty
property float k1
property float k2
end_header
0.91354078 2.3981028 3.4192836
0.98139131 2.395926 3.4311397
1.0180978 2.3973663 3.434927
1.0664556 2.3965707 3.421823
1.1191726 2.3955152 3.4272418
1.1739572 2.3977823 3.4367564
1.2221518 2.3960135 3.4202366
1.2588377 2.39013 3.4425745
1.7638285 2.3798742 3.4215169
-1.8829908 2.4023623 3.4070988
-0.17559808 2.4022689 3.4217
-0.14717883 2.4037046 3.4248133
-0.061453216 2.4041233 3.4086823
-0.023585737 2.401094 3.4047601
0.023816539 2.4022708 3.4314516
0.12516592 2.4013798 3.4284689
0.17551564 2.4029095 3.416362
0.23365916 2.4035575 3.439687
0.31051761 2.4080353 3.4413507
0.43367311 2.4023213 3.422595
0.48191175 2.4053853 3.4219048
0.53899884 2.4045436 3.41397
0.57835144 2.4047489 3.4187694
0.63665652 2.4035499 3.4184775
0.67823553 2.4055495 3.4344292
0.79230911 2.4015591 3.4090466
0.88682985 2.4042912 3.4342206
0.93509519 2.4038191 3.4232278
0.95525563 2.4057927 3.42173
1.0266057 2.4041014 3.4228303
1.098907 2.4036779 3.4244809
1.8237801 2.4076948 3.4279864
1.8761543 2.406718 3.4183633
1.9355568 2.4167056 3.4079475
1.9692547 2.412044 3.433116
2.036155 2.4146736 3.421361
2.0651355 2.4061794 3.4249399
2.1346736 2.4152684 3.4314771
2.1624238 2.4121926 3.4371166
2.2031059 2.4104674 3.4113038
2.2768295 2.4002619 3.4035552
4.3068151 -0.29236409 3.4855611
4.2926311 -0.21792832 3.4783328
-2.6607015 2.3790157 3.4689233
-2.632489 2.3735859 3.4758513
-2.5588801 2.3686316 3.452131
-2.5161533 2.3805647 3.4751601
-2.4771974 2.3752267 3.4585931
-2.417686 2.3702111 3.4847302
-2.3840258 2.3800335 3.4674873
-2.3145742 2.3749681 3.4697671
-2.274106 2.3771286 3.4692731
-2.2378781 2.3727088 3.4808459
-2.1726742 2.3704448 3.4847023
-2.1255155 2.375865 3.4932914
-2.0778806 2.3842139 3.4677746
-2.0237136 2.381393 3.4767935
-1.9692173 2.3830187 3.4808354
-1.9311072 2.3850715 3.4775028
-1.8755392 2.3778398 3.4649897
-1.8121018 2.3830042 3.4537823
-1.7680681 2.3790107 3.465872
-1.7266269 2.3885927 3.4763074
-1.6862949 2.3880832 3.4840324
-1.6316046 2.3923411 3.4856036
-1.5854459 2.3918657 3.4677229
-1.5226417 2.3886452 3.4855299
-1.4722708 2.3847182 3.4817326
-1.4316334 2.3797185 3.4723542
-1.3734726 2.3782651 3.4743335
-1.3253868 2.3828192 3.4708028
-1.279882 2.3913772 3.4811544
-1.2469362 2.3854852 3.4813805
-1.1563503 2.3824792 3.4593778
-1.1245766 2.3777599 3.4603651
-1.0735915 2.3900914 3.4760551
-1.0270305 2.3890462 3.4815907
-0.97158569 2.3834486 3.4650118
-0.92652166 2.3931265 3.4897945
-0.8724187 2.3841403 3.4769714
-0.83012134 2.3893111 3.4628255
-0.77408504 2.3961363 3.4834232
-0.72095275 2.3814998 3.4704237
-0.67269117 2.3884032 3.4752455
-0.62044501 2.3858433 3.4791348
-0.57893652 2.388845 3.4728651
-0.52575111 2.393342 3.4763985
-0.48617887 2.3884475 3.4736972
-0.41921639 2.3909674 3.4842355
-0.38027933 2.3951705 3.4810419
-0.32104483 2.396816 3.4624574
-0.27357551 2.3911929 3.476681
-0.2300995 2.3929584 3.4721076
-0.18739672 2.3941414 3.4854383
-0.11961138 2.3938413 3.4681931
-0.076608025 2.3904767 3.4738107
-0.023905642 2.3960698 3.4729757
0.028779244 2.3895574 3.473026
0.071945652 2.3876598 3.4793773
0.17710871 2.3933907 3.4656458
0.26413175 2.3918362 3.4782269
0.32666862 2.3928885 3.4756122
0.37453371 2.395957 3.4801679
0.42842403 2.3980942 3.4745617
0.47405592 2.397934 3.4761581
0.5257324 2.3928616 3.4757411
0.56587917 2.3994393 3.4805479
0.64210105 2.3951402 3.4637148
0.66214657 2.3978083 3.4646969
0.72209418 2.3965549 3.469173
0.77176523 2.3886385 3.4726434
0.8404479 2.3907905 3.4632306
0.92630225 2.3939767 3.4667938
0.97959423 2.388273 3.4845545
1.0253872 2.39484 3.4703617
1.0726945 2.3923516 3.4799759
1.1135029 2.3959792 3.4921603
1.1734763 2.3972027 3.4781752
1.2359372 2.3931732 3.4756727
1.2582695 2.3879974 3.4822993
1.3251218 2.369087 3.4747772
1.7989873 2.3928001 3.4773314
1.8447993 2.3987789 3.4677203
2.0333774 2.3970873 3.4759278
-1.5616435 2.4019661 3.4938278
-0.45961529 2.400589 3.4944611
-0.41769728 2.4014945 3.461195
-0.16767961 2.4063067 3.4656346
-0.148772 2.4009519 3.4776335
0.12013165 2.4021776 3.4802656
0.17767137 2.4009223 3.4765091
0.22246307 2.4071677 3.4708481
0.29293734 2.4014139 3.4711614
0.41770154 2.4009833 3.4604931
0.4678691 2.4028478 3.4775338
0.58608431 2.4029713 3.4831467
0.61569095 2.4051085 3.4822774
0.68283635 2.4025927 3.4686365
0.81565922 2.4036546 3.4874077
0.87536854 2.4066691 3.480444
1.1498097 2.4089296 3.4608431
1.2158467 2.4026783 3.4751017
1.8272334 2.4028454 3.4828391
1.8704833 2.4052422 3.4676642
1.9290764 2.4132092 3.4747634
1.9745297 2.4103742 3.4782121
2.0185504 2.412945 3.4612944
2.0848608 2.4080124 3.4703019
2.1245496 2.4065411 3.4732933
2.1765218 2.4066095 3.4723544
4.2811217 -0.26858598 3.5335102
4.2981987 -0.21952562 3.5277319
-0.17279482 0.37950712 3.5188942
-0.14248729 0.38402519 3.5351636
-0.17783637 0.41487414 3.5155163
-0.13969237 0.4067294 3.5346541
-2.7229805 2.3703954 3.5131404
-2.5639803 2.3716593 3.51634
-2.5184538 2.3708677 3.5231514
-2.4856911 2.3824191 3.5280077
-2.4339795 2.3749428 3.5435731
-2.3756156 2.3715663 3.5126524
-2.3246126 2.3747308 3.5296538
-2.2722039 2.3760397 3.5240393
-2.2311234 2.366806 3.5281332
-2.1628559 2.372395 3.5208435
-2.1182051 2.3701854 3.5397067
-2.0780525 2.3700616 3.5065069
-2.0268259 2.371974 3.5355854
-1.9793936 2.3714998 3.5229189
-1.9220158 2.3735068 3.5236144
-1.8812729 2.3748748 3.5236409
-1.7648224 2.3817782 3.5206933
-1.7212377 2.3787115 3.5331984
-1.6753379 2.3810844 3.5237768
-1.6329815 2.3912499 3.5420985
-1.5789472 2.3821435 3.5231473
-1.5339048 2.3859038 3.5227447
-1.4220437 2.389607 3.521893
-1.369226 2.3682249 3.5033813
-1.3243661 2.3777783 3.533165
-1.2742932 2.3790669 3.5237985
-1.2255586 2.3918519 3.5194504
-1.1809524 2.3827064 3.516938
-1.1258521 2.3815074 3.5081689
-1.0809752 2.391953 3.5360959
-1.0219346 2.3869736 3.5316963
-0.97000802 2.3839855 3.5074124
-0.92235923 2.3880723 3.5239687
-0.87273788 2.3873329 3.5328548
-0.82398111 2.3853741 3.5227349
-0.77125061 2.3784413 3.5377347
-0.72902 2.3786645 3.5248997
-0.68010694 2.388531 3.5274384
-0.62141031 2.3887088 3.5362034
-0.56995225 2.3877869 3.5217481
-0.52174968 2.3901241 3.5310869
-0.46781135 2.3836486 3.5207224
-0.42689428 2.3852696 3.5298038
-0.37456605 2.394377 3.5322816
-0.32495183 2.3949294 3.5213051
-0.27754354 2.3967023 3.5427084
-0.22412255 2.3953843 3.5281303
-0.16974357 2.3924387 3.531971
-0.13034783 2.395757 3.5090275
-0.079003483 2.3879755 3.5246239
-0.024118491 2.3981109 3.5143213
0.019418593 2.391952 3.5246711
0.072972074 2.3920615 3.5437057
0.12108745 2.3922396 3.5235221
0.17935927 2.3948019 3.5253694
0.22800577 2.3965383 3.5257761
0.28634423 2.3981237 3.5248291
0.33491495 2.3883967 3.526547
0.37427983 2.3917692 3.5284538
0.42341971 2.3948624 3.5287476
0.47255805 2.3925433 3.5302739
0.52985829 2.3920577 3.5132802
0.57912254 2.3951824 3.5384147
0.63816237 2.3972759 3.5069668
0.69186854 2.3950865 3.5357287
0.73021358 2.3921974 3.5252225
0.78012323 2.3948526 3.5208521
0.84865808 2.3945081 3.5077641
0.88470477 2.3969839 3.518163
0.91105509 2.3939719 3.5150166
0.97530818 2.3968365 3.5264485
1.0212586 2.3885236 3.5030203
1.0694847 2.388423 3.5334322
1.1127038 2.3957353 3.5343766
1.2176237 2.3958521 3.5282834
1.262187 2.3944178 3.5350413
1.311053 2.3716693 3.5273149
1.8267162 2.3950033 3.5182405
1.8604857 2.3983102 3.5093098
2.006742 2.3944058 3.5359213
2.1863697 2.3960941 3.5007644
-1.2350816 2.4010646 3.5098755
-0.32444236 2.4028482 3.5096443
-0.053275224 2.4050331 3.524225
0.31706205 2.4002006 3.5453751
0.43100241 2.4024038 3.500052
0.59034109 2.4008934 3.518975
0.60993791 2.4012244 3.5168447
0.6797778 2.4066737 3.5149317
0.72778088 2.403708 3.502877
0.82280588 2.4049911 3.5286765
0.9384768 2.4039273 3.545434
0.95784765 2.402704 3.5394056
1.1420867 2.404561 3.5195806
1.1762202 2.4031999 3.5297506
1.8933041 2.4135888 3.5222125
1.9192121 2.4092588 3.52777
1.9657768 2.4043047 3.5223293
2.0436468 2.4004376 3.5293083
2.0874262 2.4142561 3.5336137
2.148849 2.4019172 3.5319827
4.2761207 -0.24439809 3.5534196
-0.11518557 0.39279914 3.5638766
-2.7040474 2.372565 3.5522838
-2.6952875 2.3847685 3.5856168
-2.6231983 2.3606958 3.5786285
-2.4533379 2.3716586 3.5845709
-2.411823 2.3747456 3.556309
-2.3819764 2.3778214 3.580101
-2.3006637 2.3726785 3.5579107
-2.1654332 2.3654714 3.5604451
-2.1345854 2.3670108 3.5793278
-2.0738482 2.3682532 3.5582852
-2.0418005 2.3681552 3.5738163
-1.980608 2.3692632 3.5787826
-1.9489167 2.3801761 3.5879507
-1.86222 2.3721344 3.5606341
-1.7676696 2.3787966 3.5631869
-1.7272954 2.3806601 3.5829029
-1.6745988 2.3858917 3.5644734
-1.6304249 2.3819523 3.5743811
-1.5533116 2.3796401 3.5514944
-1.5313339 2.3829818 3.5884795
-1.4830607 2.3922687 3.5745008
-1.4294573 2.3836634 3.5730362
-1.3694122 2.3833776 3.5734494
-1.3253686 2.3773522 3.5767863
-1.2509259 2.3913236 3.577029
-1.2219329 2.3940315 3.5895014
-1.171952 2.3884277 3.5791686
-1.1273992 2.3859596 3.5577054
-1.0778283 2.387058 3.571697
-1.025884 2.3828974 3.5772147
-0.96890199 2.3876956 3.5720227
-0.91962063 2.3868561 3.5642283
-0.88019001 2.3877754 3.5735307
-0.82851321 2.3821294 3.5744057
-0.77425778 2.3679619 3.5618727
-0.72725928 2.3757958 3.5817871
-0.68606663 2.3897405 3.5688689
-0.62725037 2.3913629 3.5797873
-0.57704264 2.3879452 3.5811658
-0.52709299 2.3850427 3.5827093
-0.47994363 2.3859053 3.5758321
-0.42753813 2.3859789 3.5810604
-0.37730032 2.3920755 3.5681059
-0.32849634 2.3935974 3.5741241
-0.27000365 2.3968108 3.5827494
-0.22024581 2.3894897 3.5744219
-0.17137174 2.390631 3.578191
-0.12251015 2.3928697 3.5831192
-0.068579435 2.3967667 3.5802186
-0.024381893 2.3945405 3.5675139
0.024480514 2.3921735 3.5737941
0.07334172 2.3852286 3.572721
0.11269715 2.3906269 3.5800211
0.17172596 2.3944011 3.5838695
0.2204278 2.3902626 3.5755832
0.27964959 2.3943932 3.5785799
0.31887555 2.3942897 3.5759103
0.3686024 2.3987126 3.5788422
0.47510201 2.3907323 3.5569983
0.5249579 2.3947163 3.5575824
0.55457801 2.3954561 3.5552015
0.62835026 2.395155 3.5855484
0.6774838 2.3940525 3.5768189
0.777255 2.3966939 3.5649517
0.82010961 2.3929164 3.5790908
0.94453502 2.389411 3.58429
0.97404402 2.388252 3.5761738
1.0464896 2.3940358 3.5691266
1.0703504 2.3926191 3.582587
1.1491337 2.3892908 3.557678
1.181807 2.3944926 3.5574827
1.2331033 2.3959122 3.5896878
1.2799573 2.3886991 3.5645425
1.8913715 2.3957024 3.5916259
1.9354982 2.3978934 3.575881
-1.5328783 2.4060249 3.58079
-1.2255781 2.4016154 3.5569494
-0.66934836 2.4005895 3.5880141
-0.12194273 2.4014859 3.5566189
0.27846944 2.4039025 3.5533493
0.33957571 2.4019322 3.5859215
0.39844254 2.4008484 3.5795846
0.42808211 2.4015493 3.5779696
0.62494946 2.4018807 3.5557868
0.67013454 2.4044077 3.5667031
0.72988939 2.4037418 3.5836806
0.83786154 2.4001436 3.559485
0.86856818 2.4027915 3.5577564
0.9159447 2.4030981 3.5906198
1.0165101 2.4042611 3.5709317
1.1377385 2.4076431 3.590183
1.8707819 2.4040527 3.5652792
1.9104385 2.4036045 3.5722728
1.9750881 2.407403 3.5753098
2.0491157 2.4105792 3.5987177
2.0714769 2.4115841 3.5897479
2.1281137 2.403985 3.5737884
-2.1042554 -0.22960113 3.6131465
-2.0745442 -0.21740749 3.6118209
-2.0220101 -0.21945168 3.6358192
0.32175204 2.3366268 3.6481023
-2.6723292 2.3845105 3.6000819
-2.4123619 2.3637786 3.6216884
-2.3690805 2.3648674 3.619031
-2.3210738 2.371943 3.63134
-2.2554567 2.3719485 3.6379843
-2.2274594 2.3764381 3.6335235
-2.1780527 2.3693442 3.6168056
-2.1156406 2.3710995 3.6242638
-2.0674093 2.3638988 3.6065869
-2.0299366 2.3703163 3.6369483
-1.9675462 2.3685722 3.6095681
-1.92462 2.3788702 3.6223776
-1.8763727 2.3824065 3.624356
-1.8268857 2.3839271 3.6227899
-1.7801231 2.3768129 3.6207237
-1.7201625 2.3787344 3.6314752
-1.669991 2.3882201 3.6187592
-1.6238395 2.3819125 3.6248429
-1.5808268 2.3820853 3.6214859
-1.5247618 2.3823471 3.6289072
-1.4780332 2.386528 3.6361151
-1.4186525 2.3807437 3.6298478
-1.3625231 2.38658 3.6264224
-1.3149291 2.3879147 3.6276753
-1.2864875 2.3996022 3.6252599
-1.226445 2.382494 3.61356
-1.1883471 2.3878243 3.6325183
-1.1227481 2.3885655 3.6283469
-1.079221 2.392339 3.6230943
-1.0288674 2.3932006 3.6360552
-0.96383101 2.3826566 3.6331601
-0.9308573 2.3858399 3.6236751
-0.87626791 2.3842521 3.6106396
-0.79624313 2.384552 3.6256547
-0.73384261 2.3870516 3.6190398
-0.65405536 2.397387 3.6263371
-0.61998034 2.3815827 3.6065044
-0.57344657 2.3944385 3.6323519
-0.52366912 2.3948827 3.6388884
-0.41891861 2.3917644 3.6310825
-0.38488528 2.3927577 3.6219933
-0.31802833 2.3870904 3.6183631
-0.27239141 2.3981307 3.6245584
-0.22248742 2.3941536 3.6211758
-0.11386272 2.3977702 3.6305614
-0.08382827 2.3891191 3.6180768
-0.024661992 2.3937278 3.6257453
0.024717392 2.3883002 3.6175363
0.074110322 2.3913922 3.6216936
0.12357111 2.3911216 3.6202288
0.32482037 2.3809783 3.6219814
0.57344222 2.3938882 3.631592
0.60441434 2.3981409 3.6342835
0.6812861 2.3874896 3.6071415
0.74294078 2.3938978 3.6075964
0.78275722 2.393692 3.6006746
0.82037246 2.3962615 3.6400306
0.88069439 2.3960595 3.6286392
0.91213447 2.3993556 3.6277699
1.0193635 2.3943558 3.6402051
1.0621744 2.3994322 3.6387279
1.141075 2.3944025 3.6115098
1.1715308 2.3944473 3.6037788
1.2692337 2.3862741 3.6081698
1.8790622 2.3963742 3.6238823
2.022012 2.3951335 3.6353567
2.1189418 2.3978767 3.6481369
-1.4015737 2.400661 3.6383073
-1.266294 2.4001813 3.6319265
-1.1551201 2.4027057 3.6213222
-1.0067496 2.4089577 3.6231482
-0.6857661 2.4035668 3.6313486
-0.35192302 2.4000053 3.6221323
-0.17369683 2.4035263 3.6374295
-0.13382936 2.4005589 3.6342616
-0.054579284 2.4043796 3.6416376
0.14347227 2.4140787 3.6143365
0.17392355 2.405066 3.6397939
0.22344893 2.4035244 3.6353552
0.27312291 2.4037752 3.6331363
0.37204617 2.4012294 3.6224718
0.42286018 2.4080725 3.6285551
0.47250491 2.4078383 3.6234641
0.52739012 2.405057 3.6296532
0.57102478 2.4036875 3.6060696
0.61373103 2.4052892 3.6235986
0.66545671 2.402144 3.6321845
0.71888947 2.4135399 3.6419392
0.76883453 2.4125743 3.6324568
0.82613742 2.4038782 3.6089807
0.86922199 2.405683 3.6178515
0.93410861 2.4040396 3.6308055
1.0276419 2.4102678 3.6207123
1.0833691 2.4013605 3.6368971
1.1144795 2.4128253 3.6261501
1.2212505 2.4022031 3.625519
1.2577428 2.4032669 3.6396022
1.9377376 2.4057622 3.6413434
1.9799284 2.404906 3.6205587
2.0236816 2.4059002 3.6020155
2.0835295 2.4039485 3.6228988
2.1462817 2.4041126 3.6467919
2.1687775 2.4048529 3.6369097
-2.172219 -0.41998607 3.683923
-2.2071714 -0.37474978 3.6962798
-2.1732237 -0.37610143 3.6927223
-2.2029531 -0.32475972 3.6926529
-2.1807153 -0.32438886 3.6971116
-2.1840205 -0.27414399 3.6804192
-2.1231339 -0.25332388 3.6864974
-2.065208 -0.2522344 3.6906867
-1.9746382 -0.222092 3.6686523
-1.9385498 -0.21021116 3.6751904
-2.0660493 -0.12250549 3.689781
-2.0281928 -0.13025612 3.6927085
-2.6781778 2.37568 3.6732683
-2.3148284 2.3771849 3.6746225
-2.214896 2.375499 3.6663666
-2.1768653 2.3699436 3.6744633
-2.1188664 2.3650885 3.6657014
-2.0759687 2.3767805 3.6819251
-2.0296638 2.3735738 3.697278
-1.9802574 2.369828 3.6722553
-1.9187632 2.3659077 3.6786923
-1.8773296 2.3704154 3.6659408
-1.8185694 2.3688607 3.6746359
-1.7732662 2.3747809 3.670047
-1.7272444 2.3819461 3.6843834
-1.6771727 2.3802745 3.6672928
-1.627481 2.3710535 3.6770883
-1.5732039 2.3792019 3.6864402
-1.5116371 2.3860984 3.6715035
-1.4652382 2.3786969 3.6737866
-1.4269933 2.3855805 3.6822071
-1.3745024 2.3868325 3.669282
-1.3188726 2.3800347 3.674015
-1.2735556 2.3881371 3.6662707
-1.2116754 2.3932786 3.6802592
-1.1745721 2.3945169 3.6769559
-1.1366836 2.3873854 3.6893859
-1.0786048 2.3932769 3.6685209
-1.0149441 2.387738 3.6738238
-0.98556691 2.3892841 3.6681092
-0.91924369 2.3876333 3.6718116
-0.87462604 2.3870974 3.6579428
-0.82433522 2.3879516 3.6683941
-0.77369589 2.3875766 3.6764235
-0.74667609 2.3983233 3.6978765
-0.67669296 2.3930175 3.6746292
-0.62880713 2.3953042 3.6680419
-0.57697415 2.3892558 3.6651516
-0.52825141 2.395607 3.680779
-0.46255362 2.3920641 3.6683445
-0.42699778 2.3922322 3.6856532
-0.37640679 2.3949866 3.683892
-0.32848164 2.3887665 3.674371
-0.27508697 2.3936779 3.6744018
-0.2345468 2.3965242 3.6646223
-0.11455645 2.392451 3.6627805
-0.074759319 2.3954201 3.6680789
-0.034795664 2.3901999 3.6605864
0.045068059 2.3913693 3.682668
0.07495524 2.3874638 3.6762524
0.12480553 2.3860111 3.6729658
0.17513265 2.3914785 3.6798491
0.22497202 2.3897035 3.6750124
0.27246594 2.3936775 3.685518
0.31885806 2.3909354 3.6783717
0.37272587 2.393564 3.6786273
0.43716687 2.3921995 3.6847377
0.48814681 2.3958228 3.6854618
0.52802801 2.3941066 3.6785095
0.56775075 2.3920176 3.6706986
0.60984975 2.3995321 3.6772301
0.92895949 2.3966222 3.6628342
0.97984701 2.3969193 3.6528831
1.0014349 2.3999963 3.6532264
1.0713171 2.3995664 3.6806784
1.1256108 2.3919113 3.6700566
1.1526191 2.3981202 3.6587939
1.2347552 2.3978894 3.6820147
1.2864599 2.3979797 3.6680243
2.0053144 2.3922036 3.6909301
2.0740519 2.3963251 3.6668699
-1.236902 2.4022217 3.6885359
-1.0413512 2.4015927 3.6906278
-0.72175336 2.4033201 3.6673217
-0.57964128 2.4000721 3.6817822
-0.49016228 2.4030297 3.6688473
-0.3550458 2.401289 3.6644647
-0.21523881 2.4038713 3.6768019
-0.17527629 2.4051685 3.6803958
-0.13499434 2.4014506 3.6760345
-0.075032838 2.4033537 3.6802695
0.28523922 2.4021995 3.670599
0.38537386 2.4026423 3.6642275
0.42119157 2.4022946 3.6709189
0.47415438 2.4063513 3.6756551
0.50533324 2.4019897 3.6519377
0.59055215 2.4030318 3.6851411
0.64012563 2.4098063 3.6683984
0.67340738 2.4105062 3.6858017
0.72300041 2.4071593 3.6732464
0.77264971 2.4043741 3.660949
0.83069742 2.4059908 3.6962247
0.86334985 2.4118099 3.6996939
0.90065157 2.4023135 3.6775088
0.96111584 2.4008486 3.6631184
1.0437552 2.4038208 3.6500406
1.0746751 2.4070516 3.6921043
1.1788362 2.4098353 3.6714616
1.2085443 2.4075341 3.6599422
1.2716068 2.4089816 3.6906195
1.9355357 2.4082325 3.699378
1.9731485 2.4012558 3.6694498
2.0344012 2.4008927 3.6943381
-2.0809453 -0.45213377 3.7268617
-2.1234465 -0.42322063 3.7184498
-2.0727038 -0.42294717 3.7363055
-2.2095404 -0.35538104 3.70169
-2.1238735 -0.37404585 3.7230539
-2.0701952 -0.37327144 3.7355738
-2.0416152 -0.38328773 3.7484856
-2.1595526 -0.32417685 3.7031925
-2.1222837 -0.32451299 3.7236531
-2.0704222 -0.32412726 3.7393224
-2.0387452 -0.3139753 3.7478511
-2.1684642 -0.28184545 3.7069123
-2.121031 -0.28497106 3.7238016
-2.0702085 -0.28476176 3.7412546
-2.0261309 -0.26693425 3.7344532
-1.9770404 -0.25953749 3.7386372
-1.9450549 -0.23127159 3.7086699
-2.0139959 -0.11604716 3.710346
-1.9723517 -0.12558179 3.7199116
-2.0567534 -0.096802093 3.7022171
-2.0196173 -0.092035607 3.7211449
-1.9690385 -0.087100513 3.7365115
0.32621914 2.3088017 3.7276268
-2.3073273 2.3815503 3.7462933
-2.2735898 2.3804331 3.7032256
-2.2335575 2.3851333 3.7334659
-2.1811471 2.3645453 3.7178657
-2.1144478 2.3640139 3.7490683
-2.0792298 2.3656161 3.7270598
-2.0226908 2.3691134 3.7461395
-1.9765321 2.3750997 3.7242072
-1.927493 2.3683615 3.7324443
-1.8669609 2.3683667 3.7054045
-1.8255372 2.3704383 3.7262402
-1.7737147 2.3694887 3.7194066
-1.7277635 2.3760054 3.7236316
-1.6710969 2.3735111 3.7234433
-1.6173838 2.3676033 3.7319596
-1.5784394 2.381871 3.7382514
-1.5278344 2.3798637 3.7273185
-1.4794748 2.3806882 3.7203236
-1.4277853 2.3822992 3.7392991
-1.3767297 2.3826761 3.71984
-1.3191819 2.3785844 3.7177112
-1.2670032 2.3853691 3.7283382
-1.2221018 2.3930404 3.7225428
-1.166566 2.3858147 3.7244864
-1.1204151 2.3900788 3.7277822
-1.0799224 2.3879964 3.7262282
-1.0405535 2.3880689 3.7276523
-0.96734864 2.3908966 3.7182646
-0.92583895 2.389827 3.7248003
-0.81356555 2.3954704 3.7252986
-0.76787502 2.3807247 3.7090862
-0.72157204 2.3958197 3.7405212
-0.67071408 2.3969748 3.7496929
-0.63076127 2.3965411 3.7223709
-0.57352644 2.3964555 3.7187791
-0.521649 2.3913729 3.7166264
-0.48286879 2.3999884 3.7342663
-0.40096486 2.3965778 3.7363431
-0.36857969 2.3841197 3.7193089
-0.3290059 2.3900232 3.7314243
-0.28517079 2.3970416 3.7313519
-0.2274088 2.3964713 3.726563
-0.19685265 2.3937526 3.7236557
-0.12572445 2.3955708 3.7081523
-0.082200259 2.3911097 3.7159121
0.025272347 2.3849025 3.7240794
0.075524293 2.3755088 3.7192047
0.12588722 2.3763328 3.7194402
0.17643631 2.3790836 3.7222033
0.22727223 2.3837798 3.7274456
0.27790213 2.3851495 3.7269926
0.30878505 2.3894763 3.7319374
0.37082571 2.3979335 3.7409062
0.52583128 2.3876917 3.7245224
0.55431759 2.3905516 3.7329199
0.61248189 2.3896272 3.7032611
0.65504169 2.3972054 3.7096379
0.71674967 2.399826 3.7049527
0.78346884 2.3970039 3.7328751
0.9339624 2.3948102 3.746119
1.1152836 2.3931863 3.7193224
1.2787346 2.391118 3.7274382
1.9678564 2.3995097 3.7217159
-1.0083479 2.4001822 3.7397406
-0.8570624 2.4026549 3.7293091
-0.75406832 2.401536 3.7447596
-0.71777683 2.4036183 3.710721
-0.46311575 2.4029992 3.7409317
-0.43266407 2.4034579 3.7444439
-0.16683826 2.4081764 3.7264428
-0.055624802 2.4099901 3.7318099
-0.035363376 2.4090014 3.7304688
0.58559704 2.4039254 3.7292085
0.64008915 2.4174345 3.7436934
0.68822241 2.40675 3.7201185
0.73742121 2.4009368 3.7035689
0.7675547 2.4035904 3.7173376
0.81971616 2.4032049 3.7260106
0.88171202 2.4111416 3.7241242
0.92907071 2.402833 3.7161949
0.98618662 2.4170282 3.7277658
1.0283382 2.4086332 3.7273057
1.0737977 2.4075394 3.7376957
1.1841154 2.4069736 3.7255163
1.222253 2.4068589 3.7307777
1.2598956 2.4054744 3.7337818
1.9167727 2.4118958 3.7143981
1.9903195 2.4003193 3.7132902
-2.0254309 -0.45294461 3.7571602
-1.9681034 -0.45112318 3.7609198
-2.025728 -0.42344594 3.7602341
-1.9766769 -0.42349747 3.7797971
-2.0188401 -0.37112099 3.7640877
-1.9811888 -0.37415916 3.7808459
-2.0173962 -0.32614094 3.7605507
-1.9818705 -0.32416987 3.7741699
-2.0173206 -0.29407594 3.7534609
-1.9740661 -0.28371927 3.7614982
-2.2839155 2.3923211 3.7807443
-2.1157956 2.3556917 3.7879333
-2.0624962 2.3677335 3.7805605
-1.9769161 2.3667982 3.7618642
-1.9389508 2.3739333 3.7920303
-1.8790264 2.3756652 3.7668166
-1.8264077 2.3639333 3.7657218
-1.7758206 2.3663204 3.7726681
-1.7330434 2.3764529 3.7734466
-1.6793706 2.3617373 3.7658691
-1.629559 2.3672879 3.7937572
-1.5802969 2.3794267 3.7826226
-1.5057201 2.3738503 3.7724688
-1.4751692 2.3738668 3.7740223
-1.4239843 2.3724284 3.7710066
-1.374976 2.374037 3.7723789
-1.3205608 2.3789241 3.7647095
-1.2733806 2.3895431 3.7803071
-1.2202439 2.3784709 3.7673576
-1.1771736 2.3865824 3.7688847
-1.123861 2.384469 3.7780468
-1.0726779 2.3868947 3.7937937
-1.022635 2.3887153 3.7624073
-0.96916914 2.3849697 3.7671921
-0.9169901 2.3941557 3.7703881
-0.87203431 2.3950264 3.7579474
-0.82841295 2.3913252 3.7742198
-0.78892314 2.3933768 3.7694769
-0.7273711 2.3944421 3.7807591
-0.67473483 2.3906748 3.7821472
-0.62559801 2.3935835 3.7789829
-0.56733978 2.3928835 3.7562845
-0.53694701 2.3941646 3.7617493
-0.46563947 2.3956161 3.7713549
-0.42417768 2.3926525 3.770355
-0.36394295 2.3999214 3.7867467
-0.32212129 2.3935475 3.7794774
-0.26078248 2.3941734 3.784122
-0.24051473 2.3960674 3.7881489
-0.16843149 2.3995855 3.77564
-0.11780468 2.3988087 3.7969153
-0.055844564 2.3992064 3.7565839
-0.015323506 2.399868 3.7999644
0.02552429 2.387655 3.7805593
0.072891057 2.3721979 3.7696354
0.12715836 2.3792148 3.7656333
0.17828912 2.3736639 3.7763362
0.22857971 2.3771143 3.7586601
0.27728793 2.3817062 3.7775652
0.31097794 2.3860385 3.7683496
0.38261127 2.377387 3.7707033
0.41500196 2.3980832 3.779855
0.51837069 2.392035 3.7818239
0.5698061 2.392652 3.7771425
0.74904472 2.3974261 3.7824459
0.78029549 2.3982215 3.7788482
0.88323534 2.3971877 3.7595601
0.91362214 2.3955874 3.7512984
1.0050448 2.3960249 3.7784135
1.2234983 2.3951128 3.7719219
1.2673596 2.3986752 3.7665868
1.8802583 2.3989651 3.7580504
-0.76022094 2.4004333 3.7855213
-0.69260824 2.4018762 3.7544808
-0.61098504 2.4037149 3.768338
-0.59116286 2.4066315 3.7754328
-0.50866628 2.4054868 3.7828298
-0.48896927 2.4097106 3.7915523
-0.38545275 2.406183 3.7950728
-0.32355657 2.4045832 3.7969494
-0.25940725 2.4019029 3.7542717
-0.17862862 2.4102843 3.7710118
-0.12763625 2.411624 3.7746842
-0.096727364 2.4048855 3.764842
-0.015226471 2.4049375 3.7658541
0.39276347 2.407877 3.7548268
0.42862734 2.411459 3.7715676
0.47717294 2.4119637 3.7749641
0.62311941 2.4104233 3.7775867
0.67875934 2.4061766 3.7778485
0.72635895 2.4062037 3.7674382
0.82323605 2.4028964 3.7794173
0.85432428 2.4029937 3.7742376
0.97228295 2.4131422 3.7686148
1.0260867 2.4033318 3.7711668
1.0821503 2.4053717 3.7773333
1.1164254 2.4116898 3.780092
1.1649075 2.4036081 3.7549658
-1.9758022 -0.39574587 3.803133
-2.3519409 2.3817835 3.8430953
-2.3223495 2.3860164 3.8071089
-2.2661526 2.3862054 3.8163328
-2.2364941 2.3792157 3.8361473
-2.0933368 2.3679676 3.8231158
-2.0312071 2.3828807 3.8246331
-1.9744351 2.3681335 3.8201013
-1.9202642 2.3677535 3.8239586
-1.8716662 2.3721375 3.8162494
-1.8311948 2.3624139 3.813633
-1.760916 2.3669837 3.8230047
-1.7238417 2.3719041 3.8198714
-1.6598254 2.3582072 3.8171728
-1.6305848 2.3735485 3.8303781
-1.5690955 2.3734818 3.8254795
-1.5316656 2.3763413 3.817919
-1.4707975 2.3695664 3.8296857
-1.4208338 2.381465 3.8365211
-1.3661016 2.3742065 3.8232186
-1.3263228 2.3871775 3.8250656
-1.2705652 2.3825471 3.8318443
-1.1752301 2.3828552 3.8092711
-1.1250365 2.3882647 3.8303976
-1.0806556 2.3835409 3.8322854
-1.0243587 2.3856957 3.8250144
-0.97288495 2.3831384 3.8235624
-0.85581005 2.3949785 3.8498385
-0.80946141 2.3926136 3.8312399
-0.77613991 2.3969274 3.8213706
-0.72195882 2.390094 3.8182983
-0.6690926 2.3866873 3.8201227
-0.62877309 2.3912597 3.8328466
-0.5817799 2.3955801 3.8346355
-0.51871061 2.3928249 3.8189535
-0.48171189 2.3936715 3.8312762
-0.43838966 2.3940184 3.8141093
-0.28430331 2.3995624 3.8341222
-0.16014907 2.3985183 3.8379171
-0.12893836 2.3946834 3.8326573
-0.09772265 2.3884747 3.8234253
-0.015407878 2.3925693 3.8309104
0.029927876 2.3807216 3.8289669
0.080569953 2.3717272 3.8253682
0.12846918 2.3734882 3.820049
0.1799968 2.3657193 3.8273606
0.22122061 2.3766553 3.82197
0.27289781 2.3767066 3.8237987
0.31396812 2.3780556 3.8193176
0.39664114 2.3697932 3.8216171
0.42666054 2.3908651 3.8389511
0.47494346 2.3907087 3.8163011
0.54289466 2.3994532 3.8126645
0.58811295 2.3944774 3.8431201
0.61534333 2.3997416 3.8046827
0.75577414 2.398102 3.8265479
0.83930302 2.3985195 3.813796
0.8729372 2.3945258 3.8237474
0.90908867 2.3967388 3.8434567
1.0913296 2.3941855 3.8251491
1.1176633 2.3948336 3.8434639
1.1515926 2.3993273 3.8433511
1.2344571 2.395395 3.8163471
1.2718287 2.3951826 3.83005
-0.56436127 2.4032731 3.8163671
-0.4913933 2.4009554 3.8203602
-0.40858051 2.4007008 3.8273907
-0.38883737 2.4065633 3.8383811
-0.32648006 2.4053643 3.8408515
-0.28252229 2.4050868 3.8002474
-0.21145809 2.4047101 3.8245366
-0.17017019 2.4039254 3.8248458
-0.1388808 2.4088433 3.8122692
-0.097540013 2.4045503 3.8064473
-0.036165576 2.401675 3.8453829
0.43964338 2.4002368 3.8240697
0.64853191 2.4077861 3.8134859
0.67027909 2.4113729 3.8164077
0.7246356 2.408762 3.8265944
0.77878463 2.4047859 3.8339922
0.8109594 2.4072225 3.8328502
0.92467314 2.4035933 3.8068531
0.97729021 2.4069943 3.82493
1.0276933 2.4037833 3.8320627
1.0699229 2.4039958 3.8234046
1.1329278 2.4034548 3.80827
1.1815771 2.4061501 3.8245463
1.2168928 2.4025493 3.8330975
-2.3705938 2.3775845 3.8855741
-2.327297 2.3800719 3.8723707
-2.2781839 2.3764293 3.8691068
-2.2422674 2.3626349 3.8577783
-2.109735 2.3639975 3.8645566
-2.0780816 2.3889229 3.8721223
-2.0235162 2.3776944 3.8735161
-1.9697745 2.3669853 3.8749721
-1.8692374 2.3750021 3.8765688
-1.8180575 2.388217 3.8680902
-1.7340041 2.3639994 3.8533194
-1.6715186 2.3684988 3.883955
-1.6085893 2.367408 3.8774467
-1.5730445 2.3740742 3.8758392
-1.5275133 2.3709784 3.8846152
-1.4938873 2.3693652 3.8920319
-1.4338627 2.3684146 3.8749039
-1.3889728 2.37888 3.8901637
-1.3239843 2.3808072 3.8626099
-1.2722422 2.3842463 3.8823371
-1.2232771 2.3832669 3.8690054
-1.1760608 2.3848925 3.8595157
-1.1266484 2.3928823 3.8847916
-1.0696613 2.3849373 3.8836074
-1.0270247 2.3847785 3.8922348
-0.93270767 2.3720632 3.8657198
-0.82870221 2.3865852 3.885632
-0.79442281 2.3998654 3.8680849
-0.72018731 2.3979125 3.8759668
-0.62443662 2.3936 3.88149
-0.57052332 2.3876185 3.877954
-0.31757015 2.3957705 3.869338
-0.17139605 2.3905458 3.8678677
-0.13968335 2.3813615 3.8539662
-0.057253771 2.3972898 3.8813555
-0.02592379 2.3911529 3.8716643
0.026025647 2.3740747 3.8728647
0.078169361 2.3745546 3.8876562
0.12002988 2.3790317 3.894187
0.17133677 2.3678524 3.8744068
0.21970487 2.3597815 3.8739259
0.27574894 2.3720076 3.8766811
0.32617062 2.3611007 3.855835
0.40229079 2.3826363 3.8858149
0.4857834 2.392628 3.8730059
0.51742804 2.3940139 3.8721318
0.55110729 2.3937347 3.8902578
0.65758061 2.3992684 3.8868022
0.76300025 2.3999689 3.873204
0.82574546 2.3988562 3.8614082
0.88491631 2.3956332 3.8914871
1.0692304 2.3943324 3.8766875
1.1383473 2.3948703 3.8857567
1.1716037 2.3973207 3.8822846
1.213146 2.3948708 3.8680444
-0.76438951 2.4047103 3.8807688
-0.6793468 2.4022508 3.8887906
-0.53824997 2.4047027 3.8653049
-0.46644354 2.4117613 3.8838923
-0.42269403 2.4013963 3.870842
-0.37058812 2.4072227 3.8734379
-0.27326283 2.4099739 3.8803854
-0.22968824 2.4078927 3.8828142
0.54852968 2.4034483 3.8622217
0.62227452 2.4058588 3.8576093
0.67609078 2.4113514 3.8596516
0.72210097 2.409204 3.8832893
0.78509349 2.403177 3.8751521
0.82914001 2.4086976 3.8772969
0.93742335 2.4049449 3.8748827
0.97458965 2.4060688 3.8772967
1.0273801 2.4067304 3.8832257
-2.3995903 2.3832958 3.9450617
-2.312839 2.3774624 3.9144626
-2.1261642 2.3841953 3.9369733
-2.0742602 2.3878655 3.9287419
-2.0294828 2.3753746 3.9227858
-1.8847711 2.3723378 3.9198267
-1.8232857 2.379982 3.9218919
-1.7777661 2.371304 3.9041781
-1.7435375 2.3699396 3.9139936
-1.6823004 2.3616695 3.9196587
-1.6254652 2.3702717 3.9288373
-1.5701034 2.3620815 3.9262085
-1.5175672 2.367655 3.9323947
-1.4756126 2.3640018 3.9129195
-1.4178126 2.3693147 3.914331
-1.3726352 2.3797967 3.9294369
-1.3257713 2.381804 3.9126933
-1.2837024 2.3840699 3.927701
-1.2301399 2.3852615 3.9431384
-1.166605 2.3807247 3.9340079
-1.1246564 2.3900409 3.9278145
-1.0771632 2.3802068 3.9209599
-1.0454831 2.3812854 3.9294651
-0.92966187 2.3807325 3.9041455
-0.88008165 2.3904033 3.9294558
-0.81903315 2.3887618 3.92523
-0.77322215 2.3929482 3.9203365
-0.67344457 2.3976796 3.9270694
-0.6195538 2.394331 3.928236
-0.58787024 2.3946934 3.93255
-0.50390756 2.3984168 3.947583
-0.47831956 2.3977449 3.9041092
-0.42871279 2.3932855 3.9457507
-0.28238094 2.3932617 3.9259701
-0.22588888 2.3968434 3.9197907
-0.057632074 2.3921707 3.9167762
-0.026204236 2.3849819 3.9273446
0.021141948 2.3853593 3.9390068
0.082302757 2.3663321 3.9327786
0.12042768 2.3661954 3.9170339
0.17319448 2.372014 3.9251759
0.23752466 2.3857613 3.945471
0.27838483 2.3746345 3.9249742
0.32975709 2.3661251 3.9078672
0.42565197 2.3965235 3.9067726
0.47048441 2.3899155 3.9365757
0.59913623 2.396915 3.9350414
0.62109184 2.3998141 3.9373024
0.7903803 2.3981285 3.9112716
1.1819843 2.39694 3.9269691
1.2134618 2.3951831 3.9164145
-0.72910511 2.4063425 3.9340355
-0.52209717 2.405735 3.9129894
-0.45777386 2.4002702 3.9101353
-0.42709437 2.4053216 3.9210653
-0.3745679 2.4067676 3.9274883
-0.32194218 2.4076076 3.932415
-0.22634396 2.4015119 3.9274678
-0.17414734 2.4078825 3.9399066
-0.14273846 2.4122915 3.9480939
0.53653806 2.4014726 3.9494832
0.58365345 2.4055107 3.9210818
0.63408154 2.4094875 3.9217298
0.67712212 2.4048359 3.9235723
0.72960478 2.4076869 3.9362888
0.7715984 2.4057148 3.9268873
0.82549834 2.4076581 3.9217515
0.85817152 2.4097714 3.9199455
0.92607939 2.4093664 3.9305892
0.98306757 2.4071887 3.9395552
1.0238361 2.4020004 3.9226208
1.0594035 2.4097693 3.9287055
1.1185342 2.4063718 3.9259939
1.1516668 2.4012504 3.9415169
-2.4096465 2.3698156 3.9734211
-2.3849602 2.3802552 3.9773183
-2.3368268 2.3787944 3.9668345
-2.1632993 2.3778353 3.9857061
-2.1208634 2.380477 3.9805186
-2.0653987 2.3696737 3.9820592
-2.0487938 2.3751338 3.9713609
-1.9208755 2.3808415 3.9780016
-1.8643627 2.3891699 3.9606812
-1.8419986 2.389375 3.9695277
-1.7823781 2.3700008 3.9538004
-1.6797345 2.3670001 3.9837818
-1.627214 2.3556285 3.9792967
-1.5487131 2.376678 3.9913948
-1.4707172 2.3693917 3.975251
-1.4311924 2.3697271 3.9616396
-1.3782543 2.3729842 3.9822626
-1.324628 2.3774989 3.9546261
-1.2721887 2.3814149 3.9751
-1.2308719 2.3859692 3.9933705
-1.1965618 2.3830044 3.9961326
-1.134208 2.3777103 3.9763398
-1.0842309 2.3742087 3.9566894
-0.86525071 2.3869429 3.9726954
-0.82276225 2.3883994 3.9820805
-0.7768178 2.3901052 3.9687407
-0.72489619 2.3918626 3.9869528
-0.66735524 2.3926125 3.9650202
-0.62411904 2.3907056 3.9671335
-0.57141358 2.3933146 3.9775276
-0.51719892 2.3895755 3.9768476
-0.44383973 2.3965759 3.9953201
-0.38900578 2.3883164 3.9857297
-0.31235269 2.3939784 3.9551523
-0.10096338 2.3932481 3.9847097
-0.079440571 2.3962243 3.9675546
-0.026489319 2.3792233 3.9846778
0.026628794 2.3795698 3.9852436
0.069181092 2.382494 3.9897888
0.12142663 2.3641801 3.9581633
0.17492719 2.3748105 3.9744644
0.22782731 2.373456 3.9702034
0.2701351 2.3731914 3.9677711
0.32439348 2.3823252 3.9800379
0.43342143 2.3974342 3.9976771
0.45467144 2.3966441 3.9945695
0.62646854 2.3991585 3.9812288
0.66846263 2.3961651 3.970983
0.82169652 2.3957038 3.9715557
0.87996054 2.3974285 3.9884257
0.93428934 2.3983316 3.9805453
0.99944574 2.3991992 3.9698954
1.1276298 2.3974695 3.9885559
1.1807857 2.3948116 3.9719496
-0.73455215 2.4028594 3.9733655
-0.5689227 2.4041526 3.9504542
-0.53676271 2.4029832 3.9519043
-0.47314042 2.4037557 3.959342
-0.37725368 2.4026828 3.9653161
-0.33465445 2.4020271 3.9671414
-0.26110783 2.4098852 3.9843249
-0.21866488 2.4117663 3.9893687
-0.1649843 2.4070446 3.9834986
0.53091788 2.4028447 3.9979167
0.56020933 2.4119148 3.964417
0.64828146 2.4006336 3.9810779
0.69133663 2.4013278 3.9767566
0.72378975 2.4023261 3.9740496
0.76760805 2.4051991 3.9726686
0.82114291 2.4048929 3.9639416
0.87688333 2.4105444 3.9644818
0.91163599 2.4063187 3.9747891
0.96825582 2.4022214 3.9810479
1.0456814 2.406158 3.972826
1.0772572 2.4040747 3.9626734
1.1097028 2.4040294 3.9556828
1.875808 2.403728 3.9850309
-2.3728981 2.3799684 4.0140438
-2.339016 2.3694885 4.0078464
-2.1861341 2.3796005 4.0391483
-2.1169672 2.3776054 4.0056276
-2.0924194 2.3759189 4.0126925
-1.9143999 2.3896656 4.0262709
-1.8738679 2.3931494 4.0203772
-1.8271074 2.3915133 4.0344248
-1.7174594 2.3659475 4.0229425
-1.6569717 2.3599668 4.0314369
-1.6196827 2.3658566 4.0279946
-1.5603008 2.3720779 4.0316882
-1.5242289 2.3698127 4.0207248
-1.4744655 2.3710575 4.0289164
-1.4099094 2.3672702 4.0140595
-1.3820425 2.3626328 4.0300908
-1.3432715 2.3777585 4.0257797
-1.2941707 2.37989 4.0168014
-1.2257793 2.3754084 4.0251966
-1.1734917 2.3807375 4.0303364
-1.122884 2.3778958 4.0280895
-1.0853282 2.3786976 4.0128536
-0.90621197 2.3884151 4.0156946
-0.87263143 2.3856473 4.0165157
-0.8292557 2.3856385 4.0234823
-0.7744081 2.3890073 4.0257926
-0.71526337 2.3861561 4.0252361
-0.67793244 2.3888683 4.0191331
-0.63084936 2.3947566 4.0194378
-0.5758931 2.3905602 4.0184793
-0.51266736 2.3969162 4.035789
-0.47958505 2.3933735 4.0328035
-0.42619443 2.3963959 4.0424309
-0.35816294 2.3958659 4.0005975
-0.33993569 2.3967474 4.0491867
-0.29413977 2.396976 4.0063839
-0.1669248 2.3922598 4.0496845
-0.11221793 2.3858426 4.0173941
-0.06961979 2.3893971 4.024147
-0.037614789 2.3904531 4.0490694
0.026845232 2.37363 4.0205975
0.080356844 2.3770814 4.0259466
0.12314413 2.3767791 4.0246291
0.1763926 2.3676186 4.019083
0.22668453 2.370187 4.0254016
0.27293807 2.3760545 4.0178938
0.30478248 2.3741627 4.01298
0.67526776 2.3989377 4.0212255
0.81232387 2.3992474 4.0498867
0.89800024 2.3951426 4.0289531
0.92160189 2.3999224 4.0332437
1.0741264 2.3996119 4.0037017
1.124698 2.3925977 4.0294638
1.3813443 2.397203 4.026073
1.4040178 2.3980379 4.0214791
1.4592311 2.3935902 4.0495257
-0.47708559 2.4023719 4.0021782
-0.42316884 2.4006703 4.0038962
-0.3269037 2.4018435 4.0126362
-0.26316983 2.4072454 4.025218
-0.23066095 2.4043822 4.0219259
0.49867368 2.4025059 4.0004864
0.54735196 2.4064941 4.0487566
0.57798457 2.4094834 4.0273566
0.6179989 2.4073648 4.02706
0.65632576 2.4087129 4.040319
0.72132367 2.4085672 4.0316467
0.77648556 2.4113858 4.0287304
0.8065002 2.4037108 4.0110593
0.85166335 2.4089937 4.0130501
0.94489169 2.403688 4.0357184
0.98866618 2.4039009 4.0280709
1.022877 2.4072638 4.0274162
1.0537615 2.4028976 4.0136371
1.3607497 2.400007 4.0366693
1.817933 2.4020991 4.0034494
-1.6201587 2.3492482 4.0764318
-2.4624939 2.3857808 4.0783377
-2.4309688 2.3903575 4.0718079
-2.3844285 2.3796515 4.0711174
-2.1661994 2.3762467 4.0812583
-2.1243563 2.3756649 4.0578108
-2.082118 2.3673382 4.0583024
-1.9124285 2.3813908 4.0958557
-1.8766584 2.3826144 4.0688152
-1.8281202 2.3734663 4.0823298
-1.699221 2.3650265 4.0819659
-1.6142486 2.3631895 4.0513082
-1.5987335 2.35094 4.0863552
-1.4573469 2.364095 4.0992908
-1.4206741 2.3630469 4.054883
-1.3721926 2.3563201 4.0552206
-1.3168979 2.3789735 4.060133
-1.2713468 2.3769364 4.0675907
-1.2159346 2.3771451 4.0810137
-1.1700163 2.3740933 4.085722
-1.1325918 2.3763134 4.0728292
-0.9152357 2.3902647 4.0655499
-0.87073612 2.3884623 4.0697551
-0.82801419 2.391613 4.0820818
-0.76991725 2.3815045 4.0729036
-0.72535193 2.3786514 4.0740662
-0.67881793 2.3884015 4.0812926
-0.62959135 2.3842621 4.0673165
-0.57082379 2.3929372 4.0699148
-0.52780229 2.3950162 4.0778589
-0.47241735 2.390255 4.0747352
-0.41870153 2.3934538 4.0846539
-0.37813318 2.3964398 4.0771809
-0.33064699 2.3964915 4.0726066
-0.28707677 2.395505 4.0733833
-0.059292767 2.3964071 4.0589609
0.026989829 2.3915732 4.0510335
0.091894887 2.3773217 4.0722685
0.12419474 2.3752041 4.0679922
0.17813128 2.3755436 4.0670509
0.24344446 2.3802633 4.0726705
0.27534455 2.3753474 4.0627089
0.59209234 2.3904259 4.0633717
0.62686396 2.3987873 4.0738902
0.65904623 2.3968976 4.0668068
0.79422331 2.3994784 4.0770397
0.84125191 2.3977323 4.0909066
0.97272795 2.3965926 4.0666976
1.075488 2.3940663 4.0670624
1.3137605 2.393352 4.0876093
1.4175348 2.3986993 4.0705576
1.5403574 2.3930485 4.0776629
-0.5372358 2.4102871 4.0561814
-0.36247882 2.4030855 4.0584879
-0.26523033 2.4043751 4.0662985
0.48622975 2.404089 4.0974293
0.51807261 2.4106832 4.0822821
0.68370169 2.4070086 4.0812464
0.72648972 2.4038277 4.0701175
0.7700243 2.4033327 4.0632348
0.83722085 2.4081438 4.0615273
0.87181139 2.4129846 4.0644231
0.92159218 2.4065151 4.0932641
0.97472489 2.4014854 4.0749478
1.0323715 2.4075427 4.074894
1.0871533 2.4066272 4.0623569
1.3536996 2.4047089 4.0985184
1.8624551 2.4077144 4.0536203
-2.4719448 2.3824122 4.1316805
-2.4187531 2.3779125 4.1150036
-2.3955348 2.3786809 4.1279597
-2.2207632 2.3935907 4.1145048
-2.1331255 2.3750997 4.113162
-1.9726961 2.3984883 4.1075492
-1.9395289 2.3889832 4.1299834
-1.8793139 2.3727086 4.1289496
-1.7636744 2.3677912 4.1215692
-1.6144704 2.351249 4.1367865
-1.568099 2.3729589 4.1383619
-1.3198993 2.3822463 4.1170068
-1.2681619 2.369523 4.1058493
-1.2364662 2.3730659 4.1198282
-1.184916 2.3818517 4.1476812
-0.95066369 2.3802147 4.1399179
-0.92278773 2.3805611 4.1122422
-0.87829387 2.3815248 4.11724
-0.82111132 2.3814883 4.1138101
-0.77946824 2.3890576 4.133357
-0.72185177 2.3813028 4.1274509
-0.67832464 2.3832138 4.1364026
-0.57709825 2.3861418 4.1289563
-0.53121865 2.3885875 4.113821
-0.47784701 2.3955796 4.1308742
-0.42277122 2.3947968 4.1340141
-0.37859547 2.3932536 4.1345253
-0.33527473 2.3973646 4.144455
-0.21390429 2.3926237 4.1422272
-0.19217065 2.3952665 4.147603
0.22438456 2.3860557 4.1304154
0.26781458 2.3829615 4.1231518
0.77034414 2.3945704 4.1445241
0.80456883 2.3974726 4.1447997
0.8942495 2.3999279 4.1352901
0.95982981 2.3972785 4.119401
1.0713772 2.3986316 4.100852
1.428091 2.39397 4.111156
1.4522333 2.3965607 4.1094503
-0.31125551 2.4036503 4.1093369
-0.25673196 2.4046118 4.1138105
-0.22380555 2.4032021 4.1128178
-0.1913016 2.4063072 4.1193776
-0.081761077 2.4007905 4.1126342
-0.02723036 2.4038129 4.1183424
0.0055254926 2.4029369 4.116919
0.52368152 2.4036407 4.1408477
0.5696407 2.4106085 4.1165624
0.62407482 2.4083905 4.1387
0.68021816 2.4114795 4.1374807
0.72296011 2.4065871 4.1234503
0.76529419 2.4008918 4.1076922
0.82082301 2.4023025 4.1020832
0.87641281 2.4064455 4.1170106
0.91959155 2.4081194 4.1457119
1.0169611 2.4012058 4.116004
1.0518481 2.4047396 4.1156831
1.3875349 2.4019146 4.1367888
1.7333455 2.4194005 4.1217895
-2.4772277 2.3871181 4.1727762
-2.4317842 2.3783669 4.175179
-2.2229857 2.3849521 4.1571207
-2.1687808 2.3777745 4.16502
-1.9608059 2.3890605 4.151382
-1.9472321 2.3776376 4.1919975
-1.7284346 2.3594689 4.1730328
-1.5868996 2.3783145 4.1982298
-1.5263453 2.3789511 4.1620283
-1.4784256 2.3754437 4.168736
-1.4111497 2.3774874 4.1906304
-1.3097624 2.3821883 4.1716905
-1.2909255 2.3892968 4.1895676
-1.2334983 2.366399 4.1598415
-0.96112943 2.3839245 4.1952019
-0.92788792 2.383033 4.1823955
-0.86352104 2.3852115 4.163312
-0.83366144 2.395514 4.1864223
-0.77445769 2.38539 4.1767535
-0.70973849 2.3926747 4.1984496
-0.66879702 2.3869092 4.1767735
-0.62590683 2.3936274 4.1609888
-0.59477979 2.379945 4.1890278
-0.52548403 2.3903835 4.1656208
-0.47025526 2.3909264 4.1715145
-0.42590952 2.3903127 4.1739821
-0.38214079 2.393599 4.1829119
-0.33798087 2.3944769 4.1872807
-0.27184367 2.3978038 4.1966972
-0.082446747 2.3989303 4.1566572
0.027746122 2.3919353 4.1928897
0.42662096 2.3936868 4.1799245
0.4930785 2.3936059 4.1743393
0.73868519 2.3997207 4.158
0.93586111 2.3989553 4.1764336
0.99221867 2.3997431 4.1680217
1.4880005 2.3951445 4.1501226
1.7983315 2.3985567 4.17137
-0.27022493 2.4055057 4.1621237
-0.23688178 2.4030914 4.1594577
-0.17137931 2.4118536 4.1770444
-0.12665431 2.4027517 4.1624246
0.44896746 2.4168746 4.1704392
0.46985593 2.4103136 4.1572981
0.51736629 2.4035039 4.1895986
0.5685519 2.4077852 4.1759753
0.61881018 2.4085619 4.1882482
0.6725722 2.401583 4.1696701
0.83404857 2.418607 4.1780171
0.85271794 2.4081078 4.1564794
1.0384314 2.4029233 4.1652498
1.0608369 2.4028258 4.1607814
1.4506953 2.4089134 4.1865225
1.5177383 2.4061465 4.1627445
1.7012271 2.416141 4.1816812
1.7784814 2.4031787 4.1872959
-2.5250478 2.3966122 4.2381115
-2.4666049 2.3759599 4.2195358
-2.4415169 2.3753555 4.2301831
-2.2591712 2.3867617 4.2082767
-2.2194517 2.3828888 4.2170143
-2.1759603 2.3748088 4.2179184
-2.0220041 2.3868213 4.2431178
-1.9807736 2.3834126 4.2313743
-1.9241723 2.3782108 4.2016511
-1.8990494 2.3762174 4.2066212
-1.6672957 2.3943467 4.2054648
-1.484085 2.3799884 4.2305169
-1.4430056 2.3694112 4.2209358
-1.3829541 2.3763809 4.2227612
-1.3236363 2.38449 4.2258539
-1.2986215 2.3806462 4.2244735
-0.99069065 2.3897223 4.2262716
-0.94485056 2.3770382 4.2364035
-0.87360674 2.3905146 4.2215981
-0.81692469 2.3895707 4.2283759
-0.77424014 2.3969798 4.2478414
-0.73758179 2.3880785 4.2365775
-0.68009377 2.3838143 4.2360144
-0.62186074 2.3873801 4.2242327
-0.55353945 2.3939281 4.2181926
-0.51926506 2.3905463 4.215394
-0.47336674 2.3844731 4.2085896
-0.43030596 2.3928006 4.2268453
-0.38561934 2.3927941 4.2300339
-0.30741724 2.3933356 4.2357526
-0.27358454 2.3911171 4.2335205
-0.17307656 2.3984225 4.2341323
-0.12763201 2.3990684 4.2039757
-0.075876422 2.3934727 4.2112675
0.016824624 2.3966293 4.2254534
0.072363064 2.394001 4.2203445
0.45366785 2.3973477 4.2331905
0.58729672 2.3942225 4.2153821
-0.90181416 2.4056189 4.2446971
-0.7357114 2.4044983 4.2163076
-0.57845926 2.4045377 4.2346463
-0.23961477 2.4085169 4.2169685
-0.19501121 2.4083755 4.2184267
-0.12791766 2.4044433 4.2134371
-0.027814195 2.410274 4.2250233
0.43276271 2.4056544 4.2496004
0.46244141 2.4071112 4.2007184
0.54402477 2.4118793 4.22651
0.56669986 2.4017365 4.2308936
0.62430847 2.4074831 4.2351122
0.67161465 2.4158435 4.2446747
0.72497678 2.405616 4.2197547
0.78254431 2.4099441 4.21984
0.82657981 2.4070265 4.2082863
0.88909459 2.4128623 4.2345462
0.9082489 2.4149208 4.2098556
1.0306004 2.4147079 4.2393169
1.2905854 2.4096694 4.2281127
1.3366839 2.4100688 4.2178698
1.3617005 2.4137464 4.218658
1.6841098 2.4016004 4.2147555
1.7351073 2.4076989 4.210578
-2.2773674 2.3816791 4.2533073
-2.2364759 2.3769257 4.2604265
-2.1936285 2.369905 4.2630811
-1.9287093 2.3747234 4.2523141
-1.5093454 2.3784785 4.2761941
-1.4148287 2.3763156 4.2966938
-1.3346031 2.3811245 4.2707763
-1.2753205 2.3783514 4.2792158
-1.0222956 2.3766019 4.2740455
-0.95509475 2.3799226 4.2919106
-0.91652507 2.3917761 4.2682748
-0.87046772 2.3902092 4.2726068
-0.82079762 2.3782754 4.2579956
-0.77825534 2.3867195 4.2794704
-0.73267901 2.3862834 4.2846622
-0.62795317 2.3919477 4.2735448
-0.56867313 2.3881392 4.2560282
-0.52451217 2.3921053 4.2673903
-0.43348798 2.3879931 4.2675514
-0.32157981 2.393358 4.2845116
-0.2874161 2.3906085 4.2813759
-0.22701748 2.3951437 4.2756643
-0.18594831 2.3907573 4.2857718
-0.11795722 2.3954072 4.2711291
-0.039486524 2.3965559 4.2990303
0.0056724115 2.3986263 4.2533875
0.095298931 2.3980746 4.2516279
-0.72091848 2.4076474 4.2742
-0.48137385 2.4021025 4.2891774
-0.2412345 2.4023468 4.2549253
-0.061680228 2.4031544 4.261086
-0.027992621 2.4034262 4.2618217
0.073131263 2.4059465 4.2659111
0.1405188 2.4050243 4.2630329
0.43653217 2.4039197 4.296062
0.47918513 2.4130483 4.2590771
0.52566046 2.4080091 4.2709451
0.6299901 2.4068422 4.2834973
0.67520308 2.4060366 4.2769122
0.72167158 2.4097595 4.2780046
0.75425845 2.4049191 4.2650356
0.83414263 2.4063425 4.2564745
0.87334496 2.4206693 4.2766938
0.93478614 2.4069147 4.2761388
0.97379142 2.4091215 4.2736678
1.013778 2.417484 4.2733965
1.2552299 2.406889 4.2844081
1.3240465 2.4058738 4.2666082
1.7479386 2.4019489 4.2522197
-2.3050468 2.3860245 4.3160987
-2.2674677 2.3852708 4.3304768
-2.2196536 2.3735485 4.3245316
-2.0531263 2.3993192 4.3192258
-2.0158927 2.3839259 4.3005519
-1.9761376 2.3794937 4.3057861
-1.9323859 2.3700426 4.3015895
-1.2968196 2.373436 4.3193755
-0.9856869 2.3871233 4.3266587
-0.91366339 2.3912339 4.3197784
-0.87961638 2.3924413 4.3272939
-0.83403838 2.393682 4.3363309
-0.77420229 2.3864417 4.3311095
-0.71246505 2.3921633 4.3323574
-0.66764081 2.3860083 4.3176875
-0.60980165 2.394439 4.3138652
-0.57612896 2.3965769 4.321188
-0.52969813 2.3929911 4.3190403
-0.47286752 2.3937173 4.3252501
-0.42675748 2.3910282 4.3238616
-0.32430154 2.3904841 4.3294487
-0.27928427 2.3950772 4.3401089
-0.23298435 2.3878367 4.3289671
-0.13080801 2.3904943 4.3369617
-0.062167961 2.3995409 4.3041863
-0.01688792 2.3973379 4.3005428
0.028354101 2.3989515 4.3033948
0.27970326 2.3973665 4.3442922
0.50843692 2.3995745 4.3330064
0.57700866 2.3996999 4.3268824
0.66815358 2.3988113 4.3155265
0.88250279 2.3998857 4.340848
0.94761288 2.3895607 4.3112807
1.2165232 2.3986449 4.3311901
1.2679991 2.3846033 4.3476834
1.3093576 2.3981388 4.3096223
-0.1531489 2.4066429 4.3152514
-0.13012858 2.4007192 4.3051782
-0.085055031 2.4067509 4.3168325
0.0057308562 2.4003944 4.3060484
0.073816769 2.4049463 4.3137264
0.14233519 2.413327 4.3275347
0.17635164 2.4112639 4.3228998
0.21066196 2.4137888 4.3263144
0.39324898 2.4165959 4.3219585
0.42760122 2.4059134 4.3255892
0.48351523 2.4120882 4.3070607
0.51929307 2.4081016 4.3221784
0.55635995 2.4092247 4.3462739
0.6013543 2.4171252 4.3306479
0.69575459 2.4153421 4.3425756
0.72924697 2.4120193 4.3323846
0.76104832 2.4036689 4.3129954
0.81292623 2.4218643 4.3393922
0.85677278 2.4154651 4.3213062
0.92949098 2.4020863 4.3376279
1.1939869 2.400136 4.3387799
1.3416098 2.4142985 4.3331885
-2.0668478 2.3909531 4.3587961
-2.0361414 2.3835459 4.3543725
-1.9923542 2.3893268 4.3826957
-1.0338359 2.3838601 4.3924856
-0.96781725 2.3884323 4.3586454
-0.93437064 2.3917625 4.3703728
-0.87644267 2.392169 4.3800526
