ply
format ascii 1.0
comment PCL generated
element vertex 1457
property float x
property float y
property float z
element camera 0
property float view_px
property float view_py
property float view_pz
property float x_axisx
property float x_axisy
property float x_axisz
property float y_axisx
property float y_axisy
property float y_axisz
property float z_axisx
property float z_axisy
property float z_axisz
property float focal
property float scalex
property float scaley
property float centerx
property float centery
property int viewportx
property int viewporty
property float k1
property float k2
end_header
0.4268021 -0.27464339 1.7647272
0.46212837 -0.26982343 1.7861822
0.19437672 -0.21966001 1.7553508
0.22439866 -0.22576869 1.779953
0.3808293 -0.22507274 1.7770623
0.42318735 -0.2265584 1.7623427
0.46625152 -0.22592206 1.7908654
0.19237247 -0.17408217 1.7562388
0.22457525 -0.176181 1.7823985
0.38009202 -0.17558232 1.7777394
0.42312253 -0.17604138 1.7618636
0.464194 -0.17274787 1.7878494
0.19244549 -0.12206639 1.7554804
0.22339848 -0.12399751 1.7810296
0.38141611 -0.12493744 1.7775116
0.42280817 -0.12440034 1.7634988
0.46442774 -0.12639473 1.785813
-0.47489488 -0.065013058 1.7764288
0.18994449 -0.0830217 1.7584422
0.22480658 -0.085556641 1.7838789
0.381596 -0.085276164 1.7822878
0.42421693 -0.081718847 1.7710896
0.4647769 -0.084883563 1.7859062
-0.48775277 -0.026056988 1.7796694
-0.50998473 0.029829782 1.7846218
-0.52385306 0.070219673 1.7869996
-0.54646885 0.12398371 1.7982678
-1.9798727 0.2488908 1.7503912
-1.9842284 0.28241113 1.7553574
-1.9890276 0.32569599 1.7603861
-2.0070965 0.38148615 1.7694103
-1.987739 0.37055537 1.7610558
-2.0130498 0.42952585 1.7794431
-1.9896868 0.41521758 1.777024
-2.0114458 0.48008779 1.7733867
-1.9892099 0.48115498 1.7620662
-2.0120404 0.52719873 1.7723755
-1.9900093 0.51446128 1.7778213
-2.0162776 0.57461643 1.7754866
-2.0304542 0.62355775 1.7869294
-2.025594 0.67333657 1.7788302
-2.024843 0.72458267 1.7730416
-2.0241456 0.77303123 1.7830271
-2.0057888 0.82116735 1.7621689
-2.0045083 0.9675253 1.7545719
-2.0292602 1.0433446 1.7987293
-1.9945713 1.0064999 1.7512751
-1.9956012 1.0513706 1.7569427
-2.0317161 1.116129 1.7929319
-1.9949083 1.1413907 1.7639223
-2.0266478 -0.46924078 1.8488386
-1.4153988 -0.48447698 1.8044798
-1.332141 -0.48303264 1.8472643
-1.2652837 -0.48211202 1.822593
-1.220582 -0.47975838 1.8072106
-1.1701242 -0.47384235 1.806915
-1.128129 -0.47837764 1.8306863
-1.0711236 -0.48456916 1.8264718
-1.0182701 -0.48362654 1.8256514
-0.98283845 -0.48344359 1.8267794
-0.91899514 -0.47645888 1.8194046
-0.89294863 -0.47154585 1.8368108
-0.520733 -0.4643361 1.8340788
-0.47123265 -0.47033438 1.830142
-0.42483866 -0.46748701 1.8134861
-0.38296682 -0.46873254 1.8296665
-0.32690382 -0.46959633 1.8263129
-0.27073613 -0.4708766 1.8344799
-0.22104886 -0.46884257 1.824759
-0.17132452 -0.46847615 1.8223392
-0.12710251 -0.46930093 1.8288701
-0.071967214 -0.46894184 1.8270117
-0.025355591 -0.4709664 1.8237307
0.024053065 -0.47072092 1.826764
0.069848709 -0.47045976 1.8312191
0.12286269 -0.47308704 1.8291755
0.17439938 -0.47433612 1.8373533
0.22338773 -0.47571862 1.8240762
0.27542797 -0.46709308 1.8270648
0.32875201 -0.47284842 1.828078
0.37398267 -0.47325647 1.8301461
0.43268278 -0.46653682 1.8276048
0.47593394 -0.4735387 1.8293556
0.52962935 -0.46921927 1.8162649
0.57624286 -0.47062552 1.8189232
0.62763822 -0.47205266 1.8232015
0.67623717 -0.47018135 1.8180488
0.73344249 -0.47207841 1.8214842
0.77329475 -0.47269905 1.836632
0.82662457 -0.47282127 1.8278264
0.8757965 -0.4767108 1.8301166
0.92468596 -0.47534919 1.8276148
0.97072214 -0.47010911 1.8245796
1.0290763 -0.47018465 1.8250837
1.1270638 -0.46846315 1.8233078
1.1771467 -0.46613231 1.8225847
1.2341082 -0.46975487 1.830534
1.2824184 -0.464055 1.8309066
1.3295292 -0.46501049 1.8294493
1.3600725 -0.46604022 1.8377496
1.4249692 -0.46470857 1.8270373
1.4868799 -0.46529084 1.8398944
0.27580437 -0.43874803 1.8430122
0.41432077 -0.3711358 1.8061075
0.22845095 -0.31039083 1.8331602
0.27927637 -0.30373123 1.8431115
0.34332004 -0.30507976 1.8443211
0.35347176 -0.30226803 1.8256487
0.46368238 -0.30162483 1.8051568
0.24754825 -0.29783991 1.8098611
0.27517387 -0.27452475 1.8227553
0.33016396 -0.27349642 1.831586
0.35977218 -0.2791104 1.8071938
0.48671132 -0.27781028 1.8116546
0.5196228 -0.27052304 1.833724
0.27549493 -0.2249355 1.8206503
0.32593951 -0.22615321 1.831543
0.35602808 -0.22152397 1.8042225
0.48731887 -0.22142808 1.8056408
0.52114308 -0.2230237 1.8326647
0.24483848 -0.16460674 1.8008922
0.27478021 -0.17457013 1.8213438
0.32451823 -0.17400739 1.8331836
0.35492072 -0.17628725 1.8070859
0.48792607 -0.17393468 1.80653
0.51989466 -0.17621028 1.8311722
0.24457255 -0.12547925 1.8009609
0.27313456 -0.12549636 1.821587
0.32597777 -0.12538809 1.8316628
0.35618922 -0.12669079 1.8064542
0.49313506 -0.12376485 1.8075635
0.52778459 -0.12653205 1.8360208
-0.4638786 -0.064594425 1.8222296
-0.43373868 -0.076222531 1.8350999
0.27122787 -0.088244706 1.8221242
0.33026949 -0.091178633 1.8296193
0.36761236 -0.078788139 1.8114208
0.49163839 -0.080584206 1.8079072
0.5206182 -0.085367523 1.8266597
-0.50047839 -0.0087517025 1.8035847
-0.47604442 -0.028805137 1.8280278
-0.50514871 0.029317604 1.8233682
-0.4890621 0.011310809 1.8389239
-0.52163702 0.074121498 1.8320549
-0.55409908 0.14032364 1.838559
-0.54069859 0.11565816 1.826919
-1.8772923 0.18767922 1.8152986
-0.5704357 0.17553815 1.829241
-1.8827009 0.20776473 1.818655
-2.0109296 0.30616128 1.8388917
-2.0300436 0.57982099 1.816952
-2.0284863 0.62873667 1.8121841
-2.0520058 0.69464082 1.8346244
-2.0350566 0.6628679 1.8216591
-2.0530286 0.72023511 1.8272299
-2.040122 0.72839886 1.8237537
-2.0320735 0.77199823 1.8225762
-2.0359695 0.80545574 1.8293474
-2.0498598 1.0409263 1.8230398
-2.0387473 -0.46686465 1.8800707
-1.8669947 -0.46961984 1.8669933
-1.8250415 -0.46212944 1.8772638
-1.3634148 -0.48856589 1.8590819
-1.3211756 -0.48675916 1.8735536
-1.2945217 -0.48472089 1.8773894
-1.1602495 -0.47304571 1.8843424
-1.1145239 -0.46977633 1.8618817
-1.0816875 -0.48209164 1.8824735
-1.0217699 -0.48423505 1.882916
-0.98604125 -0.48073027 1.8763775
-0.93101686 -0.47797915 1.8681645
-0.50667506 -0.46264216 1.8577539
-0.47543713 -0.46529961 1.8719627
-0.4303093 -0.46825835 1.8713571
-0.37929645 -0.46952918 1.8802214
-0.32298833 -0.4687914 1.876694
-0.27740294 -0.47179189 1.881724
-0.2275894 -0.46889058 1.8699038
-0.17781706 -0.46743426 1.8657932
-0.12269446 -0.46769813 1.876176
-0.073741563 -0.47036669 1.8759227
-0.026263202 -0.46771225 1.8688351
0.023572093 -0.4713445 1.874354
0.084735528 -0.47237724 1.8798567
0.1250708 -0.47249374 1.8635582
0.17263147 -0.47057462 1.8762705
0.22621934 -0.4714058 1.8681686
0.27717146 -0.46365991 1.8706526
0.32611781 -0.47168368 1.8825079
0.37824249 -0.47046822 1.8653944
0.42057744 -0.46430305 1.8692243
0.47001567 -0.46989217 1.8745376
0.52315485 -0.47149602 1.8767056
0.57576025 -0.46984124 1.8745254
0.62154377 -0.46930382 1.8742112
0.67171836 -0.4697794 1.8733809
0.72393507 -0.47301275 1.8832427
0.77713448 -0.47455451 1.8749783
0.81819946 -0.47305158 1.8763472
0.87578619 -0.47384775 1.8739142
0.91590565 -0.47366193 1.8735063
0.95802289 -0.47507706 1.8766232
1.0328703 -0.46991578 1.8720604
1.0817895 -0.4700568 1.8743048
1.1237165 -0.46788314 1.8750802
1.169396 -0.4626129 1.8720522
1.213892 -0.46353424 1.8644536
1.274887 -0.46469077 1.8622429
1.3264033 -0.46428907 1.8677629
1.384306 -0.46542424 1.8723531
1.4105426 -0.46638238 1.8730139
-2.0611734 -0.42689291 1.8906698
-2.0447903 -0.44847846 1.8706738
-1.8603128 -0.4439567 1.896072
-1.8149157 -0.44575202 1.8850449
0.28614536 -0.42141977 1.8597819
-2.0655868 -0.36875182 1.8815236
0.28123844 -0.37902942 1.8711308
-2.0692663 -0.3192201 1.8927245
0.24167375 -0.32634395 1.8720129
0.27356169 -0.32983121 1.87569
0.33691251 -0.30742326 1.8595848
0.52320528 -0.3041198 1.8687973
-2.0806639 -0.25001022 1.8886471
0.31354719 -0.28962609 1.8539784
0.54190254 -0.27734074 1.8520932
0.57363242 -0.27391216 1.87696
0.60519457 -0.2683377 1.8994241
-2.0770347 -0.22451776 1.8880183
0.54081714 -0.24634571 1.85132
0.57054543 -0.22520946 1.8718886
0.6031571 -0.21580786 1.8974615
-2.0687206 -0.18621176 1.8839332
-2.0414147 -0.15909775 1.8610231
0.54983103 -0.16873536 1.8549018
0.5725401 -0.1761919 1.8718402
0.6058377 -0.16849133 1.8955376
-2.055481 -0.14871597 1.8979318
0.54935753 -0.12300745 1.8557174
0.57600534 -0.12255515 1.8728962
0.6033988 -0.12909541 1.8971279
-2.0651152 -0.06128177 1.8875651
-0.4244439 -0.062209882 1.8688257
-0.38626996 -0.064716406 1.8882788
0.29732767 -0.084887095 1.8575718
0.32333621 -0.079679281 1.8615519
0.35713637 -0.071822785 1.8600415
0.54598784 -0.083801024 1.8588333
0.57561696 -0.078482114 1.8796175
0.60593081 -0.084145188 1.897337
-2.0746233 -0.042780474 1.896664
-0.46000454 -0.016015887 1.8590217
-0.42504925 -0.029407253 1.8803575
-0.3890655 -0.042758476 1.896718
-0.47039723 0.026421605 1.8711908
-0.43971527 0.016319776 1.891035
-0.5099116 0.083111815 1.8632178
-0.48462993 0.06988281 1.8828318
-0.52560759 0.12447768 1.8773655
-0.49315915 0.10916128 1.89396
-0.56398886 0.17683101 1.8740309
-0.53879941 0.16398077 1.8899115
-1.8257564 0.21312593 1.8932195
-0.5670113 0.20543893 1.8939587
-0.54201782 0.20480838 1.8927957
-2.0534887 0.27523768 1.8829645
-2.0423234 0.27014878 1.8809643
-2.0698061 0.33398101 1.8898742
-2.0166748 0.31765255 1.8734623
-1.9708545 0.34422791 1.8871791
-2.0748515 0.3536869 1.8914703
-2.065922 0.43001643 1.89307
-2.0826292 0.58976465 1.8962078
-2.0831504 0.60271937 1.8931857
-2.0609386 0.70830959 1.863997
-2.0411296 -0.593054 1.9301434
-1.964339 -0.50959373 1.9206032
-2.0164182 -0.48016781 1.9442408
-1.9593538 -0.47789353 1.9176474
-1.9212451 -0.45766127 1.9187511
-1.7905929 -0.45210999 1.9217713
-1.7264398 -0.48496297 1.9444773
-1.6895608 -0.49298498 1.944528
-1.3009465 -0.49113563 1.9080137
-1.2703028 -0.4896313 1.9161885
-1.2370274 -0.48704216 1.9195436
-1.1009299 -0.46381429 1.9184518
-1.0765942 -0.47156602 1.9188905
-1.0303586 -0.48043489 1.9241861
-0.97806025 -0.48243499 1.9286051
-0.94514704 -0.47611326 1.9106406
-0.45577538 -0.46281606 1.9086268
-0.42374998 -0.46640977 1.923803
-0.37049097 -0.46720421 1.9189479
-0.32335562 -0.4684881 1.9249173
-0.27039784 -0.4675639 1.9228064
-0.22303572 -0.46965438 1.9238583
-0.17297156 -0.46824658 1.9282298
-0.12353216 -0.47067031 1.9340343
-0.072540708 -0.47132316 1.9251572
-0.024121346 -0.46903685 1.9231631
0.026712913 -0.47226143 1.9271376
0.074847668 -0.47111607 1.9226078
0.12367807 -0.4711197 1.9159714
0.17261954 -0.47255689 1.9392893
0.22131573 -0.47144765 1.9256729
0.26008812 -0.47437206 1.9269904
0.325201 -0.46916056 1.9258176
0.37448609 -0.47123143 1.9215878
0.41044387 -0.47229445 1.9350133
0.48163185 -0.46681929 1.9215618
0.52030921 -0.46997917 1.9211864
0.57773435 -0.46966076 1.9156786
0.63186866 -0.47043118 1.9249035
0.67735851 -0.4693343 1.9361117
0.73079807 -0.46951827 1.9310833
0.76840907 -0.46780601 1.9251641
0.82012111 -0.47050717 1.9259602
0.86955607 -0.47321504 1.9279114
0.92149645 -0.47184011 1.9317366
0.97980452 -0.47576222 1.9211469
1.0262522 -0.47079435 1.9203026
1.0709337 -0.47030255 1.9281703
1.1264488 -0.4662188 1.9292068
1.1787493 -0.46377718 1.940367
1.2303408 -0.46532318 1.9241438
1.271505 -0.4668096 1.9114697
1.3248175 -0.46557814 1.938594
1.3502326 -0.46312118 1.9106257
-2.0697813 -0.42063203 1.9193811
-1.9601095 -0.44017494 1.9310577
-1.9240519 -0.43008593 1.9311171
-1.8926928 -0.43945795 1.9315149
-1.825188 -0.43112406 1.9210925
-1.7801605 -0.43164459 1.9292885
-2.07654 -0.37421522 1.9269491
0.29967862 -0.36229351 1.9102532
0.30147997 -0.37379059 1.9205093
-2.0766685 -0.32726225 1.9303817
0.3020007 -0.33701453 1.9284308
-2.0823128 -0.27154353 1.9232193
0.62454462 -0.27389535 1.9162949
0.65789813 -0.27109858 1.9458226
-2.0751765 -0.22410952 1.9178547
0.62918282 -0.22834605 1.9196069
0.65775806 -0.2215375 1.9393219
-2.0866139 -0.17629956 1.9248219
0.63156807 -0.17719445 1.9209783
0.65975612 -0.17186315 1.9434916
-2.0762796 -0.1131123 1.9429234
0.62864685 -0.1244565 1.9170119
0.65487856 -0.12463178 1.9366007
-2.0740221 -0.068229988 1.9189632
-0.36453134 -0.063065551 1.9062282
-0.32641867 -0.064766526 1.922835
-0.28212154 -0.067797281 1.9346498
-0.22885408 -0.073962897 1.9291553
-0.18357983 -0.074347109 1.9423721
0.62759775 -0.078138188 1.9202332
0.66094571 -0.086427726 1.9405874
-2.0914552 -0.026439985 1.92803
-0.40782619 -0.009165233 1.903743
-0.37059778 -0.02601601 1.9187303
-0.32781482 -0.029769609 1.9408468
-0.29746687 -0.046812139 1.9491224
-2.1024818 0.013725225 1.9382519
-2.0923688 0.020033043 1.9190032
-0.45142701 0.046363149 1.906103
-0.4174417 0.027088797 1.9126915
-0.37862816 0.019735478 1.9367211
-0.34078529 0.0075513511 1.946017
-2.101685 0.064798124 1.9444642
-2.0926626 0.071564019 1.9223226
-0.4609243 0.077882454 1.9079484
-0.42615774 0.07331235 1.9325812
-0.38833815 0.061251268 1.9477901
-2.0923636 0.12132545 1.9214737
-0.51047671 0.13861546 1.9067816
-0.47437555 0.12271423 1.9224586
-0.44226477 0.11157791 1.9362049
-2.1018474 0.16198964 1.9235965
-2.0944996 0.15357761 1.9332845
-1.8739861 0.19391684 1.9341669
-0.55526334 0.192219 1.9054998
-0.52154583 0.17967419 1.9202797
-0.48602858 0.16985142 1.9376872
-1.9073031 0.20767292 1.9331892
-1.8647363 0.20497411 1.9236231
-1.8408711 0.20495749 1.9437177
-0.52315801 0.20841314 1.9314682
-2.0593047 0.28119937 1.9255403
-1.6448842 0.26561141 1.9494163
-2.0606534 0.32104942 1.9228503
-2.0720699 0.37896472 1.9234985
-2.0292149 0.36530879 1.9221313
-1.9829534 0.37450343 1.9294195
-1.6561868 0.36607695 1.9492741
-2.0840447 0.42447937 1.9236647
-1.6629525 0.42584407 1.9471414
-1.6456246 0.43597293 1.946625
-2.1019678 0.49186578 1.9392567
-2.0860507 0.46961147 1.9236648
-1.669633 0.46849248 1.9469898
-1.6427933 0.47415957 1.9400165
-2.0942252 0.53275049 1.9284028
-1.6640649 0.53158385 1.9414964
-1.6436256 0.52009475 1.9427764
-2.1015868 0.5662868 1.9460615
-2.0942674 0.57831872 1.9273342
-1.6607403 0.56851339 1.9407635
-1.6493508 0.57485402 1.9434896
-2.0938985 0.63028878 1.9295248
-2.102988 0.65524721 1.9484539
-2.0917222 0.6757102 1.9181629
-2.0778191 0.7120688 1.9051981
-2.1092381 0.75376678 1.9497888
-2.0890875 0.75965238 1.9267452
-2.0606933 -0.60904443 1.9710633
-2.070329 -0.58582348 1.98709
-2.1006124 -0.45633379 1.9967911
-2.0748062 -0.47152686 1.9803572
-2.0115073 -0.45519328 1.9566519
-1.7129048 -0.48449969 1.9514846
-1.6669571 -0.48739296 1.9639237
-1.6328036 -0.4910959 1.9854244
-1.0625117 -0.47684264 1.9678971
-1.0265083 -0.47881418 1.9822077
-0.98349321 -0.47979623 1.9909544
-0.40855494 -0.46411639 1.9641652
-0.37739998 -0.46852747 1.9751213
-0.32502064 -0.46692958 1.9744759
-0.28059736 -0.46777487 1.9734879
-0.22262318 -0.46777758 1.9641801
-0.1781078 -0.47055656 1.9718332
-0.11732273 -0.46952087 1.9705181
-0.075495966 -0.46909896 1.9631773
-0.026248444 -0.46800098 1.966316
0.018417154 -0.46970162 1.9735085
0.074212722 -0.46887389 1.9691658
0.12764905 -0.47170424 1.9792792
0.18067832 -0.4718872 1.9773272
0.22481532 -0.47355574 1.9813535
0.26494274 -0.47629929 1.9896736
0.33019212 -0.46583739 1.9671551
0.37307355 -0.47097731 1.9716157
0.42150441 -0.47007802 1.9774603
0.47574639 -0.46353534 1.9514432
0.52840507 -0.47102457 1.9662958
0.57639951 -0.47048831 1.9711556
0.62593585 -0.47057542 1.9733038
0.67707175 -0.46610785 1.9677849
0.72435874 -0.47106323 1.9787951
0.79199386 -0.46950674 1.9533752
0.83280021 -0.47059152 1.9710141
0.88322669 -0.47084171 1.9815649
0.92146492 -0.46944848 1.9623312
0.97752208 -0.4743222 1.9664257
1.0225966 -0.47171956 1.9749442
1.0752442 -0.46909761 1.9704592
1.1145231 -0.46618894 1.962449
1.1650325 -0.46175006 1.9751498
1.2314581 -0.46533671 1.963951
1.2564814 -0.46439502 1.9669921
1.3571728 -0.46206266 1.9659055
-2.0896473 -0.40459645 1.9791226
-1.9766179 -0.41520214 1.9768101
-1.9203842 -0.41430223 1.9746268
-1.8859115 -0.42203069 1.974659
-1.8279319 -0.40836179 1.9679734
-1.791101 -0.41466719 1.9640931
-2.1025012 -0.36944383 1.9893801
-2.0991082 -0.38830054 1.9829743
-2.0132189 -0.36918655 1.9981894
-1.9660757 -0.36430135 1.9888827
-1.9139659 -0.39129263 1.9866915
-1.8800514 -0.38772029 1.9931148
-1.822643 -0.39479253 1.9799271
-2.1029105 -0.32401922 1.9966091
-2.0922918 -0.31394207 1.9633191
-2.1051078 -0.26415309 1.9818709
-2.0972624 -0.28892773 1.9713832
0.68065155 -0.27389643 1.9620378
0.70868719 -0.26962963 1.9847683
-2.1075156 -0.22084664 1.9805983
0.68400264 -0.22320344 1.9657861
0.71265888 -0.23037937 1.988529
-2.1112323 -0.17262843 1.9914682
-2.0974894 -0.17406322 1.9590029
0.68029821 -0.17637458 1.960752
0.70865589 -0.18000488 1.984144
-2.1023819 -0.13464862 1.9904093
-2.0869188 -0.13919364 1.9515049
0.68438631 -0.12736146 1.9636822
0.71654099 -0.12457095 1.9923375
-2.1130514 -0.057039857 1.9794561
-2.0945387 -0.082137153 1.9613676
-0.26404142 -0.060521279 1.9625403
-0.22505531 -0.061576195 1.9781832
-0.19475339 -0.066449285 1.9850191
0.68040079 -0.077920213 1.9670315
0.71368939 -0.085298844 1.9884453
-2.1164732 -0.024840621 1.9831742
-0.31049356 -0.018777229 1.9565117
-0.27573919 -0.027648669 1.9697592
-0.23144357 -0.033596084 1.9897369
-2.1105571 0.024139564 1.9727306
-0.36167917 0.041557822 1.9550848
-0.32196969 0.027254988 1.9691863
-0.27918962 0.019567912 1.9898189
-0.2441491 0.0096127847 1.997633
-2.1145284 0.07421916 1.9800711
-0.40742692 0.091478683 1.9534512
-0.37237129 0.079749934 1.9661502
-0.32658947 0.074820764 1.9862943
-2.1102087 0.12344809 1.9737947
-0.45636356 0.13611443 1.9518293
-0.42249247 0.12603009 1.9618425
-0.37990177 0.12129599 1.979692
-0.3393909 0.11078535 1.9977022
-2.1138518 0.16236892 1.9747256
-1.8171822 0.19055788 1.9759729
-1.7796187 0.18673506 1.9913155
-0.46421507 0.17736743 1.9585496
-0.42598605 0.17241587 1.979555
-0.38851082 0.16417393 1.994486
-1.8128104 0.21183717 1.9807477
-1.7753918 0.21185243 1.9911083
-1.7351905 0.21492907 1.9945784
-1.626021 0.22161864 1.9973165
-0.50245148 0.21166554 1.9667715
-0.47372442 0.20623663 1.9776647
-0.43357146 0.2059778 1.9934453
-2.0639095 0.28166768 1.9633898
-1.7202125 0.29180884 1.9913192
-1.6634014 0.27658108 1.9681486
-2.0651526 0.32351843 1.9800858
-2.0494552 0.34520304 1.9644616
-1.7198527 0.33242929 1.9910783
-1.6572921 0.32169086 1.9638668
-1.6463249 0.34440547 1.9741952
-2.0804064 0.39973685 1.9613488
-2.0243971 0.38864595 1.9684312
-1.7503954 0.38498077 1.990413
-1.7216239 0.37355298 1.9710672
-1.6709994 0.37688929 1.9681044
-1.6467128 0.36654443 1.9600455
-2.1054487 0.43711418 1.9788539
-2.0641191 0.42263973 1.9859804
-1.9797027 0.40504748 1.980546
-1.7590932 0.41103885 1.9961663
-1.7228867 0.42231318 1.9875187
-1.65478 0.41505465 1.9769541
-1.649035 0.41941682 1.9539152
-2.1006434 0.48157775 1.9650053
-2.0989344 0.45522195 1.9688692
-1.7635775 0.47770521 1.9964408
-1.7278732 0.47122985 1.9894384
-1.6710689 0.47349653 1.9590744
-1.6447784 0.47387886 1.9608223
-2.1058824 0.52596498 1.9665072
-1.7623379 0.54250729 1.9965749
-1.7313061 0.51939923 1.9801439
-1.6926647 0.5263533 1.9626144
-2.1076319 0.57141137 1.9760015
-1.7586968 0.56570113 1.986611
-1.7284105 0.57613385 1.9811041
-2.1048806 0.61343712 1.9707022
-2.1261427 0.68655264 1.988688
-2.1163042 0.72795963 1.9768069
-2.1386147 0.78254908 1.9973217
-2.130887 0.82260948 1.9885466
-2.1280043 1.0123582 1.9786
-2.1358154 1.0848019 1.9833868
-2.1457958 1.1458114 1.9952112
-2.1339686 1.1723872 1.9875923
-2.128242 1.2496454 1.9808533
-2.1004817 -0.62476391 2.0339084
-2.0888672 -0.60422033 2.0014865
-2.0916922 -0.46257785 2.020026
-1.6148957 -0.48281407 2.0220191
-1.5836589 -0.49192825 2.0294278
-1.062327 -0.46835265 2.0136263
-1.0292778 -0.47314656 2.022718
-0.35575691 -0.4612309 2.0026274
-0.32127139 -0.46452987 2.0210764
-0.27199465 -0.46855283 2.0268362
-0.22436164 -0.46838716 2.0244677
-0.16970477 -0.46763569 2.0151436
-0.12571648 -0.47337803 2.0294209
-0.073043562 -0.47091842 2.0279229
-0.027103808 -0.47359729 2.0328164
0.06672699 -0.47357145 2.0321178
0.12054829 -0.47199252 2.0236764
0.17907843 -0.47614011 2.0386534
0.22560525 -0.47091618 2.0205059
0.27061978 -0.46965283 2.0151381
0.33751947 -0.46798801 2.012171
0.37218794 -0.47180745 2.0174518
0.42173633 -0.47251725 2.036659
0.49824572 -0.47556907 2.0233855
0.52507579 -0.47214955 2.0264301
0.57461274 -0.47110364 2.0261269
0.61807334 -0.47293216 2.0360241
0.67380184 -0.47157127 2.0279975
0.73382318 -0.46754616 2.0186172
0.7755186 -0.46872598 2.0285172
0.83029425 -0.47066528 2.0276973
0.87646478 -0.47075212 2.0351686
0.92517674 -0.46927977 2.0278873
0.97816449 -0.470871 2.0257349
1.0225247 -0.46975037 2.0266004
1.0793966 -0.47112128 2.0214186
1.1296228 -0.46815234 2.0206447
1.1731893 -0.46861878 2.0285437
1.2290843 -0.46496519 2.0145788
1.2749201 -0.46423224 2.0204761
1.33333 -0.45802352 2.0218709
-2.1074872 -0.4311657 2.0284338
-2.0934944 -0.42763901 2.0451727
-1.8194239 -0.40565026 2.0214579
-2.111552 -0.37116599 2.022752
-2.0193229 -0.38310277 2.0021675
-1.9588224 -0.37888786 2.0125945
-1.9246117 -0.36112505 2.0172489
-1.872507 -0.3705965 2.0238879
-1.8330011 -0.37707782 2.0180035
-2.1217859 -0.32357216 2.0274112
-2.0055013 -0.31258035 2.0227911
-1.957088 -0.34062356 2.0166659
-1.9128608 -0.33729577 2.0176864
-1.8799592 -0.34218109 2.0285723
-2.1260133 -0.2750262 2.02527
-2.0078208 -0.28091952 2.0291517
-1.9996505 -0.25427362 2.0238101
0.735452 -0.27613202 2.0157087
0.76857197 -0.2688033 2.037689
-2.1233451 -0.2286946 2.0276227
-2.0210609 -0.22814381 2.0322216
-1.9857938 -0.2079947 2.0331912
0.73766714 -0.22261651 2.0099308
0.7613337 -0.22265625 2.0324643
-2.1327169 -0.17702387 2.0410757
-2.00916 -0.17429824 2.0269799
-1.9770496 -0.16767652 2.038048
-1.9477001 -0.1702401 2.0488706
0.73383427 -0.16891269 2.01298
0.76242405 -0.17097567 2.0329368
-2.1281362 -0.11050525 2.0284421
-2.0026128 -0.13877979 2.0125031
-1.9766854 -0.12461817 2.0256782
0.7417627 -0.1241145 2.0131226
0.76966298 -0.12073278 2.0361376
-2.1269581 -0.070863865 2.0164642
-0.16851513 -0.061948597 2.0108163
-0.12351427 -0.062964313 2.0287015
-0.078706488 -0.066563979 2.0410254
-0.0463925 -0.06840492 2.0481882
0.13247474 -0.064388752 2.0348568
0.16301864 -0.063192882 2.0345397
0.7446788 -0.077878349 2.0188706
0.77014321 -0.079248726 2.0380583
-2.1325908 -0.027920078 2.0325141
-0.21192825 -0.020041395 2.0125093
-0.17298715 -0.029738806 2.0256677
-0.12663957 -0.036507562 2.0401621
-0.095199093 -0.048814692 2.0458658
0.14591332 -0.045605276 2.0462437
0.15902276 -0.039092336 2.0465515
-2.1322727 0.020683771 2.0223472
-0.26222703 0.038547717 2.0060928
-0.22224267 0.026090678 2.0207546
-0.17867623 0.016985586 2.0389276
-0.14439656 2.9045676e-05 2.049397
-2.1354244 0.074174061 2.0276999
-0.30649585 0.096589066 2.0070486
-0.27494577 0.078503497 2.0147326
-0.22564031 0.074490353 2.0370376
-2.1533415 0.14655121 2.037657
-2.1312096 0.11881655 2.0182326
-0.36199108 0.13873747 2.0037653
-0.32187676 0.13006745 2.017801
-0.27536193 0.12533452 2.0363483
-0.24251692 0.11275016 2.0429091
-2.139786 0.16535485 2.0234618
-1.7640258 0.18094178 2.0080717
-1.7261617 0.18608789 2.0203104
-1.6891274 0.18769985 2.0402052
-0.40498638 0.19408281 2.0006871
-0.3709994 0.17906602 2.0112779
-0.32731432 0.17501312 2.0362008
-0.28981054 0.16098423 2.0479181
-1.7615198 0.20471182 2.0032542
-1.7216448 0.20893978 2.0179558
-1.6808705 0.20880917 2.0322471
-1.6176014 0.2244582 2.0425792
-1.3237996 0.22543959 2.028976
-1.2706645 0.22684078 2.0368762
-1.2453592 0.22723751 2.0447047
-0.45608401 0.21471329 2.0038204
-0.41602218 0.20444825 2.0052042
-0.38040587 0.20625956 2.0281417
-0.31784594 0.20703885 2.0431271
-2.1105111 0.27669179 2.0338559
-2.0916147 0.29372713 2.0131986
-1.7342799 0.27620307 2.0097888
-1.6793321 0.29886991 2.032299
-2.0654337 0.32513982 2.0197811
-2.0393667 0.34778792 2.0025897
-1.7613252 0.32692787 2.0120363
-1.6805371 0.32302007 2.0306487
-2.070575 0.37056622 2.0304966
-2.1063778 0.43999881 2.0041513
-2.0873322 0.41392797 2.0276108
-2.0319672 0.42090887 2.0193982
-1.7703309 0.43190223 2.0056102
-1.7495275 0.44788408 2.00138
-2.1236825 0.46983704 2.0255039
-2.0432274 0.45428595 2.0123539
-1.7644027 0.4708868 2.006655
-2.1305292 0.52625406 2.0227425
-1.8071806 0.50909674 2.0336955
-2.1532459 0.56719166 2.048924
-2.1416421 0.59096068 2.0311913
-2.1287305 0.61848825 2.0107191
-2.1609235 0.69534934 2.0485623
-2.1368852 0.66533148 2.0191669
-2.1319828 0.70618808 2.0150363
-2.1437833 0.77579147 2.0319221
-2.1520774 0.81972939 2.0258029
-2.1470962 0.80421126 2.0258584
-2.1640847 0.88479424 2.0426466
-2.1493461 0.85959524 2.0084834
-2.1421885 0.91004652 2.0089054
-2.146558 1.0416398 2.0152564
-2.1567659 1.0780436 2.025207
-2.1423821 1.0707812 2.0117359
-2.162246 1.1289309 2.0324554
-2.1484942 1.1332626 2.0043907
-2.1645064 1.1704209 2.0350204
-2.1596949 1.2285222 2.0154462
-2.1625247 1.2596598 2.033124
-2.1380239 1.2636857 2.0155978
-2.1596794 1.3176708 2.0245793
-2.1726403 1.3725638 2.0319383
-2.0947168 -0.62037814 2.0549748
-1.6166317 -0.48293373 2.0874801
-1.5695393 -0.49087992 2.0695331
-1.0318626 -0.48085523 2.0703189
-0.28085247 -0.4656817 2.0763819
-0.23333694 -0.47162962 2.0758402
-0.18246424 -0.46997184 2.0565
-0.12780982 -0.47112578 2.0642648
-0.082679555 -0.47116569 2.0659716
-0.029379541 -0.47321156 2.0835879
0.017794594 -0.48481688 2.0810599
0.072812177 -0.47186026 2.0692806
0.12269027 -0.47032553 2.0609331
0.17163043 -0.47370848 2.0659635
0.22723125 -0.47445089 2.0732613
0.26585984 -0.4758687 2.0764942
0.3422989 -0.46871015 2.0841305
0.37227631 -0.47437119 2.079078
0.42254859 -0.47108793 2.0849366
0.45324373 -0.47103232 2.0803928
0.52407265 -0.47022286 2.065407
0.56687003 -0.46776891 2.0793467
0.62353128 -0.47014415 2.0737925
0.67247552 -0.46768388 2.0656161
0.72453463 -0.46998531 2.0627072
0.77773029 -0.46380433 2.0821638
0.82214212 -0.4685607 2.0759079
0.8781758 -0.46683252 2.0782995
0.92693084 -0.46898505 2.0647459
0.97667629 -0.466887 2.0849431
1.0316501 -0.46709788 2.0764759
1.078447 -0.46565259 2.0714681
1.1235852 -0.4666726 2.0694451
1.1743537 -0.4625302 2.0693007
1.2392224 -0.46051487 2.0813611
1.2718077 -0.46007636 2.063935
-2.137573 -0.36549082 2.0830786
-2.0947647 -0.38170764 2.0543132
-2.1354375 -0.32212359 2.0736034
-1.9131628 -0.31471005 2.0729949
-1.8737068 -0.33855927 2.06178
-1.8463869 -0.34919396 2.0612037
-2.151427 -0.26726836 2.0843196
-2.1391513 -0.28794444 2.0698996
-1.9311203 -0.28745401 2.0921342
-1.8870245 -0.26565793 2.0937643
0.78495991 -0.28482538 2.0619717
0.82253265 -0.27104682 2.0861554
-2.1327744 -0.22457762 2.0620105
-1.916399 -0.21198611 2.0691426
0.78554761 -0.2265083 2.053472
0.81208152 -0.22513917 2.0749516
-2.1505172 -0.17293605 2.0835879
-2.1432831 -0.1812396 2.0758741
-1.9626899 -0.17733195 2.0522876
-1.9239197 -0.16931455 2.0630922
-1.8844919 -0.17105186 2.0813091
0.79285622 -0.17825735 2.0588253
0.82383037 -0.17799543 2.0855408
-2.1333575 -0.13195157 2.0755394
-1.9510623 -0.12611037 2.055155
-1.9385762 -0.12613872 2.0656943
-1.8731167 -0.11186418 2.0662105
0.79225707 -0.12688321 2.0570605
0.82177997 -0.12435916 2.082989
-2.1533775 -0.065575302 2.0665374
-2.1458845 -0.091882199 2.0585301
-0.071111478 -0.0588651 2.0561633
-0.024887227 -0.063639566 2.0707469
0.016705893 -0.065218903 2.0814967
0.075297795 -0.067774862 2.078758
0.10858646 -0.061632939 2.0660548
0.18443656 -0.06388475 2.0554376
0.21031082 -0.06310074 2.0827734
0.79325318 -0.077483989 2.0713167
0.82386118 -0.083555914 2.085686
-2.1504848 -0.03916616 2.0892792
-2.1427186 -0.01226731 2.0571187
-0.12096111 -0.016359601 2.0590563
-0.075662903 -0.028758541 2.0703752
-0.03053949 -0.034626249 2.0920727
0.092530295 -0.029962722 2.0943999
0.12350096 -0.027769601 2.0674407
0.17843847 -0.027897073 2.0701637
0.20229022 -0.039910339 2.0869825
-2.157938 0.041010968 2.0713193
-2.1467705 0.014253356 2.0609291
-0.16454898 0.03755248 2.0553892
-0.12631539 0.023864212 2.0695295
-0.081097484 0.014453317 2.08915
-0.04245279 0.0050299428 2.0959527
0.092734255 0.010048277 2.0991464
0.12305089 0.023186637 2.0752103
0.16338857 0.019916024 2.0784173
-2.1519835 0.080812909 2.0645094
-2.140655 0.05391736 2.0544417
-0.21430624 0.098588049 2.0570157
-0.17546724 0.079205662 2.0670822
-0.13000098 0.06984359 2.0870273
-0.097716905 0.050162274 2.0999103
0.12102815 0.07187321 2.0853481
0.1573054 0.054934405 2.0885425
-2.1606967 0.12935391 2.0756354
-0.2543239 0.13837102 2.0573561
-0.22477999 0.12834211 2.0653896
-0.17826411 0.1241096 2.0861094
-0.14526096 0.1077629 2.0954561
0.11769505 0.10016251 2.0952096
-2.1631725 0.17074919 2.0787203
-1.6648375 0.19184729 2.0593991
-1.6215391 0.19094454 2.0732617
-1.5848298 0.19078603 2.0941024
-1.5450948 0.18953647 2.0983279
-0.30443841 0.1931327 2.0549455
-0.27302536 0.18092351 2.062866
-0.22689599 0.17686078 2.0818579
-0.19132294 0.15714528 2.0923843
-1.6622545 0.20945385 2.0546963
-1.6162673 0.20693643 2.0602286
-1.5698904 0.21148947 2.0763679
-1.5343746 0.21584868 2.0853913
-1.2982173 0.22272784 2.0538418
-1.2226602 0.22521804 2.0692914
-1.1764219 0.22634634 2.0775068
-1.1298428 0.22894658 2.072716
-1.0670387 0.23231779 2.0940132
-0.35636503 0.20941097 2.0627487
-0.34420359 0.20808473 2.0508077
-0.27717814 0.20991245 2.0757952
-0.22765115 0.20820463 2.0829668
-2.1220798 0.27992761 2.0697913
-2.1329231 0.30806741 2.0770125
-2.0994904 0.3315838 2.065537
-1.6791019 0.30095538 2.0547583
-2.0743427 0.35597384 2.0614867
-2.0481596 0.37984249 2.0557604
-2.0794466 0.43596557 2.0531209
-2.1452477 0.48547149 2.0678408
-2.1608799 0.53191 2.0910935
-2.1491888 0.51228505 2.0575187
-2.1646817 0.59073377 2.0722816
-2.1435316 0.5681653 2.0648551
-2.1617179 0.63258636 2.0830948
-2.1471574 0.60972244 2.058146
-2.1687007 0.67030519 2.084053
-2.1662743 0.72434664 2.0722466
-2.1473525 0.70895797 2.0569675
-2.1722715 0.77563667 2.0806725
-2.1698847 0.83005351 2.0743384
-2.1767476 0.87982208 2.0770576
-2.1742685 0.92958349 2.0647631
-2.1866744 0.98019052 2.072871
-2.2073092 1.0211484 2.0937679
-2.1754501 1.1383946 2.0732715
-2.1804929 1.1796623 2.0797565
-2.1810899 1.2292681 2.0683603
-2.1752558 1.2567976 2.0655479
-2.1906657 1.3180456 2.0841167
-2.1776769 1.3823106 2.0803208
-2.1937962 1.429635 2.0752263
-1.6177129 -0.4869082 2.112294
-1.5600932 -0.49247488 2.1040061
-0.25341609 -0.47100431 2.1027479
-0.21930766 -0.4696154 2.123112
-0.1754806 -0.47098351 2.1293283
-0.12348409 -0.47351483 2.1216722
-0.073345564 -0.47029629 2.118423
-0.025858603 -0.47626722 2.136286
0.02334254 -0.48280174 2.1314497
0.076760553 -0.4775947 2.1224153
0.12581341 -0.47617689 2.115808
0.17688444 -0.47144619 2.1098919
0.22977901 -0.47498313 2.1224496
0.27941021 -0.4709011 2.1162524
0.34836912 -0.46086487 2.1457188
0.37427384 -0.47120914 2.1209683
0.42202491 -0.47170758 2.1370347
0.459335 -0.46700594 2.1268806
0.53000718 -0.46981281 2.111964
0.5855267 -0.46694982 2.1227322
0.62429398 -0.46606159 2.1283338
0.68453687 -0.47109115 2.1400967
0.71930397 -0.46831578 2.1295142
0.75574625 -0.46984309 2.1174364
0.82567871 -0.46543425 2.132545
0.87451166 -0.46548608 2.1191509
0.93107969 -0.46550104 2.1270959
0.97822142 -0.46267989 2.1309752
1.0274013 -0.46569562 2.1183255
1.0722848 -0.46360207 2.1186841
1.1288897 -0.46178904 2.1218345
1.1810085 -0.46416321 2.1270692
1.2169683 -0.46132949 2.1293645
-2.1385357 -0.33581424 2.1052868
-2.1576123 -0.26745865 2.1225839
-2.1295154 -0.29415596 2.1016278
0.82878429 -0.275208 2.1018469
0.87337601 -0.2710644 2.1277895
-2.153656 -0.22822899 2.107327
-2.1420557 -0.21900345 2.1135371
0.84211701 -0.22495337 2.1026108
0.87376595 -0.22698538 2.1271882
-2.1556473 -0.17445622 2.1137238
-2.1331136 -0.17328918 2.1065772
0.84940594 -0.19036478 2.1011474
0.87266988 -0.1731021 2.1251769
0.90437275 -0.18450804 2.1477964
-2.1610167 -0.11401153 2.1225023
-2.1481678 -0.14023659 2.1085138
0.84890109 -0.130336 2.1029739
0.87127876 -0.12531716 2.1236827
0.90327734 -0.11376273 2.1485534
-2.1731269 -0.071260586 2.1190262
0.027928283 -0.055609599 2.1202092
0.068367973 -0.05568679 2.1221569
0.23638189 -0.060923297 2.1214395
0.25964051 -0.071929269 2.1441739
0.84142333 -0.074135661 2.1156328
0.87000144 -0.080146089 2.1273243
0.90318877 -0.097481616 2.1488929
-2.1767421 -0.01936638 2.1149936
-0.017587641 -0.01509136 2.1128545
0.019368635 -0.026206015 2.1263037
0.069444261 -0.025655339 2.1252668
0.21729676 -0.024814533 2.1241913
-2.2007592 0.00098935934 2.1383839
-2.1830113 0.031564359 2.1272326
-0.067845717 0.034520809 2.1076603
-0.024861103 0.02318099 2.1207097
0.0082704993 0.014774457 2.1370144
0.072602108 0.020722924 2.1241641
0.1891375 0.02590435 2.1143675
0.21017163 0.016150409 2.1379879
-2.1875627 0.073735654 2.1327832
-0.11205373 0.082479358 2.1043818
-0.077308998 0.071559034 2.1139708
-0.030316949 0.069211669 2.1390116
0.0026047553 0.051213879 2.1455019
0.073520765 0.071074381 2.1254432
0.12317947 0.090518095 2.1038413
0.17085032 0.069606498 2.1222835
-2.1765385 0.12978198 2.1174543
-0.15869987 0.1411393 2.1057091
-0.12543149 0.12376104 2.1137922
-0.081268579 0.12011927 2.1342943
-0.035470854 0.10842904 2.147383
0.075413398 0.12198838 2.1267993
0.12434375 0.12311918 2.1137002
0.1589895 0.10541067 2.1321638
-2.1775579 0.15969153 2.127311
-1.5640086 0.19040975 2.100873
-1.51765 0.18904211 2.1066501
-1.4219108 0.19974217 2.1425838
-1.0821115 0.15364027 2.1119654
-0.1718403 0.17729284 2.113384
-0.12503366 0.17200316 2.1339877
-0.089695148 0.15645938 2.1450784
0.079853006 0.1739623 2.1320174
0.11884025 0.17067224 2.1319766
-1.5148407 0.21101001 2.107693
-1.4739375 0.2122284 2.1242707
-1.4298985 0.21488409 2.1381996
-1.162717 0.22332937 2.1214995
-1.1441177 0.22404508 2.1372733
-1.0534737 0.2343322 2.101042
-1.0386145 0.23243374 2.1056798
-0.17097005 0.20716628 2.1170418
-0.12280901 0.20867196 2.1374516
0.07442072 0.20912112 2.1434541
0.10527132 0.20535442 2.1437645
-2.1704609 0.29989934 2.1153121
-2.1641159 0.49333775 2.1158128
-2.1723647 0.52187878 2.1115658
-2.178287 0.57200384 2.1208808
-2.1649106 0.60490614 2.1042752
-2.1834114 0.67668182 2.1315553
-2.1936471 0.72882873 2.1273673
-2.202323 0.77883911 2.1490829
-2.1861901 0.76124161 2.1093857
-2.1919236 0.82440329 2.1226737
-2.2056184 0.8919934 2.1424832
-2.1899674 0.87296206 2.1035318
-2.2164536 0.93220347 2.1396992
-2.1981554 0.92451227 2.1219885
-2.2104433 0.975721 2.1305242
-2.2072611 1.0205873 2.1232345
-2.1968858 1.0443627 2.1012213
-2.2080965 1.0709767 2.1324327
-2.1981919 1.0662004 2.1228993
-2.1875362 1.1912559 2.1131871
-2.1968861 1.2182324 2.1115823
-2.2155168 1.2737648 2.1383026
-2.1938272 1.2832944 2.106174
-2.2228363 1.3463783 2.1419549
-2.1959012 1.3448445 2.1081779
-2.203043 1.3640476 2.1071124
-0.15395717 -0.46977037 2.1519957
-0.12860747 -0.47230619 2.1791101
-0.071371555 -0.47593629 2.1831057
-0.023776539 -0.47597578 2.1839924
0.023914911 -0.48103273 2.1884451
0.074960604 -0.47704604 2.1739888
0.12460724 -0.47705513 2.1867013
0.17415935 -0.47552428 2.1858313
0.22871108 -0.47483027 2.1793456
0.26443586 -0.47327617 2.173738
0.37429062 -0.46971852 2.1848941
0.42253023 -0.47093901 2.174346
0.46410891 -0.46840513 2.1846578
0.54568422 -0.47766894 2.1986353
0.57562065 -0.4715248 2.1746542
0.6242376 -0.4676342 2.179178
0.68123484 -0.46933678 2.1731274
0.73063296 -0.46698156 2.1642258
0.77662027 -0.46851569 2.1608231
0.82032365 -0.46480364 2.1767294
0.87755972 -0.4611614 2.1737733
0.92226553 -0.46131873 2.1818898
0.97907066 -0.46250769 2.1911829
1.0241249 -0.45966226 2.1736503
1.0673813 -0.4640418 2.1698744
1.1234049 -0.46247008 2.1840966
1.1612453 -0.45846981 2.1692145
1.2288164 -0.45648149 2.1646154
0.029133331 -0.42269039 2.1890318
0.88516843 -0.29397181 2.1518807
0.92249405 -0.26448295 2.1622076
0.96063167 -0.26814091 2.1959422
0.92465758 -0.22049017 2.1668804
0.95780861 -0.23437198 2.1969862
0.92470491 -0.17291281 2.1673548
0.96235615 -0.16160998 2.1974754
0.92845935 -0.12844555 2.1725297
0.96012115 -0.13341753 2.1936538
-2.2058568 -0.06850116 2.1941504
-2.1857135 -0.081535503 2.1685827
0.24076821 -0.062085677 2.1610992
0.27361578 -0.062482402 2.1725492
0.89437175 -0.065087833 2.1577773
0.9261089 -0.080672033 2.1717441
-2.206274 -0.012835406 2.1694915
-2.1925659 -0.03336145 2.155843
0.043719441 -0.020524777 2.153739
0.05390548 -0.020490512 2.1500034
0.23883227 -0.022716034 2.1629388
0.26216376 -0.030191816 2.1848459
-2.2050369 0.014777957 2.1682208
-2.1976964 0.014717508 2.1609643
0.031577233 0.023865676 2.1583507
0.23179945 0.01875909 2.1748166
-2.2059855 0.097641788 2.1671457
-2.1915479 0.069563806 2.1539323
-0.011103287 0.089235507 2.1562836
0.024168165 0.073330268 2.1674817
0.19182007 0.079867482 2.1622202
0.2140252 0.069238655 2.180356
-2.1966078 0.1157791 2.1657183
-0.062632561 0.14085031 2.1561508
-0.025537184 0.13029176 2.1713285
0.023387 0.12501958 2.1803808
0.054064281 0.1235432 2.1539545
0.17563966 0.12683752 2.1734271
0.20198132 0.10493655 2.1912096
-2.2162297 0.18246241 2.1984539
-2.1974688 0.17343466 2.1674352
-1.4061247 0.19998771 2.1542683
-1.3632917 0.19970918 2.1715813
-1.326246 0.19940686 2.1848507
-1.2972914 0.19944341 2.1986125
-0.10040601 0.19063589 2.1525209
-0.07287211 0.17911375 2.1645393
-0.034996819 0.17456053 2.1827335
0.028910017 0.17550713 2.1791353
0.05590266 0.17363353 2.1565459
0.14305286 0.18331835 2.1604819
0.16501179 0.16683888 2.1769605
-1.4072473 0.21778321 2.1546519
-1.378696 0.2139893 2.1657925
-1.3248559 0.21674196 2.1813049
-1.297343 0.22288226 2.1969974
-0.075045846 0.20721874 2.164058
-0.049523164 0.20874608 2.180522
0.040737469 0.21136928 2.1715944
0.074754424 0.21638331 2.1514628
0.12059071 0.21105056 2.1593399
-2.1747077 0.2904624 2.1724246
-2.2024727 0.32506707 2.1897061
-2.1894574 0.31132036 2.1586862
-2.2082396 0.3509475 2.1986628
-2.2004633 0.54851729 2.1816559
-2.1960154 0.52646029 2.1709771
-2.2026052 0.58420205 2.1757169
-2.1946797 0.57695258 2.1826596
-2.2031384 0.63557327 2.1772947
-2.1946487 0.61807108 2.1658378
-2.2050083 0.67120391 2.1835957
-2.2048354 0.73013985 2.1667595
-2.1937249 0.70533276 2.1620154
-2.2049334 0.77033728 2.1545408
-2.2236106 0.82739383 2.1849427
-2.2160411 0.86754531 2.1628597
-2.2368593 0.93960416 2.1891928
-2.2220292 0.96228325 2.163646
-2.2307637 1.0234898 2.178983
-2.2304006 1.071897 2.1784499
-2.2274106 1.1168293 2.1653948
-2.2339699 1.1572057 2.1858919
-2.204926 1.2234548 2.1500041
-2.2256942 1.3181484 2.1603277
-2.2195647 1.3835477 2.1502466
-0.11539999 -0.47251567 2.2170305
-0.074552469 -0.47256002 2.227113
-0.024020584 -0.47094935 2.2115567
0.025359964 -0.46623954 2.2259269
0.078154936 -0.4741559 2.2257905
0.1269208 -0.47493273 2.2279797
0.17240953 -0.47406808 2.2218838
0.22457746 -0.47616041 2.2286863
0.28091034 -0.47137234 2.2283494
0.30406046 -0.46803451 2.2103591
0.37887132 -0.46867195 2.2325437
0.4235886 -0.47327319 2.2387426
0.47225013 -0.46938312 2.2241268
0.53815502 -0.46971959 2.2157152
0.56728888 -0.47124857 2.2183056
0.61192882 -0.46569574 2.2249787
0.67528683 -0.47037736 2.231375
0.72260636 -0.46855962 2.2312133
0.7735014 -0.46594191 2.2159564
0.82984322 -0.46386734 2.2209091
0.8646912 -0.46172523 2.2206533
0.94135046 -0.45766783 2.2187977
1.0221552 -0.45786896 2.2159262
1.1143304 -0.46607912 2.2301238
1.1519458 -0.45697796 2.2329257
1.2205572 -0.45629796 2.2020233
0.024260342 -0.4411217 2.227422
0.94408053 -0.29115841 2.2045329
0.9818877 -0.27349943 2.2125199
1.0069927 -0.25652254 2.2341652
0.97934318 -0.22388488 2.214211
1.0121609 -0.22643651 2.2381952
0.97738266 -0.17784435 2.2114763
1.0116998 -0.17746294 2.237479
0.9794305 -0.12070273 2.2127154
1.0067046 -0.12273457 2.2355523
0.28980446 -0.053126186 2.2162893
0.31030887 -0.066141844 2.2242928
0.97436911 -0.078426205 2.2134399
1.0048004 -0.079511553 2.2385042
-2.2249081 -0.023568356 2.220475
0.28424111 -0.021268981 2.2208323
0.30335769 -0.042905092 2.2370408
-2.2206628 0.020590952 2.2148399
0.24246633 0.038822714 2.2085142
0.2662155 0.016514843 2.2230496
-2.2257764 0.073507369 2.2224131
0.23721002 0.077315234 2.2247937
0.25075009 0.097084865 2.2498329
0.19330993 0.14829333 2.2110288
0.21841939 0.12303647 2.225184
-2.2344651 0.17094143 2.243978
-1.2125194 0.19990927 2.241004
-1.1954757 0.19999713 2.2489843
-1.1462096 0.18409817 2.2090366
-0.013339247 0.17658922 2.238194
0.0069002458 0.1815664 2.2072592
0.18626812 0.18004267 2.2239363
0.21071319 0.16498087 2.2444675
-1.2729278 0.21157488 2.2140825
-1.2258967 0.21387854 2.2330709
-1.1899711 0.21928529 2.2461429
0.013255632 0.20610192 2.2087584
0.16987702 0.20817634 2.2185552
-2.2263432 0.32767433 2.2469842
-2.2203074 0.36925545 2.2350795
-2.1980968 0.57260638 2.2009134
-2.2260797 0.68934393 2.2153811
-2.2439106 0.72612447 2.2385337
-2.2564013 0.77391559 2.2381256
-2.2408059 0.77820086 2.2196352
-2.2434514 0.83285528 2.2341216
-2.2597804 0.87568182 2.2380629
-2.2464969 0.89246982 2.2172778
-2.2588885 0.94025004 2.2438045
-2.2442908 0.91349351 2.2072515
-2.2440636 0.9708268 2.2152593
-2.2583039 1.0226992 2.234154
-2.241179 1.0572302 2.2074935
-2.258539 1.1249443 2.2300813
-2.2409918 1.1261111 2.2083175
-2.2625637 1.1798164 2.2418466
-2.2466195 1.1715014 2.2260966
-0.10620044 -0.46851388 2.2512522
-0.070228137 -0.47142997 2.2661555
-0.024730979 -0.47296456 2.2741914
0.031383369 -0.46333304 2.2713072
0.074722573 -0.4756566 2.286427
0.12432785 -0.474933 2.2815139
0.17231946 -0.47527805 2.2811334
0.22317013 -0.47370976 2.2706573
0.27948165 -0.47212604 2.2773268
0.31599781 -0.46965843 2.2994459
0.39127228 -0.46978119 2.2736073
0.43297198 -0.46916625 2.2843027
0.46696308 -0.47233242 2.2672973
0.5806011 -0.46789685 2.2676232
0.62271976 -0.46766868 2.2765093
0.67594767 -0.46612024 2.2680635
0.72160065 -0.46389127 2.2669468
0.76482755 -0.46612242 2.2689421
0.81646341 -0.46391737 2.2761097
0.85718131 -0.46732554 2.2840269
0.92297727 -0.46174324 2.2677088
0.99846882 -0.46282715 2.2511041
1.0509722 -0.4590041 2.2801123
1.1319962 -0.45846331 2.284409
1.1512023 -0.46138382 2.2588685
1.0332015 -0.26937184 2.2621171
1.0669503 -0.27015638 2.2918937
1.040642 -0.22161077 2.2626221
1.0724843 -0.22495675 2.2868152
1.0419211 -0.17927161 2.2656193
1.062889 -0.17484049 2.2799158
1.0360574 -0.12671459 2.2608695
1.0636158 -0.12215112 2.2790508
-2.253588 -0.099687316 2.2942505
0.33216089 -0.058849741 2.2697263
0.35931084 -0.062431376 2.2924526
0.94494301 -0.057280235 2.2799988
0.98081028 -0.057692751 2.2882566
1.0250195 -0.072203144 2.2627406
1.0605179 -0.073192224 2.2862318
-2.2569635 -0.013448607 2.2994058
-2.2476847 -0.027732471 2.2898622
0.32299295 -0.029072886 2.2728209
1.0295845 -0.036387127 2.2901206
1.0648 -0.028423157 2.2933381
-2.2546279 0.015340217 2.2969463
-2.2477081 0.022350077 2.2630205
-1.712485 0.032876503 2.2952409
-1.6713715 0.031347863 2.2970901
-1.6382074 0.034575805 2.2978992
-1.5970426 0.038538121 2.2980411
0.28996673 0.027838673 2.2642803
0.31298241 0.01889508 2.2846339
1.0633609 0.0060635647 2.2952204
-2.2413273 0.086474724 2.2686088
-1.7012455 0.052153576 2.2923925
-1.6745216 0.056278575 2.2976196
0.27464628 0.072223045 2.2746158
-2.2546988 0.10164098 2.2950032
-2.2472482 0.1006844 2.2606702
0.23775345 0.13740969 2.2624807
0.25734439 0.12188471 2.2751155
-0.0080720158 0.18408176 2.2644386
0.22787891 0.17606744 2.2733331
0.25629234 0.15433897 2.2975435
-1.1662709 0.21098234 2.2634459
-1.1318936 0.21421656 2.2847316
0.19756958 0.21109945 2.2565918
0.21615672 0.20791462 2.2804594
-2.2457528 0.32433957 2.2809892
-2.2665153 0.7749685 2.2778981
-2.2566788 0.8083927 2.2567663
-2.2826376 0.89029652 2.2886224
-2.2834835 0.93008518 2.2857273
-2.1754982 0.93640178 2.2868679
-2.1272523 0.93190765 2.2843959
-2.0711496 0.93129355 2.288748
-2.0060978 0.93829161 2.2765353
-2.2840312 0.9795754 2.2884891
-2.2032521 0.99352103 2.279073
-2.176446 0.96774042 2.2745082
-2.1288025 0.97632259 2.2699594
-2.0740378 0.97625613 2.2732184
-2.0370972 0.97823256 2.2874267
-2.2706726 1.0232291 2.2765405
-2.2272685 1.019335 2.2981234
-2.1803572 1.0216453 2.2808266
-2.1300743 1.025293 2.2727387
-2.0660241 1.0262288 2.276541
-2.0441468 1.0104393 2.2844048
-2.2654672 1.0787214 2.2644014
-2.1721678 1.0630722 2.289989
-2.1215887 1.0600282 2.2888389
-2.0831549 1.0517344 2.28863
-2.2729175 1.1396387 2.2725234
-2.1641529 2.3962851 2.2709215
-2.1630487 2.4143786 2.2996993
0.072809741 -0.47155738 2.3337398
0.12090653 -0.47206146 2.3234408
0.17372328 -0.4751153 2.3268759
0.22797079 -0.47275013 2.3215439
0.27377954 -0.47398865 2.3244348
0.32096958 -0.46568906 2.3371379
0.42467833 -0.47097197 2.3334403
0.47305545 -0.47009492 2.3305495
0.57272536 -0.46714842 2.3123665
0.62065595 -0.46800268 2.3289022
0.66551805 -0.46852398 2.3273799
0.73567867 -0.4651078 2.3326175
0.77505094 -0.46310675 2.3131032
0.83204496 -0.46434698 2.3388925
0.87042016 -0.46084264 2.3210595
0.93114376 -0.4609423 2.3274436
0.97935486 -0.46410653 2.3313901
1.0863577 -0.27653834 2.3087471
1.1100484 -0.26507366 2.3258498
1.0911429 -0.22057302 2.303709
1.1166723 -0.22452576 2.3184264
1.0905879 -0.17121142 2.3054838
1.1217308 -0.17159857 2.3321517
1.0863384 -0.12390386 2.3082163
1.1196167 -0.1213934 2.3299515
-2.2714314 -0.074579976 2.324096
-2.2130408 -0.071039103 2.333858
0.38284531 -0.061415948 2.321744
0.84259963 -0.058178067 2.3455095
0.86657959 -0.057826389 2.3243494
0.92492265 -0.057833366 2.3098345
1.0895357 -0.076545075 2.3067908
1.1222409 -0.077584282 2.3318906
-2.2737 -0.028082684 2.329968
-2.2044346 -0.013453137 2.3256328
-2.199981 -0.027734671 2.3208454
-1.5758295 -0.01242232 2.3435776
-1.5413133 -0.012368042 2.3433449
0.34304106 -0.014738325 2.3088951
0.36878014 -0.02979603 2.3289008
0.9397161 -0.046975352 2.3469567
0.97733182 -0.030545108 2.3337543
1.0191594 -0.022200435 2.3120229
1.0901221 -0.031346124 2.3087409
1.121946 -0.029687436 2.3320091
1.1504959 -0.023933865 2.3475566
-2.2709785 0.027148973 2.3352246
-1.7181578 0.0092058359 2.3155882
-1.6701268 0.0069281324 2.31321
-1.6179094 0.016418142 2.3091903
-1.5732419 0.018001746 2.3180094
-1.5250016 0.020672183 2.3337734
-1.4857821 0.028217474 2.3453939
0.33613536 0.021253547 2.3206058
0.35971582 0.011316624 2.3442304
0.99426621 0.022187443 2.3444424
1.0256238 0.022213755 2.3238854
1.0736066 0.028262071 2.3116248
1.1230861 0.024197303 2.3359723
-2.2694743 0.059226356 2.3386128
-1.7280152 0.065849565 2.3154547
-1.6712915 0.070660487 2.3120668
-1.6282758 0.063178271 2.3201737
-1.5747478 0.058745887 2.3230281
-1.5285524 0.055490125 2.3362026
-1.4935888 0.051110372 2.3469751
0.29047421 0.088564076 2.3061681
0.31781375 0.07116548 2.3275898
0.35279945 0.056487039 2.3485284
1.0322852 0.074175522 2.3392687
1.0770017 0.07735163 2.3236413
1.1238749 0.079075158 2.3371997
0.28355691 0.13039581 2.3210936
0.31038302 0.11004911 2.3374925
1.0393889 0.11932172 2.3445764
1.0753998 0.12600526 2.3381064
1.1186427 0.12464254 2.3399119
0.24612987 0.18808404 2.3047252
0.2691704 0.17222783 2.3223836
1.0792586 0.16994672 2.3448553
1.117713 0.17171514 2.3442085
-1.1335901 0.20362075 2.3209636
0.24118066 0.21067369 2.3092651
0.27024549 0.20673695 2.3386021
1.0923976 0.21246682 2.3459561
1.1265749 0.21237247 2.3435097
-2.2823496 0.73500937 2.3167763
-2.3046567 0.78567094 2.3467333
-2.2910886 0.7660386 2.3372917
-2.3057911 0.80869412 2.3411021
-2.2952974 0.83510351 2.3211126
-2.3034444 0.89672452 2.3404579
-2.2945669 0.86774027 2.3248227
-2.1180577 0.89048493 2.3171468
-2.0667949 0.88865489 2.3216033
-2.0373058 0.89516079 2.3319402
-2.3051524 0.91258961 2.3370216
-2.2838445 0.92674392 2.3075404
-2.2051249 0.93502766 2.3029711
-2.1607897 0.91084075 2.3030517
-2.1092193 0.9071731 2.3054695
-2.0526433 0.91403246 2.3009381
-2.0265141 0.92513955 2.3283937
-2.2869489 0.97749233 2.3311479
-2.0147994 0.97670424 2.3212273
-1.9929106 0.98469234 2.3465226
-2.269495 1.0220916 2.3123567
-2.0245051 1.0286326 2.3156579
-1.99672 1.0155934 2.3402283
-2.2776806 1.0784806 2.314728
-2.2252512 1.0554248 2.3124001
-2.1210728 1.0819609 2.3101437
-2.0654929 1.0752468 2.3173869
-2.0263705 1.0686414 2.3354261
-2.2928302 1.1265879 2.3130505
-2.0360901 1.1015831 2.3291667
-2.179692 2.3959777 2.3001101
-2.1121621 2.3973737 2.3273919
-2.0925884 2.3936546 2.314456
-2.2666917 2.4070315 2.340899
-2.2201068 2.4077535 2.3220274
-2.1628723 2.4063544 2.3277006
-2.1371977 2.4059815 2.324096
