ply
format ascii 1.0
comment PCL generated
element vertex 1514
property float x
property float y
property float z
element camera 0
property float view_px
property float view_py
property float view_pz
property float x_axisx
property float x_axisy
property float x_axisz
property float y_axisx
property float y_axisy
property float y_axisz
property float z_axisx
property float z_axisy
property float z_axisz
property float focal
property float scalex
property float scaley
property float centerx
property float centery
property int viewportx
property int viewporty
property float k1
property float k2
end_header
0.3887752 0.63142663 2.480557
0.42462191 0.62563324 2.4671521
0.4505522 0.6410982 2.4532893
-1.9699682 0.67118722 2.4668126
-1.9459763 0.66997975 2.4929843
0.38474488 0.68149889 2.4834237
0.42255875 0.67497861 2.4646039
0.45117533 0.67832476 2.4500368
-1.9661899 0.72550446 2.4807286
0.38421988 0.72790784 2.4878421
0.42526299 0.72657949 2.4635999
-1.9717155 0.77628779 2.4726162
-1.9472547 0.7781741 2.4980686
0.38192293 0.77296442 2.4893813
0.42503086 0.78171772 2.467176
-1.9723588 0.82402998 2.4712934
-1.9489262 0.80820358 2.4924283
0.38326815 0.82144457 2.4861391
0.43149924 0.82619536 2.4650493
-1.9744389 0.86901104 2.4743075
0.38132724 0.87430131 2.4911761
0.4224748 0.87607062 2.4709554
-1.9731421 0.92146212 2.472666
0.38000724 0.92787009 2.4921033
0.42406607 0.92603946 2.4671512
-1.9732012 0.97442913 2.47609
0.38017097 0.97787446 2.4891858
0.42437991 0.97224408 2.4625096
-1.9735612 1.0285599 2.4748449
0.3871336 1.0287863 2.4904692
0.42652655 1.0235845 2.4687428
0.45279735 1.0243628 2.4502032
-1.9742658 1.0790365 2.4757166
0.38306445 1.0751245 2.4905825
0.43266183 1.0739336 2.4697597
0.4568758 1.0966253 2.452888
-1.9721669 1.126493 2.4773774
0.39004275 1.1223433 2.4912872
0.4332934 1.1233695 2.4711518
-1.9719601 1.1819779 2.4726782
0.38808924 1.1702275 2.4885864
0.4351958 1.1789529 2.467485
-1.9711217 1.2314773 2.4717569
0.38383096 1.2250881 2.4936409
0.4256241 1.2244517 2.4784722
0.45231083 1.2319859 2.4594629
-1.9644939 1.277559 2.4751537
0.38694289 1.2748351 2.4922435
0.43231952 1.2791818 2.4758749
0.45521054 1.2786461 2.4607699
-1.9672436 1.3209959 2.4711664
-1.9472022 1.3221385 2.4967778
0.38914707 1.321342 2.4914906
0.43383589 1.3294396 2.4751348
0.456853 1.32218 2.4544785
-1.9696088 1.3732045 2.4733989
-1.9483783 1.3954489 2.4994037
0.39598736 1.3733065 2.4925857
0.43706298 1.3738892 2.4796491
0.45785227 1.3771176 2.4606071
-2.0046716 1.4491159 2.4558146
-1.9713198 1.4281218 2.4775078
0.38799116 1.4195343 2.4948528
0.43233007 1.419699 2.4838147
0.45769203 1.4227667 2.4624567
-1.9801418 1.4774071 2.4738719
0.39001751 1.4536078 2.4964342
0.43712881 1.4684955 2.4872763
0.45955095 1.4724829 2.4620967
-2.0001316 1.5041451 2.4558196
-1.978145 1.5270038 2.4810903
0.44034049 1.5196537 2.4871767
0.46740356 1.5262301 2.4615788
-2.0035176 1.5881186 2.4711726
-1.9835032 1.5627108 2.4706094
0.44108114 1.5713245 2.4933348
0.46248221 1.5736133 2.4727085
-2.0169473 1.6262703 2.468101
0.44101435 1.6207983 2.4941094
0.46616426 1.6246721 2.4729166
-2.0201356 1.6800231 2.4782236
0.44489431 1.6833814 2.4910929
0.46833757 1.6765314 2.4737797
-2.0226243 1.7280077 2.4799614
0.44837826 1.731359 2.4918675
0.47571665 1.7255665 2.4732277
0.50223917 1.7461432 2.4632404
-2.0281231 1.7751639 2.471899
0.47468922 1.7718427 2.4801662
0.51102138 1.7803332 2.4550171
-2.0280702 1.8322017 2.4800372
0.48429617 1.8251055 2.4785271
0.50764614 1.8210282 2.457068
-2.0606658 1.8762804 2.4527464
-2.0349147 1.8782545 2.4801037
0.49033728 1.86737 2.4772522
0.51284361 1.8751885 2.4607635
-2.064759 1.9206473 2.4584343
-2.032455 1.9280716 2.4848208
0.48576492 1.9206566 2.4898701
0.51916498 1.925653 2.4606314
-2.0593569 1.964663 2.46117
-2.0360944 1.9746946 2.4829044
0.48942682 1.9800652 2.491071
0.52290469 1.9792784 2.4654815
-2.0595539 2.0215135 2.4625354
-2.0383615 2.0187805 2.4858193
0.48586464 2.0171309 2.4968088
0.51283991 2.0083349 2.4810612
-2.0623181 2.0851791 2.4549506
-2.0407093 2.0703247 2.480608
-2.057653 2.1146693 2.4545386
-2.0363922 2.1235847 2.4858761
-2.0604315 2.1785264 2.4701893
-2.0384653 2.1825445 2.489109
-2.0656261 2.2278469 2.4632208
-2.0405359 2.219856 2.4811518
-2.0586369 2.2697768 2.4685421
-2.0379386 2.280246 2.4897399
-2.0646412 2.3346884 2.4592876
-2.0325332 2.3307638 2.485873
-2.057616 2.363517 2.4547467
-2.0283763 2.3793545 2.4787457
-2.0176964 2.413101 2.462496
-1.9787648 2.4296575 2.4741161
-1.9326997 2.4319997 2.4778597
-0.41437221 -0.50343698 2.5198107
-0.28099942 -0.51878798 2.5455225
-0.43068185 -0.49572119 2.5434804
0.38819727 -0.46590418 2.5332215
0.41382036 -0.46833891 2.5144176
0.37775406 -0.42111248 2.5254805
0.41208941 -0.42111751 2.5146511
-1.7518219 -0.36170703 2.5010338
0.37772942 -0.37369722 2.5206144
0.41101652 -0.37132594 2.5131004
0.38031244 -0.3224082 2.5188978
0.41005018 -0.321872 2.511585
0.38041237 -0.27134594 2.5159032
0.41189361 -0.27114108 2.5142212
0.37763187 -0.23882794 2.5206995
0.44157875 -0.19481924 2.523349
-1.7571319 -0.05974324 2.5098345
-1.7216855 -0.05519272 2.5322435
-1.6657493 -0.067975283 2.504149
-1.7606084 -0.025371676 2.5138927
-1.7314761 -0.02944614 2.5389018
-1.7591646 0.021379018 2.5176976
-1.7367642 0.021443415 2.5406885
-1.766475 0.079104856 2.5159023
-1.7407025 0.077432752 2.5408909
0.37374714 0.097286731 2.5286088
0.40285847 0.096969306 2.5172479
-1.9163595 0.14386642 2.5235636
-1.805305 0.12671389 2.5115552
-1.7760816 0.11743885 2.5304849
-1.7340717 0.112569 2.5488021
0.37441665 0.12790339 2.5321763
0.40449873 0.13064443 2.5110664
-1.9508376 0.1802527 2.5113935
-1.9280254 0.16996615 2.5283442
0.37692788 0.17480545 2.5293529
0.41513118 0.16972472 2.5144293
-1.9608424 0.22073314 2.5097499
-1.9331572 0.22141905 2.5355315
-1.9562593 0.27443352 2.511369
-1.9360085 0.27504531 2.5326397
-1.9635029 0.33091411 2.5111372
-1.9365724 0.32495886 2.5365489
-1.9567811 0.36100641 2.5030334
-1.918542 0.37221569 2.5259643
-1.8901911 0.38222885 2.5381851
-1.9152023 0.42622995 2.5239358
-1.9205309 0.47806501 2.5235596
-1.8975674 0.47953999 2.5492239
-1.9197228 0.52349079 2.5207906
-1.8984935 0.5160774 2.5447125
-1.9181912 0.57256734 2.5214317
0.40754396 0.58835995 2.5020294
-1.9187747 0.62691426 2.5232577
-1.8966503 0.63651264 2.5490873
0.39866942 0.6057533 2.5227811
-1.9225945 0.67195648 2.5189805
-1.8993626 0.67402953 2.5450084
0.37112269 0.68233949 2.5218256
-1.9241605 0.72437555 2.5209208
0.35736308 0.72807735 2.5132523
-1.9224722 0.77765262 2.5263753
-1.8996427 0.78266782 2.5499108
0.33757332 0.77833569 2.5272515
0.35546482 0.77727991 2.5112426
-1.9274088 0.82898414 2.5228689
0.33214384 0.82511503 2.5296421
0.35641944 0.83342218 2.5061336
-1.9533091 0.89031613 2.505518
-1.9297057 0.87444973 2.5267286
0.33026636 0.87629366 2.5322413
0.35693064 0.87984651 2.5071189
-1.9537283 0.90534288 2.5015762
-1.925673 0.92487043 2.5283792
0.33021858 0.92218667 2.5293522
0.35725832 0.92178404 2.5040355
-1.9506648 0.98545295 2.5027416
-1.9278721 0.96999228 2.5259759
0.33286566 0.97528881 2.5294836
0.35979009 0.96901202 2.506263
-1.952767 1.0014578 2.5004125
-1.9279226 1.0221391 2.5266442
0.33432874 1.027666 2.5266709
0.36303958 1.0225244 2.5081837
-1.9271663 1.067484 2.5236936
0.33216989 1.0749201 2.5312307
0.36079219 1.0792695 2.5073621
-1.9556404 1.1011298 2.501029
-1.9244523 1.1199883 2.528477
0.32690173 1.1250719 2.5360899
0.36049378 1.130564 2.5119369
-1.9502329 1.1672244 2.5000608
-1.9260192 1.1709237 2.5278845
0.33170936 1.1765523 2.5362387
0.35873768 1.1765376 2.5118744
-1.9262992 1.2215239 2.5246704
0.33078209 1.225033 2.5374656
0.36021438 1.2203583 2.5088918
-1.9257492 1.2755544 2.5249171
0.33152413 1.2761528 2.5378699
0.3638173 1.2723631 2.5118737
-1.9223614 1.3261788 2.5248854
0.3363286 1.3240024 2.5364971
0.36451751 1.3265802 2.5128987
-1.9287167 1.3758645 2.5211682
-1.8991632 1.3624291 2.5410125
0.33907172 1.3698548 2.5384009
0.3703056 1.3813115 2.5129776
-1.9285005 1.4225125 2.5299623
0.33434027 1.4236482 2.543602
0.36417913 1.4258196 2.5186281
-1.9536507 1.4809639 2.5015392
-1.9318738 1.4744551 2.5235639
0.342316 1.4779239 2.5440245
0.37189788 1.4758199 2.516639
-1.9540851 1.5485513 2.5038347
-1.9339694 1.5248243 2.5196538
0.3449505 1.5234601 2.5485129
0.37578532 1.524469 2.5216436
-1.9555988 1.5719225 2.512707
-1.9301506 1.5642585 2.5426695
0.34811744 1.5857183 2.549633
0.37538749 1.5730699 2.525933
0.42533478 1.5791537 2.5010016
-2.0044622 1.6400931 2.5007358
-1.9754997 1.6203454 2.525445
0.34814692 1.6065388 2.539937
0.38092542 1.6063424 2.5216241
0.42899811 1.6270823 2.5056291
-1.9820001 1.675814 2.5193367
0.38980594 1.6758537 2.5436189
0.42474911 1.6770432 2.5160351
-1.9785852 1.7276741 2.5276153
0.39753872 1.7241945 2.5447402
0.42316633 1.7281673 2.518851
-2.0087001 1.7767862 2.5060282
-1.984869 1.7774038 2.524009
0.39305618 1.7674359 2.5451088
0.42371574 1.7802372 2.5283496
0.4540045 1.7882836 2.5034721
-2.003628 1.8280193 2.5057983
-1.988521 1.822401 2.5317142
0.42606553 1.8234853 2.5291708
0.46141133 1.8224739 2.5039015
-2.0157669 1.8936558 2.5137379
-1.990954 1.8638053 2.529475
0.43485284 1.8766021 2.531244
0.46722922 1.8780119 2.508599
-2.0050313 1.9228649 2.5207467
-1.9847788 1.9317181 2.5413885
0.43489641 1.9168186 2.5320857
0.45989054 1.9343374 2.5207129
-2.0166972 1.9802568 2.5151429
-1.9945202 1.9833074 2.536561
0.43679801 1.9731401 2.5384345
0.463429 1.9784061 2.5214992
-2.0173504 2.0298691 2.5176182
-1.9938657 2.0164552 2.5347927
0.43969887 2.0328829 2.5382421
0.46738225 2.0247598 2.5237091
-2.0150094 2.0719097 2.514977
-1.9951274 2.0777793 2.539748
-2.0112219 2.1199932 2.518815
-1.9958357 2.1396115 2.5433178
-2.0131676 2.1676662 2.5207
-1.9908035 2.1875422 2.5452516
-2.0196021 2.2241869 2.5204453
-1.999025 2.2140241 2.5428164
-2.0168893 2.2679763 2.515552
-1.9971431 2.2753305 2.5414128
-2.0099864 2.3152366 2.5137787
-1.9925097 2.3157957 2.5335503
-2.0037849 2.3762572 2.5111742
-1.9840977 2.3720381 2.5386376
-1.9733797 2.4136245 2.5229976
-1.9261678 2.4398727 2.518806
-1.8768852 2.4305892 2.531517
-1.8419188 2.4282708 2.5291119
-0.38864419 -0.50553882 2.5991893
-0.24861646 -0.51615238 2.598594
-0.077142842 -0.50614309 2.5550652
-0.20921704 -0.48718867 2.5839119
0.37685809 -0.47326428 2.5650702
0.36560267 -0.23340611 2.5519247
-1.7046788 -0.055562466 2.5629218
-1.6908216 -0.055811942 2.5844889
-1.7112896 -0.024776844 2.5618911
-1.6937913 -0.027740771 2.58933
-1.7113445 0.024332333 2.5675652
-1.691753 0.016885916 2.5909972
-1.7169808 0.076141723 2.5699511
-1.6917878 0.085009262 2.5923271
0.32374027 0.098715194 2.570811
-1.8775485 0.14470127 2.5689206
-1.7698051 0.12816638 2.5723982
-1.726319 0.11802181 2.574651
-1.6996576 0.11304899 2.5820932
0.33582643 0.12552248 2.5668499
-1.9096729 0.18371202 2.5590086
-1.8801939 0.17274812 2.5796025
0.35712165 0.17390431 2.583601
-1.9126039 0.22986501 2.5598876
-1.8871906 0.22275892 2.586132
-1.9150585 0.27593112 2.5576286
-1.8854308 0.27666107 2.5852296
-1.9098542 0.33100578 2.5637007
-1.8876258 0.3161917 2.5894072
-1.872902 0.37514022 2.5744522
-1.8753325 0.42135558 2.5697062
-1.8455573 0.43737441 2.5977769
-1.8728493 0.47111037 2.5692263
-1.8459629 0.47389892 2.5931909
-1.871399 0.52592093 2.5776842
-1.8752328 0.57439852 2.5705497
-1.8748412 0.62517428 2.5769584
-1.8450966 0.61684495 2.5974586
0.3913013 0.63862431 2.5525532
-1.8718804 0.67731732 2.579427
-1.8759347 0.72303408 2.5752406
-1.9004419 0.76084769 2.5564861
-1.8779302 0.77109575 2.5820131
0.3408899 0.7775653 2.5797765
-1.9088846 0.81614399 2.5546207
-1.88471 0.82332575 2.5759771
0.31928074 0.82191557 2.5503628
-1.9032812 0.88717699 2.5577421
-1.8764824 0.8743313 2.5812538
0.29885253 0.89976925 2.5798457
0.30646452 0.8716414 2.5676925
-1.9052209 0.91045439 2.553828
-1.8797352 0.92898643 2.5793638
0.293917 0.9299407 2.5668137
0.31000426 0.93323308 2.5552828
-1.9006912 0.99045438 2.5538785
-1.8829693 0.97794521 2.5789313
0.28847441 0.9762584 2.5719819
0.31085339 0.97424889 2.5523393
-1.9053333 1.0154362 2.5526919
-1.8848165 1.0281512 2.5817025
0.28001302 1.0227904 2.5808568
0.30627924 1.0253235 2.556071
-1.900314 1.0888355 2.5521159
-1.8859372 1.0770383 2.5777814
0.27826247 1.0740486 2.5762839
0.30489826 1.0801647 2.5577552
-1.8840536 1.1274281 2.578896
0.27352792 1.1260535 2.5815082
0.30616039 1.1204865 2.5575166
-1.9001964 1.1736844 2.5534632
-1.8797214 1.1765116 2.5805297
0.28159991 1.1767104 2.5783906
0.30705768 1.1707122 2.556375
-1.8794582 1.2292922 2.573034
0.28214952 1.2261183 2.5817423
0.30635822 1.2255177 2.5567894
-1.9033024 1.2774262 2.5503316
-1.8808999 1.273423 2.5719728
0.28363994 1.2748873 2.5806489
0.30791926 1.2715101 2.555851
-1.9032409 1.3498386 2.5535617
-1.8813989 1.3214377 2.5771923
0.28067288 1.3232914 2.5841925
0.31359977 1.3278973 2.557765
-1.882583 1.3729129 2.5801876
0.28704831 1.3735974 2.5807579
0.31649348 1.3801857 2.5548203
-1.906984 1.4263062 2.5602968
-1.8831419 1.4324439 2.5855024
0.28108135 1.4184718 2.5872688
0.30613762 1.4220712 2.5613604
-1.9089073 1.4730053 2.5592685
-1.8818823 1.476474 2.5853817
0.28458035 1.4676614 2.5909302
0.31672141 1.4715276 2.5649474
-1.9063698 1.5237479 2.5573227
-1.8915205 1.5218395 2.5835135
0.29389516 1.5215315 2.5943189
0.32125092 1.524106 2.5703058
-1.9192642 1.5797396 2.5795407
0.29638633 1.5762763 2.5975521
0.32696494 1.5739449 2.5721061
-1.9519944 1.6499945 2.5602145
-1.9285789 1.6196375 2.5746658
0.29804993 1.6131711 2.599134
0.32698613 1.614424 2.5692141
0.36434048 1.624179 2.5519788
-1.9561665 1.6778574 2.5517931
-1.9337739 1.6767328 2.5806599
0.33506304 1.679094 2.5835767
0.36954758 1.6874427 2.5687611
-1.958982 1.7352109 2.5638411
-1.938781 1.724901 2.581892
0.34565264 1.732132 2.5914412
0.37124133 1.7234449 2.5658319
-1.9631402 1.7809814 2.560442
-1.933336 1.7675803 2.5878036
0.34667739 1.7587187 2.5878768
0.37250867 1.7713329 2.5748641
-1.9624819 1.8353049 2.5648267
-1.9366283 1.8194673 2.5878212
0.37664789 1.8264828 2.5805793
0.40531927 1.8369021 2.5510108
-1.9660356 1.8781652 2.5643229
-1.9408742 1.8711832 2.5937896
0.38237271 1.8771662 2.5865605
0.40793929 1.8704815 2.5548894
-1.9669712 1.922161 2.5680113
-1.9472647 1.9275175 2.5920143
0.38453373 1.9195517 2.582463
0.41200054 1.9256059 2.5584812
-1.9728243 1.9750354 2.5753961
-1.9476721 1.9871793 2.5982034
0.38306394 1.9689437 2.5868948
0.4097268 1.9864792 2.5683908
-1.9755841 2.0274799 2.5684021
-1.9438183 2.0175161 2.5927062
0.38404477 2.0215242 2.588654
0.4159646 2.0234494 2.5610201
-1.9715134 2.0801969 2.5749614
0.38635245 2.0636282 2.5846443
0.41434944 2.0611954 2.5634797
-1.9743547 2.126848 2.5710866
-1.9692054 2.1747591 2.5733116
-1.9732984 2.22719 2.5756924
-1.944644 2.2490721 2.5961914
-1.9709435 2.2763546 2.5749199
-1.9678433 2.3244846 2.5699477
-1.943561 2.3404291 2.5919602
-1.959898 2.3755553 2.5671954
-1.9354364 2.387872 2.5884826
-1.959599 2.4121845 2.5550172
-1.9249268 2.4223845 2.5719965
-1.8730551 2.4317303 2.5839684
-1.8298928 2.4385068 2.5724578
-1.7814276 2.4296389 2.5677652
-0.37278533 -0.50411153 2.6389647
-0.31131339 -0.50883043 2.6369889
-0.2721805 -0.51243293 2.6312318
-0.2371248 -0.5059095 2.6131079
-0.16079667 -0.50456154 2.6099319
-0.11979138 -0.51324803 2.6340094
-0.076955266 -0.50596935 2.6196988
-0.032626987 -0.51088721 2.6234529
0.0095889224 -0.50870913 2.6346464
-0.4039847 -0.49621502 2.617007
-0.2571353 -0.49524048 2.6239991
-0.23156258 -0.49486858 2.6235809
-0.028665381 -0.49775228 2.6455004
-1.6617023 -0.056036849 2.6112568
-1.644573 -0.056433588 2.6425409
-1.6667571 -0.027891662 2.6195009
-1.6462024 -0.028037259 2.6454575
-1.6665183 0.021652184 2.6191061
-1.648198 0.028878769 2.6486056
-1.6709993 0.077833176 2.6208034
-1.6482601 0.071597919 2.6480451
-1.8506258 0.14538848 2.6023002
-1.8277582 0.14585648 2.6270475
-1.7308506 0.12946071 2.6289704
-1.6773169 0.11390328 2.6196637
0.31834176 0.12612706 2.6274173
-1.8583194 0.17510356 2.6116598
-1.8332236 0.1754677 2.6334565
-1.8599253 0.22947606 2.6162748
-1.8333881 0.23041013 2.6427772
-1.8572141 0.27784497 2.617379
-1.8406655 0.27864319 2.6371453
-1.8638049 0.32433718 2.6162512
-1.837068 0.32320997 2.6425226
-1.870335 0.35193232 2.6144066
-1.8286572 0.37593007 2.6246724
-1.7954673 0.3881276 2.6479504
-1.8267611 0.42264795 2.620302
-1.8198135 0.47655737 2.6282222
-1.8236011 0.52893418 2.6259034
-1.8281564 0.57441199 2.625062
-1.8535781 0.64916885 2.6036189
-1.8297673 0.61978585 2.6233594
-1.8280604 0.67535347 2.6295485
-1.8507859 0.74241823 2.6098187
-1.8267118 0.72631496 2.6274312
-1.8545414 0.77367216 2.6080844
-1.8296922 0.7757405 2.6319292
-1.858272 0.81993681 2.6022112
-1.8339514 0.82237524 2.6270723
-1.8527598 0.88399816 2.6081712
-1.8354611 0.86863416 2.6279206
-1.8584946 0.9218275 2.6062288
-1.8363366 0.92167217 2.6319578
-1.8546848 0.96950746 2.6102583
-1.8358274 0.97336602 2.6280987
0.27721983 0.96536571 2.6073611
-1.8588384 1.0304738 2.6057065
-1.834879 1.025086 2.6257117
0.26163879 1.0291871 2.6119795
-1.8587713 1.0781217 2.6095219
-1.8352395 1.0727761 2.6344624
0.2418188 1.0931052 2.6201117
0.25357515 1.0735627 2.6077049
-1.8579221 1.132344 2.6109178
-1.833027 1.1277144 2.6312108
0.23322189 1.1306736 2.6210403
0.25383514 1.1076356 2.6007426
-1.8545872 1.1910973 2.6092672
-1.8372718 1.1726285 2.6334949
0.22721019 1.1755341 2.6262884
0.25603271 1.1771116 2.604681
-1.8587266 1.2245536 2.6031237
-1.8334775 1.2205255 2.6321752
0.2268277 1.2231202 2.6258855
0.25715581 1.2290401 2.6007526
-1.8535086 1.2700342 2.6111317
-1.8318307 1.2756203 2.6328366
0.22876678 1.2782634 2.6238229
0.25868872 1.2766905 2.6023474
-1.8600471 1.313352 2.6041267
-1.8337514 1.3245614 2.6261024
0.22818553 1.3285612 2.6286857
0.26073349 1.3409678 2.6032681
-1.8573905 1.3773056 2.6077297
-1.8281865 1.3788643 2.6293173
0.2344159 1.3724884 2.6267231
0.26175034 1.3734223 2.6030724
-1.8568456 1.421999 2.6048172
-1.8361626 1.4250969 2.630167
0.22864828 1.4244112 2.6390667
0.25594693 1.4247566 2.6129835
-1.8594797 1.4777632 2.6168368
-1.8376694 1.4774021 2.6386385
0.23426604 1.4710304 2.6373413
0.26205423 1.4755062 2.6218822
-1.8660827 1.52837 2.6139653
-1.8434448 1.5138935 2.6315193
0.24220999 1.5305897 2.6441767
0.26822057 1.5259711 2.6191208
-1.8728806 1.5704154 2.6178131
-1.8462908 1.5696983 2.6479998
0.2396612 1.5755883 2.638093
0.26849782 1.5744393 2.6227925
-1.9077067 1.616593 2.6044643
-1.8812609 1.6246388 2.6332374
0.24464406 1.6169096 2.6391032
0.27385393 1.611077 2.615432
0.31391332 1.6367989 2.6064904
-1.910565 1.6716423 2.6062651
-1.8874843 1.6725068 2.6305122
0.31289437 1.6897117 2.6218626
-1.9104812 1.7271304 2.6121185
-1.8900158 1.7212451 2.6326637
0.29242957 1.7259395 2.6456239
0.31913459 1.728748 2.6180401
-1.9084753 1.78148 2.6218889
-1.8870006 1.7722521 2.6457887
0.29328063 1.7526923 2.6423068
0.32185656 1.7796577 2.6215146
0.35018098 1.7909447 2.6063061
-1.9128455 1.8185865 2.6151025
-1.8961973 1.826494 2.6423671
0.2960794 1.8133167 2.6445036
0.32197937 1.825201 2.6217847
0.35179466 1.8209846 2.6064434
-1.9129874 1.8715427 2.6216431
-1.8890436 1.8692667 2.6457076
0.33163801 1.8777938 2.6219535
0.35482964 1.8733281 2.6083744
-1.9185499 1.9288585 2.6229417
-1.8989146 1.9043159 2.6437407
0.32627863 1.9286048 2.6302967
0.3575539 1.9246073 2.6069791
-1.9240923 1.9806414 2.6229978
0.32746428 1.9803995 2.6350646
0.35940203 1.9642043 2.6026413
-1.9236929 2.0250454 2.6246724
0.33483937 2.0249083 2.6277373
0.3633678 2.0234032 2.6080248
-1.9510965 2.0596747 2.6017499
-1.9244677 2.0765288 2.6285059
0.33062366 2.0755534 2.635401
0.35758108 2.0750308 2.6112792
-1.9568 2.1361303 2.6071408
-1.9268521 2.1231475 2.6248639
0.33354956 2.1168394 2.6436162
-1.9295963 2.170639 2.6210551
-1.9247661 2.2200322 2.6239188
-1.9281652 2.2774949 2.6291711
-1.9234562 2.3204317 2.6219795
-1.8992006 2.314364 2.6488407
-1.9143184 2.3742085 2.6169024
-1.8930175 2.3734488 2.6418574
-1.8758656 2.4162009 2.6211231
-1.8223625 2.4325564 2.6300113
-1.7697338 2.442703 2.62479
-1.7254072 2.4397833 2.629092
-1.6842172 2.4416113 2.6415
-1.7716365 2.452574 2.6077325
-0.35976079 -0.50560629 2.6714838
-0.33889341 -0.50346231 2.661819
-0.28703868 -0.50316542 2.6642451
-0.15154219 -0.51600742 2.6696389
-0.12926386 -0.50741404 2.6773732
-0.078057453 -0.50068074 2.6603894
-0.38121539 -0.4952572 2.6854849
-0.32718524 -0.49230474 2.6739583
-0.28151062 -0.49190328 2.6751869
-0.047903404 -0.49870202 2.6503713
0.18231073 -0.37591547 2.6780989
0.18411775 -0.32929626 2.6903007
-1.6244171 -0.056485735 2.6543245
-1.629504 -0.026117291 2.669414
-1.6309005 0.020214019 2.6756363
-1.6511816 0.071728706 2.6527674
-1.6306093 0.070200175 2.6753612
-1.803807 0.1462504 2.6501496
-1.7843924 0.14703505 2.6799457
-1.7049781 0.13019855 2.6623182
-1.6651217 0.11524051 2.6639066
-1.636675 0.1078351 2.6730514
-1.8075922 0.17929614 2.6658404
-1.7844912 0.17468838 2.6872468
-1.811285 0.22231826 2.6643014
-1.7853458 0.21821673 2.6894498
-1.8178676 0.27689809 2.6655893
-1.7882787 0.27633592 2.6905477
-1.812216 0.32667106 2.6710117
-1.7904258 0.31797054 2.6923876
-1.8096323 0.35826102 2.6625266
-1.7786244 0.3778114 2.680599
-1.802222 0.43364513 2.6525364
-1.7756799 0.42756689 2.6780274
-1.7724425 0.47218177 2.6772897
-1.7791654 0.52682531 2.6766396
-1.8004559 0.5920707 2.6559055
-1.7786014 0.57670367 2.6749518
-1.8047193 0.62312394 2.6567967
-1.7797934 0.62477458 2.6795633
-1.8079748 0.66883934 2.652956
-1.7835819 0.67080569 2.6767247
-1.8012906 0.7315374 2.6605608
-1.7876024 0.7204873 2.6807272
-1.8072233 0.77888542 2.6591327
-1.7811522 0.77568531 2.6849287
-1.8071232 0.82715625 2.6632147
-1.7812744 0.82909966 2.6856117
-1.8095207 0.87414235 2.6581535
-1.7842621 0.87735617 2.685209
-1.8109179 0.92313355 2.6600454
-1.7842033 0.92402714 2.6860864
-1.8107971 0.97249919 2.6620424
-1.7866979 0.97589296 2.6879261
-1.8154194 1.0184798 2.6589346
-1.7887901 1.0268966 2.6832871
-1.8116722 1.0731543 2.6655383
-1.7839004 1.0748581 2.6865833
0.24438259 1.0846272 2.6536894
-1.8124597 1.1181506 2.6602414
-1.7855921 1.1256139 2.6855257
0.23217842 1.1171095 2.6603346
-1.8091804 1.1734253 2.6610823
-1.7840748 1.1771996 2.6867638
0.18905966 1.1909387 2.6683381
0.20585524 1.1743258 2.653182
-1.8070912 1.2235492 2.6564229
-1.7840877 1.2296226 2.6808548
0.17522649 1.225732 2.6741343
-1.8079402 1.2740471 2.6596599
-1.7801936 1.2830912 2.6836126
0.14203109 1.2884835 2.6993206
0.17666703 1.2715629 2.6713943
0.20785783 1.2607338 2.6545939
-1.8106699 1.330449 2.6559384
-1.78575 1.3290441 2.6802957
0.17753474 1.324105 2.6737609
-1.8033457 1.3759181 2.66043
-1.7846285 1.3717856 2.6843119
0.14317386 1.3687119 2.6963844
0.17822681 1.3766618 2.6815207
0.21811739 1.3918326 2.6570361
-1.8130842 1.4310585 2.6687815
-1.7922311 1.4166597 2.6851547
0.18178894 1.4264989 2.6828954
0.21200563 1.4226513 2.6576946
-1.8144966 1.4795623 2.665621
-1.7943456 1.4795026 2.6928039
0.17565605 1.4702046 2.688993
0.20563045 1.4767351 2.6679747
-1.8223404 1.529374 2.6683881
0.18233608 1.5154988 2.6890063
0.2152071 1.5244107 2.6657157
-1.8195337 1.5662839 2.6788933
0.18589237 1.5729921 2.6901579
0.21653485 1.5716366 2.6656725
-1.8634259 1.616766 2.6557856
-1.8427818 1.6200089 2.6757145
0.18309571 1.6084292 2.6891541
0.21546626 1.6123247 2.6755702
-1.8646616 1.6763777 2.6671438
-1.8385904 1.6634973 2.6858034
0.23518333 1.6790869 2.6806412
0.27363986 1.6816275 2.6594064
-1.8657126 1.7226096 2.6644869
-1.8466669 1.7196155 2.6921043
0.23750488 1.7248503 2.6928327
0.26996636 1.720036 2.6642468
-1.8647457 1.7737249 2.6717117
-1.845867 1.7844123 2.6969955
0.23907414 1.7730186 2.6923184
0.27094528 1.7743677 2.6733406
-1.8690621 1.8270564 2.6678009
-1.8479853 1.8115181 2.6855366
0.24119687 1.8259186 2.6970022
0.27442458 1.8247565 2.6711192
-1.8682426 1.8803724 2.6767147
0.27528578 1.8739375 2.6712143
0.30732435 1.8813536 2.6538367
-1.8756994 1.9234776 2.6742487
0.24436945 1.9101148 2.6999259
0.27197486 1.9273798 2.6838958
0.30211952 1.9175382 2.6612115
-1.9040377 1.9776942 2.6523998
-1.8734361 1.9664937 2.6748703
0.24615358 1.9695493 2.6937211
0.27783701 1.9751759 2.677732
0.30379027 1.9656532 2.6540887
-1.9034408 2.0465276 2.6519327
-1.8828005 2.0170453 2.6750209
0.27806824 2.0246134 2.6817482
0.30642682 2.0205927 2.654211
-1.8853408 2.0724561 2.6749847
0.27993798 2.0713444 2.6789837
0.30857188 2.0652461 2.6537287
-1.9044405 2.1183619 2.6524894
-1.884761 2.1255236 2.677681
0.28214523 2.12396 2.6772079
0.31166899 2.1168103 2.6605182
-1.9055761 2.1917322 2.6520004
-1.8818829 2.1711051 2.6738636
0.25378621 2.155709 2.6999485
-1.879783 2.2250092 2.6770492
-1.9082903 2.2684078 2.6524487
-1.8865499 2.2831104 2.6691599
-1.8776283 2.331012 2.6824198
-1.8661243 2.3779972 2.6727364
-1.8485782 2.3763194 2.6949821
-1.8660049 2.411649 2.6553319
-1.8279462 2.4157851 2.6776459
-1.7787257 2.429882 2.6724675
-1.7328087 2.4348307 2.671881
-1.6771216 2.4393277 2.6823478
-1.6334848 2.4450297 2.6741967
-1.5720055 2.4320598 2.6877434
-1.6668161 2.4550228 2.6707215
-1.6104445 2.4503539 2.6941438
-0.36340943 -0.49763799 2.7001889
-1.6224689 -0.057439335 2.7115097
-1.6238482 -0.03147196 2.7171714
-1.6260868 0.0222195 2.7332275
-1.6267509 0.076591827 2.7258933
-1.7608756 0.14750093 2.7036788
-1.737882 0.14803177 2.7282221
-1.6751336 0.13179451 2.7198622
-1.631199 0.10937703 2.7248201
-1.7585176 0.17741726 2.7136462
-1.7369829 0.17821264 2.7406118
-1.7653216 0.22423621 2.7150023
-1.738977 0.22291708 2.7412424
-1.7651825 0.27432859 2.7176917
-1.7414055 0.27027646 2.7417946
-1.7672738 0.33027714 2.721189
-1.7410812 0.32412574 2.7445021
-1.757517 0.37045145 2.7121184
-1.7306709 0.37804794 2.7264113
-1.7531127 0.41384518 2.7003682
-1.7266598 0.42736083 2.7301486
-1.7299694 0.4761337 2.7286112
-1.7606505 0.50460017 2.7002082
-1.7312223 0.51975298 2.7244406
-1.7517185 0.57326549 2.7063646
-1.7319599 0.57558531 2.730722
-1.7572007 0.62729973 2.7058008
-1.7340761 0.62727326 2.7348881
-1.7579128 0.6700272 2.7068281
-1.7367595 0.67832351 2.7306263
-1.7597696 0.72096699 2.7075093
-1.7355477 0.72337145 2.7317131
-1.757931 0.77600896 2.7086062
-1.7423992 0.77158505 2.7327802
-1.7574329 0.8320604 2.7109585
-1.7397487 0.81322145 2.7353029
-1.7616962 0.88030893 2.709229
-1.7396326 0.87229502 2.7349856
-1.7582096 0.93344814 2.7159295
-1.7371564 0.91944498 2.7377739
-1.763165 0.97973961 2.7146676
-1.7396854 0.97980273 2.7391963
-1.7642037 1.0292364 2.7131269
-1.7413107 1.0193905 2.7374108
-1.7595555 1.0787188 2.7126665
-1.7443769 1.0758879 2.7394283
-1.7634567 1.1299129 2.7113566
-1.7416451 1.1218935 2.7410321
-1.7597892 1.1702509 2.7212205
-1.7393804 1.1745691 2.7425208
-1.7638028 1.2134659 2.7129281
-1.7353119 1.221943 2.7352219
0.12676199 1.2332238 2.7224436
0.16215506 1.2074022 2.7124815
-1.7584851 1.2716691 2.7106709
-1.7334014 1.2695551 2.7351744
0.087949015 1.2941285 2.7470701
0.1199898 1.2731029 2.7232707
0.15613878 1.2905977 2.7032042
-1.7559286 1.3275826 2.7155399
-1.7375348 1.3226423 2.7340827
0.08806923 1.3099909 2.7460775
0.1226254 1.3247148 2.7246161
-1.7645546 1.3762999 2.7171726
-1.7436273 1.3750101 2.7395868
0.12530394 1.3752389 2.7305167
0.15727378 1.3559154 2.7032464
-1.765353 1.4240236 2.7213161
-1.7399876 1.4175283 2.7438116
0.12843527 1.4223133 2.7293835
0.15818042 1.4129686 2.7005954
-1.8035564 1.4564757 2.7011435
-1.7696133 1.4753346 2.7196608
-1.7466855 1.4704282 2.7435391
0.12874818 1.4717935 2.7361619
0.16015801 1.4875939 2.712101
-1.8007891 1.531743 2.7000813
-1.7770852 1.5259172 2.7258148
0.13723862 1.5258399 2.7345843
0.16558345 1.5294269 2.7082493
-1.7812533 1.5671144 2.7257946
0.13603762 1.570372 2.7367451
0.16756251 1.5735164 2.7104733
-1.8199828 1.6232727 2.7242868
-1.7929344 1.649587 2.7492511
0.14131327 1.6089623 2.7226923
0.16409327 1.6190066 2.7387824
-1.8165214 1.6733196 2.7207825
-1.7973945 1.678504 2.7432742
-1.5606716 1.6945659 2.7477868
-1.5207267 1.6830616 2.7427933
-1.4992507 1.6799384 2.7462876
0.1849878 1.6857971 2.7350979
0.20718323 1.6720871 2.701441
-1.8244067 1.7253628 2.7176952
-1.7920835 1.7061205 2.7393317
-1.5645199 1.7311049 2.7376111
-1.5207996 1.7209101 2.7309906
0.19028077 1.7296932 2.7398584
0.21580119 1.7266309 2.7213359
-1.8208461 1.7759645 2.7272835
-1.797383 1.7524848 2.7468328
-1.5591917 1.7758416 2.7470362
-1.521342 1.7818179 2.7461538
-1.4966394 1.7596749 2.74473
0.18870418 1.7783209 2.7427917
0.21970947 1.7727261 2.7141528
-1.8253446 1.8222188 2.721173
-1.5711752 1.8277599 2.7469244
-1.5248553 1.806242 2.7412596
0.19287261 1.8284105 2.7398901
0.21838899 1.8219017 2.7165496
-1.8518322 1.8740309 2.7005939
-1.8262514 1.8729109 2.7231445
0.18981802 1.8656473 2.7389839
0.22559607 1.8806601 2.7186019
-1.8532565 1.9438771 2.706157
-1.8297223 1.9288276 2.727175
0.22035687 1.9259604 2.7240393
-1.8326368 1.9786148 2.7241931
0.18785602 1.9631002 2.7483661
0.22418189 1.9720881 2.721837
-1.8601536 2.0296936 2.7129254
-1.8348688 2.0270777 2.736135
0.22551501 2.0281465 2.7242084
-1.8591765 2.0728204 2.7063217
-1.834924 2.076962 2.7327838
0.22125393 2.0785763 2.7277453
0.25078911 2.0761836 2.7025681
-1.8596964 2.1275194 2.71122
-1.8307918 2.1204491 2.7338328
0.22309941 2.1271892 2.7308359
0.25847501 2.130657 2.7076919
-1.8574505 2.1705594 2.7095909
-1.836385 2.1768062 2.7331564
0.22156949 2.1707051 2.7332127
-1.8599604 2.2386558 2.718143
-1.8407457 2.2280581 2.7329795
-1.8589869 2.2750111 2.7155588
-1.8392055 2.2836213 2.7418284
-1.8574833 2.3109858 2.7119057
-1.8324178 2.3308568 2.7336757
-1.8267207 2.3740187 2.7255156
-1.8090959 2.411602 2.717447
-1.7681776 2.4203873 2.7265716
-1.7223985 2.4343853 2.7216294
-1.6823727 2.442008 2.7241802
-1.6282909 2.437079 2.7255731
-1.5712509 2.4380553 2.7264125
-1.5252357 2.4416885 2.725069
-1.4770901 2.4207883 2.7187786
0.073118076 -0.46390814 2.7854478
0.070417546 -0.42222431 2.7890227
0.077073947 -0.37502024 2.7910974
0.076960601 -0.32765326 2.7907588
-1.7108896 0.14887144 2.7617743
-1.6730555 0.14139943 2.7778339
-1.7136835 0.17886071 2.7648985
-1.6926196 0.18259466 2.7896478
-1.712052 0.22585434 2.7712977
-1.6910734 0.21476233 2.7937651
-1.7150383 0.27713978 2.7716641
-1.6896808 0.27016342 2.7983294
-1.7173101 0.32969087 2.7758195
-1.711373 0.3673057 2.7624981
-1.6854872 0.37841147 2.7817845
-1.7093952 0.41011211 2.7546294
-1.6805817 0.42338392 2.7799637
-1.704215 0.47883612 2.7613182
-1.6750653 0.47503614 2.78789
-1.7077637 0.52852756 2.760222
-1.6802566 0.52671838 2.7867277
-1.7092893 0.56649029 2.7569747
-1.6812022 0.57214308 2.781497
-1.7090578 0.62965143 2.7605414
-1.6857975 0.6190027 2.7816846
-1.7090906 0.67961091 2.7612264
-1.6855654 0.67472124 2.787822
-1.7135159 0.72678727 2.7593966
-1.6829039 0.7309677 2.7848048
-1.7150161 0.77733004 2.7636893
-1.6870359 0.77131391 2.7878051
-1.7176968 0.82603413 2.76561
-1.688804 0.8300072 2.7914667
-1.7150842 0.87146467 2.7628546
-1.6922015 0.87543041 2.7901218
-1.7131975 0.92336893 2.7677014
-1.6912099 0.92513782 2.7931736
-1.716547 0.96859324 2.7669747
-1.6922944 0.97421479 2.7908237
-1.7166666 1.0232172 2.766609
-1.6912277 1.020131 2.7883911
-1.719093 1.071671 2.7664931
-1.6934156 1.0750574 2.7904365
-1.7178074 1.1224612 2.7660027
-1.6920753 1.1260699 2.7901952
-1.7144059 1.1716254 2.7661827
-1.6837248 1.1801016 2.7899475
-1.713713 1.2221854 2.7647996
-1.6898713 1.2296709 2.7882245
0.074113667 1.2350489 2.7773693
0.10153903 1.2320869 2.7521663
-1.7091886 1.2796212 2.7690117
-1.685075 1.2822783 2.7884636
0.042738497 1.263108 2.7952776
0.074197643 1.2748945 2.7689226
-1.7177842 1.3292882 2.7625346
-1.6867718 1.3227893 2.7899566
0.046589077 1.3248222 2.7953491
0.07001996 1.3288696 2.7744186
-1.714232 1.372534 2.766439
-1.6917483 1.3765339 2.7943318
0.04676047 1.3584795 2.7958224
0.076506659 1.3758199 2.7724075
0.10319433 1.380311 2.7537801
-1.7198559 1.424837 2.7770767
0.047004048 1.4161754 2.7924354
0.073799238 1.4273767 2.7760615
0.10396235 1.4407828 2.7557664
-1.7195575 1.4703763 2.7752435
0.077898361 1.4765056 2.7788916
0.10459062 1.4855653 2.7585211
-1.7309122 1.5248077 2.7729726
0.078589492 1.521775 2.7794192
0.11069697 1.5163109 2.7566319
-1.7642386 1.580916 2.7676082
-1.731648 1.5624498 2.7799828
0.084649332 1.5821712 2.7884886
0.11075316 1.5770773 2.7628052
-1.7736033 1.6222392 2.7662344
-1.7489424 1.6299013 2.7969832
0.077533729 1.6098237 2.7889569
0.11736594 1.6103678 2.7650447
-1.7685285 1.6742103 2.7722211
-1.6541088 1.6918967 2.7816248
-1.6219383 1.6780616 2.7742004
-1.5762229 1.6783125 2.7694159
-1.525376 1.6642647 2.7707069
-1.4913061 1.6890435 2.7683864
0.1301671 1.6811765 2.7817469
0.15869303 1.6828761 2.7522075
-1.7714314 1.7293204 2.7711487
-1.7466154 1.7100019 2.795099
-1.6238437 1.7269636 2.7629037
-1.5888155 1.7156117 2.7567339
-1.5102324 1.7267733 2.7952483
-1.4983494 1.7374271 2.7606936
0.13121669 1.7245288 2.7899311
0.15987381 1.7252861 2.758873
-1.7761644 1.7741582 2.7726095
-1.6514482 1.7723712 2.7785077
-1.6161665 1.7759625 2.7693677
-1.5905274 1.7927904 2.7654376
-1.5218911 1.7798831 2.7724235
-1.4951901 1.7934307 2.7705569
0.13336968 1.7752473 2.7835374
0.16107833 1.7756802 2.7615097
-1.8022262 1.8412426 2.7515182
-1.7731081 1.8214717 2.7762485
-1.6302762 1.8261724 2.7697697
-1.5874348 1.8315916 2.76003
-1.5195864 1.8358397 2.7598126
-1.4954267 1.8100255 2.7621038
0.13308397 1.8250481 2.7926707
0.16394095 1.8254833 2.7674041
-1.7754861 1.8729122 2.7737813
-1.6606174 1.8675674 2.7933793
-1.6243315 1.8715889 2.7773921
-1.5717965 1.8754143 2.7692039
-1.5267348 1.873185 2.7728109
0.13631366 1.8702742 2.7890129
0.16338488 1.8695867 2.7663631
-1.8059363 1.9308381 2.7523537
-1.7824088 1.9246043 2.7752044
-1.5632633 1.9018536 2.7820232
0.14273424 1.928906 2.7929478
0.17226022 1.9220786 2.7664852
-1.8076184 1.9676337 2.7570295
-1.7832577 1.9712359 2.7820544
0.13879056 1.9874326 2.7949877
0.1709374 1.977412 2.7753775
-1.8132578 2.0265014 2.7563412
-1.7908016 2.0217762 2.7821016
0.13707542 2.0287416 2.7964578
0.1748998 2.0215862 2.7695997
-1.8070512 2.0738852 2.7607062
-1.7889585 2.0740001 2.7856929
0.14530852 2.0580153 2.7902989
0.17608418 2.0693576 2.7685401
-1.8116306 2.1394579 2.760988
-1.7928411 2.1145847 2.7849038
0.14728296 2.1338108 2.7994852
0.17756702 2.1184487 2.7727253
-1.8141155 2.1858919 2.769285
-1.7899566 2.1675014 2.7940407
0.14780281 2.1573439 2.7994702
0.17686512 2.171016 2.7762239
-1.8141558 2.2245684 2.7641423
-1.7922331 2.2304463 2.7867451
0.17989385 2.2075946 2.7701263
-1.8107715 2.272625 2.7615573
-1.7872732 2.2678943 2.7884455
-1.8144958 2.3202136 2.7631025
-1.7901332 2.3190789 2.7859542
-1.8045877 2.3713613 2.7555914
-1.7764689 2.3752232 2.7776694
-1.7637726 2.41166 2.7716315
-1.7276721 2.4228477 2.7739377
-1.6749352 2.4302485 2.7721207
-1.6162144 2.4368863 2.7820485
-1.5715939 2.4371157 2.774641
-1.5254924 2.4370952 2.7734334
-1.4753507 2.4438288 2.7911065
-1.424202 2.434124 2.7775593
-1.3709055 2.4344518 2.7861879
-1.3348827 2.4330597 2.7995973
-1.4707803 2.4540739 2.768764
-0.010210261 -0.46549088 2.8458283
0.021514349 -0.46681526 2.825738
0.057381153 -0.4585228 2.8028603
0.028475234 -0.42608511 2.8255332
0.023760034 -0.37348613 2.8313732
0.057246327 -0.37672043 2.8040493
0.023731029 -0.32542679 2.8307104
0.05718521 -0.32927287 2.8048639
0.023855014 -0.29927093 2.8418334
0.057836387 -0.29903314 2.8392665
-1.6565828 -0.059452817 2.8159313
-1.6410162 -0.059715033 2.8375578
-1.5639887 -0.073610924 2.8152473
-1.5349599 -0.073650032 2.828124
-1.6579696 -0.033391338 2.8265915
-1.6471667 -0.022140151 2.83232
-1.6572015 0.021357182 2.8237114
-1.6487976 0.025411248 2.8350246
-1.6571509 0.075356856 2.824508
-1.6460233 0.08061821 2.8402531
-1.6575772 0.12471227 2.8250492
-1.66511 0.17441295 2.8239982
-1.6400046 0.17631172 2.8482113
-1.6677334 0.22737882 2.8218455
-1.6417507 0.22683859 2.8485861
-1.6692598 0.27121899 2.8215172
-1.6430092 0.26478219 2.8483315
-1.6764637 0.32442233 2.8197975
-1.6459333 0.32328638 2.8488586
-1.6639383 0.36998925 2.8103905
-1.6317626 0.38202062 2.8268602
-1.6297131 0.42196235 2.8272226
-1.6517948 0.46698701 2.8111229
-1.6311141 0.47721413 2.8230073
-1.6534137 0.52772802 2.8057697
-1.6301123 0.52994174 2.8308475
-1.6577277 0.57442254 2.8063314
-1.6312395 0.57831979 2.8324239
-1.6599827 0.625808 2.8102493
-1.6352799 0.6215148 2.8302021
-1.6622247 0.66992766 2.8148251
-1.6348969 0.6711843 2.8336694
-1.6624827 0.71933389 2.8115809
-1.6346705 0.72125912 2.8368077
-1.6639892 0.7836681 2.8167424
-1.6336305 0.76551288 2.8403244
-1.6651827 0.82735169 2.8148284
-1.6393846 0.82653207 2.8428133
-1.6673218 0.87847161 2.8141766
-1.6411034 0.88091832 2.8359947
-1.6661518 0.9283424 2.8172469
-1.6413494 0.93179113 2.8418045
-1.6688977 0.97747928 2.8137815
-1.6437349 0.98600614 2.8411961
-1.667112 1.0307751 2.8168411
-1.6421623 1.0281852 2.8393993
-1.6686944 1.0792048 2.8159997
-1.6431355 1.0750698 2.8425188
-1.6665791 1.1299585 2.814729
-1.6424917 1.1252853 2.8384876
-1.6634239 1.1772194 2.8120697
-1.6425934 1.1693928 2.8405058
-1.6631339 1.2216829 2.8191922
-1.6410897 1.2215149 2.8393772
0.032221507 1.2448983 2.818435
-1.6625079 1.270376 2.8162091
-1.6421574 1.2721438 2.8433871
-0.010815352 1.2825687 2.8477836
0.016193386 1.2761761 2.8244216
-1.6627501 1.3245338 2.8161709
-1.6390957 1.3330905 2.8406601
-0.010882021 1.3413752 2.8483796
0.021203225 1.3179635 2.8182781
-1.6677924 1.3766886 2.8203068
-0.010900024 1.372735 2.8429351
0.021067578 1.3726135 2.8251178
-1.7081852 1.4383626 2.8016064
-1.6727519 1.4277254 2.8290329
-1.6484895 1.426415 2.8479698
0.023546403 1.4229239 2.8244922
-1.7000434 1.4938798 2.8020198
-1.6835531 1.4693168 2.8201258
0.030087223 1.4792346 2.8238883
-1.7058653 1.5152906 2.8044021
-1.6839631 1.5251608 2.8330729
0.02910441 1.5303653 2.8334634
-1.7143883 1.5715612 2.8102148
-1.6791159 1.5663424 2.8309014
0.037749838 1.5753931 2.8305314
0.065786436 1.5724345 2.8070998
-1.7659273 1.6054902 2.8010504
-1.728637 1.6238122 2.82217
-1.6884776 1.6025862 2.833971
0.040974721 1.6093798 2.8209457
-1.7260246 1.6715704 2.8212044
-1.6778077 1.6744189 2.8310456
-1.6196659 1.665792 2.8294377
-1.5835967 1.6671886 2.823406
-1.5340354 1.6690216 2.811621
0.049202811 1.6793205 2.8442953
0.075535074 1.6883383 2.8348944
0.10872664 1.6868601 2.8076639
-1.7223692 1.7274808 2.8174295
-1.6849349 1.7148538 2.8152289
0.081472322 1.7263535 2.829859
0.10921936 1.7246581 2.8066368
-1.7289801 1.7761869 2.8117211
-1.6940941 1.7748797 2.8269696
0.080220222 1.7751513 2.8361413
0.11004863 1.7757635 2.8100255
-1.7237334 1.8221112 2.8211606
-1.6814415 1.8298864 2.8151402
0.085794888 1.8237864 2.8337519
0.11074241 1.8251503 2.8091235
-1.7537084 1.8869998 2.8044305
-1.731276 1.8700504 2.8189917
-1.6950439 1.8701787 2.8237095
0.083849013 1.8757819 2.8350229
0.11752909 1.8743922 2.8059974
-1.7560835 1.933198 2.8064647
-1.727523 1.9217691 2.8283942
-1.6807697 1.9255929 2.8312447
-1.6354653 1.9111145 2.805418
0.09356951 1.929804 2.8346438
0.12010405 1.9295877 2.8102291
-1.7581718 1.9795624 2.8074236
-1.7252243 1.9727316 2.8335822
0.098069288 1.9768701 2.8328433
0.12096035 1.9746197 2.8133929
-1.7647444 2.0316679 2.8149879
-1.7302881 2.0289237 2.8412573
0.093589671 2.0140238 2.8442957
0.12457696 2.0253868 2.8178606
-1.7648482 2.0769553 2.8116536
-1.7401123 2.0699692 2.8339353
0.095601417 2.071465 2.8411708
0.12752478 2.0724072 2.8166454
-1.7635419 2.1291249 2.8156145
-1.7494676 2.1270831 2.8455422
0.12186534 2.1227756 2.8243642
-1.7656862 2.1805477 2.8230948
-1.7438216 2.1865489 2.8453865
0.12139355 2.1756537 2.8242285
-1.7655385 2.2272272 2.817596
-1.7494397 2.2204592 2.8363628
0.12207592 2.2180505 2.8211215
0.15001792 2.238405 2.8103843
-1.7685905 2.2784364 2.8164639
-1.7403835 2.278219 2.8421097
0.1186284 2.2582111 2.8365262
-1.7601209 2.3270493 2.815717
-1.7323664 2.3373601 2.840421
-1.7549531 2.3594284 2.8070195
-1.728308 2.3785968 2.8264909
-1.7217715 2.4109316 2.8111119
-1.6783061 2.4230285 2.8318646
-1.6300244 2.4304423 2.8266129
-1.5783366 2.4343636 2.8276825
-1.5264221 2.4327388 2.8301938
-1.4760357 2.441927 2.8272848
-1.3813369 2.4307525 2.8243058
-1.325616 2.4351149 2.8346386
-1.2807614 2.430711 2.818363
-1.2374728 2.4320359 2.8369985
-1.151625 2.4181883 2.8495963
-0.056388926 -0.46094131 2.8749845
-0.021272926 -0.46180883 2.8575342
-0.058847591 -0.41581228 2.8860333
-0.025461897 -0.4243156 2.868032
0.0034842605 -0.43146592 2.8506637
-0.057470582 -0.37698343 2.8895552
-0.022782715 -0.37616703 2.8661473
-0.051955208 -0.33284637 2.8950949
-0.022789061 -0.3250668 2.8715758
0.023965307 -0.30081183 2.8564234
0.071926318 -0.30110699 2.8587573
-1.6172029 -0.060245361 2.8777912
-1.5651672 -0.060013305 2.8840253
-1.6250838 -0.029950252 2.8755167
-1.6248206 0.023075433 2.875046
-1.6220168 0.074700162 2.8739221
-1.6239554 0.12150151 2.871624
-1.6200299 0.17406522 2.8740768
-1.6200031 0.22800939 2.8763175
-1.5948737 0.22112837 2.8986826
-1.6233387 0.2751047 2.8725162
-1.5973505 0.2748467 2.8997962
-1.6262352 0.32363948 2.8714402
-1.5982859 0.3055273 2.8992236
-1.6124096 0.36266762 2.8691363
-1.5877858 0.38251933 2.8829153
-1.6020411 0.42457381 2.8608696
-1.5810964 0.42848086 2.8859293
-1.6110719 0.46778408 2.8637776
-1.5849869 0.47532663 2.8876843
-1.6084775 0.52514607 2.8600683
-1.5862236 0.52277243 2.8847456
-1.6072999 0.57982719 2.8614435
-1.5872755 0.57730269 2.8863139
-1.6081101 0.62933248 2.8573563
-1.5872544 0.62722975 2.884609
-1.6105427 0.67373496 2.8576641
-1.5869813 0.67672211 2.8832419
-1.6105213 0.71752161 2.8582921
-1.5909446 0.72465795 2.8819964
-1.6074632 0.77143639 2.8684235
-1.5902852 0.77431661 2.8889048
-1.6136039 0.81914192 2.862273
-1.5866222 0.82286644 2.8898296
-1.6153731 0.86822844 2.8622777
-1.5907289 0.87169784 2.8869221
-1.6174999 0.9235732 2.8631208
-1.5923811 0.91768622 2.888514
-1.6180118 0.97055656 2.8648829
-1.595437 0.97266215 2.8900545
-1.614274 1.0224624 2.8716071
-1.5921143 1.0243312 2.8949852
-1.6185788 1.0717509 2.870821
-1.5942268 1.0765425 2.8973515
-1.6183481 1.1197181 2.8669798
-1.5987062 1.1271838 2.8914564
-1.6162639 1.1760722 2.872745
-1.5946798 1.1995765 2.8999569
-1.6203147 1.2283174 2.868614
-1.5967864 1.2331904 2.8932669
-0.054869253 1.245134 2.8940616
-0.040231176 1.2453821 2.8948071
0.018182142 1.2466813 2.8598595
-1.6139296 1.2805828 2.8672996
-1.596054 1.2742587 2.8911698
-0.055008072 1.2776283 2.8923349
-0.027074231 1.269056 2.8689468
-1.6164494 1.3253484 2.8695312
-1.5921423 1.3146403 2.8958962
-0.055207644 1.3191171 2.8911157
-0.02770412 1.3231291 2.8711531
-1.6225888 1.3764524 2.8753769
-0.030045604 1.3764217 2.8810391
-1.6257107 1.4209237 2.880259
-0.027809378 1.4261841 2.8772278
-1.6625228 1.4794334 2.8553104
-1.6340618 1.475069 2.88133
-0.056012437 1.4504477 2.8948336
-0.026071349 1.4766152 2.8767843
0.0037501343 1.4733369 2.8533969
-1.6563621 1.5218225 2.8558395
-1.6316572 1.5267266 2.8829429
-0.021238277 1.5259037 2.8797998
0.011221951 1.5279948 2.8555384
-1.6640216 1.5913626 2.8809919
-1.6377087 1.5763096 2.8889911
-0.020386994 1.5758775 2.8867123
0.0088059092 1.5754943 2.8592007
-1.6753628 1.6270072 2.8685608
-1.6433109 1.63158 2.8910859
-0.01640225 1.6135963 2.8834283
0.0088247331 1.6088539 2.8639138
-1.6706896 1.6613802 2.8649178
-1.6197715 1.6579963 2.8785448
-1.5673709 1.6717393 2.8750305
-1.5409845 1.6954327 2.8851652
0.011526147 1.6860311 2.8886313
0.028986437 1.7239426 2.8811529
0.027109377 1.7721903 2.8855171
0.050205059 1.7831302 2.8707185
0.028846228 1.8195426 2.8873532
0.058078498 1.8235335 2.8628793
0.035328239 1.8746133 2.8867679
0.055947151 1.8683711 2.8716457
0.031598259 1.9217991 2.8867877
0.061550532 1.9248686 2.867213
-1.6782366 1.9784908 2.8686454
-1.6290613 1.960997 2.8602607
0.035874501 1.9834511 2.890574
0.067220576 1.974925 2.8671865
-1.7122078 2.0329311 2.8668313
-1.688899 2.019748 2.8800168
0.036144413 2.0225024 2.8994143
0.064504132 2.0198414 2.869858
-1.7119905 2.069582 2.8694236
-1.6915896 2.0769155 2.8931041
0.065588072 2.069741 2.8759623
-1.7248188 2.1206157 2.8684814
-1.69399 2.1264062 2.8946345
0.068827905 2.1243105 2.8772936
-1.7190903 2.1713054 2.8747752
-1.6952229 2.1659956 2.8993237
0.069237389 2.1704986 2.8762057
-1.7191167 2.2185509 2.8705244
0.06734281 2.2194734 2.8736038
-1.7180995 2.2649868 2.8639693
-1.6986589 2.2751477 2.8909516
0.070291094 2.2753568 2.8751285
0.10287096 2.2714832 2.8537216
-1.7137674 2.3196268 2.871098
-1.6887813 2.3227568 2.8890982
-1.7085965 2.3614442 2.8563211
-1.6838081 2.3796787 2.8769069
-1.667397 2.4116361 2.8652458
-1.62571 2.4222755 2.8817356
-1.5705075 2.4337754 2.8780248
-1.5289849 2.4357681 2.883651
-1.4751573 2.4359975 2.8745506
-1.4248501 2.4373469 2.8632905
-1.3730404 2.4297419 2.8783917
-1.3192551 2.4339485 2.8831241
-1.2753628 2.4318242 2.8689687
-1.2160194 2.4384949 2.8760724
-1.1750982 2.4308827 2.8828945
-1.1224197 2.4308431 2.8765671
-0.17882721 -0.49099723 2.9109049
-0.11646812 -0.45891094 2.9356103
-0.094390184 -0.4616982 2.9086576
-0.15133938 -0.42245421 2.9301958
-0.1185303 -0.42493746 2.9319363
-0.08182463 -0.43093395 2.9122276
-0.10944273 -0.38146019 2.9447098
-0.085269369 -0.37072372 2.9232867
-0.075249836 -0.32899022 2.922775
-0.038232688 -0.3063038 2.9085233
-0.073746048 -0.15460086 2.9437416
-0.10882922 -0.11236437 2.9426239
-0.073240153 -0.12552328 2.9221861
-0.038205918 -0.12516308 2.9151087
-1.573595 -0.06063408 2.9166286
-1.5436183 -0.060969848 2.9468293
-0.1089036 -0.098381385 2.9449542
-0.084196031 -0.094724074 2.9413857
-1.5784253 -0.030235631 2.9259145
-1.5783297 0.023258686 2.9257119
-1.578187 0.076764084 2.9247553
-1.5792418 0.12270451 2.9255283
-1.5777856 0.17607634 2.9207735
-1.5753844 0.23141536 2.9237926
-1.5482265 0.24620628 2.9483888
-1.5777515 0.27578023 2.9196875
-1.5486631 0.26933801 2.9477289
-1.601036 0.33662549 2.9016969
-1.5789044 0.32243875 2.9239821
-1.5669196 0.37260076 2.9155703
-1.5403534 0.38447455 2.9400542
-1.5605881 0.42494544 2.9129083
-1.5422491 0.43111596 2.9389737
-1.5615265 0.47114426 2.90943
-1.5428491 0.47745803 2.9348593
-1.5578582 0.52608043 2.918432
-1.5420531 0.52082717 2.9368372
-1.5609313 0.56741643 2.9145205
-1.5358003 0.5754472 2.9405847
-1.5635759 0.62209272 2.9164026
-1.5403229 0.62366056 2.9422314
-1.5623822 0.67524564 2.9168868
-1.5425028 0.67387623 2.9419708
-1.5635952 0.72986007 2.9185345
-1.5401306 0.71783787 2.9480512
-1.567786 0.77850181 2.9172888
-1.5437044 0.77422631 2.9445462
-1.561932 0.82621288 2.9143488
-1.5439324 0.83511513 2.9419899
-1.5666203 0.87559128 2.9127486
-1.5450094 0.88332784 2.9393036
-1.5655425 0.92647529 2.9175048
-1.5405837 0.93033695 2.9423141
-1.5707328 0.97680825 2.9154501
-1.5466453 0.98148483 2.9422238
-1.565768 1.0274982 2.9229016
-1.56879 1.0808177 2.9221611
-1.5419526 1.0683293 2.9488511
-1.5745713 1.126466 2.9151199
-1.5471941 1.1199363 2.9452703
-1.5720503 1.1718136 2.9216838
-1.5488394 1.1531523 2.9389272
-1.5743028 1.2221104 2.9225068
-1.5443252 1.2263483 2.9473255
-0.069725804 1.2489039 2.9026012
-1.5721601 1.2755889 2.9220223
-0.10443549 1.283875 2.9439173
-0.079325907 1.2788123 2.9251649
-1.5766637 1.3297355 2.9248276
-0.10612892 1.3194979 2.9474013
-0.078080513 1.3245181 2.9211864
-1.5728503 1.3700087 2.9229512
-1.5479558 1.3811038 2.9441912
-0.071073353 1.3768739 2.9230628
-1.6048616 1.4454527 2.9158018
-1.5826074 1.4191284 2.9203846
-0.069222875 1.4232882 2.9211409
-1.610086 1.4748899 2.9153607
-1.5866983 1.4726843 2.9343224
-0.074548617 1.4717907 2.9370835
-1.6106402 1.5285865 2.9161391
-1.5923909 1.5226309 2.9332528
-0.064656943 1.5224265 2.9302442
-0.041579574 1.5443667 2.9030335
-1.6205398 1.5754906 2.9179292
-1.5878308 1.5593628 2.9409759
-0.063479111 1.5737236 2.9301
-0.041818693 1.583685 2.9076622
-1.6196619 1.6198463 2.9186873
-0.073184885 1.6111197 2.9403682
-0.041970376 1.6199604 2.9058106
-1.6120378 1.6506792 2.9329789
-1.5858477 1.6633011 2.9128659
-0.058369234 1.6827828 2.9494126
-0.019285234 1.6845696 2.9192486
-1.5608045 1.7003999 2.9303129
-0.025299665 1.724775 2.9297476
-0.027433896 1.7751821 2.9340599
0.003936633 1.7752403 2.9067829
-0.019682242 1.8219192 2.9334691
0.0039721327 1.8311868 2.9156713
-0.015824391 1.8685267 2.9339263
0.013438652 1.873696 2.9079719
-0.011969469 1.9303322 2.9400554
0.0079941787 1.9303083 2.9157045
-0.01204071 1.9738621 2.9407148
0.014684737 1.9725019 2.9118729
-1.6615919 2.0365736 2.9131663
-1.6267128 2.0293322 2.9280028
