ply
format ascii 1.0
comment PCL generated
element vertex 1499
property float x
property float y
property float z
element camera 0
property float view_px
property float view_py
property float view_pz
property float x_axisx
property float x_axisy
property float x_axisz
property float y_axisx
property float y_axisy
property float y_axisz
property float z_axisx
property float z_axisy
property float z_axisz
property float focal
property float scalex
property float scaley
property float centerx
property float centery
property int viewportx
property int viewporty
property float k1
property float k2
end_header
-0.17870173 -0.028824778 3.0207567
-1.5111725 0.023614509 3.0091228
-1.4801015 0.023609027 3.0201523
-0.21484628 0.029183736 3.0491695
-0.18411112 0.021705694 3.0234337
-0.13972573 3.9887364e-05 3.0032704
-1.5099037 0.07490208 3.0096254
-1.4836562 0.074097246 3.0174975
-1.5099514 0.12775667 3.0084019
-1.4746654 0.12222238 3.0151947
-1.5085218 0.16749354 3.0096145
-1.4798812 0.17382738 3.0240893
-1.3639187 0.19049025 3.0290616
-1.3201853 0.19315018 3.0242865
-1.2875139 0.18471314 3.0409524
-1.5022091 0.20991467 3.0042057
-1.4754647 0.22558887 3.0157175
-1.4407459 0.22294931 3.026535
-1.288452 0.20023364 3.0424762
-1.475781 0.2806828 3.0205624
-1.4397041 0.28120282 3.039952
-1.3625121 0.26422575 3.0483418
-1.5068231 0.32740447 3.0058107
-1.4735793 0.32865182 3.0313613
-1.4323168 0.32032633 3.0407138
-1.4698607 0.37151819 3.0119367
-1.4432714 0.37852496 3.0361297
-1.4669167 0.42056784 3.0092461
-1.4425044 0.42250633 3.0341492
-1.4782913 0.46879178 3.0225899
-1.4413229 0.4558804 3.0475805
-1.481866 0.51987946 3.0240035
-1.3918579 0.54921287 3.0469482
-1.5015827 0.59628838 3.0024648
-1.4789425 0.57344121 3.0317924
-1.3906931 0.58010662 3.0401909
-1.5030164 0.62827086 3.0006022
-1.4725436 0.63014144 3.0298159
-1.5074522 0.66160643 3.0045242
-1.4754502 0.68074983 3.0312688
-1.4762316 0.72861791 3.0248063
-1.4775143 0.77651507 3.0242295
-1.4769284 0.82845944 3.0273011
-1.4751445 0.88008064 3.0273309
-1.4734583 0.92498738 3.0260773
-1.4791617 0.97417027 3.0259001
-1.5061302 1.0366898 3.0019822
-1.4813502 1.0257137 3.0330575
-1.5122066 1.081213 3.0033352
-1.4855535 1.0691 3.031178
-1.5018486 1.1177696 3.0120842
-1.4826885 1.1216496 3.0316322
-1.5050859 1.1688842 3.0045168
-1.485606 1.1778295 3.0313416
-1.4859383 1.2248619 3.0248835
-1.5035734 1.2788001 3.0098362
-1.4843264 1.2716506 3.0382688
-0.17061977 1.2782856 3.0195594
-0.14805397 1.2610518 3.0085533
-1.5077093 1.3234184 3.0044212
-1.4865428 1.3237841 3.0314593
-0.178275 1.3299845 3.0243967
-0.14879632 1.3360909 3.0027487
-1.5115467 1.37587 3.0060751
-1.49305 1.3719429 3.0250335
-0.17894638 1.3754023 3.030515
-0.14933392 1.3715656 3.0038171
-1.5168027 1.4301485 3.0097671
-1.496397 1.4261401 3.0317163
-0.16673172 1.4249955 3.0280716
-0.14996518 1.4158307 3.0038285
-1.520389 1.4791094 3.0283737
-0.17061591 1.4649425 3.0305552
-1.5240535 1.5265535 3.0260794
-1.497717 1.5194408 3.0463152
-0.16853651 1.5263867 3.0310578
-0.13590062 1.5229746 3.0011013
-1.5272166 1.5602494 3.0222178
-0.1611039 1.5724623 3.0240793
-0.13656792 1.5694962 3.001236
-1.5688175 1.6249247 3.0152442
-1.5404934 1.6309828 3.0405734
-0.16214438 1.6141088 3.0312335
-1.5619934 1.6730289 3.0128627
-1.5417726 1.6756403 3.0404987
-0.12329987 1.6921726 3.022011
-1.5602231 1.7200228 3.0164306
-1.5462949 1.7150289 3.0339355
-0.15709952 1.7411147 3.0490916
-0.12401644 1.7260352 3.029561
-1.5569844 1.7616036 3.0388284
-1.5469749 1.7961395 3.0481255
-0.12206549 1.7715746 3.0333054
-0.09176401 1.7727664 3.0018463
-1.5480165 1.8148023 3.0417545
-0.11551869 1.8233963 3.0246358
-0.092720859 1.8396454 3.011277
-1.5585742 1.871115 3.0407012
-1.5429754 1.8822839 3.0474837
-0.11533105 1.8736439 3.0320475
-0.08490482 1.8690724 3.0085404
-1.5640267 1.9316423 3.0367231
-1.540116 1.9153556 3.0408084
-0.11083426 1.9306047 3.0384045
-0.085709885 1.9277486 3.0176599
-1.5638022 1.9833952 3.0308392
-1.5408518 1.9724499 3.0487149
-0.11157508 1.9765899 3.0424242
-0.083393157 1.9721979 3.0139854
-1.5672395 2.0286477 3.0253716
-0.11226633 2.013773 3.0486975
-0.078603931 2.0234511 3.0221524
-1.5702205 2.0796137 3.0401881
-0.089361548 2.0757518 3.0342119
-1.5844262 2.1264949 3.0228126
-0.079681359 2.1222494 3.0250552
-1.5786011 2.1801522 3.0320997
-0.077728547 2.171818 3.0216031
-1.5842791 2.2200246 3.0232394
-0.080725968 2.2268293 3.0215237
-1.6080503 2.2551112 3.0078094
-1.5782982 2.2742379 3.0317242
-0.083685085 2.2799807 3.0171254
-1.5708605 2.3182108 3.0254581
-0.12100171 2.3347266 3.03105
-0.093082927 2.3266361 3.0102808
-1.5603657 2.3709278 3.0146916
-1.5397502 2.3735514 3.0405037
-0.5759601 2.3927844 3.0299606
-0.52561867 2.3967018 3.0169559
-0.42793015 2.3961289 3.031744
-0.39735013 2.393801 3.0208993
-0.31812754 2.3978429 3.0169723
-0.27022719 2.3936374 3.0238214
-0.22538634 2.3853807 3.0246749
-0.16933864 2.3716545 3.0268438
-0.12823072 2.364012 3.0131867
-1.5227962 2.41344 3.0265162
-1.4735858 2.4276667 3.0281026
-1.4249456 2.420707 3.0276494
-1.374693 2.4333444 3.0295715
-1.3296154 2.4302912 3.0291805
-1.2762672 2.4254935 3.0223587
-1.2171727 2.4308503 3.0219033
-1.1709707 2.4291923 3.0160606
-1.1350429 2.4157832 3.018517
-1.0264814 2.4186845 3.0274191
-0.98004532 2.4192085 3.0282712
-0.92680621 2.4187119 3.0271218
-0.86969793 2.4182019 3.0226932
-0.82012957 2.4355285 3.0251517
-0.76043516 2.429009 3.0260916
-0.72609043 2.4262283 3.023608
-0.57435369 2.4036348 3.0099478
-0.46919516 2.4039547 3.0254004
-0.41559663 2.4158099 3.0131278
-0.37229931 2.4012103 3.0329881
-0.34588209 2.4002764 3.034375
-0.91606539 2.4919989 3.0185394
-0.80022681 2.4508309 3.0283852
-0.78285486 2.452426 3.0342765
-0.74528033 2.4644213 3.0224106
-0.27826855 -0.46003202 3.0809815
-0.26640099 -0.42446154 3.0854635
-0.24287227 -0.42321867 3.0611761
-0.26395845 -0.38667634 3.0952499
-0.2351748 -0.37302119 3.0706651
-0.20176469 -0.33754992 3.0607045
-0.18704943 -0.33748421 3.0607121
-0.23893732 -0.16172668 3.0741177
-0.26623735 -0.11460112 3.09238
-0.22892711 -0.12304676 3.0700452
-1.3514645 -0.077657342 3.0709777
-1.3285939 -0.078155145 3.0997927
-0.26174968 -0.081089295 3.0840478
-0.22556409 -0.074603014 3.0674005
-0.26187605 -0.022092873 3.0861421
-0.23533586 -0.027209552 3.0709014
-0.27260599 0.027190618 3.0955315
-0.23243956 0.021371407 3.0702887
-1.4750772 0.13402575 3.0641828
-1.4745197 0.16543309 3.0619035
-1.271836 0.18578875 3.0655618
-1.2227961 0.19081725 3.0587609
-1.1750176 0.19118007 3.0707703
-1.3256682 0.22313632 3.0672224
-1.2777735 0.21935418 3.0692558
-1.2345518 0.22120456 3.0639095
-1.3503386 0.26487851 3.0608048
-1.3432857 0.26656285 3.085156
-1.4403355 0.34756047 3.0753312
-1.430886 0.37374192 3.0624728
-1.4318148 0.41051814 3.0709631
-1.4632999 0.48940575 3.0517621
-1.4292641 0.4772875 3.0583518
-1.4648975 0.50573689 3.0532305
-1.4299276 0.523027 3.0623796
-1.452561 0.57027858 3.0578594
-1.4295621 0.57057494 3.0674822
-1.4536943 0.61034346 3.054709
-1.4283737 0.62215286 3.0727508
-1.3953322 0.63633901 3.0834601
-1.4311302 0.67251259 3.0722251
-1.3917396 0.67439711 3.0694351
-1.4258946 0.72186929 3.0826433
-1.4514811 0.77610308 3.0627744
-1.4315797 0.76631349 3.0819812
-1.3928876 0.76302934 3.099072
-1.4527413 0.81681007 3.0577877
-1.4348089 0.82028121 3.0791016
-1.4560165 0.85876179 3.0566192
-1.4322867 0.87188643 3.0840368
-1.4370835 0.92007166 3.0794024
-1.4524419 0.97950757 3.0636182
-1.4365808 0.97249269 3.0839372
-1.4571344 1.0232898 3.0636375
-1.4393259 1.0279534 3.0861952
-1.4633327 1.083113 3.0624566
-1.442722 1.0774071 3.0859468
-1.4616388 1.1259546 3.0643101
-1.444165 1.1278224 3.0935397
-1.4640694 1.1697732 3.0663652
-1.4425279 1.1751509 3.0876451
-1.4571451 1.2243005 3.0696716
-1.4412451 1.2222697 3.0934374
-1.4622927 1.2764095 3.0702498
-1.4470879 1.2849598 3.0998073
-1.4602504 1.3265837 3.0644004
-1.4471115 1.3100181 3.0918784
-0.21439236 1.3337073 3.074599
-0.19739161 1.3320427 3.0512404
-1.4651543 1.3767537 3.073571
-1.4377246 1.3586199 3.0998309
-0.22136626 1.3741124 3.0731487
-0.19879168 1.3882872 3.0581558
-1.4730493 1.4275165 3.0681601
-1.4471824 1.4350935 3.0968931
-0.228866 1.4248822 3.0874817
-0.19951889 1.4168509 3.0616894
-1.4734039 1.4782809 3.074162
-1.4472263 1.452022 3.0909159
-0.21787938 1.47849 3.0838335
-0.18459369 1.4931859 3.0504539
-1.4828082 1.5240612 3.0695882
-0.21352698 1.5206021 3.0725462
-1.5224823 1.584406 3.0645885
-1.4913825 1.573236 3.0818591
-0.3207157 1.5815248 3.0692208
-0.21244232 1.5798759 3.0914426
-0.18606634 1.5684701 3.0518472
-1.5694169 1.6263185 3.0800421
-1.5256286 1.6310463 3.0773389
-1.4968104 1.6312063 3.0965059
-0.33190635 1.6161419 3.0613263
-0.21318252 1.6175419 3.0900841
-0.18756236 1.6130022 3.0642865
-1.5156782 1.6761671 3.0747457
-0.33582863 1.6514325 3.0912097
-0.17376699 1.6981243 3.0782506
-1.5195106 1.7228329 3.0710042
-1.4931898 1.7246552 3.0979526
-0.20706569 1.706039 3.0911202
-0.17357625 1.7147179 3.0664561
-1.5256832 1.7749695 3.0683072
-1.4986111 1.7658606 3.0934813
-0.16429026 1.7820309 3.0731754
-0.14176311 1.783182 3.0526443
-1.5191348 1.8220034 3.0680785
-1.4940015 1.838653 3.082428
-0.17012146 1.8284483 3.0866356
-0.14229915 1.8143427 3.0534124
-1.5212216 1.8792529 3.0720718
-1.483291 1.8765968 3.0892208
-0.16136482 1.8794667 3.091701
-0.13805158 1.8710326 3.0613239
-1.5192758 1.9261866 3.0700958
-1.4818168 1.940957 3.098937
-0.16206567 1.9291965 3.0857019
-0.13643098 1.9274479 3.0666192
-1.5195312 1.9705038 3.0752463
-1.4871557 1.9747738 3.0962152
-0.16355105 1.9804333 3.0978456
-0.1401096 1.9761909 3.0691957
-1.5183163 2.0229325 3.083039
-0.16426288 2.0227845 3.0945537
-0.13821134 2.0195189 3.0734868
-1.5504897 2.0984004 3.0609376
-1.5296025 2.0675118 3.0782728
-0.16559342 2.0816393 3.0978823
-0.12834837 2.0711184 3.0762746
-1.5551393 2.1319263 3.0542562
-1.5327812 2.1234336 3.0784824
-0.16663849 2.1289661 3.0993361
-0.13152035 2.1220398 3.0735948
-1.5566279 2.1739159 3.0628042
-1.5231092 2.1690099 3.0896552
-0.13231066 2.1716845 3.0716169
-1.5553433 2.2216492 3.0598183
-1.533004 2.2228303 3.079761
-0.15065229 2.2136502 3.0849276
-0.12458161 2.2263198 3.0696905
-1.5526277 2.2998912 3.063987
-1.5283002 2.2742326 3.0814688
-0.15619652 2.270303 3.0866292
-0.12509723 2.2700553 3.062201
-1.5241492 2.3259361 3.0761807
-1.1235498 2.3481216 3.0957818
-0.57745761 2.3459895 3.0715082
-0.16673806 2.3333213 3.0743852
-0.12857492 2.3125811 3.0574291
-1.5166181 2.3717158 3.068363
-1.4859537 2.3898594 3.0818255
-1.1379253 2.3830531 3.0784998
-0.57101285 2.3912859 3.0633523
-0.52850175 2.399174 3.0799983
-0.47282556 2.3959723 3.0659997
-0.41967207 2.3950286 3.0711017
-0.36443669 2.3895731 3.0527167
-0.3269625 2.3911853 3.0718713
-0.27742878 2.3877811 3.0748413
-0.22102541 2.3752811 3.0736458
-0.17017086 2.3571498 3.058316
-1.4681693 2.4091098 3.0739822
-1.4224025 2.4168203 3.0735161
-1.3779362 2.4233642 3.0804033
-1.3306887 2.4259548 3.0719869
-1.2735868 2.4277794 3.0853207
-1.2273562 2.4280701 3.0782418
-1.1828939 2.4310932 3.0689933
-1.0510849 2.4216676 3.0709763
-1.0247365 2.4238958 3.081543
-0.96979761 2.416255 3.0766253
-0.92501724 2.410465 3.0710201
-0.87864637 2.4160552 3.0717669
-0.82251292 2.4190555 3.0706999
-0.77488703 2.4230349 3.0803339
-0.72505552 2.4133019 3.0744443
-0.52287734 2.4024959 3.0678186
-0.47400591 2.4019146 3.0735676
-0.38376302 2.4005945 3.0650287
-0.71220773 2.4556174 3.0529525
-0.32033238 -0.45977923 3.1281257
-0.74920338 -0.43023703 3.1448317
-0.32074678 -0.4226222 3.1356373
-0.2896831 -0.4262436 3.1158378
-0.76008791 -0.35131443 3.1302493
-0.74950361 -0.39965501 3.1487982
-0.32065791 -0.38478789 3.1379113
-0.28279579 -0.3726669 3.1184597
-0.7598632 -0.32066083 3.1314743
-0.74759817 -0.321978 3.1465874
-0.76220608 -0.27568629 3.1440113
-0.77622157 -0.22931249 3.1386592
-0.78261614 -0.16786094 3.1350133
-0.31231287 -0.15801173 3.1431332
-0.27942106 -0.16389409 3.1133111
-0.7933194 -0.13787323 3.1467874
-0.31251836 -0.13552743 3.1458802
-0.28437704 -0.13653505 3.1215549
-1.4185554 -0.063322708 3.1209269
-1.3604529 -0.079090774 3.1323178
-0.79327291 -0.061215889 3.1481659
-1.4241132 -0.033138804 3.1213744
-1.3996756 -0.023678262 3.1399143
-0.80350006 -0.022761293 3.1260223
-0.79122013 -0.015186317 3.1403594
-1.451997 0.016268596 3.1342306
-1.4187738 0.02418673 3.1316977
-1.3992987 0.00025039556 3.1391203
-0.81155688 0.025632344 3.1365483
-0.79284722 0.023091011 3.1467288
-0.31497765 0.030074883 3.1341844
-0.28202161 0.020879591 3.1119072
-1.4159932 0.080036126 3.1349568
-0.8143844 0.076599382 3.1366737
-0.78752536 0.066485964 3.1462669
-1.4189142 0.12817496 3.1401963
-1.4125401 0.16533923 3.1383896
-1.3743907 0.17452323 3.1200197
-1.3269081 0.17452271 3.1346874
-1.2664193 0.1738134 3.1381593
-1.4149175 0.28724658 3.1238329
-1.3802576 0.28666219 3.1276157
-1.3417742 0.26939964 3.1228557
-1.4546077 0.33689892 3.126802
-1.418839 0.31204253 3.1308384
-1.3816783 0.31882244 3.1286306
-1.3721261 0.36865124 3.1304698
-1.3402481 0.38319421 3.1425049
-1.3796108 0.4001655 3.138
-0.87773633 0.41776913 3.1442573
-1.3724154 0.48843303 3.1334038
-1.4188241 0.52787441 3.1100025
-1.365715 0.52897453 3.134269
-1.367986 0.57546204 3.1380076
-1.3473036 0.57943571 3.1487272
-1.3916061 0.73825526 3.1004465
-0.90531707 0.70566756 3.1495023
-1.4147787 0.78231376 3.1037199
-1.3970118 0.78944588 3.1038742
-0.50631869 0.78267515 3.1255655
-0.48065844 0.78520036 3.1255417
-1.4115983 0.82549948 3.1095407
-1.3875573 0.84179795 3.1148155
-0.52018684 0.8067227 3.1346753
-0.47169584 0.80565357 3.1250787
-1.4096198 0.87784141 3.1160171
-1.3926628 0.86929774 3.1214001
-0.93079412 0.88749695 3.1493175
-1.4143782 0.92606395 3.1242778
-0.93146306 0.91758108 3.145596
-1.4185867 0.98155838 3.1143799
-0.95273888 0.97296798 3.1498113
-0.93536711 0.97148436 3.1483586
-0.51085204 0.99859744 3.1388774
-0.48757878 0.99887282 3.1422884
-1.4182659 1.0289372 3.117173
-0.93984479 1.0401428 3.1490493
-0.51241297 1.0329496 3.1414931
-0.48750344 1.0299443 3.1348934
-1.4174383 1.0737301 3.1210923
-0.95981449 1.0926737 3.1471612
-0.51237541 1.0641755 3.1340799
-0.48752785 1.0771594 3.1351388
-1.4182343 1.1251431 3.1224363
-1.3936656 1.1486597 3.1481867
-0.96158844 1.1107919 3.1489761
-0.94689894 1.144684 3.1489058
-0.51539028 1.1255262 3.1392155
-0.49501407 1.1160837 3.1388969
-1.4229773 1.1739724 3.1205316
-1.3976406 1.185324 3.1479697
-0.97281349 1.1842525 3.1454134
-0.50152081 1.1692685 3.1426888
-0.48590484 1.1696835 3.1455929
-1.4200298 1.2212455 3.1274886
-1.3979203 1.2022585 3.1438787
-0.98129463 1.2290248 3.1418242
-0.50749052 1.2175672 3.1432514
-0.4796474 1.2213205 3.1446874
-1.4256046 1.2758393 3.1280069
-1.3262776 1.2976518 3.1241703
-0.97644418 1.2697833 3.1436858
-0.48972788 1.2585469 3.148911
-1.4243501 1.3241915 3.1195023
-1.3380256 1.3259305 3.1465859
-0.99395674 1.3257252 3.1430714
-1.4251846 1.373701 3.127346
-0.99558496 1.3770438 3.1328051
-0.23269303 1.3572962 3.1075344
-1.426357 1.4235157 3.1281073
-1.309005 1.4315869 3.1347895
-0.25098395 1.4267842 3.1203418
-1.4269171 1.4755296 3.121856
-0.26828104 1.4785097 3.1201265
-0.23446158 1.4630296 3.100405
-1.4612843 1.5346271 3.1117859
-1.4396892 1.5260307 3.1305912
-0.30180585 1.5377878 3.1158795
-0.26957205 1.5214854 3.1232231
-0.23764907 1.5473962 3.1201816
-1.4638522 1.571818 3.112139
-1.4335663 1.5676334 3.136745
-0.30863336 1.5748678 3.1197646
-0.26993185 1.5734892 3.1371424
-0.23740067 1.5699372 3.1081839
-1.5186756 1.6194571 3.1312518
-1.47062 1.6348972 3.1192386
-0.30686724 1.6208812 3.1472356
-0.25719756 1.6255262 3.1404796
-0.23944959 1.6160004 3.1229622
-1.4707626 1.6744789 3.1206532
-1.4457003 1.6866004 3.1466227
-0.20733081 1.6919545 3.101644
-1.4658947 1.7248029 3.1310899
-0.22072037 1.7279128 3.1302271
-1.4742225 1.7737844 3.1247323
-0.22527318 1.7806305 3.1393368
-0.1874332 1.7685236 3.1078141
-1.4748296 1.8189329 3.1230595
-0.22478965 1.8197533 3.13854
-0.19449212 1.821674 3.1164539
-1.4666491 1.8685468 3.1304038
-0.21343076 1.8757375 3.1359723
-0.18755826 1.884795 3.1169477
-1.4760951 1.9229145 3.1204774
-0.22301403 1.9111881 3.1411722
-0.18814871 1.9156275 3.1149392
-1.4720924 1.97262 3.1409185
-0.18823734 1.9727018 3.1261728
-1.4807115 2.0209413 3.1285295
-0.21736623 2.0126369 3.145833
-0.19081838 2.0192888 3.122601
-1.5037546 2.0816422 3.1141462
-1.4847775 2.0714006 3.1246407
-0.20118749 2.0728276 3.134661
-0.18312868 2.0708203 3.1152561
-1.5124006 2.1301842 3.111464
-1.4823499 2.1321113 3.133836
-0.20263684 2.1308665 3.1348429
-0.18432236 2.1186209 3.1176591
-1.5026023 2.1790514 3.115263
-1.4815272 2.1810205 3.1340725
-0.20504129 2.1997931 3.1485167
-0.1770913 2.177881 3.1183035
-1.507199 2.2226205 3.1028328
-1.4828088 2.2247474 3.1288323
-0.2052469 2.2282162 3.1370988
-0.17987671 2.2289894 3.1153421
-1.5001018 2.2860134 3.1055515
-1.4939675 2.272284 3.1275353
-0.21251249 2.2813871 3.1362171
-0.18250656 2.2904177 3.115803
-1.5067971 2.3148928 3.1076672
-1.4841138 2.3232162 3.1301973
-1.1453116 2.3097954 3.1283419
-0.21463767 2.3292265 3.127914
-0.18286584 2.3241005 3.1043873
-1.4726709 2.3705118 3.1193807
-1.4319104 2.3891635 3.1403379
-0.5789718 2.3977203 3.1232755
-0.52760696 2.3982265 3.1254981
-0.46067524 2.3982394 3.1224394
-0.43326566 2.3951049 3.1214745
-0.36223823 2.3979998 3.1326513
-0.32424951 2.3817286 3.1145654
-0.27680463 2.3791347 3.1286433
-0.23452839 2.3639145 3.1147397
-1.4233867 2.4062595 3.1184006
-1.3760809 2.4126899 3.1190751
-1.319114 2.4204688 3.1220336
-1.2751158 2.41763 3.1227503
-1.2232976 2.4196632 3.1299837
-1.1868423 2.4209878 3.1177244
-1.0624781 2.4202535 3.1223943
-1.0265472 2.4160929 3.1170402
-0.9742074 2.4158733 3.1213746
-0.92968869 2.4190795 3.1370957
-0.8826645 2.4194562 3.124294
-0.83277756 2.4173522 3.1296339
-0.77104878 2.4092934 3.1316564
-0.72522557 2.4215767 3.1302066
-0.56107295 2.4067979 3.120369
-0.48961625 2.4086714 3.1326728
-0.40646899 2.4040213 3.1188145
-0.37426203 2.4023459 3.1112254
-0.36991727 -0.47104049 3.1840649
-0.72603512 -0.4282918 3.1692395
-0.37130928 -0.427452 3.1911426
-0.73587191 -0.36979041 3.1612425
-0.37163281 -0.39842886 3.182775
-0.31518918 -0.3645691 3.1611316
-0.7421872 -0.27680856 3.1603348
-0.7577858 -0.22661756 3.1661835
-0.73486829 -0.23846346 3.1651521
-0.76291788 -0.1771422 3.168287
-0.32891852 -0.15875983 3.1570232
-0.77643192 -0.12313309 3.1651838
-1.3690026 -0.064000592 3.1732588
-0.77894855 -0.07876727 3.1626654
-1.3695946 -0.031896129 3.1749418
-0.77878386 -0.034970827 3.1543372
-1.466346 0.040688813 3.1650229
-1.3718715 0.024891768 3.1759846
-0.77920222 0.02311332 3.156064
-0.3703146 0.038244694 3.1872969
-0.33650798 0.037861288 3.1590126
-1.3725599 0.079149358 3.1753967
-0.78794038 0.0846764 3.1582999
-1.3716174 0.12896709 3.1777651
-0.8192414 0.12604518 3.1777053
-0.79817373 0.10808053 3.1666725
-1.3715146 0.16113506 3.1764615
-1.276675 0.17522532 3.163588
-1.2451365 0.17637469 3.1956115
-0.85421467 0.17955229 3.1930103
-0.82266563 0.16932566 3.1895802
-0.85653037 0.23338945 3.1788981
-0.83281994 0.22563581 3.1841192
-1.3541777 0.28787026 3.1507163
-1.3212626 0.28940788 3.1795313
-0.86051625 0.26491475 3.1819651
-1.35768 0.3206729 3.1566513
-1.3329082 0.32242286 3.1835871
-0.85934258 0.33455086 3.1731641
-0.83501393 0.34192285 3.1730173
-1.3586313 0.35294876 3.156456
-1.3226348 0.36807293 3.177017
-1.2987583 0.38626024 3.1830716
-0.86247301 0.36922777 3.1670299
-0.83931714 0.37523708 3.1620543
-1.3139504 0.40208566 3.1749318
-0.86684144 0.41773042 3.1639457
-0.84935975 0.43454188 3.1580663
-1.3290915 0.48846725 3.1667061
-1.2911919 0.48597777 3.1994548
-0.86871487 0.47543347 3.1653786
-1.4020593 0.51748788 3.1564062
-1.3249891 0.5259397 3.1687405
-1.289225 0.53374285 3.1891227
-0.90144575 0.54652399 3.1572747
-0.87539417 0.52930897 3.1540172
-1.351107 0.59720701 3.1554699
-1.324187 0.5755499 3.1722405
-0.90595943 0.58066505 3.1692421
-0.88118106 0.57980984 3.1692238
-1.3625988 0.6310752 3.1564255
-1.3262165 0.62487978 3.1795084
-0.90574533 0.62755758 3.1623499
-0.8857072 0.62578428 3.1738868
-1.3661221 0.6789099 3.16206
-1.3300891 0.675524 3.1816571
-0.90599471 0.67480642 3.1565645
-0.88772017 0.67188025 3.1657352
-1.3795223 0.72078705 3.1830735
-1.3290546 0.72157317 3.1783729
-0.90725303 0.73074913 3.1525311
-0.89066315 0.72218305 3.1537225
-1.3585255 0.76550251 3.1806042
-1.3300943 0.76974487 3.1890976
-0.91956782 0.77378327 3.1597786
-0.89434791 0.7724666 3.1590576
-0.55980289 0.79882824 3.1850152
-0.52826411 0.77707964 3.1660488
-0.46517834 0.77851051 3.1564257
-0.42455694 0.77929789 3.1857293
-0.36280537 0.79607642 3.1930618
-1.3571048 0.81215298 3.1801419
-1.333478 0.82094216 3.1883917
-0.9215197 0.82290667 3.1582088
-0.89389527 0.80357063 3.1520472
-0.56233394 0.81817389 3.1967158
-0.43086591 0.80768442 3.1688087
-0.37148762 0.81362486 3.1974432
-1.3450984 0.85594702 3.1878223
-0.95468408 0.89504337 3.1727726
-0.92192459 0.86907035 3.1570795
-0.95249611 0.94082862 3.155798
-1.4177308 0.97586757 3.1580882
-0.95657057 0.97695452 3.1624303
-0.93652791 0.97270304 3.15223
-0.47598082 0.99160624 3.1739559
-0.43789917 0.99445313 3.1869771
-0.32564795 0.98117477 3.180316
-1.4325482 1.0194629 3.1833546
-0.95893121 1.0274397 3.1595173
-0.93980527 1.0160959 3.1544251
-0.5529139 1.0265635 3.1963596
-0.53304118 1.0269111 3.172868
-0.45918593 1.0207592 3.1614878
-0.4307065 1.0277423 3.1861517
-0.31978077 1.0249497 3.1757629
-1.4083406 1.0722475 3.1578326
-0.9594295 1.0681441 3.1517475
-0.94388455 1.0767719 3.1549332
-0.55814767 1.0647831 3.1949575
-0.52960503 1.0792921 3.1645577
-0.46051046 1.0709505 3.1598387
-0.43193319 1.0782506 3.1844454
-0.36144382 1.0727769 3.1997328
-0.31949931 1.0732837 3.1786959
-1.3885568 1.1199263 3.1618178
-0.98065454 1.1396513 3.1787202
-0.94528127 1.1105384 3.1517174
-0.5322035 1.1242988 3.1704633
-0.4654412 1.124202 3.1581752
-0.43671381 1.1239339 3.1796074
-0.31807995 1.1211551 3.1690481
-1.3812338 1.1722232 3.1577561
-0.98938274 1.1566707 3.1747665
-0.52717704 1.1738981 3.1620376
-0.46438751 1.1752642 3.1630447
-0.43905658 1.1818839 3.1836386
-0.31345418 1.1748897 3.1748896
-0.2979053 1.1920615 3.1753428
-1.4052842 1.2337738 3.1531537
-1.3860542 1.2306622 3.1774762
-0.53231472 1.224967 3.171648
-0.45819616 1.2275616 3.1632431
-0.43525821 1.2220272 3.18806
-0.31338638 1.2063774 3.1659734
-0.29804081 1.2085059 3.1726232
-1.407865 1.2612606 3.15148
-1.386771 1.2800509 3.1695485
-0.99728554 1.2972841 3.1635511
-0.52788496 1.2735724 3.1828403
-0.47061247 1.2715135 3.1839147
-0.43741289 1.2524793 3.1841173
-1.3844897 1.3240192 3.1627159
-1.4051968 1.3760324 3.1570618
-1.3745927 1.379364 3.1697314
-1.3348795 1.3677047 3.1583326
-0.23587854 1.3598783 3.1549652
-1.3787042 1.4262204 3.1713381
-1.3390236 1.4203358 3.1692729
-0.51660919 1.4485853 3.165895
-0.4836078 1.4418788 3.1685607
-0.27210817 1.4464051 3.1827095
-1.4042325 1.4949814 3.1636584
-1.3790081 1.4716724 3.1792109
-1.3281097 1.4781554 3.171556
-0.51072443 1.4795085 3.1727028
-0.4716152 1.4731081 3.1789842
-0.2711435 1.4574722 3.1661632
-1.4175045 1.5258118 3.1616926
-1.3846965 1.5243614 3.1836271
-0.51105112 1.5229132 3.1721215
-0.47429028 1.5261086 3.1799328
-1.4169888 1.5600209 3.1560314
-1.3923687 1.5646757 3.1753397
-0.51366228 1.5703387 3.182539
-0.47533023 1.5739914 3.1876552
-1.4646457 1.6147939 3.1563308
-1.4318655 1.6360945 3.1728427
-1.3183024 1.6365107 3.1935158
-1.0372446 1.6093063 3.1698151
-0.48571208 1.6196331 3.1865389
-0.2836026 1.6282682 3.1632118
-1.4206197 1.6736653 3.1760452
-1.2955782 1.6644932 3.1720693
-1.055246 1.6838543 3.1731458
-1.0358102 1.6714892 3.1736615
-0.48031393 1.6544982 3.1974328
-0.32956317 1.6859969 3.1949377
-1.4238203 1.7238225 3.1723566
-1.0626814 1.7301379 3.1814399
-1.0425882 1.7167677 3.1805432
-0.31363451 1.7068307 3.1974401
-0.27937868 1.7267611 3.1802218
-0.24422432 1.7310174 3.1529608
-1.4291593 1.7735318 3.1723166
-1.0693083 1.7755697 3.1866941
-0.31569934 1.768603 3.198307
-0.28103718 1.7761804 3.1832659
-0.24538055 1.7725027 3.1542425
-1.4529322 1.8313411 3.1563995
-1.4322771 1.8204316 3.1785746
-1.2870774 1.8229271 3.1962769
-1.0728623 1.8162453 3.1822033
-0.27486557 1.8276155 3.1948946
-0.23036209 1.8437219 3.1525443
-1.4544375 1.8510404 3.1513507
-1.4297321 1.8747237 3.1759109
-1.0829802 1.8684806 3.1965284
-0.26836076 1.8921018 3.1966128
-0.24038115 1.8732499 3.1662045
-1.4577432 1.930492 3.1600096
-1.4302464 1.9157782 3.1852286
-0.2558369 1.9280275 3.1849976
-0.23248255 1.9283562 3.1511424
-0.19902351 1.9488301 3.1507726
-1.4595175 1.9799771 3.1594925
-1.4383657 1.9730091 3.1844318
-0.25867927 1.978639 3.1838863
-0.22378485 1.9715624 3.157774
-1.4574243 2.0330675 3.1653912
-1.4348868 2.0233533 3.1844909
-0.26341933 2.0218942 3.1931505
-0.23623756 2.0196872 3.1734729
-1.4674894 2.076395 3.1615882
-1.4321822 2.0753961 3.1857772
-0.26227698 2.0759103 3.1946099
-0.2270344 2.0691488 3.169744
-1.4598064 2.1271141 3.162112
-1.4420018 2.120141 3.1849802
-0.25784302 2.1248627 3.192771
-0.23213354 2.1256821 3.1708241
-1.4603035 2.17979 3.175467
-1.4390945 2.1781635 3.1911836
-0.25948536 2.1735959 3.1946983
-0.22237462 2.1722651 3.1598387
-1.459196 2.2277803 3.1655896
-1.4376112 2.226557 3.1857922
-1.1279583 2.2385144 3.1796393
-0.26039708 2.2077219 3.1917315
-0.23507026 2.2229967 3.1731238
-1.4633287 2.2731514 3.1620588
-1.431883 2.2826183 3.1895936
-1.1382412 2.2773652 3.1587894
-0.26212394 2.2757185 3.1832764
-0.23409872 2.2712181 3.1612837
-1.4599327 2.320014 3.1556542
-1.4281455 2.329437 3.1829214
-0.2634331 2.3317451 3.1734395
-0.24465421 2.32305 3.1627331
-1.4261107 2.368155 3.1658304
-1.3909389 2.3819029 3.1894181
-0.5710206 2.3940313 3.1847293
-0.49276084 2.3970611 3.1697598
-0.42857146 2.391814 3.1702271
-0.37427965 2.3908789 3.17453
-0.32309288 2.3841252 3.1734893
-0.28202981 2.3646026 3.1643946
-0.24496824 2.3527541 3.1509478
-1.3714257 2.4092836 3.167315
-1.331556 2.4151342 3.1796875
-1.271332 2.4175239 3.1744194
-1.2260189 2.4123342 3.1711271
-1.1902947 2.4095833 3.165262
-1.0641248 2.4173949 3.1751528
-1.026855 2.4263582 3.1790109
-0.97694731 2.4177935 3.179868
-0.93030828 2.4120166 3.1769989
-0.87514096 2.4192896 3.1727109
-0.81816417 2.4140522 3.1779323
-0.78344035 2.4107542 3.1769156
-0.72181648 2.4176719 3.1708889
-0.55580252 2.4048791 3.1539829
-0.53094578 2.4058557 3.1766329
-0.47375685 2.4013176 3.1600795
-0.41668659 -0.45950079 3.2273479
-0.39041415 -0.46385056 3.2046504
-0.41199085 -0.42109105 3.2349911
-0.39454484 -0.4370909 3.2089791
-0.40044925 -0.38877919 3.2293534
-0.38383031 -0.38770482 3.2216566
-1.3244444 -0.064584978 3.2180223
-1.2983756 -0.064910389 3.2429357
-1.3233497 -0.032230224 3.2245262
-1.2984594 -0.048632402 3.2433307
-1.3532565 0.016391592 3.2004442
-1.3278698 0.02459427 3.2266617
-0.41567531 0.031141542 3.2404323
-0.39735061 0.038632091 3.2190979
-1.3536166 0.097213514 3.2002358
-1.3291125 0.081533305 3.2290163
-1.3269387 0.13008358 3.2225869
-1.3203793 0.16274759 3.2277246
-1.236936 0.17749161 3.2202337
-1.2888947 0.29114667 3.2102976
-1.307261 0.32403535 3.2089593
-1.284695 0.32302365 3.2299685
-1.3081428 0.35664722 3.2087247
-1.2751116 0.37359589 3.2240021
-1.2437723 0.38916779 3.2250841
-1.274702 0.40491733 3.2111442
-1.2468802 0.40638846 3.2317426
-1.3657489 0.47603559 3.2269757
-1.3467767 0.47803003 3.2478344
-1.2678782 0.48948601 3.2316673
-1.2730217 0.5203194 3.2246163
-1.2808601 0.57369584 3.2257361
-1.2800558 0.62194365 3.2237272
-1.2325306 0.62022454 3.2462413
-1.3058853 0.67985177 3.2116632
-1.2813001 0.66946918 3.2280338
-1.3080102 0.72197938 3.2105124
-1.2844431 0.72219324 3.2303603
-1.3871373 0.78711468 3.2125688
-1.3106741 0.77275658 3.2088692
-1.2854173 0.77818537 3.2313733
-0.61861432 0.78247064 3.2465076
-0.58384055 0.7838912 3.2151306
-0.53365093 0.775006 3.22505
-0.49019188 0.76884288 3.2036068
-0.38406035 0.78400064 3.2086849
-1.3706261 0.84508902 3.2071917
-1.3084329 0.82813281 3.21208
-1.2825937 0.82585633 3.2352636
-0.61353928 0.83071059 3.2403743
-0.58377749 0.82252723 3.2114046
-0.40379736 0.8156898 3.203001
-0.38771877 0.81485933 3.2010441
-1.3657078 0.88216013 3.2185314
-1.3235939 0.87654853 3.2169161
-1.2872427 0.87051791 3.2414792
-1.3598175 0.92923474 3.2333164
-1.3228112 0.91924983 3.2281752
-1.29746 0.91817158 3.2428226
-1.355877 0.95746303 3.2411451
-1.319231 0.96531802 3.2413814
-0.421186 0.99409837 3.2242053
-0.37310016 0.98856813 3.2146344
-1.3338921 1.0317805 3.2453582
-0.57815224 1.0363971 3.2154419
-0.52317834 1.0067124 3.2180707
-0.40925375 1.0175003 3.2093055
-0.37729788 1.0223039 3.2092447
-1.3283106 1.0799167 3.2389908
-0.58402604 1.0799215 3.2145011
-0.41028151 1.0678788 3.2067287
-0.38319883 1.0730678 3.2098987
-1.3253802 1.1267867 3.2445555
-1.0026276 1.1391362 3.2257118
-0.61407977 1.1064736 3.2487419
-0.5740689 1.1262609 3.2151411
-0.41632473 1.1252517 3.2100995
-0.38250747 1.123821 3.2151301
-1.3178236 1.1529832 3.2428052
-0.61666322 1.1683261 3.2484975
-0.58182603 1.172099 3.2242181
-0.4201251 1.1700245 3.2105713
-0.37888426 1.1764499 3.2172859
-0.6023823 1.229727 3.2469516
-0.5740276 1.2216454 3.2287629
-0.40963164 1.2317822 3.2161014
-0.37266326 1.2237451 3.2178326
-0.60374749 1.2653654 3.2454984
-0.57469255 1.272356 3.2295406
-0.54708761 1.2647574 3.2039728
-0.41055852 1.2686963 3.2283483
-0.37941778 1.273289 3.2428126
-0.45476586 1.4426057 3.2011168
-0.42487165 1.444369 3.2292237
-0.37693545 1.4419538 3.2492912
-0.54468638 1.4889934 3.2313056
-0.42284137 1.471264 3.2208402
-0.38574734 1.4771742 3.2424848
-1.3661877 1.5272545 3.2061412
-1.3488936 1.5272806 3.2118986
-0.56310034 1.5104151 3.2339444
-0.54004127 1.5250301 3.2161949
-0.42713878 1.5267718 3.2218194
-1.3699081 1.5711584 3.2134781
-0.56017619 1.5925486 3.2432113
-0.5371663 1.5745271 3.2085431
-0.43280825 1.5751921 3.2253227
-1.4113375 1.6337128 3.2181263
-1.3761761 1.6354396 3.2368019
-1.3474927 1.6158272 3.2297759
-0.52547204 1.6232691 3.2291386
-0.46384704 1.6219257 3.2133129
-0.44494045 1.6250296 3.2315335
-1.4017661 1.6528658 3.2023127
-1.3750401 1.6719233 3.230346
-1.3387496 1.6795757 3.2360215
-0.51062799 1.6631451 3.2308283
-0.46731535 1.6761982 3.2216706
-1.3805722 1.7230916 3.2252083
-1.3443737 1.7043879 3.2424507
-0.3325991 1.7311053 3.2129717
-1.4034535 1.7828488 3.2081606
-1.3732514 1.7736709 3.2328086
-1.1007848 1.7899344 3.2274292
-0.35058391 1.7577982 3.2135999
-0.32910481 1.7689537 3.2230453
-1.4107109 1.8279195 3.208786
-1.3786483 1.823963 3.2338991
-1.3231522 1.8306655 3.2435992
-0.32356256 1.820582 3.2313313
-1.4053566 1.889612 3.2232809
-1.3823335 1.8679562 3.2367911
-1.2983317 1.8567233 3.2161829
-0.39128914 1.8582265 3.2398615
-0.30472696 1.8634388 3.2371678
-0.27960294 1.8685665 3.204464
-1.4168854 1.9363252 3.2150676
-1.3831835 1.9236168 3.2313416
-0.31421581 1.9224002 3.2448547
-0.28302023 1.9218336 3.2092795
-1.4107333 1.9810148 3.2151558
-1.3801343 1.9774048 3.2391067
-1.3030967 1.9621934 3.2448127
-0.30830169 1.972207 3.236515
-0.28352472 1.9752754 3.2128544
-1.4132519 2.0223789 3.2120395
-1.3896681 2.0279813 3.230618
-0.31146207 2.0362952 3.2491353
-0.29109359 2.0254664 3.2150288
-1.4117358 2.0701694 3.2137208
-1.3891308 2.077635 3.2350862
-0.31224501 2.0678301 3.2445412
-0.28749931 2.0730402 3.2242668
-1.411302 2.1201584 3.2174451
-1.3931366 2.1441493 3.2446473
-0.31423542 2.1252964 3.2432032
-0.28600937 2.1215696 3.2215471
-1.4166378 2.1653514 3.2092566
-1.3897043 2.1796162 3.2363288
-0.31646025 2.1849151 3.2432458
-0.28543615 2.1711781 3.2142181
-1.4105916 2.2205157 3.2137194
-1.3890595 2.219713 3.2341244
-0.31828529 2.2334087 3.2428598
-0.28446859 2.233685 3.2207127
-1.4105724 2.2616646 3.2120645
-1.3877646 2.2818892 3.2395175
-0.30762061 2.2816474 3.2357113
-0.2819415 2.2833617 3.2104125
-1.4098701 2.302031 3.208452
-1.3819188 2.3274643 3.2295625
-0.30863029 2.3193407 3.2295008
-0.28336394 2.3308897 3.206048
-1.3710984 2.372642 3.2180905
-1.3422848 2.3901179 3.2333946
-1.2512795 2.3988616 3.249903
-1.2296453 2.3937867 3.2490604
-0.46163943 2.3960145 3.225651
-0.37490806 2.383512 3.2319057
-0.32475889 2.3648479 3.227622
-1.3166331 2.406106 3.2188311
-1.2801584 2.4061542 3.2244616
-1.2227255 2.4142334 3.2255454
-1.0809857 2.423327 3.2308438
-1.0248817 2.4156835 3.2218888
-0.99273527 2.4286656 3.2489312
-0.91979861 2.4288042 3.2284584
-0.86951083 2.4188101 3.2257471
-0.82140851 2.4140801 3.2294164
-0.76728451 2.4089177 3.2181454
-0.72045231 2.416646 3.2303326
-0.56483626 2.4072046 3.2277508
-0.52229339 2.4046848 3.2156205
-0.48012459 2.4059706 3.2191098
-0.425879 2.4005299 3.2357814
-0.50667495 -0.47872311 3.2980576
-0.47258493 -0.46856001 3.2865655
-0.43739438 -0.46497661 3.2642674
-0.46962523 -0.42994574 3.2833338
-0.43280387 -0.42097199 3.2634678
-0.45745966 -0.39777318 3.2999766
-0.42096108 -0.39341122 3.2665329
-1.2732151 -0.069374189 3.2708409
-1.3020613 -0.016112423 3.2525289
-1.2765479 -0.032635998 3.2797518
-1.3027757 0.024711818 3.2542109
-1.2764384 0.024831794 3.2794368
-1.2299632 0.024844609 3.2996466
-0.45922074 0.042181302 3.2892044
-0.42914256 0.041793644 3.2629204
-1.3041229 0.081973284 3.256901
-1.2767481 0.082321957 3.2795773
-1.2056739 0.065584518 3.2822373
-1.3038889 0.13102196 3.2551696
-1.2773254 0.13164848 3.2799175
-1.2780381 0.16460051 3.2807376
-1.2264054 0.17948525 3.2629218
-1.1998091 0.17915469 3.2632668
-1.2636906 0.33112794 3.2628465
-1.245836 0.3292 3.2824926
-1.2586027 0.36100635 3.2661905
-1.2273961 0.37928605 3.271606
-1.2306076 0.40907645 3.2596526
-1.3214242 0.48078251 3.2760715
-1.2666725 0.47886726 3.2767582
-1.2326106 0.49165231 3.2570262
-1.2338692 0.52497154 3.2567577
-1.2602785 0.55856341 3.2510672
-1.2365535 0.57540756 3.2580197
-1.2476274 0.6426186 3.2546737
-1.259851 0.69423831 3.2555926
-1.2392399 0.67309701 3.2570205
-1.261816 0.73270875 3.2597668
-1.2388002 0.72951204 3.2670071
-1.2614495 0.77626836 3.2589958
-1.2400526 0.77794576 3.2792337
-0.66664946 0.78400975 3.2823689
-0.63874161 0.7876038 3.2657034
-0.57447934 0.76346767 3.2777119
-0.52588183 0.7709825 3.2794828
-1.2606306 0.83243161 3.2592804
-1.2398515 0.81855822 3.280098
-0.6639533 0.82610714 3.2828205
-0.63423854 0.81510872 3.2589459
-1.2626859 0.87655562 3.2733316
-1.2397575 0.86605966 3.2966878
-0.65954804 0.85805964 3.276082
-0.63112485 0.85244441 3.2578773
-1.2725253 0.92433548 3.2740316
-1.3253194 0.98487866 3.2529817
-1.2788863 0.97588205 3.2742546
-0.44684818 0.99866825 3.255507
-1.3500816 1.0161208 3.2616794
-1.309719 1.0279522 3.2516396
-1.2857393 1.0318872 3.2724512
-0.62651908 1.0485778 3.285027
-0.595038 1.0365523 3.2504873
-1.2835405 1.0747842 3.2784495
-0.65350544 1.0771574 3.2884426
-0.62327707 1.0752625 3.2701523
-1.3593054 1.1253608 3.2594945
-1.3021103 1.1201411 3.2594888
-1.2809333 1.1238953 3.277729
-0.62637001 1.1219447 3.2672262
-1.3249744 1.1759943 3.2644796
-1.2833624 1.1769755 3.2796688
-0.65971351 1.1786935 3.2979939
-0.64101768 1.1665787 3.2915454
-1.3332665 1.2276995 3.2849679
-1.2861041 1.2250328 3.2833478
-0.61780149 1.233158 3.2706585
-1.3112837 1.2730488 3.2695487
-1.2792245 1.2753907 3.2855632
-0.62752867 1.2802074 3.2814441
-1.3188059 1.3236114 3.2756267
-1.2840585 1.3234411 3.2853863
-0.6201973 1.332763 3.2906494
-0.58969742 1.303493 3.2516043
-1.3162308 1.3732094 3.2801528
-1.2802565 1.3669282 3.2887127
-1.3067176 1.4248244 3.2776494
-1.2827382 1.4315892 3.2894604
-1.3095913 1.4809647 3.2811775
-1.2828497 1.4716408 3.2906828
-0.36270535 1.4763966 3.2638097
-1.3003173 1.5168335 3.2983298
-0.60195124 1.5242991 3.2593057
-0.58433199 1.522275 3.2571588
-0.39182875 1.5288564 3.2571411
-0.60876435 1.5841299 3.2815919
-0.57863998 1.5631926 3.2619624
-1.3964553 1.6142827 3.2574096
-0.56940103 1.6359529 3.2905397
-0.42367935 1.6220759 3.2577078
-0.57101154 1.6577085 3.2935159
-0.54084885 1.6614044 3.2638645
-0.43894958 1.6711344 3.2742333
-1.3523979 1.7324233 3.2544842
-0.51140928 1.7195895 3.2815089
-0.463177 1.7222461 3.2653229
-1.3410752 1.7947457 3.2534733
-1.3461392 1.8285712 3.2539659
-0.36306024 1.8202192 3.2629693
-1.3551247 1.8770386 3.2594728
-1.3376942 1.878027 3.2670536
-0.36758131 1.8742297 3.2776299
-0.33283484 1.8766187 3.2581396
-1.359535 1.9195445 3.2533083
-1.3327689 1.9202778 3.2634459
-0.38134152 1.9205199 3.2927523
-0.33795801 1.9269298 3.2633092
-1.3579022 1.9742285 3.2638175
-1.334394 1.9725549 3.2755556
-0.41904137 1.9591789 3.2987523
-0.36471137 1.9517258 3.29092
-0.33727115 1.9805593 3.2666585
-1.3657469 2.0225248 3.2645876
-1.3284001 2.0279949 3.2811947
-0.36764756 2.0206211 3.2931643
-0.33347148 2.0243011 3.2648003
-1.365937 2.0715327 3.261975
-1.340531 2.0713069 3.2900612
-0.36353257 2.077976 3.2872384
-0.33717525 2.0679882 3.2611763
-1.368468 2.1187072 3.2617857
-1.3270649 2.1222677 3.2924542
-0.3533316 2.1208286 3.2880387
-0.33414453 2.1304665 3.2678924
-1.3701484 2.1699042 3.2631493
-1.339511 2.1722879 3.290308
-0.35549092 2.1698282 3.290009
-0.33459225 2.1601024 3.2586846
-1.3626289 2.226366 3.2685318
-1.3258802 2.2185497 3.2888789
-1.289153 2.2242558 3.2893906
-0.35911825 2.2374227 3.299983
-0.33954278 2.2282999 3.2879789
-1.36322 2.2729726 3.2614992
-1.3310375 2.2768373 3.2857292
-0.35966408 2.2863774 3.2804427
-0.33408663 2.280494 3.2680137
-1.3294393 2.3262978 3.2756574
-1.2841517 2.3248184 3.2882187
-0.36099857 2.3314347 3.2722597
-0.34092134 2.3192103 3.2566528
-1.3516055 2.369874 3.2539222
-1.3191856 2.371676 3.2677717
-1.2793372 2.3779662 3.2788646
-1.2229824 2.3898146 3.2653508
-0.56450695 2.3885598 3.2750392
-0.54111576 2.3967032 3.2712789
-0.47628972 2.3961551 3.278609
-0.42805892 2.3850429 3.2684872
-0.38434482 2.3675456 3.2665496
-1.2732848 2.4044855 3.2513468
-1.0733421 2.4190366 3.2764785
-1.024879 2.420191 3.2804325
-0.9723776 2.4228442 3.2688332
-0.92703474 2.4196415 3.2711637
-0.8780694 2.4143739 3.2746
-0.82488543 2.4145746 3.276613
-0.7703498 2.4099369 3.2713418
-0.71822089 2.4120893 3.2745943
-0.52167535 2.4015551 3.2622218
-0.56046695 -0.45156235 3.3310335
-0.52500755 -0.46476436 3.3124876
-0.52117854 -0.43131837 3.3258469
-0.47881475 -0.40234372 3.3364136
-0.44237918 -0.39852554 3.3076339
-1.2265245 -0.069287911 3.3194098
-1.2510428 -0.04108905 3.3077183
-1.2273335 -0.031103561 3.3252385
-1.2517035 0.033249076 3.3094792
-1.2303259 0.021655723 3.3153634
-1.1901121 0.00018232272 3.3389049
-0.50987804 0.040220417 3.3413138
-0.48383436 0.037182163 3.3116739
-1.2500443 0.099218242 3.3041358
-1.23467 0.082796045 3.3117521
-1.2518821 0.13242239 3.3081539
-1.2295614 0.13269222 3.3212059
-1.2521496 0.1655107 3.3078313
-1.2301365 0.16587944 3.3217225
-1.2199084 0.3393167 3.3092811
-1.2453338 0.48338544 3.3165741
-0.76697069 0.59079355 3.3477986
-0.76648891 0.63140947 3.3406286
-0.76721573 0.67306614 3.338357
-0.76894265 0.72394133 3.3388681
-1.2223582 0.84041715 3.3041492
-0.68096066 0.8157537 3.3076322
-1.2238382 0.88096106 3.3157849
-1.1978956 0.88074315 3.3320503
-0.75799072 0.87835997 3.3414812
-0.68353009 0.85978258 3.3130543
-1.2262945 0.92711908 3.3228531
-1.2518809 0.98487997 3.3069124
-1.2239484 0.97310966 3.329911
-1.2615799 1.0177944 3.3060517
-1.2240669 1.0239832 3.3252766
-1.2581638 1.0751637 3.304404
-1.2279366 1.078598 3.3241746
-1.1983094 1.0741202 3.3478613
-1.2621733 1.1299487 3.3025606
-1.2327367 1.1257691 3.3269346
-0.65974903 1.128987 3.3102314
-0.64389348 1.1468736 3.312391
-1.2545035 1.168999 3.3111348
-1.2290738 1.1734225 3.3318164
-0.66203874 1.1661876 3.3137324
-0.64483535 1.1984903 3.3049235
-1.2607269 1.2206581 3.3073571
-1.2343743 1.2252859 3.3284125
-0.64103818 1.224002 3.3089316
-1.2581317 1.271548 3.3077602
-1.2323436 1.2747926 3.3332665
-0.65065974 1.2933002 3.3126347
-0.63619906 1.2699957 3.3017657
-1.2599105 1.3211887 3.3126173
-1.2406093 1.3256606 3.3302269
-0.63241899 1.3154875 3.3003597
-1.2572623 1.3783756 3.3109932
-1.2398763 1.376164 3.3359423
-1.2618573 1.4200921 3.3164778
-1.2395515 1.4312336 3.3412099
-1.2638061 1.4836335 3.3160598
-1.2487125 1.4654169 3.3347149
-1.3035455 1.5382819 3.3003561
-1.2682354 1.5287797 3.3225386
-1.241125 1.5307932 3.3490772
-1.307137 1.5602515 3.3031726
-1.2786574 1.5715702 3.3189158
-1.2436668 1.560688 3.3466897
-0.61258608 1.5769321 3.3081431
-0.40533024 1.5877353 3.311795
-1.3052397 1.6332456 3.3294284
-1.2877049 1.6337566 3.335768
-0.61807799 1.6256618 3.3257048
-0.59842443 1.6278876 3.311832
-1.3098005 1.665992 3.3308611
-1.2824277 1.6745238 3.3344276
-1.3060797 1.7481282 3.3482435
-1.2791913 1.7182449 3.3381882
-1.283078 1.8770021 3.3484132
-1.2866422 1.9006727 3.3496153
-0.40123275 1.9407386 3.3068848
-0.41070402 1.9874969 3.3221924
-0.37992978 1.9816303 3.3150699
-0.40771684 2.0258932 3.3361371
-0.386985 2.0201974 3.3095975
-1.3194127 2.0894792 3.300976
-0.41072515 2.0769928 3.3438623
-0.39099616 2.0771301 3.3270226
-1.327883 2.1404545 3.3028071
-0.41288486 2.1333086 3.3396173
-0.38669276 2.1253026 3.3231494
-1.3132308 2.1754456 3.3043253
-1.2396947 2.1879671 3.3274879
-0.37563562 2.1641414 3.3165293
-0.38215286 2.2186434 3.3213952
-1.3057735 2.2610648 3.3031611
-1.2888463 2.283725 3.3038585
-0.41113421 2.2828321 3.3441744
-0.37391755 2.2657249 3.316119
-0.41290104 2.3297985 3.3384476
-0.382943 2.3262794 3.3176615
-0.5577693 2.3913052 3.3356526
-0.51892805 2.3945191 3.3264902
-0.47113401 2.3892181 3.324683
-0.42271361 2.3697283 3.3207397
-1.1084176 2.4096603 3.3289256
-1.0687298 2.4163735 3.3294518
-1.0219722 2.4173052 3.3229795
-0.97616833 2.4103456 3.3239381
-0.92604899 2.4133232 3.3203399
-0.87009448 2.4162292 3.3368447
-0.81490219 2.4125819 3.304368
-0.77923685 2.409421 3.3259375
-0.73205996 2.4191601 3.3294032
-0.51647419 2.4018157 3.3000069
-0.56404728 -0.4382149 3.3537295
-0.54715806 -0.42147952 3.3528509
-0.56643963 0.040816106 3.3863459
-0.53754628 0.040493537 3.3611157
-0.76858228 0.60847867 3.3528461
-0.80012298 0.78778625 3.3911881
-0.76479018 0.77581626 3.3584912
-0.77432901 0.82218599 3.3786881
-0.77097613 0.85904169 3.3781354
-1.1763672 0.93172181 3.3681107
-0.77039534 0.90957797 3.3931041
-0.74727845 0.93540668 3.3611512
-0.67919934 0.90029752 3.3706887
-1.1746901 0.97791994 3.3741517
-1.1748788 1.0242718 3.3822098
-1.2006462 1.0503805 3.36024
-1.1751406 1.0759813 3.383498
-1.2031449 1.1215987 3.3512304
-1.1792214 1.1244158 3.3838456
-1.0467695 1.120344 3.3844609
-1.2090307 1.1790966 3.3547947
-1.1801937 1.1725119 3.3834946
-1.21193 1.2253768 3.3516037
-1.1834722 1.2232194 3.380852
-1.2090371 1.2733092 3.3645263
-1.1814971 1.2741557 3.3907413
-0.76717925 1.2689965 3.3806989
-0.73883045 1.271874 3.3930154
-1.2153225 1.3254688 3.3633552
-1.1837977 1.3206667 3.3851135
-0.73782343 1.3120649 3.3995891
-1.2184683 1.3729149 3.3591139
-1.1852918 1.372753 3.3849089
-1.0818686 1.3669974 3.3774312
-1.2132925 1.423547 3.3693836
-1.1859231 1.4218076 3.3926127
-1.0817831 1.4194647 3.3613744
-1.2190471 1.4771471 3.3658159
-1.1896535 1.4797643 3.3864558
-1.2228074 1.5239341 3.3669255
-1.1966977 1.533356 3.3917925
-1.2230561 1.5685925 3.3709846
-1.1898611 1.56306 3.391104
-1.2728293 1.6262653 3.3707101
-1.2439711 1.6380638 3.3818421
-1.260075 1.6716572 3.3580341
-1.2329243 1.6767863 3.3848417
-1.3040445 1.7272203 3.3502557
-1.2697012 1.7300029 3.3661931
-1.2325901 1.7107897 3.3816426
-1.2701459 1.863762 3.3555615
-1.248793 1.8807657 3.3659134
-1.2630039 1.9160353 3.364428
-1.2309064 1.9219528 3.3778172
-1.2686163 1.9634519 3.373229
-1.2417361 1.9762903 3.3907883
-1.2597513 2.0238483 3.3725369
-1.2357483 2.0211535 3.3963337
-0.42935801 2.0435879 3.3635662
-1.2591462 2.0852089 3.3762717
-1.2422571 2.0696068 3.3963282
-0.43992668 2.0779159 3.3616657
-1.2653461 2.123914 3.3788424
-1.2480618 2.126775 3.3889205
-0.46266702 2.1354632 3.376066
-0.43268532 2.1232352 3.3595181
-1.2520132 2.1811347 3.3754864
-1.234924 2.1750553 3.3913057
-0.45569652 2.1734142 3.3798566
-0.43041965 2.1819992 3.3704889
-0.39750007 2.1756594 3.351167
-1.2397828 2.2219102 3.3848002
-0.47842452 2.2210019 3.3944948
-0.4286876 2.2225549 3.364085
-0.39889774 2.201659 3.3537047
-0.46123338 2.2744219 3.3828783
-0.43421057 2.2691534 3.3651705
-0.54169214 2.3277874 3.3964715
-0.47683623 2.3208506 3.3875058
-0.44356096 2.3261013 3.3673153
-0.99306947 2.39961 3.3633816
-0.55987257 2.3721011 3.3642159
-0.52332824 2.3770528 3.3760328
-0.47487894 2.3704996 3.3722284
-0.44449061 2.3590441 3.3589849
-1.1118792 2.4091568 3.3881617
-1.0777764 2.4126372 3.3718996
-1.026242 2.4098825 3.3707223
-0.96393323 2.4130983 3.3771312
-0.92999816 2.4146535 3.3739147
-0.88217276 2.4124489 3.377701
-0.82667476 2.4187572 3.368959
-0.77382982 2.4130676 3.3804259
-0.72384727 2.4155996 3.3794606
-0.69867569 2.4343791 3.356931
-0.70030683 2.459131 3.3535616
-0.61009854 0.049888086 3.4450076
-0.58856398 0.033006281 3.4184136
-0.86454922 0.78386563 3.4418414
-0.83281606 0.78652668 3.4192879
-0.77126861 0.75884682 3.4222851
-0.90206373 0.80397761 3.4463465
-0.86139363 0.82036203 3.4474707
-0.81972212 0.8265875 3.4158397
-0.82214254 0.87774521 3.4340835
-0.79193473 0.88959622 3.4152942
-0.81202662 0.90156615 3.4243577
-0.77500427 0.92343283 3.4116476
-1.1265581 0.97498035 3.4283016
-1.1296737 1.0255719 3.4279037
-1.1582061 1.0587804 3.4000375
-1.1304767 1.0740925 3.4275625
-1.0996486 1.0868458 3.4463573
-1.150275 1.1375185 3.4162793
-1.1256174 1.1194295 3.431946
-0.8102023 1.1441407 3.4462662
-0.79063886 1.140918 3.4393561
-1.1564661 1.1729203 3.407479
-1.1330045 1.1754929 3.4296649
-0.81198812 1.1727309 3.4477477
-0.78274339 1.1766099 3.4357884
-1.1559311 1.2222524 3.4135127
-1.1352044 1.2283778 3.4369557
-0.81384671 1.2015289 3.4493682
-0.7719605 1.226366 3.4253616
-1.157937 1.2684177 3.4078522
-1.1351571 1.2793256 3.4369361
-0.76009351 1.2705601 3.4034281
-1.1596508 1.3282949 3.4124436
-1.1343606 1.32609 3.4396591
-1.0921046 1.3268307 3.424547
-0.80171907 1.3322029 3.4434202
-0.77354026 1.3294119 3.4301238
-1.1555431 1.3737609 3.4171472
-1.1306279 1.3782496 3.4379439
-0.8047176 1.3723767 3.4465179
-0.77459699 1.3745251 3.4316955
-0.73406267 1.3729554 3.4089746
-1.1651961 1.4233176 3.4121299
-1.1311216 1.4221866 3.4331424
-0.77264416 1.417367 3.4366078
-0.72682226 1.4105355 3.4071286
-1.1675599 1.4736044 3.417099
-1.1391966 1.4750904 3.4378865
-1.1719187 1.5280823 3.4183404
-1.1395384 1.5239145 3.4412041
-1.20664 1.5913042 3.4045322
-1.1639166 1.5584395 3.4358015
-1.2232518 1.6285152 3.4136951
-1.1849177 1.636632 3.4302826
-1.2140594 1.6647801 3.402648
-1.1818899 1.6707691 3.4244623
-1.2031286 1.7114995 3.4145212
-1.1848603 1.7173277 3.4398644
-1.2537208 1.7585872 3.4323967
-1.2385672 1.7633543 3.4468055
-1.2152513 1.9808335 3.4141693
-0.5770188 1.9685967 3.4307392
-0.54304582 1.9538012 3.4328208
-1.2148763 2.0334332 3.4249096
-0.60270405 2.01583 3.4340224
-0.58018214 2.022141 3.4378154
-1.2211213 2.0819159 3.4246323
-0.60747445 2.0689034 3.4445314
-0.58964944 2.0807347 3.4469924
-1.2242134 2.1252995 3.4147685
-0.60867512 2.1008797 3.4385095
-0.59148622 2.1058557 3.4491277
-1.2181525 2.1695948 3.408113
-0.47810069 2.1917081 3.4063375
-1.2232461 2.2170632 3.4026306
-0.5119465 2.2834826 3.4100215
-0.4823274 2.2766993 3.4030929
-0.51470578 2.3335745 3.4083705
-1.1215425 2.3908997 3.4400086
-1.1170604 2.4008808 3.4152141
-1.0696635 2.408829 3.4294562
-1.0287731 2.4193039 3.4248269
-0.9701879 2.4190464 3.4382248
-0.91487098 2.4115422 3.419076
-0.87729317 2.4089303 3.4164517
-0.82551062 2.4098186 3.4247653
-0.77446771 2.4060125 3.4187913
-0.72148961 2.4106002 3.4250193
-0.68871605 2.4185762 3.4323692
-0.66661268 0.033628847 3.4740453
-0.64755636 0.033508588 3.4639173
-0.66810149 0.05051348 3.4816594
-0.63906229 0.050208732 3.4639597
-0.70031673 0.11752085 3.4692276
-0.88474071 0.78667349 3.4512048
-0.90966326 0.82799977 3.4725926
-0.88390493 0.82837063 3.4591966
-0.87255633 0.8771162 3.4686856
-0.87815303 0.92018908 3.4748828
-0.83199328 0.92247564 3.4562452
-1.1076751 0.96352899 3.4677711
-1.0811466 0.98953176 3.4674218
-1.0936183 1.0224023 3.4608943
-1.1018986 1.0539395 3.4610889
-1.0915234 1.0699426 3.4542003
-1.1050076 1.1361868 3.4531026
-1.0892756 1.1381534 3.4630194
-1.1082621 1.1748621 3.4548812
-1.0937481 1.1782486 3.4688468
-0.86437058 1.1664585 3.4676316
-0.83411151 1.1707281 3.4666622
-1.1113089 1.2223939 3.4534101
-1.0943058 1.2231799 3.4596689
