ply
format ascii 1.0
comment PCL generated
element vertex 1528
property float x
property float y
property float z
element camera 0
property float view_px
property float view_py
property float view_pz
property float x_axisx
property float x_axisy
property float x_axisz
property float y_axisx
property float y_axisy
property float y_axisz
property float z_axisx
property float z_axisy
property float z_axisz
property float focal
property float scalex
property float scaley
property float centerx
property float centery
property int viewportx
property int viewporty
property float k1
property float k2
end_header
1.3766605 1.6724064 4.0413017
1.4151478 1.6851741 4.0392838
1.3745667 1.7296387 4.0419283
1.4116604 1.7240014 4.0282755
1.3718277 1.7695124 4.0328083
1.4127663 1.7676923 4.0178785
1.3804005 1.8221116 4.0315771
1.4208815 1.8204422 4.0269227
1.3946333 1.8706579 4.037179
1.4136851 1.8675835 4.0250583
1.3896703 1.9213352 4.0416598
1.4173129 1.9151781 4.0203881
1.3837227 1.9818354 4.038991
1.4138184 1.9680287 4.0282698
1.3453563 2.0320189 4.0479879
1.3777181 2.0211539 4.0436997
1.4216604 2.0221915 4.0344734
1.4575034 2.0377762 4.031127
1.3832989 2.0727482 4.0435152
1.4282681 2.0750458 4.0365696
1.4715544 2.0748477 4.0243163
1.5207492 2.0760009 4.0072722
1.3769412 2.1231112 4.0424924
1.4250963 2.1256909 4.0297508
1.4759121 2.1245821 4.0188828
1.5195318 2.1246696 4.0065956
1.3709614 2.174427 4.0421305
1.4198954 2.1702695 4.0260978
1.4761193 2.1803284 4.0203166
1.522813 2.1745203 4.0094037
1.3771911 2.2282317 4.0422497
1.4216107 2.2290759 4.0320926
1.4709623 2.2251561 4.015954
1.527032 2.2345643 4.007843
1.5665534 2.2213054 4.0016303
1.3031325 2.2879231 4.0468154
1.3878193 2.2873054 4.0411983
1.4272093 2.281949 4.0289559
1.4722823 2.2835128 4.0193892
1.512442 2.2794492 4.0086637
1.5534346 2.2782993 4.0119596
1.2832818 2.3137836 4.0493608
1.3202994 2.3318183 4.0484152
1.3729582 2.3327851 4.0418611
1.4247541 2.335093 4.0219402
1.473999 2.3325005 4.0170937
1.528005 2.3213217 4.0149007
1.564898 2.3138795 4.0070071
-2.0744298 2.3701446 4.0378017
-2.0420716 2.3709793 4.023653
-1.9272075 2.3659353 4.0020561
-1.8704529 2.3660197 4.0238428
-1.8166959 2.3779068 4.0114775
-1.7592812 2.3768048 4.0297542
-1.726756 2.385762 4.0039215
-1.5530131 2.3832769 4.0024767
-1.5353067 2.390368 4.0211596
-1.4342612 2.3931355 4.0039101
-1.3674132 2.3924263 4.020854
-1.3228166 2.39186 4.0314159
-1.2718612 2.3793602 4.0213571
-1.199654 2.3891628 4.0064597
-0.98629481 2.3984103 4.0187597
-0.87691599 2.3973315 4.0361857
-0.707546 2.3989079 4.0168891
1.2446144 2.3902535 4.0479016
1.2782736 2.3911428 4.041389
1.3237491 2.3822508 4.0391021
1.3701146 2.3858619 4.0337067
1.4231405 2.3818092 4.0118489
1.4810069 2.3747406 4.0080671
1.5231757 2.3622706 4.0069404
-1.3526846 2.4056096 4.0488572
-1.0202297 2.4013393 4.0174189
-0.95740885 2.4079974 4.0408921
-0.90694815 2.4120901 4.0090342
-0.87342238 2.4095221 4.0102768
-0.83212268 2.4156528 4.0275235
-0.77645451 2.4115906 4.028975
-0.73240536 2.4096134 4.0318718
-0.69089884 2.4162483 4.0487843
-0.62234157 2.4252682 4.0257435
-0.56629109 2.4170723 4.0181923
-0.52493107 2.4253192 4.0363345
-0.47589234 2.4216411 4.0194049
-0.42145345 2.4269123 4.0366302
-0.3703227 2.4267666 4.0058403
-0.32764977 2.4290864 4.012495
-0.27446064 2.4336221 4.0230088
-0.21700871 2.4261076 4.0284038
-0.18109797 2.4254081 4.0285659
-0.12369104 2.4324446 4.0266743
-0.069759578 2.4284244 4.0210104
-0.026912622 2.4382095 4.0376039
0.026966175 2.4408553 4.0238261
0.077298023 2.4428375 4.0296578
0.12042441 2.4433444 4.0297151
0.17779994 2.4352758 4.02986
0.23524427 2.4422529 4.0240817
0.28532302 2.4441175 4.0171747
0.31886378 2.442874 4.0359521
0.37256464 2.440861 4.0291238
0.42605311 2.4378924 4.0202074
0.47043166 2.444448 4.0273809
0.52441096 2.443804 4.0212464
0.58230537 2.4377534 4.0204887
0.62106323 2.4413972 4.0067968
0.67280996 2.4366226 4.0272264
0.73414093 2.4365878 4.0307226
0.77745926 2.4361892 4.0238609
0.82166767 2.4382744 4.0207076
0.87693632 2.4352157 4.0183916
0.92190456 2.4371388 4.0179286
0.96973199 2.4385395 4.0316672
1.0266211 2.438086 4.0320911
1.0704985 2.426991 4.0282688
1.1271511 2.4198067 4.0280786
1.17855 2.4128048 4.0339003
1.2268634 2.4138291 4.0279107
1.2712258 2.414279 4.0180206
1.3200655 2.4087641 4.0125151
1.3664857 2.4127598 4.0076094
1.4942391 2.4003756 4.0002246
0.26346925 2.4519002 4.0083952
0.32836214 2.4548416 4.0095773
0.4685486 2.4561219 4.001153
0.9903394 2.4517677 4.0146132
1.0132598 2.4542823 4.0145211
-1.0936706 -0.46929842 4.0748186
-1.097235 -0.38064525 4.0943408
-1.0929334 -0.31926522 4.0816817
-1.1052006 -0.25757942 4.0526485
-1.0928712 -0.27931276 4.0833592
-1.1068361 -0.2281667 4.0598116
-1.0962927 -0.2201255 4.098577
-1.1091892 -0.15902629 4.0706224
-1.0924964 -0.19940813 4.0850539
-1.1112254 -0.12941222 4.0787745
-1.1105006 -0.079578675 4.0769196
-1.1100223 -0.039674591 4.0755486
-1.1106462 0.020084651 4.0778737
-1.1117499 0.069967568 4.0815372
-1.1112232 0.11972836 4.0787826
-1.1092275 0.17926371 4.0699501
-1.1129768 0.21977106 4.0823956
-1.1114777 0.27931428 4.0743828
-1.115737 0.36042556 4.0857582
-1.1191783 0.43181354 4.0937357
-1.1116611 0.49870971 4.0608439
-1.1110365 0.51836151 4.0568666
0.86298859 0.53882575 4.0998836
1.0226576 0.53889501 4.0756326
1.0693278 0.53727978 4.0547771
-1.1178572 0.56165266 4.0781579
0.84297478 0.56871277 4.0996237
0.87294799 0.57872319 4.0947375
0.92205906 0.5782519 4.084034
0.97179085 0.57817799 4.0758557
1.0208029 0.57775182 4.0644698
1.0592697 0.56705225 4.0533285
-1.1165668 0.62106568 4.0675025
0.87427878 0.62957919 4.096077
0.92335945 0.62899154 4.0848956
0.9724865 0.62848353 4.0738058
1.0219057 0.62822199 4.0638661
1.0609784 0.63770968 4.0528555
-1.1187646 0.67252403 4.0700912
0.92474413 0.66992968 4.0867715
0.9739576 0.67938739 4.0745587
1.0232602 0.67896813 4.0637593
1.0677068 0.67369366 4.0547614
-2.1234283 0.74557376 4.0527115
-1.6459402 0.74335098 4.0638614
-1.1154714 0.72055 4.0522761
0.87841451 0.72525704 4.0952926
0.92563343 0.7205894 4.0848427
0.9757092 0.73064965 4.0760632
1.0244577 0.72973615 4.0626502
1.0713919 0.73328227 4.0552788
-2.1296146 0.7690993 4.0615754
-1.5696796 0.77057481 4.0796337
-1.5375421 0.77173781 4.0742731
-1.4850674 0.77280664 4.0739779
-1.417421 0.78987646 4.0688777
-1.3725157 0.78607285 4.0777674
-1.327348 0.79362911 4.072288
-1.2722403 0.79098541 4.0698848
-1.1599621 0.78361493 4.052649
-1.1394092 0.78329098 4.0548711
0.87741697 0.77222043 4.0945859
0.92716932 0.77191192 4.0854683
0.97765964 0.77221501 4.0791965
1.0266567 0.77137464 4.06638
1.0761763 0.77097964 4.0555258
-2.1357548 0.83556253 4.0639038
-1.4533074 0.80143589 4.0856199
-1.4229538 0.82222891 4.0915475
-1.3794975 0.83108759 4.0928564
-1.332801 0.82754219 4.0848494
-1.2756441 0.82361031 4.0766044
-1.2213507 0.82127023 4.0757351
-1.1742171 0.82678986 4.0597215
-1.1436 0.81641483 4.0656996
0.88263446 0.81071025 4.0979934
0.92421013 0.82164532 4.0923901
0.97283351 0.82717121 4.0847297
1.0279241 0.82249248 4.0647235
1.0722647 0.8268919 4.0531206
1.1092647 0.843391 4.0516882
-1.4719367 0.87834179 4.0959353
-1.421703 0.87152964 4.0917292
-1.3791841 0.87191641 4.0860696
-1.3261772 0.87421304 4.0779057
-1.2762049 0.87403911 4.0801721
-1.2247698 0.87441391 4.0798879
-1.1713722 0.87585205 4.0806212
-1.1493548 0.89141399 4.0759745
0.92584115 0.88058883 4.0960526
0.97163558 0.87610346 4.0839024
1.0210791 0.87534451 4.0720134
1.072136 0.87597686 4.0661082
1.1214138 0.87516344 4.0530405
-1.376331 0.9320752 4.0921817
-1.3185971 0.92650878 4.087678
-1.2737654 0.93134433 4.0903683
-1.2280036 0.92766595 4.0828533
-1.1801599 0.92212653 4.0667591
-1.1455445 0.91873431 4.0578237
0.97370178 0.918338 4.0865707
1.024302 0.91848707 4.0788226
1.0715853 0.92551357 4.0667934
1.1238748 0.92748934 4.0542235
1.154373 0.91761869 4.0509481
-1.3635564 0.96767461 4.090929
-1.3244723 0.97354597 4.0942521
-1.2715228 0.97822082 4.0824919
-1.2285371 0.97904795 4.0764289
-1.1744155 0.97435927 4.0665345
-1.1493002 0.97239763 4.0630193
0.93617839 0.96159554 4.0990496
0.9770934 0.97216105 4.0927458
1.0282247 0.97267085 4.0864005
1.0812211 0.97797328 4.0739694
1.1270337 0.98064554 4.0575094
1.1688988 0.9919641 4.0528917
-1.4034714 1.0361296 4.0995774
-1.3680279 1.0328168 4.0937967
-1.3226652 1.0193579 4.0924883
-1.2781636 1.0372362 4.0872726
-1.231361 1.0324391 4.0770888
-1.1811907 1.0276189 4.0761042
0.98053539 1.0263946 4.0987859
1.0216213 1.0268525 4.093801
1.0768683 1.0232406 4.0778327
1.1262295 1.0279067 4.0703859
1.1715932 1.0246974 4.0570283
1.2020134 1.0145465 4.0526443
-1.3702124 1.0551615 4.0966773
-1.3255117 1.062797 4.0939445
-1.2260956 1.0741957 4.0889153
-1.1868581 1.069705 4.0787401
0.98129886 1.0678744 4.0948601
1.0249577 1.0759759 4.0879683
1.0696924 1.0729296 4.0742807
1.1271838 1.0728608 4.0706263
1.1745001 1.0780958 4.0579453
1.2049882 1.0780778 4.0517492
-1.2074305 1.1101508 4.0932236
-1.1866115 1.1098981 4.096467
0.98506427 1.1332265 4.0992823
1.0219977 1.1277864 4.0898118
1.0790312 1.1271825 4.0843821
1.1249267 1.1251243 4.0740657
1.1796746 1.133916 4.0661969
1.2171643 1.1265808 4.0550222
1.0322906 1.1746702 4.0933213
1.0799105 1.1773372 4.0866852
1.1304965 1.1767554 4.0750227
1.1758806 1.1709791 4.0581441
1.2187145 1.1797302 4.0550013
1.0720543 1.2209992 4.089304
1.1237878 1.2214881 4.0813551
1.1745247 1.2209011 4.0693116
1.2242954 1.2193967 4.0537367
1.0755394 1.2764513 4.0916233
1.1271225 1.2765989 4.0824533
1.174786 1.2727287 4.0691576
1.2271158 1.2798265 4.0582886
1.0687592 1.3322828 4.095551
1.1218886 1.3340855 4.0914054
1.1746304 1.3352758 4.0848789
1.2219802 1.3293097 4.0710573
1.123669 1.3776363 4.0882845
1.1764839 1.378842 4.081615
1.2279844 1.3785139 4.069839
1.2666702 1.3755112 4.0519919
1.0417817 1.4099753 4.0999556
1.1264236 1.4225478 4.0882626
1.1787574 1.4230652 4.079442
1.2273562 1.4220136 4.0728388
1.1162968 1.4654971 4.0951271
1.172771 1.4701246 4.0864348
1.2246457 1.4698458 4.0748348
1.2644562 1.4676838 4.0597496
1.128263 1.5278635 4.0976224
1.1759267 1.5159202 4.0866275
1.2268453 1.5142789 4.0712423
1.2677356 1.523694 4.0565057
1.3025149 1.5486847 4.054605
1.1358912 1.5706201 4.0873675
1.1690928 1.5716888 4.0962348
1.22332 1.5649136 4.0853658
1.2746503 1.5844637 4.06425
1.3155708 1.5832012 4.0513439
1.1812418 1.6297992 4.0970006
1.2273676 1.6227741 4.0840778
1.2766293 1.6289597 4.0585694
1.3208851 1.6317222 4.0557022
1.1897572 1.681839 4.0932856
1.2263097 1.6776674 4.0807877
1.2752475 1.6796089 4.0627112
1.3258283 1.6800795 4.058291
1.3607792 1.6947259 4.0572867
1.1938831 1.7301416 4.0947118
1.2231928 1.7265924 4.0795112
1.2744812 1.7243494 4.0624232
1.3312842 1.7294464 4.0620632
1.3639448 1.7199038 4.0602031
1.1998402 1.7921017 4.0985436
1.2319156 1.7729092 4.0838423
1.2742211 1.7700672 4.0634613
1.3284622 1.7787613 4.0603247
1.1727723 1.8297987 4.097857
1.2271302 1.8288128 4.0877213
1.2755864 1.825678 4.0751896
1.3247299 1.8236526 4.0645852
1.3608134 1.8255167 4.0544596
1.1717441 1.8730251 4.0945377
1.2254009 1.8732872 4.0836253
1.2790663 1.8734946 4.0720029
1.323682 1.8760854 4.0675454
1.3658624 1.8751559 4.0550332
1.1418811 1.9088533 4.0983644
1.1885259 1.9256908 4.0987239
1.219877 1.9242615 4.0886869
1.2738836 1.9246649 4.0774331
1.3290389 1.926735 4.0691051
1.3612351 1.9266248 4.060956
1.1927776 1.9757737 4.098258
1.2249378 1.9754429 4.0904922
1.2777776 1.9737391 4.0747113
1.3310449 1.9727633 4.0598736
1.3710166 1.969848 4.0527477
1.1781589 2.025691 4.0947876
1.2274272 2.0227153 4.083096
1.2709205 2.0231047 4.074017
1.3199613 2.0198998 4.0608764
1.1730032 2.0708184 4.0943556
1.2261858 2.0770421 4.0850272
1.274691 2.0725355 4.0698142
1.3247526 2.0706284 4.059195
1.3515662 2.084842 4.0500665
1.1747221 2.1284106 4.0922656
1.225153 2.1240542 4.0811038
1.2798463 2.1244998 4.0694127
1.3231683 2.1241164 4.0581431
1.354447 2.1110544 4.050189
1.141596 2.1634715 4.0999856
1.1811781 2.1839216 4.0974469
1.2252734 2.1734378 4.0807004
1.2772377 2.1769681 4.0651898
1.3277962 2.1752777 4.0547962
1.1398278 2.2325788 4.0978475
1.179064 2.2270219 4.087275
1.223676 2.2283773 4.0799818
1.2725465 2.2233982 4.064065
1.3279543 2.2324967 4.0579615
1.1214716 2.2838268 4.0972886
1.1732 2.2808173 4.0890899
1.2283602 2.2809892 4.0771065
1.271349 2.2790823 4.0633812
1.327486 2.2754679 4.055624
1.3625128 2.2843285 4.0507874
-2.1088173 2.3480339 4.0662899
1.0877869 2.3417313 4.0941639
1.1204419 2.3297141 4.0904207
1.1753793 2.3292167 4.0777063
1.2313492 2.3307393 4.0679135
1.2730061 2.3365772 4.0604672
1.3218071 2.3345156 4.0531478
-2.0107603 2.3768003 4.0775642
-1.9827865 2.3826535 4.0714135
-1.9389229 2.3714294 4.065629
-1.8804948 2.3702602 4.0852509
-1.8488946 2.3821902 4.0640264
-1.7505931 2.3958738 4.0699558
-1.657766 2.3935447 4.0961361
-1.6219257 2.3970466 4.0601163
-1.5620983 2.3919611 4.0688858
-1.5286365 2.3925295 4.0799384
-1.4511793 2.3989387 4.0615592
-1.400867 2.3895662 4.0579243
-1.2229751 2.3914158 4.0549326
-1.0036939 2.3921046 4.052876
-0.98494124 2.3998663 4.0701389
0.99995095 2.3871171 4.0939302
1.0328313 2.3754582 4.0914907
1.0772206 2.3759258 4.0836048
1.1219682 2.3771157 4.0765429
1.1775947 2.3778861 4.0658917
1.2292207 2.374238 4.055891
1.2790475 2.3704243 4.0538936
-1.6960233 2.4059808 4.0532031
-1.4324232 2.4050717 4.0781574
-1.3880827 2.4060984 4.0919833
-1.3229516 2.4009824 4.0736361
-1.2610923 2.4007819 4.0629501
-0.96796221 2.4124038 4.0954356
-0.93372089 2.4148409 4.0732765
-0.85220784 2.4199731 4.0796652
-0.81628567 2.4113128 4.0701628
-0.7731781 2.4135792 4.0804744
-0.72795367 2.4091663 4.0791121
-0.66383612 2.4088285 4.0709724
-0.62660772 2.4146557 4.0657392
-0.56799906 2.4108286 4.0696254
-0.53250974 2.4143925 4.0793176
-0.47507104 2.4253848 4.0876899
-0.41985106 2.4218771 4.0862827
-0.37521684 2.4262528 4.0736613
-0.32499439 2.4229629 4.0760131
-0.27620912 2.4276032 4.0586982
-0.23294944 2.4282372 4.0618296
-0.16771412 2.4252217 4.0591903
-0.12470555 2.4305103 4.0691853
-0.070539854 2.4340553 4.0761175
-0.023501635 2.4293022 4.0839648
0.021761727 2.4259253 4.0744295
0.081401058 2.4296696 4.0686283
0.12481812 2.4308281 4.069747
0.16477174 2.4261041 4.0761852
0.2174332 2.4295769 4.0762739
0.27775475 2.4400229 4.0795069
0.32003057 2.4302664 4.0608044
0.37471113 2.4332395 4.0622673
0.43020824 2.4399123 4.0693741
0.47818473 2.4365265 4.0752058
0.52418417 2.4327226 4.0676165
0.57440531 2.4346309 4.0821924
0.62971908 2.4425669 4.0777507
0.67449009 2.4350114 4.0830584
0.72975832 2.4367378 4.0788012
0.77879381 2.4245992 4.0749145
0.8295089 2.4285164 4.0741529
0.87019181 2.4259338 4.0712147
0.92016613 2.4248853 4.0771246
0.97739929 2.4247115 4.0788031
1.0243667 2.4131522 4.0667329
1.0767848 2.4081078 4.0670953
1.1210909 2.4084096 4.0584373
0.26595032 2.4532657 4.0560818
-1.0911088 -0.46676561 4.1453104
-1.1035299 -0.42315423 4.1151886
-1.1042082 -0.36289588 4.1215701
-1.1086617 -0.34410965 4.1393399
-1.1018733 -0.24137227 4.1186976
-1.1024573 -0.18108915 4.12291
-1.0986286 -0.16039306 4.1091352
-1.1042793 -0.13097921 4.1309557
-1.0973864 -0.10007767 4.105722
-1.1005745 -0.060162272 4.1181455
-1.0937345 -0.070386775 4.1320982
-1.1074759 -0.026683303 4.1179838
-1.103458 0.020344373 4.1291084
-1.0976571 0.020197133 4.1074343
-1.1040738 0.070718557 4.1310325
-1.102087 0.12091845 4.1227708
-1.1020055 0.17124367 4.1212549
-1.1085566 0.23495275 4.1173983
-1.1229787 0.33256066 4.1140003
-1.1217636 0.38249639 4.1065888
-1.1163335 0.42459363 4.1229544
-1.1124698 0.46754059 4.1449771
0.677154 0.5417707 4.1460466
0.7253809 0.54035175 4.1295333
0.77484989 0.53995872 4.1204815
0.82401329 0.53943151 4.1099644
0.88371438 0.53930122 4.1006517
0.91299844 0.54486316 4.1399927
1.1582279 0.526151 4.1121769
0.63197219 0.57682765 4.1472411
0.67641664 0.57123959 4.1388183
0.72525829 0.57026786 4.1260858
0.77521443 0.57022321 4.1197033
0.82023859 0.57554179 4.1083217
0.64270806 0.61764807 4.146925
0.67695189 0.6218484 4.13726
0.72688794 0.62166315 4.1304641
0.77668613 0.62141061 4.1227002
0.82350492 0.62334502 4.1124115
0.87561226 0.63052672 4.1022501
0.64884526 0.67402697 4.1478686
0.67846626 0.6734879 4.1413021
0.72754031 0.67240924 4.1289635
0.77719629 0.6719662 4.1201444
0.82603043 0.67092031 4.1071968
0.87634826 0.67111814 4.1014533
0.64424872 0.72984314 4.1449156
0.67949694 0.72483689 4.1418805
0.72877067 0.72381353 4.1303115
0.77805024 0.72289795 4.1189566
0.82757825 0.72233987 4.1091456
0.86708421 0.70177001 4.1030741
-1.6604099 0.77557206 4.1256828
-1.6379361 0.78531599 4.1262817
-1.5964085 0.79075396 4.1075063
-1.528699 0.7880016 4.109818
0.6498298 0.76572251 4.1436763
0.68045288 0.77626491 4.1416292
0.72959453 0.7749545 4.1288829
0.7786901 0.77373296 4.1162448
0.82893038 0.77375746 4.1097798
-1.6605649 0.83329833 4.1479807
-1.6124682 0.83013898 4.1241002
-1.5638366 0.82123983 4.1079521
-1.5185962 0.81923723 4.1089025
-1.4763603 0.8321439 4.1089544
-1.4272892 0.84535587 4.1011295
0.67168164 0.82491845 4.1447177
0.72220546 0.82833928 4.1387782
0.77093714 0.82645261 4.1232257
0.82463217 0.82257462 4.1115203
0.86773908 0.83860576 4.1089602
-1.6343141 0.88322026 4.1331077
-1.5624853 0.87015635 4.1126909
-1.5194558 0.87692201 4.1092277
-1.4756024 0.89717358 4.1362586
-1.4404137 0.88833004 4.1005993
-1.3864946 0.8765564 4.1077127
0.6737721 0.89163935 4.1486645
0.7237277 0.8806805 4.140502
0.77360564 0.87986183 4.1304879
0.82237691 0.87796259 4.1150026
0.8733601 0.87849432 4.1104455
0.91286194 0.86757189 4.1021037
-1.6289612 0.93322462 4.1315765
-1.5700313 0.93436509 4.1180615
-1.5255494 0.92714298 4.1121588
-1.4779 0.92339754 4.1061873
-1.4338628 0.92174143 4.109086
-1.366828 0.90810108 4.1106625
0.69457781 0.92277497 4.145278
0.72467965 0.92237473 4.1399603
0.77548891 0.92257005 4.1345963
0.82459688 0.92081332 4.120142
0.87445688 0.92004824 4.1096692
0.92498642 0.92004234 4.1021523
-1.6659107 0.97353154 4.1400452
-1.6319987 0.97713661 4.1323266
-1.576265 0.97442299 4.1180162
-1.5301464 0.97173452 4.1177278
-1.4720136 0.96784019 4.1146569
-1.4191055 0.98030949 4.1157789
-1.371824 0.99425781 4.112299
-1.3133225 0.9891848 4.1030626
0.69614804 0.96551549 4.1484222
0.7266857 0.9757638 4.1435838
0.77730036 0.97552109 4.1363549
0.8274045 0.97470903 4.1262345
0.87722641 0.97369355 4.1147876
0.92219013 0.97804797 4.1042061
-1.6708218 1.0188179 4.1450129
-1.6160432 1.0295879 4.1428924
-1.5616014 1.0204113 4.1331215
-1.5116253 1.0255723 4.1208072
-1.4720132 1.0210278 4.1244388
-1.4252073 1.0280336 4.1215315
-1.3701092 1.0137053 4.1036482
-1.2928071 1.0098542 4.1043806
-1.1574738 1.0394679 4.1217041
0.72872615 1.0294548 4.1469264
0.7791779 1.0288135 4.1380329
0.82907063 1.0275369 4.1261969
0.87473118 1.0241824 4.1146708
0.92391014 1.0287284 4.1086326
0.95985484 1.0260053 4.1005197
-1.6022501 1.0579946 4.1425476
-1.5765371 1.0760331 4.1324687
-1.5223538 1.0688043 4.1295037
-1.4400914 1.0686566 4.1365395
-1.3741305 1.0789235 4.1046019
-1.3301287 1.0665283 4.1081643
-1.2683003 1.0879649 4.1064739
-1.2314215 1.0926481 4.1042848
-1.1653022 1.0783613 4.1035542
-1.1479255 1.0710211 4.1207166
0.69949299 1.0824832 4.1496501
0.73013961 1.0723025 4.1479435
0.77114046 1.0725321 4.1438265
0.82181484 1.0720245 4.1351705
0.87202692 1.0710323 4.1242385
0.92161202 1.0694009 4.1103921
0.96169293 1.068684 4.1012626
-1.4031806 1.1355362 4.1495976
-1.379728 1.1138693 4.1272244
-1.3302833 1.1207999 4.1226444
-1.2756053 1.1288558 4.1236048
-1.2291452 1.1312057 4.1145473
-1.1707681 1.1247153 4.115139
0.7778815 1.120847 4.1435418
0.82329804 1.1251104 4.1334095
0.87425846 1.1249059 4.1254711
0.92353177 1.122665 4.1096096
0.96950221 1.1176265 4.1035757
-1.3118868 1.1502275 4.1420374
0.77804083 1.1834193 4.1425061
0.82557446 1.1794933 4.1350589
0.87715155 1.1799135 4.1293144
0.92680639 1.1778772 4.1144624
0.97746849 1.1772037 4.1039815
1.0108826 1.1906378 4.1078906
0.77647495 1.2239655 4.1453652
0.8281886 1.224403 4.1400056
0.87931192 1.2239758 4.1313019
0.92601937 1.2211372 4.1219606
0.97492409 1.2247269 4.1115084
1.0219092 1.2223535 4.1029429
0.74674797 1.2669864 4.146965
0.77842683 1.2682652 4.1472354
0.82001609 1.2688172 4.1435871
0.86823636 1.2754492 4.1314497
0.92148662 1.2665507 4.1212301
0.97610855 1.2750165 4.1133146
1.0249521 1.2672061 4.1065135
0.78323239 1.3083621 4.1459727
0.81935155 1.318536 4.1407456
0.87782091 1.3313029 4.138947
0.92641157 1.3251038 4.1320262
0.97466457 1.3302708 4.1206293
1.0282446 1.3229706 4.1083589
0.87733299 1.3810692 4.1407428
0.92858964 1.3800511 4.1298475
0.9704082 1.3805575 4.1246834
1.0207665 1.3784992 4.1098361
1.0731245 1.3791996 4.1026735
0.83894366 1.4383303 4.1499267
0.87937146 1.4154702 4.1430163
0.92181951 1.4271895 4.1379623
0.97371042 1.4269121 4.128849
1.0204284 1.4273587 4.1154757
1.0777828 1.4268637 4.1105366
0.86855 1.476173 4.1461086
0.92671651 1.4679215 4.1309009
0.97559994 1.4714143 4.1265926
1.027837 1.4715308 4.1179996
1.0806148 1.4723728 4.110971
1.1336603 1.4839268 4.1014748
0.87378573 1.5175148 4.1442719
0.92729014 1.5194807 4.1416163
0.97957867 1.5193372 4.132772
1.021569 1.5194781 4.1260214
1.0725809 1.5175443 4.1113591
1.1146131 1.5177962 4.1041913
0.88716412 1.5540274 4.1482358
0.93086404 1.5674248 4.1466069
0.97576421 1.5716597 4.137341
1.0241532 1.5653542 4.1253614
1.0761945 1.5691754 4.1128645
1.1304226 1.567109 4.1104827
0.9282341 1.6193552 4.1463003
0.97282928 1.6269006 4.1359072
1.0284629 1.624698 4.128243
1.0689461 1.6295395 4.1213961
1.1229599 1.624097 4.1090603
1.1649314 1.6238085 4.1000328
0.93768579 1.6848841 4.1476431
0.97505856 1.6814649 4.1387739
1.0259453 1.6858284 4.1290879
1.075248 1.6846603 4.1231894
1.1234189 1.6817284 4.1125007
1.1632196 1.687785 4.1039386
0.92882502 1.7305142 4.1446781
0.97066814 1.7294264 4.1351233
1.0242189 1.7302777 4.1279912
1.0789526 1.7329926 4.1247783
1.1190846 1.7293133 4.1078744
1.1632049 1.7318434 4.1053739
0.93506914 1.7745706 4.1443272
0.97522742 1.7801785 4.1415644
1.0280458 1.7794181 4.1305485
1.0798948 1.7770643 4.1153078
1.1232975 1.7784359 4.1102309
1.1732248 1.7777443 4.1043196
1.2231511 1.7950155 4.1006155
0.93560261 1.8287001 4.1486616
0.97842729 1.8288279 4.1418371
1.0203464 1.8273028 4.1309443
1.0745711 1.8286833 4.1242652
1.126732 1.8266003 4.1092315
1.1577692 1.8143491 4.1026955
1.2031192 1.8183954 4.1028948
0.98120165 1.8769321 4.1397638
1.0239103 1.8765802 4.1314616
1.07691 1.8755549 4.1192951
1.1306689 1.8758695 4.1095691
0.93163115 1.9389437 4.1488252
0.97398525 1.9267573 4.1421914
1.0279062 1.9269731 4.133215
1.0705159 1.926203 4.1235967
1.1184776 1.925732 4.1076355
1.1674013 1.9263203 4.1046042
0.92614311 1.9712753 4.1476965
0.97734267 1.9766244 4.1417022
1.0301286 1.9743029 4.1273055
1.0726838 1.9732344 4.1170335
1.1231769 1.9726849 4.1114163
1.1640463 1.9794625 4.1032529
0.92520678 2.0238786 4.1438298
0.97494096 2.0216498 4.1361098
1.0262859 2.0248237 4.1229734
1.0754819 2.0216546 4.112371
1.1197724 2.0235631 4.1077518
1.1512748 2.011071 4.1016984
0.85189199 2.0839162 4.1479073
0.92956042 2.0877905 4.1436262
0.9715569 2.0737374 4.1339388
1.0267917 2.0756896 4.1281276
1.0797292 2.0730524 4.1126699
1.125078 2.0766304 4.1111202
0.89203054 2.1295981 4.1472969
0.93159169 2.1250517 4.1404152
0.9748596 2.1243644 4.1316609
1.019727 2.1270971 4.129189
1.0728511 2.1243603 4.1136079
1.1282845 2.1261783 4.1062889
1.1609389 2.1151967 4.10359
0.87255949 2.1717231 4.1478481
0.9235664 2.1754098 4.1383243
0.97923458 2.1776905 4.133348
1.0226332 2.176929 4.124033
1.0723456 2.1735618 4.1131082
1.1212665 2.182822 4.1034975
1.1659342 2.1681092 4.1041622
0.8841204 2.2299011 4.1482019
0.92234677 2.2245755 4.1368284
0.97590858 2.2310784 4.1299763
1.0248797 2.2255821 4.1156206
1.0685636 2.2252536 4.1066599
1.1091541 2.222435 4.1016836
0.88006955 2.286042 4.1455026
0.91932595 2.279465 4.1352038
0.97507626 2.2811401 4.1287522
1.0285282 2.2775378 4.1122208
1.0725145 2.2775035 4.1036754
1.1051109 2.2656789 4.1002402
0.87877321 2.3327725 4.140398
0.92296559 2.3327155 4.1330795
0.97393721 2.3308465 4.1258173
1.0257542 2.332463 4.1092453
1.0724953 2.3257751 4.1012769
-2.0713611 2.3582792 4.1033955
-2.0494828 2.3599498 4.1157598
-1.9281085 2.3776014 4.1402144
-1.87143 2.3880363 4.1243501
-1.7176478 2.3906732 4.1262317
-1.6836833 2.3914058 4.1386757
-1.6267943 2.3982701 4.1149988
-1.4623545 2.3948157 4.1031837
-1.4131302 2.3879521 4.1036968
-1.3832448 2.3947089 4.1242237
-1.2260472 2.3969147 4.114954
0.78199053 2.3962879 4.145947
0.83029139 2.3859785 4.1401405
0.8799274 2.3801401 4.1268802
0.92386585 2.379256 4.1180234
0.9684279 2.380064 4.1117134
1.0000669 2.3652806 4.1041322
-1.7490166 2.4022055 4.1384788
-1.6859689 2.4012661 4.1019874
-1.5981452 2.4066861 4.1399975
-1.5123216 2.4024487 4.1034427
-1.4467964 2.406497 4.1294417
-1.2747712 2.4043589 4.1171932
-1.204953 2.4106805 4.1194439
-0.97427815 2.4059076 4.1321249
-0.91546297 2.4198129 4.1176805
-0.87267804 2.4243038 4.1326389
-0.82455933 2.4135365 4.1211734
-0.78227806 2.4197466 4.1383061
-0.72637349 2.4184043 4.1436119
-0.67818272 2.4159083 4.1212149
-0.619259 2.4116352 4.1288409
-0.58710241 2.4151006 4.1064515
-0.52326125 2.4244041 4.1289663
-0.4779996 2.4185944 4.1230483
-0.42152107 2.409637 4.1122723
-0.37949848 2.4212012 4.13521
-0.32421157 2.4186549 4.134336
-0.26867321 2.4247017 4.1241264
-0.22855288 2.4292805 4.1258879
-0.18473256 2.4300292 4.1287942
-0.12036461 2.4261522 4.1200581
-0.074789874 2.4244344 4.1218877
-0.038150042 2.4244688 4.1066866
0.038273711 2.4238615 4.1056504
0.078638613 2.4272125 4.1265311
0.12241635 2.4262295 4.1240916
0.18041337 2.427072 4.108283
0.23609646 2.437748 4.1242704
0.28019083 2.4393182 4.1248732
0.324599 2.4318452 4.1333203
0.37499097 2.4327877 4.1270032
0.43788218 2.433116 4.1198292
0.47485939 2.4276953 4.1232352
0.52346861 2.4247098 4.1295233
0.56751513 2.4246376 4.1250315
0.62361753 2.428551 4.1256843
0.68052459 2.4236515 4.1345382
0.72411823 2.4214602 4.1251607
0.77219301 2.4183896 4.1212649
0.82410628 2.4119561 4.1185384
0.87924182 2.4114952 4.109107
0.93534356 2.4135554 4.1033483
0.95847821 2.4160762 4.1037455
-1.0860767 -0.47041485 4.1804881
-1.0903075 -0.42784822 4.1654797
-1.0940611 -0.37643239 4.1626844
-1.1012061 -0.30718273 4.1937537
-1.0965166 -0.33646801 4.1743345
-1.0951027 -0.26473099 4.1723442
-1.0936084 -0.22366714 4.1681924
-1.0961964 -0.17324319 4.1796551
0.44681248 -0.16055009 4.1913075
0.47733262 -0.16067806 4.1925302
-1.0963317 -0.12223003 4.1813254
0.34655207 -0.12044597 4.1998658
0.37653866 -0.12040275 4.1965833
0.42619061 -0.12025808 4.188231
0.47595736 -0.12014773 4.1814008
0.50765586 -0.12053633 4.192719
0.3461954 -0.08019425 4.1961398
0.37627655 -0.07015758 4.1944246
0.42600736 -0.070083104 4.187077
0.47584808 -0.070041381 4.1811833
0.50703168 -0.070197865 4.1882896
0.379812 -0.026699079 4.1966462
0.42611325 -0.030005835 4.1883922
0.47601077 -0.029987596 4.1829176
0.50646418 -0.03001339 4.1838889
0.34637836 0.010097591 4.1987829
0.37835002 0.016122805 4.1953096
0.42618164 0.020121882 4.1890745
0.47604331 0.020109909 4.1831703
0.50691408 0.020156922 4.1875987
0.38660422 0.08037965 4.1968064
0.42670348 0.070332095 4.1938128
0.47636229 0.070263416 4.1856117
0.50692111 0.070331767 4.1872845
-1.0975891 0.10225618 4.1863527
0.37663656 0.10047816 4.1979361
0.42905736 0.11797509 4.1914592
0.47662982 0.12045982 4.1871581
0.50740111 0.12063048 4.1904578
-1.0995358 0.18427165 4.1918559
0.34661129 0.16077018 4.1995287
0.36676556 0.1608002 4.1991754
0.42672411 0.17072739 4.1921926
0.47672063 0.17065281 4.1867909
0.50778937 0.17097765 4.1925058
-1.1126897 0.20339875 4.1602769
0.42686546 0.22099727 4.1919742
0.47688404 0.22091402 4.1866488
0.50797218 0.22135429 4.1924343
-1.1073726 0.2859619 4.1772947
0.38732189 0.2615779 4.1996884
0.42669964 0.27110317 4.1883564
0.47711518 0.27122924 4.1867766
0.50831956 0.26174158 4.1937842
-1.1126145 0.32169595 4.1750317
0.38767785 0.34236026 4.1997247
0.42764276 0.32200021 4.1952467
0.47783247 0.32192385 4.1906519
-1.1163955 0.37740922 4.1659184
0.43210912 0.3706679 4.1965885
0.47819728 0.37250283 4.191143
-1.1173921 0.41856232 4.166996
0.43070903 0.4256804 4.194417
0.4781417 0.42278305 4.1874785
0.43271285 0.476082 4.1955619
0.47905254 0.47400928 4.1918836
0.51023757 0.48498604 4.1965342
-1.12133 0.5224824 4.173852
0.43173385 0.51893711 4.1939154
0.47914961 0.52453321 4.188807
0.52256024 0.53096467 4.1824918
0.57444906 0.53306115 4.183917
0.62500924 0.53544986 4.1658211
0.67037028 0.52423978 4.1689601
0.72424269 0.52676058 4.1833963
0.77645707 0.52786595 4.1861033
0.82909364 0.5290513 4.1890035
-1.1225867 0.58458447 4.172997
0.4495948 0.57587039 4.1931858
0.47938961 0.5752691 4.1865492
0.52917415 0.57454604 4.1772752
0.57784534 0.57284713 4.1605473
0.61703372 0.56187963 4.150846
-1.1225944 0.62559557 4.1689882
0.43027535 0.62766784 4.198391
0.47010872 0.62681705 4.1898055
0.52955222 0.62539697 4.1755052
0.57863683 0.62395662 4.1614032
0.61636066 0.62745619 4.153904
0.4307206 0.67898691 4.1975336
0.47029519 0.67761642 4.186173
0.52064091 0.6773448 4.1805201
0.56993693 0.67588252 4.1671143
0.61909789 0.67449743 4.1538067
0.47115311 0.71939278 4.1893716
0.52105308 0.72846037 4.1781693
0.57043582 0.726955 4.1651101
0.61805856 0.72194135 4.1553664
0.43194214 0.77237266 4.1989727
0.47458091 0.77405769 4.1908321
0.52175713 0.78011048 4.177762
0.5711717 0.7784273 4.1643438
0.62220711 0.77905798 4.1628575
0.65143937 0.78781867 4.1514134
0.47278187 0.82356662 4.191524
0.52259904 0.82194936 4.1792874
0.57268471 0.8210333 4.1702008
0.62283808 0.82035589 4.161943
0.65192854 0.80862534 4.1519337
-1.6660068 0.87834537 4.1553984
0.43289807 0.87593478 4.1949759
0.47370678 0.8761003 4.1926985
0.52429062 0.87553144 4.1859765
0.5740695 0.87383455 4.1733737
0.62389624 0.87250304 4.1621046
0.6772666 0.86816615 4.152432
-1.7208072 0.93806064 4.165246
-1.6809809 0.9124648 4.15839
0.48501921 0.92916691 4.1943154
0.5257085 0.92893344 4.1899776
0.57541913 0.92680901 4.1759124
0.62541842 0.92544454 4.164855
0.66557372 0.9247418 4.1574602
0.47984362 0.96988297 4.1972008
0.52657217 0.97134984 4.1906176
0.57641643 0.96924382 4.1770077
0.62647563 0.9677422 4.1656332
0.67171001 0.98106509 4.1597352
-1.7164873 1.0056973 4.1730413
-1.6771206 1.0439603 4.1568627
0.47924089 1.0225331 4.1974564
0.52773339 1.0247364 4.1916275
0.57826328 1.0235161 4.1821108
0.62800866 1.0211962 4.1676917
0.67901927 1.0313436 4.1603637
-1.6745195 1.0752453 4.1648822
-1.6331749 1.0750248 4.1596479
-1.4255221 1.0945008 4.1563654
0.49838817 1.0686884 4.1990299
0.52903193 1.0786103 4.1933322
0.57943058 1.0768496 4.1818743
0.62980729 1.0753207 4.1709518
0.67584789 1.0716159 4.1598725
-1.6986363 1.1220785 4.1981959
-1.6412573 1.1124159 4.1742425
-1.548942 1.1288452 4.175066
-1.1601737 1.1449093 4.1531324
0.49912563 1.1217326 4.1961985
0.52911842 1.1198854 4.1867275
0.57045448 1.1203725 4.1849194
0.6214028 1.1195966 4.177032
0.67149127 1.1175125 4.1638813
0.72339481 1.1185027 4.1617141
0.76461017 1.1290333 4.1559267
-1.1867115 1.1713811 4.1651425
0.53125495 1.1656729 4.1960211
0.57242233 1.17583 4.1898189
0.62292844 1.1738163 4.1776347
0.6742034 1.1734891 4.1710553
0.72537231 1.173039 4.1635704
0.76501137 1.1604344 4.152319
0.57413012 1.2310648 4.192265
0.62469232 1.2287914 4.1794744
0.67592418 1.2280822 4.1716304
0.72679681 1.2268718 4.161592
0.77855247 1.2272186 4.1564369
0.57567465 1.2758589 4.1950765
0.62675762 1.2743049 4.1848807
0.67866272 1.2745237 4.1800623
0.71780443 1.2704608 4.1620541
0.57694626 1.3202534 4.19555
0.62856972 1.3195533 4.1882005
0.68021274 1.3189622 4.180809
0.72551799 1.3124678 4.1616659
0.77265924 1.3345217 4.1603608
0.83519316 1.3488851 4.1506729
0.62431526 1.3722699 4.189362
0.67424744 1.3772388 4.1809158
0.72359967 1.3744192 4.1751819
0.77211154 1.3753618 4.163435
0.82680243 1.3833549 4.1550074
0.62604135 1.4370238 4.1941652
0.67291665 1.4293433 4.1775031
0.7247836 1.4288317 4.1700139
0.776766 1.428516 4.1625724
0.82497102 1.4243011 4.1547904
0.86804271 1.433537 4.1538215
0.62403202 1.4788816 4.1951933
0.67687201 1.4798007 4.1921611
0.72739488 1.4758555 4.1749458
0.77476656 1.4722859 4.1652498
0.82505322 1.4766909 4.1581278
0.8832714 1.4635674 4.1512909
0.90616751 1.487752 4.152101
0.62836742 1.5193686 4.1909523
0.67876834 1.5260369 4.1934586
0.72996324 1.5230722 4.1791835
0.77143306 1.5220212 4.1710405
0.82410955 1.5223813 4.1649737
0.6698103 1.5717983 4.1936097
0.72174954 1.5700744 4.1828866
0.77375406 1.5792197 4.1699147
0.82711488 1.5700803 4.1692653
0.87611598 1.5733219 4.1605954
0.91108668 1.5695674 4.1556191
0.64021373 1.6191573 4.1992493
0.67095464 1.6167557 4.1895556
0.72364116 1.6164502 4.1826
0.77650541 1.6271515 4.17348
0.82448751 1.6132749 4.1672497
0.87817502 1.6228242 4.1580486
0.91400886 1.6380286 4.1516957
0.67698842 1.6616634 4.1941028
0.7301622 1.6712477 4.1894011
0.77947801 1.6757928 4.1775403
0.82153678 1.6750774 4.1700377
0.8717798 1.6774969 4.1614876
0.91761112 1.6869307 4.1560383
0.67828447 1.7294185 4.1937952
0.72612923 1.7264043 4.1850672
0.78197163 1.7343419 4.175581
0.82564068 1.7367041 4.175446
0.87661868 1.7322017 4.1568913
0.67874312 1.785198 4.1955323
0.72082293 1.7835526 4.1866136
0.77280968 1.7802778 4.1721573
0.82814443 1.7847455 4.1753635
0.87513864 1.7782485 4.1586523
0.91247547 1.7931764 4.154151
0.68061119 1.8329926 4.1939468
0.72789526 1.8315507 4.1944289
0.77631766 1.8312321 4.1779952
0.82937098 1.8302009 4.1683164
0.87155479 1.8288996 4.159102
0.91971326 1.8289672 4.1517982
0.68682623 1.8795258 4.1973114
0.72692889 1.8848209 4.1952205
0.77802211 1.8782353 4.1736445
0.83143854 1.8776867 4.1650357
0.87432051 1.877622 4.1585631
0.92441493 1.8770269 4.1550164
0.95142174 1.8923749 4.1520514
0.67896593 1.9345524 4.1961679
0.72795528 1.9306471 4.1871347
0.77059174 1.9294083 4.1789017
0.82287621 1.9256719 4.1633997
0.87786841 1.9283501 4.1612749
0.91710609 1.9242396 4.1552091
0.67530876 1.9775108 4.1870017
0.7301361 1.9797041 4.1851258
0.77259779 1.9776764 4.1752319
0.8258431 1.9758345 4.1638398
0.87969804 1.9755634 4.1552958
0.91348976 1.9894359 4.1529431
0.67194325 2.0287147 4.198153
0.7220034 2.0305948 4.1871824
0.77483773 2.0267711 4.1722994
0.82418615 2.023396 4.1636391
0.87739718 2.0305989 4.1602302
0.68172002 2.0835705 4.1962528
0.72457904 2.0814016 4.1865382
0.77777523 2.0779841 4.1725712
0.82096845 2.0772018 4.1649208
0.87920129 2.0738671 4.1546164
0.92943907 2.0657434 4.1510181
0.61865658 2.1463547 4.1997695
0.67288822 2.1338141 4.1945343
0.72678632 2.1315002 4.1833124
0.78056121 2.1291056 4.1714134
0.82431716 2.1293383 4.1657381
0.86384845 2.1245017 4.1588116
0.64142573 2.1712191 4.1948709
0.67469317 2.1834359 4.1892762
0.7189005 2.1844215 4.1858196
0.77272797 2.1815264 4.1730695
0.82622576 2.1780677 4.1587434
0.85988396 2.1911354 4.1536493
0.64414209 2.2244763 4.1957383
0.68121243 2.2330406 4.1908565
0.71722656 2.2309046 4.1823273
0.77542275 2.2331636 4.1704845
0.8303504 2.232955 4.1622868
0.86351383 2.2334027 4.1581621
0.64637685 2.2653689 4.1972308
0.67520481 2.2669227 4.1884046
0.72742581 2.2691817 4.1861892
0.77823001 2.2799022 4.170126
0.82730383 2.2837539 4.1576843
0.86591309 2.2727137 4.1564035
-2.1006854 2.3442972 4.1831512
0.64923775 2.3198037 4.1978927
0.68179828 2.3173356 4.1894712
0.72657865 2.3187461 4.1865101
0.76641756 2.3199351 4.1750731
0.82893944 2.3245301 4.1578903
-2.0512104 2.3654959 4.1869164
-1.9821497 2.3771658 4.1779094
-1.9057198 2.3787293 4.1507845
-1.8293467 2.3855109 4.1917024
-1.7624375 2.3973587 4.1808434
-1.6684802 2.3909292 4.170445
-1.6270074 2.3925169 4.1586232
-1.4089396 2.3965931 4.1740184
-1.3867342 2.3976452 4.1817484
-0.63818955 2.3981943 4.1676793
0.58485228 2.3842573 4.1978369
0.6214084 2.3746336 4.1931071
0.67578495 2.3731716 4.1818185
0.72554451 2.3736644 4.172236
0.7690056 2.3706551 4.1609883
0.81155354 2.3592651 4.1575055
-1.7418302 2.401016 4.1949072
-1.6113837 2.403507 4.1847444
-1.5207485 2.4111016 4.1711416
-1.4593556 2.4044828 4.1755853
-1.4406765 2.4115293 4.1939859
-1.3662128 2.4016933 4.1946015
-1.3234017 2.4090559 4.1661186
-1.2769964 2.4072587 4.1739063
-1.2445983 2.4104373 4.1873188
-1.1799808 2.417275 4.1624928
-0.98267269 2.4041207 4.1775455
-0.92258596 2.4162898 4.1596785
-0.87829387 2.4174638 4.1690192
-0.82310086 2.4198248 4.1816912
-0.76620549 2.4169178 4.1846857
-0.71871841 2.4077315 4.1747303
-0.67704535 2.4122198 4.1715837
-0.58316922 2.4224124 4.1675987
-0.52642649 2.4170086 4.1638145
-0.4727954 2.4259682 4.1842432
-0.42790514 2.4239264 4.184299
-0.38336873 2.4234197 4.1866393
-0.32675204 2.4154205 4.1763058
-0.2709496 2.4121513 4.1736231
-0.22712585 2.4271133 4.177599
-0.17890532 2.4209938 4.1767297
-0.13160948 2.4221082 4.1767731
-0.068320073 2.4250185 4.1860976
-0.031287394 2.4257052 4.1717124
0.022134587 2.4273841 4.1706429
0.071914174 2.4243956 4.1770353
0.12731913 2.4245179 4.1762733
0.17139763 2.4212685 4.1694908
0.22680841 2.4229047 4.17033
0.28193352 2.421267 4.1650038
0.33747795 2.4122179 4.1701736
0.36819184 2.4127171 4.1851592
0.42202693 2.4236946 4.1651406
0.47278738 2.4142933 4.1881394
0.52803069 2.4124954 4.1800976
0.5727936 2.4137995 4.1779647
0.6227845 2.4115775 4.163825
0.66160041 2.4021037 4.1719246
0.73908758 2.4010279 4.160265
-0.055917446 -0.50907797 4.2494164
-0.025263086 -0.50636017 4.2269111
0.015300168 -0.50681627 4.230751
-1.0677856 -0.47445068 4.2206306
0.039055403 -0.48115063 4.2447705
0.079613328 -0.47372067 4.2392192
-1.091287 -0.41363239 4.2325296
-1.0829096 -0.36599174 4.2237692
-1.0857797 -0.31892526 4.2164636
-1.1043534 -0.28751397 4.2066984
-1.091028 -0.2894336 4.2383232
-1.0883869 -0.2268662 4.230515
0.14030297 -0.16888179 4.2457738
0.17389452 -0.16869648 4.2403417
0.32773387 -0.16124898 4.216599
0.37713653 -0.1608081 4.2024164
0.41762984 -0.1609101 4.2026701
-1.0900395 -0.14451522 4.2393241
0.13677512 -0.12144589 4.2424712
0.17700762 -0.12126992 4.2348523
0.22713828 -0.12104751 4.2255654
0.27731982 -0.10075349 4.2198524
0.32447082 -0.12065306 4.2077742
-1.1018455 -0.081856899 4.2030163
-1.0907005 -0.082568742 4.2429605
0.12666221 -0.070832185 4.2439723
0.17687045 -0.070647746 4.232358
0.22704504 -0.070546918 4.2244582
0.28775376 -0.070597909 4.2248883
0.32280487 -0.068308182 4.2066231
-1.1075287 -0.03078872 4.2251105
0.13077141 -0.032365672 4.2458777
0.1770362 -0.030278217 4.2367015
0.22724696 -0.030230023 4.2286434
0.28706276 -0.030148897 4.2150297
0.32674518 -0.030093536 4.205544
0.36687493 -0.040132519 4.2024312
-1.1041363 0.020648068 4.212162
0.12924732 0.022850748 4.2456079
0.17709482 0.020288035 4.2381186
0.22700459 0.020230984 4.2243686
0.28197074 0.020190498 4.2143712
0.32103032 0.023040289 4.2061629
0.36683118 0.040254209 4.201879
-1.1053669 0.072101027 4.2164583
0.13077122 0.068944588 4.2455153
0.17708302 0.070850849 4.2373719
0.22713093 0.070691764 4.2262645
0.28768882 0.070704989 4.2238445
0.32705644 0.070488423 4.2091336
0.3737295 0.067086481 4.2035336
-1.1110494 0.13452888 4.2370815
-1.0917504 0.11399342 4.2464209
0.13680203 0.12158305 4.2431159
0.17682266 0.12124998 4.2304263
0.22705793 0.12110545 4.2238703
0.28769121 0.12113983 4.2230916
0.32713392 0.12081659 4.2094784
0.37699628 0.13072783 4.2013111
0.40732586 0.14084044 4.2011342
-1.1097542 0.1653354 4.2313981
0.13690926 0.17235617 4.2452283
0.17713104 0.17204788 4.2366629
0.22712696 0.17160533 4.224062
0.28795728 0.17177938 4.225842
0.32320198 0.17320654 4.2096767
0.38039613 0.17430337 4.200624
-1.1090674 0.22713943 4.2267981
0.12680767 0.22307897 4.2447248
0.1771118 0.22262335 4.2346706
0.2275282 0.22244191 4.2296653
0.28800222 0.22230507 4.2249274
0.32766715 0.2218238 4.2135816
0.37736943 0.22141011 4.2029991
-1.1061232 0.26770106 4.2139592
0.13093852 0.27190694 4.2453923
0.17732413 0.27351362 4.2376833
0.22752397 0.2729843 4.2279372
0.2876924 0.27252728 4.2184424
0.32783571 0.27234736 4.2136245
0.37446442 0.27539819 4.2061615
0.51001555 0.2828109 4.2069092
-1.1038184 0.32875934 4.2022181
0.13709839 0.3248401 4.245194
0.17738567 0.32427481 4.2368088
0.22767152 0.32374054 4.228117
0.28805736 0.32341957 4.2214279
0.32798237 0.32292262 4.2132502
0.37599683 0.31853837 4.2061744
0.51008105 0.32324016 4.2055016
-1.1115161 0.37238368 4.2291732
0.14739826 0.37596172 4.2464461
0.1776516 0.37549365 4.2403975
0.22825031 0.37527224 4.2363324
0.28869629 0.3747471 4.2280521
0.32822999 0.37365749 4.2136602
0.37823126 0.37318483 4.2055731
0.40822962 0.38302442 4.2004809
0.51055384 0.37408358 4.2066412
-1.1088613 0.42314816 4.2157927
0.14238529 0.42696515 4.245492
0.17780243 0.42658529 4.2407527
0.22807796 0.42568699 4.2302899
0.28827414 0.42477664 4.2187061
0.32886982 0.42498696 4.218821
0.37855545 0.42397213 4.2059937
0.40835857 0.40330815 4.2005625
0.51134175 0.42532298 4.2099395
-1.1117258 0.47589362 4.2229462
0.1373789 0.47806093 4.2443981
0.17787074 0.47755271 4.2389431
0.22417882 0.47866836 4.2291889
0.28930557 0.47703856 4.2302508
0.32917038 0.47600225 4.2191072
0.37906271 0.47507119 4.2081084
0.40886414 0.46437126 4.2016401
0.51194561 0.46633637 4.2120986
-1.1091478 0.52641368 4.2090125
0.14094062 0.51598102 4.2466278
0.18003404 0.52467537 4.2382751
0.22864999 0.52831995 4.232935
0.2896823 0.52847463 4.2317734
0.32927343 0.52678961 4.2163711
0.37928593 0.5259307 4.2066255
0.4196907 0.54608083 4.2019339
-1.1095754 0.57822967 4.2060566
0.12760317 0.59174758 4.2483611
0.17642991 0.57498813 4.2454247
0.22898664 0.57997155 4.2349515
0.28962183 0.57915348 4.2265234
0.32568854 0.57623667 4.2184572
0.37396118 0.57965863 4.2107992
0.42018783 0.57710767 4.2042727
-1.1184431 0.62444264 4.2356319
0.14808211 0.61246973 4.2482271
0.17858662 0.6223098 4.2439299
0.2249352 0.61869442 4.2318778
0.28957608 0.61969495 4.2220573
0.32021517 0.62002081 4.2227764
0.37291756 0.62656319 4.2119102
0.41034064 0.62813646 4.2028899
-1.1112323 0.67215258 4.2029448
0.17888637 0.67443419 4.2458076
0.21933758 0.67317003 4.2365794
0.29040411 0.67242932 4.2289786
0.32090047 0.67228842 4.2267299
0.36782667 0.67612296 4.2111678
0.41079327 0.67954791 4.2023234
-1.1213673 0.71999288 4.2366066
0.17910856 0.72642446 4.2455082
0.21959051 0.72499704 4.2358751
0.29097813 0.72477388 4.2317901
0.32114425 0.72376299 4.2244158
0.37139383 0.72240597 4.2136869
0.42195085 0.72186053 4.2073545
0.12823355 0.79973197 4.2472425
0.18443894 0.77848095 4.2442527
0.22021975 0.77824527 4.241859
0.29142287 0.77701741 4.2322459
0.32170829 0.77610105 4.2257905
0.37238553 0.77534747 4.2188587
0.42000976 0.77285445 4.202353
0.45244026 0.75234073 4.2016387
0.14891462 0.8212198 4.2492929
0.22029719 0.82979268 4.2372332
0.29173273 0.82899582 4.2303329
0.32267177 0.82960892 4.231925
0.37324271 0.82823473 4.2221389
0.42345527 0.82646894 4.2099495
0.17980489 0.87304544 4.2441244
0.22086075 0.87296605 4.2424011
0.29259002 0.8724966 4.2372923
0.32293141 0.87130761 4.230021
0.37332484 0.86933225 4.2176242
0.42167026 0.87802446 4.2056675
0.18026866 0.92678547 4.247786
0.2213306 0.9262771 4.2441192
0.29313937 0.92556864 4.2379851
0.32350478 0.92421037 4.230258
0.37401927 0.92218918 4.2181873
0.4252342 0.93240374 4.2133598
0.45492801 0.93026853 4.2015886
0.22524972 0.97641164 4.2460809
0.29371738 0.97890151 4.2386532
0.32417983 0.97757202 4.2313733
0.37528792 0.97669524 4.2247157
0.42609578 0.97535688 4.2157049
0.45576385 0.98318076 4.2015271
0.28389159 1.021859 4.2397904
0.32464355 1.0201985 4.2309399
0.37578991 1.0191741 4.2238264
0.42642912 1.0275159 4.2108788
0.4571653 1.0478442 4.2044725
0.22037402 1.0716479 4.2436185
0.28466287 1.0763777 4.2427435
0.32546243 1.0744282 4.232964
0.37695795 1.074036 4.2285657
0.4282828 1.083549 4.2203698
0.47476834 1.0834099 4.2080474
0.28513283 1.1300106 4.2407675
0.32368818 1.1353575 4.2453599
0.37775838 1.1280698 4.22859
0.42922282 1.1272973 4.2223892
0.47027507 1.1265748 4.2167187
0.28591534 1.1642488 4.2465925
0.3276529 1.175266 4.2448654
0.37865147 1.1722602 4.2310514
0.43009049 1.1710422 4.2233582
0.47021216 1.1677792 4.2085891
0.50638688 1.1832845 4.2027988
0.33874518 1.2089314 4.2470961
0.36967221 1.2182984 4.2396183
0.42390269 1.2204535 4.2272096
0.47212887 1.2244116 4.2157264
0.52674276 1.2298548 4.2084689
0.32893279 1.2633901 4.2452798
0.37285784 1.2741218 4.2415652
0.41974869 1.2748228 4.2317414
0.47382799 1.2809137 4.2205143
0.52525651 1.2793597 4.2111864
0.34074709 1.3314127 4.248868
0.37172028 1.3297226 4.2416973
0.4234601 1.3278574 4.232367
0.47478163 1.3252076 4.2201729
0.52648103 1.3240601 4.2123151
0.27836204 1.3863509 4.2483239
0.34159312 1.3872672 4.2480001
0.37244269 1.3743063 4.2408943
0.42430571 1.3724194 4.2317252
0.47590438 1.3701857 4.2210579
0.52710485 1.3673779 4.208148
0.57916325 1.3670744 4.2025423
0.3418217 1.4092315 4.2461243
0.37024656 1.4177328 4.2473531
0.42619285 1.4206446 4.2411442
0.47755226 1.4169272 4.2262249
0.52911872 1.419054 4.2137942
0.57744735 1.423633 4.2038345
0.61314559 1.4254869 4.2060256
0.37824133 1.4636062 4.2480798
0.43033963 1.4711368 4.2412519
0.47788256 1.4726871 4.2365608
0.51876277 1.4774091 4.2205033
0.5730055 1.4779991 4.2117381
0.38610792 1.5020407 4.2484365
0.42282802 1.5248927 4.2454934
0.47741663 1.5292119 4.2321239
0.52245259 1.5304587 4.221262
0.57415277 1.5276165 4.2086759
0.61647618 1.5386281 4.203239
0.38768896 1.5719283 4.2499728
0.41956067 1.582634 4.2453485
0.47201625 1.5804931 4.2357278
0.52343929 1.5756574 4.2184815
0.57647818 1.5761055 4.2148805
0.62844861 1.5738578 4.2036357
0.38849935 1.617795 4.2478161
0.42031926 1.6280456 4.2418523
0.47355899 1.6282306 4.2383747
0.52570528 1.6249388 4.2254949
0.57858056 1.6243943 4.2192025
0.61971617 1.6208916 4.2059588
0.43281198 1.6777989 4.2477741
0.47548389 1.677559 4.2439609
0.52712452 1.6719505 4.22539
0.5696134 1.6716532 4.2207918
0.6217944 1.6688501 4.2084322
0.66416693 1.6791316 4.2001009
0.47678468 1.7250723 4.24371
0.52842432 1.7187916 4.2238512
0.57098436 1.7183652 4.2189088
0.6241861 1.7179862 4.2126422
0.66510439 1.7027903 4.2000175
0.43545398 1.7848235 4.2461667
0.47773287 1.7714335 4.2397242
0.53106105 1.7702669 4.2324672
0.57303727 1.767413 4.2217002
0.62920916 1.7708026 4.2117743
0.37096143 1.8063631 4.2441578
0.42559162 1.8209037 4.2461772
0.46820459 1.8190466 4.2386479
0.52145869 1.8171915 4.2298908
0.57424533 1.8140786 4.2177439
0.62376809 1.8209715 4.2118235
0.65086478 1.829019 4.2164831
0.71503174 1.8495827 4.2001925
0.43807974 1.8821409 4.2454624
0.47014725 1.8698343 4.2429647
0.52339846 1.8671347 4.2323527
0.57645178 1.874951 4.2172518
0.61969376 1.8754109 4.2139411
0.65903789 1.8892845 4.2040458
0.42840406 1.9197261 4.2472563
0.47170207 1.919395 4.2432585
0.52788633 1.9200221 4.2280736
0.57881069 1.9367288 4.2171578
0.62163377 1.9353507 4.2097616
0.65320867 1.9220055 4.2042985
0.43308386 1.9643155 4.2444854
0.47281235 1.9674079 4.2391047
0.52652377 1.972349 4.227138
0.58004683 1.9842278 4.2117081
0.62319493 1.9835857 4.2059021
0.44224775 2.0202143 4.2465973
0.4745177 2.0181618 4.2397609
0.51760364 2.0160725 4.2317052
0.57223123 2.0274467 4.2239375
0.62982011 2.0330789 4.2120585
0.65879482 2.0473709 4.2033324
0.44366014 2.0704954 4.2450294
0.4758282 2.0675013 4.2363372
0.52148443 2.0729825 4.2279105
0.57603955 2.0722635 4.2173138
0.62565804 2.079186 4.209321
0.66036069 2.0850022 4.2016578
0.42325506 2.1218262 4.2460399
0.47717923 2.1172826 4.2327681
0.51729244 2.1204662 4.2270598
0.56953788 2.1195502 4.2159996
0.63329464 2.1318805 4.2038145
0.43995377 2.1796596 4.2473683
0.47950774 2.1717255 4.2372594
0.5228821 2.1687605 4.2276802
0.57712764 2.165858 4.2168007
0.62099934 2.1764736 4.2074337
0.42643467 2.2264612 4.2451553
0.48078647 2.2217498 4.2318721
0.5243988 2.2192338 4.2232475
0.57438946 2.2140393 4.2135668
0.62229228 2.2141309 4.2036524
0.38336292 2.2780294 4.244607
0.42289248 2.2733488 4.2380891
0.47566581 2.2754829 4.2279024
0.52646881 2.2723408 4.2226224
0.57027262 2.270278 4.21457
0.61394042 2.2679868 4.2057314
0.37360448 2.3309591 4.2430091
0.41794437 2.3294907 4.2372675
0.47333416 2.3279335 4.2301064
0.52826869 2.3246117 4.2192512
0.5726546 2.3242409 4.2142754
0.61710501 2.3241699 4.2094908
-1.9753304 2.3737254 4.2331972
-1.924685 2.3815677 4.2381353
-1.8711339 2.3855793 4.2357011
-1.8329018 2.3819156 4.2414117
-1.6709563 2.3996036 4.2146983
-1.640016 2.3884525 4.2022429
0.18485464 2.3971431 4.2478004
