ply
format ascii 1.0
comment PCL generated
element vertex 1466
property float x
property float y
property float z
element camera 0
property float view_px
property float view_py
property float view_pz
property float x_axisx
property float x_axisy
property float x_axisz
property float y_axisx
property float y_axisy
property float y_axisz
property float z_axisx
property float z_axisy
property float z_axisz
property float focal
property float scalex
property float scaley
property float centerx
property float centery
property int viewportx
property int viewporty
property float k1
property float k2
end_header
-0.27448991 -0.12427708 4.3371782
-0.22184169 -0.12379907 4.3223414
-0.16975868 -0.12347462 4.3121614
-0.13853531 -0.12316108 4.3024564
-1.0786549 -0.070255108 4.33915
-0.32292256 -0.074715003 4.3460565
-0.27408576 -0.072365277 4.3315659
-0.22190471 -0.072213225 4.3242526
-0.16952956 -0.071899675 4.307169
-0.13853502 -0.071830675 4.3031845
-1.0725698 -0.031572141 4.3443918
-0.30609709 -0.031074189 4.344326
-0.27439395 -0.031014495 4.3366408
-0.22187215 -0.030909782 4.3239613
-0.16955987 -0.030788247 4.3079758
-1.0767846 0.025402253 4.3260446
-0.31133288 0.026017915 4.3446536
-0.27413192 0.020751404 4.3324699
-0.22174785 0.020692892 4.3217092
-0.16967432 0.020636568 4.3110328
-0.13031551 0.024701387 4.3035703
-1.0684679 0.084361643 4.3272367
-0.32291102 0.070680037 4.3457799
-0.27420989 0.07251671 4.3333087
-0.22184546 0.072309814 4.3231134
-0.16959316 0.072042622 4.308589
-0.13168363 0.075354211 4.3030391
-1.0791355 0.12606454 4.3107643
-0.31429648 0.12871823 4.3411341
-0.27441764 0.12436803 4.335856
-0.2218404 0.12392228 4.3221092
-0.16973744 0.12356367 4.3114815
-0.13859627 0.12332992 4.3041925
-1.0918314 0.16894507 4.331202
-0.31649268 0.17652248 4.3415527
-0.27455947 0.17625307 4.3368163
-0.22196501 0.17562509 4.3234553
-0.16974381 0.17503874 4.3105149
-0.13866279 0.17479075 4.3050823
-1.0767919 0.23128442 4.3130522
-0.3063207 0.22856975 4.3434844
-0.27267402 0.23236561 4.3382173
-0.22225462 0.22756992 4.3275189
-0.16995734 0.22679265 4.3142576
-0.1386292 0.21584383 4.3028011
-1.0840827 0.27428079 4.325851
-0.41140482 0.27093083 4.3491864
-0.31333154 0.27711454 4.34237
-0.27474484 0.2800886 4.3362513
-0.22204886 0.27901259 4.3215752
-0.1702172 0.27874523 4.3189797
-0.13208021 0.28154498 4.3100395
-0.0975108 0.28772885 4.3000474
-1.0858828 0.33106121 4.3304467
-0.31367618 0.32596841 4.3449388
-0.27474156 0.32156062 4.3342104
-0.22234483 0.32078266 4.3255591
-0.17016867 0.31993753 4.3158078
-0.12646319 0.32517725 4.3039002
-0.097556978 0.31870216 4.3006396
-1.0800939 0.35846776 4.3205118
-0.30671582 0.35367903 4.3435817
-0.2751511 0.37399209 4.3378959
-0.22253066 0.37280881 4.3263035
-0.17030694 0.37182772 4.3165317
-0.1307286 0.3749966 4.3061161
-1.0763671 0.42758775 4.3233032
-0.32833496 0.43102536 4.3488393
-0.27588826 0.42705315 4.346405
-0.22303951 0.42555842 4.3331532
-0.17055184 0.4240607 4.3194809
-0.12878421 0.42275593 4.3070936
-0.097673059 0.41170365 4.3005781
-1.0825787 0.47549349 4.322876
-0.31810239 0.46954668 4.3494349
-0.27239731 0.46519831 4.3436122
-0.22294275 0.47721133 4.3273315
-0.17047314 0.47557482 4.3141346
-0.13095099 0.47055498 4.3072252
-0.077145033 0.46005085 4.3006101
-0.27408579 0.51715142 4.3445201
-0.22324316 0.52977514 4.3291364
-0.17072171 0.52805257 4.3166046
-0.1291002 0.52714038 4.3100786
-0.097929031 0.53660268 4.3028536
-1.0829765 0.57074463 4.3165474
-0.30794507 0.58483267 4.344635
-0.27623892 0.57359421 4.3409357
-0.22343297 0.5718016 4.3292756
-0.17095433 0.57020783 4.3187585
-0.12923712 0.5691033 4.3113976
-0.098043717 0.57856351 4.3043385
-1.093303 0.62346852 4.3088689
-0.27117199 0.62083232 4.3390412
-0.22391754 0.62515008 4.3339386
-0.17112756 0.62268829 4.31846
-0.12936008 0.62143874 4.3108006
-0.091319852 0.63474566 4.3067622
-1.0983664 0.66880035 4.3245258
-0.30887637 0.69134456 4.34762
-0.27682596 0.67929959 4.3400621
-0.22404151 0.6776256 4.331327
-0.17166542 0.67668879 4.3269596
-0.1295757 0.67433536 4.3128147
-0.087943308 0.67321968 4.3063898
-1.0976858 0.72140712 4.3160529
-0.30917016 0.72345948 4.348361
-0.27712354 0.72188205 4.3402443
-0.22420777 0.71991855 4.3304501
-0.17178789 0.71886396 4.3256721
-0.12788405 0.72421819 4.3206077
-0.090107329 0.72576064 4.3052406
-0.21892467 0.77146751 4.3382401
-0.17218305 0.77270794 4.329639
-0.13226773 0.77544105 4.3219881
-0.088175185 0.77884281 4.3061986
-0.26786256 0.84074676 4.3466201
-0.22539991 0.8286078 4.3409753
-0.1721839 0.82488459 4.323071
-0.13025118 0.82385397 4.3186297
-0.088380799 0.82225984 4.3109612
-0.01549734 0.81060141 4.3062415
-0.26803678 0.87283683 4.3453097
-0.22529851 0.87016082 4.3334994
-0.17266777 0.86907339 4.3296928
-0.12834194 0.87302649 4.3183308
-0.078108586 0.87575155 4.3113651
-0.036339905 0.88480997 4.3037653
-0.26853007 0.91659224 4.3475394
-0.22629088 0.92673898 4.3457708
-0.17309177 0.92371458 4.3331151
-0.13301654 0.9266488 4.327611
-0.078274556 0.93001938 4.3141084
-0.22650623 0.98027205 4.3420119
-0.17388554 0.98071861 4.3456249
-0.13141465 0.97842771 4.3364415
-0.078311317 0.97214437 4.3094401
-0.036423795 0.97030437 4.3016644
-0.22143118 1.0181115 4.3405633
-0.17375518 1.0220903 4.335681
-0.13135943 1.0201015 4.3282557
-0.075484335 1.0206488 4.311645
-0.026062401 1.0252175 4.3050971
0.012289769 1.0391573 4.302979
-0.23803312 1.0690141 4.3463373
-0.17200764 1.0728161 4.3370275
-0.1238573 1.0787183 4.3330669
-0.075269543 1.072518 4.3199987
-0.029610118 1.0760344 4.3052039
0.0053245402 1.0894825 4.3008785
-0.2279712 1.1244978 4.3475852
-0.17823787 1.1159859 4.3448658
-0.1214295 1.1306168 4.3314853
-0.068341523 1.1266602 4.3170609
-0.026245829 1.1269131 4.3184004
0.0053326595 1.1121764 4.3040328
-0.22855285 1.1806062 4.3495169
-0.16462722 1.1903598 4.3463354
-0.1216616 1.1750928 4.332068
-0.068592861 1.1729443 4.3249598
-0.026264474 1.1699662 4.3142729
0.022178059 1.1827447 4.3043909
0.068435408 1.1568218 4.3062243
-0.1719137 1.220118 4.3458877
-0.12199587 1.2208294 4.3362222
-0.068785451 1.2187017 4.329442
-0.024236742 1.2223732 4.3191109
0.023423698 1.2292496 4.3052115
-0.066859283 1.2710463 4.3322959
-0.028564543 1.2774727 4.3238873
0.026534157 1.2806123 4.3117423
0.075841144 1.2827024 4.3058343
0.11101294 1.2890499 4.3016038
-0.12271264 1.3242694 4.3431935
-0.071410336 1.3276174 4.3400946
-0.026527088 1.3304685 4.3275623
0.026576934 1.3256556 4.3119102
0.07948263 1.3235152 4.3045454
0.11121976 1.32322 4.3031073
-0.10882173 1.378517 4.3469081
-0.069476128 1.3805952 4.3419766
-0.026624585 1.3788894 4.3369079
0.02666636 1.3734466 4.3198023
0.079617515 1.3682201 4.302928
0.11132659 1.3562821 4.3005629
-0.10204293 1.4407601 4.349864
-0.069654182 1.4164239 4.3464093
-0.026701553 1.424773 4.3371048
0.026708564 1.4181637 4.3169289
0.082030736 1.421932 4.3070321
0.11883089 1.4180716 4.3040252
-0.059164744 1.4868526 4.3495579
-0.026794666 1.4722186 4.3408537
0.026887542 1.469416 4.3325844
0.078120023 1.4796619 4.3147388
0.12294537 1.4746242 4.3127885
0.16194692 1.4872147 4.3038158
-0.066426374 1.5174118 4.3479075
-0.023275023 1.5171021 4.3473067
0.026923174 1.515052 4.3303008
0.080400959 1.5318034 4.311326
0.12314551 1.5304798 4.3069091
0.1623127 1.5262709 4.3050895
-0.059387218 1.5681303 4.3476152
-0.024767246 1.5733548 4.3427496
0.027029136 1.5748965 4.333972
0.08078324 1.5820036 4.3207741
0.1235375 1.5783668 4.3101325
0.15541677 1.5642946 4.3030024
-0.11382288 1.6275063 4.3473816
-0.059466995 1.6027057 4.3452892
-0.029156923 1.6287134 4.3388443
0.027096903 1.6323341 4.3295131
0.080893829 1.6273593 4.3159041
0.12392344 1.6263325 4.312459
0.15602088 1.6241821 4.3060288
-0.10307545 1.6508014 4.3461294
-0.081406102 1.6517806 4.3490262
-0.027107585 1.6971995 4.3428912
0.0055199652 1.6967555 4.3418231
0.13492982 1.6615921 4.3114095
0.15638985 1.6603659 4.307724
-0.027151039 1.73244 4.3404117
0.027274787 1.7307762 4.3362589
0.081365451 1.7237701 4.3182383
0.12449388 1.7204995 4.3093233
0.1567663 1.718426 4.3034134
-0.060134739 1.7849014 4.3495669
-0.027270336 1.7834324 4.3462133
0.02731348 1.7769254 4.3303447
0.081617408 1.7724665 4.3190126
0.12486646 1.7690645 4.310009
0.15724373 1.7670288 4.3043289
-0.060256992 1.8214253 4.3488569
-0.02734011 1.8316946 4.3441515
0.027393831 1.8262429 4.3311992
0.081849635 1.8211391 4.3186092
0.12540346 1.8204056 4.3161731
0.16857961 1.8157589 4.3041139
0.20126967 1.8273404 4.3016229
-0.067788072 1.8857808 4.3446994
-0.02740062 1.8795978 4.3403196
0.027480407 1.8752126 4.3301673
0.082096957 1.8704395 4.3186879
0.1255962 1.8668003 4.3095517
0.16904333 1.8643968 4.3029466
-0.067913599 1.9262151 4.3417993
-0.02746666 1.9282837 4.3373146
0.027591942 1.9269055 4.3342319
0.082354397 1.9201808 4.3186126
0.12600794 1.9168465 4.3103819
0.16953437 1.9135802 4.3019853
-0.06824261 1.9869366 4.3456531
-0.027560689 1.9791051 4.3381033
0.02762389 1.9744101 4.3278008
0.082666196 1.9714307 4.3207698
0.12641281 1.9669411 4.3101945
-0.072134048 2.0331969 4.3442965
-0.027654078 2.0304782 4.3388424
0.027725523 2.0251184 4.3273644
0.08285296 2.0201783 4.3163652
0.1267859 2.0167511 4.3082623
0.17087165 2.0279398 4.3038912
-0.061177805 2.071934 4.3445807
-0.027770765 2.0828929 4.3405972
0.027830087 2.0785577 4.3315434
0.083061099 2.0696208 4.3124294
0.12718415 2.0672965 4.3068333
0.16021664 2.0656571 4.3026428
-0.061463844 2.1263583 4.3493686
-0.027867146 2.134779 4.340003
0.016801974 2.1301355 4.330617
0.07234472 2.1249356 4.3196054
0.12755147 2.1176805 4.303956
0.16064043 2.1043594 4.3025422
-0.061544575 2.1515477 4.3471365
-0.016723443 2.1842902 4.333569
0.016842326 2.1806464 4.3263249
0.072604828 2.1771071 4.3188739
0.12434389 2.174233 4.3036389
-0.031818662 2.2211182 4.3448482
0.013168293 2.2308137 4.3290176
0.072898388 2.2300432 4.3184257
0.11744911 2.2250149 4.3079734
-0.073317662 2.2585411 4.3475542
-0.028113794 2.2655313 4.3354053
0.016952246 2.2743406 4.3264432
0.073153391 2.2835948 4.3179169
0.12526262 2.2727802 4.3051128
-2.1198347 2.3442721 4.3003831
-0.11920464 2.3406353 4.3473477
-0.073633768 2.3248692 4.3442869
-0.028217245 2.319313 4.3342772
0.020765865 2.3196163 4.3263822
0.073299915 2.3330171 4.3085074
0.1181933 2.3179119 4.3051629
-2.1030419 2.3524997 4.3249331
-2.0020788 2.3719842 4.3421402
-1.9740419 2.3673661 4.3424134
-1.9311405 2.3702471 4.3228216
-1.8713536 2.3685207 4.3195691
-1.8049612 2.3836784 4.3133421
-1.7333027 2.3834147 4.3356724
-1.6647637 2.3943357 4.3202991
-0.37100905 2.3982344 4.3407869
-0.32543731 2.3990216 4.3449125
-0.27968955 2.3984385 4.346199
-0.2332045 2.3901625 4.3331833
-0.17101355 2.389745 4.3471727
-0.1192968 2.3765056 4.3370066
-0.071471199 2.3803396 4.3296385
-0.030514088 2.3744721 4.3192968
0.017027035 2.3633761 4.314249
0.050842784 2.3698504 4.3007336
-1.6221682 2.4113553 4.3285007
-1.5622821 2.4061911 4.3162556
-1.517709 2.4102859 4.3365631
-1.4699353 2.4107885 4.3314662
-1.4358426 2.4154201 4.3120089
-1.3778348 2.4164622 4.3284745
-1.3182973 2.4147847 4.3393993
-1.2770454 2.4266346 4.3167853
-1.2166309 2.4224172 4.322084
-1.1669958 2.4161415 4.3206081
-0.99067903 2.4340324 4.3340449
-0.91270888 2.4117086 4.3056908
-0.87777126 2.4103355 4.3085885
-0.823551 2.4196689 4.3337345
-0.76220649 2.4275033 4.3392448
-0.70560378 2.410183 4.331862
-0.65863609 2.429188 4.3206658
-0.62205017 2.4204934 4.30897
-0.57556748 2.417027 4.3075089
-0.53022325 2.4182954 4.314115
-0.47368371 2.413101 4.3264894
-0.42335859 2.41117 4.3302679
-0.36856073 2.405163 4.3029485
-0.32411799 2.4120908 4.3180451
-0.27840999 2.4102192 4.3170381
-0.23257692 2.4063959 4.3121743
-0.17605476 2.4096267 4.3199325
-0.11927599 2.4102082 4.3224268
-0.084994294 2.4050324 4.3137503
-1.1398464 2.455853 4.3469105
-0.75761765 -0.55094045 4.3780394
-0.96874493 -0.5162394 4.3743477
-0.73695934 -0.53013587 4.3853297
-0.66043282 -0.52832937 4.3780909
-0.61828375 -0.53896576 4.3820047
-0.57490861 -0.52740651 4.3783207
-0.53278714 -0.52118868 4.3653283
-0.49130714 -0.51053435 4.3618016
-0.42348146 -0.50192094 4.3527517
-0.39181533 -0.50155544 4.3514957
-1.020963 -0.48095596 4.3882856
-0.56578565 -0.47587532 4.3942556
-0.52215892 -0.4746621 4.3864541
-0.46738774 -0.47262591 4.3715239
-0.4238953 -0.47102001 4.3593168
-1.038546 -0.4260217 4.3725662
-0.56535959 -0.42270169 4.3944273
-0.52198166 -0.42178956 4.3885818
-0.46752641 -0.43076116 4.3757415
-0.42472473 -0.42994046 4.3702302
-0.39178333 -0.42838538 4.3561907
-1.0363027 -0.38252199 4.3657393
-0.56441677 -0.36921573 4.3902063
-0.52646953 -0.37134799 4.3934503
-0.4719139 -0.37509301 4.3774791
-0.42573515 -0.3723745 4.3626261
-0.38119808 -0.36553693 4.3589196
-0.34907725 -0.3543072 4.3514714
0.046977248 -0.37501776 4.3576417
-1.0545975 -0.33904922 4.3524232
-0.52902663 -0.32336536 4.393537
-0.4775047 -0.325308 4.3758202
-0.42372072 -0.32432514 4.3661089
-0.38148534 -0.32400513 4.3642893
-0.34937912 -0.32331723 4.3567944
-1.0579876 -0.26570937 4.3697915
-1.0408766 -0.28812194 4.389833
-0.56513178 -0.29573306 4.3993897
-0.53232282 -0.27402738 4.3935466
-0.47743008 -0.27277842 4.3773642
-0.42343608 -0.2718198 4.3655171
-0.38291198 -0.27544412 4.3586988
-0.34883332 -0.28115606 4.3518448
-1.0599606 -0.23424052 4.3791428
-0.53178412 -0.22108303 4.3909426
-0.47750592 -0.22034156 4.3800015
-0.42349678 -0.21956244 4.367918
-0.37845731 -0.22516957 4.3575878
-0.34175178 -0.22897935 4.3523364
-1.0571563 -0.19111989 4.3689027
-0.56449121 -0.17932384 4.3984179
-0.53206164 -0.17906757 4.3945713
-0.47708428 -0.17821048 4.3774753
-0.42375475 -0.17783752 4.3718071
-0.38094065 -0.17739567 4.3634219
-0.34183416 -0.17350082 4.3549829
-1.0678657 -0.12737708 4.3690696
-1.0409038 -0.10663264 4.3952522
-0.5257616 -0.13138747 4.3874373
-0.47694504 -0.12572175 4.3772216
-0.42256525 -0.12516852 4.3606906
-0.38027489 -0.1250013 4.3569436
-0.34855384 -0.13523427 4.3528023
-1.0577044 -0.074279249 4.3734407
-0.52814317 -0.070122957 4.3934369
-0.47715172 -0.073345743 4.3798623
-0.42307431 -0.073067077 4.3666167
-0.37992668 -0.072813772 4.3536878
-0.34838557 -0.062349897 4.3517389
-1.0583868 -0.031787213 4.3765764
-1.0414912 -0.042596243 4.3984113
-0.53154683 -0.031501144 4.3925018
-0.47680077 -0.031366363 4.3771167
-0.42362189 -0.031313132 4.372674
-0.3801899 -0.03118832 4.3570051
-0.33808619 -0.031156499 4.3536739
-1.0578192 0.021409735 4.3742213
-0.52943611 0.016907156 4.3926153
-0.47761381 0.021061845 4.3846078
-0.42342493 0.020980358 4.3704839
-0.38041401 0.020932967 4.3596015
-0.34009653 0.016709404 4.3527126
-1.0622882 0.070848368 4.3619962
-0.52146792 0.073831558 4.3967648
-0.4731625 0.071424067 4.3820791
-0.42342007 0.073270656 4.3701448
-0.38082749 0.073114701 4.363924
-0.34870279 0.083358489 4.3553805
-1.0667425 0.13202873 4.373251
-0.52498323 0.12651697 4.3956547
-0.4747006 0.12860352 4.3806572
-0.42383626 0.12567021 4.3736615
-0.38075599 0.12528111 4.362205
-0.34336197 0.11976054 4.3532701
-1.0691534 0.18101299 4.3729796
-0.52118117 0.17910272 4.3923345
-0.47752061 0.17851448 4.3811259
-0.42349559 0.17787169 4.368926
-0.38067734 0.1774106 4.360148
-0.34857851 0.17700456 4.3519382
-1.0677034 0.22047655 4.3809285
-1.0426306 0.23541991 4.3989949
-0.52205849 0.22159828 4.3984466
-0.47752666 0.22050226 4.3798251
-0.42330357 0.21960045 4.3656917
-0.38098413 0.21931411 4.3624282
-0.33642399 0.22509436 4.3553181
-0.28587446 0.20803937 4.3501029
-1.0711428 0.27633491 4.362596
-1.0429399 0.25688607 4.3994918
-0.50780302 0.28125969 4.3955388
-0.46762466 0.27334002 4.3843136
-0.42517319 0.27178389 4.3613482
-0.38057974 0.27125072 4.3559227
-0.34399337 0.27638477 4.356596
-1.0681452 0.32722569 4.3782678
-0.5222019 0.32718629 4.3952842
-0.47812459 0.32588366 4.3811493
-0.42440212 0.32498786 4.3726759
-0.37536746 0.32219106 4.3661194
-0.33884507 0.32336438 4.3555975
-1.0699224 0.37758628 4.3828249
-0.50023991 0.36875367 4.3871431
-0.46561986 0.37433574 4.3805685
-0.42467356 0.37764978 4.3726168
-0.38164756 0.37658247 4.3629336
-0.33107546 0.3781648 4.3536057
-0.51785743 0.41782942 4.3893251
-0.47045049 0.42534637 4.3828983
-0.42438203 0.42978904 4.3665047
-0.37570068 0.42716828 4.3640947
-0.31837299 0.42817083 4.3557777
-1.0629209 0.4702107 4.378273
-0.50232524 0.48664215 4.3979506
-0.4685635 0.47399151 4.3818798
-0.42521906 0.4726533 4.3722525
-0.37178791 0.47146949 4.3645196
-0.31832796 0.46987447 4.3524246
-0.28709152 0.48045632 4.3544617
-1.0748895 0.52430582 4.3778038
-0.50924188 0.52176696 4.393558
-0.46532491 0.51293546 4.3818502
-0.42586216 0.52598572 4.3749118
-0.37193489 0.52405393 4.3622108
-0.31909144 0.52334595 4.3588901
-0.28744337 0.5437842 4.3549352
-1.075855 0.57826322 4.3771448
-0.5773024 0.58280081 4.3914151
-0.50282633 0.59301275 4.3937373
-0.47049278 0.58169812 4.3915706
-0.42716828 0.58031213 4.3839011
-0.37258911 0.5774349 4.3652973
-0.32246655 0.57197177 4.3532147
-1.0739998 0.62555254 4.3742881
-0.51418191 0.62571156 4.3964758
-0.47030291 0.62378657 4.3860402
-0.42731664 0.62272286 4.3815017
-0.37311074 0.62032431 4.3678241
-0.3173793 0.62455028 4.3555579
-0.28789431 0.63889343 4.3533134
-1.0766695 0.67518479 4.371222
-0.51429081 0.65765464 4.3943462
-0.46912354 0.67374122 4.3901329
-0.42796525 0.67654133 4.3830371
-0.37371457 0.67395622 4.3695202
-0.32495308 0.67115313 4.3538928
-1.0774047 0.71853161 4.3695283
-0.51010388 0.72289103 4.3978009
-0.4690989 0.73664039 4.3967552
-0.42874533 0.73072737 4.3854637
-0.37389335 0.72695416 4.3660722
-0.33052987 0.72432315 4.3525205
-1.0910226 0.75267595 4.3755889
-0.46942928 0.77260059 4.3958321
-0.42920148 0.77388215 4.3852515
-0.37458655 0.77051163 4.3693299
-0.32067758 0.76784301 4.3569489
-0.27633283 0.77369231 4.3555584
-0.24679336 0.78802943 4.353013
-0.4629904 0.81983268 4.3969927
-0.42755514 0.82356149 4.3843288
-0.37516376 0.82457495 4.3697591
-0.32131231 0.8220439 4.3591442
-0.2839517 0.82066286 4.3535728
-0.47196397 0.87815988 4.3931684
-0.43275827 0.87646639 4.3872948
-0.37621662 0.87988299 4.3750606
-0.32202703 0.87669826 4.3620811
-0.28987724 0.87530923 4.3566027
-0.47479862 0.91788101 4.3943224
-0.43089572 0.92591351 4.3831677
-0.37701848 0.92428786 4.3787918
-0.32331595 0.9225952 4.37358
-0.28339735 0.92977744 4.357955
-0.46373063 0.98109448 4.3821669
-0.42876002 0.97526097 4.3913383
-0.37838951 0.97033691 4.3887548
-0.32348517 0.97607321 4.3680444
-0.2823782 0.97767484 4.3574152
-0.46558294 1.0064263 4.3964281
-0.42177424 1.0218371 4.3860779
-0.37256333 1.0213462 4.3846016
-0.32369244 1.029804 4.3626733
-0.28069818 1.0279334 4.3567715
-0.23797512 1.0370398 4.3505635
-0.41972193 1.0791236 4.3934999
-0.36868972 1.0797567 4.3840361
-0.32562312 1.0787321 4.3821173
-0.28166151 1.0739861 4.3648238
-0.20659044 1.0706408 4.3540268
-0.46795088 1.1406775 4.3976426
-0.42401397 1.1275231 4.3930678
-0.36992043 1.1262693 4.3914404
-0.32642624 1.1242406 4.385797
-0.28217602 1.1184925 4.3653536
-0.22830237 1.1261967 4.3542128
-0.17522815 1.1476283 4.352891
-0.40340471 1.1729949 4.3963265
-0.37072292 1.171705 4.3933997
-0.32720801 1.1698278 4.3886523
-0.27851257 1.1785879 4.3696799
-0.22160149 1.1777625 4.3529968
-0.1789604 1.1772567 4.3524761
-0.36796626 1.2138551 4.3963065
-0.32780576 1.225713 4.386735
-0.27293384 1.2313782 4.3691411
-0.21843062 1.225981 4.352025
-0.18649264 1.2369299 4.3520479
-0.404805 1.2634569 4.3954391
-0.37243152 1.2742954 4.3953729
-0.3282727 1.2813034 4.3826351
-0.27352297 1.2769377 4.3701615
-0.21935692 1.2739687 4.3620634
-0.17609821 1.2708398 4.3526716
-0.12270942 1.2708522 4.3539391
-0.36971399 1.3278588 4.3959942
-0.3293834 1.3288801 4.3888249
-0.27482411 1.326111 4.3821921
-0.21984449 1.3197422 4.3632245
-0.1765559 1.3169382 4.3552685
-0.37444553 1.3788983 4.3991466
-0.33062887 1.3772944 4.3964028
-0.27522168 1.3712012 4.3794627
-0.2181578 1.3720131 4.3622146
-0.17937735 1.3714392 4.3615804
-0.13433763 1.387401 4.3623972
-0.37468603 1.4123919 4.3950148
-0.33117753 1.4230067 4.3942022
-0.27571979 1.4169515 4.3780379
-0.22096202 1.4235582 4.3648291
-0.17561555 1.4274023 4.3638382
-0.13097374 1.4254675 4.3613687
-0.069826134 1.4414933 4.3525033
-0.4092325 1.4846939 4.3994541
-0.37566143 1.4705961 4.3944054
-0.33182347 1.4692987 4.392951
-0.27674475 1.4658166 4.385056
-0.22416472 1.4778562 4.374248
-0.17848814 1.4828676 4.369803
-0.12403899 1.4788669 4.359293
-0.073556371 1.4729748 4.3541451
-0.36585408 1.5186242 4.3978024
-0.3268398 1.520449 4.3880606
-0.27742082 1.5238746 4.3832231
-0.22274001 1.5327873 4.3771763
-0.1787708 1.5284801 4.3662744
-0.12427875 1.5250587 4.3577266
-0.080929272 1.5340954 4.3508368
-0.03771282 1.5337267 4.3501964
-0.36692795 1.5778602 4.3974762
-0.329577 1.5665272 4.389935
-0.26763082 1.5847167 4.3882475
-0.22313774 1.5790987 4.3743677
-0.17920443 1.575816 4.3665934
-0.12468959 1.573513 4.3615813
-0.081137151 1.5705246 4.3540306
-0.3105056 1.6289308 4.3960371
-0.26817691 1.6316178 4.3858013
-0.22411525 1.6298263 4.3826575
-0.18006098 1.6269525 4.3763318
-0.13028795 1.6133851 4.3569942
-0.074075244 1.6209412 4.3516145
-0.30270353 1.6958877 4.3946595
-0.26916397 1.6926157 4.3876581
-0.23545262 1.6873703 4.3753829
-0.12557653 1.6611657 4.3730187
-0.059703581 1.6525546 4.3513083
-0.31446505 1.7330575 4.3956022
-0.2696889 1.728982 4.3873038
-0.2250804 1.7247207 4.3782139
-0.181023 1.7234757 4.3765006
-0.12569766 1.7172561 4.3619933
-0.068694055 1.7207816 4.3534017
-0.30423605 1.7819552 4.3955812
-0.27046138 1.7781172 4.3876185
-0.22578348 1.7741427 4.3795352
-0.18125843 1.7696804 4.3699493
-0.12609571 1.7666779 4.3638616
-0.082088232 1.7751875 4.3554282
-0.31612858 1.8309844 4.3937197
-0.27125502 1.8276618 4.3877845
-0.22652593 1.8241677 4.3811736
-0.18171301 1.8181745 4.368228
-0.12640472 1.815021 4.3619962
-0.075057559 1.8403038 4.3544097
-0.30580866 1.8690399 4.3956852
-0.27209276 1.8777261 4.3881583
-0.22703952 1.8726274 4.378016
-0.18209878 1.8662242 4.364491
-0.12399191 1.8724515 4.358603
-0.082500443 1.8721616 4.3514595
-0.27312174 1.929438 4.3910995
-0.22797126 1.9248531 4.3824768
-0.18281479 1.917859 4.3680201
-0.13260289 1.9186316 4.3567448
-0.082922131 1.948122 4.3531251
-0.30848923 1.9976528 4.3994064
-0.27404407 1.9807172 4.3918872
-0.22867805 1.9754195 4.3819466
-0.18330985 1.9675004 4.3658614
-0.12753339 1.9644262 4.3604064
-0.083100699 1.9744946 4.3554158
-0.30900162 2.0346985 4.3957167
-0.27467662 2.0301452 4.3874454
-0.2292182 2.0248332 4.3777895
-0.17295259 2.0207107 4.3706555
-0.11674026 2.0140302 4.3575745
-0.27190772 2.0787475 4.3896756
-0.23039179 2.0801523 4.3851285
-0.17375749 2.0751288 4.3763981
-0.11726824 2.067693 4.3620262
-0.083580099 2.075103 4.3509603
-0.28059316 2.1176765 4.3976078
-0.23128715 2.1334224 4.3867412
-0.17418025 2.1250935 4.3714728
-0.11764704 2.1194184 4.3611598
-0.076411687 2.1119697 4.3554492
-0.27753022 2.1645865 4.3943725
-0.22839576 2.1832051 4.3891487
-0.17497964 2.1797669 4.375011
-0.11811257 2.1727166 4.3622541
-0.076668233 2.1718135 4.3522601
-0.039234601 2.1793547 4.3500619
-0.31256697 2.2059999 4.3953619
-0.27826405 2.2158301 4.3897929
-0.23644887 2.2180531 4.3870983
-0.17555487 2.2324741 4.3733497
-0.11838081 2.2228251 4.3558416
-0.073177837 2.2205563 4.3521032
-0.26758721 2.2670774 4.3846617
-0.23321842 2.2650554 4.3821993
-0.17597216 2.2831945 4.366663
-0.11884031 2.2767301 4.3557076
-0.073547766 2.2883639 4.3527451
-0.38507396 2.3458791 4.3977075
-0.32304463 2.333009 4.3944631
-0.27993536 2.320364 4.3814011
-0.23390897 2.317574 4.378058
-0.17071217 2.3284588 4.3618784
-0.11913478 2.3164802 4.3535433
-2.125365 2.3529572 4.3813629
-2.0754921 2.3519473 4.398035
-2.0318947 2.3684325 4.3863382
-1.9949032 2.3679683 4.3987126
-1.9372536 2.3814921 4.3854532
-1.8649883 2.3799627 4.3862624
-1.8212488 2.3811324 4.3625817
-1.7754897 2.3842618 4.3836942
-1.7205772 2.3868401 4.3762894
-1.6797769 2.3919954 4.3694477
-1.6321578 2.3923142 4.3840132
-1.561576 2.3996022 4.3605075
-0.52322096 2.3927302 4.3704996
-0.42004466 2.3945527 4.3820434
-0.37335572 2.3789344 4.3821592
-0.32696834 2.3758156 4.3790889
-0.28036833 2.3698769 4.3704796
-0.23407125 2.3647363 4.3629918
-0.18831635 2.3639174 4.36306
-1.61318 2.4057338 4.358284
-1.5862386 2.4009891 4.3564196
-1.5287331 2.4039674 4.3781242
-1.4917877 2.4019399 4.3838682
-1.4217013 2.4076743 4.356338
-1.3807249 2.4185588 4.3876271
-1.3265146 2.406219 4.3763237
-1.2776163 2.414691 4.3760781
-1.2306476 2.4267788 4.3818636
-1.177182 2.4136894 4.3679729
-1.130368 2.4254751 4.3726044
-1.0710539 2.4355295 4.3757582
-1.0249398 2.4371958 4.3871269
-0.96365911 2.4303474 4.3847666
-0.91755784 2.432013 4.3952684
-0.86739898 2.4224777 4.3851037
-0.81818736 2.4147213 4.3777189
-0.77193695 2.4153383 4.3851085
-0.73511255 2.4202595 4.3728008
-0.67585683 2.4153166 4.3707547
-0.63159204 2.411957 4.3608112
-0.58332026 2.4149623 4.3799353
-0.53002262 2.4089584 4.3739133
-0.47780719 2.4073112 4.375329
-0.81192136 -0.60215688 4.4344778
-0.91852397 -0.55854893 4.4196792
-0.88225526 -0.56544918 4.4216733
-0.81845653 -0.55626661 4.4140635
-0.78607589 -0.55607617 4.416388
-0.92369157 -0.52465826 4.4260988
-0.87196225 -0.52889663 4.432157
-0.81648928 -0.52875477 4.4254966
-0.77546322 -0.52402794 4.4206495
-0.74184775 -0.51230323 4.4160724
-0.66673231 -0.51200223 4.4212418
-0.62158358 -0.5099895 4.4079065
-0.58845812 -0.50891626 4.4014854
-1.0137053 -0.46903273 4.4303389
-0.97696602 -0.49648935 4.4386125
-0.94491273 -0.4966628 4.4447851
-0.76670659 -0.48246354 4.4363165
-0.73405337 -0.47143108 4.4376831
-0.66623098 -0.47965157 4.4202409
-0.62110078 -0.4777447 4.4067721
-0.58869302 -0.4773019 4.4055524
-1.0204495 -0.42315754 4.4222255
-0.76777494 -0.41872597 4.446763
-0.71595222 -0.43558156 4.4404254
-0.67082822 -0.42329592 4.4236789
-0.62155825 -0.4249427 4.4135303
-0.58265543 -0.42372313 4.4039555
-1.0257494 -0.37045309 4.4162164
-0.72238827 -0.37453479 4.4390736
-0.67729455 -0.37325552 4.428534
-0.62160873 -0.37186557 4.4169908
-0.58809978 -0.37083948 4.407732
-1.0338488 -0.32626349 4.4149141
-0.71671963 -0.33690241 4.4395666
-0.66598064 -0.33027619 4.4274526
-0.62165487 -0.32936987 4.4195361
-0.57746327 -0.32842374 4.4105082
-0.54475319 -0.33845928 4.4052448
-1.0270997 -0.26339215 4.427094
-0.70062244 -0.28874618 4.4431944
-0.66591334 -0.27695712 4.4293113
-0.62106264 -0.27598509 4.4176497
-0.57894289 -0.27090493 4.4078875
-1.0379703 -0.22576271 4.4271765
-0.70015568 -0.23510252 4.442275
-0.67209274 -0.22147684 4.4293222
-0.62110156 -0.22290289 4.4198442
-0.57645977 -0.22207698 4.4070225
-1.0374781 -0.17190088 4.4266467
-0.67615676 -0.18095009 4.4287829
-0.62095207 -0.18037699 4.4199796
-0.58665442 -0.17963473 4.4045515
-1.0341021 -0.12174223 4.4291797
-0.66982824 -0.13068809 4.4289732
-0.62111717 -0.12733515 4.4223404
-0.57629466 -0.12682447 4.4081335
-0.54389083 -0.11612022 4.4055953
-1.042614 -0.074727796 4.4028821
-0.70080096 -0.08551342 4.4498138
-0.67294371 -0.072442003 4.4380341
-0.62183011 -0.07433524 4.4282112
-0.57676238 -0.07401295 4.4124589
-0.54325688 -0.084326394 4.4009185
-1.0457795 -0.021318004 4.4166117
-0.70015514 -0.042671796 4.4460897
-0.67182672 -0.029717039 4.4309096
-0.62149805 -0.031791583 4.4261541
-0.57616138 -0.031640235 4.4082017
-1.0476027 0.021600477 4.4242587
-0.70042759 9.1332098e-05 4.447926
-0.67082977 0.021401122 4.4366198
-0.62061125 0.021307217 4.4198394
-0.57630408 0.021239214 4.4092917
-0.54315495 0.042270917 4.4004073
-1.0502644 0.086319812 4.4349575
-1.0386682 0.064722829 4.4335155
-0.70047593 0.074960813 4.4477634
-0.66547954 0.07463029 4.4315662
-0.62084842 0.074383676 4.4210682
-0.57703137 0.074204147 4.4144616
-0.52910376 0.077435859 4.4012432
-1.0404736 0.1219185 4.4244823
-0.67406791 0.13066734 4.4337058
-0.62060934 0.12740333 4.4185872
-0.57651424 0.12703384 4.4096589
-0.54345655 0.10562113 4.4021163
-1.0393425 0.17247723 4.4343576
-0.70035076 0.18188518 4.4448757
-0.66695726 0.1815269 4.4393368
-0.62183589 0.18082288 4.4259949
-0.57720262 0.18015708 4.4137421
-0.54365879 0.17957115 4.4021358
-1.0348687 0.22255541 4.4295678
-0.70032513 0.2246516 4.4434023
-0.66603363 0.22390184 4.43188
-0.62223518 0.2234769 4.427619
-0.57667083 0.22231933 4.4083767
-0.54421866 0.22202858 4.4053831
-1.0664368 0.27883518 4.4038792
-1.0374446 0.27345464 4.4387355
-0.70089293 0.27835694 4.4449692
-0.66620427 0.27728319 4.430902
-0.62210095 0.27663234 4.4246936
-0.57797539 0.27586839 4.4163451
-0.53021276 0.27140811 4.4052505
-1.0675966 0.30060038 4.4077148
-1.0485297 0.32277527 4.420187
-0.66718471 0.33106264 4.4350338
-0.62264067 0.33008757 4.4261169
-0.57859421 0.32924029 4.4186091
-0.54490542 0.32814232 4.4065561
-1.052027 0.38862184 4.431447
-1.0485741 0.36583406 4.418138
-0.70218933 0.38608918 4.4478841
-0.66812408 0.37429294 4.4390502
-0.62358975 0.37322867 4.4305696
-0.57910681 0.37205559 4.4203477
-0.53505743 0.37098444 4.4111161
-1.0596294 0.41974473 4.4145465
-1.034129 0.41166815 4.4493628
-0.70217198 0.41824582 4.4458323
-0.66805488 0.41702291 4.435997
-0.62344378 0.42643204 4.4262605
-0.57908076 0.42515922 4.4170299
-0.53017235 0.42953163 4.4112272
-1.0520021 0.4749395 4.425652
-0.70212841 0.47183073 4.4419751
-0.67240512 0.46774751 4.4472446
-0.6227923 0.47923374 4.4180574
-0.57893175 0.47819576 4.4122844
-0.52916539 0.47525939 4.4088798
-1.0530154 0.51860851 4.4266744
-1.0494623 0.53838956 4.4100037
-0.62499946 0.52365553 4.4304695
-0.5795747 0.52126372 4.4139838
-0.53987271 0.51703477 4.4116683
-0.48322162 0.53120685 4.4150095
-1.0521126 0.57213759 4.4183874
-0.70279884 0.56886959 4.4387088
-0.671197 0.56936646 4.445838
-0.62317395 0.57540756 4.4131622
-0.5788151 0.55246097 4.4057207
-0.52790868 0.57053846 4.4043469
-0.4721595 0.5519284 4.4098449
-1.055321 0.6279853 4.4269004
-0.70431721 0.62387133 4.4435058
-0.66661692 0.62920368 4.4463482
-0.62677646 0.63234258 4.4337974
-0.58094472 0.62911654 4.4151874
-0.53116733 0.62698704 4.4042101
-1.057771 0.68372488 4.4317713
-0.70527464 0.68933904 4.4431896
-0.67225677 0.67783809 4.4428539
-0.62706578 0.67549443 4.4316659
-0.58206123 0.67305511 4.4194961
-0.5323174 0.67623287 4.408896
-1.0551801 0.71451128 4.4174643
-0.70408767 0.70968252 4.4334531
-0.6690321 0.71769816 4.4415913
-0.62701851 0.71834034 4.4268622
-0.58052778 0.72295475 4.4191294
-0.5401507 0.72468913 4.4064417
-0.48352194 0.71224737 4.4008732
-1.1155286 0.78387213 4.4259501
-1.0823466 0.76169693 4.4316678
-0.7069633 0.77735597 4.4443245
-0.67163783 0.77212745 4.4431391
-0.6291576 0.77457452 4.4359827
-0.58002889 0.77834433 4.4200406
-0.52320242 0.77597845 4.4028502
-0.48436132 0.78801787 4.4000907
-0.70821244 0.80035943 4.449616
-0.67522174 0.83212245 4.4453182
-0.62970442 0.82908189 4.4333086
-0.57308185 0.8250401 4.4165282
-0.51768863 0.8221665 4.4055319
-0.48507535 0.82117486 4.4026809
-0.75286591 0.88853461 4.4421353
-0.70976979 0.87799454 4.4498234
-0.67219585 0.87969869 4.4434404
-0.63141608 0.87452507 4.4398041
-0.57441837 0.86990809 4.4212775
-0.51895761 0.86699355 4.4108505
-0.48547974 0.85387564 4.4023089
-1.133387 0.9201349 4.4341478
-0.70920306 0.93144149 4.4388938
-0.67346495 0.92470068 4.4459419
-0.6324901 0.91927236 4.4416151
-0.57566291 0.92563313 4.4236178
-0.52078921 0.92377156 4.4191413
-0.47655967 0.94269717 4.4075389
-0.67600989 0.97252923 4.4464369
-0.63363677 0.97514135 4.4419093
-0.57680696 0.98140973 4.4248176
-0.5219661 0.9796496 4.4213662
-0.48111328 0.97326857 4.4122305
-0.44379884 0.96278793 4.4006
-0.71244264 1.0336219 4.4446077
-0.67980337 1.0227423 4.4496918
-0.62795031 1.0327642 4.4396353
-0.57325161 1.0237472 4.4247904
-0.52217281 1.0231221 4.416563
-0.48122516 1.0236045 4.4056449
-0.67712909 1.0750045 4.4482422
-0.62461013 1.0757233 4.4405847
-0.56850535 1.0723457 4.4315834
-0.5226934 1.0672792 4.4142103
-0.47867584 1.0760217 4.4073353
-0.44537839 1.0628424 4.4013824
-0.67031777 1.1229867 4.4441257
-0.62587649 1.1214485 4.4423223
-0.56724483 1.1239688 4.4305673
-0.52592033 1.1191399 4.4146924
-0.48327112 1.1285698 4.4078174
-0.60404813 1.1540277 4.4384398
-0.57268411 1.1783216 4.4295273
-0.52415597 1.1767498 4.4276972
-0.48076579 1.1779954 4.4099112
-0.43654993 1.1753132 4.4029217
-0.65181798 1.2492323 4.4472022
-0.61530703 1.2287879 4.4433045
-0.57190251 1.2313132 4.4313622
-0.52598059 1.2258657 4.4153981
-0.48266265 1.2260376 4.4193087
-0.42649218 1.2205 4.4031339
-0.38325256 1.2311879 4.4034371
-0.61890817 1.2820117 4.4436693
-0.57385623 1.2792749 4.4381461
-0.52822721 1.2746902 4.4259148
-0.47704181 1.273937 4.4192109
-0.42752686 1.2721944 4.404541
-0.60915536 1.328491 4.4447751
-0.57542884 1.3266304 4.4415779
-0.52989972 1.3224304 4.4311938
-0.47363424 1.3178219 4.4199395
-0.41789496 1.3247504 4.4082384
-0.38496751 1.3451806 4.4016623
-0.62156606 1.3755605 4.4448729
-0.57654011 1.3731254 4.4410295
-0.53080213 1.3684754 4.4296951
-0.47163701 1.3717282 4.4164014
-0.42141509 1.3768718 4.412137
-0.37477168 1.380121 4.403079
-0.6226449 1.422034 4.443048
-0.57712114 1.4185016 4.4360843
-0.53259116 1.4170345 4.4352441
-0.47635928 1.4277104 4.4239726
-0.41986147 1.4291124 4.408
-0.37638843 1.4405823 4.4099913
-0.624053 1.4583981 4.4457788
-0.57918322 1.4677101 4.4420795
-0.51987392 1.4696522 4.4375072
-0.46654683 1.4824358 4.4240546
-0.42469856 1.4733095 4.4113111
-0.37682223 1.47506 4.4077458
-0.61505163 1.5297892 4.4463558
-0.57794559 1.5210305 4.4380012
-0.52725261 1.5270318 4.4371724
-0.4667424 1.527019 4.4157219
-0.42176554 1.5232768 4.4079099
-0.38809592 1.5201681 4.4009981
-0.34461996 1.5322646 4.4042602
-0.62325865 1.5613809 4.4443173
-0.58412558 1.5788625 4.4382424
-0.52563047 1.5828873 4.4342074
-0.46799147 1.5751944 4.4169397
-0.42350471 1.5735819 4.4154897
-0.38206467 1.5653862 4.4061694
-0.32345405 1.57956 4.404582
-0.58357573 1.6233881 4.4411583
-0.52199972 1.627455 4.4309096
-0.47012943 1.6266472 4.4260354
-0.42492557 1.6230212 4.4192538
-0.37953347 1.6177272 4.407618
-0.33853135 1.6109794 4.4024162
-0.5523687 1.6967154 4.444149
-0.51717043 1.6910534 4.4321012
-0.47278562 1.6914771 4.4366617
-0.33977047 1.6830598 4.4014378
-0.56497538 1.734622 4.4454556
-0.51857948 1.729162 4.4352584
-0.47244903 1.7236359 4.424541
-0.42725098 1.7206964 4.4201078
-0.38190508 1.7164599 4.4120746
-0.34842616 1.7373109 4.4046888
-0.56267267 1.7802095 4.4458356
-0.520868 1.7816132 4.4424467
-0.47423944 1.7748095 4.4289894
-0.42842957 1.769976 4.4201059
-0.38277197 1.7647414 4.4098644
-0.33429432 1.7811722 4.4023042
-0.55754197 1.8478202 4.4481192
-0.52267361 1.8327826 4.445075
-0.47572044 1.8251283 4.4300518
-0.42916879 1.817642 4.4150848
-0.37265182 1.8218555 4.4072123
-0.34997731 1.8228495 4.4023714
-0.56613302 1.8814608 4.4470572
-0.52362835 1.8811266 4.4398246
-0.47715145 1.8756015 4.4303436
-0.43075889 1.8691157 4.4182367
-0.37960571 1.8708658 4.4107537
-0.32173425 1.8902775 4.4053845
-0.52520669 1.9320343 4.4395952
-0.47861257 1.9263999 4.430253
-0.43209249 1.919848 4.4184709
-0.37505767 1.9151726 4.4112916
-0.31508887 1.932382 4.4055405
-0.52339959 1.9809424 4.4437685
-0.48062605 1.9797169 4.4346533
-0.43383729 1.972693 4.4222455
-0.37635079 1.9667459 4.4125504
-0.32319152 1.9661394 4.4046092
-0.51770985 2.0260291 4.4483333
-0.47878769 2.0293534 4.4395623
-0.42462447 2.0276248 4.4300513
-0.36630249 2.0182176 4.4131088
-0.33154529 2.0126114 4.4027691
-0.48075548 2.0758069 4.4454312
-0.42548716 2.0771017 4.4239688
-0.36767906 2.0710969 4.4148188
-0.32565278 2.0715315 4.4087825
-0.52832776 2.114054 4.4479752
-0.4741866 2.1259904 4.4401112
-0.41551095 2.1295323 4.4239068
-0.3692258 2.1253104 4.4179935
-0.32291743 2.1197207 4.4089227
-0.47484162 2.1633418 4.4344883
-0.41346216 2.1806009 4.4284768
-0.37110943 2.1818514 4.4245658
-0.32408383 2.1727977 4.4088106
-0.5092178 2.2297924 4.4479394
-0.46564978 2.2198091 4.4403973
-0.42283702 2.2203221 4.4354291
-0.37229034 2.2346241 4.4221487
-0.32986629 2.2357624 4.4178491
-0.51054806 2.2741807 4.445456
-0.46671468 2.2709973 4.4336481
-0.42005202 2.2679818 4.431118
-0.37244236 2.2698975 4.4111958
-0.3230848 2.2798107 4.4155807
-0.29187775 2.278856 4.4064245
-2.1680975 2.3482025 4.4194503
-0.51262927 2.337621 4.4430289
-0.46746188 2.3208554 4.4233732
-0.42088598 2.3186469 4.4225569
-0.37187004 2.3219271 4.4161654
-0.33952394 2.3143651 4.4194546
-2.1175687 2.3716545 4.4256082
-1.9346431 2.3688669 4.4216876
-1.8254735 2.3782706 4.415967
-1.7107061 2.3825088 4.4300728
-1.6736619 2.3935342 4.4336843
-1.615303 2.3926394 4.4287601
-1.5641105 2.3979437 4.4144096
-1.4801511 2.3978112 4.4362326
-1.2048182 2.3985355 4.4436483
-0.93481016 2.3995225 4.4389491
-0.76804912 2.3928714 4.4499569
-0.73164994 2.3889 4.4469314
-0.60818082 2.3713357 4.4451127
-0.56767553 2.3799846 4.4299331
-0.51620704 2.3788512 4.4236498
-0.46873373 2.3734512 4.4173779
-0.42138314 2.367547 4.4098034
-1.52018 2.4042449 4.4388199
-1.4725139 2.4092972 4.4034472
-1.425549 2.410522 4.4176068
-1.3662014 2.4110518 4.4329071
-1.3180015 2.4101484 4.4421721
-1.2667226 2.4033942 4.4401817
-1.2359035 2.4134593 4.4103889
-1.1763955 2.4126825 4.4211183
-1.117384 2.4129124 4.4330697
-1.0674233 2.4304433 4.4209671
-0.9698891 2.4225061 4.4227495
-0.91739225 2.4106367 4.4266849
-0.87143838 2.4103868 4.4151564
-0.82581544 2.4138217 4.428134
-0.77776337 2.4100387 4.427475
-0.72512633 2.41137 4.4188704
-0.68382943 2.4088311 4.4366713
-0.63091522 2.4079463 4.4231677
-0.83572137 -0.51753849 4.4511528
-0.98196018 -0.46645772 4.4635553
-0.92325747 -0.47370479 4.4626126
-0.86953211 -0.47519088 4.457602
-0.82491368 -0.47438869 4.4554505
-0.7859593 -0.46828204 4.4534693
-1.0126309 -0.41144451 4.4539499
-0.97277564 -0.42379639 4.4756551
-0.91745353 -0.42334417 4.4784565
-0.86966634 -0.42124882 4.4618974
-0.8251279 -0.420569 4.4601531
-0.79159224 -0.41995999 4.4574528
-0.74665308 -0.40818402 4.4519591
-1.0126473 -0.38978961 4.4553008
-0.97239476 -0.38017392 4.4765038
-0.91788518 -0.38009685 4.483099
-0.87092119 -0.37857652 4.4707999
-0.82596976 -0.37782043 4.4672308
-0.77992839 -0.37644875 4.4560513
-0.74673867 -0.37600169 4.4543061
-1.0118108 -0.32453477 4.4550109
-0.97283554 -0.32598561 4.4812412
-0.91707158 -0.3255004 4.4819236
-0.87144655 -0.32466874 4.4762859
-0.82573605 -0.3237485 4.468698
-0.78018355 -0.32277024 4.4602346
-0.74616998 -0.31128371 4.4541407
-1.0123076 -0.28138641 4.4591465
-0.9730019 -0.2716862 4.4843974
-0.91763771 -0.27139205 4.487051
-0.87098879 -0.27040637 4.4762545
-0.82485175 -0.2694788 4.4662447
-0.77999943 -0.26889467 4.4615102
-0.7319181 -0.26477689 4.4577918
-1.0110645 -0.22696435 4.4556708
-0.97260284 -0.22810291 4.4841871
-0.9178859 -0.22801515 4.4898396
-0.86978066 -0.22681655 4.4716291
-0.82423991 -0.22617982 4.4644952
-0.77985787 -0.22581378 4.4622674
-0.74638194 -0.22544098 4.4587493
-1.0129243 -0.17319654 4.4654269
-0.97334737 -0.17390519 4.4891071
-0.91616678 -0.17337544 4.4829631
-0.8694551 -0.17269759 4.4714952
-0.82443982 -0.17233236 4.4671054
-0.77976638 -0.17200135 4.4632597
-0.7464326 -0.17175342 4.4605737
-1.0135547 -0.11910551 4.4693604
-0.97272658 -0.11943829 4.4873967
-0.91645437 -0.11919391 4.4855113
-0.8704313 -0.11883898 4.4776773
-0.825508 -0.11860499 4.4740009
-0.77996761 -0.11825059 4.4655294
-0.72410762 -0.11793084 4.4586167
-1.0232083 -0.075674541 4.4631996
-0.97244424 -0.075938649 4.4866776
-0.91784644 -0.075921364 4.4929495
-0.87157762 -0.075678423 4.4841628
-0.82554066 -0.07544218 4.4747334
-0.78064191 -0.075283051 4.4699912
-0.74601936 -0.07504414 4.4598093
-1.0227022 -0.032338608 4.4613237
-0.9723019 -0.032470297 4.4863572
-0.91732705 -0.03245711 4.4907088
-0.87162977 -0.032379836 4.4847469
-0.82619691 -0.032299303 4.4786396
-0.78101265 -0.032223418 4.4724054
-0.7480098 -0.032194495 4.4720201
-1.0232462 0.021799363 4.4636807
-0.97878027 0.024967553 4.4866681
-0.92518246 0.019107042 4.4882431
-0.87242174 0.021806156 4.4888105
-0.82612944 0.021713316 4.4782901
-0.78082711 0.021647727 4.4713216
-0.73541254 0.026922999 4.4618192
-1.0219703 0.07972268 4.4739776
-0.97364229 0.076282769 4.4920788
-0.91641444 0.076040834 4.4858046
-0.8713336 0.075884253 4.4827971
-0.82590705 0.075682476 4.4766474
-0.78009558 0.075423762 4.4667559
-0.74703103 0.075345568 4.4657574
-1.0204608 0.11574811 4.4668555
-0.97341061 0.11977517 4.4903808
-0.91796076 0.11963134 4.4927573
-0.8717469 0.11924805 4.4842644
-0.82617974 0.11892048 4.4775019
-0.78028363 0.11850479 4.4671946
-0.73129797 0.11454128 4.4580188
-1.014954 0.17381965 4.4741383
-0.9742291 0.17430344 4.4929328
-0.9189114 0.17412585 4.4961767
-0.8725729 0.17354916 4.487288
-0.82668757 0.17301875 4.4790044
-0.78074408 0.17242688 4.468606
-0.74084771 0.16655995 4.4597044
-1.0133975 0.22777888 4.4656415
-0.97429776 0.22875948 4.4916325
-0.91829067 0.2283573 4.491518
-0.87167943 0.22753787 4.4811344
-0.82672518 0.22708265 4.4776258
-0.78105438 0.2263664 4.4688225
-0.74633491 0.22563034 4.4581699
-1.0149851 0.27155685 4.4709997
-0.97531086 0.27259132 4.494679
-0.91954654 0.27220991 4.4960151
-0.87393779 0.27155405 4.4910469
-0.82733834 0.2705121 4.4793429
-0.78190684 0.2697624 4.472055
-0.74874169 0.26946867 4.4709492
-1.0262121 0.32597861 4.4686017
-0.97542667 0.32712588 4.4926939
-0.91944629 0.3265807 4.4930949
-0.87390763 0.32583404 4.4884815
-0.82810473 0.32490435 4.4810791
-0.7782504 0.32718304 4.4756165
-0.72606403 0.32278961 4.4635596
-1.0261919 0.38025594 4.4656444
-0.9759028 0.38181034 4.4920459
-0.92049152 0.38143733 4.4953365
-0.87493765 0.38056311 4.4908981
-0.82851154 0.37921661 4.480464
-0.7764346 0.37594903 4.4734993
-0.72682488 0.37702376 4.4654961
-1.0234081 0.42767212 4.4669814
-0.97644264 0.42567387 4.4919229
-0.92154676 0.42550516 4.4978819
-0.8754729 0.42430475 4.4910493
-0.82985425 0.4232305 4.4851394
-0.77779782 0.42421246 4.4784513
-0.74846435 0.4093914 4.462213
-1.0202674 0.46942607 4.4834905
-0.97859102 0.45941085 4.4996538
-0.91107172 0.4693554 4.4986038
-0.87554872 0.46786401 4.4886088
-0.83091599 0.47808158 4.4871993
-0.77417988 0.47659928 4.479672
-1.0205178 0.52412003 4.4805212
-0.97996616 0.5476656 4.499402
-0.91107726 0.51301068 4.4954424
-0.87692291 0.52306861 4.4915962
-0.83143693 0.53274018 4.4859371
-0.77407485 0.53065759 4.4749284
-0.7047106 0.52737939 4.4543095
-0.67537922 0.53045964 4.4527822
-1.0203446 0.57861978 4.4753203
-0.98043978 0.56984335 4.4997511
-0.91261363 0.56853116 4.4986348
-0.87893379 0.57887459 4.4974375
-0.83297068 0.5772841 4.490622
-0.77430636 0.57414448 4.4727054
-0.68323052 0.55968362 4.4541779
-1.0204915 0.62235898 4.4719963
-0.98072743 0.62480843 4.4961777
-0.86842698 0.62284678 4.4971294
-0.83317876 0.62098998 4.4878445
-0.77498817 0.61800784 4.472702
-0.70685023 0.62613106 4.4594498
-0.68340564 0.61365139 4.4505978
-1.0257987 0.67213935 4.4763002
-0.98225081 0.66969192 4.4989166
-0.880391 0.66734189 4.4967837
-0.83368725 0.67588955 4.4853134
-0.7764793 0.6735127 4.4761353
-0.70688349 0.66932231 4.4555197
-1.0642011 0.74245369 4.4528074
-1.0254654 0.72411257 4.4836774
-0.91580188 0.72410375 4.4995346
-0.87773228 0.73015028 4.4958329
-0.82384014 0.7312898 4.486568
-0.76575446 0.72795594 4.472559
-0.70717031 0.73438758 4.4505239
-0.68533063 0.73412424 4.451179
-1.0726953 0.78140557 4.4845448
-1.0302912 0.77158535 4.4997711
-0.9160229 0.76815945 4.4957709
-0.88238573 0.77849293 4.4951773
-0.82430106 0.77538562 4.4841752
-0.76620185 0.77186626 4.4703074
-0.70771819 0.75657129 4.4515581
-1.1003031 0.84069693 4.4971266
-1.0970148 0.81612957 4.4864435
-0.87197876 0.82287234 4.4942546
-0.82583183 0.82058448 4.4872947
-0.76878536 0.81811208 4.4802418
-0.71076888 0.83580887 4.4616737
-0.68722409 0.8011027 4.4560122
-1.1146901 0.86991119 4.4894376
-0.87320125 0.85697955 4.4964285
-0.82710624 0.87665534 4.4873056
-0.77178985 0.86918962 4.4782915
-0.68756324 0.86648053 4.4500818
-1.11147 0.92929804 4.4839878
-0.85936254 0.92377001 4.4937091
-0.81681609 0.93220711 4.4849811
-0.77070725 0.92946988 4.4770412
-0.71240944 0.91389418 4.4619875
-0.68867767 0.91127717 4.4514961
-1.1176507 0.96929127 4.456152
-1.0990325 0.95020515 4.4769578
-0.8610155 0.98429394 4.4939113
-0.81825703 0.97779721 4.4865894
-0.77240515 0.97537565 4.4807186
-0.71272939 0.9687289 4.456275
-1.1371684 1.0320804 4.4793854
-0.90046322 1.0167657 4.4983606
-0.8657667 1.0259848 4.4929886
-0.81964195 1.0234654 4.4875646
-0.77399635 1.0213016 4.4833245
-0.71268892 1.0013211 4.4511795
-0.68391877 1.0307132 4.451345
-1.1080464 1.0805235 4.4947524
-0.86686885 1.0714622 4.491672
-0.81989294 1.0678127 4.4820065
-0.7743268 1.0656872 4.4783216
-0.71527755 1.0814323 4.455296
-0.69342679 1.0923299 4.4557829
-1.1105539 1.1276274 4.4974165
-0.90354133 1.1089547 4.4995356
-0.86471772 1.1213144 4.4921784
-0.8220461 1.1258076 4.4846115
-0.77687478 1.1243058 4.4839826
-0.71914154 1.1311939 4.4720144
-0.6959523 1.1292027 4.4664736
-1.1295986 1.15776 4.474771
-0.86848241 1.1716112 4.4956846
-0.82347214 1.1830375 4.4827356
-0.77792418 1.1810176 4.4804497
-0.71845621 1.1630294 4.4620471
-0.67733163 1.1733518 4.4530678
-0.62816656 1.1692865 4.451087
-0.90641123 1.2014732 4.498282
-0.87437743 1.2269144 4.4929085
-0.82573229 1.2306403 4.4869676
-0.77870834 1.2263832 4.4768653
-0.67408061 1.2169689 4.453342
-0.62888902 1.2034528 4.4503298
-0.9089976 1.2718397 4.4985495
-0.86101848 1.2668881 4.487021
-0.82729602 1.2773883 4.4869595
-0.7798962 1.272527 4.4752636
-0.67868799 1.278071 4.4544282
-0.87292075 1.3330226 4.497417
-0.8291024 1.3247041 4.4879208
-0.78230822 1.3208615 4.4803791
-0.70834869 1.3324517 4.4615016
-0.66664088 1.3336632 4.4567428
-0.63260245 1.3316221 4.4532027
-0.8742125 1.3722812 4.4963927
-0.83149171 1.3731784 4.4916725
-0.78415835 1.3684953 4.4818144
-0.70131791 1.3809597 4.4544477
-0.66782057 1.3801923 4.4554543
-0.86914027 1.4246783 4.4993892
-0.83342248 1.4211321 4.4925566
-0.78683597 1.41783 4.4876518
-0.70443606 1.431484 4.4646664
-0.66907108 1.4270226 4.4542289
-0.83474016 1.4682064 4.4897051
-0.78764623 1.4639835 4.482379
-0.70491302 1.4768715 4.4577456
-0.67140716 1.4764221 4.4599109
-0.62584174 1.4847262 4.4534516
-0.82084304 1.5140998 4.4917021
-0.77917534 1.525165 4.4864612
-0.70695496 1.5257041 4.4603262
-0.67311674 1.5247025 4.4609556
-0.63047069 1.5165386 4.4528728
-0.81678897 1.5664161 4.4961596
-0.7809965 1.58495 4.4834752
-0.71101463 1.5792842 4.4751811
-0.67548478 1.5747216 4.4658928
-0.64089632 1.5832195 4.4591012
-0.80692399 1.6143365 4.494379
-0.78441572 1.6257391 4.4947128
-0.71117604 1.6132262 4.467905
-0.67743528 1.6240847 4.4677129
-0.63022208 1.6178555 4.4551129
-2.1771345 1.6560453 4.4804997
-0.80971217 1.6652148 4.4984083
-0.77906913 1.6755861 4.4966083
-0.72958732 1.6972072 4.4937534
-0.6829555 1.6937754 4.489615
-0.64480263 1.6826128 4.4635105
-0.77685606 1.71299 4.4971852
-0.72989476 1.7318712 4.4865475
-0.68233925 1.7260789 4.4765363
-0.63481665 1.7195694 4.4642305
-0.59170479 1.7103144 4.4548326
-0.76726413 1.7510192 4.4996653
-0.72031748 1.7815088 4.4863305
-0.68326151 1.7736042 4.4701586
-0.62899983 1.7693516 4.4584913
-0.59997559 1.7500182 4.4500608
-0.73492074 1.8235923 4.4953413
-0.68013906 1.8308542 4.4815087
-0.6222316 1.8164173 4.4640522
-0.57468396 1.8260539 4.4549723
-0.7249378 1.8728348 4.4921465
-0.67185116 1.8740288 4.4760079
-0.61682433 1.867998 4.4608097
-0.75008601 1.9015598 4.4966903
-0.71161389 1.9312611 4.4898715
-0.6675635 1.9291253 4.4794397
-0.61924207 1.9208205 4.4647675
-0.57634836 1.9205431 4.4581017
-0.71574914 1.9587917 4.4831486
-0.66964126 1.9809451 4.4791884
-0.62198752 1.9749961 4.4704556
-0.57482058 1.9698306 4.4630809
-0.70751965 2.0139077 4.4906406
-0.66832334 2.0305331 4.4830108
-0.62455922 2.0289812 4.4742398
-0.57567519 2.0183909 4.4552684
-0.54085302 2.0160885 4.4532256
-0.71015316 2.0676098 4.4923582
-0.67843914 2.0686562 4.4884109
-0.62643492 2.0810685 4.4725838
-0.57795686 2.0721858 4.4579182
-0.5313983 2.0691447 4.4554501
-0.49663311 2.0786047 4.4502907
-0.71443582 2.1381783 4.499958
-0.67753112 2.1201067 4.49406
-0.62956512 2.1261737 4.4833813
-0.58167899 2.1315572 4.470932
-0.54544747 2.1365941 4.4566383
-0.71534383 2.1758218 4.4935822
-0.67904592 2.1713192 4.4882059
-0.63076484 2.164953 4.4799185
-0.58342946 2.1842649 4.4684544
-0.52872419 2.1800938 4.4591503
-0.68125767 2.2249463 4.4862056
-0.6331268 2.219573 4.4803371
-0.57401967 2.2349694 4.4710736
-0.53727704 2.2191715 4.4608088
