ply
format ascii 1.0
comment PCL generated
element vertex 1532
property float x
property float y
property float z
element camera 0
property float view_px
property float view_py
property float view_pz
property float x_axisx
property float x_axisy
property float x_axisz
property float y_axisx
property float y_axisy
property float y_axisz
property float z_axisx
property float z_axisy
property float z_axisz
property float focal
property float scalex
property float scaley
property float centerx
property float centery
property int viewportx
property int viewporty
property float k1
property float k2
end_header
-1.3208719 0.019555887 3.9117146
-1.2791183 0.019468913 3.9048061
-1.1170535 0.019424256 3.9343333
-1.4144955 0.078533195 3.9378939
-1.3677198 0.0780904 3.9254959
-1.3207856 0.077618338 3.9109156
-1.2865968 0.077290952 3.9018888
-1.4141648 0.12745133 3.9360862
-1.3670497 0.12669615 3.9226727
-1.3226345 0.12617041 3.9155333
-1.2824535 0.12892056 3.9092948
-1.4146744 0.17645913 3.9361649
-1.3665735 0.17529355 3.9200079
-1.3229784 0.17467093 3.9152117
-1.2804348 0.17772937 3.9060104
-1.2055433 0.19230507 3.903008
-1.374423 0.21390529 3.9108009
-1.3372754 0.21417987 3.9252322
-1.2813663 0.22262278 3.9136319
-1.2156931 0.22122498 3.9016628
-1.3695273 0.29265279 3.923624
-1.325247 0.29148388 3.9171896
-1.2732964 0.28584534 3.9178281
-1.2383524 0.27965844 3.9058402
-1.1261581 0.28771183 3.9056427
-1.4201087 0.31472826 3.9453225
-1.3712031 0.32230377 3.9268489
-1.3267565 0.32098693 3.9200521
-1.2776186 0.32569039 3.9162765
-1.2271767 0.32569358 3.9087431
-1.1817163 0.34012878 3.9072754
-1.1344829 0.3394241 3.9082804
-1.4522073 0.39408019 3.940187
-1.4232706 0.39423788 3.9492342
-1.3782339 0.39261776 3.9426508
-1.3208631 0.3795813 3.9427171
-1.2813289 0.37050819 3.9378693
-1.2167205 0.37829003 3.9300022
-1.1827497 0.37673524 3.9197741
-1.1398995 0.37535131 3.9130464
-1.4645509 0.42434442 3.9422326
-1.4187053 0.42242914 3.9344263
-1.3742044 0.42081666 3.9290473
-1.3283324 0.42840186 3.917635
-1.2745575 0.42668471 3.9129105
-1.2215176 0.42508766 3.908839
-1.1820296 0.41079345 3.9036949
-1.1333338 0.41697994 3.9110076
-1.5618033 0.47630385 3.9360628
-1.470252 0.47336543 3.9343815
-1.4203793 0.47928175 3.9286366
-1.3764797 0.47050348 3.9316852
-1.3290793 0.47734773 3.915952
-1.27519 0.47539651 3.9110394
-1.2219672 0.47356474 3.9064784
-1.1798465 0.48178381 3.9022326
-1.1253604 0.47354367 3.9262309
-1.4784321 0.51110411 3.9143081
-1.4122989 0.52488434 3.9139481
-1.3767686 0.52940822 3.9273603
-1.3280419 0.5300799 3.9215763
-1.2750305 0.52239925 3.9144845
-1.2253197 0.52328867 3.912936
-1.1740381 0.52335358 3.9047556
-1.1296678 0.51919669 3.9221051
-1.5007759 0.59466726 3.9368448
-1.4601709 0.59425831 3.9445267
-1.4212098 0.58058947 3.9274466
-1.3794321 0.57953811 3.9301836
-1.3243244 0.57689422 3.9238918
-1.2696829 0.5742808 3.9171982
-1.2260164 0.57206208 3.9105451
-1.1776444 0.58019447 3.908582
-1.128247 0.57644802 3.9198265
-1.4167957 0.62230432 3.9408174
-1.3814996 0.61974132 3.9318709
-1.326352 0.62673795 3.9247279
-1.2732092 0.62465829 3.9229145
-1.2298725 0.62246519 3.9177296
-1.1793768 0.62554216 3.911236
-1.1268631 0.6242137 3.9243026
1.3874726 0.62235487 3.948595
-1.4215091 0.67391223 3.9482508
-1.3774083 0.67296439 3.9371228
-1.3183634 0.67660868 3.9267912
-1.273509 0.67361474 3.9183047
-1.230551 0.67146987 3.9143999
-1.1753223 0.67636079 3.9103632
-1.132282 0.67554796 3.923207
1.4086285 0.66252995 3.9432414
-1.3718539 0.71582109 3.9390941
-1.3226795 0.71818799 3.9348156
-1.2792199 0.71585602 3.9310546
-1.2252889 0.7129972 3.9260056
-1.1703539 0.72748595 3.9253027
-1.1346455 0.72099125 3.9332118
1.6267444 2.0407643 3.9320755
1.6318377 2.079494 3.9312723
1.660722 2.0751944 3.9126961
1.7187053 2.0803678 3.9042296
1.9121755 2.0821385 3.9035196
1.6357117 2.1287401 3.9340076
1.6729834 2.139266 3.9210846
1.7232729 2.1299956 3.9073408
1.8846442 2.1203043 3.9024816
1.9242973 2.1169882 3.908493
1.6320317 2.1694808 3.9294541
1.6643215 2.1811674 3.9247844
1.712981 2.1759343 3.915678
1.8932664 2.1629531 3.905942
1.9261003 2.1633153 3.9033687
1.6403041 2.2241142 3.9302266
1.6738065 2.2251902 3.9212885
1.7177782 2.2147632 3.9121253
1.880873 2.2291763 3.909626
1.9161757 2.2207251 3.9062419
1.6373916 2.2788432 3.9333866
1.6837354 2.2700455 3.9182479
1.7265714 2.26999 3.9122324
1.7625333 2.2849426 3.9023097
1.8811789 2.2752161 3.9112921
1.9291216 2.2802424 3.9120109
1.9774052 2.2734945 3.9068713
1.6383756 2.3146346 3.9322197
1.6797422 2.320986 3.9165173
1.7344042 2.3243515 3.9093356
1.8706087 2.3211036 3.9065719
1.9254736 2.3225904 3.9157379
1.9807106 2.3114173 3.9080868
2.0231659 2.3211408 3.9007735
-1.9156682 2.3604705 3.9395349
-1.7332706 2.3710093 3.9196858
-1.6872271 2.368619 3.9312007
-1.6045648 2.360868 3.9440403
-1.5687504 2.3658638 3.9303207
-1.4737808 2.3719699 3.9028652
-1.4187901 2.3709311 3.9169984
-1.3760258 2.3829219 3.9259162
-1.3298445 2.3781726 3.9297893
-1.2755908 2.3891385 3.9387829
-1.2063376 2.3810339 3.9413798
-1.0206469 2.3948319 3.9107935
-0.9686901 2.3984337 3.927171
-0.93358767 2.3907859 3.9206319
-0.86775255 2.3857875 3.9236932
1.624983 2.3694072 3.9275975
1.667186 2.3667667 3.9084444
1.7159028 2.3622293 3.9092817
1.8798624 2.3660495 3.9096897
1.9218444 2.3653815 3.9193003
1.9649473 2.371578 3.9048548
2.0067983 2.3618822 3.9055181
-1.0672486 2.403465 3.9160676
-0.92392498 2.4041362 3.9219651
-0.86519891 2.4000092 3.9021833
-0.81435645 2.4066148 3.9216805
-0.77316219 2.4108739 3.9352174
-0.7293905 2.4073408 3.9356697
-0.67041665 2.4104421 3.9306762
-0.62411803 2.4123657 3.9276314
-0.57854128 2.4211917 3.9324837
-0.52492589 2.4187315 3.9341269
-0.4713957 2.4267621 3.9301367
-0.428379 2.433639 3.9228134
-0.37484169 2.4294446 3.9201434
-0.32355544 2.4410453 3.9424613
-0.26810411 2.4193165 3.9103818
-0.22703594 2.4303331 3.9301841
-0.17067759 2.43645 3.9275913
-0.12161756 2.4339805 3.9396334
-0.074725792 2.4358187 3.9171281
-0.022842301 2.437582 3.9322064
0.026486484 2.4420326 3.9319909
0.090209857 2.4399402 3.9499645
0.12518583 2.4400423 3.9347351
0.17368266 2.4418576 3.9068947
0.21571869 2.4412441 3.9043665
0.32170773 2.4471562 3.908273
0.36420605 2.4493768 3.9090481
0.42207384 2.4445038 3.9262693
0.47157416 2.4428649 3.9229989
0.5264262 2.4463925 3.9345717
0.57974881 2.4470317 3.9299095
0.67591453 2.4486444 3.9207783
0.72018027 2.4436126 3.9291334
0.77596813 2.4406924 3.9388907
0.83033085 2.4432561 3.9346623
0.87409669 2.4458046 3.9316134
0.97084683 2.4464478 3.9151316
1.0272307 2.4421582 3.9200978
1.2209688 2.43174 3.9302206
1.2809529 2.428427 3.9257119
1.3237048 2.4301507 3.92572
1.3720489 2.4277678 3.9330235
1.4265972 2.4220872 3.9199858
1.4682921 2.4216559 3.9279041
1.5241832 2.4218287 3.9280987
1.5808611 2.4152687 3.9324272
1.6263912 2.4045546 3.9149466
0.07933677 2.4527309 3.9266503
0.17465988 2.4555986 3.9289229
0.23858055 2.4600308 3.9334817
0.26970643 2.4537506 3.9218707
0.32216293 2.4507179 3.9140065
0.38616145 2.4547532 3.9160864
0.40676576 2.4514294 3.9091532
0.51280218 2.4533484 3.9027262
0.56845748 2.4549422 3.9216895
0.62366545 2.452419 3.933548
0.72955376 2.4500606 3.9157367
0.77346021 2.4542086 3.9160435
0.83744907 2.4541857 3.9058857
0.88058931 2.4555087 3.9007356
0.91858894 2.4608054 3.9257419
0.97409618 2.4546983 3.9282899
-1.1349531 -0.51083297 3.9940042
-1.3650824 -0.47634119 3.9920652
-1.3266904 -0.47327599 3.9731383
-1.1143705 -0.48143339 3.9720018
-1.091905 -0.45034051 3.9924479
-1.0915728 -0.4306238 3.9926708
-1.4347179 -0.36462349 3.9537282
-1.1002908 -0.36824477 3.9539294
-1.0918213 -0.39155328 3.9962595
-1.1092041 -0.25173432 3.9553754
-1.0993171 -0.28074718 3.9551635
-1.1105003 -0.22293225 3.9611392
-1.1175064 -0.17401819 3.9513597
-1.0996308 -0.17425056 3.9603128
-1.117312 -0.12561384 3.9518824
-1.0990819 -0.12574822 3.9595442
-1.1173408 -0.086922362 3.9526558
-1.0991765 -0.077335961 3.9606707
-1.1066073 -0.025699852 3.9634047
-1.1010388 0.00014943101 3.9678557
-1.0983065 0.029195638 3.9579101
-1.1118628 0.077855438 3.9694932
-1.1140417 0.12665044 3.9763911
-1.1156739 0.17555521 3.9809377
-1.1138893 0.22391929 3.9729218
-1.4227986 0.29563051 3.9538627
-1.1137739 0.27256063 3.970444
-1.4245304 0.33543003 3.9565206
-1.1171286 0.32741031 3.9723155
-1.461737 0.37684363 3.9673874
-1.4303284 0.36648008 3.9707799
-1.3745905 0.36482215 3.9647
-1.3312687 0.3735756 3.9617302
-1.265283 0.3714973 3.9529157
-1.2463439 0.3814317 3.958396
-1.1130698 0.37414402 3.9696274
-1.6000806 0.44170442 3.9796915
-1.1143067 0.43303046 3.9700565
-1.6033777 0.48283002 3.984611
-1.5850723 0.47029245 3.9675233
-1.4376152 0.46465397 3.9539568
-1.1080537 0.47859949 3.9734979
-1.607564 0.53450394 3.9904838
-1.5834202 0.52086502 3.9682996
-1.1103991 0.52851063 3.9776876
1.3253233 0.53627563 3.9947753
1.3541548 0.53590572 3.9851418
-1.6092439 0.57543564 3.9907026
-1.5689629 0.57385522 3.9640181
-1.4856267 0.59653461 3.9544635
-1.1110294 0.57776535 3.9753289
1.2962205 0.57628012 3.9997313
1.3252562 0.57596153 3.9907448
1.3640156 0.57554215 3.9787798
-1.5669632 0.61806971 3.9780233
-1.5260499 0.62391871 3.9658332
-1.4767292 0.6267938 3.9565763
-1.4436536 0.62538111 3.955353
-1.1172029 0.62036014 3.9933887
1.2982448 0.63687259 3.9997499
1.3273702 0.62659895 3.9919512
1.3652343 0.6257363 3.9771993
-1.5718116 0.67803878 3.9788654
-1.5225596 0.6761145 3.9622619
-1.4795564 0.6778267 3.9583786
-1.4442664 0.67529064 3.9513264
-1.1073389 0.68317884 3.9504998
1.2987969 0.65704954 3.9992342
1.3293325 0.67732191 3.9922378
1.3755147 0.675569 3.9702187
-1.573607 0.71242064 3.9793279
-1.5340033 0.71631593 3.9720595
-1.4735721 0.7196086 3.9667556
-1.4214032 0.72851092 3.972096
-1.3885709 0.73688722 3.9697566
-1.1229376 0.72812295 3.9766808
1.3439147 0.72962129 3.9976552
1.3777208 0.72650063 3.9832387
1.4000918 0.73763597 3.971451
-2.1470041 0.76015687 3.9977632
-1.2657284 0.75475007 3.9839628
-1.2320387 0.75235069 3.9777026
-1.1997522 0.75072718 3.9753604
1.3244593 0.77188045 3.9983056
1.3724064 0.77875566 3.9797604
1.4007677 0.77787662 3.9680443
-2.1546135 0.81835681 3.9551923
-2.1498997 0.82458234 3.9938099
1.3387592 0.82530069 3.9952979
1.3756429 0.83062506 3.9821115
1.4079074 0.8313508 3.9602916
1.3418888 0.86918527 3.994029
1.3816844 0.87445819 3.9935884
1.4186368 0.87249625 3.9747653
1.3756583 0.92321342 3.9922297
1.4227778 0.92532349 3.9783468
1.3898082 0.9816913 3.9896286
1.4230773 0.97579181 3.9707904
1.3679962 1.0098312 3.9956105
1.4234734 1.0186532 3.9835725
1.4217063 1.0817864 3.9956706
1.4168482 1.1276691 3.9886587
1.4307163 1.1713462 3.9881229
1.4266663 1.2216923 3.991658
1.4325206 1.2645901 3.9731674
1.4311827 1.4676933 3.986217
1.4217952 1.583613 3.994566
1.4248598 1.6183683 3.9939959
1.5780594 2.0721526 3.9875424
1.6058068 2.0659904 3.9657166
1.5271349 2.1092255 3.9992671
1.5833265 2.1226263 3.9832242
1.6130514 2.1187954 3.9659014
1.5755378 2.1742797 3.9894981
1.6120763 2.1743448 3.9638455
1.5449528 2.243855 3.9997203
1.5760558 2.2302074 3.9896886
1.6163061 2.2251973 3.9670191
1.5834494 2.2737727 3.9938405
1.6198168 2.2754748 3.9678781
1.6104424 2.3250825 3.9791322
-2.1868401 2.3552594 3.9874897
-2.1199787 2.3553293 3.9581196
-2.0835676 2.3658679 3.9957173
-2.0242422 2.3502781 3.9885225
-1.9861979 2.368535 3.9838467
-1.9472117 2.3626263 3.9875538
-1.8674061 2.3704891 3.9780726
-1.7681146 2.3808801 3.9800107
-1.5733817 2.3804142 3.9908016
-1.5284026 2.3845348 3.9604249
-1.4853318 2.3862305 3.9764724
-1.4164155 2.3817821 3.9879861
-1.3040527 2.3797688 3.9640949
-1.2878772 2.39025 3.9871175
-1.2328559 2.3900435 3.983779
-1.0080609 2.3942719 3.9595432
-0.98958939 2.3909268 3.9811292
-0.91093576 2.3940637 3.9771869
-0.86149549 2.3935661 3.9691255
-0.83229494 2.3956335 3.9696519
-0.6798957 2.3991926 3.9745567
1.4932318 2.3987577 3.9975283
1.5290012 2.3894217 3.9867551
1.5728498 2.3794396 3.9893203
1.6031653 2.3749743 3.9713185
-1.0383154 2.4144855 3.9886613
-0.95874727 2.4058549 3.988986
-0.89590031 2.4041781 3.9502542
-0.81181997 2.4093871 3.9730048
-0.77862287 2.4065464 3.9732323
-0.72541124 2.4080868 3.9834893
-0.66078395 2.4075854 3.9912059
-0.62721467 2.4130416 3.981534
-0.57187635 2.4166346 3.9709337
-0.51810217 2.4152083 3.9741671
-0.4763003 2.4199362 3.985996
-0.43146139 2.4299288 3.9611783
-0.3774775 2.4251852 3.9575405
-0.32872966 2.4247065 3.9750564
-0.27231047 2.4358006 3.9814799
-0.21813834 2.4272609 3.9700189
-0.17618239 2.4359293 3.9857979
-0.12245678 2.4293883 3.9765861
-0.069205232 2.4304707 3.9793463
-0.026620161 2.4361539 3.9890418
0.016104389 2.4383001 3.9926009
0.076476306 2.4384563 3.9774315
0.12298752 2.4376707 3.9901721
0.17614949 2.4443395 3.977206
0.22943953 2.4435818 3.9739306
0.28408882 2.444304 3.9948714
0.32154721 2.4441061 3.9744306
0.38071507 2.4453616 3.9905214
0.42368197 2.4458144 3.9879887
0.47727394 2.4457285 3.9832411
0.5300988 2.4420028 3.9720483
0.57302094 2.4423823 3.9681435
0.62694645 2.4384904 3.966908
0.68297029 2.4418664 3.9769573
0.72296864 2.4401996 3.9764321
0.77189839 2.4402733 3.9848933
0.82493412 2.4376717 3.972342
0.87960863 2.4396262 3.96667
0.97358996 2.4425695 3.9704647
1.0117196 2.4459987 3.9531398
1.0767324 2.4305522 3.9799981
1.1264578 2.4276068 3.969064
1.1733404 2.4345803 3.9706533
1.2286302 2.4251392 3.9653616
1.2776074 2.4187818 3.9789722
1.3384159 2.4241257 3.9852738
1.3775704 2.4155335 3.9593816
1.4275044 2.4172533 3.982235
1.4811592 2.4194031 3.9876282
1.5197338 2.4101949 3.9592574
1.5696251 2.4078174 3.9652567
0.27192667 2.45276 3.9644516
0.34648794 2.4522531 3.9592333
0.37855381 2.4527712 3.9578383
0.92781901 2.4530101 3.9808459
-1.3924412 -0.47891635 4.0089788
-1.0984477 -0.47274193 4.0148573
-1.0947258 -0.41223136 4.0055809
-1.0971826 -0.36395267 4.0177226
-1.1005883 -0.32560068 4.0324345
-1.1005383 -0.29597509 4.0337687
-1.0990708 -0.27586564 4.0293136
-1.1030461 -0.21750481 4.0462751
-1.4806936 -0.07004898 4.0311642
-1.1008391 -0.078840889 4.041472
-1.4852417 -0.04004797 4.0438161
-1.4844562 0.040490329 4.0416164
-1.4860477 0.070766367 4.0456343
1.0774696 0.53637785 4.0461717
1.1275434 0.53659296 4.0386219
1.176151 0.53611857 4.0253901
1.225397 0.53596282 4.0141206
1.2757112 0.53627247 4.0058236
1.093107 0.57153541 4.0430112
1.1281856 0.57666498 4.0371652
1.1766766 0.57608527 4.0234256
1.2261302 0.57601148 4.0127468
1.2742592 0.57646036 4.005775
-1.621434 0.6204443 4.0166574
-1.5938199 0.63785732 4.0018306
-1.109051 0.63681483 4.0380425
1.1202689 0.62749529 4.0413041
1.1754806 0.62522286 4.0289078
1.2239583 0.62957913 4.021132
1.2739999 0.62474662 4.0050888
-1.6245183 0.67254931 4.0185046
-1.5954415 0.6688993 4.002419
-1.1169009 0.66541582 4.0254359
1.0744755 0.69098026 4.045373
1.1205504 0.67746311 4.0368252
1.1701516 0.67735243 4.0265541
1.2205691 0.67771024 4.0185528
1.2743796 0.67757952 4.0062261
1.3013033 0.69820684 4.0022974
-2.1422696 0.730492 4.0172315
-1.6344662 0.7176705 4.0381436
-1.5998576 0.73170823 4.0059829
-1.1110789 0.71771264 4.0363193
1.0715189 0.71780044 4.0442028
1.1232041 0.72898239 4.0404725
1.1732104 0.72905225 4.031148
1.2226696 0.72878546 4.0194936
1.2722857 0.72863388 4.0080032
1.3134065 0.72931051 4.0028524
-1.4707887 0.75351751 4.0466862
-1.414658 0.77101672 4.0416803
-1.3933159 0.77042621 4.0434804
-1.3347661 0.76588374 4.0314274
-1.2827636 0.77837658 4.0359178
-1.2355946 0.78065115 4.0210142
-1.178461 0.78255981 4.0431948
-1.1345977 0.76999927 4.0390491
1.1239518 0.76944155 4.038137
1.1748296 0.77005196 4.0316095
1.2245315 0.76988751 4.0205097
1.2731045 0.76904851 4.0054464
1.3251218 0.76027042 4.0019822
-2.1441057 0.80922729 4.0342121
1.0863636 0.82117224 4.047678
1.1236532 0.81850272 4.0401092
1.1737577 0.82517421 4.0363612
1.228418 0.82247901 4.0264134
1.2770261 0.82151175 4.0109181
1.3118091 0.81633925 4.0030012
1.1187692 0.86305845 4.0449643
1.1748443 0.87655371 4.0392532
1.2211784 0.87461275 4.0304604
1.2717636 0.87485009 4.0208001
1.3173901 0.87735838 4.0059724
1.1795267 0.92423403 4.0420022
1.2250823 0.92783904 4.0355496
1.2747947 0.92734337 4.0225768
1.3235713 0.92622334 4.0064387
1.3551567 0.94732559 4.0002837
1.1987913 0.97135657 4.0486422
1.233097 0.97858256 4.0424323
1.2781792 0.98032516 4.0249572
1.3280785 0.97988081 4.0117226
1.3651133 0.97651696 4.0036683
1.2273048 1.0297027 4.0444431
1.2725775 1.0243627 4.0344591
1.3215866 1.0230745 4.0179801
1.3730445 1.0338197 4.0066957
1.4045283 1.0346345 4.0024529
1.2315801 1.0742517 4.04492
1.2745452 1.0767446 4.0314522
1.3250275 1.0765147 4.0191298
1.3763441 1.0769533 4.0088005
1.4078248 1.0675609 4.0062017
1.237817 1.1208751 4.0452824
1.2727262 1.1333745 4.036294
1.3273669 1.1292759 4.0164485
1.3787185 1.1296942 4.0058584
1.2312676 1.1855077 4.047224
1.2715591 1.1747735 4.0386286
1.3205134 1.1729057 4.0207057
1.3745018 1.175472 4.0174136
1.4156775 1.1757441 4.0083313
1.2260252 1.2143171 4.0481524
1.2748688 1.2188007 4.0406003
1.3252139 1.218039 4.026463
1.3758062 1.2175425 4.0126472
1.2786285 1.2737596 4.0413723
1.330093 1.2738765 4.030026
1.3715323 1.274211 4.0213146
1.4171985 1.2724026 4.018786
1.2749786 1.3250078 4.0421529
1.3226647 1.3280889 4.0292945
1.3766298 1.3305185 4.0243955
1.4180955 1.3264773 4.022666
1.2773833 1.3687695 4.0400233
1.3267678 1.3735296 4.0319767
1.3791513 1.3742875 4.0218582
1.4201638 1.3740063 4.0107346
1.2897829 1.4195573 4.0448503
1.3212297 1.4199728 4.0388093
1.3719832 1.41891 4.0234027
1.4236008 1.4187644 4.0100565
1.2860605 1.4611715 4.0467358
1.3242505 1.4733224 4.0426402
1.3764232 1.4650606 4.0257187
1.4236695 1.4707969 4.0140686
1.2970691 1.5005257 4.0489101
1.3270007 1.5308319 4.0415053
1.3717556 1.5233588 4.031168
1.4103043 1.5263582 4.0170469
1.3357644 1.5823092 4.0441265
1.3765422 1.5810475 4.0306745
1.4141077 1.5766512 4.0197353
1.3228612 1.6224195 4.0459185
1.376864 1.6328472 4.0388908
1.4059236 1.6205817 4.0049067
1.311952 1.6863964 4.047471
1.3761977 1.677137 4.038373
1.4217464 1.6693468 4.0166702
1.2916397 1.7084804 4.0483465
1.313135 1.7090181 4.0446768
1.3746163 1.7226329 4.0442376
1.4138341 1.7266628 4.0344739
1.3854501 1.7733569 4.0389342
1.4147679 1.7702078 4.0236182
1.3810401 1.8229238 4.0334239
1.4138577 1.8205481 4.011467
1.3777153 1.8694566 4.0386715
1.4093561 1.8724998 4.0090637
1.3856421 1.9171299 4.04252
1.4115216 1.9206029 4.0248361
1.3766917 1.9748813 4.0438824
1.4129941 1.9668708 4.0259247
1.3821993 2.0260599 4.0440149
1.418926 2.0182984 4.026721
1.4539416 2.0327964 4.0212755
1.3837674 2.0734558 4.0448885
1.427783 2.0743487 4.0352044
1.4753815 2.068948 4.0160842
1.5285891 2.0748401 4.0025258
1.3848143 2.1204119 4.0438542
1.4264948 2.1277645 4.0336809
1.4764692 2.1253819 4.0203967
1.5169533 2.1297762 4.0089431
1.5534277 2.1263566 4.0001373
1.3717475 2.1756718 4.0444436
1.4217529 2.1730964 4.0313387
1.4756911 2.1796825 4.0191331
1.5265837 2.178329 4.0071063
1.377341 2.2284746 4.0426979
1.421418 2.2287602 4.0315437
1.4721072 2.2269025 4.0190949
1.5239555 2.2343397 4.0136318
1.3410789 2.28281 4.0446992
1.3810692 2.2785513 4.03478
1.4234018 2.2780554 4.0311694
1.4737318 2.2747154 4.0282493
1.5171456 2.2736056 4.0135407
1.5503203 2.2737317 4.0039163
-2.2246792 2.347753 4.0148416
-2.1978765 2.3439343 4.0188103
1.2865206 2.3417222 4.0498204
1.324268 2.3360341 4.046813
1.3764683 2.3334367 4.037003
1.4352951 2.3289843 4.0282183
1.4779445 2.3144398 4.0250158
1.5226016 2.3150401 4.0131674
1.5691545 2.3183899 4.0055742
-2.147831 2.3631015 4.0213561
-1.9625167 2.3582957 4.0297918
-1.8384883 2.3687823 4.0411525
-1.7534815 2.3915358 4.005785
-1.6725016 2.3885956 4.0276299
-1.6099675 2.3793736 4.0301814
-1.5173265 2.3796916 4.0065131
-1.487329 2.3850412 4.0253515
-1.3823563 2.3991485 4.0291796
-1.3000929 2.3907804 4.0351825
-1.2656047 2.388308 4.0391564
-1.2174144 2.3915062 4.0313945
-0.90932554 2.3966212 4.0294919
1.2330527 2.3892746 4.0488415
1.281441 2.3828058 4.042212
1.3233619 2.3815627 4.0379162
1.3756572 2.3817408 4.0297289
1.4286768 2.3858454 4.0126519
1.4818976 2.3650596 4.0156245
1.5229014 2.3618317 4.0062127
1.56181 2.3573196 4.0033784
-1.022046 2.4056144 4.0245709
-0.95651126 2.40574 4.0371041
-0.93392932 2.4038887 4.0379033
-0.8890326 2.4006374 4.039948
-0.817128 2.4034834 4.008934
-0.77588803 2.4097781 4.0259452
-0.73061782 2.4037323 4.0220313
-0.68769532 2.4050448 4.0300107
-0.629116 2.4091244 4.0286107
-0.57618684 2.4133065 4.0107522
-0.52281296 2.4153547 4.0197477
-0.47850537 2.4095945 4.0142121
-0.4258337 2.426568 4.0242267
-0.37037897 2.4271629 4.0064945
-0.31766582 2.4347 4.0224295
-0.27018577 2.4253459 4.0277419
-0.22001898 2.4268117 4.0142555
-0.17747498 2.4323726 4.0250578
-0.12366518 2.4264641 4.0281448
-0.069871172 2.4331236 4.0287924
-0.026977193 2.4447248 4.0483932
0.032333948 2.4393044 4.0280437
0.080868706 2.4360104 4.0334272
0.12381184 2.4320483 4.0260468
0.17810039 2.4390929 4.0361767
0.23201451 2.4387758 4.0336113
0.27578917 2.4443202 4.0407381
0.31826755 2.4384542 4.0286512
0.37209713 2.4377897 4.0240541
0.42655337 2.4408476 4.0250816
0.46982759 2.4412022 4.0220318
0.523004 2.4374068 4.0107231
0.57865864 2.4338772 4.0221701
0.62029523 2.4380376 4.0321898
0.66318542 2.4362433 4.0239711
0.72319239 2.4364374 4.0319519
0.77671349 2.4338291 4.0199614
0.82392943 2.4449654 4.0317402
0.87467796 2.4378102 4.0303335
0.92867202 2.4375796 4.0302134
0.97602439 2.4378092 4.0252509
1.0231452 2.4407573 4.0133224
1.0667796 2.4231579 4.030426
1.1243448 2.4138405 4.0181537
1.1774019 2.4104462 4.0299768
1.2308546 2.4181609 4.0264101
1.2771509 2.4111624 4.0276217
1.3223279 2.4129124 4.0194283
1.3663766 2.4125614 4.0072794
1.4021702 2.4170644 4.005784
1.4726416 2.4013786 4.0083694
0.26356906 2.4528291 4.0099139
0.83117986 2.4559972 4.0022464
-1.1000167 -0.46197703 4.0992332
-1.0954376 -0.48006174 4.0806355
-1.0970531 -0.32046863 4.0970669
-1.1100923 -0.25871947 4.0705857
-1.0957023 -0.28004742 4.0939589
-1.1070821 -0.23815931 4.0603466
-1.0941439 -0.21968181 4.0905213
-1.1073192 -0.1786171 4.0632
-1.0955434 -0.17995349 4.097054
-1.1057208 -0.12878035 4.0585694
-1.0945129 -0.13980006 4.0942163
-1.1070315 -0.079280555 4.0641732
-1.4879775 -0.019944813 4.051352
-1.1080208 -0.029673453 4.0682411
-1.4884641 0.010320489 4.0526724
-1.1135103 0.020133957 4.0883889
-1.1101252 0.079773836 4.0754313
-1.1107032 0.12968282 4.0766759
-1.1124585 0.16979787 4.0821114
-1.1167244 0.23052695 4.095757
-1.1081331 0.29833114 4.0611858
-1.1148682 0.48014772 4.0741911
-1.1193291 0.54231137 4.085371
1.0211744 0.53810847 4.0696826
1.225647 0.52472347 4.0870309
-1.1185875 0.57208133 4.0798645
0.88355643 0.57914537 4.0962415
0.92262608 0.57861453 4.0865412
0.97110409 0.57778955 4.0729828
1.0209173 0.57780904 4.0648861
1.0682456 0.58155262 4.0544348
-1.1248322 0.60551673 4.0996923
0.87480652 0.62994456 4.0984955
0.92383534 0.62931436 4.0870113
0.97358418 0.62919533 4.0784125
1.0217655 0.62813401 4.0632987
1.0712445 0.62793034 4.0532856
-1.1145428 0.69995463 4.0512919
0.88580549 0.6706987 4.0974569
0.92454451 0.66977739 4.0858445
0.97471428 0.67990464 4.0777125
1.0260202 0.67665362 4.0647182
1.0690336 0.66515917 4.0541406
-2.1252744 0.7285651 4.0836515
-1.1155385 0.74060684 4.0500593
0.88716888 0.72186029 4.0980086
0.92629081 0.72112066 4.0878201
0.97506642 0.73016286 4.0733533
1.0225023 0.72610122 4.067286
1.0748782 0.74004853 4.0544281
-1.5214645 0.76707536 4.0719924
-1.4823161 0.77994227 4.0756903
-1.4158595 0.79769099 4.0740314
-1.373372 0.78803307 4.0690422
-1.3233988 0.79129434 4.060318
-1.2239113 0.78599501 4.0527611
0.88850784 0.78318262 4.096776
0.92685586 0.77165079 4.084106
0.9776932 0.77224529 4.0793352
1.0267216 0.77142262 4.0666237
1.0768517 0.77146792 4.0580735
-1.4657309 0.82024038 4.0929837
-1.4208498 0.82987112 4.0952783
-1.3772815 0.8297506 4.0862908
-1.3268009 0.82969379 4.0863929
-1.2728332 0.82239312 4.0817957
-1.2208506 0.82093942 4.0740957
-1.1754761 0.81756985 4.0654731
-1.1453713 0.82778567 4.0705833
0.88952285 0.82429713 4.096107
0.93202394 0.82161134 4.0891151
0.97923642 0.82368535 4.0790896
1.0295177 0.82377046 4.0710406
1.0759962 0.82245177 4.0560274
-1.4175857 0.88696355 4.0993085
-1.3811716 0.87316394 4.0918913
-1.3213686 0.87389666 4.0865121
-1.2639229 0.8788439 4.0728874
-1.2228867 0.87306899 4.0736203
-1.1770324 0.87237519 4.0795431
-1.1465759 0.88925868 4.0661197
0.89139837 0.86631322 4.0991516
0.9224394 0.87717777 4.0968513
0.97249466 0.87687516 4.0874858
1.023201 0.87716275 4.0804777
1.0724015 0.87619513 4.0670896
1.1219486 0.88564217 4.0535045
1.1520145 0.86543 4.0502858
-1.4149202 0.91617495 4.0868444
-1.3754246 0.9226777 4.0909028
-1.320559 0.92791378 4.0937591
-1.2733481 0.93102735 4.0889931
-1.2276388 0.92739797 4.0816641
-1.1747812 0.92473733 4.0701842
-1.1469443 0.90975928 4.0643535
0.9231177 0.91818994 4.0938883
0.97466856 0.91923499 4.0905519
1.0250015 0.91910613 4.0815954
1.0752243 0.91887563 4.071672
1.1275212 0.92479819 4.0603609
1.1553576 0.93858778 4.0512223
-1.3642571 0.97847515 4.0913315
-1.3186303 0.97518378 4.0869665
-1.2743397 0.97270542 4.0855908
-1.2290953 0.97380054 4.0717297
-1.1738027 0.97595435 4.0737081
0.93560648 0.9508906 4.0981593
0.97746629 0.97253394 4.0943351
1.0273274 0.97181225 4.0828223
1.0775913 0.97151732 4.0726256
1.1262162 0.97562134 4.0631962
1.1693963 0.9822787 4.056324
1.212297 0.9943763 4.0545106
-1.4011393 1.0137223 4.0963922
-1.3566406 1.0113757 4.0966263
-1.3222771 1.0190649 4.0912743
-1.2763406 1.0230585 4.0910201
-1.2227026 1.0293586 4.0851269
-1.1683557 1.0309325 4.0836124
0.97899002 1.0146343 4.0940719
1.0235317 1.0267347 4.0841808
1.0699683 1.0244839 4.0754542
1.121358 1.0251312 4.068603
1.1725612 1.0255458 4.0603814
1.2130218 1.0152748 4.0534487
-1.3147421 1.0624547 4.0948963
-1.2853669 1.0643334 4.0943503
-1.2208503 1.0745723 4.0856805
-1.1812284 1.0741765 4.0835571
1.0254003 1.0764501 4.0897927
1.0723276 1.067415 4.0772753
1.1239386 1.0681726 4.0707245
1.1753478 1.0788715 4.0608864
1.2157006 1.0785612 4.0514431
-1.2185612 1.1109289 4.0939627
-1.1861055 1.1094248 4.0947204
1.0256348 1.1295716 4.0920219
1.0754683 1.1215175 4.0797696
1.1274751 1.1225867 4.0740499
1.1792504 1.1334996 4.0647101
1.2148912 1.1283396 4.0580592
0.98634017 1.1653575 4.0986857
1.0219609 1.1702751 4.0909443
1.0732443 1.1788172 4.0854087
1.1219969 1.178539 4.0832062
1.1715842 1.1769286 4.0675669
1.2182075 1.1724166 4.0547194
1.0169971 1.2239814 4.0967736
1.0776747 1.2215545 4.0901899
1.1232493 1.2209076 4.0794101
1.1735383 1.2198715 4.0659003
1.2149507 1.2305526 4.0567446
1.0252581 1.2599221 4.0941367
1.0729482 1.2738179 4.0925131
1.1272907 1.2767824 4.0830784
1.1775509 1.275499 4.0687594
1.2285105 1.2750254 4.0565686
1.0747639 1.3258479 4.0950789
1.121165 1.3332189 4.088758
1.1728935 1.333297 4.0788212
1.2227607 1.3313817 4.0622373
1.2643174 1.3419818 4.0518322
1.0390064 1.3648571 4.0988255
1.0715466 1.3771691 4.0966291
1.1242663 1.3783532 4.0903959
1.176823 1.3792474 4.0828028
1.2278512 1.3783617 4.069375
1.2686555 1.3880212 4.0558505
1.0848558 1.4224831 4.0959926
1.1216227 1.4178079 4.0918932
1.1751016 1.4282908 4.0891876
1.2215879 1.4245905 4.0751367
1.2612022 1.4223802 4.059834
1.0893236 1.4804579 4.0998731
1.1750594 1.4729996 4.0944176
1.225441 1.4708152 4.0774922
1.2590902 1.4779009 4.0576701
1.0831887 1.5093912 4.0970411
1.1238391 1.5213594 4.0962515
1.175831 1.5157723 4.0862503
1.2294835 1.5175312 4.0800161
1.2757095 1.5283895 4.0572758
1.1315095 1.5742563 4.0981307
1.1700933 1.5639075 4.0937119
1.222428 1.5742649 4.0794373
1.2732005 1.5826564 4.0595989
1.3045239 1.5825276 4.0521002
1.1751546 1.6233888 4.0967259
1.2275897 1.6336036 4.0818114
1.2781125 1.6308508 4.0632935
1.33435 1.6458706 4.0591011
1.1476008 1.6926107 4.0993366
1.1784872 1.6808546 4.0930791
1.2197419 1.6794603 4.0807419
1.270449 1.6767225 4.0624461
1.3271556 1.6737938 4.0518479
1.1491901 1.7161446 4.0986757
1.1834302 1.7303638 4.0974727
1.2251794 1.729387 4.0861368
1.270799 1.7272011 4.0644789
1.3363341 1.734973 4.0647659
1.3639587 1.7411574 4.0536165
1.175317 1.7766038 4.0952172
1.2277346 1.7755256 4.0813837
1.2753308 1.771631 4.06704
1.3294766 1.7801208 4.0634408
1.366956 1.7769153 4.0523462
1.171392 1.8205422 4.0953197
1.2227637 1.8265384 4.0890121
1.2739873 1.8234032 4.0700932
1.3191339 1.8268878 4.0678802
1.357644 1.8224827 4.0576906
1.1734939 1.8865254 4.0970674
1.2260877 1.8743259 4.0859056
1.2786835 1.8729473 4.0708394
1.3223572 1.8742158 4.0634809
1.3660495 1.8753862 4.0554686
1.1418648 1.908826 4.0983057
1.1798121 1.9195776 4.0960755
1.2238097 1.9181839 4.0796466
1.2764132 1.9241709 4.0701013
1.3276949 1.9247837 4.0649867
1.3607175 1.9258859 4.0594139
1.1920791 1.9746286 4.0958529
1.224668 1.9750034 4.0895667
1.2731104 1.9710033 4.0752907
1.3269269 1.9784425 4.0678926
1.3615974 1.9594339 4.0505319
1.1969485 2.0260265 4.096941
1.2284393 2.0243819 4.0864639
1.2702336 2.0220182 4.0718346
1.3246554 2.0225973 4.0600953
1.3675903 2.0113204 4.0525098
1.1779827 2.0705125 4.0962358
1.2258978 2.0765805 4.0841141
1.2738857 2.0712125 4.067234
1.3184878 2.0731738 4.0606833
1.3516635 2.074141 4.0545378
1.1388137 2.1363931 4.0985384
1.1702815 2.123281 4.0915942
1.2267767 2.1268981 4.0865703
1.2799994 2.1247516 4.0698872
1.323438 2.1245508 4.0589967
1.3563893 2.1249948 4.0516653
1.1418662 2.1749272 4.0966043
1.1739528 2.1736574 4.0872459
1.2192087 2.1764624 4.0828962
1.2731626 2.1752946 4.0680604
1.3272669 2.1744118 4.0531774
1.146816 2.2282715 4.0966349
1.1789736 2.226861 4.0869708
1.2211632 2.2237833 4.0715828
1.2670295 2.2274313 4.0680733
1.3229579 2.2292747 4.0581155
1.1279905 2.2785082 4.0943351
1.1768926 2.2816377 4.0847206
1.2271533 2.2787595 4.073112
1.2711525 2.2787218 4.0627289
1.3110174 2.2742293 4.0530357
-2.2254593 2.3498473 4.0804086
-2.1935313 2.340827 4.0751133
1.0411925 2.3252707 4.0980606
1.0889741 2.3442872 4.0986323
1.1210781 2.3310394 4.0927386
1.1758765 2.3302248 4.0794659
1.2301792 2.3285251 4.0640602
1.2704802 2.324579 4.0556674
1.3088001 2.3199751 4.0547681
-2.1272321 2.3555913 4.0744357
-2.0133352 2.3682623 4.0882378
-1.9446788 2.3784962 4.0777531
-1.8793373 2.3688014 4.0827365
-1.8223627 2.3774383 4.0641699
-1.7555857 2.3798194 4.0921946
-1.7444195 2.3874245 4.055603
-1.6746562 2.3851538 4.0744634
-1.645959 2.3764973 4.0669627
-1.4820877 2.3902225 4.0889959
-1.41544 2.395355 4.0647202
-1.3793708 2.3909972 4.0663013
-1.3228204 2.3897238 4.0784874
-1.2617134 2.379719 4.0750346
-1.2422445 2.3850222 4.0893807
-0.92937493 2.3984818 4.0776205
1.0266349 2.3786879 4.0935111
1.0773115 2.3761187 4.0839386
1.1223974 2.3780284 4.0781174
1.1675794 2.3799748 4.071928
1.2162175 2.3722205 4.0593872
1.2663887 2.367465 4.0515261
-1.7999988 2.4009438 4.0626569
-1.5603955 2.4067199 4.0974131
-1.5354654 2.4032178 4.0981646
-1.1964872 2.4049129 4.0854807
-1.0089914 2.4047301 4.0742664
-0.97990084 2.4128873 4.0778294
-0.86379135 2.4216404 4.0807056
-0.81808048 2.4165282 4.0789614
-0.77239645 2.4111381 4.0763474
-0.72458172 2.4172394 4.0776792
-0.67347133 2.415437 4.0851355
-0.60649109 2.4158597 4.0819225
-0.57126498 2.4164839 4.0632391
-0.52768147 2.4162178 4.0672245
-0.49476668 2.4149156 4.06813
-0.41966668 2.4207273 4.0843415
-0.37500101 2.4249122 4.0714364
-0.33165532 2.425807 4.0757737
-0.284457 2.4220779 4.0798717
-0.22177306 2.4244471 4.0559335
-0.17897984 2.4203992 4.0738177
-0.13175677 2.4194562 4.0658565
-0.070392139 2.429137 4.0678816
-0.027102867 2.4344432 4.0771589
0.027210414 2.4314449 4.0721226
0.081400737 2.4301972 4.0695124
0.12485909 2.4313412 4.0706062
0.16842306 2.4336722 4.0733385
0.22275446 2.4286666 4.0745635
0.27744931 2.4370508 4.0745363
0.32408643 2.4260447 4.0689359
0.37571123 2.4307628 4.0766296
0.42648873 2.4321494 4.0721326
0.47230524 2.4323483 4.0531254
0.52481055 2.4356663 4.0725355
0.57352966 2.4254591 4.0783634
0.62946177 2.4306839 4.0810881
0.67396611 2.433234 4.0800819
0.72787058 2.4248338 4.0705566
0.78269947 2.419662 4.0658307
0.82756859 2.4228392 4.0645866
0.87448281 2.4204121 4.0769367
0.9156391 2.4152956 4.0772953
0.97625011 2.4218001 4.0739021
1.0252593 2.4152451 4.0702696
1.0760889 2.4065642 4.0644894
1.1209787 2.4081717 4.0580368
-1.0888386 -0.47594014 4.13591
-1.1042305 -0.42347726 4.1177979
-1.0885098 -0.40489963 4.1396775
-1.1060157 -0.37359256 4.1277113
-1.1031573 -0.32220829 4.1198325
-1.0990719 -0.26083365 4.1074195
-1.0979512 -0.16029415 4.1066008
-1.1038237 -0.10066473 4.129806
-1.0994523 -0.12034856 4.1131043
-1.1065636 -0.080702156 4.1403394
-1.0973662 -0.059986893 4.1061406
-1.102407 -0.030072901 4.1251945
-1.1023351 0.020299003 4.124918
-1.1027629 0.070672587 4.1261272
-1.1058654 0.12134457 4.1369052
-1.1020384 0.1712445 4.1213779
-1.1100168 0.21719256 4.1300888
-1.1156021 0.26858112 4.1160684
-1.1225882 0.33245182 4.1125698
-1.125385 0.37361985 4.1204681
-1.124101 0.42365906 4.1124387
-1.1232612 0.4636113 4.1064405
-1.1245964 0.51460922 4.1072369
0.64696503 0.54168105 4.14856
0.67606002 0.54089081 4.1393127
0.72702658 0.53653765 4.1392193
0.77466166 0.53982216 4.1194391
0.82398504 0.53939778 4.1097045
0.87446129 0.53975499 4.1055288
1.1220702 0.52817518 4.1355963
1.1821456 0.52780169 4.1211553
1.2018379 0.52754217 4.1151323
0.64711958 0.57191062 4.1468582
0.67656159 0.57136774 4.139689
0.72679371 0.5714671 4.1347547
0.77724397 0.57624763 4.1190848
0.82699519 0.5772202 4.108562
0.86441439 0.57968897 4.1029835
0.64246368 0.61740565 4.1453781
0.67736095 0.62221158 4.13974
0.72720695 0.62194139 4.1322951
0.7738089 0.62471956 4.1179142
0.82218236 0.62582225 4.1072955
0.64215618 0.67739964 4.1483059
0.67804277 0.67306894 4.1387243
0.72751111 0.67237335 4.1287651
0.77709818 0.67188442 4.1196456
0.82672948 0.67148226 4.1106362
0.86608458 0.67092907 4.1017103
-1.6982923 0.73646683 4.1378436
0.642694 0.71152526 4.1480122
0.67535222 0.72791958 4.1431046
0.728544 0.7235896 4.1289563
0.77852935 0.72335547 4.1215138
0.82759082 0.72235036 4.1092243
0.87236881 0.72204673 4.1012731
-1.6789751 0.77932727 4.1426625
-1.6237488 0.79037166 4.1389203
-1.5771523 0.78110397 4.1184998
0.67116547 0.77717519 4.1475768
0.7303825 0.7757898 4.1333609
0.77893126 0.77396655 4.1174984
0.82560742 0.7723996 4.1140151
0.86910629 0.77375829 4.1041574
-1.6662077 0.8150382 4.1449876
-1.6355116 0.84178793 4.1423368
-1.5656226 0.82216442 4.1126509
-1.5217174 0.82091796 4.117332
-1.485702 0.84930736 4.1074815
-1.439034 0.8462081 4.1027632
-1.1432315 0.80001312 4.145339
0.68202716 0.81848085 4.1460333
0.72462028 0.82473153 4.1412992
0.77400559 0.82451749 4.1262364
0.82122177 0.82633948 4.1162057
0.86054271 0.82540971 4.1060309
0.91192138 0.8465237 4.1007271
-1.6627158 0.87660384 4.1471901
-1.619989 0.87064081 4.1278367
-1.5685837 0.87283975 4.1194878
-1.5244559 0.87445992 4.1172395
-1.4785362 0.88228643 4.114327
-1.4335326 0.87456077 4.1043096
-1.3870929 0.87692654 4.1094084
-1.2844895 0.86003584 4.1006036
0.68537426 0.87068671 4.1469049
0.72167581 0.87457001 4.1413956
0.77018917 0.87492877 4.1286559
0.82237303 0.87796414 4.114985
0.86775416 0.87893564 4.1033573
-1.6207768 0.91853434 4.1327367
-1.5820844 0.92843544 4.1350536
-1.5276899 0.92843843 4.1179309
-1.4795606 0.92441374 4.1107779
-1.4430749 0.92101288 4.1033797
-1.3538456 0.9269104 4.1017609
0.69515073 0.92353594 4.1486979
0.72497362 0.92275643 4.1416869
0.77513963 0.92214113 4.13272
0.82495719 0.92120695 4.121932
0.87445349 0.92004937 4.1096478
-1.6306065 0.98757887 4.1474605
-1.5982919 0.98151541 4.145196
-1.5308684 0.97217631 4.1196923
-1.4721645 0.97486448 4.1138778
-1.4210219 0.97415668 4.1068711
-1.3798344 0.95123088 4.1098003
0.69593877 0.95505857 4.1487689
0.72689015 0.97604293 4.1447659
0.7774356 0.97569108 4.1370282
0.82699889 0.97424608 4.1242337
0.87718546 0.97363704 4.1145468
0.92574883 0.97758657 4.1062264
-1.6008117 1.0253351 4.1444783
-1.5211579 1.027299 4.1258464
-1.4816602 1.0177205 4.1177301
-1.4335001 1.0315857 4.1098595
-1.3758882 1.0292543 4.1074471
-1.1430506 1.0049624 4.1139412
0.72891563 1.0297139 4.1479664
0.77963561 1.0294274 4.1405096
0.82931799 1.0278318 4.1273847
0.87622261 1.025944 4.1217403
0.92373049 1.0285199 4.1078205
0.97140336 1.037648 4.1030245
-1.6156563 1.0598494 4.1468711
-1.5646105 1.064545 4.1335192
-1.5195282 1.0729911 4.1347289
-1.4565278 1.065362 4.1186299
-1.4169225 1.087898 4.1312914
-1.3771123 1.0708628 4.1153431
-1.3401871 1.0663049 4.1050119
-1.2673128 1.0969458 4.1138434
-1.1570721 1.0760081 4.1217375
0.69877064 1.0609616 4.148931
0.73999405 1.0615753 4.1465378
0.77687538 1.0699703 4.1413922
0.82556736 1.0736496 4.1326337
0.87213343 1.0711536 4.1247253
0.9213562 1.0691125 4.109252
0.97291654 1.0698299 4.1040182
-1.5724488 1.1122367 4.1463661
-1.3726393 1.112079 4.1289415
-1.3056495 1.1343807 4.124341
-1.2687387 1.1188976 4.1145773
-1.2236166 1.1361916 4.1069946
-1.1671467 1.127269 4.1174083
0.77297789 1.1262974 4.1444621
0.82363266 1.1255803 4.1350889
0.87446547 1.1251816 4.1264243
0.92528862 1.124815 4.1174474
0.97646719 1.1248717 4.1096139
1.0079436 1.1257697 4.1078758
0.72295648 1.1759306 4.1483088
0.77462423 1.1799821 4.1435676
0.82583046 1.1798807 4.1364045
0.87741351 1.1802685 4.1305594
0.92807531 1.1794479 4.1199737
0.97590685 1.1828603 4.1116819
1.030723 1.1898525 4.1016588
0.77638233 1.2238071 4.1448298
0.82429886 1.2226559 4.1420674
0.87373781 1.2268885 4.1346555
0.91999722 1.2233709 4.1230826
0.97111505 1.2230601 4.1139255
1.0320131 1.2118824 4.1026344
1.0651243 1.2248113 4.1039257
0.78200865 1.2719476 4.1468749
0.82038951 1.2693893 4.1454496
0.87178832 1.2691268 4.1373205
0.92283881 1.2684205 4.1272955
0.97585207 1.2709206 4.1114364
1.021592 1.2913283 4.1021652
0.78335309 1.3085701 4.1466241
0.82505673 1.3251975 4.1471124
0.87407523 1.3241971 4.1369829
0.92639011 1.3250701 4.1318979
0.97433853 1.3260164 4.1183715
1.0286098 1.333769 4.1075225
0.83580983 1.3810427 4.1466417
0.87778026 1.3817431 4.1427588
0.92886239 1.380488 4.1311884
0.96956629 1.3793379 4.121098
1.0172161 1.3813775 4.1124649
0.87557602 1.4244068 4.1433711
0.92488229 1.4275911 4.1319509
0.97126788 1.4233291 4.118475
1.0248065 1.4255738 4.1161332
1.0669219 1.4262578 4.1106977
1.1311474 1.4389268 4.1028771
0.88393879 1.4855993 4.1492434
0.92482305 1.4736482 4.1412015
0.97610509 1.4721965 4.1287236
1.0278852 1.4716228 4.118258
1.0756106 1.4667989 4.1066461
1.1228859 1.4730465 4.1049442
0.87468672 1.5190868 4.1485515
0.92647201 1.5181412 4.1380019
0.9788965 1.518296 4.12994
1.0232993 1.5203875 4.1174574
1.0604072 1.5255463 4.1039581
1.1156733 1.5297142 4.1053514
0.88839686 1.5772189 4.1484289
0.91957808 1.5661165 4.1447906
0.97435099 1.5733784 4.1321201
1.0249139 1.577031 4.125576
1.0795419 1.5736133 4.1142235
1.1292181 1.5864165 4.1002541
0.89240545 1.6477171 4.1497989
0.92246413 1.6237606 4.1434855
0.97190475 1.629364 4.1326785
1.0297918 1.6276863 4.1235895
1.0681442 1.6283073 4.1183028
1.1232327 1.635036 4.1070948
0.88288927 1.6814153 4.1473184
0.92948389 1.6792756 4.1446309
0.97431755 1.6801926 4.135632
1.0247302 1.6838305 4.1242085
1.0715785 1.6789083 4.1091318
1.1217481 1.6792145 4.1063461
0.89599335 1.7179797 4.1482048
0.94011521 1.7317569 4.1459398
0.97188574 1.7315813 4.1402788
1.0235168 1.7291213 4.1252074
1.0788186 1.7327663 4.124239
1.1192991 1.7296569 4.1086802
1.1516808 1.7410997 4.1011043
0.93576097 1.7829958 4.145226
0.9744845 1.7788398 4.1384573
1.0245038 1.7785107 4.1347957
1.0752599 1.7821152 4.122592
1.1230013 1.7779616 4.1091466
0.92838842 1.8249779 4.146739
0.97768253 1.8274194 4.1386456
1.0217115 1.8297536 4.1364913
1.0730383 1.8260775 4.1183805
1.1268483 1.8268075 4.1096568
1.1592956 1.8381178 4.1011868
0.93787956 1.8760484 4.1449804
0.97994 1.8744957 4.134388
1.0244889 1.8776499 4.1338239
1.0723126 1.8728707 4.1196146
1.1244825 1.8784291 4.1110334
1.1726807 1.8637851 4.1013727
0.91931748 1.9249458 4.1472054
0.97245115 1.9237123 4.1356382
1.0257721 1.9229863 4.1246939
1.0709317 1.9269388 4.1251626
1.1191391 1.9268868 4.1100926
1.1675402 1.9373076 4.1013913
0.97388458 1.9761875 4.1468143
1.0244119 1.9779726 4.1308646
1.0729313 1.9736813 4.1179605
1.1227175 1.9718612 4.109704
1.1645198 1.9802618 4.104918
0.93666798 2.0144219 4.148756
0.96981877 2.0266674 4.1423006
1.0231684 2.0250452 4.129405
1.0770364 2.0245576 4.1183
1.1202599 2.0244431 4.1095381
1.1642621 2.0256755 4.1031332
0.93324208 2.0806663 4.1459255
0.97228217 2.07529 4.1370249
1.025999 2.0740988 4.124969
1.0805583 2.0746338 4.1158018
1.1237762 2.0742416 4.1064105
1.1691033 2.0776153 4.1040635
0.88792121 2.1248291 4.1470327
0.92603874 2.1294923 4.1450567
0.976206 2.1273093 4.1373978
1.0247566 2.1217968 4.1227546
1.0780343 2.1281404 4.1150298
1.124205 2.1217194 4.1068444
0.87195587 2.1702282 4.1449986
0.92355889 2.1753874 4.1382928
0.97816873 2.1753027 4.1288257
1.0221279 2.17588 4.122015
1.076635 2.1755755 4.1110611
1.1201253 2.1751375 4.1015182
0.88351798 2.2173939 4.1497583
0.92242277 2.2247794 4.1371927
0.97550213 2.2301524 4.1282587
1.0261028 2.2282333 4.1205249
1.0695466 2.2273116 4.1104412
1.1138045 2.2280791 4.1030903
0.88043445 2.2869542 4.147181
0.9210273 2.2836916 4.1428499
0.97481757 2.2805545 4.1276822
1.0283329 2.2770925 4.1114283
1.0727171 2.2779255 4.1044497
1.106173 2.2678566 4.1041813
0.83809203 2.3360198 4.1443729
0.87878299 2.3327756 4.1404114
0.92361033 2.334348 4.1359715
0.97415525 2.3313642 4.1267347
1.0138313 2.3336048 4.1102505
1.0728153 2.3264525 4.1024718
-1.970492 2.3725438 4.1138101
-1.9367468 2.3739166 4.1294327
-1.8507805 2.3912909 4.1383033
-1.7314777 2.3939023 4.1279864
-1.6803964 2.3867435 4.1306076
-1.6249912 2.3956294 4.1104712
-1.577816 2.3931952 4.1202011
-1.4652672 2.3995855 4.1113563
-1.4275048 2.3931386 4.1095581
-1.3674399 2.3868067 4.1135345
-1.2221922 2.3893783 4.102016
0.73691791 2.3939793 4.1480522
0.77317238 2.3844984 4.1425443
0.82407016 2.3786185 4.1328225
0.87966532 2.3793998 4.1255922
0.92404532 2.3797429 4.1188731
0.96779275 2.3784876 4.1089964
1.0007242 2.3668354 4.1068296
-1.5252472 2.4001195 4.1488981
-1.4011685 2.4060774 4.1408529
-1.29958 2.4086995 4.1192341
-1.207858 2.4052842 4.1344142
-1.183105 2.4230931 4.121367
-0.97437686 2.4061627 4.1325631
-0.91629225 2.4107637 4.1262035
-0.87089115 2.4081855 4.1290655
-0.82312596 2.4094141 4.1141376
-0.78008997 2.4129624 4.1267028
-0.72384924 2.4100947 4.1293778
-0.63217026 2.4195738 4.1091452
-0.57639551 2.4163148 4.1096759
-0.52334774 2.4138563 4.134603
-0.47360557 2.4271865 4.119246
-0.42385358 2.4227514 4.1346512
-0.39037475 2.420193 4.1327305
-0.32484841 2.4235475 4.1427002
-0.27278826 2.425267 4.1327629
-0.22799189 2.4232295 4.1156058
-0.18054834 2.4086323 4.1237154
-0.12163065 2.4211202 4.1278844
-0.070925206 2.4249921 4.1072359
-0.031002196 2.4270408 4.1267176
0.027388833 2.4257927 4.1089683
0.082162097 2.4305351 4.1164784
0.12599322 2.4316993 4.1176262
0.17024712 2.4270499 4.1320529
0.21760137 2.4283941 4.1248136
0.28086266 2.4451303 4.1347008
0.32078052 2.4269001 4.1330028
0.37190244 2.4258072 4.1279211
0.42827889 2.4216866 4.1206656
0.47804207 2.4288828 4.117084
0.52361268 2.4254367 4.1307621
0.56356674 2.4161756 4.1267867
0.62836713 2.4209971 4.1313014
0.67894608 2.418097 4.1250701
0.71925491 2.4137852 4.1204453
0.76381034 2.4151242 4.1167316
0.82213038 2.406148 4.1086192
0.87867057 2.4098864 4.1063628
0.93481302 2.4121864 4.1010208
0.95812857 2.4151947 4.1022487
-1.0781549 -0.46993342 4.1773043
-1.0951444 -0.43791825 4.1628451
-1.0934978 -0.37621793 4.1605425
-1.1012135 -0.30718479 4.1937819
-1.0982144 -0.33699709 4.1807976
-1.0953298 -0.27497739 4.1727676
-1.0954733 -0.2240973 4.1752992
-1.0997336 -0.17377682 4.1931419
0.34634969 -0.16052105 4.1965656
0.3667073 -0.16064459 4.1987143
0.42676458 -0.16056597 4.1930289
0.47665417 -0.16045484 4.1867065
0.5073449 -0.16064078 4.1893177
-1.1007609 -0.14321776 4.1978211
-1.0982817 -0.10202655 4.1891365
0.38689393 -0.12050079 4.1994247
0.4267827 -0.12042136 4.1940265
0.47631535 -0.12024621 4.1845841
0.5069766 -0.12036985 4.187109
-1.0987778 -0.071396574 4.1914234
0.37936321 -0.066775046 4.1913586
0.42586496 -0.070067212 4.1856837
0.47582555 -0.070041344 4.180985
0.50635207 -0.07010673 4.1826754
-1.0957079 -0.020240907 4.1800585
0.37607062 -0.030011345 4.192452
0.42572632 -0.029973282 4.1845794
0.47563535 -0.029962484 4.1795912
0.50608832 -0.029984891 4.1807833
-1.1007725 0.00014657233 4.1993985
-1.0964382 0.030736962 4.1827593
0.30616286 0.040200993 4.1997733
0.38144296 0.015113486 4.1960669
0.42623416 0.020116873 4.189599
0.47624198 0.020120425 4.1849265
0.50672984 0.020143289 4.1860771
0.37659743 0.07034611 4.1978979
0.42616823 0.070249505 4.1885619
0.4765135 0.07027781 4.186923
0.50761127 0.070426315 4.1929855
-1.1010028 0.14354573 4.1985445
-1.0961299 0.11229594 4.1805983
0.37866575 0.12057023 4.1976433
0.42677128 0.12054621 4.1937394
0.47664025 0.12046549 4.1871943
0.50848341 0.14101532 4.1989956
-1.1006383 0.16397728 4.19664
0.37671453 0.17080444 4.1972761
0.42679799 0.17075454 4.1928329
0.47717306 0.17082004 4.1907244
0.50787294 0.17101161 4.1931953
0.37682357 0.21104306 4.1972551
0.42933026 0.21846426 4.1913509
0.47683525 0.22088213 4.1862559
0.50835335 0.24162889 4.1948643
-1.1117482 0.28445956 4.1535144
-1.0992796 0.2660448 4.1878872
0.43765816 0.27167302 4.1965332
0.47722653 0.27129126 4.1877213
0.50871605 0.26194575 4.1970553
-1.1190442 0.32719553 4.1787138
0.42995766 0.32436472 4.1930547
0.47759375 0.32176256 4.1885538
0.50902683 0.33265361 4.1963019
-1.1197042 0.37856674 4.1782627
0.43197912 0.37056556 4.1954088
0.47736818 0.37186223 4.1838546
0.50904298 0.36290234 4.1947851
-1.1144271 0.42959744 4.1752629
0.36774987 0.40299261 4.1997299
0.44372404 0.42860487 4.1973634
0.4784185 0.42302892 4.1899323
-1.1116681 0.47688368 4.1681857
-1.0994351 0.45019844 4.1778064
0.44210064 0.47067341 4.1950669
0.47810555 0.47307599 4.1836395
0.51055318 0.48528606 4.1991301
-1.1119924 0.51788825 4.1660829
0.44298282 0.5389753 4.1980648
0.47930887 0.52471393 4.1902385
0.5259003 0.52950591 4.17835
0.57835126 0.53310049 4.1676254
0.61923379 0.53367829 4.1683302
0.67215633 0.52562267 4.1799564
0.71046609 0.52408135 4.1632819
0.77433461 0.52639753 4.1744537
0.82775605 0.5282017 4.1822777
0.85799617 0.52807647 4.1771898
0.91688162 0.54718059 4.1576009
1.0030266 0.54999125 4.166326
-1.1200385 0.5730353 4.1644731
0.43646953 0.57295418 4.1977334
0.47336379 0.57734787 4.1872563
0.52848536 0.57379574 4.171824
0.57836688 0.57335007 4.164248
0.61775732 0.57258475 4.1548285
-1.123477 0.63635415 4.1712198
0.42002088 0.60722518 4.1997051
0.47001442 0.62670666 4.189013
0.5293662 0.62518001 4.1740246
0.57842094 0.6237281 4.159842
0.61654061 0.62764156 4.1551256
-1.1296446 0.66048419 4.191946
0.47091946 0.6785295 4.1917992
0.52023482 0.6768167 4.1772656
0.57025552 0.67626923 4.1694798
0.61580378 0.67120361 4.1548934
-1.1296818 0.7120868 4.1863308
0.43121576 0.71020061 4.1990342
0.47435775 0.72419846 4.1913786
0.52142704 0.72898751 4.18115
0.57090515 0.72756726 4.1686182
0.61804301 0.72998679 4.1542664
0.46960664 0.77420515 4.192028
0.52181995 0.78021312 4.1783342
0.5712502 0.77852708 4.1648808
0.62097001 0.77750194 4.1545954
-1.6858598 0.82480943 4.1538625
-1.6374 0.82169598 4.150104
0.47292361 0.82380408 4.1927285
0.52286291 0.82236254 4.181386
0.57225096 0.82043099 4.1671462
0.62177777 0.82906634 4.1534452
0.6520896 0.81893873 4.1516256
-1.6907452 0.89081395 4.1565852
-1.6414521 0.88707775 4.1511593
0.43312964 0.86621499 4.1986179
0.47632706 0.87367785 4.1935248
0.52387941 0.87483865 4.1826663
0.57310146 0.87236619 4.1663728
0.62298799 0.88133621 4.1545715
0.65822858 0.87092566 4.1510286
-1.6916218 0.9124918 4.1554704
0.48853865 0.92599654 4.1955905
0.52548671 0.92853153 4.1881604
0.57537866 0.9267599 4.1756458
0.62544292 0.92548132 4.1649919
0.66552699 0.92468464 4.1571751
-1.6855197 0.97874486 4.1592884
-1.6476578 0.97521651 4.1533771
0.4759683 0.97441804 4.1987834
0.52669847 0.97158337 4.1916065
0.57682174 0.96993542 4.1799955
0.62865144 0.97407216 4.1653681
0.6747157 0.98031217 4.1577725
-1.7042564 1.0261804 4.1687741
-1.6592408 1.0274725 4.1541843
-1.627133 1.0392264 4.150032
0.48725915 1.025815 4.1993723
0.52783102 1.0249192 4.192452
0.57814664 1.0232953 4.1812248
0.62615037 1.0255721 4.1684332
0.67867655 1.030834 4.1583152
-1.7108996 1.073097 4.1773043
-1.6763319 1.0835165 4.1680369
-1.5164523 1.0994247 4.1539598
0.49815094 1.07846 4.1952543
