ply
format ascii 1.0
comment PCL generated
element vertex 1490
property float x
property float y
property float z
element camera 0
property float view_px
property float view_py
property float view_pz
property float x_axisx
property float x_axisy
property float x_axisz
property float y_axisx
property float y_axisy
property float y_axisz
property float z_axisx
property float z_axisy
property float z_axisz
property float focal
property float scalex
property float scaley
property float centerx
property float centery
property int viewportx
property int viewporty
property float k1
property float k2
end_header
0.62420309 0.071420103 2.0741732
0.66273236 0.068409435 2.0564647
0.57839519 0.12426785 2.0903778
0.6237843 0.12229478 2.0711465
0.65696537 0.12184663 2.0559475
0.5465467 0.19507554 2.0990548
0.57551408 0.17401381 2.0881662
0.62353295 0.17314807 2.0678103
0.65643573 0.17033099 2.0538092
-0.16920309 0.22702894 2.0558589
-0.14543872 0.21702637 2.0566037
0.54683244 0.22085428 2.0984113
0.57722867 0.22232004 2.0842433
0.6235587 0.22228156 2.0646667
0.65685666 0.22352317 2.0521345
-0.17078245 0.2789737 2.0587204
0.98440176 0.27184564 2.0919971
1.0281559 0.27968499 2.0806429
-0.17359984 0.32804492 2.0797324
1.0432198 0.31892991 2.0850782
1.0642747 0.33796513 2.0577574
1.1386894 0.34268159 2.0528183
1.1588348 0.34928218 2.0521958
-0.17965582 0.36957759 2.0957575
1.0311339 0.38695842 2.0780017
1.0553348 0.3719576 2.0773048
1.1389697 0.359074 2.05125
1.0226878 0.42579672 2.0766437
1.0198972 0.47477445 2.0715475
1.0249579 0.5099991 2.0790257
-0.011110782 -0.55331057 2.1148717
0.023325955 -0.5645709 2.1233985
0.07690762 -0.57744658 2.1270497
0.1292437 -0.57642049 2.1331296
0.17270555 -0.57072085 2.1156423
0.21989174 -0.55698174 2.1260138
0.26302683 -0.55444562 2.1257308
0.31722066 -0.55304503 2.1118288
-0.10817678 -0.51575869 2.1266265
-0.075634822 -0.53579807 2.1217318
-0.036763176 -0.54697388 2.1262648
0.28468528 -0.54724574 2.1319478
0.33004799 -0.54272509 2.1312728
0.37680352 -0.5389213 2.1266887
0.42493036 -0.53257924 2.1275613
0.47493273 -0.523112 2.1260726
0.52576685 -0.51510221 2.1154962
0.57433254 -0.50570261 2.1056297
-0.12120491 -0.4728789 2.1276188
0.44065449 -0.47099814 2.1457026
0.47670391 -0.47221088 2.1357954
0.52474409 -0.47394258 2.1182854
0.56368077 -0.47222203 2.1045992
-0.13009939 -0.4249517 2.1273539
0.47815174 -0.42692527 2.1419268
0.5272246 -0.42712188 2.1232197
0.57148123 -0.42640248 2.1076179
-0.13649303 -0.37738416 2.1270304
0.48493248 -0.38000447 2.1435175
0.5256207 -0.37646607 2.1288869
0.57516348 -0.37466228 2.1095939
0.60471952 -0.35284206 2.1002905
-0.1393216 -0.32477561 2.125577
0.48348963 -0.32616439 2.1457546
0.52445084 -0.32345524 2.1298711
0.57425737 -0.32210746 2.1120327
0.60406041 -0.32135764 2.1013124
-0.14473996 -0.27434143 2.1155367
0.48625603 -0.26918074 2.1451886
0.52252305 -0.27475259 2.1307158
0.57309031 -0.27478346 2.1121428
0.60283196 -0.27414799 2.1014895
-0.14361767 -0.22754893 2.1213622
0.4828814 -0.22439487 2.1455863
0.52343571 -0.22784488 2.1302068
0.57164311 -0.22753578 2.1104853
0.60191768 -0.2375596 2.1012573
0.47933674 -0.1764071 2.1440103
0.52142251 -0.17632967 2.1288898
0.57049787 -0.17545857 2.1095433
0.47981328 -0.12346211 2.1432455
0.52348697 -0.12304097 2.1256082
0.56951374 -0.12579338 2.1082304
0.44988844 -0.057147697 2.1492341
0.47533679 -0.072669014 2.1427293
0.52479398 -0.07231991 2.124671
0.56872594 -0.071980096 2.1069503
0.44975385 -0.010340508 2.1490495
0.47973752 -0.025868973 2.139153
0.52902746 -0.025740344 2.1206775
0.56811196 -0.02563189 2.1053693
0.44635677 0.02528483 2.1472738
0.47935298 0.020789025 2.1374426
0.52819508 0.020675201 2.1173611
0.56138474 0.016772931 2.1053944
0.44913444 0.072746813 2.1452045
0.47903866 0.072550461 2.1352284
0.52779824 0.072155043 2.1150119
0.55675107 0.071905136 2.1023116
0.44040525 0.12707797 2.144994
0.47872007 0.12426314 2.1322255
0.52743739 0.12355862 2.1119192
0.5567041 0.11294875 2.1009233
0.43840423 0.17811547 2.1443071
0.47839421 0.17590147 2.1282964
0.52649754 0.17413683 2.1093221
0.43590972 0.22412221 2.1406827
0.47836328 0.2224277 2.1252599
0.52176654 0.22778831 2.109952
0.47343379 0.25113231 2.1491699
0.5547719 0.25010237 2.1269386
0.96935427 0.28762057 2.1244044
0.98273057 0.31400356 2.1457205
1.0158601 0.32494342 2.116848
-0.18057871 0.37996697 2.1054742
0.98857975 0.3829152 2.1366172
1.0215911 0.37187657 2.1211123
1.0541741 0.36164856 2.1022656
0.99235648 0.42628843 2.1250722
1.0061535 0.41981494 2.1099775
0.99243784 0.46747428 2.1245441
1.0077727 0.47289556 2.1118546
0.98136526 0.50600892 2.1160672
1.0011609 0.50491065 2.103966
0.030273747 -0.55862749 2.1759744
0.074082017 -0.57085109 2.1747286
0.12682599 -0.56724864 2.1799073
0.17209913 -0.56375337 2.1786401
0.21979561 -0.55336267 2.1675804
-0.10195688 -0.50209135 2.1536858
-0.073861159 -0.52548599 2.1726339
-0.027710766 -0.54321057 2.1728611
0.23704511 -0.54315901 2.1809642
0.27598023 -0.53743023 2.1754427
0.32401812 -0.52281612 2.1811135
0.37372941 -0.51473045 2.1725774
0.42490682 -0.51411349 2.1582587
0.45824572 -0.50842756 2.1502254
-0.10633402 -0.47144485 2.1679258
-0.092730865 -0.48232219 2.1870413
0.28819397 -0.47809756 2.1982896
0.32489508 -0.47222754 2.1895795
0.3744247 -0.47258323 2.1723266
0.41938898 -0.47717899 2.1570354
0.45819703 -0.49778196 2.1516614
-0.11411114 -0.42387894 2.1725066
0.33231604 -0.42829445 2.1945555
0.37469834 -0.4250921 2.1804304
0.42545354 -0.42271128 2.1617398
0.45572111 -0.41081718 2.151922
-0.11854853 -0.37528574 2.1763446
0.33451083 -0.37435907 2.1955123
0.3727484 -0.37434962 2.183773
0.42489344 -0.37465641 2.1647191
0.46201032 -0.37277237 2.1520207
-0.12206219 -0.32494876 2.1748564
0.33761641 -0.32423022 2.1965446
0.374908 -0.32656211 2.1844468
0.42435983 -0.32675537 2.1670711
0.45893615 -0.32316956 2.15416
-0.12689656 -0.27295125 2.1690979
0.3395367 -0.28064543 2.1978638
0.37287316 -0.27495545 2.1854231
0.42363042 -0.27357396 2.1681414
0.46246755 -0.27501622 2.1547298
-0.12432339 -0.22791614 2.1786325
0.33889529 -0.22712122 2.1976962
0.37115204 -0.22245316 2.1844487
0.42263001 -0.22568548 2.1666026
0.45762816 -0.22481059 2.1533597
-0.12338226 -0.1995507 2.193939
0.33596116 -0.17452823 2.1967328
0.37237993 -0.17502908 2.183208
0.42197564 -0.17816025 2.1661034
0.45578253 -0.17884599 2.1537898
0.33669809 -0.12537576 2.1949198
0.37077239 -0.1261663 2.181921
0.42125547 -0.12553611 2.1648116
0.45591545 -0.12745936 2.1532705
0.33489537 -0.073794447 2.193419
0.37112769 -0.073913567 2.1803164
0.42075071 -0.07311821 2.163749
0.45112428 -0.08338359 2.1545863
0.33552951 -0.023449095 2.1902452
0.37339321 -0.027106194 2.1773858
0.41999069 -0.026037183 2.160537
0.45017958 -0.031166879 2.1509535
0.33793795 0.021084921 2.1878359
0.37954131 0.020981489 2.1729972
0.42281291 0.019150587 2.1567001
0.33175194 0.075150259 2.1887546
0.37925312 0.073283777 2.1705358
0.42444605 0.072962508 2.1551561
0.33288595 0.12732771 2.1869462
0.37914237 0.12555113 2.1683042
0.41667685 0.12244275 2.1548665
0.33024117 0.17711258 2.1848824
0.37888855 0.1777247 2.1643913
0.4153766 0.17515127 2.1539793
0.32854226 0.22044832 2.1882067
0.37800005 0.22590984 2.1652367
0.41275084 0.22249489 2.1522238
0.39024869 0.25727487 2.1829393
0.42336288 0.26147527 2.1735888
0.46303418 0.27284271 2.1792147
0.44073051 0.30988595 2.1962991
0.47078145 0.31969973 2.1943729
0.99174976 0.33816707 2.1561112
0.98461765 0.36280915 2.1728506
0.040650818 -0.55200958 2.2247705
0.077173412 -0.5576089 2.2150731
0.12171411 -0.5555439 2.2200913
0.17292346 -0.55363935 2.2158511
-0.063979246 -0.51582897 2.2184374
-0.02251509 -0.53511745 2.2275839
0.020390626 -0.5450809 2.2254674
0.075652294 -0.54646546 2.2476332
0.12297574 -0.54630512 2.2455831
0.17920718 -0.54424477 2.2288718
0.22505765 -0.52576238 2.2255294
0.26900509 -0.51548803 2.2158237
0.31489542 -0.50584948 2.2044158
-0.07491307 -0.47551757 2.2288568
0.22444221 -0.4704442 2.2279453
0.27014926 -0.47129667 2.2120953
0.3150126 -0.49527287 2.2068684
-0.10369966 -0.42024222 2.2030969
-0.08730001 -0.42678937 2.2301357
0.2265383 -0.42829755 2.2310348
0.27135739 -0.42439699 2.2155733
0.30715144 -0.42566767 2.2031291
-0.10390942 -0.37310618 2.2131834
-0.089416713 -0.37462741 2.2370796
0.23171529 -0.37800527 2.2320468
0.27277687 -0.37496474 2.2175174
0.30983725 -0.37205943 2.2049839
-0.1039088 -0.32516238 2.2181098
-0.090931617 -0.32704291 2.2367845
0.23401849 -0.32270202 2.2321851
0.27486375 -0.32502952 2.2186759
0.3121618 -0.32540965 2.2071035
-0.10876016 -0.2760148 2.2128868
-0.090404332 -0.27764276 2.240803
0.2336746 -0.27388126 2.2330554
0.27608478 -0.27671126 2.2181416
0.31508389 -0.27506074 2.2067459
-0.10651325 -0.2184452 2.2174799
-0.092155077 -0.2255909 2.2433579
0.23380971 -0.22566731 2.2378526
0.27578315 -0.22483166 2.226398
0.31501815 -0.22179267 2.2102876
0.23371133 -0.17186722 2.2399728
0.27563286 -0.17655715 2.2280095
0.31093216 -0.17533541 2.2094448
0.23343921 -0.12337537 2.2394531
0.2751444 -0.12817328 2.2261996
0.31320429 -0.12804487 2.2097149
0.23316768 -0.074998036 2.2382171
0.27474645 -0.074640378 2.2244906
0.30965281 -0.073486075 2.2094922
0.2328964 -0.026732165 2.2363372
0.27853179 -0.027431227 2.2215583
0.31152099 -0.027194599 2.2070427
0.232729 0.021429686 2.2347012
0.27859792 0.022214117 2.2202222
0.31284112 0.01909123 2.2044437
0.23272677 0.074930862 2.2339187
0.27926511 0.074503854 2.217654
0.30954003 0.063522607 2.203239
0.23357697 0.12729356 2.2323353
0.27926522 0.12769674 2.216017
0.30965459 0.12176988 2.2024064
0.23203887 0.17519706 2.2327869
0.27928424 0.17558904 2.2140677
0.23331249 0.2253031 2.2328913
0.27815109 0.22268124 2.2171428
0.314035 0.24315603 2.2116857
0.3986764 0.28366151 2.2078545
0.42598251 0.28516135 2.204654
0.47197407 0.28403917 2.2201278
0.42305562 0.30993783 2.2188697
0.48033157 0.31486946 2.204391
0.50213641 0.30404714 2.2251198
0.48406857 0.35010812 2.2409167
-0.051797777 -0.50200266 2.2514751
-0.02289035 -0.5157153 2.2751245
0.022911338 -0.53407472 2.2747259
0.074189886 -0.53883106 2.279506
0.12715557 -0.53293407 2.2779639
0.17580912 -0.52754611 2.2743413
0.21221243 -0.51330376 2.2668817
-0.053818405 -0.46930048 2.2652442
-0.03478124 -0.47788316 2.2869039
0.20297478 -0.47806028 2.2929232
-0.062875517 -0.42363703 2.2694399
-0.041532286 -0.4379136 2.2971807
0.20716541 -0.41979533 2.2727525
-0.062168483 -0.37428185 2.2779763
0.21025829 -0.37668726 2.2625878
-0.069670066 -0.32354116 2.2726572
0.21030311 -0.32761529 2.2680409
-0.067114614 -0.27322236 2.2799723
0.21045943 -0.27322724 2.2744222
-0.069123462 -0.22602519 2.2775943
0.21057808 -0.22415122 2.2791982
-0.073795781 -0.19704236 2.2888815
0.21032336 -0.17474273 2.2792001
0.21044074 -0.12565161 2.2825632
0.21018013 -0.076372378 2.2811072
0.21036218 -0.027285425 2.2837899
0.21011344 0.021864111 2.2810833
0.21004066 0.076405227 2.2794945
0.20637012 0.12847015 2.2896042
0.20905755 0.17159976 2.285419
0.20778765 0.22703411 2.2886007
0.21599804 0.2739149 2.2941458
0.62156433 0.28695914 2.2913744
0.22050671 0.32106501 2.298605
0.50868499 0.34100854 2.2509437
0.62323254 0.31653297 2.29001
0.2026282 0.38856655 2.2994878
0.6189518 0.37172315 2.2954264
0.61479628 0.408052 2.2980099
0.21972017 0.53038198 2.299427
0.22302918 0.58423233 2.299046
0.21910639 0.61954641 2.2993417
0.19508325 0.67473817 2.2998064
0.21557052 0.68117267 2.298737
0.19574042 0.71861625 2.2990186
0.21816827 0.72532487 2.2933023
0.1943007 0.77261144 2.297718
0.2190492 0.77946454 2.2910681
0.19732678 0.81785417 2.2963653
0.22000366 0.82856876 2.2900484
0.19622049 0.87000906 2.2984538
0.22116689 0.87895066 2.2903926
0.1994386 0.91913211 2.2967412
0.22216649 0.9290666 2.2880204
0.19292827 0.97343087 2.2977269
0.21613774 0.97539639 2.2906539
0.21908063 1.0224214 2.2923238
0.21805975 1.0748435 2.2935231
0.19259422 1.125947 2.2973797
0.22041585 1.1239583 2.2941046
0.19452561 1.1970909 2.298614
0.21856432 1.1722671 2.293961
0.21912463 1.2228415 2.2956774
0.22080818 1.2777556 2.294908
0.22249979 1.3290159 2.295043
0.22783852 1.3750342 2.2981191
0.22135101 1.4126524 2.2964668
0.2235228 1.4694978 2.2984092
0.22326124 1.522163 2.2972243
0.23158991 1.5738139 2.2971869
0.21512255 1.6441922 2.2981825
0.23538853 1.6641304 2.2991447
0.22490239 1.7278521 2.2981334
0.22846486 1.8148763 2.2972562
2.0899467 2.3809323 2.2971597
2.1262259 2.3831384 2.2764716
2.1800752 2.3957038 2.2800519
2.2198997 2.3930833 2.2893887
2.1446321 2.4036648 2.2960269
-0.0083291288 -0.50252432 2.305912
0.02696635 -0.51612651 2.3189869
0.075983725 -0.51742524 2.3204048
0.1237169 -0.51425552 2.3177462
0.17294209 -0.50836134 2.3107569
0.2039324 -0.50266087 2.3006113
-0.014546501 -0.47010347 2.3159211
0.025031222 -0.47786501 2.3409355
0.076420292 -0.47521362 2.340138
0.12586026 -0.47419187 2.3289475
0.17638008 -0.47582376 2.3112149
0.20343314 -0.45685771 2.3010957
-0.022976125 -0.42305344 2.3207119
0.01744766 -0.42994949 2.3465931
0.078801475 -0.42567271 2.3449988
0.12772441 -0.42340851 2.3325694
0.17612903 -0.42484355 2.3143687
0.20305507 -0.41895184 2.3013904
-0.026006626 -0.37604052 2.3234754
0.086197995 -0.37988174 2.3476899
0.12652662 -0.37666398 2.3354604
0.1760231 -0.37429565 2.3186331
0.20298269 -0.37245899 2.3058057
-0.052415371 -0.32026583 2.3005662
-0.026026513 -0.32733941 2.3277457
0.091217063 -0.32892695 2.3483205
0.1264336 -0.32583892 2.338726
0.17580904 -0.32362643 2.3207436
0.2029492 -0.3279317 2.3098214
-0.052347101 -0.27020746 2.301719
-0.028354947 -0.27681214 2.3294055
0.093035862 -0.29300636 2.3497846
0.12627734 -0.27493876 2.3401043
0.17552999 -0.27296799 2.3212523
0.20262976 -0.2774744 2.3104215
-0.052255709 -0.20918137 2.3017831
-0.025981052 -0.22578131 2.3321233
0.092853107 -0.23618928 2.3492544
0.12605327 -0.22403494 2.3393724
0.17401728 -0.22494777 2.3209648
0.2023443 -0.22720575 2.3107045
-0.12951362 -0.19844131 2.3035939
-0.053104199 -0.17339118 2.3412175
-0.020420525 -0.17777185 2.3245852
0.0028408505 -0.16748416 2.3368185
0.092713334 -0.17406359 2.34916
0.1259045 -0.17341477 2.3393264
0.17619324 -0.17520861 2.3196537
0.20197944 -0.17700124 2.3093321
-0.053082336 -0.12304161 2.3422806
-0.019409776 -0.12311206 2.3240085
0.0028336395 -0.12249112 2.332541
0.088390753 -0.1275847 2.3482859
0.12567039 -0.12284531 2.3371096
0.17464781 -0.12746996 2.3175764
0.20162475 -0.12699047 2.3073876
-0.052908182 -0.072454318 2.3359411
-0.022410862 -0.074731551 2.3270738
0.0028320793 -0.07232929 2.3325243
0.08772514 -0.072030231 2.3480725
0.12550737 -0.072476111 2.3353455
0.17446223 -0.077494606 2.3165061
0.20135026 -0.077193014 2.30563
-0.052654382 -0.027717158 2.3253272
-0.024149692 -0.026088623 2.3234916
0.002822544 -0.027707499 2.3252289
0.088773035 -0.024254328 2.3480861
0.12546012 -0.027844468 2.3350186
0.17436239 -0.027643183 2.3158777
0.20109791 -0.027502274 2.3034542
-0.05274703 0.022259416 2.3294127
-0.024009455 0.021596096 2.3278849
0.0028257216 0.022230234 2.3278396
0.088259585 0.018229606 2.3469195
0.12541653 0.022320719 2.3342466
0.17430906 0.022156101 2.3151615
0.20128641 0.02207545 2.3056071
-0.052741311 0.07226418 2.3284822
-0.018466674 0.076631866 2.3206241
0.0028185467 0.077583365 2.3211617
0.090272218 0.074007221 2.3474739
0.12642853 0.073781557 2.3327589
0.17426047 0.077472031 2.3136942
0.20125949 0.077209458 2.3044922
-0.052909214 0.12268414 2.3344858
-0.023735126 0.1248759 2.3281136
0.0028307769 0.12799451 2.3298531
0.090706505 0.12714435 2.3474863
0.12450358 0.12360129 2.3325331
0.1743196 0.12730621 2.3130879
0.20111763 0.11021116 2.3020065
-0.053090684 0.17344035 2.3403983
-0.013223309 0.17527778 2.3237729
0.0028292274 0.17242995 2.3267813
0.090395667 0.1706322 2.3472867
0.12554887 0.17301083 2.3326573
0.17527319 0.17601651 2.3119533
0.20139022 0.18208277 2.3020964
-0.053208932 0.2186712 2.3431349
-0.013874209 0.22273408 2.3268423
0.0028448291 0.22369966 2.3369336
0.092769608 0.22481945 2.3475263
0.12569354 0.22347744 2.3324957
0.17363103 0.22564788 2.3120232
0.20152453 0.22083735 2.3014073
-0.0083199171 0.27342024 2.3283997
0.0028454056 0.27408409 2.334075
0.090586081 0.27672446 2.3456781
0.1258291 0.2740404 2.3314044
0.17598182 0.27491409 2.3102057
0.2227504 0.28481957 2.3027894
0.25455198 0.28178436 2.3421364
0.3773239 0.27237546 2.3483305
0.60772651 0.29112196 2.3285499
-0.0083552767 0.32503104 2.3339486
0.0028584641 0.32599011 2.3407197
0.08984191 0.32540649 2.3474181
0.12608467 0.32505548 2.3320205
0.17393379 0.32500812 2.3116407
0.21881144 0.32869852 2.3039405
0.25095034 0.30451572 2.3420088
0.41063854 0.30588481 2.337677
0.61856031 0.32917362 2.3096442
-0.0083876904 0.37686586 2.3379245
0.0028656037 0.36622924 2.3429592
0.087558098 0.37834316 2.3459334
0.12632702 0.37620732 2.3314662
0.1754573 0.3732101 2.3107185
0.22094084 0.37170309 2.3057823
0.62059009 0.37164965 2.3151994
0.65024358 0.36999783 2.3451111
-0.0084287152 0.42394027 2.3441632
0.087726608 0.42433387 2.3453183
0.12796435 0.42535362 2.3290284
0.17582837 0.42420334 2.3097348
0.21954574 0.42285302 2.3064108
0.61558014 0.42590231 2.3191633
-0.008434861 0.45250025 2.3423407
0.088603072 0.47406325 2.3457346
0.12539214 0.47700033 2.3307116
0.17628515 0.47569221 2.3092887
0.22219479 0.47424781 2.3079507
0.61366004 0.47314063 2.3219781
0.002895467 0.54679245 2.345813
0.084620379 0.52772963 2.3456829
0.12718233 0.52573884 2.3284409
0.17772104 0.52342057 2.3083777
0.22136842 0.52273798 2.3080645
0.61535013 0.52673709 2.3396411
-0.0084948428 0.58096278 2.3402984
0.002901905 0.58233041 2.3458176
0.088481963 0.57638514 2.3445985
0.12858164 0.5737648 2.3269622
0.1763543 0.57511383 2.3071716
0.2218248 0.57298476 2.3052523
0.082140915 0.62737381 2.3456993
0.12461285 0.62421215 2.3281169
0.17355795 0.62824726 2.3088081
0.22616746 0.62748259 2.3064008
0.077595614 0.67236418 2.3448412
0.12176717 0.67784578 2.3268032
0.1689641 0.6745643 2.3086638
0.22771807 0.67142487 2.3063278
0.081821248 0.72005814 2.3426542
0.12321664 0.72786361 2.3255568
0.16967796 0.72363371 2.3088784
0.24306311 0.72630203 2.3142157
0.25705487 0.71626997 2.340292
0.081781961 0.77352268 2.3418002
0.12391033 0.77804005 2.3284054
0.16942534 0.77283412 2.308521
0.24459521 0.77120733 2.3199334
0.25937614 0.79268867 2.3460717
0.079490751 0.82191473 2.3422258
0.1243138 0.82686484 2.3251677
0.17109948 0.8222568 2.307018
0.24590889 0.82160681 2.3214831
0.26023197 0.83039594 2.3454838
0.082964711 0.86950058 2.3431246
0.12492426 0.87738961 2.3247838
0.16902551 0.87075108 2.3063469
0.2466324 0.87630069 2.3151269
0.084293135 0.92519277 2.3440807
0.12675981 0.92760962 2.324826
0.17126156 0.9231106 2.30828
0.24764591 0.90900362 2.3168905
0.25097632 0.93896663 2.3431458
0.085807167 0.97621614 2.3456333
0.12633853 0.97548151 2.326736
0.1697567 0.97358382 2.3090281
0.23661318 0.98150909 2.3037739
0.2508741 0.97401005 2.3320327
0.087312788 1.026969 2.3434465
0.12599824 1.0245751 2.3294344
0.17493211 1.0253419 2.3080652
0.25280657 1.0231743 2.3374815
0.090746306 1.0706853 2.345639
0.12972066 1.0752693 2.3308043
0.17405973 1.0748059 2.3105147
0.24039727 1.0922034 2.31039
0.25551537 1.094242 2.3432639
0.095388778 1.1223166 2.3471365
0.12721905 1.1240991 2.3338032
0.17156568 1.1261522 2.3121605
0.24095073 1.1245446 2.3053818
0.13099091 1.1760173 2.3333089
0.17681535 1.1750455 2.3122368
0.23414499 1.1826869 2.3096235
0.25870025 1.1870444 2.3448002
0.12259189 1.2266339 2.3375535
0.17815529 1.2260849 2.3135226
0.23401788 1.2291034 2.3057325
0.12723614 1.2735926 2.3358955
0.17801812 1.2756572 2.3141732
0.23369232 1.2716837 2.3059006
0.12361092 1.3230846 2.3374205
0.17325208 1.3235787 2.3186026
0.24844417 1.3496963 2.3024464
0.25394505 1.3255409 2.3403299
0.090651326 1.3876576 2.3492606
0.12085124 1.376634 2.3396757
0.17525575 1.373861 2.3171666
0.20654011 1.387326 2.303453
0.25264564 1.3808298 2.3376644
-0.071558513 1.4198091 2.3239322
0.12690423 1.424143 2.3391807
0.17061424 1.4240388 2.3174894
0.21976055 1.4310585 2.3033915
0.25454742 1.4331843 2.336282
0.091858558 1.4758793 2.3486118
0.12323808 1.475482 2.3411834
0.17258471 1.4719518 2.3192406
0.21639828 1.4885336 2.30585
0.2574842 1.4878689 2.3451767
0.08813104 1.5119032 2.3487318
0.12587541 1.5269543 2.3382671
0.17391162 1.5212337 2.3183019
0.22426315 1.5287908 2.3071468
0.25927815 1.5366784 2.3424561
0.093239799 1.5688621 2.348886
0.12775187 1.5756762 2.3395803
0.17369269 1.5708519 2.3200719
0.2223347 1.5766883 2.3050103
0.12798855 1.6254841 2.3391743
0.17685734 1.621112 2.3187311
0.23107009 1.6282575 2.3125172
0.094878964 1.6750515 2.3479009
0.12463532 1.6734184 2.3392551
0.18015179 1.6728021 2.3173661
0.22069272 1.677775 2.3039298
0.25210407 1.6831632 2.3371687
0.13009864 1.7230861 2.3380628
0.1777249 1.7189176 2.3190522
0.22199202 1.7241304 2.3059421
0.25205508 1.7025083 2.3253629
0.12957215 1.7747136 2.3408024
0.17515378 1.7719094 2.3218231
0.22099917 1.7789103 2.3074174
0.12835386 1.8171481 2.3405061
0.16901632 1.824412 2.3263085
0.21859206 1.8248191 2.3106048
0.098225258 1.8698169 2.3486662
0.12488411 1.8593949 2.3430805
0.16962068 1.8608384 2.3339674
0.22546481 1.8506706 2.3301635
2.0290961 2.3801847 2.3362288
2.0661702 2.383244 2.3164792
2.1265872 2.3860991 2.3344219
2.1724672 2.3910642 2.3222721
2.2323837 2.389097 2.3222933
2.2679281 2.3897748 2.312856
2.3140943 2.401648 2.3422823
0.029386481 -0.45798168 2.3517344
0.029925853 -0.42218596 2.3528502
0.05951722 -0.41339409 2.3506031
0.025573609 -0.37425327 2.3583915
0.067674786 -0.37024978 2.3524187
-0.0084176231 -0.31040716 2.3533409
0.025570035 -0.32325965 2.3636594
0.06967774 -0.32064503 2.3553598
-0.0084067546 -0.26492447 2.35393
0.025530836 -0.27741271 2.3633132
0.075088136 -0.2753433 2.354687
-0.31053618 -0.2101751 2.3847408
-0.28903538 -0.21175069 2.3826158
-0.0083859451 -0.21366385 2.3514659
0.025515735 -0.22632192 2.3653104
0.075257801 -0.22489695 2.3559906
-0.3122943 -0.17561124 2.3916092
-0.29047254 -0.17698646 2.3894329
-0.100295 -0.19492041 2.3975441
-0.076084197 -0.17868777 2.3905776
0.029475728 -0.17638314 2.3681519
0.070388325 -0.17442918 2.3545918
-0.31207296 -0.12621456 2.3904686
-0.28963569 -0.12843366 2.3860328
-0.066832177 -0.1204469 2.3660393
-0.031305991 -0.11967167 2.3881261
0.031128516 -0.12456052 2.3719983
0.067493834 -0.12081751 2.3538802
-0.31152445 -0.076927856 2.3890254
-0.28987598 -0.071936965 2.3880408
-0.064904787 -0.073415905 2.366667
-0.030946387 -0.078897096 2.3617523
0.034995072 -0.074752733 2.3681006
0.066524781 -0.073631257 2.3539457
-0.31682241 -0.024163939 2.3892632
-0.28848621 -0.02854386 2.3839467
-0.07291954 -0.029022399 2.3812139
-0.031089652 -0.039608844 2.3733153
0.036701698 -0.028189624 2.3655236
0.06801194 -0.030302307 2.3541822
-0.31357285 0.020873314 2.3869288
-0.28816193 0.022874873 2.381242
-0.072033718 0.01929542 2.3767691
-0.030911431 0.026289264 2.3597643
0.031119909 0.022673214 2.3733263
0.067447372 0.02530645 2.3540769
-0.31543267 0.07217513 2.385947
-0.29014754 0.070452079 2.3811405
-0.06892278 0.073700696 2.3739984
-0.034656461 0.073231392 2.3592288
0.032240801 0.072463267 2.3718531
0.069229655 0.072536401 2.3531957
-0.31180692 0.12593378 2.3833556
-0.28874621 0.1258674 2.3839231
-0.12310875 0.1375149 2.3968396
-0.071206994 0.12539116 2.3859
-0.031090546 0.10764076 2.3719158
0.032993969 0.12452842 2.3699172
0.069505721 0.1221007 2.3538151
-0.31099615 0.17988841 2.3811991
-0.28966305 0.17493722 2.3826511
-0.069072455 0.17226559 2.375881
-0.031262558 0.17083146 2.3826137
0.033568244 0.17723761 2.3697307
0.069354385 0.17600256 2.353894
-0.31040803 0.21974446 2.3829117
-0.29433924 0.22300409 2.3777037
-0.065588623 0.22627573 2.3838534
-0.042128768 0.20811343 2.3513474
0.034719586 0.22543864 2.369941
0.070485063 0.22546582 2.3547349
-0.067918524 0.28005657 2.388906
0.030944904 0.27580872 2.3745444
0.069555432 0.27606091 2.354563
0.27412018 0.28659558 2.3807509
0.33301485 0.27326623 2.3605754
0.37515768 0.28405282 2.3825867
0.40606844 0.28802055 2.3804786
-0.063874468 0.31658801 2.3838937
0.0313274 0.32492614 2.3746796
0.068439186 0.32224688 2.3545568
0.26136604 0.3288047 2.3757217
0.37153536 0.30605662 2.3980694
0.41317573 0.32321721 2.3961773
0.61791247 0.34819251 2.3627734
-0.066267557 0.37680587 2.3975594
0.032324642 0.37702978 2.3660717
0.066731595 0.37186372 2.3548663
0.26234853 0.37475798 2.387938
0.41032371 0.36087927 2.3991151
0.617589 0.37702662 2.3585112
0.66186863 0.37994948 2.3567421
-0.066343956 0.40996891 2.3967967
-0.019794058 0.42526174 2.3515306
0.027726956 0.42344978 2.3662312
0.065335646 0.42586136 2.3542635
0.25559202 0.42500901 2.3735471
0.61177188 0.40987229 2.379765
-0.21633714 0.47901237 2.3811073
-0.060674082 0.49721611 2.3891225
0.025274331 0.47322166 2.3720818
0.065446749 0.47208557 2.3525326
0.25612551 0.47771257 2.3719676
0.61400712 0.47014368 2.3810675
-0.21784881 0.5288434 2.3912058
0.029283892 0.52525854 2.3679614
0.06422548 0.52210808 2.3532391
0.25654989 0.52461457 2.3694029
0.34094471 0.54785222 2.3859487
0.35811388 0.54155523 2.3830492
0.41402543 0.54031879 2.3986213
0.61144984 0.52663481 2.3627379
-0.21866202 0.5716455 2.3938687
-0.067037553 0.58344525 2.3985531
-0.0085565941 0.59665197 2.3553543
0.028333807 0.57608199 2.3662231
0.065862589 0.57813561 2.3522305
0.2633906 0.57730836 2.3783646
0.34187675 0.56103837 2.3906503
0.36792451 0.56383103 2.3896163
0.40847766 0.55838704 2.39849
0.03255301 0.62419933 2.3654056
0.06314864 0.61678338 2.3514924
0.26174712 0.62207562 2.3710139
0.033812124 0.67525673 2.3685405
0.26537925 0.67855579 2.3791161
0.032025903 0.72579098 2.3707566
0.060780156 0.72506791 2.3511591
0.26767629 0.73239696 2.3820441
0.034607183 0.77333933 2.3648677
0.06101685 0.77241099 2.3507512
0.26811126 0.77185947 2.3777714
-0.084153987 0.82824451 2.3968968
0.030070525 0.82513022 2.3696527
0.06132438 0.82886177 2.3504
0.26198402 0.81836355 2.3655057
-0.084465258 0.86319011 2.3983116
0.028943595 0.8763842 2.3713279
0.057031292 0.883798 2.3539569
0.2673766 0.87654173 2.3803287
0.026745263 0.92554963 2.3715796
0.057588279 0.92388177 2.3552144
0.26627615 0.92745835 2.3799381
-0.089384377 0.96479887 2.3992541
0.02822575 0.97637218 2.3738728
0.063658528 0.977328 2.3541589
0.26951709 0.97238266 2.3753948
-0.081753068 1.0181019 2.3974996
0.029769123 1.0252208 2.3795111
0.055975672 1.0249788 2.3596599
0.26847798 1.0257177 2.3735905
0.02836406 1.0749983 2.3797884
0.064092107 1.078011 2.3547249
0.26333895 1.0714297 2.3687115
0.028904311 1.126294 2.376533
0.06590987 1.1254168 2.3563244
0.26604891 1.1233345 2.3705027
-0.095396064 1.1701201 2.3922002
0.027581768 1.1749252 2.3787677
0.069971748 1.1739361 2.3567309
0.10025761 1.1785531 2.3509133
0.26778948 1.1667202 2.3698916
-0.089816131 1.2024884 2.3990569
0.027764374 1.2259465 2.3788633
0.070380099 1.2237769 2.3551085
0.27006939 1.2269672 2.3753803
0.026813366 1.2748945 2.3785675
0.072276257 1.2707335 2.3556497
0.10170525 1.2818838 2.3521631
0.26787353 1.2833097 2.3730886
-0.078661114 1.3410621 2.390893
0.028126176 1.3250241 2.3767242
0.070195295 1.3243262 2.3583515
0.10251369 1.3418013 2.3504684
0.26482716 1.3149107 2.361587
-0.075643107 1.3749198 2.3816843
0.031105241 1.371841 2.3741064
0.070272207 1.3758248 2.3587625
0.26811817 1.3754548 2.3722756
-0.085810862 1.4153013 2.3893969
0.028556146 1.4256788 2.3785572
0.072481804 1.4245872 2.3581779
0.10370521 1.4203176 2.3502321
0.27144167 1.4308032 2.3847589
-0.081751354 1.4745156 2.368614
0.0303085 1.4715152 2.372438
0.069222674 1.4722626 2.3591185
0.10423925 1.4528883 2.3507681
0.26841933 1.4732403 2.3672073
-0.078672104 1.5184046 2.394326
0.030596716 1.5237926 2.3792896
0.068648607 1.5250611 2.3579409
0.2706593 1.5225143 2.3812599
-0.088104859 1.5673211 2.3991857
0.032898564 1.5765666 2.3728366
0.072424524 1.5741062 2.3571999
0.10626236 1.571324 2.35215
0.27345237 1.5733408 2.3887103
-0.084403425 1.6235715 2.3955629
0.031564325 1.6183468 2.3714278
0.074819498 1.6266932 2.3568041
0.10712558 1.6230824 2.350724
0.27354667 1.6282924 2.3871551
-0.084949262 1.6601073 2.3962762
0.036205728 1.6715771 2.3700373
0.076214805 1.6775447 2.3575654
0.26693672 1.6678236 2.3661957
-0.076700948 1.7085907 2.3954756
0.037816279 1.7216098 2.3672903
0.073451355 1.7231815 2.3583906
0.26598528 1.7274257 2.3759367
0.035588514 1.7746315 2.3769641
0.076860912 1.7781047 2.359987
0.1095936 1.7535778 2.3521562
0.26609141 1.7719018 2.3799176
0.0372536 1.8287226 2.3753552
0.077642627 1.8303387 2.3636909
0.11133506 1.8355025 2.3563638
0.27653444 1.8166375 2.3995016
0.039832462 1.8746537 2.3734548
0.075254723 1.8690237 2.3630998
0.11863899 1.8644228 2.3540142
0.24841711 1.878885 2.3510029
0.26382565 1.8506134 2.3923767
0.031053482 1.9037329 2.3928118
1.9665285 2.3877923 2.3889132
2.0351834 2.3902636 2.3882437
2.0912485 2.3921592 2.3676505
2.1240931 2.3853595 2.3759568
2.1712253 2.3901258 2.3793802
2.2304831 2.3975234 2.3719959
2.2798636 2.3972063 2.3727808
2.3292494 2.3947828 2.3737257
2.3610499 2.3952627 2.3847299
2.4043701 2.3841872 2.3791382
2.0131273 2.4021893 2.3806407
2.0718944 2.4025679 2.383153
2.210372 2.4039376 2.37503
2.2790616 2.4023769 2.3676169
2.3857586 2.4019351 2.3786726
-0.33343413 -0.20873925 2.4107597
-0.27378401 -0.20749155 2.4010575
-0.32862759 -0.17342265 2.4058964
-0.27664003 -0.18018997 2.407125
-0.11234476 -0.17778096 2.4101465
-0.088914007 -0.1606757 2.401829
-0.3207781 -0.12712911 2.4075139
-0.11106915 -0.12934305 2.4125857
-0.083840542 -0.12883417 2.403851
-0.27353451 -0.069072165 2.4039631
-0.10524519 -0.071323492 2.4100976
-0.08313743 -0.074547827 2.403497
0.014493649 -0.06929674 2.4212801
-0.33148035 -0.046080846 2.4021153
-0.27424228 -0.028832136 2.4106839
-0.10063361 -0.028753355 2.4105651
-0.088765442 -0.026710629 2.4010932
0.014392005 -0.028649949 2.4047863
-0.35592175 4.7162699e-05 2.4095504
-0.3320328 0.026990287 2.4062338
-0.27320096 0.01154622 2.4016092
-0.11211397 0.019197354 2.4097121
-0.086507186 0.029842664 2.4019849
-0.11234476 0.074971288 2.4141097
-0.085073143 0.074634641 2.4039662
0.014441321 0.092129275 2.4119542
-0.27553433 0.11024963 2.4204469
-0.10782627 0.12084947 2.4085581
-0.088973299 0.12638843 2.4045498
0.014405029 0.1263546 2.4047971
-0.27681142 0.16907486 2.4294362
-0.11255287 0.17827703 2.4151795
-0.085279547 0.18220603 2.4060497
0.014399353 0.16647688 2.4023182
-0.11096994 0.23173006 2.4194322
-0.084304176 0.22550705 2.4068754
0.014427504 0.21856351 2.4043026
-0.10432424 0.26387966 2.4200189
-0.087311514 0.27268147 2.4034834
0.014425069 0.2760337 2.4000645
0.28846657 0.29135251 2.4197595
0.3341608 0.29059076 2.4094691
0.35079238 0.28992796 2.4023373
-0.10149234 0.33658871 2.4157939
-0.082267083 0.33362561 2.4054441
0.28861985 0.31910846 2.4259541
0.33351228 0.32748371 2.4134512
0.37580359 0.33045179 2.4043872
0.41032845 0.34924304 2.40029
-0.10947541 0.37998357 2.4167395
-0.081950381 0.3756023 2.4061334
0.014538947 0.3709439 2.4108849
0.28440747 0.36947694 2.4287043
0.33294195 0.37568691 2.4188392
0.37248778 0.37853155 2.4092619
0.41470116 0.3809489 2.4100831
-0.101973 0.41398948 2.4194608
-0.080666095 0.42626184 2.4086304
0.014530763 0.42870021 2.403244
0.2794441 0.4251163 2.4248652
0.33793235 0.42906237 2.4233286
0.37246194 0.42820236 2.4150171
0.41361785 0.42830896 2.4112105
-0.23249553 0.48283747 2.429426
-0.10221695 0.49094421 2.4158325
-0.078475654 0.4711256 2.4069865
0.27944604 0.47649884 2.424571
0.33956844 0.47837648 2.4291277
0.37400094 0.47710791 2.4192212
0.41565886 0.47758719 2.4171245
0.61461663 0.47975364 2.4320095
-0.23258832 0.5242728 2.4246838
-0.10249968 0.50988972 2.4200904
-0.078728504 0.52329451 2.4080935
0.014630702 0.52499235 2.407666
0.28059009 0.52565718 2.4278822
0.3397963 0.52596211 2.4243093
0.37629157 0.52251244 2.4167781
0.41671678 0.52443653 2.4168491
0.61084318 0.53947932 2.4423618
-0.23250473 0.5711391 2.4166985
-0.10284528 0.55864012 2.4213376
-0.083246373 0.57271969 2.4086409
0.28274158 0.56938398 2.4227579
0.33390367 0.5644297 2.4193609
0.38506109 0.55262792 2.4025531
0.4166747 0.55945009 2.4111977
0.60769486 0.55637622 2.4440386
-0.22693205 0.62415916 2.4188447
-0.085153669 0.61119223 2.4117513
0.28371629 0.63059866 2.4213254
0.014737217 0.67578745 2.4009459
0.28618625 0.67582417 2.4209754
-0.039783396 0.71819204 2.4221148
0.2840248 0.71682954 2.4150753
-0.086382188 0.78092307 2.4152272
0.014885359 0.7894969 2.4032898
0.29320326 0.77381176 2.4422681
-0.1049524 0.82812262 2.4211416
-0.092323512 0.82252419 2.4050679
0.01490936 0.82052946 2.4004543
0.28790984 0.82438761 2.4240534
-0.088959806 0.88422722 2.4081869
0.015041521 0.86383075 2.4132113
0.28743511 0.87126416 2.4223149
-0.10567401 0.94257092 2.4103343
-0.087230988 0.92106402 2.406795
0.015037098 0.91160804 2.4004624
0.28919759 0.92524159 2.4245696
-0.086338863 0.97634947 2.4012249
0.011114149 0.95753461 2.404599
0.28266981 0.97872448 2.4067411
-0.088273726 1.0275317 2.4086962
0.015235016 1.0270505 2.4033926
0.28508765 1.0239108 2.4165852
-0.089682266 1.075158 2.4104359
0.28611177 1.0768622 2.41013
-0.088447526 1.1255176 2.410393
0.015449542 1.1156145 2.4143052
0.28735793 1.1185873 2.4086637
0.30357313 1.1016787 2.4487734
-0.081557356 1.1718172 2.4108543
0.29256237 1.1766051 2.4394693
-0.084331036 1.2296377 2.4139805
0.29399249 1.2266644 2.4356716
-0.082315952 1.2766891 2.4131904
0.2884753 1.2806391 2.4237406
-0.082524262 1.3162439 2.4045081
0.29326302 1.3288335 2.43172
-0.090121113 1.3617071 2.4134862
0.28466901 1.3690848 2.4153745
0.30064598 1.3708214 2.4455073
-0.079819709 1.4185107 2.4018219
0.28744948 1.4147861 2.425138
0.30296436 1.4270426 2.4449229
0.29061317 1.469605 2.4343016
0.30467704 1.4678704 2.4441962
-0.087737285 1.5347779 2.4020724
0.29143023 1.5261509 2.4166355
-0.080546357 1.5728017 2.4076753
0.01636306 1.5613842 2.4045649
0.29076168 1.5832424 2.429455
-0.080247976 1.6190962 2.4067552
0.29672009 1.6138763 2.4306247
-0.081012741 1.6878009 2.401
0.28575248 1.6811842 2.4236972
-0.086235285 1.7306856 2.4085109
-0.084602125 1.7743975 2.4070578
-0.083218373 1.8293586 2.4102979
1.8424412 2.3724866 2.4448969
1.878139 2.3851118 2.441587
1.9344397 2.3885486 2.4243693
1.9763112 2.3927248 2.4307532
2.0272002 2.3930881 2.4254224
2.081712 2.3912425 2.4277821
2.1262131 2.3898041 2.4234984
2.1689057 2.3893127 2.4218307
2.2247684 2.3956101 2.4080753
2.2768173 2.3922694 2.4385588
2.3373287 2.3989153 2.4295094
2.3829927 2.3945832 2.4231141
2.4269114 2.3879583 2.428951
2.4764965 2.388052 2.4238365
2.5206685 2.3881567 2.4378138
1.9228427 2.4087346 2.4491723
2.0679886 2.4007745 2.4242225
2.2320442 2.401135 2.4408741
2.2774377 2.4015524 2.4101624
-0.24874879 0.28181779 2.4948511
0.32207221 0.2954883 2.4516671
-0.24935675 0.30054361 2.4995639
0.29977447 0.34429502 2.4605308
0.31737328 0.32182309 2.4713676
-0.25023997 0.3981142 2.4995
0.31134358 0.37717173 2.4780264
0.44693545 0.38399926 2.4688528
0.31487799 0.42586321 2.4770508
0.44901651 0.42192826 2.4764261
0.45143828 0.44240075 2.487658
0.31539863 0.47464484 2.4753504
0.60902852 0.48487183 2.4599111
0.31628516 0.52418417 2.4759731
0.61038983 0.52239937 2.4603391
0.31648016 0.57733929 2.4793661
0.31281865 0.62559831 2.4813688
0.30927277 0.67066985 2.4745834
0.3110365 0.72340846 2.4794233
0.29419872 0.76837134 2.4522548
0.3145377 0.77658033 2.4841049
0.3110663 0.82537925 2.4792099
0.31245947 0.87244725 2.480114
0.30829802 0.9777953 2.4711325
0.30705073 1.0220518 2.4661467
0.31070119 1.0712454 2.4766896
0.31329313 1.1138043 2.4752941
0.31214693 1.1694448 2.4819016
0.31086323 1.224333 2.4750371
0.29757211 1.267174 2.455894
0.3165347 1.2758794 2.4787343
0.31569272 1.3214991 2.484375
0.31178665 1.3980526 2.4790969
0.31123358 1.4087094 2.4692132
0.30650514 1.4634871 2.4647865
0.29524249 1.5261678 2.4577708
0.31022513 1.5213356 2.4764049
0.31473219 1.5704954 2.4996347
0.29912129 1.6134831 2.4571629
0.31407392 1.6145215 2.4711475
0.30355728 1.6783719 2.4723852
0.28479323 1.8990512 2.4536991
1.7549484 2.3701923 2.4951661
1.824352 2.3837688 2.4832792
1.86348 2.3711109 2.4697909
1.9097462 2.3857827 2.4630167
1.9774536 2.388001 2.4742527
2.0269525 2.3959351 2.4717419
2.0741682 2.3919232 2.4761617
2.1282842 2.3942893 2.4720018
2.1774986 2.3861141 2.4644358
2.2386861 2.390161 2.4615726
2.2793984 2.395833 2.4870234
2.3181722 2.389025 2.4705117
2.3737288 2.3898745 2.4777002
2.4258494 2.3864887 2.4801722
2.4779186 2.3917432 2.4750438
2.5092063 2.3850889 2.4870584
2.5758929 2.3941605 2.4785798
2.6043928 2.3935769 2.4803464
2.2220299 2.4014101 2.4920399
-0.25758192 0.26887977 2.5435145
-0.25008604 0.34361961 2.5032797
-0.24978004 0.32513583 2.5018172
-0.25177017 0.370215 2.5178545
0.31803411 0.38769948 2.5064404
2.59602 0.38428023 2.5426626
2.6214075 0.39381644 2.5357249
-0.25309634 0.4270843 2.5253596
0.31903794 0.41932663 2.5110829
2.6059351 0.41029051 2.549
-0.25515661 0.47360569 2.5408268
0.32012573 0.47559506 2.5131373
0.45723334 0.47879732 2.5157959
-0.26507157 0.52613127 2.529573
0.32112479 0.52604431 2.5145073
-0.2694515 0.55767417 2.5480981
0.32109284 0.55655146 2.5098667
0.33989656 0.63614243 2.5474145
0.33443806 0.68117601 2.529253
0.32417256 0.71624571 2.5075903
0.33083671 0.77401161 2.5243979
0.33074835 0.82203919 2.521806
0.32989573 0.87345856 2.5206919
0.32666007 0.93249673 2.5245059
0.32519937 0.95977855 2.5128164
0.32811078 1.032095 2.5177641
0.33068377 1.0745661 2.5162854
0.33439034 1.1253461 2.532433
0.33258653 1.1746113 2.5234222
0.33709455 1.2371123 2.5302117
0.33899963 1.2703835 2.5350127
0.33480731 1.3260601 2.5368884
0.32948706 1.3767766 2.5206916
0.33247355 1.4440241 2.5298402
0.32913828 1.4594202 2.5131531
0.32753795 1.5197026 2.5148311
0.32462117 1.5854746 2.5229197
0.32904553 1.6096516 2.5325873
0.33754283 1.6566589 2.5484159
0.30821222 1.8567178 2.5049658
0.30649215 1.9187001 2.5329335
0.30830908 1.9591236 2.529911
0.31292847 2.0327086 2.5393162
1.7393923 2.3841407 2.5252686
1.7735614 2.3837461 2.5309947
1.8266835 2.3920708 2.5349951
1.8673356 2.3807216 2.5230291
1.9343315 2.3965628 2.5191288
1.9697572 2.392144 2.5171926
2.0255976 2.38887 2.5284424
2.0690391 2.3887012 2.5172164
2.1223817 2.3902187 2.519896
2.1685078 2.3833113 2.5207391
2.2345483 2.3966184 2.5197337
2.2745469 2.3915806 2.528168
2.3171189 2.3884864 2.5231352
2.3776734 2.3845387 2.5344663
2.4201491 2.3804142 2.5276139
2.4838829 2.3874016 2.5254173
2.5256729 2.3818142 2.5163817
2.5637431 2.3841455 2.5247705
2.6103053 2.3886242 2.5148456
1.9117579 2.4036353 2.5306516
2.2213161 2.4020376 2.5381594
2.2575636 2.4016955 2.5123084
-0.27569446 -0.08051616 2.5875273
-0.28117764 -0.049404796 2.581059
-0.27418023 0.28228456 2.5752578
-0.27521724 0.32789934 2.5698433
-0.27602959 0.37851638 2.5728621
2.582531 0.38586873 2.5751951
2.642262 0.36509135 2.5756891
-0.27641368 0.42745751 2.579989
2.585515 0.42731693 2.5724328
2.6094043 0.42722681 2.550014
-0.27735227 0.47598553 2.5867963
0.47761816 0.46204776 2.5608516
-0.28022873 0.5043661 2.5786488
0.34033144 0.63695341 2.5506966
0.36560214 0.63426077 2.5692463
0.35632333 0.66856718 2.5705273
0.34392393 0.73206633 2.5616341
0.36039677 0.71869296 2.5921822
0.34435856 0.77085465 2.5573246
0.36100927 0.76679921 2.5874903
0.34761873 0.84195733 2.5678551
0.34829116 0.87546873 2.565449
0.35780585 0.8767786 2.5888338
0.35148787 0.92872077 2.5781119
0.3386586 0.99343354 2.5631146
0.35661119 0.98217565 2.584271
0.33914745 1.0250527 2.5584738
0.35786107 1.0214801 2.5783119
0.3579154 1.085833 2.5871584
0.35858837 1.1317819 2.5787451
0.34445429 1.1745353 2.5580153
0.36034831 1.170395 2.5809422
0.34766492 1.2251935 2.5686312
0.36517096 1.2329674 2.5999463
0.35174444 1.3200228 2.5699837
0.35337648 1.3665056 2.5664525
0.34181473 1.4351043 2.5576115
0.35974219 1.4254211 2.5990989
0.34607184 1.4941167 2.5719755
0.35769716 1.4582177 2.5674076
0.34574935 1.513298 2.5605345
0.34949327 1.5573565 2.5758014
0.35137224 1.5866193 2.5800166
0.33705774 1.6403691 2.551671
0.35485452 1.6585952 2.5785651
0.33852974 1.7222277 2.5723896
0.34828198 1.7668588 2.5998547
0.33813614 1.8764955 2.5857952
0.34083813 1.9061644 2.5979087
0.32939461 1.9768364 2.5938058
0.32356936 2.0238366 2.5839107
0.3339541 2.0718009 2.5865898
1.6348609 2.382587 2.5828247
1.6782786 2.3810253 2.5719409
1.7258098 2.3837588 2.5726311
1.770722 2.3800213 2.580919
1.8322024 2.3936112 2.57851
1.8827219 2.3894291 2.5789101
1.9261334 2.3949389 2.570848
1.973145 2.3910182 2.5769885
2.0220711 2.384609 2.5705962
2.0807464 2.3954124 2.5785508
2.1314411 2.392998 2.5735407
2.1801021 2.3886166 2.5889854
2.235332 2.3940859 2.571434
2.2638896 2.3909683 2.580394
2.3212059 2.3932016 2.5746944
2.3703444 2.386559 2.5745981
2.4290147 2.3793759 2.5825288
2.4694085 2.3820417 2.5579343
2.5199895 2.3842237 2.5731862
2.5682216 2.3834405 2.5851564
2.6296101 2.3860455 2.5693254
2.6572366 2.3839207 2.56954
2.2923241 2.4013934 2.578547
2.5617473 0.38763803 2.6156778
2.6398475 0.3681719 2.6199415
2.5664928 0.42955196 2.6148345
-0.2865808 0.46625239 2.6033683
0.38471973 0.6788702 2.6345518
0.37490749 0.73358715 2.6247246
0.37687701 0.78612894 2.6289098
0.37021244 0.82802403 2.6194601
0.37573066 0.88206679 2.6240368
0.37442237 0.93275118 2.6274605
0.36970964 0.96847653 2.6079037
0.3723461 1.0281224 2.6124883
0.37380165 1.0767066 2.6309524
0.37684593 1.1206183 2.6209691
0.38088286 1.1595814 2.6408052
0.37348801 1.2180088 2.6170564
0.36798528 1.2695085 2.6106267
0.36987761 1.3167658 2.6094625
0.37496784 1.3761865 2.6299174
0.3719686 1.4326677 2.6216419
0.37165922 1.4659635 2.6257386
0.36726758 1.5252248 2.6240706
0.36758864 1.5545861 2.6140277
0.36544433 1.6321292 2.62356
0.36778077 1.655777 2.6118946
0.36728749 1.7676524 2.6430678
0.35520574 1.8386126 2.631732
0.34503368 1.9444832 2.6211061
0.34845635 1.9787748 2.6381061
0.35096863 2.0081522 2.6479259
0.33560699 2.059392 2.6141577
0.35321882 2.0514452 2.6459677
1.4826062 2.3734837 2.6492984
1.5328686 2.384882 2.640377
1.5745636 2.3826876 2.6155374
1.6195468 2.3851399 2.6244097
1.676159 2.3803568 2.6258869
1.7342482 2.3810952 2.624331
1.7744534 2.3792315 2.6184082
1.8224559 2.3871849 2.6228552
1.8646569 2.3869672 2.6177397
1.9243665 2.3940547 2.6201622
1.9788661 2.3818035 2.6231604
2.0031831 2.3785827 2.6021104
2.0710895 2.397521 2.6328874
2.1233144 2.3957028 2.6173353
2.1690409 2.3876815 2.6254454
2.2247627 2.3890264 2.6199405
2.2803113 2.3898365 2.6290383
2.3355584 2.3893843 2.6204002
2.3789155 2.3857954 2.6306381
2.4173872 2.3769674 2.6107309
2.478543 2.3805892 2.6133134
2.5351424 2.3883486 2.6189165
2.5692222 2.3828838 2.6332684
2.7376728 2.3814964 2.6059744
2.7762647 2.3865342 2.6387506
2.8273866 2.3962955 2.619297
2.8790667 2.3944871 2.6292551
2.9114993 2.3844993 2.637809
1.9354908 2.4018862 2.6400437
2.0586791 2.4013703 2.6031404
2.1266198 2.4006574 2.6460927
2.3109903 2.4021568 2.6133816
0.40640533 0.65026915 2.6532507
0.39239222 0.72593242 2.6574724
0.40912566 0.71901178 2.6902874
0.39766032 0.76908231 2.6631284
0.4017193 0.79682541 2.6863582
0.38523448 0.82975799 2.6572752
0.40203449 0.83289641 2.6810896
0.38796777 0.86882663 2.6689129
0.40535501 0.89116192 2.6919811
0.38736069 0.92043579 2.6525011
0.40609854 0.91962719 2.6907146
0.39239717 0.9793728 2.6754091
0.40886879 0.98674387 2.6941993
0.39523911 1.0270389 2.6842391
0.39469865 1.0728146 2.667624
0.39659142 1.1186798 2.6687019
0.39099893 1.1695914 2.6629543
0.40172303 1.1674802 2.6928763
0.38582879 1.2087917 2.6642573
0.40419319 1.2299601 2.6919496
0.38870358 1.2797381 2.6633875
0.40511972 1.2743373 2.6842852
0.39021876 1.3261946 2.6591141
0.39479241 1.3836231 2.6748123
0.39712653 1.4199731 2.6798651
0.38491476 1.4974668 2.665837
0.40126219 1.477392 2.6908445
0.38812861 1.5384177 2.676029
0.38997123 1.5744122 2.6762688
0.38746023 1.7863274 2.6842453
0.35961568 1.883724 2.6520236
0.36808836 1.9660912 2.6927314
0.36233157 2.0292675 2.6749966
0.36976072 2.113287 2.6748025
1.4202821 2.384217 2.6942658
1.4646449 2.3862066 2.6760995
1.5240017 2.3806474 2.6773825
1.5832832 2.3827932 2.6697817
1.6313076 2.3832209 2.6780379
1.6724987 2.3825243 2.6713378
1.7269776 2.3832579 2.6766784
1.7780676 2.380101 2.672859
1.8213333 2.3920662 2.6801221
1.8959526 2.3974752 2.6576374
1.9277653 2.3966112 2.6796429
1.9697852 2.3899488 2.67518
2.0227096 2.3917751 2.6700413
2.0767105 2.3869472 2.6789389
2.1261773 2.3919702 2.6773107
2.1646931 2.3847008 2.6693013
2.2266071 2.3925014 2.6793189
2.2732921 2.3834829 2.6779912
2.3300612 2.3841667 2.6790159
2.3708925 2.3872015 2.6714218
2.429193 2.3882596 2.6637421
2.4837885 2.3848159 2.6669214
2.5329859 2.3755867 2.6632216
2.5802045 2.3825393 2.6752453
2.624794 2.3870192 2.6676614
2.6758304 2.3875442 2.6646402
2.7945197 2.3907199 2.6863644
2.8332703 2.3818438 2.6746075
2.8809605 2.3841927 2.6606765
2.9112573 2.3805199 2.6843574
2.9837358 2.3857148 2.6945012
1.8744069 2.4044533 2.6819293
2.2361014 2.4021325 2.6660504
0.42019036 0.67850763 2.7115381
0.4170562 0.74073064 2.7099266
0.42142412 0.77548915 2.7332087
0.41925234 0.82829511 2.7310274
0.42129794 0.87647027 2.7302279
0.4194949 0.9480235 2.7300324
0.42107075 0.97178829 2.7257102
0.41322985 1.0245534 2.7158744
0.41490683 1.0698897 2.7158248
0.41923994 1.1296494 2.7304423
0.4204545 1.1745698 2.7259116
0.4142057 1.2182521 2.717916
0.4091081 1.272892 2.7154474
0.41305897 1.3275948 2.7270772
0.41168749 1.3653967 2.7028899
0.41636258 1.4022174 2.7256644
0.41160193 1.4785103 2.7350056
0.4106501 1.5202549 2.7202158
0.4103218 1.5688761 2.7273185
0.39117613 2.0454373 2.7235327
1.2841095 2.3717532 2.7363894
1.3344361 2.3850276 2.7336042
1.3790123 2.3787889 2.724205
1.4223497 2.3818669 2.7183592
1.4750707 2.3837142 2.7288661
1.5240122 2.3800447 2.728425
1.5726902 2.384531 2.7270861
1.6228393 2.3789542 2.7161484
1.6768109 2.3853891 2.7240188
1.7305236 2.3819728 2.7408404
1.7773061 2.3861578 2.7315643
1.8249739 2.3825119 2.7335341
1.8803797 2.3935695 2.7211909
1.928673 2.3907573 2.7132277
1.9700896 2.3896313 2.7297039
2.0228882 2.3890941 2.7252452
2.070128 2.3820939 2.7205157
2.1252048 2.3834538 2.7248132
2.171041 2.3744097 2.7327158
2.2243702 2.391499 2.7265034
2.2634442 2.3741589 2.7241237
2.3320508 2.386586 2.7308619
2.359545 2.3758924 2.7242572
2.412668 2.3713651 2.7271845
2.4659395 2.3857083 2.7153151
2.5141068 2.3844724 2.7283607
2.576694 2.3867741 2.7379599
2.6247282 2.3848016 2.7241948
2.657536 2.3778043 2.7117627
2.7300243 2.3868215 2.7279255
2.8346391 2.3858995 2.7272177
2.9207826 2.3678739 2.705992
2.9552076 2.3792291 2.7030654
1.4502661 2.4053237 2.7099862
0.43716583 0.69135869 2.7619057
0.45398015 0.68956602 2.7815466
0.43876535 0.72789901 2.7660813
0.4565146 0.71397996 2.7935863
0.44206724 0.78137898 2.7780573
0.43409598 0.80663383 2.7661095
0.44427621 0.86793017 2.775212
0.43992454 0.928339 2.7796428
0.45176458 0.99464303 2.796242
0.43464792 1.0292875 2.7673652
0.43523839 1.0725058 2.7600486
0.43530637 1.1234096 2.7713027
0.44183195 1.1736273 2.7776966
0.43833545 1.2287855 2.7698982
0.43578458 1.2711027 2.7655458
0.43082714 1.3246827 2.7537622
0.43872952 1.3779713 2.7941015
0.42351946 1.448094 2.7642674
0.42509466 1.4753268 2.7660689
0.4383693 1.5398932 2.7857873
0.4266977 1.6252104 2.7760746
1.1864679 2.3825829 2.7892158
1.2334454 2.3765361 2.7777638
1.272877 2.3767328 2.7723434
1.3261323 2.3716295 2.7650411
1.3714166 2.3803654 2.7737291
1.4293816 2.3808241 2.7766988
1.4711943 2.372683 2.7689021
1.5205706 2.3845642 2.776001
1.5653576 2.3781765 2.7709875
1.6200204 2.3844411 2.7729769
1.6795492 2.3845119 2.7787149
1.7264602 2.3815145 2.7736626
1.7906852 2.3890076 2.7920759
1.8133106 2.3828514 2.7693462
1.8728316 2.387193 2.7740493
1.9274702 2.3843913 2.7696679
1.9835955 2.3886766 2.7795074
2.0186093 2.3873379 2.7703536
2.0693092 2.3906493 2.7740724
2.1220613 2.3825197 2.779865
2.1650584 2.3894663 2.7871284
2.2228465 2.3817101 2.7820983
2.2603998 2.3816614 2.7805486
2.3261988 2.3809509 2.7741067
2.3786969 2.3855095 2.7784936
2.4252949 2.3835273 2.7664011
2.4722834 2.3817034 2.7540054
2.5195789 2.3885622 2.7841551
2.582746 2.3908136 2.7942169
2.6245499 2.3824031 2.781625
2.7436481 2.3960929 2.7908747
2.7959812 2.3858962 2.7849269
2.8297441 2.3784535 2.7711697
2.8951015 2.3801804 2.7519219
2.9227848 2.3822036 2.7914572
2.7090652 2.4036882 2.778019
2.8123894 2.4029734 2.7519708
0.47323948 0.69089538 2.8145247
0.46817806 0.72122538 2.821476
0.46464193 0.77560031 2.8345258
