ply
format ascii 1.0
comment PCL generated
element vertex 1465
property float x
property float y
property float z
element camera 0
property float view_px
property float view_py
property float view_pz
property float x_axisx
property float x_axisy
property float x_axisz
property float y_axisx
property float y_axisy
property float y_axisz
property float z_axisx
property float z_axisy
property float z_axisz
property float focal
property float scalex
property float scaley
property float centerx
property float centery
property int viewportx
property int viewporty
property float k1
property float k2
end_header
-0.16510873 0.27553967 0.92568147
-0.1387545 0.2519317 0.94927931
-0.16458759 0.32425106 0.92452741
-0.16332318 0.37461242 0.92365664
-0.13768214 0.39042971 0.94445395
-0.16195807 0.42470762 0.92453945
-0.14383534 0.40864003 0.94858462
-0.16043729 0.47434983 0.92592901
-0.16080575 0.52497196 0.92303813
-0.14638439 0.54044676 0.94624996
-0.15829802 0.55311871 0.92871642
-0.14550978 0.55439401 0.94693625
-0.27703065 0.69201672 0.92500269
-0.28727081 0.7261734 0.9264254
-0.28683051 0.76082534 0.93080157
0.86580288 -0.50422144 0.99704504
0.93000615 -0.50288934 0.97978044
0.97157264 -0.50484252 0.98270023
1.034201 -0.5081951 0.97127616
1.0788952 -0.50835568 0.97277725
1.1405516 -0.51623917 0.96687406
1.1535956 -0.51507825 0.9808138
-0.27031833 -0.47026175 0.97254926
-0.22680868 -0.48599687 0.97528976
-0.17411815 -0.48593068 0.97436696
-0.12396955 -0.48327228 0.97619075
-0.074968494 -0.48239923 0.97427356
-0.026559232 -0.48242342 0.97486472
0.024028279 -0.48195422 0.97446728
0.074724078 -0.48332182 0.97334158
0.12576303 -0.48492965 0.97379178
0.17296474 -0.48513409 0.97308421
0.22482233 -0.48494095 0.97426677
0.27436742 -0.485221 0.97547513
0.32480896 -0.48574802 0.97345972
0.37566936 -0.48556387 0.97403115
0.42638096 -0.48544839 0.97538
0.47438985 -0.48672605 0.97589701
0.52360696 -0.48649347 0.96967256
0.57371783 -0.48692724 0.9737758
0.62462121 -0.48837417 0.98010778
0.67331439 -0.48937938 0.97500288
0.7214669 -0.49081552 0.97771645
0.77089453 -0.49114317 0.97190058
0.82660532 -0.49542221 0.97307158
0.87337244 -0.49646771 0.96791244
0.91544056 -0.49737942 0.95881653
0.9798367 -0.4998222 0.95743996
-0.28300855 -0.43647879 0.97630149
-0.16333693 -0.32159954 0.97003639
-0.16224135 -0.27502447 0.97070688
-0.161047 -0.22527996 0.96883911
-0.1589068 -0.17717835 0.96446115
-0.15761578 -0.12433333 0.9631955
-0.15658103 -0.074249223 0.96259463
-0.14667538 -0.072730564 0.95937508
-0.15597057 -0.025409292 0.96046793
-0.1452605 -0.038879849 0.95146602
-0.15521242 0.021241609 0.95870101
-0.14550538 0.024106877 0.95328814
-0.15372664 0.074026063 0.95932811
-0.14639212 0.073850542 0.95740008
-0.15602903 0.12464313 0.95853913
-0.1473659 0.12951288 0.96883774
-0.1551667 0.17436618 0.95764869
-0.14662051 0.1746556 0.96517742
-0.15409037 0.22448048 0.9565441
-0.14676112 0.22090167 0.96343791
-0.15170874 0.27344212 0.95787412
-0.14366965 0.27435425 0.95848495
-0.15207253 0.32570845 0.95449233
-0.14480202 0.32408279 0.95957506
-0.15256412 0.36932316 0.95236444
-0.14632943 0.37504759 0.95862514
-0.15026766 0.43018398 0.95292425
-0.14428759 0.4261376 0.95692825
-0.14473054 0.47658759 0.95680338
-0.14411466 0.52365631 0.95579547
-0.26469144 0.69421935 0.96114683
-0.26808366 0.72708911 0.97453421
-0.2690402 0.77350515 0.9772225
-0.26600781 0.80572051 0.98617947
0.8482725 -0.50133324 1.0006415
0.87461197 -0.50323355 1.0287879
0.92230278 -0.50531822 1.0215466
0.97459632 -0.50880206 1.0198085
1.0354745 -0.51333153 1.0205878
-0.25795376 -0.46214783 1.0151149
-0.2288719 -0.47878495 1.0265994
-0.17576152 -0.48440397 1.0247054
-0.12473749 -0.48207974 1.0237668
-0.074558169 -0.48078883 1.0247085
-0.024726052 -0.4798601 1.024797
0.024726667 -0.47954574 1.025015
0.075595096 -0.48080766 1.0231525
0.12461525 -0.48298883 1.0256792
0.17528744 -0.48399481 1.0243989
0.22400306 -0.48523897 1.0267278
0.27499411 -0.4857277 1.0264529
0.32576096 -0.48639208 1.0253203
0.37566799 -0.48715383 1.0247411
0.42157766 -0.48671949 1.0230829
0.47672501 -0.48799402 1.0247608
0.52830142 -0.48898742 1.0254246
0.57577401 -0.48850366 1.023773
0.62544715 -0.49071661 1.0283992
0.67251158 -0.491054 1.0239599
0.7232191 -0.49286139 1.0245986
0.77365756 -0.49422655 1.018344
0.81999534 -0.49617946 1.0193044
0.86826187 -0.49885857 1.0129637
-0.2608256 -0.43709865 1.0241381
-0.24802437 -0.41906214 1.03784
-0.25495383 0.73102444 1.0120631
-0.24464573 0.72407937 1.0355242
-0.25444472 0.77272785 1.0148952
-0.24513133 0.77339691 1.0397608
-0.2552256 0.81597155 1.0153224
-0.24627335 0.82426143 1.0380908
0.79235631 -0.50054377 1.0735778
0.82634968 -0.50327897 1.0760819
0.87412435 -0.50580388 1.0749031
0.92727566 -0.50886571 1.0743736
0.98153371 -0.51346987 1.0750843
-0.22285034 -0.47057918 1.0744495
-0.17502111 -0.48298219 1.0757462
-0.12554841 -0.48212051 1.0727506
-0.075542361 -0.47960985 1.0748123
-0.025300097 -0.47796848 1.0755838
0.023145396 -0.47659293 1.0729476
0.07462094 -0.47778204 1.0733699
0.12503609 -0.48109859 1.0764136
0.17473215 -0.48368037 1.0741286
0.22645307 -0.48511678 1.0737072
0.27388555 -0.4860433 1.0746506
0.32518724 -0.48727858 1.0766011
0.3747313 -0.48845103 1.073741
0.42450458 -0.48989555 1.0758941
0.47425011 -0.48938271 1.0715568
0.52434814 -0.49062011 1.0722712
0.57625628 -0.49134311 1.0753509
0.62764817 -0.49258804 1.0762739
0.67207533 -0.49395463 1.0747021
0.7240665 -0.49592575 1.076196
0.76693231 -0.49725541 1.0714035
0.81526875 -0.49813685 1.0823065
-0.25186434 -0.43362764 1.0515727
-0.23735835 -0.43639219 1.0763555
-0.23119603 0.72895414 1.0762788
-0.23188861 0.77242827 1.0765494
-0.23320623 0.82453918 1.0743699
-0.23127483 0.86700457 1.0816256
0.68128467 -0.50307 1.1378843
0.73262644 -0.50213629 1.1271422
0.78171021 -0.50297558 1.1280003
0.82592386 -0.50359923 1.1246237
0.87399977 -0.5052641 1.1158998
0.92517507 -0.51075238 1.1149725
0.95776039 -0.51219505 1.1071488
-0.20982555 -0.46249396 1.1225412
-0.17822674 -0.47784847 1.1251674
-0.12374553 -0.4811424 1.1231983
-0.075357214 -0.47894719 1.1226251
-0.027681222 -0.47607097 1.1214359
0.026024062 -0.47523955 1.1230921
0.075079679 -0.47720465 1.1225905
0.12643647 -0.48066106 1.124994
0.17542571 -0.4836089 1.1226423
0.22425625 -0.48593006 1.1248925
0.27503803 -0.48706037 1.1246241
0.32272145 -0.4882533 1.123804
0.3763507 -0.49015427 1.1235509
0.42424366 -0.4916434 1.1239195
0.47376904 -0.49282679 1.123854
0.52428883 -0.49313572 1.1233602
0.5722487 -0.49360684 1.1221461
0.62326115 -0.49583727 1.122682
0.67753059 -0.49653947 1.1195077
0.72145683 -0.49825585 1.1196678
0.77961117 -0.49849743 1.1280787
-0.21475518 -0.43648902 1.1260562
-0.21304692 0.72989392 1.1240532
-0.21432979 0.77328116 1.1234605
-0.21376377 0.82397246 1.1273738
-0.21425878 0.87515002 1.1234721
-0.20819445 0.91059119 1.1374308
0.48313597 -0.50025988 1.1832715
0.54099637 -0.50066942 1.1977899
0.62028378 -0.50219542 1.1755406
0.6729545 -0.50232065 1.1741006
0.7259177 -0.50417298 1.1696626
0.76664615 -0.50589347 1.1760749
0.82048583 -0.50686461 1.1706425
0.85751235 -0.50627625 1.1550246
-0.17628309 -0.47514397 1.1741949
-0.12544316 -0.48064062 1.1724055
-0.073961116 -0.47801301 1.1731751
-0.024789644 -0.4752458 1.1718624
0.022202032 -0.47482261 1.1715692
0.075040251 -0.47664988 1.170483
0.12412673 -0.48037016 1.1747925
0.17555577 -0.48450485 1.1778502
0.22161312 -0.48693845 1.1771888
0.27513444 -0.48872817 1.1775724
0.32577756 -0.49029985 1.1737235
0.3733148 -0.49211553 1.1701335
0.42214605 -0.49307096 1.1745081
0.47268921 -0.49670604 1.1787846
0.52592874 -0.4976981 1.171518
0.57161576 -0.49635783 1.1684538
0.61835986 -0.49705565 1.1688612
0.68013537 -0.49878004 1.1681761
0.70497072 -0.49929643 1.1690404
0.77527642 -0.49987483 1.1576865
-0.20291515 -0.4319365 1.1530186
-0.19856729 -0.43830246 1.1691101
-0.2030849 0.73547459 1.1541729
-0.19513257 0.72798872 1.1645522
-0.20282687 0.77330697 1.1574193
-0.19529738 0.7756784 1.1717411
-0.20157897 0.82788038 1.1567398
-0.19618203 0.81772792 1.1679115
-0.2031353 0.87236989 1.1567118
-0.19497135 0.87629765 1.1732427
-0.20061642 0.92422414 1.1603661
-0.19244531 0.92377704 1.1696117
0.42549947 -0.50134683 1.2430341
0.47328049 -0.50219864 1.2274158
0.52313477 -0.50177234 1.2237756
0.57844955 -0.50232059 1.2226565
0.63005751 -0.50501764 1.2275156
0.67619258 -0.50531596 1.2204844
0.72358131 -0.50586599 1.2140429
0.77836287 -0.50822967 1.2158668
-0.20319992 -0.46219587 1.2336626
-0.17475638 -0.476704 1.2221646
-0.12355389 -0.48038805 1.2255262
-0.075902328 -0.47783196 1.222288
-0.026294503 -0.47578296 1.2219293
0.026212804 -0.47506949 1.219673
0.075044535 -0.47726551 1.2216133
0.12601468 -0.48030072 1.2195969
0.1740285 -0.48460779 1.2253822
0.22687319 -0.48831549 1.2221951
0.2762529 -0.48992643 1.2245128
0.32566038 -0.4926098 1.2229693
0.3737565 -0.4951672 1.2264608
0.41751826 -0.49641779 1.2256948
0.47483355 -0.49700114 1.2084392
0.52631009 -0.49865147 1.2102219
0.55162728 -0.49804902 1.2068064
0.65469658 -0.49953654 1.214113
0.33750638 -0.50035065 1.2883753
0.37439418 -0.50086385 1.2827027
0.43455312 -0.50327396 1.2780974
0.47226411 -0.50480074 1.2725244
0.52424151 -0.50600612 1.2747717
0.57219136 -0.50701898 1.2752393
0.62332708 -0.5091536 1.2733639
0.67612749 -0.51272583 1.2772214
-0.20309012 -0.47063097 1.285413
-0.17478812 -0.47862965 1.2706561
-0.12493154 -0.48253289 1.2756777
-0.07410039 -0.47923627 1.2689573
-0.027803948 -0.47764087 1.2745301
0.023412032 -0.47737181 1.2695101
0.07487832 -0.48061782 1.2744803
0.12330525 -0.48418191 1.271145
0.17358722 -0.48691666 1.2703205
0.22749883 -0.48975125 1.2720156
0.27593192 -0.4936184 1.2711104
0.32449296 -0.49476534 1.2735074
0.37168241 -0.49713555 1.274609
0.41427863 -0.49762562 1.2648231
1.2995601 -0.56531531 1.3453374
0.33718184 -0.50139886 1.3314416
0.37828368 -0.50337803 1.3250319
0.42185587 -0.50804919 1.3259892
0.4769161 -0.50955969 1.3237838
0.5222016 -0.5084821 1.3214241
0.57197428 -0.51383579 1.3264028
0.64072132 -0.51518613 1.3114854
-0.20219204 -0.47009474 1.3138266
-0.1754552 -0.48196137 1.3195481
-0.12257345 -0.48416135 1.3235461
-0.072962463 -0.48272049 1.321677
-0.022487039 -0.48206678 1.3319727
0.023766819 -0.48140222 1.3239217
0.074354038 -0.48311797 1.3180107
0.127332 -0.48871052 1.3237482
0.17671174 -0.49156469 1.3199133
0.22093554 -0.49432397 1.3239963
0.27379709 -0.49601251 1.3228019
0.31620032 -0.49844679 1.3244972
0.35276264 -0.49945995 1.3232254
1.3227216 -0.57075536 1.377026
1.3593651 -0.57103294 1.3899975
1.747734 -0.58728665 1.3780006
1.7793335 -0.59268761 1.3762181
1.811115 -0.59289539 1.3758687
0.11323494 -0.50151819 1.3991339
0.18110786 -0.50140989 1.3938773
0.22212477 -0.50195438 1.3913543
0.28074595 -0.50240934 1.379233
0.32291642 -0.50369447 1.3728487
0.37445304 -0.50672901 1.3723034
0.41649535 -0.50904512 1.3620453
0.47849217 -0.51540852 1.3620546
-0.20225817 -0.47674611 1.3785958
-0.17436211 -0.48451397 1.3691478
-0.12548962 -0.48835927 1.3772446
-0.074601777 -0.48809436 1.3754886
-0.027036656 -0.48618191 1.3779147
0.028414536 -0.48716658 1.3764523
0.079672329 -0.48953748 1.37243
0.13000098 -0.49403399 1.3688638
0.17374697 -0.4971588 1.369597
0.22666577 -0.49763843 1.3629627
0.26348409 -0.49802521 1.3682098
0.33444658 -0.49892676 1.3671032
1.0636901 -0.55565411 1.4391892
1.1915894 -0.57004589 1.4476231
1.2345064 -0.5671854 1.4246125
1.2733328 -0.5690493 1.4331236
1.3420085 -0.57272327 1.4263592
1.3652693 -0.57078165 1.427776
1.6774484 -0.58772898 1.4463757
1.7402145 -0.59006202 1.4274709
1.7692438 -0.58562064 1.4284683
1.8325654 -0.58932936 1.423963
1.8678277 -0.57952118 1.4284964
0.13583016 -0.50081444 1.417277
0.18302904 -0.50288427 1.4290714
0.21749818 -0.5020436 1.4138072
0.27543122 -0.50443971 1.4137073
0.31149247 -0.50725013 1.416647
-0.20462503 -0.48396575 1.429539
-0.17700213 -0.48979282 1.4266591
-0.1310569 -0.49290222 1.4251531
-0.072950296 -0.49162766 1.42521
-0.02316949 -0.48939708 1.420681
0.020384526 -0.49132681 1.4243295
0.072744682 -0.4934445 1.4138826
0.12265008 -0.49744129 1.4084412
0.17224775 -0.49722555 1.4042562
1.0728325 -0.56042957 1.4515959
1.124504 -0.5645138 1.4751003
1.171073 -0.56521869 1.4709051
1.2231908 -0.56894702 1.4728041
1.2640525 -0.56928796 1.4716728
1.3185594 -0.57368362 1.4705443
1.3948663 -0.57717693 1.492545
1.4209422 -0.57876098 1.4783539
1.5947642 -0.5899477 1.4799654
1.6218355 -0.58608443 1.4897335
1.677006 -0.58350199 1.4669989
1.7280968 -0.58271986 1.4674549
1.7733766 -0.57858211 1.4816961
1.8192452 -0.5814833 1.4718258
1.8756193 -0.57402915 1.478156
1.9168794 -0.56545633 1.4793704
-0.053555042 -0.50261611 1.4942808
-0.023895536 -0.50088513 1.4895792
0.045608632 -0.5031262 1.4726176
0.19011648 -0.50681758 1.4525769
0.21274941 -0.50898939 1.4567358
-0.20732522 -0.48802942 1.4770122
-0.17609991 -0.49481055 1.4791178
-0.12023538 -0.49616098 1.4639407
-0.083237588 -0.49598363 1.4669682
-0.027215095 -0.49624866 1.4700406
0.018217076 -0.49637991 1.4734544
0.94539988 -0.56054133 1.5215594
0.97817898 -0.56288457 1.5301102
1.005214 -0.56413543 1.537709
1.0789883 -0.56798404 1.5328033
1.1160342 -0.56580269 1.5216395
1.1731913 -0.56892103 1.5211614
1.2193155 -0.5706895 1.5292472
1.280108 -0.57329708 1.5292499
1.3219552 -0.57410282 1.5204057
1.3600681 -0.57652885 1.5170516
1.4242728 -0.5782426 1.5325949
1.4822605 -0.58327442 1.5457028
1.5171173 -0.58101898 1.5199082
1.5788182 -0.58370835 1.5347558
1.6245954 -0.58237803 1.5238824
1.6757495 -0.58007443 1.5220587
1.7213421 -0.57713109 1.5230533
1.7776362 -0.57199305 1.5282924
1.8261746 -0.5638504 1.5227243
1.8782699 -0.56015289 1.5255667
1.9207597 -0.55580592 1.5205822
1.9579682 -0.55727029 1.5115967
-0.16215274 -0.50268668 1.5331118
-0.12612326 -0.50395644 1.5306491
-0.074542306 -0.50397408 1.5299965
-0.024501547 -0.50347048 1.529579
1.9200836 -0.54495424 1.5434934
1.9671263 -0.54460585 1.5329664
-0.20873199 -0.49787599 1.5447509
-0.1872672 -0.49664041 1.5258938
0.0018954648 -0.49995607 1.5108984
0.77823734 -0.5531956 1.5798826
0.81173855 -0.55370384 1.5876194
0.88182944 -0.56031549 1.5821403
0.92349792 -0.55793577 1.5608639
0.97439897 -0.56193256 1.5726283
1.0260185 -0.5646587 1.5694679
1.0783905 -0.5701735 1.5853097
1.121994 -0.56852043 1.5781831
1.1731366 -0.56595826 1.5709283
1.231542 -0.57062763 1.5825595
1.2693825 -0.56875026 1.5761883
1.3304477 -0.57477081 1.5763535
1.3762163 -0.57321149 1.5718569
1.4202074 -0.57331473 1.5733255
1.479337 -0.5760473 1.5716172
1.5246435 -0.57417983 1.5850557
1.5759408 -0.57493156 1.5783355
1.6273248 -0.56955558 1.5750226
1.6773032 -0.56666321 1.5774499
1.7219768 -0.56264281 1.5727351
1.777427 -0.55857295 1.5736235
1.8277246 -0.55367136 1.5676399
1.8714174 -0.55169457 1.5601772
-0.20165637 -0.50120032 1.5821089
-0.1741294 -0.50392169 1.5731574
-0.12319515 -0.50937653 1.5836648
-0.06780728 -0.50877249 1.571824
-0.013418945 -0.50716895 1.5575806
0.017261706 -0.51303297 1.550354
0.82201236 -0.54915828 1.5680137
1.7841794 -0.54378295 1.5950716
1.8225116 -0.54446441 1.5863233
1.8838091 -0.53423935 1.5842192
1.9308197 -0.52590871 1.5831906
1.9695404 -0.51986933 1.5683196
2.0034349 -0.51879525 1.5600623
-0.21484894 -0.4946897 1.5734997
-0.17715652 -0.4983604 1.5750327
1.9342978 -0.47321439 1.5952307
1.9734715 -0.47539946 1.5789143
2.0032082 -0.46734464 1.5721688
1.941082 -0.42302838 1.5957482
1.9790701 -0.4246645 1.5819377
1.9395317 -0.38168988 1.5986522
1.9725718 -0.37801591 1.585763
1.9431274 -0.32448691 1.5952644
1.970031 -0.32805407 1.5849117
1.9391295 -0.27309713 1.5955794
1.9648943 -0.27430701 1.5859836
1.9392341 -0.22209407 1.5917856
1.9612356 -0.22660112 1.5821372
1.9266849 -0.17362988 1.592664
1.9559535 -0.17185138 1.5799494
1.9223917 -0.12663847 1.5885518
1.9525636 -0.13253714 1.5802038
1.8924524 -0.07959988 1.5974468
1.9278908 -0.074798144 1.5846806
1.9507124 -0.09903378 1.5806686
1.892652 -0.026429243 1.5956702
1.9249109 -0.026510781 1.5819703
1.8879385 0.02116368 1.5950083
1.9239953 0.023172734 1.5811356
1.8809769 0.077691987 1.5942512
1.9225208 0.072814979 1.578596
1.8792146 0.12880659 1.5932212
1.9241668 0.1225832 1.5772833
1.8754823 0.17862701 1.5894774
1.9239322 0.17445806 1.5744942
1.8757836 0.21378398 1.5932308
1.9261068 0.2142316 1.575779
1.9520285 0.21280672 1.5719117
0.72780943 -0.56130546 1.642958
0.77421653 -0.5584783 1.6266602
0.8316794 -0.56148577 1.638999
0.87234926 -0.56187505 1.6196603
0.92748839 -0.56327975 1.6230555
0.98091263 -0.56202 1.621727
1.0292262 -0.56612235 1.6275768
1.0766491 -0.56889874 1.6264302
1.1253639 -0.56904352 1.6226254
1.1783412 -0.56804758 1.6284419
1.2221364 -0.56589007 1.6250261
1.2740086 -0.56698316 1.6330837
1.3238736 -0.56786096 1.6188164
1.3708606 -0.56769335 1.6266446
1.4278026 -0.56446606 1.6253691
1.4757822 -0.56919646 1.6165529
1.5207201 -0.56470889 1.6337725
1.5693196 -0.56303114 1.6275226
1.6219572 -0.55900371 1.6265029
1.6704081 -0.55741221 1.6249809
1.7260457 -0.55371737 1.6073053
1.7612857 -0.55265176 1.6014143
-0.21713966 -0.50327086 1.6425977
-0.18388484 -0.50789261 1.6363932
-0.12427431 -0.51252395 1.6268868
-0.086055331 -0.51642251 1.6241145
-0.046412669 -0.5168798 1.6400893
1.6851368 -0.54742205 1.640233
1.7210981 -0.54506648 1.6319607
1.7767624 -0.53139192 1.6313608
1.8229769 -0.52432799 1.6258092
1.8704168 -0.51767504 1.6126752
1.9137745 -0.51898545 1.6078622
-0.22720972 -0.49358296 1.6210012
1.7923411 -0.49615425 1.647913
1.8240156 -0.47789741 1.6392549
1.8703632 -0.47421524 1.6217741
1.9079177 -0.47433573 1.6046534
1.8328667 -0.4249385 1.6404552
1.8790962 -0.42648837 1.6210726
1.9183829 -0.42331642 1.6056746
1.8345101 -0.37535045 1.641758
1.8707117 -0.373759 1.6245711
1.9165857 -0.3726815 1.6082522
1.8305365 -0.32205155 1.6414433
1.8772067 -0.32830051 1.62214
1.9220891 -0.32105926 1.6059704
1.8258297 -0.27362934 1.640407
1.8725228 -0.27559224 1.6202686
1.9144337 -0.27201319 1.605684
1.8223805 -0.22232312 1.6406953
1.8723749 -0.22483617 1.618781
1.9111542 -0.23052077 1.6047969
1.797639 -0.1622908 1.6476378
1.8255181 -0.17588609 1.6357889
1.8757952 -0.17528251 1.6142608
1.9086195 -0.17992979 1.6011273
1.7895596 -0.12489247 1.6469724
1.8241786 -0.12450515 1.6338248
1.8692142 -0.12527145 1.6124467
1.903196 -0.10943346 1.6018006
1.7793808 -0.07232783 1.6451205
1.8217225 -0.073959798 1.6273513
1.8666829 -0.075660147 1.6091075
1.7800276 -0.0239459 1.6419376
1.8244644 -0.027781798 1.6232977
1.8704796 -0.026383631 1.6071877
1.7484496 0.022240097 1.6485729
1.7802261 0.022407981 1.6379908
1.8264019 0.022639953 1.6192099
1.8661317 0.024084086 1.6044861
1.7475021 0.075764127 1.6461523
1.7765913 0.076839246 1.6356058
1.8244972 0.07684838 1.6159989
1.8574059 0.077357784 1.6044391
1.7403177 0.12601778 1.6452166
1.7769547 0.12453315 1.6308156
1.823198 0.12555349 1.6121353
1.8570811 0.12099584 1.6018091
1.7356223 0.17437358 1.643188
1.7782406 0.17306 1.6280295
1.8254129 0.17454828 1.61005
1.8594583 0.15937644 1.6009438
1.6982971 0.22333556 1.646881
1.7311316 0.21571167 1.6420879
1.7751414 0.21491933 1.6248114
1.8267545 0.215205 1.6099011
1.8656191 0.23248379 1.6189666
0.58667767 -0.56270957 1.6876571
0.62672013 -0.55976385 1.6676936
0.68271929 -0.56331629 1.6636174
0.72193992 -0.56425571 1.6791784
0.77145606 -0.56337696 1.6834856
0.81968749 -0.56479174 1.6798728
0.87546706 -0.56387466 1.6754375
0.9274478 -0.56602651 1.6737932
0.97731102 -0.56657988 1.6764745
1.0221345 -0.56519854 1.6771364
1.0804574 -0.56807655 1.6707528
1.1337976 -0.57085425 1.6755334
1.17722 -0.56298643 1.679297
1.2295523 -0.56170666 1.6695528
1.2778068 -0.5619548 1.6766839
1.3216281 -0.56148994 1.6777692
1.3725929 -0.56003028 1.6691821
1.4231871 -0.55775344 1.6809418
1.4733462 -0.55988175 1.6734456
1.5171249 -0.5546419 1.6726487
1.5639042 -0.55463678 1.6599823
1.6209505 -0.55103439 1.6531219
-0.21301083 -0.50588697 1.6759354
-0.17373019 -0.51202136 1.6702595
-0.13002323 -0.51877195 1.6757545
-0.080476351 -0.52410555 1.676132
0.0021000893 -0.52903783 1.6791208
1.5384467 -0.5444622 1.6848538
1.5787127 -0.5458014 1.683902
1.626472 -0.54014248 1.6785533
1.6769885 -0.5286501 1.6754366
1.7246464 -0.51925969 1.6739107
1.7654588 -0.51588988 1.6610088
-0.23815306 -0.48133379 1.6750774
1.68671 -0.47898769 1.6943973
1.7276399 -0.47633365 1.6805953
1.7772617 -0.47301373 1.6598935
1.8057418 -0.45255792 1.650553
-0.24632767 -0.43050513 1.6887341
1.6948044 -0.42291647 1.6975408
1.7243518 -0.42605978 1.68538
1.771817 -0.42446774 1.6673852
1.8067465 -0.42352453 1.6538388
1.7238615 -0.37338489 1.6875831
1.7762083 -0.37589541 1.6675106
1.810093 -0.37783059 1.6531863
1.6992683 -0.3072131 1.6978707
1.7249993 -0.32666194 1.6864705
1.7733189 -0.32561281 1.6669987
1.8041552 -0.3231352 1.6540434
1.6944863 -0.2740671 1.6977956
1.7244021 -0.27533647 1.6869578
1.7764537 -0.27572531 1.6641018
1.6892204 -0.22028849 1.6950744
1.725386 -0.22705877 1.6822631
1.7737749 -0.22587729 1.661068
1.6898961 -0.17602526 1.6941693
1.7246222 -0.1767907 1.6782231
1.7672037 -0.17236687 1.6588714
1.6827145 -0.12836772 1.6932588
1.7221268 -0.12876548 1.6769518
1.7642237 -0.12128675 1.6599464
1.6777101 -0.071895748 1.6899939
1.7259388 -0.076158069 1.6705279
1.760417 -0.078191936 1.6551825
1.6717312 -0.024301836 1.6875983
1.7216426 -0.027496053 1.6686337
1.7541511 -0.026049972 1.6540208
1.6388887 0.037619065 1.6990819
1.6720307 0.021904681 1.6835619
1.7197108 0.022097213 1.6610563
1.7510545 0.022273948 1.651105
1.6355113 0.078249104 1.6942086
1.6738642 0.073008314 1.6788551
1.7187842 0.075395823 1.658704
1.7535371 0.070643499 1.6521696
1.6316727 0.13021876 1.6910355
1.6743679 0.12769626 1.6717808
1.711802 0.12652321 1.6563981
1.5918714 0.19929703 1.6985859
1.6247085 0.17693633 1.6883613
1.6733718 0.17520376 1.666975
1.7076517 0.17268573 1.654736
1.5933317 0.22042017 1.6978656
1.6265037 0.21270943 1.6804965
1.671206 0.21194498 1.661033
1.7036984 0.20809525 1.653959
0.39361471 -0.55655706 1.7364107
0.43010148 -0.55877519 1.737572
0.4752399 -0.56048453 1.7350038
0.52029592 -0.56035054 1.7211953
0.57061416 -0.56093717 1.7214986
0.63087642 -0.56645596 1.719599
0.68281156 -0.56785935 1.7230046
0.7316274 -0.56714934 1.7256746
0.78319955 -0.56659693 1.718608
0.82846719 -0.56891298 1.7339376
0.87741256 -0.56563622 1.7280163
0.924146 -0.56596357 1.7271719
0.96941715 -0.56597263 1.7248445
1.0288211 -0.56633592 1.7315327
1.0735283 -0.56649113 1.7228236
1.1228539 -0.56464273 1.7291253
1.1689783 -0.55886972 1.7282522
1.226903 -0.55899656 1.7296996
1.2816914 -0.55693614 1.7275903
1.3270181 -0.55558032 1.727891
1.3739189 -0.55353212 1.7166759
1.4073282 -0.55113208 1.7046331
1.4881063 -0.55187583 1.7045479
-0.21055752 -0.50622195 1.7274565
-0.17478076 -0.51714599 1.7274708
-0.12527651 -0.52390778 1.7268584
-0.073129036 -0.52994037 1.7240317
-0.033872213 -0.53317833 1.7206436
1.3419204 -0.54951078 1.7402211
1.3807083 -0.54455447 1.7431048
1.4300226 -0.54524261 1.7285526
1.4719034 -0.5410316 1.731316
1.5228621 -0.53631312 1.7273175
1.5736042 -0.52152562 1.727998
1.6227323 -0.51766086 1.7169032
1.6611617 -0.51578915 1.7075891
-0.23378325 -0.47609976 1.7257891
1.5367868 -0.48944083 1.749202
1.5752542 -0.47397485 1.739769
1.6251462 -0.47272211 1.7218287
1.6644686 -0.47523627 1.7060776
-0.24389042 -0.42837751 1.7331232
1.5814548 -0.42785048 1.7455477
1.6234812 -0.42469302 1.7290736
1.6715919 -0.42368516 1.7092131
-0.24843825 -0.37947693 1.7195256
1.5913476 -0.37380323 1.744256
1.6262791 -0.3756384 1.7316042
1.6727862 -0.37546813 1.7120659
-0.25184327 -0.32164165 1.7438223
-0.2496077 -0.34398991 1.7251835
1.5884662 -0.32826385 1.7454004
1.6256462 -0.32520595 1.7314134
1.6726584 -0.32411057 1.7109714
-0.25181705 -0.27931824 1.7484659
1.5894593 -0.27242091 1.744501
1.6226825 -0.27834845 1.7314881
1.6717392 -0.27336314 1.7092222
1.5875252 -0.22317882 1.7442631
1.6271943 -0.2220398 1.7262979
1.668444 -0.22604501 1.7074208
1.5754914 -0.17358135 1.7428689
1.6227256 -0.17463766 1.7245582
1.6617483 -0.17534666 1.7056184
1.5775313 -0.12582098 1.7385594
1.6269095 -0.12467887 1.7180275
1.6583164 -0.13006763 1.7040738
1.5397679 -0.067410327 1.7483325
1.5731291 -0.07294856 1.7361867
1.6250532 -0.073340282 1.7132705
1.6598411 -0.073665656 1.7000207
1.5412499 -0.022070453 1.7443799
1.572798 -0.025945986 1.7297186
1.6236062 -0.026782403 1.7108945
1.5342309 0.021385472 1.7428342
1.5789492 0.021546658 1.7239968
1.6229126 0.019269772 1.7053516
1.5269418 0.075022034 1.7396936
1.5774076 0.073849835 1.7209969
1.6132481 0.072698064 1.7049352
1.4912271 0.14008713 1.7471199
1.5230172 0.12508924 1.7359505
1.5741171 0.12589973 1.7147461
1.6126947 0.1135772 1.7030916
1.4872756 0.18013526 1.746619
1.5219929 0.17687126 1.730908
1.5716515 0.17683698 1.7096654
1.4867631 0.21772872 1.7448567
1.5244337 0.21872914 1.7296408
1.5701451 0.2200944 1.7120386
1.6379173 0.2742869 1.743453
1.6553832 0.27571774 1.7324502
2.0850236 0.25538895 1.7418803
2.1006477 0.2558476 1.7326527
1.6640135 0.30472893 1.7426355
2.0292332 0.30592078 1.7424784
0.18831828 -0.55811751 1.7947638
0.21437879 -0.55672604 1.7882665
0.26821974 -0.5584175 1.7887938
0.33183917 -0.56178969 1.7772578
0.37993827 -0.56277788 1.7790308
0.4243716 -0.56192994 1.7718619
0.47432899 -0.5610739 1.7680594
0.52451879 -0.56711406 1.7782753
0.57735598 -0.565907 1.7692372
0.630687 -0.5720287 1.7759656
0.67677301 -0.57239795 1.77811
0.72177839 -0.57139301 1.7813314
0.77553004 -0.57075763 1.7805564
0.82548958 -0.56615287 1.7724552
0.87622929 -0.56314999 1.7716421
0.9202199 -0.5615105 1.7719189
0.97771323 -0.56180823 1.7806078
1.0229599 -0.5587495 1.7776
1.0750297 -0.5585382 1.7750049
1.1199888 -0.55592251 1.7757107
1.1737366 -0.55601305 1.7775847
1.2214403 -0.55136085 1.7710779
1.2621746 -0.5538004 1.7590317
1.3295615 -0.55073386 1.7537282
-0.20792538 -0.5056504 1.781423
-0.17226474 -0.51771528 1.7751058
-0.12524593 -0.52817708 1.7790133
-0.073664948 -0.53554147 1.7825953
-0.041329503 -0.53744394 1.7717938
0.19378065 -0.54849887 1.7632016
1.1819767 -0.54936916 1.7834909
1.2248173 -0.5450651 1.7885488
1.2783905 -0.54596817 1.7747194
1.3259461 -0.54096192 1.7761456
1.3779792 -0.53573322 1.7788882
1.4237344 -0.52639484 1.7803982
1.4727625 -0.52124101 1.7737887
1.5224428 -0.51228118 1.7563108
-0.22280948 -0.47614941 1.7757807
1.3975755 -0.49245253 1.799734
1.4333603 -0.47681072 1.7921596
1.4778279 -0.47410461 1.7768414
1.5196084 -0.47666731 1.760944
1.5513092 -0.46396154 1.7516943
-0.23485088 -0.42701986 1.7733587
1.447621 -0.42665434 1.7966198
1.4784819 -0.4226324 1.7849967
1.528336 -0.42379245 1.7652946
1.5629727 -0.42328152 1.7534145
-0.24204889 -0.37561744 1.7739874
1.4457716 -0.39977306 1.7993481
1.4750643 -0.37417546 1.7896793
1.5260416 -0.3762885 1.7699447
1.5651652 -0.37268883 1.7554033
-0.25275061 -0.32283369 1.7501367
-0.24449004 -0.32456395 1.7846538
1.4747697 -0.32723379 1.7914997
1.5216769 -0.32758811 1.772801
1.5639322 -0.32164231 1.7563791
-0.25254664 -0.27502212 1.7540137
-0.24609222 -0.2698096 1.7862467
1.4784583 -0.27164885 1.7904273
1.5273525 -0.27415925 1.7709141
1.567255 -0.27738699 1.7551231
-0.25336844 -0.22648187 1.7643369
-0.24790272 -0.22415352 1.7875713
1.4737282 -0.22461428 1.7883747
1.5251397 -0.22598198 1.7699742
1.5628568 -0.22287035 1.7539195
-0.25235209 -0.19508322 1.7596861
-0.24851532 -0.19880135 1.794018
1.4723125 -0.17609787 1.7865075
1.523409 -0.17801043 1.7666969
1.5521824 -0.18389651 1.7555628
1.4429717 -0.12162152 1.7957504
1.4766698 -0.12451625 1.7800575
1.5267428 -0.12515591 1.7602227
1.4342591 -0.069450662 1.7944517
1.4731534 -0.072257191 1.7781242
1.5174662 -0.073844597 1.7592729
1.4290618 -0.024962015 1.7907468
1.4740593 -0.02512338 1.7727029
1.5150788 -0.026548127 1.7561544
1.4256721 0.02191841 1.7877718
1.4788301 0.021211339 1.766317
1.5093908 0.021306898 1.7534959
1.3921831 0.072212771 1.7949066
1.4285511 0.072525285 1.7820718
1.4757273 0.072860919 1.7614059
1.50775 0.057623826 1.7509035
1.3912785 0.1246225 1.7952745
1.4260682 0.12439791 1.7789015
1.4716343 0.1226345 1.7574123
1.3829263 0.17636381 1.7913885
1.4254919 0.17512169 1.77228
1.4638456 0.17316197 1.755906
1.3790394 0.21534573 1.7880646
1.4242779 0.21603362 1.7670158
1.4687343 0.22536618 1.7651442
1.5288972 0.24432909 1.7819428
1.5812076 0.24757157 1.7815294
1.6206374 0.24954799 1.7747848
1.4921232 0.28285664 1.7854267
1.5288821 0.27868092 1.7838541
1.5753419 0.27393577 1.7730223
1.6195754 0.27138609 1.7641473
1.6532989 0.27758962 1.7555792
2.0826387 0.2809366 1.7589723
2.1291103 0.28474978 1.7641377
1.5288121 0.31769446 1.7923187
1.5798849 0.31542087 1.7851776
1.6229728 0.32334101 1.7810988
1.6577532 0.32515836 1.7672013
2.0182066 0.3009688 1.767114
2.0859156 0.30569932 1.7583193
2.1248369 0.30874515 1.7571537
1.6353877 0.35246667 1.7971282
1.6669884 0.36365211 1.7905611
0.18684833 -0.55810422 1.8258485
0.228834 -0.55886114 1.8187749
0.27984518 -0.56569761 1.8376226
0.3264327 -0.56539673 1.8247951
0.3726747 -0.56444597 1.8211689
0.4248046 -0.56923467 1.8357422
0.4762257 -0.56666434 1.8231108
0.52603424 -0.56719059 1.8288099
0.57795 -0.56983805 1.8321972
0.62435704 -0.57029039 1.8208779
0.6781128 -0.56976247 1.8311124
0.72666734 -0.56834406 1.8261853
0.77332324 -0.56544787 1.8292651
0.8232466 -0.56001431 1.8232124
0.87507939 -0.55756944 1.8232621
0.92631489 -0.55706763 1.8244754
0.97412175 -0.5544579 1.8227844
1.0189342 -0.55396813 1.8279012
1.0681779 -0.55363774 1.8231052
1.1237773 -0.55027163 1.8163188
1.1603595 -0.55098379 1.8015761
-0.20234668 -0.50251877 1.8124136
-0.17861509 -0.51438004 1.8285389
-0.12534647 -0.53038931 1.828633
-0.081636071 -0.53810805 1.833272
-0.030098382 -0.54480332 1.8323396
0.91145694 -0.54710692 1.8492
1.0394872 -0.54809982 1.8452868
1.0725833 -0.54464298 1.829118
1.1237528 -0.54413337 1.8311625
1.1763651 -0.54333967 1.8299577
1.2259208 -0.53700101 1.8245071
1.2775468 -0.5293237 1.8265306
1.3248523 -0.51876104 1.8263457
1.3701099 -0.51448387 1.8129282
1.4111309 -0.51118517 1.803349
-0.21131855 -0.47458327 1.8240047
1.2831233 -0.47749838 1.8452866
1.3231142 -0.47347492 1.8301105
1.3776509 -0.4714691 1.8135363
1.4142364 -0.45951554 1.8031828
-0.22092387 -0.42737666 1.8258506
1.2926517 -0.44694722 1.849689
1.3265597 -0.42748106 1.8394307
1.3760277 -0.42665541 1.8222076
1.4235069 -0.42576241 1.8066373
-0.22820301 -0.3754732 1.8242325
1.3336827 -0.37647638 1.8424939
1.3783625 -0.37617975 1.8272734
1.4256293 -0.37669414 1.8095797
-0.23223558 -0.32550946 1.8300462
1.3360509 -0.32277709 1.8438797
1.3749961 -0.32309785 1.8308121
1.422778 -0.32443953 1.8124462
1.4523835 -0.3181757 1.8006493
-0.23560682 -0.27787364 1.8281505
1.3368679 -0.2732082 1.8436527
1.3742664 -0.27487722 1.8282866
1.4277583 -0.27305055 1.8105395
1.4511513 -0.2934075 1.8025643
-0.2505942 -0.22661515 1.8070122
-0.23735426 -0.22192766 1.8281538
1.3318905 -0.22518021 1.8408697
1.3790387 -0.22812314 1.827293
1.425307 -0.22530432 1.8094525
-0.24322771 -0.19285558 1.8208688
1.2926092 -0.17191549 1.8480787
1.3278625 -0.17494732 1.8428793
1.3746334 -0.17561954 1.8260038
1.4219406 -0.17632402 1.807719
1.2949145 -0.13810246 1.8495417
1.3248118 -0.12309279 1.8418779
1.3744514 -0.12217893 1.8226379
1.4178258 -0.12767445 1.8057616
1.28348 -0.063844152 1.8477486
1.3255087 -0.07017225 1.8384033
1.3768615 -0.073174827 1.8189895
1.4127171 -0.075819694 1.804074
1.2857105 -0.023871073 1.8451464
1.3251752 -0.026051003 1.8332192
1.375517 -0.025299225 1.8137288
1.4050832 -0.025346305 1.8028274
1.2849014 0.021992002 1.8414016
1.3266861 0.020820554 1.8274105
1.3742793 0.0209576 1.8120877
1.4039744 0.00043858145 1.8015497
1.2790307 0.071547911 1.8394915
1.3241571 0.071817622 1.8228505
1.364633 0.072094947 1.8081425
1.2449917 0.13410279 1.8457247
1.2772684 0.12223498 1.8348051
1.3250518 0.12378727 1.8194494
1.3636432 0.12006186 1.804733
1.2445036 0.18789519 1.8433564
1.2733082 0.17161274 1.8325132
1.3228137 0.17369303 1.8154488
1.3559718 0.17038429 1.8036168
1.237703 0.22198631 1.8472551
1.2718343 0.21805829 1.8321116
1.32262 0.21906993 1.8172959
1.3527323 0.21521795 1.8028723
1.4303625 0.2419177 1.8221271
1.460548 0.24347101 1.819911
1.4984435 0.26953304 1.8440456
1.5114603 0.26509771 1.8263525
1.4946952 0.32681242 1.8212121
1.5126123 0.33230665 1.809454
1.5719293 0.34305316 1.8025949
1.4870906 0.37340078 1.8213949
1.5234932 0.37066713 1.8169169
1.5744582 0.37444136 1.81938
1.6179153 0.37083229 1.8078643
1.6520009 0.37147558 1.8020833
-0.025182044 -0.55016506 1.869961
0.18647315 -0.56160361 1.8696012
0.22772972 -0.56534505 1.8725296
0.27179092 -0.56651932 1.8790557
0.32408428 -0.56887168 1.8766373
0.37762463 -0.56684917 1.8752875
0.42736399 -0.56892651 1.8825887
0.47301102 -0.5680427 1.8786334
0.5253877 -0.56288165 1.8723599
0.57662815 -0.56454468 1.8678253
0.62525266 -0.56736797 1.8757932
0.67403477 -0.56859517 1.8761226
0.7226451 -0.56573367 1.8746061
0.77735901 -0.56095469 1.8771973
0.82588148 -0.5561887 1.8678436
0.86206853 -0.55321282 1.8742765
0.92281657 -0.55195683 1.8643237
0.96657515 -0.55128747 1.8664652
-0.17154545 -0.51336932 1.8792888
-0.13017648 -0.52709824 1.8735449
-0.075790912 -0.53786528 1.8768606
-0.025334861 -0.54590857 1.8753998
0.8302924 -0.54841149 1.8819273
0.88029432 -0.54902005 1.8677806
0.92392033 -0.54729319 1.8801769
0.97711086 -0.54325128 1.8777807
1.0264211 -0.54135817 1.8749492
1.0778742 -0.53666329 1.881927
1.1218084 -0.52928698 1.8799808
1.1743082 -0.52127725 1.8788677
1.2259847 -0.51775688 1.8672969
1.2709435 -0.50969678 1.8565208
-0.2041198 -0.45533454 1.8663403
-0.19591521 -0.48183087 1.8714346
1.1486181 -0.47460842 1.8978672
1.1753154 -0.4764373 1.8894043
1.2241818 -0.47357079 1.8710018
1.2666603 -0.47060266 1.8556521
-0.20759611 -0.42440444 1.8749882
1.1824712 -0.42582589 1.8934588
1.2254922 -0.42454383 1.8791924
1.2746617 -0.42453584 1.8603486
1.3036309 -0.4107182 1.8513688
-0.21451175 -0.37450898 1.8751496
1.1875273 -0.38029361 1.8979264
1.2237908 -0.37222916 1.8850441
1.2740437 -0.37327558 1.866298
1.3065788 -0.37012976 1.8544881
-0.21962458 -0.32420659 1.876238
1.1955327 -0.32456195 1.8970499
1.2267009 -0.32505798 1.8856146
1.2771091 -0.32196012 1.8687598
1.3125167 -0.32267725 1.8548901
-0.22124358 -0.2726633 1.8788533
1.1942781 -0.27405894 1.8974186
1.2248108 -0.27788404 1.8858542
1.2739571 -0.27587503 1.8697544
1.3148812 -0.27451795 1.8561
1.3581274 -0.27278867 1.865761
-0.22383438 -0.2321776 1.878543
1.1910601 -0.22200729 1.8973651
1.2265897 -0.2259714 1.8857982
1.2768916 -0.22665635 1.8678548
1.3076996 -0.23143749 1.8547709
-0.22733729 -0.19354707 1.8723992
1.1865774 -0.17104311 1.8958889
1.2247198 -0.17536068 1.8833401
1.271154 -0.17386846 1.8653711
1.30015 -0.19529463 1.8530883
1.1875843 -0.1222976 1.8949951
1.2248318 -0.12243004 1.8798687
1.2709718 -0.1212412 1.8599294
1.1807141 -0.069322653 1.8929926
1.2247235 -0.069754906 1.8769661
1.2677121 -0.076418832 1.861086
1.1494696 -0.014954013 1.89974
1.1767603 -0.025134034 1.8909687
1.2255909 -0.025173793 1.8734682
1.2637162 -0.02459239 1.8554578
1.1486183 0.0205523 1.898226
1.1752293 0.020587048 1.8884929
1.2232157 0.020657647 1.8698192
1.2602597 0.018447049 1.8549118
1.1406008 0.074170314 1.8966806
1.175797 0.072629414 1.8835796
1.22453 0.070163444 1.8672912
1.2536852 0.07153663 1.8532101
1.1300933 0.12258926 1.8947624
1.1769593 0.12177037 1.877726
1.2239039 0.12041227 1.8610581
1.2541804 0.10717869 1.8526163
1.0931201 0.18481077 1.8980532
1.1248235 0.17231125 1.8916304
1.1763217 0.17231031 1.8736683
1.2233654 0.17109603 1.8571273
1.0877444 0.21970573 1.8975176
1.1227634 0.21724983 1.8883924
1.1757562 0.21774855 1.8691269
1.2170675 0.21625777 1.8548666
1.3687594 0.24210888 1.8626345
1.3159373 0.25053293 1.8701584
1.4864575 0.26698935 1.8638386
1.5270962 0.29451483 1.855772
-0.016530083 -0.55246633 1.9323152
0.016610624 -0.5585677 1.9325953
0.06802848 -0.5625996 1.9115355
0.13498521 -0.56800807 1.9275537
0.18394791 -0.56679839 1.9264439
0.22731063 -0.56536084 1.9203963
0.26954725 -0.57030314 1.9327904
0.32633317 -0.56940484 1.9307817
0.37661046 -0.56392115 1.9231672
0.42342845 -0.56201833 1.9263325
0.47352827 -0.5629859 1.9286749
0.5200507 -0.56325734 1.923924
0.57449162 -0.56479013 1.9191738
0.62437534 -0.5629856 1.934108
0.67626256 -0.56155854 1.9262446
0.72197318 -0.55705243 1.9202398
0.77018768 -0.55465364 1.9092772
0.8148585 -0.55458128 1.9108211
-0.16800499 -0.50956273 1.9177895
-0.1225581 -0.52786118 1.9149812
-0.069755755 -0.53831428 1.9247566
-0.038529802 -0.54382282 1.9273686
0.71858144 -0.5468235 1.9484744
0.7806828 -0.54568851 1.9338669
0.82794064 -0.54466176 1.9244435
0.87611592 -0.54197425 1.924877
0.92445213 -0.53643525 1.9238313
0.97470194 -0.52903742 1.9250193
1.0239694 -0.52008212 1.9287165
1.0728792 -0.51837122 1.9190965
1.1210507 -0.511006 1.9108613
-0.18370144 -0.47571698 1.9149113
0.99519736 -0.47893962 1.9478182
1.0255179 -0.47120008 1.9384795
1.0735501 -0.47341111 1.9245433
1.1239377 -0.47360256 1.9089788
-0.20174913 -0.41742611 1.9084255
-0.18983789 -0.42779991 1.9246826
1.0327555 -0.42363214 1.9445425
1.0736129 -0.42195493 1.9335442
1.1275868 -0.42286712 1.9156705
1.1624852 -0.4187806 1.9026508
-0.2039247 -0.37079662 1.9132488
-0.1954322 -0.37676236 1.944809
1.0396684 -0.37454131 1.9473859
1.0735432 -0.37603629 1.937995
1.1260806 -0.37342712 1.9197021
1.1686695 -0.36749747 1.9051952
-0.20633166 -0.32464951 1.9196495
-0.19527145 -0.33880785 1.9477752
1.0428568 -0.329822 1.946249
1.0761251 -0.32713836 1.9373697
1.1240249 -0.32788146 1.9223071
1.170161 -0.32434872 1.9073012
-0.20657921 -0.27860558 1.9267199
1.0458791 -0.27594429 1.9476687
1.0771387 -0.27607486 1.9362962
1.1257865 -0.27668485 1.9211957
1.1682664 -0.27828655 1.9066365
-0.20949818 -0.22233765 1.9211456
1.037693 -0.22175664 1.9475462
1.0750767 -0.22447655 1.9374019
1.1263918 -0.2235214 1.9201198
1.1683612 -0.22850916 1.9059843
-0.20979039 -0.19369252 1.9201202
1.0351585 -0.17273003 1.9476192
1.0721334 -0.17293687 1.9358994
1.1258024 -0.17333442 1.9190805
1.1632254 -0.17356792 1.9059149
1.0310048 -0.11850729 1.9446759
1.0725472 -0.1231195 1.9332691
1.1224787 -0.12192351 1.9162886
1.1600753 -0.12210834 1.9036782
1.0296435 -0.070156962 1.942879
1.076831 -0.069930092 1.9284291
1.1247107 -0.071878217 1.913664
1.1558093 -0.075357184 1.9030243
0.98258257 -0.01323026 1.9486589
1.0255804 -0.024498425 1.9412087
1.0751871 -0.025066018 1.9244105
1.1232147 -0.025100442 1.9093835
1.150414 -0.035281856 1.9011173
0.98999733 0.026096631 1.9474335
1.022164 0.019536121 1.9379134
1.074041 0.020444002 1.9223415
1.1223224 0.020520592 1.9078659
0.98431206 0.072225191 1.9431657
1.0269467 0.072066791 1.9312612
1.0742149 0.069563247 1.917906
1.1159302 0.069027901 1.9054824
0.94527638 0.13557649 1.9493439
0.97639692 0.12067142 1.9413713
1.0288092 0.12095305 1.9266945
1.0758307 0.12117328 1.9116503
1.1042994 0.11798841 1.9032491
0.93929285 0.17675219 1.9466127
0.97516543 0.17065316 1.9361873
1.0268251 0.17092656 1.9201651
1.0730764 0.16970243 1.9076669
1.101598 0.15149854 1.9004693
0.93196702 0.21656452 1.9443423
0.97413951 0.21555416 1.9308758
1.0268123 0.21611924 1.9167802
1.0691141 0.21780176 1.9081002
1.1854995 0.24824262 1.9142864
1.4979007 0.27533126 1.9056489
1.0416071 0.4804453 1.9476585
1.0510837 0.49854785 1.9481373
1.0390505 0.5257619 1.9485664
1.0526829 0.52531397 1.9459367
1.0449682 0.56836498 1.9463316
1.056355 0.56366354 1.945034
-0.012048787 -0.55180824 1.9799006
0.021857534 -0.55996591 1.9726374
0.13899219 -0.57529819 1.9872966
0.17436619 -0.57066953 1.9813164
0.22761755 -0.56574762 1.9799697
0.27586648 -0.56609219 1.9654386
0.32177237 -0.56343001 1.9711931
0.37115905 -0.56044722 1.9713167
0.43444464 -0.55880791 1.9894167
0.4756276 -0.55801141 1.9780465
0.52429724 -0.5585345 1.9780735
0.57458103 -0.55619293 1.9742546
0.62464356 -0.55434537 1.9775867
0.66802996 -0.55374777 1.9636173
0.74311888 -0.55025893 1.9554324
0.75398058 -0.55087996 1.954928
-0.15572587 -0.51308298 1.9751041
-0.12572138 -0.52598268 1.9718473
-0.078062586 -0.53973138 1.9781009
-0.031149557 -0.54716396 1.9630957
0.64408696 -0.54615432 1.9843993
0.67813218 -0.54474598 1.9824456
0.72460705 -0.54271293 1.9721786
0.77612525 -0.53704798 1.9782078
0.82493508 -0.53080058 1.9772346
0.87498581 -0.52101314 1.9777784
0.92497057 -0.51504582 1.9749888
0.97212476 -0.51030099 1.9612173
1.0040358 -0.50562149 1.9526331
-0.16827019 -0.47540998 1.9650584
0.84035355 -0.47853133 1.9977293
0.87783647 -0.47126445 1.9898865
0.92688084 -0.47180164 1.975997
0.97412431 -0.47153014 1.958609
1.0082622 -0.49483544 1.9507821
-0.17718112 -0.42553243 1.9762608
0.88573581 -0.42451119 1.9948175
0.92669392 -0.42182171 1.9825889
0.97758573 -0.42178294 1.9647065
1.0134847 -0.41721526 1.953012
-0.18381351 -0.37418813 1.9691771
0.89188701 -0.37434718 1.9981769
0.92660439 -0.37556458 1.986721
0.97803843 -0.37540284 1.9679739
1.0178448 -0.37302458 1.9552082
-0.18703042 -0.32242516 1.9790447
0.89168406 -0.33088788 1.9986725
0.92386764 -0.32738581 1.9879997
0.97510368 -0.32738224 1.970459
1.0176623 -0.32618484 1.9557093
-0.20413764 -0.25342065 1.9503367
-0.19118129 -0.27748492 1.9747959
0.89099151 -0.27554831 1.9985859
0.92139053 -0.2754645 1.9881456
0.97271734 -0.27552295 1.9712197
1.0190904 -0.27562031 1.9551661
-0.19099116 -0.22970754 1.9766469
0.89294392 -0.22158203 1.9960238
0.92522967 -0.2234133 1.9855564
0.97326916 -0.22434141 1.9698485
1.0134053 -0.22668505 1.9557557
-0.19165829 -0.19877082 1.9720488
0.88444656 -0.17115346 1.9951563
0.92628342 -0.17238864 1.9815021
0.97763014 -0.17247896 1.9652067
1.0139681 -0.17259386 1.9537494
0.87550551 -0.11996007 1.9943436
0.9235605 -0.12128951 1.9782853
0.97541344 -0.12141733 1.9634051
1.0083575 -0.12489917 1.9532815
0.8443411 -0.050260607 1.9963617
0.87184095 -0.071384184 1.9913532
0.92154169 -0.070531204 1.9756691
0.97326356 -0.07059788 1.960833
1.0069201 -0.072703853 1.951575
0.84068424 -0.023030227 1.9960468
0.87893879 -0.025033554 1.9843792
0.92608976 -0.024136482 1.9700391
0.97002614 -0.028196409 1.9580414
1.0033085 -0.03012342 1.9500479
-0.13129027 0.019130891 1.9992954
0.83213907 0.022885894 1.99375
0.87727904 0.020257842 1.9806244
0.92808974 0.020289473 1.9655159
0.96873581 0.018886697 1.9542205
0.79498249 0.090409845 1.9981613
0.82820779 0.071748801 1.990326
0.87598819 0.070423871 1.9768618
0.92677248 0.07048931 1.9618731
0.96068639 0.066255622 1.9525365
-0.12665498 0.11477381 1.9995589
0.79062545 0.12416198 1.9963716
0.82441592 0.12041327 1.9868867
0.87465179 0.12044615 1.9720954
0.92388719 0.1192579 1.9583213
0.78712296 0.17309873 1.9954859
0.82373673 0.17039412 1.9826632
0.87369043 0.17038935 1.967297
0.91720408 0.16754666 1.9546888
-0.126937 0.20128345 1.9995215
0.78315705 0.22157319 1.9957552
0.82473773 0.22076389 1.981582
0.87415761 0.21998115 1.9670192
0.91369975 0.22463013 1.963982
0.97251499 0.24522734 1.9732382
1.0216151 0.24600893 1.9625099
1.0630194 0.24732281 1.9588957
1.0388228 0.27049422 1.9790001
1.0617832 0.279093 1.9816678
1.1342261 0.2594735 1.984925
1.1743392 0.26564759 1.9780633
1.2088124 0.27744511 1.9792722
1.0407891 0.30129796 1.9821929
1.0601537 0.30238181 1.9832028
1.0393587 0.38146913 1.9740442
1.0670741 0.37526238 1.9857649
1.0358888 0.42698109 1.9652107
1.0763625 0.42548355 1.9790522
1.0293013 0.47375804 1.965565
1.0811006 0.47678056 1.977336
1.1131121 0.4647387 1.9994202
1.1739799 0.48608577 1.9976118
1.0251828 0.52548772 1.9699836
1.0765518 0.52674258 1.9673452
1.1016253 0.50173843 1.9955875
1.0294623 0.57345986 1.9683241
1.0880624 0.56426346 1.9817759
-0.022204366 -0.55541551 2.03018
0.0057643149 -0.55757356 2.0131023
0.071601897 -0.57202595 2.014358
0.12757498 -0.58016098 2.0412204
0.17721914 -0.5724045 2.0273032
0.22605501 -0.5651508 2.0301886
0.2768636 -0.56302702 2.0243106
0.3243506 -0.55996144 2.0248804
0.37192973 -0.55823791 2.0289543
0.42338759 -0.55989909 2.0284178
0.47549176 -0.55690956 2.0309899
0.52448893 -0.55194587 2.0104597
0.57772964 -0.55140573 2.0120347
-0.12744664 -0.52206337 2.0291021
-0.07759279 -0.53647572 2.0139811
-0.046882689 -0.54814655 2.0224547
0.52526098 -0.54798275 2.0357628
0.5800072 -0.54390484 2.0275388
0.62519783 -0.5402534 2.0202277
0.67411029 -0.5327757 2.0267863
0.72503269 -0.52290988 2.0286205
0.77395487 -0.5176596 2.0211697
0.82631063 -0.51032233 2.0114653
0.85985142 -0.50588238 2.0029604
-0.15636574 -0.47161284 2.0095851
-0.14449869 -0.48192683 2.0341747
0.73234898 -0.47487709 2.0432558
0.77574641 -0.4740496 2.0281286
0.82357502 -0.47230139 2.0111501
0.86165208 -0.48091161 2.0022099
-0.16166477 -0.42560604 2.0246575
0.74253094 -0.42729989 2.0460248
0.77486116 -0.42202178 2.0337362
0.82536173 -0.42150059 2.0170197
0.86381757 -0.41809624 2.0044446
-0.16981311 -0.37592652 2.0254116
0.74488634 -0.39161232 2.0485771
0.77447534 -0.37550646 2.0390341
0.82429314 -0.37473357 2.020802
0.86664051 -0.37609348 2.0059838
-0.16884997 -0.32309398 2.0315654
0.74169326 -0.32322061 2.047781
0.77252924 -0.32837227 2.0393884
0.82261568 -0.32786345 2.0222716
0.86710578 -0.326453 2.0071354
-0.17372561 -0.27694547 2.0261207
0.74287754 -0.27200466 2.047251
0.77410531 -0.27615148 2.0368917
0.82449669 -0.27587673 2.0209994
0.86707777 -0.27723095 2.0055869
-0.17708263 -0.22321656 2.0218086
0.74052286 -0.22203468 2.0458975
0.77760208 -0.22422843 2.0326807
0.8272925 -0.22385983 2.0154667
0.86794907 -0.22382344 2.0033026
-0.17532507 -0.17679815 2.0273352
-0.13272534 -0.16409557 2.0166388
0.73586369 -0.1730302 2.0438664
0.77518648 -0.17270237 2.0297592
0.82521749 -0.17251778 2.0138693
0.85992378 -0.17470819 2.0028675
-0.16709626 -0.12594318 2.024087
-0.1325729 -0.12532951 2.0158038
0.72899675 -0.12180992 2.0426176
0.77300227 -0.12153403 2.0265427
0.82260942 -0.12136137 2.0100174
0.85721374 -0.1315973 2.0017927
-0.16663025 -0.07728491 2.0199819
-0.1316032 -0.075569287 2.0131471
0.72259909 -0.070887938 2.0417266
0.77238089 -0.069909416 2.0231867
0.82063437 -0.072322719 2.0068018
-0.16536619 -0.028072126 2.0217249
-0.13214611 -0.02880137 2.0118377
0.6921398 -0.010037851 2.0496001
0.72131103 -0.025205577 2.038806
0.77353799 -0.024452304 2.0188897
0.81558681 -0.028283097 2.0052214
-0.16316395 0.023007004 2.0233214
-0.13208592 0.024321806 2.0107901
0.69176352 0.020368304 2.0483785
0.72492772 0.020312613 2.0335307
0.77834588 0.020270608 2.0137899
0.81114215 0.011870992 2.0027447
-0.16669862 0.077367008 2.0207293
-0.13170035 0.078439832 2.0143192
0.68920857 0.075574994 2.0457845
0.72555983 0.069632143 2.0290313
0.77586216 0.069659613 2.0089676
0.80672258 0.060447514 2.0004148
-0.16740319 0.12622888 2.0276475
-0.13268985 0.12708332 2.017055
0.68728846 0.12465057 2.0426433
0.72645557 0.12018099 2.0235536
0.76795578 0.11883105 2.0063922
-0.1677237 0.17508011 2.029134
-0.13200177 0.17232029 2.0149953
0.68297297 0.173434 2.0407858
0.72777253 0.17135134 2.0211651
0.76417404 0.16851927 2.0052674
-0.16811541 0.2228369 2.0374181
-0.12745599 0.22618708 2.0060012
0.67881316 0.22283903 2.0404549
0.72626758 0.22189584 2.0196848
0.75935787 0.22261673 2.0070996
-0.16426641 0.26000252 2.041048
-0.12733747 0.27277467 2.0072341
1.0400345 0.2806288 2.021992
1.0818602 0.28781459 2.0301521
1.1319247 0.27952126 2.0251756
1.16916 0.28922078 2.0061998
-0.12900625 0.32228628 2.0133643
1.0473784 0.30625564 2.018857
1.0744228 0.33211857 2.0212121
1.125242 0.31897876 2.0365424
1.1756811 0.32654524 2.0286164
1.2202846 0.32375509 2.0245547
-0.12935205 0.37115011 2.021831
1.0448501 0.38838387 2.0284338
1.0697972 0.36509642 2.0342345
1.1267576 0.38118148 2.0256193
1.1746789 0.37802866 2.0242178
1.2192346 0.37216249 2.0205417
-0.13045076 0.42359424 2.0327191
1.0373544 0.42125162 2.0243955
1.1289601 0.42632169 2.0126309
1.174986 0.42707589 2.0095637
1.2083216 0.42756322 2.0082476
-0.12945877 0.47019908 2.0364544
1.0305824 0.47291753 2.0246351
1.136387 0.47548378 2.0117605
1.1714185 0.48228288 2.0080876
-0.12976781 0.52784181 2.0397632
1.0268301 0.522946 2.0206971
1.1255692 0.51129448 2.0141041
1.1720456 0.51154107 2.0134912
-0.12761427 0.56076097 2.0458064
1.0241916 0.57436675 2.0161045
-0.022507794 -0.55110741 2.0528636
0.021463994 -0.56549197 2.067198
0.076867171 -0.57506967 2.0688581
0.12080908 -0.57595128 2.0706203
0.18046464 -0.57127112 2.0831428
0.22587496 -0.5631187 2.0808108
0.27770126 -0.55803514 2.0753686
0.32260785 -0.55595762 2.0766418
0.37801743 -0.55457008 2.0694866
