ply
format ascii 1.0
comment PCL generated
element vertex 1464
property float x
property float y
property float z
element camera 0
property float view_px
property float view_py
property float view_pz
property float x_axisx
property float x_axisy
property float x_axisz
property float y_axisx
property float y_axisy
property float y_axisz
property float z_axisx
property float z_axisy
property float z_axisz
property float focal
property float scalex
property float scaley
property float centerx
property float centery
property int viewportx
property int viewporty
property float k1
property float k2
end_header
1.8049122 -0.4302505 1.6548309
1.6879565 -0.35573524 1.6985655
1.7262834 -0.37329584 1.6873238
1.7760781 -0.37664586 1.6648487
1.8093593 -0.37849259 1.6530659
1.6984839 -0.30707181 1.6970868
1.7249045 -0.32664955 1.6863666
1.7707902 -0.32514915 1.6646271
1.807586 -0.3222371 1.6532676
1.6944857 -0.2740452 1.6978285
1.7242094 -0.27378809 1.6838226
1.7772499 -0.2765927 1.662706
1.8107314 -0.25111154 1.6502789
1.6916893 -0.22017486 1.695884
1.7264019 -0.22772373 1.6814122
1.7728698 -0.22576368 1.6602232
1.6897941 -0.17601547 1.6940693
1.7272874 -0.1748272 1.6778861
1.7652303 -0.17226316 1.6587261
1.6783537 -0.12560894 1.6931915
1.7237595 -0.1274883 1.6763904
1.7651047 -0.1240238 1.6583712
1.6739104 -0.072417311 1.691866
1.7234266 -0.075361632 1.6718328
1.7642603 -0.079329111 1.656354
1.6772568 -0.025502367 1.6869022
1.724615 -0.025960451 1.6658382
1.7578499 -0.029309094 1.6534199
1.6399044 0.030208398 1.6962793
1.6723316 0.020791389 1.6823353
1.7209958 0.022110304 1.6622857
1.7515398 0.011549238 1.6516565
1.6336408 0.078755282 1.6939062
1.6739157 0.073011599 1.6789007
1.717453 0.073830329 1.6589134
1.6329113 0.12830102 1.6912307
1.6751755 0.12774734 1.6725864
1.7096581 0.12607235 1.6582041
1.5931756 0.1994603 1.6999775
1.6257193 0.17565413 1.6890919
1.6748857 0.17537154 1.6684757
1.7091796 0.1694497 1.654609
1.5921413 0.2202424 1.6965986
1.6258461 0.21156417 1.6811936
1.67311 0.21217978 1.6629045
1.7036223 0.20808449 1.6538854
0.3238067 -0.55618066 1.7450492
0.38058028 -0.55662715 1.7385954
0.44517487 -0.56125283 1.7430439
0.48059374 -0.56159186 1.7376008
0.52484971 -0.56203163 1.7300647
0.57091439 -0.5597949 1.7124341
0.61772752 -0.56258166 1.7101536
0.67839968 -0.56768817 1.7200373
0.71849394 -0.5666405 1.7206396
0.76995945 -0.56542361 1.7075392
0.83012909 -0.56692833 1.7262578
0.87916499 -0.56739604 1.7277187
0.92856908 -0.56496233 1.733809
0.97070807 -0.5635407 1.7265424
1.0189564 -0.56400818 1.7234964
1.0736246 -0.56554168 1.7279981
1.1215348 -0.56560355 1.7271167
1.1696134 -0.5623216 1.7236981
1.2278817 -0.55790156 1.726891
1.2726046 -0.55623484 1.7232447
1.317436 -0.55502731 1.7174822
1.3620027 -0.55144221 1.7364999
1.4299647 -0.55393118 1.7024119
1.4827625 -0.5518344 1.7083009
-0.21107244 -0.50553018 1.7199174
-0.17678836 -0.51701051 1.7308873
-0.12424143 -0.52486163 1.7275521
-0.077020019 -0.53063244 1.7408924
-0.023359338 -0.53672969 1.7322271
1.3351187 -0.54673362 1.7314389
1.3783212 -0.54668993 1.7289699
1.4246199 -0.54396039 1.7336816
1.4721378 -0.54143888 1.7253778
1.5230341 -0.53604501 1.725884
1.5728889 -0.5228833 1.7296659
1.6197269 -0.52092379 1.7145253
1.6672283 -0.51234287 1.7045194
-0.23289487 -0.47715738 1.7283779
1.5431209 -0.48442104 1.7475691
1.5746382 -0.4747712 1.7391171
1.6259611 -0.47384638 1.7208172
1.6697496 -0.4708606 1.7058553
-0.24530745 -0.42492318 1.7262781
1.5834744 -0.42803895 1.7452676
1.6230134 -0.42457443 1.7285762
1.6745576 -0.42358893 1.7079077
-0.25053421 -0.35790509 1.7298844
-0.24849662 -0.38179612 1.7242854
1.5894444 -0.37563932 1.7445439
1.6251633 -0.37538898 1.730418
1.6708647 -0.3763994 1.7118021
-0.25166965 -0.32481679 1.7421907
-0.24947385 -0.32703409 1.7264128
1.5853842 -0.32445374 1.7459
1.6265022 -0.32623851 1.7301298
1.6740875 -0.32276475 1.7101421
1.5880413 -0.271593 1.7443564
1.624833 -0.27914155 1.729961
1.6680933 -0.27328223 1.7112888
1.5866151 -0.22401166 1.743156
1.6259165 -0.22187313 1.7249507
1.6665032 -0.22614594 1.7081513
1.576828 -0.17218094 1.7426579
1.6213256 -0.17448738 1.7230747
1.6618669 -0.1753675 1.7057356
1.5767499 -0.1247144 1.7393426
1.6260046 -0.12593783 1.7174653
1.6574003 -0.1403046 1.7039016
1.5399815 -0.067418009 1.748575
1.5718178 -0.072886743 1.7347517
1.624861 -0.073339514 1.7130613
1.5419356 -0.023308782 1.7432708
1.5736597 -0.026827497 1.7310901
1.6217579 -0.025721595 1.710919
1.6590685 -0.031161228 1.7003006
1.5333421 0.021375416 1.7418267
1.5788574 0.021544823 1.7238858
1.6206838 0.019785753 1.7071557
1.5271583 0.075033143 1.7399409
1.5768914 0.0738222 1.7204387
1.6113447 0.070657402 1.7053281
1.4909813 0.1348868 1.74716
1.5227677 0.12507573 1.7356853
1.5746558 0.12595302 1.715318
1.6080453 0.1213145 1.7026151
1.4851418 0.17838435 1.7455997
1.521742 0.17683911 1.7306296
1.5724394 0.17692149 1.7105225
1.4856113 0.21756846 1.7435004
1.5248049 0.21878101 1.7300683
1.570181 0.22009473 1.7120676
1.6375704 0.27242881 1.7474188
1.6601717 0.27923101 1.7371161
2.0338345 0.29380882 1.7372217
2.0709412 0.26570514 1.7285017
2.116574 0.27000821 1.7442352
1.6623333 0.30442125 1.7408758
2.0229037 0.31096214 1.7361795
2.0543392 0.30107167 1.7317019
2.1098828 0.30570254 1.7336541
0.21918051 -0.55770934 1.7910693
0.28016821 -0.55878729 1.7887717
0.38801745 -0.56297666 1.7733866
0.42244053 -0.56069469 1.7635138
0.47137806 -0.56070179 1.7621889
0.52657861 -0.56449145 1.7691089
0.57453752 -0.5676071 1.7690946
0.62582392 -0.57098025 1.7763757
0.67362463 -0.57339823 1.7846951
0.72711051 -0.57248962 1.7840928
0.78060508 -0.56972557 1.7763397
0.82311231 -0.56462491 1.7665104
0.87739587 -0.56316042 1.7798203
0.9165411 -0.56178612 1.772597
0.97064257 -0.56102437 1.7755283
1.0197251 -0.56079918 1.7738349
1.0681392 -0.55991405 1.7723336
1.1237292 -0.55642563 1.7783443
1.1747317 -0.55419457 1.7728046
1.217273 -0.55422902 1.7744833
1.2604471 -0.55305332 1.756673
-0.21022911 -0.50342131 1.7760996
-0.17657024 -0.51636672 1.777943
-0.1274794 -0.52835053 1.775017
-0.071158402 -0.53354877 1.7723714
-0.022658681 -0.53820866 1.7755783
1.1385407 -0.54773313 1.7984054
1.1525663 -0.54966331 1.7997795
1.2341155 -0.54806489 1.7811648
1.2728744 -0.54451668 1.7774335
1.3210013 -0.5423246 1.7702073
1.3714873 -0.53642571 1.7785221
1.4252603 -0.52483404 1.7831154
1.4723715 -0.521321 1.7702578
1.523747 -0.51666802 1.7591691
1.5579516 -0.50347412 1.7503722
-0.2221368 -0.47722104 1.7777489
1.4321132 -0.47513261 1.7918711
1.4789284 -0.47481111 1.7762451
1.5209665 -0.47737578 1.759469
1.5513674 -0.45864004 1.7529625
-0.23543383 -0.42542875 1.7705007
1.4449069 -0.42963439 1.7966484
1.4789542 -0.42276892 1.7855715
1.5270659 -0.42304489 1.765731
1.5619588 -0.42827269 1.7537767
-0.24095467 -0.37586227 1.7751625
1.4431585 -0.38854337 1.7979714
1.4745724 -0.37405121 1.7890809
1.5250845 -0.37605312 1.7688353
1.5645988 -0.37032175 1.7563199
-0.24479 -0.32641193 1.7802031
1.4755728 -0.32723978 1.7902725
1.5215853 -0.32756907 1.7726845
1.5603471 -0.32370251 1.7580409
-0.25240064 -0.27573082 1.7529176
-0.24577668 -0.27756533 1.7854869
1.4458584 -0.26620573 1.7992699
1.4775993 -0.27149034 1.7893838
1.5252833 -0.27340373 1.7703751
1.5636178 -0.27955931 1.7559868
-0.25311074 -0.22542666 1.762619
-0.24714088 -0.22705521 1.7909104
1.4433434 -0.23442094 1.7997108
1.4743637 -0.2247104 1.7891507
1.5245728 -0.22590041 1.7693212
1.5619198 -0.22140928 1.753021
-0.25288793 -0.19549745 1.7634226
-0.24747266 -0.19366372 1.7867947
1.4498197 -0.15569337 1.7947949
1.4723997 -0.17709422 1.7870853
1.5241143 -0.17747201 1.7651721
1.5577768 -0.19292712 1.7544931
1.441785 -0.1218802 1.7956338
1.4773681 -0.12456793 1.780887
1.5278827 -0.12525046 1.7615526
1.4368359 -0.072025612 1.7926893
1.4740714 -0.072305158 1.7792304
1.5175133 -0.073844433 1.7593305
1.431518 -0.022801286 1.7919601
1.4737989 -0.025123714 1.7724123
1.5160098 -0.027610626 1.7572323
1.4284307 0.022481192 1.7875226
1.4792211 0.021221813 1.7667894
1.5086575 0.021294665 1.7526442
1.3941413 0.076102868 1.7948471
1.4281458 0.072506279 1.7815669
1.4758626 0.072868392 1.7615677
1.5076984 0.057623927 1.7508433
1.3855888 0.12335941 1.7938647
1.4260879 0.12379247 1.7766289
1.4723524 0.12325842 1.7582363
1.3805717 0.17608659 1.7902704
1.425194 0.17507419 1.7719034
1.4623564 0.17383131 1.7562867
1.3786248 0.21528405 1.7875234
1.4226543 0.21768641 1.7686069
1.46123 0.22028664 1.7574838
1.5250136 0.2445443 1.7873056
1.5831423 0.24787574 1.7837242
1.625946 0.24953899 1.7703747
1.4938277 0.28891692 1.7880468
1.5230358 0.28363287 1.7791394
1.5722421 0.27488491 1.7736007
1.6182002 0.27314848 1.7624199
1.6710868 0.27956474 1.7641432
1.9977059 0.29966536 1.771281
2.0111363 0.2999129 1.7609346
2.1270981 0.28705493 1.7644125
1.4975351 0.30798811 1.7967103
1.5266422 0.31495401 1.7901202
1.5794175 0.31533453 1.7846334
1.6267787 0.32221949 1.7817826
1.6659673 0.32897633 1.7747259
2.0427191 0.30284989 1.7661687
2.1047854 0.30670375 1.7517356
1.6358387 0.35256341 1.7976198
1.6686004 0.36399645 1.792292
0.023198439 -0.55364579 1.8279673
0.17756882 -0.55721974 1.8235434
0.2344972 -0.56019169 1.8185825
0.28515866 -0.55978578 1.8227705
0.32772121 -0.56545585 1.8185856
0.36983269 -0.56620151 1.8209938
0.42929927 -0.56917959 1.8348247
0.48111054 -0.56731683 1.825246
0.52677506 -0.5668487 1.8218004
0.57426608 -0.56925964 1.8257438
0.62100857 -0.56971878 1.8192867
0.67435592 -0.57018989 1.8205003
0.72621 -0.56980228 1.826121
0.77772778 -0.56520796 1.822453
0.82147771 -0.56074774 1.8265749
0.87217557 -0.55771315 1.8212161
0.92652553 -0.55763739 1.8221242
0.97404373 -0.55544251 1.825798
1.0243311 -0.55413157 1.8152158
1.0703148 -0.55205709 1.8233902
1.1145725 -0.55068415 1.822564
1.1711073 -0.5510112 1.8195612
-0.20298707 -0.50412655 1.8181463
-0.17689508 -0.51469433 1.8259795
-0.12465815 -0.52921617 1.8217614
-0.073890366 -0.53712666 1.82479
-0.03181158 -0.54352415 1.8279781
0.011280348 -0.54862154 1.8324504
0.99319124 -0.54903024 1.8254879
1.0331626 -0.54968029 1.8329836
1.0846148 -0.54820812 1.8259208
1.1239433 -0.54210371 1.8325225
1.1780015 -0.54325891 1.8314577
1.2257065 -0.53793561 1.8231218
1.2777439 -0.52836454 1.8277842
1.3242981 -0.51870584 1.8285074
1.3729243 -0.5140186 1.8134381
1.4086231 -0.50915593 1.8039451
-0.21016909 -0.47435158 1.8261874
-0.19694346 -0.48898295 1.8499001
1.2828021 -0.47633716 1.8456445
1.3250941 -0.47457036 1.830273
1.3780098 -0.47254461 1.811654
1.4079566 -0.46969438 1.8030115
-0.22095804 -0.42797947 1.8255026
1.3248402 -0.42769346 1.841354
1.3733547 -0.42836282 1.8233838
1.4201716 -0.42555296 1.8074516
-0.22882825 -0.37361285 1.8227477
1.335664 -0.37617055 1.8430749
1.3777473 -0.3760078 1.8264534
1.4225601 -0.37565041 1.8095636
-0.23360601 -0.32356068 1.8243612
1.336701 -0.32466349 1.8445301
1.3749352 -0.3230868 1.8307329
1.4229081 -0.32447034 1.8126217
1.4527991 -0.32001287 1.8009193
-0.23634149 -0.2744979 1.8241372
1.3383825 -0.28004333 1.845486
1.3722357 -0.27435634 1.8304007
1.4204459 -0.27425224 1.8119708
1.4502453 -0.29322433 1.8014389
-0.23865943 -0.22677204 1.8239231
1.2984076 -0.20531598 1.8497415
1.3323874 -0.22526383 1.8415388
1.3784983 -0.22803077 1.8265854
1.4219725 -0.22394085 1.8095688
-0.24003017 -0.19552833 1.8187941
1.2867939 -0.17171216 1.847826
1.3278172 -0.17494851 1.8428085
1.3746141 -0.17562112 1.8259783
1.4230421 -0.1764566 1.8091307
1.2869928 -0.12761061 1.8488081
1.3249404 -0.12311127 1.8420637
1.3748416 -0.12266074 1.8231349
1.4165565 -0.12716693 1.8064653
1.2856489 -0.070057318 1.8481047
1.3227895 -0.070505187 1.8387756
1.3743178 -0.072596408 1.8193979
1.4139621 -0.071931355 1.803311
1.286967 -0.024689244 1.8437294
1.3281223 -0.025540376 1.8323475
1.3757329 -0.025305526 1.8140248
1.4081563 -0.028455013 1.8027649
1.2805173 0.021762302 1.8410641
1.3271654 0.020831108 1.8280742
1.374223 0.020953199 1.812
1.4037434 0.010736658 1.8011999
1.280164 0.072639942 1.8395001
1.3239299 0.07180126 1.8225386
1.3682399 0.070348606 1.8083012
1.2744451 0.12360273 1.8372242
1.3234655 0.12278476 1.8197019
1.3580109 0.12316301 1.8069894
1.2429144 0.17422004 1.8463939
1.272948 0.17245434 1.8319317
1.3250645 0.17507814 1.8138868
1.3574728 0.16210011 1.8057823
1.2382587 0.22197559 1.8441736
1.2752367 0.21881889 1.8327082
1.322176 0.21755096 1.8136512
1.3527657 0.21522635 1.8029166
1.4081774 0.24080721 1.8238064
1.4772998 0.24494928 1.8255594
1.4976891 0.26824132 1.8309143
1.5177128 0.26697421 1.8145241
1.5668522 0.2594704 1.8044931
1.4968243 0.31002584 1.8160354
1.5161954 0.33620229 1.8170584
1.5744874 0.34361625 1.8055283
1.4914218 0.37448838 1.8266964
1.5269964 0.3718845 1.8195546
1.5771041 0.37336421 1.8177373
1.6189675 0.37109217 1.8090197
1.654664 0.37207061 1.8049891
-0.016035279 -0.55126828 1.8737689
0.026900543 -0.55619776 1.8757403
0.058110353 -0.56670922 1.8922936
0.11757335 -0.56235611 1.8758661
0.17312191 -0.56321329 1.8758211
0.22456224 -0.56477833 1.8774163
0.2732622 -0.56840342 1.8729424
0.32317328 -0.56719685 1.87589
0.37970454 -0.5678494 1.8858732
0.42622533 -0.56988388 1.880619
0.47256842 -0.56881851 1.8766711
0.52009046 -0.56570029 1.8706431
0.58141148 -0.5652625 1.8705909
0.62302762 -0.56697071 1.8704203
0.67476207 -0.56897229 1.8714708
0.72489882 -0.56551671 1.8785926
0.77491033 -0.5632624 1.8741508
0.82723469 -0.55522513 1.8750328
0.87067062 -0.55358911 1.8738315
0.92441094 -0.55190837 1.8635932
0.95619392 -0.55318433 1.8568621
1.0231667 -0.55006069 1.8603055
-0.17155948 -0.51339054 1.8679464
-0.12851292 -0.52739763 1.8779013
-0.077335991 -0.53819603 1.8760308
-0.029999226 -0.54559255 1.8875877
0.83749181 -0.54991198 1.8855087
0.88802534 -0.54643273 1.8858751
0.92360389 -0.54482931 1.8858494
0.97210628 -0.54495013 1.8769023
1.0275168 -0.54009265 1.8819052
1.0787696 -0.53776103 1.8707967
1.1267 -0.52906257 1.8794526
1.1754284 -0.52142513 1.8777398
1.2244188 -0.51866835 1.8658627
1.2732563 -0.5109601 1.8555791
-0.20592369 -0.46164665 1.8532028
-0.19453003 -0.47536954 1.8781586
1.1439488 -0.48097339 1.8961049
1.174979 -0.47630301 1.8888581
1.2244271 -0.47541425 1.8698643
1.2624897 -0.47380936 1.8557801
-0.20896374 -0.42260519 1.873814
-0.19964398 -0.43600869 1.885069
1.1816281 -0.42739043 1.8951743
1.2255106 -0.42454952 1.8792322
1.2755483 -0.42565364 1.8597946
1.3033234 -0.41062319 1.8509316
-0.21578191 -0.3733018 1.8732088
1.1888785 -0.37330487 1.8975348
1.2234635 -0.37212771 1.8845389
1.2735883 -0.3731434 1.8656304
1.3076154 -0.37180021 1.8542726
-0.21817715 -0.32961863 1.8794292
1.1954767 -0.32797605 1.8965091
1.2264436 -0.32499197 1.885222
1.273141 -0.32442912 1.8689214
1.3104094 -0.32072178 1.8559384
-0.22233009 -0.27630162 1.8729621
1.1909164 -0.27849883 1.8974794
1.2250581 -0.2769531 1.8863384
1.2745572 -0.27884459 1.8693111
1.3179327 -0.27242827 1.8544903
1.352823 -0.27172327 1.8584741
-0.22351487 -0.22400863 1.876639
1.1875374 -0.22417577 1.897444
1.2264009 -0.22592972 1.8855019
1.2765988 -0.22660264 1.8674129
1.3090537 -0.23576719 1.8553356
-0.22710681 -0.19336107 1.870517
1.1883286 -0.17713875 1.8965214
1.2228624 -0.17401803 1.8841914
1.2748399 -0.17510483 1.865976
1.1867005 -0.12083141 1.8951638
1.2243984 -0.12239014 1.8792
1.2718672 -0.12300304 1.8585261
1.1810797 -0.069345601 1.8935822
1.2254871 -0.07068681 1.8760614
1.2650149 -0.072862357 1.8621835
1.1763662 -0.025126681 1.8903462
1.2247297 -0.02515154 1.8721597
1.2610469 -0.025139671 1.8549252
1.1448605 0.033186011 1.8972139
1.1751301 0.020584174 1.8883412
1.2232286 0.020650651 1.8698446
1.2563733 0.017298482 1.8548374
1.1396378 0.072938792 1.8958987
1.1733947 0.071237825 1.8845564
1.22145 0.071410477 1.866127
1.255433 0.06813889 1.852489
1.1314764 0.12206919 1.8931442
1.1764888 0.12172205 1.8769679
1.2252535 0.12207519 1.8595762
1.2528276 0.10706521 1.8506179
1.1232928 0.17262 1.8909754
1.1758575 0.17223774 1.8729107
1.2197341 0.17275135 1.8583484
1.0902107 0.21677771 1.897717
1.1223948 0.21717386 1.8877881
1.1757058 0.2177335 1.8690386
1.2175577 0.21633832 1.8556217
1.4917237 0.26793969 1.8704826
-0.0070554819 -0.55324697 1.9315982
0.025994925 -0.5579915 1.9248304
0.077844128 -0.56520265 1.9201071
0.12314228 -0.56847399 1.9296521
0.1817922 -0.56647128 1.9197397
0.22449878 -0.5651713 1.9237124
0.27115339 -0.56723702 1.925099
0.32987759 -0.56643707 1.9211589
0.36881483 -0.56215972 1.9215308
0.4274354 -0.56424594 1.9170468
0.47522953 -0.56162113 1.919831
0.53008091 -0.56219923 1.9210047
0.57550001 -0.56409645 1.926285
0.62661684 -0.56216002 1.9274136
0.67576087 -0.5614596 1.9238417
0.7198447 -0.55726761 1.9192302
0.77017081 -0.55479151 1.9133732
0.81390262 -0.55391741 1.9085277
-0.16910812 -0.50986296 1.9219851
-0.12289745 -0.52647287 1.9255695
-0.071861133 -0.53837341 1.9264445
-0.033427067 -0.54444873 1.9249218
0.73890162 -0.54967958 1.9138538
0.77643543 -0.54611176 1.9357747
0.82727879 -0.54461992 1.9297569
0.87688023 -0.54004711 1.9245381
0.92986506 -0.53643876 1.9234012
0.97523987 -0.52932358 1.926067
1.0251902 -0.51914388 1.9285494
1.0765185 -0.5160194 1.918808
1.1240677 -0.51380676 1.9079348
-0.18117212 -0.47636405 1.9252255
0.9948687 -0.47878119 1.9471769
1.0263535 -0.47158116 1.9400468
1.0742782 -0.47373676 1.9258528
1.1244594 -0.47262892 1.9089886
-0.20210989 -0.4088777 1.9131666
-0.19131434 -0.42704055 1.9201002
1.0328161 -0.42344254 1.9455296
1.0742985 -0.42275193 1.932763
1.127268 -0.42274609 1.9151187
1.1631972 -0.41467085 1.9034923
-0.20328069 -0.36945733 1.9147425
-0.1933098 -0.38194615 1.9418871
1.0390607 -0.3732971 1.9463854
1.0750239 -0.37575725 1.9350184
1.1255586 -0.37575042 1.9194658
1.1678362 -0.37042257 1.9049561
-0.20572731 -0.32047671 1.9232876
-0.19497344 -0.32418942 1.9463662
1.0446347 -0.33173135 1.9477643
1.0761366 -0.32714179 1.9373925
1.1243453 -0.32965079 1.9217854
1.1694365 -0.32267228 1.9063107
-0.20814319 -0.27163401 1.9275227
-0.19498529 -0.29131898 1.9499009
1.0422578 -0.27138081 1.9479386
1.0772892 -0.27611169 1.9365706
1.1257942 -0.27669033 1.9212061
1.1653562 -0.27659041 1.9084759
-0.20763569 -0.22346824 1.929372
1.0373614 -0.22407138 1.94802
1.0745021 -0.22436252 1.9363769
1.127194 -0.22397055 1.9194452
1.1664594 -0.22788209 1.9069777
-0.21018195 -0.19406758 1.9238396
1.0347149 -0.17265478 1.9467846
1.0718031 -0.17287672 1.9353141
1.1253587 -0.17326531 1.9183228
1.1679181 -0.17214595 1.9044856
1.0332072 -0.1174628 1.944549
1.0721145 -0.12307487 1.9324908
1.1227148 -0.12194629 1.9167005
1.1602952 -0.12213463 1.9040411
1.0261229 -0.069296412 1.9425671
1.077633 -0.070764989 1.9279681
1.1256831 -0.070896417 1.9127442
1.1561931 -0.075381793 1.9036561
0.99064755 -0.0098846983 1.9488996
1.0228088 -0.025049228 1.941045
1.0756774 -0.025077825 1.9252971
1.123847 -0.025113111 1.9104599
1.1507807 -0.025133977 1.9018152
0.99099571 0.026635662 1.9464531
1.0229378 0.019063428 1.9373072
1.0732268 0.02042089 1.9208837
1.1224762 0.018481623 1.9070404
1.1501324 0.010426665 1.9008402
0.98493248 0.071160756 1.9444182
1.0254478 0.071622103 1.9309227
1.0726503 0.070003048 1.9171062
1.1136749 0.069560573 1.9046161
0.94490147 0.12549952 1.9490392
0.97616494 0.12063751 1.9409094
1.0275701 0.12132182 1.926262
1.0743978 0.12066194 1.9117498
1.107188 0.12017753 1.9035896
0.93708354 0.17646727 1.9468969
0.97519553 0.17065863 1.9362271
1.0273305 0.17101061 1.9211127
1.074995 0.17142797 1.9072773
1.1015939 0.15149796 1.900462
0.92916936 0.2163296 1.9444869
0.97410756 0.21554482 1.9307907
1.0269077 0.21614578 1.9169695
1.0700724 0.22088301 1.9106448
1.4953794 0.27486783 1.9024414
1.0429591 0.4816218 1.9476242
1.0403025 0.52430153 1.946408
1.051504 0.52471054 1.9437609
1.0421622 0.56484795 1.9464893
1.0553182 0.56311101 1.9431248
-0.016950319 -0.55370975 1.9866929
0.021898683 -0.5621953 1.9804914
0.07485994 -0.56936932 1.9690418
0.12584332 -0.57073826 1.9720594
0.17525974 -0.57316172 1.978121
0.22462754 -0.56633294 1.9764173
0.27772996 -0.56626707 1.9683821
0.32132602 -0.56462383 1.9681637
0.37654683 -0.56042928 1.9705271
0.42257547 -0.56040192 1.9666771
0.47435799 -0.56022638 1.9720024
0.52447116 -0.55806828 1.9767352
0.57318425 -0.55614191 1.9732985
0.62411326 -0.5549469 1.9754887
0.6701051 -0.5527944 1.9634893
-0.15385573 -0.50972462 1.969983
-0.1218973 -0.52807468 1.9836046
-0.076582819 -0.53879255 1.9809119
-0.035838805 -0.54527324 1.9562612
0.54260266 -0.54994088 1.9995461
0.55644381 -0.54879022 1.9925282
0.63136977 -0.54595172 1.9864604
0.67572951 -0.54337913 1.9827375
0.72375667 -0.54322648 1.9744519
0.77435493 -0.53650612 1.9728684
0.82592273 -0.52869326 1.9788582
0.87596941 -0.52149433 1.9772714
0.92253208 -0.51623768 1.9693248
0.9714613 -0.50994909 1.9598709
1.0097725 -0.50590676 1.951767
-0.16627015 -0.47801882 1.9749445
0.84439576 -0.477173 1.9984689
0.87717158 -0.47035956 1.9908094
0.92531568 -0.47247127 1.9754939
0.97459787 -0.47176009 1.9595543
1.0091333 -0.49526507 1.9524773
-0.17876185 -0.42175409 1.9722997
0.88764274 -0.42336914 1.995255
0.92700696 -0.42091939 1.9823376
0.97833449 -0.42088619 1.9643079
1.0141495 -0.41377395 1.9535719
-0.18505722 -0.37110615 1.9795171
0.89330226 -0.37744254 1.9974495
0.92609674 -0.37433574 1.9870163
0.97763264 -0.37439936 1.9696591
1.0154929 -0.37390473 1.9563088
-0.18728313 -0.3209717 1.9786925
0.89346147 -0.3275283 1.9986497
0.92401415 -0.32744357 1.9883177
0.97563845 -0.32756329 1.9715304
1.0191895 -0.32578564 1.9561112
-0.18950962 -0.27323076 1.9760267
0.89073628 -0.2754674 1.9980135
0.92144507 -0.27547958 1.9882566
0.9727428 -0.27553099 1.971279
1.0178554 -0.27745745 1.9565359
-0.19209078 -0.22769852 1.9745802
0.89390963 -0.22394629 1.9965576
0.92557371 -0.22293952 1.9860864
0.97240263 -0.22433415 1.9703147
1.0115697 -0.22458084 1.9554098
-0.19220755 -0.19933689 1.9776647
0.88577706 -0.17242618 1.9948258
0.92646003 -0.17242748 1.9818687
0.97710437 -0.171694 1.966205
1.0133464 -0.17458378 1.9556241
0.87693691 -0.11825705 1.9931564
0.9238748 -0.12132584 1.978956
0.97506118 -0.12137998 1.9627213
1.0105418 -0.12532529 1.9526165
0.87363124 -0.06856446 1.9896417
0.9229809 -0.071814157 1.974375
0.97293639 -0.070568249 1.9601825
1.0039408 -0.085773014 1.9501441
0.8425656 -0.025045015 1.9957918
0.87901461 -0.02503242 1.984555
0.92750835 -0.023907054 1.9698262
0.97199959 -0.027103171 1.9562304
0.83479226 0.022019826 1.9936826
0.87744713 0.020260723 1.9809964
0.92825717 0.020292548 1.9658856
0.96860486 0.018886149 1.9539512
0.79511023 0.085405745 1.9986345
0.82575148 0.070404559 1.9917978
0.87590265 0.070420474 1.9766661
0.92672068 0.070482537 1.9617493
0.96045172 0.069118515 1.9519968
0.79349893 0.12387995 1.9977884
0.82427824 0.12039477 1.9865686
0.87450552 0.12042355 1.9717844
0.92153621 0.11958008 1.9584389
0.7852205 0.17199421 1.9957584
0.82342613 0.17033187 1.9819171
0.87343436 0.17033412 1.966722
0.91510731 0.16639349 1.954268
0.78470284 0.21894059 1.9951152
0.82458639 0.22071259 1.9812099
0.87466568 0.22072546 1.9659396
0.91565275 0.22480316 1.9669743
0.97211945 0.24512672 1.9724274
1.028488 0.24644227 1.9639965
1.0829934 0.24955904 1.9724258
1.040166 0.27255067 1.9760391
1.0631098 0.27578631 1.979785
1.1395068 0.26143482 1.9860303
1.1767268 0.26605687 1.975579
1.2117207 0.27163443 1.9734749
1.043057 0.30195445 1.9865119
1.0644536 0.30660927 1.9869121
1.0381213 0.38117528 1.9749315
1.0644429 0.37551752 1.9820743
1.0353171 0.42812663 1.963906
1.0696932 0.42214876 1.972947
1.1812252 0.43081847 1.9962068
1.0285953 0.47162017 1.9685684
1.0804573 0.47675601 1.9738256
1.1138442 0.48641557 1.9969044
1.1781509 0.47997922 1.9988935
1.0258415 0.52418959 1.9691743
1.0774912 0.52189928 1.9701436
1.1024497 0.50211388 1.9970808
1.0309291 0.57411444 1.9695641
1.0861295 0.55263633 1.9805205
-0.017231142 -0.55361384 2.0236356
0.0025049718 -0.55683601 2.0167012
0.073848777 -0.57175958 2.020792
0.11683863 -0.57644355 2.0285387
0.17630143 -0.57263035 2.02456
0.22809938 -0.56576854 2.0309157
0.27704585 -0.56390435 2.029659
0.32696494 -0.55747902 2.0203335
0.37088963 -0.55668515 2.025152
0.42629358 -0.55740684 2.0248682
0.47382671 -0.55638152 2.0159869
0.51261848 -0.55516374 2.0148528
0.57076758 -0.55121869 2.0262861
-0.12778009 -0.52119344 2.0235906
-0.076274134 -0.5364576 2.0166831
-0.038929649 -0.54679072 2.0212963
0.46500671 -0.54870367 2.0485487
0.52235824 -0.54839468 2.0311072
0.57775003 -0.54341245 2.0313427
0.62565535 -0.53885859 2.025887
0.67484266 -0.53196031 2.0303152
0.72717637 -0.5209288 2.0276172
0.77553892 -0.51750374 2.0200996
0.82575065 -0.50997627 2.010093
0.860147 -0.50605631 2.003649
-0.15621039 -0.46950027 2.0187945
-0.14417239 -0.48612031 2.032186
0.7292943 -0.47398663 2.0425143
0.77534586 -0.47380105 2.0270715
0.82421362 -0.47284776 2.0111458
0.86201924 -0.48112178 2.0030594
-0.16030015 -0.42572567 2.0299489
0.7417559 -0.42554229 2.0469234
0.77513385 -0.4221642 2.0344479
0.82583147 -0.42173672 2.0181704
0.86315298 -0.41853753 2.0041645
-0.16758166 -0.37403098 2.0268681
0.74448645 -0.37596434 2.0494292
0.77432746 -0.37543264 2.0386386
0.82442826 -0.37480649 2.0211554
0.86865932 -0.37334269 2.0056374
-0.17190453 -0.32546455 2.0274062
0.7423355 -0.32350504 2.0495536
0.77233231 -0.32829446 2.0388844
0.82277715 -0.32792443 2.0226591
0.87137598 -0.32758051 2.0059953
-0.17314516 -0.2732113 2.0293097
0.74257326 -0.26360723 2.0482867
0.77349651 -0.27587506 2.038075
0.82294124 -0.27615279 2.0201557
0.8661961 -0.2766104 2.0059536
-0.17561202 -0.22216225 2.0202639
0.74275577 -0.22449085 2.0441985
0.77747053 -0.22418976 2.0323412
0.82758194 -0.22393747 2.0161664
0.86816883 -0.22387697 2.0038037
-0.17490093 -0.17636509 2.0223124
-0.12955268 -0.1621965 2.0104673
0.73599333 -0.17305967 2.0442307
0.77531248 -0.17273024 2.0300863
0.8250345 -0.17248306 2.0134156
0.86020184 -0.17239538 2.0021675
-0.16761437 -0.12633911 2.0303786
-0.13251027 -0.12527798 2.0148757
0.72963864 -0.1217943 2.0419738
0.77338934 -0.12159192 2.0275483
0.82286817 -0.12139616 2.0106521
0.85792065 -0.13362771 2.0015755
-0.16695169 -0.077434286 2.0238686
-0.13256165 -0.077098951 2.0171063
0.72425139 -0.069548123 2.0410218
0.77121264 -0.070688434 2.0234706
0.82072634 -0.070573278 2.0070641
0.85200679 -0.090862915 2.0000753
-0.16524483 -0.03074158 2.0202582
-0.13160758 -0.029544409 2.0141699
0.69215482 -0.010038069 2.0496445
0.7251243 -0.024539391 2.0374639
0.77799016 -0.025820283 2.0169642
0.81983286 -0.025064403 2.0033224
-0.16218512 0.024259239 2.0263271
-0.13210161 0.024040528 2.0111096
0.69161522 0.020363012 2.0479395
0.72493619 0.020307776 2.0335536
0.77828485 0.020268425 2.0136356
0.81164908 0.016489919 2.0028071
-0.16530941 0.076445043 2.0200803
-0.13162898 0.075624786 2.0133762
0.68910891 0.07556513 2.0454886
0.72562331 0.069638386 2.0292146
0.77491778 0.069181725 2.0091343
-0.16699284 0.12594667 2.02266
-0.12975025 0.12254825 2.0095336
0.68777847 0.12203388 2.0417037
0.7276988 0.12097395 2.0234606
0.76960641 0.11951663 2.0053108
-0.16777346 0.1752101 2.0297501
-0.12859307 0.17122468 2.0064745
0.68354428 0.17445147 2.0404639
0.72737509 0.1712582 2.0200496
0.76174581 0.16893832 2.0049424
-0.1690546 0.22061634 2.0424137
-0.12748332 0.2213994 2.0068004
0.59754741 0.24212044 2.0477145
0.63173348 0.24234475 2.0426538
0.67984563 0.22235675 2.0400229
0.72609371 0.2230376 2.0198085
0.76221907 0.22422668 2.0034628
-0.16492268 0.28565958 2.0470269
-0.1278812 0.27522406 2.0086927
1.0411391 0.27824378 2.0194814
1.0966256 0.27108425 2.0193121
1.1281761 0.28181124 2.0219417
1.1683307 0.28901452 2.0047674
-0.16499259 0.30548277 2.0460255
-0.12873271 0.3304759 2.0167565
1.0459808 0.31147495 2.0321097
1.0731496 0.33368644 2.0134525
1.1266505 0.32131857 2.0372756
1.1753521 0.32785106 2.03072
1.2157617 0.32070172 2.0196252
-0.12916921 0.37552074 2.0185094
1.0471404 0.38389662 2.0336177
1.0817811 0.37106195 2.0176678
1.1289533 0.37817624 2.0248814
1.176425 0.37687361 2.0236568
1.2196352 0.36833814 2.0207601
-0.13034198 0.4232212 2.031054
1.0359107 0.42657781 2.0238693
1.0984755 0.42937514 2.0022409
1.1284583 0.42612204 2.0117292
1.168254 0.42189643 2.0147898
1.2067339 0.42336488 2.0062191
-0.12978069 0.4723987 2.0347555
1.0295719 0.47732499 2.0218203
1.1318709 0.4716599 2.0084944
1.1690094 0.46896011 2.0060151
1.2042732 0.46790266 2.0062952
-0.12726216 0.54422116 2.0428815
1.0295975 0.52444011 2.0261266
1.119945 0.50875121 2.0040636
1.1619885 0.50951636 2.0079658
-0.12684892 0.5673731 2.0316658
1.0237651 0.57488668 2.0155251
-0.012610922 -0.5517242 2.0751381
0.018710513 -0.56417525 2.070106
0.068514481 -0.57770944 2.0720925
0.12403087 -0.57670486 2.066752
0.17458963 -0.57247663 2.0791309
0.2277838 -0.56135213 2.0789399
0.2789661 -0.55603355 2.0766239
0.32305673 -0.55554456 2.0794609
0.37745219 -0.55455625 2.0678182
0.41991594 -0.55344421 2.0665267
0.49219805 -0.5506956 2.0519459
-0.12016472 -0.51755488 2.0786128
-0.07722982 -0.5380429 2.0775003
-0.037957992 -0.54734749 2.0782654
0.37935597 -0.54695338 2.0951669
0.4287357 -0.5445134 2.0862358
0.47538996 -0.54296058 2.0769224
0.52872825 -0.53786331 2.0734112
0.57954395 -0.52537721 2.081286
0.62592989 -0.51568305 2.0763948
0.67499465 -0.5147298 2.0606871
0.71295619 -0.50796551 2.0522351
-0.13417529 -0.47641495 2.078887
0.58796835 -0.47377378 2.0948577
0.62575847 -0.4724353 2.0810516
0.67560524 -0.47614694 2.0626273
0.71338874 -0.4777596 2.0528507
-0.14529169 -0.42849138 2.0694976
0.59599596 -0.43189323 2.0982847
0.62588942 -0.42578137 2.0883319
0.67545199 -0.42428249 2.0699074
0.71758217 -0.42204258 2.0549343
-0.15712467 -0.37414771 2.0661049
-0.14870337 -0.37306422 2.089046
0.62892693 -0.37429911 2.0910754
0.67472953 -0.37214419 2.0744812
0.72158802 -0.3715494 2.0572484
-0.15701284 -0.32902095 2.0696115
-0.14890242 -0.32310668 2.097327
0.62716281 -0.32434887 2.0917871
0.67308801 -0.32481188 2.0747237
0.71931016 -0.32554567 2.0585928
-0.15811788 -0.28148863 2.0668507
-0.1483645 -0.26827383 2.0946624
0.6259588 -0.27815413 2.0911393
0.67145234 -0.27773461 2.0742376
0.71812791 -0.27836055 2.0572729
-0.16061586 -0.22927809 2.0674839
-0.14798917 -0.21072251 2.0936239
0.6245544 -0.2243956 2.0900376
0.67647427 -0.22673759 2.0708532
0.71854818 -0.22490571 2.0541999
-0.16463032 -0.19301566 2.0761333
-0.14765009 -0.18020216 2.0906382
0.59977776 -0.15435231 2.0989091
0.62498021 -0.17526829 2.0878072
0.67723274 -0.17367566 2.0657568
0.71165937 -0.17334005 2.0536466
0.59688354 -0.11980257 2.0965378
0.62752271 -0.12285281 2.0837197
0.67593193 -0.12233461 2.0642412
0.70682526 -0.12207697 2.0527575
0.59294081 -0.071792305 2.0968058
0.6265586 -0.071522512 2.0821195
0.67453283 -0.071175277 2.0615637
0.70399171 -0.086300716 2.051075
-0.15548036 -0.019719271 2.0660429
-0.14473088 -0.019601233 2.0540936
0.59049952 -0.023842312 2.0952606
0.6255641 -0.025446186 2.0794978
0.67241889 -0.026123621 2.0592837
0.58649999 0.020557255 2.0938013
0.62520754 0.020500747 2.0782998
0.66792673 0.020404812 2.0586972
-0.14541854 0.098649055 2.0623055
0.58259177 0.072291195 2.0918767
0.62435579 0.071435779 2.0746739
0.66366708 0.069883615 2.0573673
-0.14590678 0.13861614 2.0677125
0.57674974 0.12378994 2.0918088
0.6237759 0.12228902 2.0710912
0.66090912 0.12115037 2.0565565
0.54640281 0.17451252 2.0996556
0.57558012 0.17403132 2.0883918
0.6235922 0.17316841 2.0680161
0.65779179 0.16700543 2.0544686
-0.17029607 0.24690202 2.0555158
0.54680759 0.2208465 2.0983155
0.57722652 0.22249107 2.0859308
0.62427419 0.22136173 2.065542
0.65426195 0.2152983 2.0524216
-0.17299522 0.26998556 2.0660906
0.98757476 0.27237847 2.087661
1.0272981 0.27898556 2.0826089
1.0528312 0.29410601 2.0643589
1.5871458 0.28635916 2.0884619
-0.175631 0.31937477 2.0933025
1.0425675 0.33417231 2.0884705
1.0661911 0.33441049 2.0686615
1.1310558 0.34743863 2.0504124
1.0358825 0.38402066 2.0852559
1.0565922 0.36959836 2.0690944
-0.11843516 0.4437207 2.080421
1.0272553 0.42307904 2.078018
-0.11828393 0.46833774 2.0740604
1.0237019 0.47318381 2.070251
-0.12540302 0.52400756 2.0661867
1.0269153 0.50688201 2.0769129
-0.1188855 0.56180853 2.0694656
-0.012987324 -0.55292809 2.1410904
0.02916909 -0.56571215 2.1253138
0.076593287 -0.57710606 2.1236815
0.12949373 -0.57636982 2.1220317
0.1779139 -0.56922799 2.1291049
0.22152168 -0.55748403 2.1301241
0.27123851 -0.55376148 2.1244545
0.30365092 -0.55004102 2.1154869
-0.10459235 -0.51361042 2.133918
-0.077206559 -0.5336569 2.1254385
-0.040866978 -0.54458296 2.1254158
0.23383917 -0.54631889 2.14957
0.28260112 -0.54947829 2.1152434
0.3290312 -0.54527205 2.1242075
0.3742173 -0.53889531 2.1285574
0.42772079 -0.53048301 2.129277
0.47608241 -0.52061695 2.1295228
0.52424175 -0.51749778 2.1172578
0.56861007 -0.50689006 2.1076405
-0.11997501 -0.47500277 2.123718
0.43932608 -0.4742043 2.1463342
0.47678116 -0.47229281 2.136167
0.52508783 -0.47316882 2.119575
0.56450379 -0.4750773 2.1052306
-0.13014786 -0.42322263 2.1256394
0.47930932 -0.42649236 2.1407945
0.52755344 -0.42630613 2.1244268
0.57231218 -0.42653093 2.1078823
-0.13345677 -0.376598 2.1292682
0.4851605 -0.38088411 2.144449
0.52577531 -0.37657502 2.1294966
0.57565206 -0.37497425 2.1113622
0.60533166 -0.3687917 2.1005876
-0.13731042 -0.32498318 2.1198864
0.48401052 -0.32339057 2.145514
0.52448213 -0.32347268 2.1300039
0.57427245 -0.32211334 2.1120691
0.60412288 -0.3265757 2.1010175
-0.14109355 -0.27462617 2.1183195
0.48749524 -0.26992413 2.1451681
0.52265358 -0.27481997 2.1312375
0.57306969 -0.27477065 2.1120887
0.60277909 -0.27584198 2.1011493
-0.1415595 -0.22456227 2.1206551
0.48492202 -0.22645685 2.1449313
0.52357918 -0.22789849 2.1307526
0.57174522 -0.22757944 2.1108849
0.60173053 -0.23749048 2.1005979
-0.14873706 -0.19161502 2.1054525
0.48201472 -0.17710367 2.1446135
0.52267766 -0.1755605 2.1289434
0.57123429 -0.1762843 2.1088834
0.4787592 -0.12601112 2.1437352
0.52286667 -0.12424751 2.1273954
0.57054383 -0.12457222 2.1084533
0.47726494 -0.072120883 2.1433649
0.52476948 -0.072314546 2.1245472
0.56860942 -0.07196261 2.1065168
0.47783571 -0.025891539 2.1413114
0.52645409 -0.025750322 2.1221781
0.56723869 -0.027034746 2.1057479
0.44583401 0.024295546 2.1472125
0.47940877 0.020782337 2.1376505
0.52844197 0.020680076 2.1183684
0.56251937 0.020620028 2.1045756
0.44402617 0.072754145 2.1463275
0.47892269 0.072547741 2.1347365
0.52771801 0.072142407 2.1146767
0.55996364 0.070472039 2.102885
0.44158217 0.1238636 2.145854
0.47858849 0.12422886 2.1316233
0.52730489 0.12353128 2.1114056
0.55636954 0.10262478 2.1000304
0.43900672 0.17891595 2.1437194
0.47847015 0.17593221 2.1286523
0.52564257 0.17502546 2.1097381
0.43105116 0.22467688 2.142617
0.47841778 0.22246237 2.1255047
0.5229944 0.22678868 2.1098132
0.55230355 0.2489896 2.117475
0.441021 0.25056165 2.1488256
0.47583351 0.25058573 2.1440041
0.50250524 0.25000411 2.1348131
0.96934056 0.28209224 2.1147521
1.0113416 0.29302526 2.1006398
1.6027079 0.29134318 2.1322689
-0.18114461 0.3471151 2.1160064
0.9923895 0.32763067 2.1469371
1.0187439 0.32388029 2.1189392
1.0502061 0.3057273 2.1006844
1.6164848 0.31831759 2.1477361
-0.17786755 0.36436844 2.1156261
0.99332535 0.38538176 2.1328311
1.0195385 0.36857715 2.1197999
1.0550073 0.36193603 2.1039417
0.99184042 0.42039743 2.1317911
1.0069511 0.42245468 2.1076741
0.99133301 0.47596049 2.1186388
1.0077661 0.48081157 2.1039946
0.99419969 0.51246929 2.1152916
1.0091119 0.51166558 2.1062522
0.023875454 -0.55659574 2.171371
0.076262556 -0.57133037 2.1793592
0.12297428 -0.56940919 2.1741211
0.17282516 -0.56338245 2.1771727
0.20794123 -0.55546445 2.1730337
-0.076613441 -0.52097517 2.1766567
-0.027515465 -0.54378146 2.1727853
0.0026810868 -0.54844606 2.1663923
0.23244238 -0.54350191 2.1826608
0.27777395 -0.54015338 2.1685898
0.32581714 -0.52468115 2.1814151
0.37444204 -0.51573735 2.1726739
0.41785443 -0.51413435 2.1593246
-0.10617872 -0.46816817 2.1652064
-0.089257784 -0.48274049 2.1888692
0.29156324 -0.4813326 2.1959529
0.32501417 -0.4724029 2.1903913
0.37441117 -0.47256288 2.1722536
0.42075419 -0.47461629 2.1565614
0.45820007 -0.49778527 2.1516757
-0.10942972 -0.42072365 2.1821806
0.32996756 -0.43147534 2.194994
0.37468925 -0.42508316 2.180407
0.42566437 -0.42291358 2.162811
0.456247 -0.416567 2.1537189
-0.11527359 -0.37231344 2.1760297
0.33695778 -0.37391818 2.1967399
0.3729327 -0.37453842 2.1848428
0.42513981 -0.37488073 2.1659884
0.46213573 -0.37170473 2.1527424
-0.12085199 -0.32500756 2.1737635
0.33774859 -0.32435542 2.1973927
0.37491494 -0.32657099 2.1845183
0.42458791 -0.32693008 2.1682467
0.46098009 -0.32789209 2.1553886
-0.1243041 -0.27576917 2.1686046
0.34079087 -0.27432123 2.1981814
0.37317216 -0.27517992 2.1872015
0.42362243 -0.27357444 2.1680975
0.46336395 -0.27411392 2.1548426
-0.12222259 -0.22900377 2.1723621
0.34186548 -0.22253628 2.1973133
0.37081325 -0.22350617 2.1854079
0.42272669 -0.22573571 2.1671007
0.46077523 -0.22271886 2.1530948
-0.12228396 -0.1977744 2.1744094
0.33889577 -0.17122421 2.1950145
0.37286597 -0.17619069 2.1833832
0.42206374 -0.17820042 2.1665587
0.45732814 -0.17763567 2.154814
0.33726716 -0.12451442 2.1934435
0.37164512 -0.12704735 2.1817613
0.42133424 -0.12555462 2.1652076
0.45505056 -0.12249254 2.1528938
0.33860123 -0.072408587 2.1914885
0.37524149 -0.073420912 2.1782355
0.42083383 -0.073139518 2.1641767
0.45383212 -0.074395202 2.1530786
0.33821446 -0.025893075 2.1916413
0.37637782 -0.025857924 2.1764355
0.42117053 -0.026314767 2.1608412
0.4502126 -0.02596486 2.1511438
0.33527029 0.022215281 2.1910725
0.37871993 0.021849548 2.1733906
0.423307 0.018815225 2.1583431
0.33432606 0.073751695 2.1897285
0.37930453 0.073284738 2.1708355
0.41933519 0.072973825 2.1563406
0.33472037 0.1273441 2.1850867
0.37910804 0.12554173 2.1680818
0.41774753 0.12587257 2.1549661
0.33358145 0.17840788 2.1843281
0.37908188 0.17782116 2.1655178
0.41652718 0.17432322 2.1529477
0.32973194 0.22163409 2.1880968
0.37814006 0.22599003 2.1660519
0.409105 0.21370751 2.1523714
0.39513218 0.26524732 2.1895416
0.42078781 0.26261276 2.1819732
0.46048361 0.27366981 2.1787372
1.6019945 0.2934221 2.1548862
0.44094118 0.3100341 2.1973488
0.46806991 0.3183341 2.1947114
0.98561561 0.32616785 2.1570892
1.6094208 0.31683818 2.1623247
0.98804438 0.3671895 2.1628156
1.0011818 0.36627746 2.1525061
0.97911191 0.4217962 2.1527319
0.031433206 -0.55279571 2.2130001
0.072962075 -0.55607402 2.2179775
0.12170205 -0.55694568 2.2200613
0.17109276 -0.55430889 2.2169862
-0.060403209 -0.51469612 2.2148561
-0.026087442 -0.53131169 2.224808
0.018995814 -0.54402947 2.2269461
0.079265185 -0.5462482 2.2466722
0.12290208 -0.54602277 2.2444232
0.18081033 -0.54318088 2.2379241
0.2262544 -0.52426594 2.2270348
0.26994121 -0.51632899 2.2152338
0.31219113 -0.50850737 2.2041202
-0.07436657 -0.47265041 2.2231779
0.22679164 -0.47048876 2.2280023
0.27175131 -0.47206423 2.2124844
0.31458265 -0.49458656 2.2038095
-0.084126994 -0.42704386 2.2283645
0.22868514 -0.42441246 2.2300673
0.27142516 -0.42451033 2.2161605
0.30917266 -0.41880718 2.204499
-0.10353987 -0.36647996 2.2059047
-0.088628158 -0.37627584 2.2323103
0.23023322 -0.37628117 2.2350965
0.27106068 -0.37564808 2.2188807
0.31178585 -0.37312967 2.2049832
-0.10567331 -0.32511836 2.2104421
-0.090319686 -0.32926708 2.2342074
0.23336557 -0.32184911 2.2342408
0.27365541 -0.3262794 2.2205322
0.31200194 -0.32524297 2.2059908
-0.1074866 -0.27878058 2.2136543
-0.091878377 -0.27845135 2.2329345
0.23379286 -0.27402776 2.2342997
0.27623928 -0.27686644 2.219388
0.31594056 -0.27733284 2.2059641
-0.10625545 -0.21793832 2.2121432
-0.08984597 -0.22270398 2.2419214
0.23391715 -0.22577438 2.2389009
0.2758491 -0.22489552 2.2269578
0.31688118 -0.22362025 2.2106056
0.23390007 -0.17200932 2.2418447
0.27560014 -0.17653783 2.2277775
0.31539044 -0.17651874 2.2105079
0.23351714 -0.12342006 2.2402406
0.27516466 -0.12818533 2.2263641
0.31225532 -0.12750627 2.2114019
0.23332167 -0.075048625 2.2397351
0.27488476 -0.074679181 2.2256153
0.30988058 -0.075808927 2.2110648
0.23303734 -0.026751228 2.2377381
0.2745479 -0.02661573 2.2236011
0.30949309 -0.026979618 2.2105222
0.23298804 0.02145521 2.2372851
0.27853289 0.0222087 2.2196953
0.3097457 0.015151194 2.2053182
0.23298867 0.075017318 2.2365208
0.27769223 0.073195823 2.2199695
0.30717382 0.078823015 2.2079279
0.23511687 0.12726998 2.2340178
0.27668869 0.12929726 2.2187197
0.30776203 0.12136558 2.2059908
0.23282944 0.17405392 2.2343838
0.27727005 0.17462319 2.217016
0.3059682 0.17608687 2.2043686
0.2341692 0.2241745 2.2330151
0.27914283 0.22319669 2.2172253
0.31585819 0.23658152 2.2098944
0.38705304 0.25628498 2.206043
0.42494261 0.28826734 2.208873
0.46876889 0.28423682 2.2141628
0.43223321 0.31072897 2.2233346
0.48377982 0.31668982 2.2056553
0.50224483 0.32038277 2.2240248
-0.051772021 -0.50175303 2.2503555
-0.02168845 -0.51492208 2.2757373
0.025795905 -0.53332978 2.273072
0.073396459 -0.53614116 2.2829173
0.12723111 -0.53334069 2.2796266
0.17576626 -0.52741903 2.2738235
0.21233965 -0.51363385 2.2682803
-0.055434555 -0.47114003 2.2560635
-0.034343686 -0.47622833 2.2849271
0.2111007 -0.47691733 2.2594094
-0.058898654 -0.42491293 2.2687562
-0.041360527 -0.42505357 2.2890267
0.21112724 -0.42755741 2.266192
-0.062094014 -0.37383896 2.2753043
-0.041402511 -0.38681531 2.2958417
0.21158028 -0.37356728 2.2773929
-0.067471802 -0.32354352 2.274229
-0.041372437 -0.33131948 2.299825
0.21154273 -0.32406017 2.2819345
-0.065834053 -0.27466518 2.2760601
0.21185669 -0.27502668 2.2895236
-0.066254534 -0.22758667 2.2789571
0.21182156 -0.22548532 2.2926562
-0.079170324 -0.19662406 2.283916
0.2116957 -0.17588305 2.2940717
0.21172674 -0.1264154 2.2965119
0.21144423 -0.076840959 2.294826
0.2114999 -0.027439633 2.2961416
0.21134563 0.022002924 2.294461
0.21157868 0.076959275 2.2961864
0.21288288 0.12265615 2.2854924
0.21111263 0.17864826 2.2877135
0.21119763 0.2285376 2.2857053
0.22150031 0.27594194 2.2952349
0.62230742 0.28513861 2.2855229
0.41523108 0.31351632 2.2664924
0.62313908 0.32480046 2.2901223
0.6199798 0.37814099 2.2954123
0.22511834 0.40018445 2.2998278
0.61517024 0.42532039 2.2972825
0.21201393 0.47978327 2.2993579
0.21406667 0.53164321 2.2989275
0.19377851 0.58970666 2.2993445
0.21310996 0.57198989 2.2975144
0.19459692 0.64295685 2.2999222
0.2168328 0.61948925 2.2992795
0.19477169 0.65482539 2.2998412
0.21659918 0.67417198 2.2978187
0.19570315 0.71469188 2.2994015
0.22394146 0.72312194 2.2944586
0.22271186 0.77626491 2.292721
0.19763063 0.82486314 2.2984481
0.21998274 0.82853246 2.289911
0.1984567 0.87432402 2.2963581
0.22112282 0.87877995 2.2899396
0.19551967 0.90918595 2.2989185
0.22152804 0.92951542 2.2918131
0.18889534 0.96477789 2.2982213
0.21606433 0.97213876 2.291779
0.19027206 1.0303617 2.2971125
0.21901353 1.022164 2.2917557
0.22068997 1.0761849 2.2941272
0.22403929 1.1265795 2.2934432
0.22856241 1.1809962 2.2957773
0.22053924 1.2228179 2.294394
0.22331636 1.277066 2.2961264
0.23063977 1.3249874 2.2962561
0.22781388 1.3649651 2.2949352
0.23085856 1.4212151 2.2975869
0.23666139 1.4848109 2.2985764
0.23516861 1.505245 2.2961173
0.23341113 1.5675539 2.2963789
0.22119798 1.6352067 2.2977037
0.22239253 1.6633842 2.2991335
0.23736084 1.7171326 2.2954502
2.120595 2.3863738 2.2852316
2.1713896 2.3861294 2.2709899
2.2184832 2.3828168 2.2943187
2.1641974 2.4061127 2.2867961
2.2153027 2.4064043 2.2932336
-0.008333656 -0.50837117 2.3063421
0.027939375 -0.51503348 2.3183091
0.076062277 -0.51575315 2.3232884
0.12363854 -0.51393038 2.3162925
0.17297502 -0.50844783 2.3111513
0.20421772 -0.50336409 2.3038297
-0.013119453 -0.47290131 2.3134668
0.02504741 -0.47711354 2.3403199
0.076460987 -0.47546801 2.3413835
0.12588327 -0.47426829 2.3293121
0.17638454 -0.47582439 2.3112526
0.20366593 -0.47411966 2.3014793
-0.019501029 -0.42526576 2.3211608
0.0028728121 -0.42356813 2.3434374
0.07942497 -0.4271304 2.3449571
0.12776512 -0.42353603 2.3333046
0.17626837 -0.42516178 2.3161345
0.20335662 -0.42329234 2.3043797
-0.023923017 -0.37401929 2.3235433
0.0028736282 -0.38411275 2.3483217
0.087603323 -0.37701771 2.3477256
0.12660117 -0.37688845 2.336843
0.17610474 -0.37447056 2.3197217
0.20328824 -0.37301579 2.3092766
-0.023163605 -0.32472709 2.3283918
0.09316431 -0.34419686 2.3485641
0.12648997 -0.32597718 2.3397055
0.17588304 -0.32375619 2.3216815
0.20305011 -0.32253909 2.311465
-0.027072137 -0.27601632 2.3274112
0.092947967 -0.26458114 2.3497171
0.12626161 -0.27489734 2.3397443
0.17565754 -0.27316859 2.3229709
0.20277484 -0.27210853 2.3125179
-0.024630399 -0.22683252 2.3293426
0.092846178 -0.22492419 2.3497899
0.12611218 -0.22412895 2.3403161
0.17452413 -0.22382799 2.3229048
0.20241083 -0.22728561 2.3114641
-0.052932888 -0.17835616 2.3333759
-0.025422625 -0.17748497 2.3309901
0.0028264939 -0.16664629 2.3250086
0.12593496 -0.17345938 2.339951
0.17605011 -0.17386387 2.3212359
0.20191732 -0.17694238 2.3086219
-0.053000562 -0.12284541 2.3386729
-0.021460867 -0.12319915 2.3272257
0.0028166128 -0.12727764 2.3183584
0.092614286 -0.11778204 2.3488748
0.12566513 -0.12283172 2.3369026
0.17470051 -0.12751368 2.3183153
0.2015136 -0.12692496 2.3061154
-0.052850217 -0.072352409 2.3333824
-0.022224121 -0.073049478 2.3263683
0.0028133367 -0.077370547 2.3169694
0.092504047 -0.072812758 2.3472292
0.12554994 -0.072502635 2.336123
0.17455724 -0.077539623 2.3177578
0.20131871 -0.077157304 2.3052692
-0.052722707 -0.027746694 2.3283446
-0.024175107 -0.027729716 2.3269801
0.0028102282 -0.027582724 2.315083
0.092517219 -0.0391961 2.3480792
0.12547746 -0.027848635 2.3352518
0.17443255 -0.027649639 2.3167512
0.201222 -0.027521167 2.3048754
-0.052722227 0.022257553 2.3283176
-0.023996348 0.020261556 2.3275418
0.002808183 0.022105938 2.3133912
0.092507139 0.022447398 2.3478966
0.12546334 0.02233918 2.3351548
0.17430826 0.022158453 2.3151002
0.20133083 0.022084853 2.3061156
-0.052772973 0.072309405 2.3298798
-0.022620043 0.075439334 2.3284485
0.0028106389 0.077336527 2.3146501
0.092546143 0.072907209 2.3482044
0.1254729 0.072521627 2.3347003
0.17431958 0.077500656 2.3144574
0.20113501 0.077167928 2.3030667
-0.052957755 0.12280209 2.3366272
-0.025029512 0.12236694 2.3289049
0.0028166799 0.12734821 2.3182511
0.09258692 0.12341907 2.3478267
0.12551649 0.12275436 2.3341203
0.17440861 0.12736617 2.3142712
0.20115051 0.12675908 2.3017974
-0.053176731 0.1681288 2.3444707
-0.018262986 0.17577808 2.330451
0.0028195919 0.17737205 2.3185847
0.092651196 0.17401426 2.3473623
0.12561837 0.17310253 2.334002
0.1753684 0.17611498 2.3132126
0.20123211 0.17090893 2.3008471
-0.0082810428 0.22772685 2.3207221
0.0028289356 0.22800185 2.3235545
0.09275727 0.22478743 2.3472142
0.12570529 0.2234965 2.3326817
0.17380266 0.22587408 2.314317
0.20156397 0.22823989 2.3013747
-0.008301585 0.27281034 2.3232701
0.0028350623 0.27309006 2.3255904
0.092916019 0.27396312 2.3478365
0.12586042 0.27411798 2.3320131
0.17614211 0.27517599 2.3124323
0.22152612 0.28192541 2.3078866
0.26076642 0.26917675 2.3308887
0.37736377 0.27240345 2.3485782
0.41216016 0.29564863 2.347311
0.61202502 0.29325315 2.3296559
-0.0083177537 0.32355377 2.3234687
0.0028415353 0.32403827 2.326859
0.091221094 0.32902735 2.3480036
0.12604715 0.32494709 2.3312273
0.17390758 0.32495677 2.3113346
0.21906625 0.32718849 2.3024008
0.2501491 0.30354342 2.3345311
0.61546767 0.30638868 2.3112602
-0.008362852 0.36454797 2.3322134
0.0028622574 0.37706223 2.3390887
0.089472763 0.37659192 2.3468504
0.12638937 0.37639624 2.3326294
0.17551568 0.37332439 2.3114638
0.21955341 0.37237221 2.3030326
0.63074225 0.37226963 2.3247535
0.65148026 0.3938663 2.3470047
0.0028699832 0.41762343 2.3412142
0.089689769 0.42470029 2.3472764
0.12812421 0.42456141 2.3308988
0.17587233 0.42434078 2.3104064
0.21989702 0.42478532 2.3038008
0.63294578 0.42399034 2.3195145
-0.0084596258 0.47650969 2.3461881
0.0028803335 0.47299457 2.3432128
0.087986715 0.47098464 2.34653
0.12540758 0.47567636 2.3298295
0.17635204 0.47586915 2.3101988
0.22354913 0.47312343 2.303364
0.61794627 0.4717055 2.3348391
0.0028969247 0.54135716 2.3478239
0.088231936 0.52352375 2.3458996
0.12720376 0.52584803 2.3289247
0.1767197 0.52175069 2.3085551
0.22607063 0.5230701 2.3029881
0.61738694 0.51022339 2.3406131
0.0028984742 0.56450284 2.3456845
0.085092478 0.57660878 2.3456306
0.12865768 0.57410038 2.3283257
0.17547971 0.57243615 2.3092515
0.2307556 0.58527941 2.3027134
0.25498927 0.57298708 2.3469889
0.61604041 0.57055616 2.3417451
