ply
format ascii 1.0
comment PCL generated
element vertex 1559
property float x
property float y
property float z
element camera 0
property float view_px
property float view_py
property float view_pz
property float x_axisx
property float x_axisy
property float x_axisz
property float y_axisx
property float y_axisy
property float y_axisz
property float z_axisx
property float z_axisy
property float z_axisz
property float focal
property float scalex
property float scaley
property float centerx
property float centery
property int viewportx
property int viewporty
property float k1
property float k2
end_header
0.81159699 -1.87165 2.72346
0.87935746 -1.852095 2.7079101
0.92942578 -1.8729937 2.72293
0.96967602 -1.884825 2.7342625
1.00254 -1.89489 2.7404301
1.2305951 -1.8898001 2.7423849
1.2798117 -1.8764167 2.7249634
-1.0728849 -1.8072166 2.7116501
-1.0267909 -1.8235955 2.7273047
-0.98338246 -1.83208 2.7402575
0.81959021 -1.824302 2.7125802
0.86920029 -1.8286023 2.7288101
0.90758198 -1.84701 2.7254901
1.29388 -1.8246975 2.7245874
1.3022701 -1.82122 2.7244
-1.1657751 -1.7549 2.7077
-1.1233201 -1.7693634 2.7199264
-1.0795571 -1.7852173 2.7336972
-1.03922 -1.79518 2.74843
0.83247232 -1.7943867 2.7387898
1.3106084 -1.7773601 2.7293465
-1.25061 -1.70752 2.7000899
-1.2166301 -1.713908 2.709744
-1.1779941 -1.7248089 2.7289138
-1.1339619 -1.7389259 2.7405083
1.3274701 -1.7213418 2.7271101
-1.3067867 -1.6613168 2.7158267
-1.2722709 -1.6736201 2.7195325
-1.2269442 -1.6877829 2.7355616
1.3430251 -1.6855975 2.72142
1.3537149 -1.660615 2.7264452
-1.40987 -1.60339 2.7005401
-1.3754213 -1.6160074 2.7160325
-1.3282954 -1.6311624 2.7268701
-1.28932 -1.63938 2.74351
1.3640066 -1.6222367 2.7171881
-1.4682134 -1.56874 2.7100232
-1.425199 -1.5740047 2.727474
-1.378522 -1.591476 2.7367179
1.3787435 -1.57658 2.7231066
-1.56907 -1.50526 2.7054901
-1.5236928 -1.5209579 2.7193038
-1.4794291 -1.5330426 2.7315626
-1.44933 -1.54986 2.7323899
1.393865 -1.5341825 2.7279699
1.40168 -1.50245 2.71702
-1.6204278 -1.4634979 2.7147422
-1.5792298 -1.475769 2.7272692
-1.5341133 -1.49356 2.7379732
1.410228 -1.4738541 2.724376
2.0250602 -1.457225 2.7220049
2.2401748 -1.47469 2.715235
2.2798331 -1.4768933 2.7236016
2.3066499 -1.4591068 2.7211101
-1.7160475 -1.4106926 2.7084675
-1.671574 -1.422507 2.721158
-1.6301024 -1.4395688 2.7309763
1.428496 -1.4240019 2.720422
2.0403099 -1.41465 2.72788
2.0662475 -1.423535 2.7098424
2.1377001 -1.44348 2.7211652
2.1779566 -1.4204234 2.7312601
2.2002399 -1.42576 2.7134399
2.3150501 -1.4226199 2.7241666
-1.8203599 -1.35059 2.7007
-1.7693374 -1.3633413 2.7191901
-1.7279199 -1.3794458 2.728729
-1.681615 -1.394995 2.74471
1.4422325 -1.3847075 2.7246499
1.4557767 -1.3612633 2.7200031
2.0299399 -1.3909301 2.7210701
2.06738 -1.39372 2.7058599
2.1434901 -1.36057 2.72807
2.1655798 -1.372285 2.7202349
2.3349118 -1.3810339 2.7232621
2.361815 -1.3653026 2.7165201
-1.8646276 -1.3208776 2.70784
-1.8232321 -1.3251311 2.7195048
-1.7825425 -1.334975 2.7407074
1.4743825 -1.3230689 2.7240224
2.0276432 -1.31968 2.7343132
2.072078 -1.3207661 2.721312
2.1170075 -1.335055 2.7251701
2.376847 -1.3297958 2.7255843
-1.95793 -1.2582067 2.7060833
-1.9187635 -1.2677321 2.7209234
-1.8763243 -1.2797379 2.7326269
-1.8414149 -1.2961299 2.74084
1.49019 -1.27639 2.7216003
1.50147 -1.25009 2.71614
2.04515 -1.2908 2.7493401
2.0773149 -1.295295 2.74333
2.3910351 -1.2893274 2.7323399
2.4075825 -1.2735901 2.7160575
-2.0141098 -1.2148467 2.7064168
-1.976411 -1.2254866 2.724349
-1.9363567 -1.2346267 2.7384768
1.49674 -1.2436399 2.7485001
1.511765 -1.2273266 2.7203586
2.4231498 -1.2274612 2.7271852
-2.117655 -1.15606 2.7065101
-2.06916 -1.1716866 2.7217054
-2.0265336 -1.1799263 2.736505
-1.990965 -1.1971 2.7401199
1.5259287 -1.1730525 2.7181599
2.441396 -1.1786439 2.7297001
2.4575448 -1.1626699 2.70735
-2.16675 -1.11151 2.7079401
-2.1272523 -1.1252489 2.7250786
-2.0881801 -1.1413651 2.7358599
1.5438759 -1.128796 2.7322919
1.5588551 -1.104905 2.713835
2.4672582 -1.1227401 2.7273235
-2.2611351 -1.0558901 2.7065401
-2.2181268 -1.0723977 2.7217968
-2.1780758 -1.0890785 2.7310698
-2.14259 -1.09944 2.74441
1.5692512 -1.0727999 2.7265439
2.4918668 -1.0715584 2.7288132
-2.3593099 -1.00008 2.70456
-2.316272 -1.013906 2.7166519
-2.2771602 -1.0293462 2.7235763
-2.2380667 -1.0371033 2.7414501
1.587945 -1.028445 2.7219124
1.60313 -1.0057549 2.7216401
2.5092716 -1.0271634 2.724165
-2.4150169 -0.96233302 2.7095699
-2.3726418 -0.96540332 2.7257233
-2.3342173 -0.98477596 2.7323716
-2.2913699 -0.99939001 2.7470801
1.6143376 -0.97919321 2.7238061
1.73704 -0.99457598 2.7007899
2.53021 -0.97425646 2.724813
-2.5230501 -0.90024501 2.7063899
-2.4712424 -0.91637623 2.7126522
-2.4285238 -0.92929775 2.7296414
-2.3896351 -0.94198948 2.7426748
1.6359644 -0.93077815 2.725853
1.6711267 -0.9199183 2.7120502
1.711902 -0.92223197 2.727494
2.5443449 -0.94205451 2.729115
2.5596676 -0.91693425 2.7288575
-2.5607824 -0.86188424 2.7118526
-2.5247288 -0.87534273 2.7263901
-2.4779174 -0.89068276 2.7351775
-2.4492099 -0.89794803 2.7469201
1.6759167 -0.89239031 2.7400036
2.5755298 -0.87747324 2.7194581
-2.6214299 -0.81561077 2.7182641
-2.5782516 -0.82862991 2.728997
-2.5437 -0.83901 2.74523
2.5870483 -0.82945836 2.7248874
-2.75156 -0.75106198 2.70911
-2.7207301 -0.75845373 2.7220626
-2.6742156 -0.78009748 2.7237146
-2.6333866 -0.79000998 2.7413902
2.5978751 -0.78951454 2.7466049
2.6124732 -0.77737683 2.7165651
-2.8108599 -0.70475298 2.71684
-2.7709501 -0.71881109 2.7200251
-2.7286673 -0.72564703 2.7371049
-2.6860933 -0.74310702 2.7457764
2.6324141 -0.72324097 2.7212081
-2.8505499 -0.652897 2.704
-2.8176379 -0.66587842 2.7184176
-2.7865422 -0.67304134 2.7415919
2.6428299 -0.68003261 2.7349858
2.65412 -0.66456997 2.7049899
-2.9225767 -0.61228496 2.7087967
-2.8737514 -0.61891317 2.7237985
-2.8336275 -0.62845349 2.7379277
-2.7975299 -0.63512301 2.7470901
2.64709 -0.64117402 2.73419
2.6617637 -0.61972678 2.7216601
-3.0202198 -0.56708127 2.7147133
-2.980576 -0.57387018 2.730732
-2.9298849 -0.57975149 2.7365716
-2.88413 -0.58906698 2.7477901
2.68257 -0.5719412 2.719934
-3.0738726 -0.51516402 2.7192051
-3.0199573 -0.5284394 2.73441
2.694365 -0.52563202 2.7317474
2.710717 -0.50921732 2.7165802
-3.1568799 -0.46000201 2.7059
-3.12308 -0.46472231 2.7175801
-3.0857418 -0.48152849 2.7291749
-3.03177 -0.491377 2.7465301
2.7269051 -0.46995518 2.7228985
-3.2210166 -0.41519666 2.7135365
-3.1695983 -0.42214814 2.7267218
-3.1300299 -0.43590769 2.7377501
2.7447975 -0.42362624 2.7338901
2.754755 -0.4100365 2.72173
-3.2667875 -0.36998749 2.7223525
-3.227262 -0.37674639 2.7315719
-3.18994 -0.390315 2.7427299
2.7664418 -0.370442 2.7252522
-3.2877901 -0.338837 2.7350099
2.7823861 -0.33258218 2.7259779
2.8011899 -0.31518 2.7144499
2.7932701 -0.29867199 2.7398701
2.8092926 -0.27605474 2.7177997
1.5356901 -0.20240849 2.745995
1.5781432 -0.203197 2.7395165
1.628866 -0.21031061 2.7357879
1.6745324 -0.21299925 2.7333376
1.7255217 -0.21429168 2.7286203
1.7759275 -0.21590652 2.7290275
1.81089 -0.22654356 2.7260358
2.8233681 -0.23186281 2.7236922
1.4273609 -0.17125992 2.7289307
1.472862 -0.17640901 2.7216277
1.526333 -0.18024273 2.7234857
1.5818449 -0.1833095 2.7068501
1.6259949 -0.18826249 2.7100248
1.6761667 -0.18981834 2.7137334
1.729295 -0.19163901 2.72035
1.7700733 -0.19204099 2.7059402
1.81126 -0.193266 2.70661
2.8456533 -0.187849 2.7247
2.8536932 -0.16439499 2.7230332
1.4274125 -0.133782 2.71419
1.45268 -0.113999 2.7462299
2.8715601 -0.12342925 2.7232699
-2.7095599 -0.076736949 2.7427299
1.449445 -0.0918817 2.7242599
1.4609917 -0.072993733 2.7243249
2.8950367 -0.070465967 2.72313
2.9087601 -0.0525994 2.7046199
1.475774 -0.027929559 2.72506
2.9162323 -0.026062701 2.7277775
-2.6301 0.0176339 2.7223599
-1.17169 0.027983399 2.7199829
-1.1216913 0.026074836 2.7111886
-1.0760421 0.018998528 2.7178228
-1.0262907 0.02480771 2.7286422
-0.98412049 0.010793602 2.7313275
-0.93835801 0.041019399 2.7372601
1.4936934 0.01499652 2.7252634
1.5060251 0.032932349 2.7231326
2.93871 0.018728549 2.7327998
2.9601667 0.018672897 2.7100134
-2.5841568 0.067904934 2.7236233
-1.067845 0.0545705 2.7050099
-1.0360857 0.074953012 2.7198365
-0.92624903 0.0545642 2.74458
1.5200649 0.072431371 2.7234523
2.960695 0.081647798 2.7202802
-2.5689199 0.1215716 2.728066
-1.28002 0.124968 2.7056301
-1.04182 0.116115 2.7337499
1.5357815 0.123398 2.7337017
2.9840915 0.12725867 2.7243531
-2.601615 0.1775835 2.718235
-2.583786 0.1624018 2.73018
1.5375456 0.17411457 2.7346301
1.558465 0.17722674 2.7147877
1.77907 0.19434901 2.7197001
1.8056099 0.19560599 2.7289901
3.0095866 0.17600566 2.7186534
-2.60496 0.23173267 2.7286701
-2.5997601 0.2033705 2.729965
1.5393901 0.21047875 2.7358224
1.5590872 0.22559215 2.7186456
1.7288599 0.23727801 2.71665
1.7738326 0.21278499 2.71819
3.0269215 0.21937181 2.7264998
-2.6097751 0.26688623 2.721185
-2.5941651 0.26275599 2.7351751
1.5824951 0.27640483 2.7202301
1.620665 0.29163802 2.7093
1.6794751 0.28024501 2.7205451
1.72428 0.27593526 2.7378399
1.75967 0.25546399 2.7481699
3.0385969 0.26258734 2.7287166
3.056385 0.2932685 2.7151551
-2.61077 0.30698299 2.74928
1.619162 0.3140054 2.7303801
1.6690868 0.31653431 2.7454135
3.0669661 0.3271206 2.7183318
-2.78529 0.38395301 2.7234149
3.0759921 0.37264881 2.7284498
-2.8004601 0.402309 2.72122
-2.7899899 0.40330201 2.7412701
1.99979 0.436611 2.7378299
2.0265801 0.439026 2.7432699
3.0872467 0.41276702 2.7252767
3.1110868 0.43809566 2.7103767
1.63859 0.48606199 2.71647
1.938655 0.46830401 2.70962
1.991565 0.45804799 2.7233448
2.0286801 0.45515001 2.7439599
3.1187232 0.47714901 2.72312
1.5826526 0.51285577 2.7219427
1.61239 0.51183999 2.70016
1.887634 0.52284378 2.7150462
3.1308153 0.52197331 2.7218549
1.870145 0.55283201 2.7381301
1.9179626 0.57594299 2.7332973
1.9668 0.56063098 2.7353201
3.1424251 0.572294 2.7413101
3.1543968 0.58038598 2.7166798
1.90616 0.60291201 2.73505
3.14833 0.601515 2.74174
3.1609874 0.63030702 2.7309027
3.1728961 0.67563719 2.7295518
3.18015 0.72336638 2.7333121
3.133075 0.79248101 2.741055
3.1764569 0.77591956 2.7223058
2.932385 0.84296453 2.7404351
2.9714999 0.84621698 2.72788
3.0262299 0.83522248 2.7328825
3.07305 0.83104897 2.7274499
3.1195517 0.82653588 2.7203534
3.1618452 0.82077396 2.7084851
1.88414 0.88951665 2.74561
1.9232801 0.89304668 2.73806
1.9744067 0.88898468 2.7385864
2.0292125 0.8876062 2.7365751
2.0738921 0.88748741 2.7311063
2.1232851 0.88407552 2.7386575
2.1690226 0.88947326 2.7339773
2.2246268 0.88387728 2.7387066
2.2808099 0.89212447 2.7331126
2.3204279 0.88128698 2.7341342
2.368365 0.88228655 2.7315798
2.4215982 0.88095385 2.7316115
2.47052 0.88624769 2.7232275
2.5309961 0.88241214 2.7329822
2.5662451 0.87870204 2.7301474
2.6222327 0.88299602 2.7348526
2.6711721 0.88286602 2.72644
2.7164838 0.88135213 2.7233059
2.7782261 0.87413436 2.738112
2.8238952 0.88125986 2.7208917
2.8765366 0.8700915 2.7221432
2.9255676 0.87155324 2.7181573
2.9730999 0.869349 2.71241
3.0263751 0.8604275 2.7098501
3.0679398 0.86203033 2.7033968
1.5201432 0.94504833 2.7434502
1.5744549 0.94307971 2.74034
1.626334 0.93500865 2.7395501
1.6790714 0.93613482 2.7367573
1.7269169 0.92819613 2.731108
1.7724249 0.93058676 2.7241237
1.8251822 0.92698222 2.7273357
1.8701022 0.9243145 2.7209854
1.9283913 0.92087263 2.7226136
1.9744782 0.91701055 2.7140734
2.0222301 0.9126128 2.7092662
2.0829501 0.9140265 2.7067299
2.1204724 0.907731 2.711555
2.17414 0.90921497 2.7023401
2.2216399 0.9023636 2.7185967
2.2771235 0.91464901 2.7110865
2.31095 0.91158599 2.7005799
2.3731601 0.90606529 2.7146034
2.41606 0.90951997 2.7007
2.4865699 0.90293002 2.7049651
2.5288799 0.90890002 2.70368
2.5883501 0.90046501 2.7084701
2.6356049 0.90773451 2.7102599
2.6723001 0.911259 2.7004199
2.73119 0.90155101 2.70082
2.8752198 0.90397298 2.700985
1.0023 0.99783802 2.7460799
1.0733099 0.98988301 2.7477851
1.1286033 0.99430865 2.7433634
1.1778959 0.99118078 2.7363081
1.2221757 0.98723018 2.7380002
1.2766485 0.98205119 2.7374158
1.324783 0.98190391 2.7276452
1.376801 0.9788413 2.728065
1.4252867 0.9739309 2.7270348
1.4724244 0.97051418 2.7219791
1.5216486 0.96928567 2.7209413
1.570236 0.9672426 2.7179139
1.6169285 0.96093613 2.7124772
1.6729181 0.96281558 2.7098122
1.7133501 0.96066701 2.70502
1.76987 0.951168 2.7009399
0.63797247 1.0444751 2.7451401
0.6769762 1.0410459 2.7451379
0.7244311 1.0382088 2.7388322
0.77657348 1.0383263 2.7365813
0.82286751 1.031839 2.7345729
0.87467635 1.0327308 2.7301137
0.92476916 1.0256716 2.7298408
0.97561777 1.024882 2.7228103
1.0283208 1.0213507 2.7226715
1.0726837 1.0175036 2.7190709
1.1212456 1.0163767 2.7167664
1.1704037 1.0148175 2.7128825
1.23008 1.0082299 2.7177765
1.2726486 1.0105144 2.7134497
1.3170301 1.00599 2.7104366
0.238113 1.09987 2.7398
0.27954468 1.0960132 2.7398403
0.34240949 1.09004 2.7449899
0.37964058 1.084448 2.742522
0.42496172 1.0866721 2.7348251
0.47470149 1.0832826 2.731431
0.52447331 1.0788714 2.7272801
0.57593173 1.0748843 2.7282493
0.62417752 1.0722843 2.7243893
0.67560536 1.0699054 2.7190127
0.72166967 1.0646262 2.714535
0.77418965 1.0641401 2.7096214
0.83004755 1.0564933 2.7147331
0.87175399 1.0561099 2.70292
0.909738 1.0526199 2.70467
0.977925 1.05801 2.7002699
-0.105929 1.1471601 2.74878
-0.071305998 1.145555 2.7456651
-0.022997603 1.1430566 2.7401698
0.028114183 1.1361228 2.7394016
0.073132217 1.1376101 2.7308025
0.12278979 1.1313932 2.7326398
0.17583577 1.1311026 2.7251501
0.22270544 1.1256272 2.7224863
0.27179414 1.1204728 2.7223778
0.32492429 1.1154249 2.7215374
0.37511525 1.1121911 2.7191989
0.42295209 1.11432 2.7109931
0.47920957 1.108852 2.705132
0.52704102 1.10035 2.70772
0.56179899 1.1010799 2.70384
-0.37949961 1.195148 2.7389598
-0.32179999 1.1885836 2.74051
-0.27021572 1.1871672 2.733577
-0.22345105 1.1825949 2.7340574
-0.17467707 1.1798717 2.7304049
-0.12465848 1.1778094 2.7239413
-0.070920967 1.1743312 2.720892
-0.024190415 1.1677201 2.7169697
0.025101796 1.1641433 2.7157409
0.070137635 1.161738 2.7093463
0.12070417 1.1574632 2.7099483
0.16822565 1.1598366 2.7011099
-0.67568451 1.2416233 2.7381485
-0.62381411 1.2371162 2.7374287
-0.57062197 1.2297746 2.7348502
-0.52598149 1.2264323 2.7333658
-0.47458833 1.2267079 2.7278831
-0.42695081 1.2192857 2.7263348
-0.3765974 1.221 2.7176476
-0.32680136 1.2162766 2.7119865
-0.28096572 1.2082628 2.7132728
-0.22201201 1.2096801 2.7051926
-0.17370801 1.2080201 2.7041132
-0.146006 1.2059 2.7005799
-1.03563 1.29133 2.74507
-0.971219 1.29331 2.7420266
-0.92269737 1.285614 2.740176
-0.87547225 1.2931367 2.7349348
-0.82683581 1.2848758 2.7363758
-0.78079987 1.2797683 2.7274578
-0.72627825 1.2687343 2.7224765
-0.67516488 1.2683642 2.7160714
-0.62813252 1.2599784 2.7141316
-0.58119762 1.2570734 2.7097502
-0.532722 1.257565 2.7065649
-0.48903751 1.25292 2.702755
-1.4103501 1.3487101 2.74859
-1.37187 1.3409801 2.7453699
-1.3255633 1.3401684 2.7402833
-1.273315 1.3327984 2.7355468
-1.2260489 1.3299369 2.7321758
-1.1727872 1.3279837 2.7315392
-1.1243609 1.323005 2.7307317
-1.0736274 1.3259064 2.7266536
-1.021251 1.318321 2.7246871
-0.9769882 1.3190529 2.7198849
-0.91825187 1.3141656 2.7137444
-0.87086415 1.3151433 2.7094967
-0.82901919 1.3110501 2.7146518
-1.7199399 1.3938501 2.7424202
-1.6674867 1.3911867 2.7380497
-1.6152875 1.3880675 2.7323375
-1.5719316 1.3817673 2.7272561
-1.52574 1.3785411 2.7276411
-1.4751626 1.3764046 2.7247717
-1.4275733 1.3738199 2.7202022
-1.373432 1.3654678 2.7179613
-1.3224261 1.3626621 2.7148862
-1.2786241 1.363484 2.7089341
-1.226106 1.360966 2.7064159
-1.1962 1.35144 2.7114401
-1.135375 1.355605 2.7021949
-2.0289001 1.4479151 2.741735
-1.9765533 1.44145 2.737397
-1.9220381 1.4272501 2.7369678
-1.8753914 1.42963 2.7291644
-1.8259625 1.431595 2.7244239
-1.7732172 1.422773 2.7245157
-1.72682 1.4174051 2.7201383
-1.6732783 1.4162134 2.7131033
-1.63309 1.40602 2.7151766
-1.59838 1.40368 2.7109201
-1.53738 1.40616 2.7010801
-2.2725933 1.4898334 2.7449501
-2.225795 1.4910951 2.741075
-2.1727724 1.4867175 2.7347527
-2.1161067 1.4792284 2.7223835
-2.0705233 1.47059 2.7264433
-2.0196774 1.4662075 2.7188652
-1.9742839 1.4673721 2.7127719
-1.9319767 1.4615465 2.7149265
-1.876505 1.45678 2.7009549
-1.84389 1.45015 2.70192
-2.70363 1.54224 2.74598
-2.5707998 1.5393625 2.73825
-2.5163066 1.5410867 2.7309434
-2.4730399 1.5348901 2.7228167
-2.4299421 1.531486 2.734288
-2.3707643 1.5230739 2.7266538
-2.3199141 1.520726 2.7195039
-2.2742317 1.5197684 2.7168169
-2.2190249 1.5122274 2.7219825
-2.1640401 1.5061901 2.7130899
-2.8789902 1.5836201 2.7427001
-2.8182299 1.5893101 2.74073
-2.77356 1.58903 2.74105
-2.7341001 1.5834934 2.7428665
-2.6678734 1.5808266 2.7208233
-2.62427 1.5679924 2.7242925
-2.5759475 1.5731499 2.7130752
-2.5296149 1.5700099 2.706845
-2.47348 1.556975 2.7082701
-2.44262 1.5541199 2.7209201
-3.06616 1.64797 2.7216699
-3.00895 1.6377 2.7393701
-2.94417 1.62301 2.7467599
-2.85144 1.61113 2.7163799
-2.8227799 1.6241 2.71292
-2.7728901 1.611215 2.71246
-2.7339599 1.60455 2.72177
-3.1417699 1.66778 2.7153699
-3.05951 1.6638 2.7058201
-3.00454 1.65459 2.7261801
-2.9809201 1.65205 2.73857
-0.41050199 -2.2030101 2.7600901
-0.37689719 -2.212985 2.7713134
-0.32837182 -2.2318413 2.7873714
0.58127362 -2.2168767 2.7574768
0.62322271 -2.2154543 2.7736928
0.66819298 -2.2435 2.79686
0.70138699 -2.2439599 2.79058
-0.4670364 -2.164124 2.7651501
-0.42653853 -2.1732934 2.7760079
-0.38771626 -2.1857948 2.7873473
0.58863598 -2.1921966 2.7877333
-0.52412647 -2.1151652 2.7653711
-0.4790822 -2.1354899 2.7833483
-0.44284999 -2.13833 2.7972
-0.62638468 -2.0590234 2.7560165
-0.57542408 -2.0746577 2.7743132
-0.524391 -2.0903776 2.7924399
0.74267906 -2.0758867 2.7809134
-0.70840663 -2.0095668 2.7554369
-0.67083085 -2.0200572 2.7657683
-0.62970799 -2.0332937 2.7792025
-0.59820199 -2.0387101 2.79655
0.74548501 -2.0290399 2.795265
0.75610566 -2.0223835 2.7666633
-0.75930333 -1.9627833 2.7625768
-0.7273308 -1.9754219 2.7740941
-0.67732364 -1.9893742 2.7885518
0.76538646 -1.983945 2.7738552
1.1372 -1.95153 2.75243
1.17536 -1.96123 2.7546401
-0.82365662 -1.9122614 2.7683902
-0.78085458 -1.9305264 2.7788947
-0.73617899 -1.94442 2.7948799
0.78146631 -1.9429365 2.7747166
1.0337 -1.9085851 2.7527199
1.0722275 -1.9125074 2.7642074
1.1220521 -1.924367 2.7775872
1.1784412 -1.9340333 2.7810645
-0.91131198 -1.8642839 2.7616458
-0.87077087 -1.8733853 2.7744682
-0.83199275 -1.8861074 2.7912974
0.786358 -1.88544 2.7512801
0.80850202 -1.8627567 2.7657802
0.94918102 -1.8520499 2.7559099
0.98282224 -1.8636174 2.7649076
1.0271868 -1.8795757 2.777529
1.0764151 -1.8880551 2.7936201
1.2376933 -1.8604268 2.7813766
1.2637333 -1.8697449 2.7628019
-0.97024047 -1.8144381 2.7699478
-0.92942947 -1.8373178 2.7774522
0.81065482 -1.8252121 2.776726
0.89215946 -1.8088349 2.7696075
0.92527515 -1.8279688 2.774955
0.96929818 -1.8413299 2.787972
1.23496 -1.82423 2.7932799
1.2800772 -1.8338716 2.782516
-1.0661434 -1.7627183 2.7605047
-1.0252537 -1.7747402 2.7751718
-0.98602599 -1.7850626 2.79088
0.82835275 -1.7741116 2.7683468
0.8678202 -1.7810518 2.7813349
1.2950799 -1.79369 2.7718301
1.3088299 -1.7665334 2.7735999
-1.1656367 -1.70359 2.7602932
-1.118551 -1.7204149 2.7666459
-1.077695 -1.7300138 2.7826486
-1.04388 -1.74014 2.79322
0.83458799 -1.748155 2.785825
1.3178834 -1.7287933 2.7760518
-1.25973 -1.65713 2.7511001
-1.2255861 -1.663656 2.761034
-1.1750408 -1.6744617 2.776866
-1.1259425 -1.6887749 2.7923748
1.3386835 -1.6734685 2.7777834
-1.30775 -1.6115299 2.7585199
-1.272909 -1.6212964 2.7736399
-1.2275501 -1.6393472 2.7828257
-1.1859601 -1.6473401 2.79672
1.345925 -1.632815 2.7929649
1.3596799 -1.6247619 2.774832
-1.41327 -1.5531449 2.7547951
-1.3730224 -1.5678775 2.76706
-1.3285491 -1.5788465 2.7770545
-1.29179 -1.5913267 2.7891934
1.373858 -1.5711939 2.7708802
-1.4603634 -1.5140066 2.7600601
-1.4246602 -1.5254567 2.772624
-1.3841367 -1.5322 2.7901967
1.390884 -1.5215762 2.7722621
1.40291 -1.52062 2.75669
-1.5613933 -1.4574432 2.7579165
-1.5225841 -1.4706678 2.768497
-1.48033 -1.4814878 2.7822158
-1.437535 -1.4991651 2.7930598
1.3975 -1.4836 2.7604499
1.4081274 -1.4631449 2.773185
-1.621896 -1.4161819 2.7619619
-1.5758233 -1.4240412 2.7755489
-1.5402199 -1.43578 2.7902167
1.4242849 -1.4297415 2.7748935
2.1751359 -1.4271539 2.779088
2.2217 -1.40544 2.7543399
2.2775667 -1.4281501 2.7659266
2.3150184 -1.41951 2.7746868
-1.7167234 -1.3574533 2.7571399
-1.6750828 -1.3692809 2.7724128
-1.6324775 -1.3846588 2.7835572
-1.5976599 -1.39763 2.7918999
1.4381434 -1.3762535 2.7723119
2.18571 -1.35955 2.75596
2.23385 -1.39592 2.77652
2.3196461 -1.3719139 2.7785301
-1.7708657 -1.3165729 2.7626202
-1.7232332 -1.3287978 2.7808235
-1.6859699 -1.34117 2.7943599
1.4452701 -1.3445449 2.7805252
1.45884 -1.3248349 2.7700033
2.04865 -1.30362 2.7869301
2.05726 -1.32585 2.7920401
2.1258299 -1.30977 2.75806
2.1723561 -1.320266 2.7734101
2.3311331 -1.3277816 2.7731235
2.3640924 -1.317745 2.7655025
-1.86097 -1.2575833 2.7588634
-1.8197018 -1.2724198 2.7698827
-1.7764637 -1.2821176 2.7872949
-1.7378 -1.29619 2.7954299
1.4814337 -1.2747637 2.7744436
2.043535 -1.27538 2.7896152
2.0758855 -1.2716372 2.7790456
2.1213498 -1.278615 2.7814975
2.1703 -1.29266 2.7958801
2.3487201 -1.29093 2.7997999
2.3805802 -1.2717686 2.778487
-1.9237599 -1.2206668 2.7582786
-1.8791487 -1.2249244 2.7776699
-1.84161 -1.23567 2.7941134
1.49614 -1.2311532 2.7789268
1.5064768 -1.2115599 2.7681034
2.0425401 -1.24979 2.79772
2.1126499 -1.24485 2.7992499
2.4113519 -1.224414 2.7799182
-2.0149066 -1.1599234 2.7614734
-1.9734025 -1.1753517 2.775449
-1.9268669 -1.1881633 2.7867334
1.514856 -1.18136 2.770364
2.4325035 -1.1756967 2.7752216
-2.1062601 -1.11395 2.7546
-2.0704312 -1.1239287 2.7663128
-2.0261657 -1.1306742 2.7803743
-1.989675 -1.14077 2.792295
1.5323601 -1.1300272 2.7744143
1.5518399 -1.10096 2.7579
2.4440351 -1.14218 2.7839999
2.4562249 -1.1223074 2.7712326
-2.1689498 -1.0591176 2.7609975
-2.1253538 -1.0765655 2.7727315
-2.077425 -1.09132 2.7872837
-2.0404699 -1.09727 2.7983899
1.54983 -1.0951 2.79424
1.561064 -1.0694679 2.7716441
2.4711173 -1.0818144 2.7758355
-2.264755 -1.00693 2.75881
-2.222302 -1.02508 2.76548
-2.1811564 -1.0287988 2.7831562
-2.14116 -1.04093 2.79426
1.5808725 -1.0228212 2.7700801
2.49071 -1.0392267 2.7773964
2.5054567 -1.0148934 2.7685535
-2.31933 -0.95820379 2.7624323
-2.2750132 -0.97394103 2.7785869
-2.2275681 -0.99235725 2.7888522
1.59127 -0.99465901 2.7756948
1.609404 -0.96785533 2.7778339
2.5153601 -0.97476602 2.7752349
-2.40482 -0.910873 2.7535999
-2.3697071 -0.92232865 2.7714329
-2.32705 -0.93025303 2.7854319
-2.29017 -0.938963 2.79514
1.6308329 -0.92193878 2.7751026
2.5357659 -0.92599422 2.7737319
2.5555999 -0.90592802 2.7688999
-2.50401 -0.86278248 2.7570548
-2.4695439 -0.86534625 2.7666619
-2.428618 -0.87420553 2.78141
-2.3839076 -0.89291698 2.7887847
1.6435267 -0.88440496 2.7900298
1.6709623 -0.87320793 2.7675922
1.719475 -0.87112796 2.7758224
2.5445349 -0.88203454 2.7957549
2.5640352 -0.87096548 2.7710516
-2.5596302 -0.81367898 2.7587633
-2.51824 -0.82060111 2.774544
-2.4770262 -0.8314864 2.7901559
1.6760149 -0.84566045 2.79374
1.70485 -0.84849101 2.79128
2.5800917 -0.82008976 2.7799218
-2.6206267 -0.7690618 2.7686901
-2.5734735 -0.78546804 2.7755668
-2.5453401 -0.79338598 2.7894499
2.59548 -0.77666545 2.7799101
2.6069899 -0.75622731 2.7754533
-2.7550001 -0.70389599 2.75335
-2.7150567 -0.70694637 2.7629967
-2.6751568 -0.72522324 2.774318
-2.6358781 -0.73576385 2.7893939
2.6236351 -0.72475797 2.7733467
-2.7627101 -0.66504073 2.7607002
-2.7291183 -0.67531031 2.7838848
2.6400251 -0.67754048 2.7764726
-2.8196702 -0.60896724 2.7740049
-2.7820976 -0.62872571 2.7793627
2.6471801 -0.63884604 2.7835703
2.6558499 -0.61050999 2.7654901
-2.92173 -0.55881101 2.7736549
-2.8703749 -0.56956679 2.7736714
-2.8285301 -0.58409619 2.7869952
2.6707871 -0.57690912 2.7711012
-2.9722598 -0.52528089 2.7643499
-2.93413 -0.5282042 2.7869401
-2.8936901 -0.54053003 2.7959399
2.6885641 -0.52934104 2.7782662
-3.0763202 -0.468043 2.7590652
-3.0274084 -0.4686887 2.7714651
-2.9881032 -0.48505035 2.7795899
-2.9440899 -0.48881701 2.78934
2.6956999 -0.49074301 2.77858
2.713264 -0.4696548 2.767626
-3.1179342 -0.4178412 2.7710841
-3.0816898 -0.43594933 2.7782764
-3.0248899 -0.439621 2.7935901
2.7320814 -0.42205355 2.7772133
-3.203445 -0.363904 2.7571349
-3.1711841 -0.36874241 2.7729621
-3.1394999 -0.38393497 2.7835331
2.7455249 -0.37866551 2.7799702
2.7595875 -0.36548901 2.7716174
-3.325315 -0.31408799 2.7687402
-3.2779 -0.31772381 2.7739558
-3.227855 -0.32897949 2.7815249
-3.19716 -0.33714601 2.7860799
2.782192 -0.3147096 2.7785959
-3.324935 -0.27666301 2.7877374
1.5768725 -0.25444126 2.7912352
1.6235862 -0.26407823 2.7732122
1.67465 -0.26459903 2.769958
1.726846 -0.26455218 2.784554
1.7789729 -0.27057785 2.7864327
1.8064051 -0.265176 2.7725649
2.7943401 -0.27764967 2.7854033
2.804805 -0.2733745 2.7533751
-3.3211398 -0.2476825 2.7865949
1.3912333 -0.205595 2.7813301
1.4236426 -0.22008224 2.7868726
1.4786761 -0.2171227 2.7734041
1.5244366 -0.23196244 2.7807913
1.5770543 -0.2298537 2.763783
1.621405 -0.231214 2.7555399
1.6783733 -0.23190467 2.7571068
1.72543 -0.23855369 2.7585099
1.781775 -0.2411105 2.7679701
2.8156834 -0.23029949 2.7726014
1.39618 -0.18577801 2.7692201
1.4134479 -0.180306 2.7692301
2.8364818 -0.177517 2.7748032
-2.76455 -0.13975599 2.7965801
-2.7215075 -0.1165365 2.7766225
-2.6807334 -0.10275367 2.7733266
1.4270519 -0.12396045 2.779711
2.8498399 -0.142106 2.7734499
2.8631461 -0.1207598 2.7679279
-2.6742539 -0.070285447 2.7712038
1.4437726 -0.078856476 2.7808926
1.4546534 -0.06172457 2.7625701
2.8898599 -0.071011014 2.7661235
-2.6749775 -0.025180101 2.78406
1.4681667 -0.028269432 2.77176
2.8984001 -0.035127301 2.75879
2.9060133 -0.023330934 2.7876403
-2.6611099 0.009314701 2.78494
-2.63924 0.035013601 2.7771702
-1.1380301 0.00064119202 2.78423
-1.00239 0.041441601 2.75069
-0.98372686 0.03341582 2.7655578
1.4905699 0.02003715 2.7746334
2.9251549 0.018803395 2.76824
-2.6401701 0.052345399 2.7932
-1.0178901 0.073677659 2.7650864
-0.99372053 0.055703651 2.7890799
1.4969701 0.073781796 2.79702
1.5071681 0.076182283 2.7689118
2.9405699 0.055161949 2.78245
2.9577935 0.073382862 2.7713635
-2.5862401 0.13733099 2.7946501
-1.0319067 0.11475933 2.7610569
1.5183953 0.12643673 2.7710264
2.9776449 0.13721201 2.7664299
-2.5771234 0.17635566 2.7779586
1.5191001 0.1707505 2.7729082
1.85203 0.198976 2.7674799
2.99224 0.17108066 2.76771
3.0035501 0.183172 2.7558999
-2.6099899 0.22183999 2.75476
-2.5872867 0.22209783 2.7761867
1.5420699 0.213872 2.790025
1.5604399 0.235366 2.77174
1.8226 0.243866 2.7673049
3.0121765 0.22099383 2.7779818
-2.6013601 0.29080901 2.7711201
-2.5928566 0.2735143 2.7735698
1.5676622 0.27872622 2.7776177
1.7424001 0.27010599 2.7514601
1.790995 0.28052098 2.76335
1.832195 0.27570701 2.779475
3.0336301 0.27684435 2.7720482
-2.5937543 0.32186642 2.7786679
1.5742 0.30997351 2.77367
1.626626 0.33848819 2.7668319
1.68138 0.3357735 2.758595
1.7237434 0.32922199 2.7748632
1.77679 0.32368076 2.7851424
3.0463867 0.32082033 2.7746665
3.0533099 0.332513 2.7579999
1.6344627 0.37111944 2.7806029
1.6813517 0.37633833 2.7867734
1.72373 0.37145901 2.7921352
1.91313 0.38976499 2.7938051
1.97759 0.39326701 2.7912199
2.0095301 0.394896 2.7885201
3.04865 0.35255599 2.78476
3.0640881 0.37532899 2.7768102
-2.8006301 0.40738201 2.7823701
-2.77788 0.44192201 2.7864101
1.638395 0.42123735 2.77985
1.678035 0.40556902 2.77777
1.88715 0.43585801 2.7976201
1.9095275 0.4222185 2.7684798
1.9911001 0.41634899 2.7757049
2.0270901 0.41516867 2.7681401
3.0835965 0.42621103 2.7812166
3.10145 0.447339 2.7560401
1.61085 0.47623801 2.7688601
1.8932433 0.45680436 2.7932167
1.90022 0.466315 2.7807801
3.09482 0.47713351 2.7795448
3.1075649 0.47619098 2.7578051
3.1177318 0.52610463 2.7768433
1.89536 0.58893597 2.7537401
3.1253426 0.57438201 2.77635
1.88728 0.60680801 2.7708099
1.9175934 0.62025732 2.7704833
1.9688901 0.62134498 2.7812202
3.1388652 0.62407535 2.7803934
1.8405 0.68448198 2.78198
1.9008501 0.65811002 2.7816899
3.1402249 0.673599 2.78983
3.1549201 0.67265153 2.769105
-3.0198698 0.72879899 2.7767451
-2.98982 0.71896303 2.79772
3.08904 0.736817 2.7980599
3.1312561 0.72441924 2.7852418
3.1623733 0.72164202 2.7662265
2.9145999 0.79077202 2.78529
2.9737968 0.79216737 2.7879035
3.0185275 0.78371954 2.7799151
3.067328 0.76722753 2.7845559
3.115366 0.77065545 2.7674758
3.15728 0.75832999 2.7537899
1.927155 0.845164 2.7966151
1.9717966 0.84411532 2.7917469
2.0226901 0.83900374 2.7902868
2.0841966 0.84103101 2.7895699
2.121515 0.84123623 2.7809451
2.16994 0.83472902 2.7886267
2.2274001 0.83989859 2.782846
2.279305 0.83863354 2.7951999
2.3321798 0.83893698 2.79127
2.3748474 0.84021223 2.78386
2.4291 0.83014572 2.78702
2.4762402 0.84303403 2.7744401
2.5189724 0.84003705 2.7761974
2.5629933 0.83238465 2.7851801
2.6325734 0.83469272 2.780823
2.6754334 0.82800072 2.7803135
2.7242138 0.82659358 2.7852561
2.777302 0.82556593 2.7824798
2.8239503 0.83690405 2.7687361
2.87779 0.825885 2.7734001
2.920315 0.81729871 2.7681251
2.9710166 0.82502729 2.7549801
3.0209134 0.81332368 2.7613833
3.0766349 0.80650496 2.7537999
1.512605 0.89401853 2.79828
1.5704168 0.89451933 2.7948134
1.6324899 0.8826502 2.7869821
1.6806799 0.88262463 2.7806799
1.7265 0.88091433 2.7812061
1.7740357 0.88314587 2.7766974
1.8242779 0.87410641 2.7752943
1.873233 0.8718037 2.7752931
1.9262587 0.86842299 2.7720244
1.9817178 0.86641234 2.7692702
2.0253751 0.86505491 2.7649815
2.0762601 0.86121273 2.7616699
2.1286099 0.86527199 2.7679701
2.1741083 0.86214519 2.764905
2.2296369 0.86603433 2.7612569
2.282496 0.86421764 2.762718
2.32742 0.85759902 2.7693
2.3763034 0.86307001 2.7631435
2.4224551 0.85344648 2.7730198
2.4732466 0.86388701 2.7600501
2.5046501 0.86106497 2.7539599
2.5802898 0.854581 2.7607899
2.63241 0.860138 2.752125
2.6944301 0.85387701 2.77285
2.72386 0.85467798 2.7546802
1.0848 0.94258749 2.7938349
1.1214349 0.942303 2.7941048
1.17626 0.94379026 2.788568
1.2199999 0.93715411 2.7828069
1.2743299 0.93276244 2.7867126
1.32445 0.93512279 2.7791567
1.3754237 0.93542612 2.7794225
1.4255999 0.92721391 2.7793896
1.4736755 0.92139089 2.7735562
1.5257988 0.9215011 2.7659876
1.5791286 0.9161793 2.77249
1.6217583 0.90743637 2.7675314
1.670874 0.90934384 2.7569261
1.71384 0.90813202 2.7560899
1.79316 0.901609 2.7543099
1.81517 0.90481001 2.75546
0.59478402 0.99826199 2.7967899
0.60921502 0.99886698 2.79603
0.67258966 0.9925766 2.792942
0.72483701 0.98899633 2.7900302
0.77646083 0.98701066 2.788255
0.82360685 0.98555571 2.7840016
0.88005811 0.98174989 2.7786481
0.92708993 0.97760338 2.7792253
0.97615534 0.9757728 2.7717879
1.0257491 0.9716273 2.7724726
1.07002 0.96887904 2.7717991
1.1206864 0.97395575 2.7679317
1.1729156 0.96820343 2.7623835
1.2348067 0.96218282 2.7638118
1.276994 0.95860195 2.7590101
1.3302034 0.95725936 2.7552135
1.36353 0.959957 2.7509601
1.41109 0.95235455 2.7604098
0.2341495 1.04456 2.7971599
0.27626401 1.0458474 2.7974174
0.32857174 1.0424775 2.7941349
0.37364775 1.0383312 2.7887275
0.42512187 1.0370643 2.7883399
0.47171986 1.0325242 2.781889
0.52600521 1.0294169 2.7752867
0.57412159 1.0266557 2.7775838
0.62624764 1.0243747 2.7717478
0.67797732 1.0151311 2.7707276
0.72530842 1.0118951 2.7664561
0.77415127 1.0093788 2.7652149
0.82254297 1.0072 2.7576182
0.87351435 1.0078441 2.755868
1.0199 1.0010999 2.7507401
-0.051285099 1.0888799 2.7995601
-0.020561436 1.09299 2.7942801
0.025343269 1.091485 2.7862439
0.073930316 1.0837278 2.7855024
0.12406339 1.0809039 2.7827885
0.17776906 1.0749131 2.778707
0.2261079 1.07397 2.7733476
0.27322918 1.0726254 2.7703362
0.32444274 1.0735101 2.7674334
0.3709951 1.0629668 2.7653847
0.42746425 1.0613101 2.7611537
0.47593465 1.0542034 2.7563236
0.51774365 1.0545965 2.7512436
-0.42637324 1.1455851 2.7990675
-0.37551269 1.14127 2.7939665
-0.32031435 1.1415516 2.7868216
-0.27512932 1.140645 2.7817681
-0.22572134 1.1313274 2.7816467
-0.17523131 1.1269219 2.7812839
-0.12751688 1.1236384 2.7759504
-0.071838126 1.1186143 2.7756438
-0.024562661 1.1199939 2.7679029
0.022964414 1.1159333 2.7628179
0.073580667 1.1123316 2.7594583
0.1176862 1.1074321 2.7575002
0.1768845 1.103785 2.7534425
-0.76783752 1.19989 2.7962098
-0.73041469 1.1976801 2.7986565
-0.67013353 1.1934384 2.7868216
-0.61976516 1.1869972 2.782187
-0.57569975 1.1838812 2.7801955
-0.52570868 1.1819843 2.7768168
-0.47478771 1.1784624 2.7754486
-0.42377061 1.17378 2.7705808
-0.37223226 1.1684046 2.7686045
-0.32663903 1.163728 2.7680142
-0.27395183 1.1638483 2.7612231
-0.22455074 1.153465 2.7586627
-0.17566667 1.1516132 2.7568665
-0.14777151 1.1573451 2.7529049
-1.06426 1.24895 2.7990301
-1.0481 1.24738 2.7999899
-0.96933025 1.2403725 2.7948475
-0.92452669 1.238165 2.791198
-0.87442416 1.2401049 2.788415
-0.82128298 1.2332265 2.7846701
-0.77284747 1.2276908 2.7757595
-0.72569853 1.225825 2.7682209
-0.68141782 1.2148863 2.7657199
-0.62643802 1.213835 2.7588711
-0.58180904 1.202405 2.758765
-1.41219 1.29602 2.7943201
-1.3704824 1.2931426 2.7923498
-1.3247881 1.289006 2.7928202
-1.27264 1.2837871 2.7852442
-1.2275114 1.2859 2.7820029
-1.1779279 1.2794023 2.781152
-1.122753 1.2764111 2.7723708
-1.0742882 1.2745781 2.774986
-1.025281 1.2741964 2.7739801
-0.97540015 1.2689691 2.770263
-0.92813873 1.2656186 2.7665641
-0.8799268 1.2633201 2.7623332
-0.83055496 1.26288 2.7602768
-0.784953 1.25062 2.75527
-1.714745 1.346415 2.7901502
-1.68731 1.34365 2.7962799
-1.61164 1.3351901 2.7855899
-1.5736958 1.3347342 2.7782817
-1.5245538 1.3252826 2.7817411
-1.4783374 1.334725 2.7686374
-1.424751 1.321148 2.7717071
-1.3745387 1.3160971 2.7705116
-1.328778 1.3175459 2.765764
-1.281396 1.309422 2.7637939
-1.2244667 1.3062501 2.7597301
-1.18304 1.30189 2.7637401
-1.0803499 1.3011 2.754365
-2.0612199 1.39754 2.7965
-1.96825 1.39601 2.7916
-1.9300599 1.3945999 2.782825
-1.8773017 1.3867216 2.7814667
-1.8252838 1.3831824 2.7763076
-1.7712801 1.3745798 2.7734628
-1.7253958 1.3677957 2.771677
-1.6754913 1.3696188 2.7675049
-1.629722 1.362676 2.7680562
-1.58113 1.3589667 2.7594135
-1.524725 1.3535099 2.7558751
-2.38867 1.44717 2.7969899
-2.30967 1.44831 2.79199
-2.2676849 1.438175 2.7887702
-2.2216239 1.43774 2.7819302
-2.1697497 1.4277575 2.7906952
-2.1230335 1.4315882 2.7834666
-2.0740628 1.425373 2.7744229
-2.024955 1.4195267 2.7715051
-1.9734 1.4173328 2.7649615
-1.9258399 1.40804 2.7701001
-1.89315 1.41034 2.76862
-1.8113 1.40756 2.7551551
-1.7807699 1.40256 2.75806
-2.6164701 1.49727 2.7966499
-2.5517499 1.48076 2.79036
-2.5139451 1.4833626 2.7928474
-2.46614 1.4886899 2.7799699
-2.429435 1.4824824 2.7858775
-2.3833449 1.4775201 2.7864575
-2.3273151 1.4746838 2.7707412
-2.2769649 1.46464 2.7738099
-2.2293451 1.4676775 2.7560472
-2.1849298 1.4607974 2.7641826
-2.129935 1.4550149 2.75423
-2.85777 1.54954 2.7865801
-2.8367801 1.5483 2.7983601
-2.7713649 1.5463901 2.774045
-2.7070699 1.521685 2.7764649
-2.6741827 1.525195 2.7785575
-2.6260257 1.519974 2.7711999
-2.5780048 1.5127674 2.7763553
-2.53004 1.5183226 2.764535
-2.49018 1.51038 2.7680449
-2.42065 1.5054051 2.7553973
-2.3468001 1.5023201 2.7515099
-3.0400801 1.59611 2.7941201
-2.88977 1.55668 2.78514
-2.8137 1.5544699 2.7679999
-2.7718301 1.56012 2.7509799
-2.7425799 1.55398 2.7536099
-2.65571 1.55391 2.7525201
-3.1773551 1.6268849 2.77736
-3.09252 1.62293 2.7641799
-3.01473 1.6215 2.7535901
-0.27028 -2.2570734 2.8105469
-0.21833 -2.2651274 2.8319299
-0.17358351 -2.27547 2.8393102
-0.14083999 -2.2792499 2.8453901
0.73647547 -2.26756 2.83039
0.76111197 -2.25775 2.8285201
-0.31770265 -2.2120466 2.8123567
-0.27022198 -2.2226021 2.8297255
-0.22999625 -2.2371526 2.8352976
0.6781584 -2.2143321 2.814996
0.71959084 -2.220825 2.8256426
0.76889277 -2.2312427 2.8411851
-0.37881801 -2.164716 2.8169601
-0.32820737 -2.1780665 2.8333154
-0.286639 -2.1893699 2.84884
0.58687896 -2.1845133 2.8208733
0.63120526 -2.1856487 2.8157656
0.66744298 -2.19225 2.82689
0.73097301 -2.1522801 2.8248401
-0.47200662 -2.1131978 2.8103402
-0.42492899 -2.1251287 2.8239698
-0.38486961 -2.132504 2.8405979
0.72117853 -2.1234298 2.836405
-0.55249798 -2.06249 2.80547
-0.5171681 -2.0672944 2.8175273
-0.47782111 -2.0785937 2.83481
-0.43909535 -2.0913632 2.8401201
0.736485 -2.0842524 2.8273976
-0.62531078 -2.0081351 2.8045225
-0.57457554 -2.0237284 2.8238792
-0.52865821 -2.0367501 2.83727
0.745426 -2.0050499 2.8098199
-0.70678198 -1.95847 2.8056901
-0.67370999 -1.9645113 2.8142145
-0.63302273 -1.9794225 2.8305328
-0.59997702 -1.99623 2.8324399
0.74856502 -1.99753 2.8313999
0.76528198 -1.9745766 2.8153431
-0.75941461 -1.91215 2.81358
-0.72305238 -1.9228189 2.8244369
-0.6803596 -1.9340022 2.8368421
-0.64727402 -1.94607 2.8482101
0.77973652 -1.927025 2.8176227
1.14563 -1.9013799 2.8108699
1.173715 -1.907295 2.811065
1.20131 -1.91221 2.8095701
-0.82060623 -1.8634764 2.8210702
-0.7818132 -1.8813809 2.8284264
-0.73229599 -1.890975 2.8468499
0.79432118 -1.875766 2.8284981
1.03073 -1.85436 2.8053999
1.0756325 -1.8656625 2.8192577
1.126645 -1.8820262 2.8257289
1.175825 -1.8863549 2.8300524
1.20257 -1.8897951 2.8264899
-0.91793001 -1.8135625 2.8055301
-0.87645334 -1.8262974 2.82412
-0.83701545 -1.8320717 2.8365681
0.80521232 -1.8221499 2.8255634
0.97886014 -1.8137 2.8190563
1.0222286 -1.8282171 2.8251474
1.0594499 -1.836614 2.8310921
1.2449851 -1.8147299 2.829325
1.270504 -1.8234079 2.8240061
-0.97000283 -1.7686779 2.8184962
-0.92588234 -1.779466 2.8314791
-0.89428699 -1.793575 2.8392401
0.81797999 -1.7702351 2.8103099
0.88570154 -1.76509 2.8192301
0.92306322 -1.7757953 2.8227565
0.96568066 -1.7843699 2.8364966
1.24698 -1.7933 2.8470199
1.28737 -1.7807716 2.8279049
1.302935 -1.7562151 2.8147349
-1.0687549 -1.710865 2.8053899
-1.0242509 -1.7229716 2.8226099
-0.98655903 -1.7368701 2.8331199
0.83533591 -1.7303772 2.8247201
0.86833793 -1.72946 2.8348901
0.90470099 -1.74804 2.8377099
1.224005 -1.736375 2.807235
1.3188721 -1.7187821 2.827198
-1.16488 -1.6507599 2.81057
-1.1237363 -1.6646588 2.8177488
-1.0808083 -1.6778827 2.8278863
-1.04381 -1.6907034 2.8372433
1.329802 -1.673426 2.8292279
-1.25176 -1.60411 2.8037901
-1.2184757 -1.615853 2.8113956
-1.1751233 -1.6224722 2.82848
-1.1333175 -1.6364424 2.8409448
1.3400799 -1.6384934 2.8408401
1.357425 -1.61473 2.832545
-1.30844 -1.558825 2.8087301
-1.2717234 -1.5739022 2.8182366
-1.2264049 -1.5797625 2.8372788
-1.19364 -1.59457 2.8443301
1.3678758 -1.5747015 2.8234355
-1.41492 -1.5002199 2.8048601
-1.3654013 -1.5137826 2.8181074
-1.324095 -1.5277148 2.8282382
-1.2764641 -1.541744 2.8413398
1.385245 -1.5207185 2.8205864
-1.46297 -1.46297 2.811594
-1.422148 -1.474345 2.824533
-1.3783599 -1.484805 2.8345451
1.39375 -1.48915 2.817395
1.401475 -1.4651749 2.824095
-1.5193256 -1.4198124 2.8159733
-1.477208 -1.4294418 2.8325219
-1.43132 -1.4454701 2.8453701
1.4121033 -1.428275 2.8206799
2.1725049 -1.42697 2.8206549
2.2887299 -1.40171 2.8184199
2.3069301 -1.40206 2.8074701
-1.6147748 -1.3659934 2.8131917
-1.5709575 -1.3780775 2.8249571
-1.5272117 -1.3875049 2.8371499
1.4295001 -1.3810999 2.8197923
2.1066101 -1.3806601 2.8115399
2.2778521 -1.3678581 2.8308282
2.3099368 -1.3688334 2.82516
-1.70468 -1.3113101 2.80339
-1.6694399 -1.3221366 2.8169744
-1.6276736 -1.3299438 2.8352814
-1.59437 -1.34452 2.84677
1.44046 -1.3348625 2.8271773
1.4559699 -1.31257 2.8251102
2.3274474 -1.3267825 2.8203549
-1.7697425 -1.2618001 2.8107576
-1.727352 -1.2750618 2.8252351
-1.689818 -1.28813 2.837652
1.4688643 -1.2779386 2.8272328
2.1466999 -1.2548701 2.81106
2.1732559 -1.264326 2.8257618
2.3400867 -1.2783567 2.8289101
2.3588634 -1.2641801 2.8117135
-1.85193 -1.21201 2.80831
-1.8187771 -1.2229385 2.8198829
-1.7779728 -1.2333329 2.8334029
-1.73571 -1.24196 2.8496201
1.4879414 -1.2241213 2.8241174
2.04369 -1.23383 2.80548
2.0749285 -1.2257156 2.8209901
2.1175251 -1.22735 2.831625
2.16536 -1.2316 2.8480101
2.3466301 -1.24686 2.8496499
2.3820088 -1.2303662 2.8270788
2.4061601 -1.20618 2.8008599
-1.9213099 -1.1642684 2.8095434
-1.8778019 -1.1789126 2.8243983
-1.8283949 -1.1948124 2.8374701
1.49708 -1.19174 2.84986
1.5135928 -1.1747044 2.8215001
2.39994 -1.19437 2.83251
2.4171617 -1.1722467 2.8212931
-2.0153151 -1.113305 2.8065701
-1.9730178 -1.1233456 2.8242667
-1.922972 -1.1360661 2.838428
1.5291513 -1.1180357 2.8223414
2.438148 -1.128994 2.8336859
2.4560399 -1.10799 2.82831
-2.1038899 -1.05531 2.8036201
-2.0704234 -1.0632499 2.8199599
-2.0275314 -1.0807137 2.8270953
-1.9803166 -1.0946232 2.8451397
1.5412632 -1.0830433 2.83267
1.55232 -1.0647573 2.8188801
2.4650941 -1.0687643 2.8271084
-2.1609449 -1.01325 2.813925
-2.1251972 -1.0268614 2.8189685
-2.0823898 -1.0382625 2.8368475
1.5697471 -1.0267514 2.8231673
2.4831734 -1.0208384 2.8254015
-2.2545199 -0.95480102 2.8094499
-2.2182817 -0.96351999 2.818692
-2.1780899 -0.98060894 2.8306487
-2.1401 -0.99846601 2.83919
1.5903034 -0.98118478 2.8277166
1.604385 -0.95658451 2.8122001
2.4921601 -0.98519897 2.8412001
2.508672 -0.9727928 2.8235962
-2.3093548 -0.90964603 2.8116498
-2.2755599 -0.92493707 2.8219686
-2.23683 -0.93432635 2.8353732
1.6141574 -0.92608595 2.8255787
1.7656 -0.91012597 2.8102601
2.5270333 -0.9282214 2.8250868
-2.41184 -0.85170698 2.80951
-2.3742311 -0.86449724 2.8203962
-2.3283269 -0.88472176 2.8262641
-2.2844632 -0.88942862 2.84461
1.6340066 -0.88151103 2.8275197
1.6519051 -0.85683501 2.8187051
2.5380225 -0.88304979 2.8301802
2.5535901 -0.85887998 2.81236
-2.4702699 -0.81241065 2.8144665
-2.4289529 -0.82171023 2.8284314
-2.3899901 -0.83589852 2.8349152
1.6126151 -0.81025004 2.84781
1.6763119 -0.82650959 2.8239951
1.7268667 -0.83083898 2.8225834
2.5658166 -0.82681948 2.82897
-2.5680101 -0.7630235 2.80615
-2.5216544 -0.77537495 2.8208187
-2.4765639 -0.78532857 2.832412
1.391495 -0.7634455 2.8432
1.4728351 -0.75735801 2.8350673
1.5253884 -0.76663351 2.8363514
1.5802424 -0.79022598 2.8458149
1.69002 -0.79435599 2.8492999
1.7031701 -0.78540504 2.8391452
2.5862129 -0.77670658 2.8265998
-2.669935 -0.70222354 2.804965
-2.6179454 -0.71679699 2.8196712
-2.5805416 -0.73181981 2.8269799
-2.5407965 -0.7411477 2.8382034
1.3910049 -0.73498505 2.8386974
1.4263564 -0.72327811 2.8341782
1.4665849 -0.72972399 2.83778
2.59761 -0.72982454 2.8259349
2.6079326 -0.715792 2.8155725
-2.7202766 -0.65977198 2.8090298
-2.6803257 -0.67056805 2.8291385
-2.6348934 -0.67949533 2.8397896
1.42103 -0.68082702 2.8472199
1.45025 -0.691526 2.84957
2.631355 -0.67004967 2.8261998
-2.7705922 -0.61605424 2.8169701
-2.7269566 -0.63022417 2.8319867
2.6450999 -0.622769 2.8226802
2.6505899 -0.60182601 2.8435099
-2.85022 -0.557078 2.81318
-2.817543 -0.56129998 2.8214734
-2.7813234 -0.57490778 2.8347981
2.6456299 -0.59668797 2.80583
2.6627533 -0.56981468 2.8181698
-2.9209251 -0.50761449 2.81161
-2.875623 -0.52335399 2.8209603
-2.8439801 -0.53224897 2.8422251
2.6783249 -0.5299812 2.8249366
-2.975466 -0.46412477 2.8164296
-2.9228716 -0.4755905 2.8282232
-2.8974299 -0.490049 2.8382399
2.6943321 -0.48149377 2.8306479
2.709125 -0.45942098 2.813385
-3.0655 -0.41244504 2.8081665
-3.0280035 -0.41149235 2.8260968
-2.9923325 -0.43098676 2.8270299
2.7180665 -0.42540884 2.8271701
-3.1242859 -0.36515903 2.8139999
-3.0839901 -0.38043573 2.8233352
-3.03774 -0.38853601 2.8429949
2.7358158 -0.38045618 2.8346982
2.7516699 -0.36418152 2.8203049
-3.2268999 -0.30238366 2.8150599
-3.1767082 -0.32285199 2.8278532
-3.1433799 -0.33735701 2.8339801
-3.08759 -0.335338 2.8468399
1.58473 -0.30009499 2.84396
1.63834 -0.31676134 2.8358867
1.6788949 -0.31731176 2.8218763
1.72471 -0.30855098 2.8164532
1.7736899 -0.314408 2.8299947
2.7647533 -0.32015166 2.8218517
-3.2707567 -0.27235532 2.8124502
-3.2294724 -0.27497002 2.8355575
-3.1912701 -0.283602 2.8494
1.37831 -0.26869899 2.8405359
1.429595 -0.27099165 2.8300617
1.4810899 -0.271415 2.8325019
1.5232919 -0.27556679 2.8290181
1.5750057 -0.27869985 2.8232369
1.6194024 -0.2951135 2.8129551
1.667195 -0.284982 2.8048649
1.72727 -0.28745401 2.806165
1.7589999 -0.288923 2.80864
2.7853165 -0.27317968 2.8198102
-3.37537 -0.212276 2.8178999
-3.3210924 -0.22023526 2.8209801
-3.2782724 -0.24321625 2.8317375
1.377949 -0.22739819 2.8175821
1.426836 -0.24163 2.8126261
1.4709901 -0.24849434 2.8078568
2.7924902 -0.236656 2.8324749
2.8126366 -0.220304 2.8186667
-3.40046 -0.194342 2.83989
-3.3696001 -0.193675 2.84723
-2.7371299 -0.15724251 2.81425
1.3925874 -0.17412426 2.8239226
1.407505 -0.16645551 2.81022
2.8264849 -0.17916183 2.8295081
-2.7125349 -0.130566 2.8208551
1.39981 -0.14613301 2.84884
1.4169443 -0.11627585 2.8286898
2.8433051 -0.134561 2.8320251
2.856035 -0.120959 2.820725
-2.65892 -0.068571329 2.8127298
-2.6461599 -0.051334701 2.8304701
1.4371186 -0.070506111 2.8297985
2.8717072 -0.074124776 2.82003
-2.661025 -0.025350526 2.8310449
1.4474932 -0.038423099 2.8290701
1.4607675 -0.021277174 2.8144751
2.8935134 -0.029527465 2.8296566
-2.66504 0.0094008977 2.81987
1.4741855 0.024750741 2.8261416
2.9125149 0.01897382 2.8210049
-2.6416032 0.069998331 2.8252599
-1.0194067 0.075142764 2.8250167
-0.9763515 0.070253126 2.8254876
1.4871565 0.074386887 2.8297901
2.9367917 0.073823132 2.8218997
-2.62907 0.11043066 2.8315432
1.4901813 0.12299557 2.8316772
1.5024276 0.12541825 2.8057024
2.9463601 0.110829 2.83566
2.9708924 0.12946375 2.8255949
-2.5996201 0.17351 2.8386099
1.5090834 0.17700267 2.8045235
2.9871202 0.175235 2.8062449
-2.5750968 0.22397985 2.8244636
1.536508 0.22663121 2.8298542
1.555885 0.23804751 2.81358
1.88564 0.23364601 2.81568
2.9871447 0.22189017 2.8201065
-2.6027 0.275684 2.8045499
-2.5870817 0.27391443 2.8275599
1.540015 0.26754475 2.8162904
1.55931 0.25797436 2.8126934
1.84483 0.29422399 2.81339
1.9042701 0.298684 2.8385201
3.0189269 0.27891999 2.8241501
-2.5843632 0.32819501 2.8267281
1.61324 0.346214 2.8226399
1.83529 0.3261835 2.8281498
1.8689381 0.32828441 2.834192
1.922204 0.3341352 2.8359201
1.9718267 0.34404635 2.8366401
3.0383825 0.32671076 2.8274126
-2.6094401 0.362551 2.8041999
-2.587904 0.37719879 2.8290081
1.624264 0.38044363 2.8249722
1.72742 0.39674199 2.8118401
1.7722149 0.37126267 2.8163083
1.8295375 0.37698501 2.8301702
1.8728775 0.36306274 2.8252673
1.98522 0.36471599 2.8215499
2.0192766 0.37667033 2.8149803
2.0690634 0.36486197 2.8324134
2.11343 0.38952699 2.8368001
3.0415401 0.36545402 2.8434
3.0567 0.37436166 2.8232701
-2.5706999 0.4163 2.8496399
1.6319439 0.42385942 2.8265879
1.73066 0.42037302 2.8143148
1.7783099 0.40133101 2.82831
1.8188599 0.41999701 2.8341484
1.8876724 0.42219049 2.8164501
2.09428 0.40204901 2.80919
3.0705349 0.422977 2.830915
1.625555 0.47531098 2.8118501
1.8812666 0.46937701 2.8167102
3.089848 0.4678742 2.8300002
3.1001 0.49027699 2.81634
1.61299 0.50857103 2.836
1.87538 0.51106948 2.8345699
3.094455 0.52077299 2.8407149
3.1075032 0.52919102 2.8177135
-2.7063799 0.586649 2.8490801
-2.6758101 0.58383101 2.8481901
-2.628015 0.587883 2.8425951
3.0997901 0.550062 2.84146
3.1118774 0.57894325 2.831275
-2.8963201 0.64077097 2.84709
-2.8194699 0.63169199 2.8337801
-2.789995 0.63804448 2.8339
-2.7231667 0.61144131 2.8418701
-2.6784201 0.60209298 2.84815
2.0175097 0.63524032 2.8057868
3.0893199 0.64653999 2.8499701
3.1161032 0.62716097 2.8272133
-3.09481 0.69754398 2.8383501
-3.0130551 0.6781075 2.8278451
-2.9781201 0.68362802 2.8249099
-2.93942 0.697258 2.8162501
-2.877655 0.66389698 2.824075
-2.84794 0.66120052 2.826165
1.9305867 0.68242067 2.8110867
1.96885 0.66875696 2.8049335
2.0278721 0.68820804 2.82585
2.0693851 0.67448497 2.828635
2.1048501 0.67250103 2.8461001
3.0263801 0.69781899 2.84811
3.0734332 0.68236202 2.8395531
3.1171474 0.6748147 2.8196449
-3.1733501 0.74047601 2.80584
-3.12725 0.71954799 2.8324299
-2.99348 0.70139802 2.8045499
1.6705849 0.73608452 2.8454452
1.710645 0.73997998 2.84498
1.7756851 0.709925 2.823535
1.82941 0.73136675 2.8218327
1.8697284 0.73115367 2.8127882
1.92592 0.72525102 2.8229523
1.97815 0.72379065 2.8298035
2.0172601 0.71104151 2.828985
2.92958 0.74419898 2.8445201
2.9820876 0.73509002 2.83957
3.023972 0.72927415 2.825778
3.0774825 0.71856248 2.8164351
3.1136851 0.70249951 2.81109
1.741425 0.77437901 2.838105
1.7717818 0.76953554 2.8385832
1.819026 0.77557182 2.843132
1.86973 0.78462452 2.8465016
1.9313899 0.77794141 2.8482234
