ply
format ascii 1.0
comment PCL generated
element vertex 1540
property float x
property float y
property float z
element camera 0
property float view_px
property float view_py
property float view_pz
property float x_axisx
property float x_axisy
property float x_axisz
property float y_axisx
property float y_axisy
property float y_axisz
property float z_axisx
property float z_axisy
property float z_axisz
property float focal
property float scalex
property float scaley
property float centerx
property float centery
property int viewportx
property int viewporty
property float k1
property float k2
end_header
-0.45462501 0.796785 3.14714
-0.40788949 0.78751802 3.1469002
-0.37655297 0.78586149 3.1430981
-0.3285169 0.78103888 3.1437275
-0.27056256 0.78463405 3.1260085
-0.22199492 0.77824664 3.1234858
-0.17775491 0.77481991 3.1203554
-0.12344649 0.76805598 3.1179368
-0.06884151 0.76547801 3.1166301
-0.027745502 0.76239955 3.11462
0.019418875 0.75772166 3.1091251
0.064403102 0.75034398 3.1103799
0.124358 0.75020701 3.1082399
0.274275 0.75016499 3.1001999
-2.6687999 0.84670651 3.11268
-2.6171451 0.83278549 3.1228776
-2.5803699 0.82880902 3.1428833
-2.53299 0.81728297 3.14413
-0.62706149 0.84060335 3.1382515
-0.58048332 0.82706869 3.1366191
-0.5280298 0.82579947 3.132427
-0.47283396 0.82807761 3.1179204
-0.42383581 0.82415545 3.1195302
-0.37188929 0.8141734 3.1158671
-0.33024842 0.81287068 3.1142845
-0.28546023 0.81036824 3.10571
-2.7126498 0.88005698 3.1054449
-2.6738663 0.88032693 3.122364
-2.6313 0.87278003 3.1381233
-0.924357 0.8987453 3.1459167
-0.86810458 0.88957977 3.1396823
-0.81967396 0.88554758 3.1370101
-0.77199662 0.8815214 3.1261618
-0.71902442 0.87471157 3.1205466
-0.67442316 0.8663227 3.123457
-0.62289852 0.86568135 3.1110449
-0.57911199 0.86275703 3.1126599
-0.52776438 0.85263133 3.1059067
-0.49620199 0.85069001 3.1026399
-3.26527 0.92286801 3.1351299
-2.8157301 0.94296598 3.10695
-2.7717602 0.93250901 3.1170299
-2.7262826 0.92571497 3.12976
-2.677865 0.91258949 3.1454349
-1.3311599 0.946446 3.1466401
-1.20365 0.93592 3.14766
-1.1774967 0.94290233 3.1390169
-1.12612 0.93734491 3.1375301
-1.0705122 0.93196321 3.1290302
-1.0230873 0.92278576 3.1265745
-0.97487563 0.9217608 3.1265161
-0.92804652 0.92275995 3.119463
-0.87531346 0.91813326 3.1135588
-0.8302002 0.91047317 3.1119301
-0.782646 0.91189128 3.1028869
-3.2508099 0.95960599 3.1122701
-3.2369576 0.98038602 3.1205277
-2.872705 0.99120951 3.108115
-2.8237023 0.9779287 3.1261802
-2.7740877 0.97400701 3.1403522
-1.48876 0.99743402 3.1498699
-1.421736 0.99426138 3.136986
-1.3700682 0.98167163 3.1348534
-1.3247212 0.97785139 3.1284025
-1.2736764 0.9771961 3.1279638
-1.2250338 0.96799165 3.1248586
-1.1757751 0.96656394 3.1115782
-1.12637 0.95785004 3.1100397
-1.0801901 0.95985299 3.10499
-3.1731849 1.0122399 3.1101351
-2.9229364 1.0334133 3.1135836
-2.8739522 1.02369 3.1270182
-2.8345301 1.0142601 3.14855
-1.787955 1.0485649 3.14802
-1.6709166 1.0355316 3.1398771
-1.6243474 1.0348125 3.1346624
-1.5738916 1.0329651 3.1268451
-1.5248729 1.0270785 3.1234872
-1.4743551 1.0198365 3.118365
-1.4299899 1.0108933 3.1134434
-1.37686 1.0094134 3.1063099
-1.3206667 1.0037366 3.1056633
-3.0111401 1.09472 3.11327
-2.9742267 1.0842433 3.1229231
-2.9333632 1.0723033 3.1279233
-2.882715 1.0603 3.1391101
-2.1672399 1.07955 3.14884
-2.13118 1.0928249 3.1451602
-2.0745165 1.0893401 3.1373565
-2.0224316 1.0864917 3.1416652
-1.9653475 1.0812775 3.1331475
-1.9258215 1.0806228 3.1327286
-1.8721479 1.0821501 3.1229179
-1.8196117 1.0744534 3.1266348
-1.7748386 1.0747401 3.1242902
-1.7231215 1.0692772 3.1182613
-1.6632199 1.0654835 3.1090565
-1.6290766 1.0614567 3.1092501
-1.5850849 1.05072 3.1106949
-3.0690498 1.1396366 3.1172533
-3.0270731 1.1363868 3.1325066
-2.9790268 1.12158 3.1308632
-2.9463699 1.11256 3.1447999
-2.3670101 1.1334333 3.1447499
-2.3240001 1.1396967 3.1428998
-2.2675965 1.13895 3.1217434
-2.2248766 1.1219734 3.1311715
-2.1763332 1.1200534 3.1260433
-2.1284699 1.1136124 3.1155124
-2.0753658 1.11494 3.1132443
-2.0239534 1.1132799 3.1105766
-1.971745 1.108165 3.107105
-1.9371001 1.11201 3.1043
-1.882915 1.105605 3.10799
-3.1233101 1.17434 3.1063001
-3.072526 1.1799181 3.1298499
-2.7824099 1.19241 3.14821
-2.6739202 1.1938701 3.1407599
-2.6185999 1.1861651 3.1456599
-2.56972 1.19584 3.1338
-2.5179203 1.1799766 3.1306098
-2.474515 1.1789299 3.1272552
-2.4225361 1.17031 3.1255939
-2.3766174 1.17066 3.1161027
-2.3220651 1.16171 3.1144176
-2.2667298 1.161195 3.107445
-2.2009001 1.1504 3.10464
-3.1648464 1.2257867 3.11256
-3.1302459 1.2181861 3.1238759
-3.0758526 1.2260776 3.1317248
-3.035507 1.2320633 3.1401799
-2.986335 1.2443399 3.1358051
-2.9196649 1.2230575 3.1382201
-2.8734 1.22592 3.1379166
-2.8241675 1.2271999 3.1334777
-2.7727458 1.227236 3.1256618
-2.7314401 1.22175 3.1313701
-2.6886549 1.220775 3.11426
-2.6220033 1.20594 3.1128166
-2.5732377 1.21198 3.1146727
-2.5299101 1.20486 3.11448
-3.2165952 1.266145 3.1072099
-3.1819439 1.278128 3.1184602
-3.1225848 1.273365 3.1142449
-3.0733063 1.27244 3.1188998
-3.0203948 1.276225 3.1096449
-2.9745524 1.2694175 3.1144273
-2.9223301 1.25928 3.1243765
-2.8676536 1.2666301 3.1061232
-2.8366201 1.25788 3.1208701
-3.2557199 1.30454 3.10022
-3.2253051 1.3108799 3.1032
-3.1811867 1.3211132 3.1020534
-3.1275201 1.30603 3.10992
-3.0978401 1.30206 3.11534
-3.02525 1.30849 3.1054001
1.81048 -2.4117801 3.19332
0.46749151 -2.3586202 3.15359
0.37783065 -2.3136499 3.1617365
0.42206156 -2.3211589 3.1792166
0.47776267 -2.3382652 3.1781285
0.51681226 -2.322175 3.16854
0.29144651 -2.2598951 3.159945
0.33276677 -2.2755747 3.1724625
0.37570128 -2.2867725 3.1900752
0.54019797 -2.286212 3.1796517
0.56386054 -2.2676501 3.175015
0.2225184 -2.211916 3.1641498
0.27139986 -2.2309113 3.178215
0.31982702 -2.2463 3.1918349
0.58199453 -2.2275882 3.1748667
0.141258 -2.15888 3.1601
0.17424132 -2.17645 3.1724482
0.21185799 -2.183836 3.1811521
0.59744698 -2.19718 3.1948199
0.61195803 -2.1763401 3.179615
0.083739981 -2.119854 3.1635399
0.12748601 -2.1299725 3.1817253
0.63202202 -2.1301501 3.1687438
-0.0101747 -2.0660801 3.1549101
0.024399202 -2.0744879 3.1674988
0.070908852 -2.0886383 3.1823418
0.6674993 -2.0762825 3.1825502
-0.067402504 -2.0109532 3.1645565
-0.025358237 -2.0313687 3.1774001
0.024366662 -2.0472698 3.1975234
0.67603201 -2.04053 3.1990199
-0.17183051 -1.95508 3.1567898
-0.12255115 -1.9710414 3.1686742
-0.084570996 -1.9846134 3.1766784
-0.0448259 -1.99754 3.1917801
0.68914199 -1.9757776 3.17521
0.70126599 -1.97744 3.1663001
-0.21942334 -1.90944 3.1646135
-0.18058589 -1.9229467 3.1766255
-0.14145334 -1.9424767 3.1858866
0.68622601 -1.94963 3.19858
0.71398968 -1.9239918 3.18151
-0.31347299 -1.85173 3.1591101
-0.278366 -1.8706229 3.1675155
-0.23653817 -1.8848282 3.1775501
-0.198118 -1.8927701 3.1991701
0.73897219 -1.8724378 3.1703117
-0.37126052 -1.81217 3.1598549
-0.3304618 -1.82195 3.1730888
-0.2854875 -1.8399601 3.1873322
0.73854399 -1.84145 3.1931648
0.76374775 -1.8253624 3.16875
-0.469486 -1.752275 3.155365
-0.42915836 -1.7664651 3.1667185
-0.38403136 -1.7793611 3.17979
0.77855235 -1.7757233 3.1694832
-0.51031053 -1.7072151 3.162755
-0.47840124 -1.7207199 3.172699
-0.43401617 -1.740346 3.1911159
0.79015899 -1.73668 3.1865301
0.80038601 -1.7051899 3.1637199
-0.56783503 -1.6686898 3.1659584
-0.53110248 -1.676235 3.179075
-0.4880715 -1.69157 3.194355
0.80592799 -1.6740251 3.1619501
-0.66259736 -1.6130834 3.1609166
-0.62397808 -1.6235223 3.1747434
-0.58728516 -1.6361901 3.184186
0.82174903 -1.6233002 3.1838539
-0.71763867 -1.5682751 3.168175
-0.6748904 -1.5771643 3.1804175
-0.63105327 -1.5900226 3.1936252
0.84032398 -1.567275 3.1631999
1.1239851 -1.5567 3.15359
1.1706142 -1.5648614 3.1642311
1.2272564 -1.57228 3.1731856
-0.80942529 -1.50903 3.1635869
-0.77005988 -1.5204549 3.1733172
-0.72826684 -1.5377061 3.187778
-0.69212002 -1.54519 3.1933701
0.84143198 -1.5194401 3.18768
1.0271 -1.5052034 3.1542933
1.0778567 -1.5176951 3.1688068
1.114458 -1.527254 3.171016
1.1699734 -1.5388767 3.1902435
1.20912 -1.54512 3.1925001
1.3188699 -1.51701 3.1606174
-0.86706859 -1.4646714 3.1654842
-0.82593 -1.4791244 3.1800001
-0.78546804 -1.4881334 3.1938565
0.85519278 -1.47384 3.1696801
0.9785732 -1.464396 3.1628242
1.0237828 -1.4763515 3.1723843
1.0723133 -1.48807 3.1930733
1.11137 -1.49507 3.1984401
1.3347514 -1.4793543 3.1776426
-1.0011801 -1.40284 3.1553099
-0.96367204 -1.4063849 3.1617
-0.91780502 -1.423828 3.1711113
-0.87527621 -1.4338459 3.1862459
0.88592672 -1.4162575 3.1737075
0.92817801 -1.4222281 3.1756642
0.96855342 -1.43328 3.1830118
1.3453432 -1.4236199 3.1898401
1.3576502 -1.4184799 3.1723268
-1.0199467 -1.3666611 3.1648045
-0.97270823 -1.3752613 3.1817787
-0.93081248 -1.392035 3.192275
0.891559 -1.389735 3.1886401
0.90841103 -1.3819001 3.18873
1.37457 -1.3699433 3.1662233
-1.11728 -1.30435 3.1601698
-1.0721071 -1.3221489 3.1704693
-1.024996 -1.335268 3.1877682
-0.98857498 -1.3419 3.19469
1.3908499 -1.32806 3.17714
1.40311 -1.31056 3.17712
-1.2023449 -1.2656751 3.1561351
-1.1679575 -1.2726974 3.1666677
-1.1242087 -1.2788349 3.1833937
-1.08182 -1.2947099 3.194005
1.4177828 -1.2744486 3.1770799
-1.30531 -1.21118 3.1519201
-1.265805 -1.2214466 3.1590216
-1.222549 -1.227921 3.1736579
-1.178815 -1.2423375 3.1885126
-1.14082 -1.2458301 3.1963401
1.4351701 -1.2302066 3.1698768
-1.3650233 -1.1595633 3.1601734
-1.3262063 -1.1724819 3.1740248
-1.2795457 -1.1873071 3.1830387
-1.24199 -1.19743 3.1859701
1.4472225 -1.1772125 3.1840801
1.45327 -1.16005 3.1565101
-1.46392 -1.1019599 3.1538899
-1.4224728 -1.1126286 3.1701357
-1.3832589 -1.1305311 3.1774945
-1.34129 -1.1375 3.19471
1.4635642 -1.1258359 3.1727879
2.22329 -1.138715 3.1805201
2.2794299 -1.132674 3.1861999
-1.5158215 -1.0707999 3.1603827
-1.4736114 -1.0761361 3.1781499
-1.4325234 -1.0853467 3.1910734
1.3907501 -1.05019 3.1772499
2.19662 -1.0933 3.1716499
2.3553901 -1.05233 3.1507599
-1.61141 -1.01047 3.15609
-1.5752726 -1.0249525 3.1659913
-1.5307325 -1.0303112 3.1866636
-1.49466 -1.0448999 3.1958799
1.33741 -1.03105 3.1917901
2.33886 -1.0255251 3.172725
2.35605 -1.02493 3.1593151
-1.6690724 -0.96826953 3.1602449
-1.6249698 -0.97575313 3.1764519
-1.5834767 -0.99720401 3.1855733
2.3415699 -0.99896097 3.1838601
2.3700459 -0.98362839 3.1675363
-1.7676425 -0.90778279 3.1646299
-1.7238829 -0.92411166 3.173305
-1.6746984 -0.94178122 3.1781318
1.25516 -0.90795499 3.15259
2.39029 -0.9257977 3.1767225
2.4194798 -0.91240954 3.163985
-1.82354 -0.86793172 3.1646287
-1.7795216 -0.87809873 3.1805599
-1.73905 -0.88922602 3.1947501
1.2365749 -0.86336052 3.186455
1.253615 -0.86634648 3.15801
2.4258633 -0.8915984 3.1779101
2.4593432 -0.86365771 3.1802199
-1.91012 -0.814318 3.1571467
-1.8732775 -0.82410687 3.1754439
-1.8353724 -0.83857697 3.1871674
1.2340361 -0.83122599 3.1815362
1.2501 -0.83968902 3.15449
2.47245 -0.82405871 3.1817498
-2.0065501 -0.76309699 3.1539099
-1.96875 -0.76619494 3.1656799
-1.92757 -0.78259289 3.1779101
-1.88757 -0.79511046 3.1922951
1.2397039 -0.78521121 3.1867261
1.2540866 -0.76347232 3.1648266
2.4922276 -0.78185952 3.1705048
2.50367 -0.76245999 3.1617701
-2.0597849 -0.71445352 3.1563501
-2.0231299 -0.72902912 3.1688812
-1.9793539 -0.74025184 3.1809161
1.2692957 -0.72473973 3.1735671
2.49892 -0.748025 3.1956699
2.5150521 -0.722651 3.169822
-2.116122 -0.66021216 3.1697724
-2.075845 -0.67897546 3.1789651
-2.0360599 -0.69395095 3.1901066
1.2860276 -0.68098694 3.1783512
1.30836 -0.65872198 3.1519101
2.5372419 -0.66762143 3.1719499
-2.1543701 -0.631998 3.15275
-2.1288161 -0.63376319 3.1791062
1.2251799 -0.62329298 3.1888175
1.2833533 -0.63017899 3.1857469
1.3104229 -0.62748337 3.1753371
2.55917 -0.61792237 3.1865702
1.1799375 -0.56665146 3.183495
1.2125534 -0.58686399 3.1805365
1.28547 -0.59128499 3.15101
1.3168399 -0.59459853 3.1605849
2.5786927 -0.57486475 3.1723599
1.1773666 -0.53493804 3.1726768
2.5892532 -0.53645265 3.1761434
2.6062551 -0.50547147 3.17134
1.2065825 -0.47664401 3.1713774
2.6210241 -0.47268802 3.1756642
-2.5733299 -0.404991 3.15311
1.2288151 -0.42661133 3.173187
2.6344376 -0.43120325 3.1698899
-2.65646 -0.353387 3.1549599
-2.6225901 -0.36185879 3.1655126
-2.5837266 -0.36999747 3.1752765
1.2372199 -0.38693365 3.1759064
1.253155 -0.35922748 3.18873
2.6589367 -0.37632716 3.1784232
-2.7189701 -0.30026701 3.16382
-2.6775539 -0.32143641 3.1689579
-2.6293139 -0.32805419 3.1871679
-2.53562 -0.331074 3.18279
1.26903 -0.32792538 3.1768959
2.6841438 -0.32405519 3.17384
-2.80234 -0.26521 3.15801
-2.7670803 -0.27054533 3.1637466
-2.7287674 -0.27772549 3.1769023
-2.6928201 -0.2910465 3.1860352
1.27896 -0.269878 3.1700232
2.7072775 -0.27369025 3.1728849
-2.8561299 -0.209378 3.15219
-2.819592 -0.2241468 3.1660697
-2.7825682 -0.23153181 3.1863019
-2.74348 -0.24600901 3.1962399
1.2855883 -0.22192101 3.16712
2.7197065 -0.22687066 3.178582
-2.8724101 -0.166623 3.1721759
-2.8355734 -0.18461268 3.1884668
1.2887933 -0.17465167 3.1774216
1.30663 -0.157975 3.1554599
2.7392249 -0.17987426 3.1799598
2.7567899 -0.15127051 3.1656849
-2.8817849 -0.12931374 3.1839275
1.2934734 -0.13767934 3.1830266
1.30681 -0.12262525 3.1681399
2.7649176 -0.1231145 3.1760526
1.3241999 -0.079199553 3.1782925
2.7875943 -0.071763523 3.1709921
-1.79005 -0.016028101 3.1940899
-1.7125634 -0.026715368 3.1533535
-1.69045 -0.015722601 3.16255
-1.35809 -0.031344 3.18926
-1.3281975 -0.02323655 3.183115
-1.2724299 -0.030976867 3.1711967
-1.235615 -0.042887777 3.186465
1.28696 -0.047326799 3.1988699
1.3252585 -0.033553928 3.1782985
1.3580675 -0.023272801 3.1724653
2.7895899 -0.037517399 3.1881499
2.8034801 -0.0278758 3.1680899
-1.8196399 0.017485211 3.1811676
-1.7727826 0.021487173 3.1539576
-1.666265 0.0089655975 3.1738448
-1.6195339 0.023660161 3.1719761
-1.571445 0.025163276 3.1718276
-1.4166399 0.0060549583 3.1688201
-1.3848799 0.000733366 3.1665499
1.3350267 0.016746238 3.1685231
1.3719699 0.00073379104 3.162075
2.8247182 0.020071486 3.1741436
-2.214025 0.07130345 3.1841202
-1.78747 0.050576799 3.1521101
1.3488801 0.064713404 3.1719999
1.37359 0.075534433 3.1721499
1.43204 0.098006599 3.1912799
2.8415627 0.073185898 3.1833825
2.85308 0.087262601 3.1510701
-2.4537201 0.14670201 3.1940501
-2.4005301 0.14568099 3.1941299
-2.3668499 0.14472599 3.1840999
-2.3268299 0.12579934 3.1770966
-2.27756 0.12477133 3.1674201
-2.2346849 0.11509649 3.159925
-1.56675 0.14740101 3.1694999
1.47156 0.13840801 3.1727901
2.8603849 0.12644275 3.1760299
-3.41629 0.1764605 3.1622949
-2.50825 0.184515 3.1927099
-2.4616699 0.18242 3.1679399
-2.40323 0.162752 3.1621101
-2.3644352 0.16193849 3.1627049
-2.31761 0.16055 3.1516399
-1.6091866 0.18017566 3.1554201
-1.57611 0.18191372 3.156117
-1.5490201 0.17078751 3.152215
2.8829982 0.17242242 3.1709485
-3.52422 0.231139 3.15189
-3.41836 0.20756499 3.1628499
-2.552 0.203455 3.17711
-2.5235901 0.202648 3.1763401
-2.4886999 0.201305 3.16693
-1.87802 0.23845901 3.19173
-1.81519 0.218004 3.1582401
-1.6541899 0.247307 3.1622901
-1.6181183 0.23549217 3.1636102
-1.5771544 0.2245917 3.1672542
-1.5314332 0.228083 3.1659234
1.4822063 0.22618337 3.1761949
1.5190099 0.228554 3.1673701
2.8911324 0.22391599 3.1695523
-3.6131401 0.28725952 3.1558599
-3.576062 0.28033081 3.173902
-3.5286934 0.27445665 3.1771867
-3.4891548 0.27276149 3.17116
-1.7157 0.28220534 3.1617367
-1.6746117 0.27398416 3.1803968
-1.6306601 0.26525465 3.1929133
-1.4991699 0.25963199 3.1631401
1.492835 0.27377275 3.1805151
1.5062567 0.28785267 3.1636667
1.5863 0.28736499 3.1610699
2.8971434 0.27390534 3.1910431
2.9101267 0.27329001 3.1691334
-3.6710751 0.33839324 3.1664727
-3.6183536 0.32790336 3.1817234
-3.5787599 0.319758 3.1953299
-3.2281151 0.34404302 3.1657848
-3.17698 0.32905599 3.180443
-3.13994 0.31998 3.16714
-1.8199459 0.32977802 3.166168
-1.7778167 0.31400251 3.1848099
-1.7152734 0.30618533 3.1845436
-1.69258 0.30052501 3.19347
-0.98049653 0.34207401 3.1652498
1.49651 0.32021451 3.195215
1.5169001 0.32905358 3.1673386
1.5779384 0.33428535 3.1669199
1.6082101 0.31901732 3.1693165
2.8958549 0.32251799 3.185885
2.9107299 0.321989 3.16605
-3.7595699 0.39138699 3.16448
-3.716795 0.37838399 3.1661
-3.675745 0.37746701 3.1856875
-3.2019401 0.36240399 3.1558399
-3.17869 0.36203101 3.1677699
-3.1345949 0.36921 3.157645
-3.09395 0.37663999 3.15042
-1.862772 0.38205281 3.1616721
-1.8284029 0.36969987 3.1806672
-1.7993 0.35515001 3.1948299
-1.0247301 0.37510201 3.1702335
1.4952199 0.39357999 3.18576
1.5235133 0.37611145 3.1652889
1.5749743 0.37547031 3.1619327
2.8306599 0.38852799 3.1974649
2.878706 0.37442917 3.1839142
2.90833 0.37033567 3.1590469
-3.8039351 0.4264915 3.16115
-3.7810299 0.4263885 3.179425
-3.7341201 0.427917 3.1887567
-3.6722 0.42131501 3.1970201
-3.63466 0.430186 3.19961
-3.5784767 0.44105768 3.1966636
-1.910095 0.4333275 3.155695
-1.8785332 0.4253931 3.1768579
-1.8426 0.40791199 3.1911399
-1.012805 0.43128347 3.1802549
1.49852 0.41084999 3.1910999
1.5268717 0.42132553 3.1745367
1.5659958 0.4277226 3.1669457
2.5307651 0.447494 3.1925299
2.6799634 0.431113 3.1920102
2.7268202 0.42982325 3.18154
2.781162 0.42683139 3.1765039
2.8212461 0.4205358 3.165168
2.86941 0.40787852 3.1665201
-3.8251951 0.47278899 3.17416
-3.77613 0.480232 3.1695435
-3.7251365 0.46299934 3.1773865
-3.67607 0.46359551 3.177695
-3.6322067 0.48519766 3.1672432
-3.56317 0.47710198 3.1670151
-1.9673867 0.49149433 3.1582301
-1.9279413 0.47754115 3.1758351
-1.89335 0.46294501 3.1980901
-1.2645149 0.46387801 3.177525
-1.0159199 0.48149043 3.1632619
-0.997832 0.48644 3.18012
1.5248127 0.47894803 3.1743102
2.4414766 0.47757933 3.1754735
2.4778059 0.4798398 3.1745241
2.518296 0.47824439 3.169106
2.569015 0.47555 3.1649823
2.6234848 0.46413183 3.1737201
2.6783035 0.46027502 3.1623867
2.71965 0.45562899 3.152
2.7584901 0.45892 3.16098
-3.8224499 0.50535399 3.1681001
-1.9733566 0.52601331 3.1758282
-1.9409699 0.51789999 3.19732
-1.17506 0.52707702 3.1912601
-1.14759 0.53762501 3.1619201
-1.0605299 0.533503 3.15888
-1.0226487 0.52336872 3.1674166
-0.98109782 0.5251804 3.1866841
-0.93617398 0.54969299 3.19016
1.2472399 0.54909497 3.19853
1.26512 0.54984897 3.1977999
1.3709568 0.52901244 3.1891851
1.40547 0.537889 3.18098
1.4793125 0.53137499 3.1661725
1.5160949 0.50688702 3.1551552
2.4386499 0.51239502 3.1550601
2.5784299 0.50349498 3.1551001
-2.0185311 0.57492352 3.173346
-1.98788 0.56456798 3.1943402
-1.1175425 0.56405997 3.1589351
-1.0732738 0.57385671 3.1681924
-1.0200969 0.57320368 3.1779201
-0.96813822 0.57358968 3.1817415
-0.92225099 0.57933146 3.1892486
-0.88187397 0.59713399 3.1976249
0.73698503 0.59274799 3.19613
0.77668381 0.58809102 3.1925068
0.82871079 0.5903185 3.1872628
0.87467355 0.58841366 3.1895382
0.92492062 0.59045231 3.190053
0.97626436 0.58977658 3.1806357
1.0234851 0.58294761 3.1812899
1.0703484 0.58220905 3.184715
1.1247587 0.5793801 3.1811337
1.1740956 0.57449573 3.1743588
1.2276145 0.57715255 3.1743765
1.2798811 0.56910002 3.1758845
1.3248878 0.57074279 3.1713834
1.3757211 0.56352735 3.1661997
1.4346867 0.56035662 3.1725333
1.4651166 0.56160665 3.1693933
-2.1081901 0.64771599 3.15237
-2.0702372 0.63431787 3.1684844
-2.0346198 0.61597347 3.1884723
-1.1190134 0.62351614 3.1669867
-1.0815649 0.6275298 3.1574678
-1.0253074 0.62995052 3.1674831
-0.96825957 0.62863511 3.174149
-0.91983551 0.62769949 3.1801956
-0.87225014 0.62726051 3.1881387
-0.842345 0.62829602 3.1998899
0.21909299 0.64458799 3.1954601
0.28426498 0.6407578 3.1919525
0.3233532 0.63843638 3.1892481
0.37271068 0.63739485 3.1877215
0.42656779 0.63295853 3.1839509
0.47747517 0.62870109 3.180748
0.52806795 0.62700808 3.173902
0.57088411 0.62387818 3.1764922
0.62082559 0.6245392 3.1726177
0.67277801 0.62576723 3.1706243
0.72412163 0.61758876 3.170975
0.77847177 0.61758554 3.1689911
0.8307541 0.61793339 3.1657472
0.87485182 0.62154043 3.1619987
0.93167377 0.61462748 3.1660051
0.97236449 0.61560827 3.1616576
1.0302324 0.60951972 3.1580675
1.08653 0.6006285 3.16133
1.120965 0.60214549 3.16046
1.19741 0.60473698 3.15295
-2.3273449 0.67974299 3.1802249
-2.1220422 0.67902917 3.1610959
-2.0833299 0.67282248 3.1827526
-1.1648999 0.67567271 3.1777849
-1.1329725 0.66697502 3.162915
-1.0660319 0.67809439 3.154166
-1.0241027 0.67637658 3.1636572
-0.97289479 0.67901343 3.181901
-0.92704326 0.66827804 3.187638
-0.88069999 0.66594648 3.1982775
-0.179956 0.69243699 3.19981
-0.12581325 0.69035345 3.1919398
-0.068322703 0.68652874 3.1937926
-0.022310676 0.68505323 3.1872725
0.025407061 0.68559825 3.1806374
0.072501555 0.68120867 3.1786203
0.12774146 0.68077528 3.1735964
0.17201175 0.67850298 3.1712906
0.22536276 0.6709736 3.1700947
0.27896902 0.6673249 3.1707244
0.32425049 0.66308695 3.1630766
0.37003198 0.65562671 3.1609833
0.41920123 0.65930355 3.1587021
0.47755536 0.65681666 3.1553667
0.50801998 0.65673298 3.1512201
0.63356698 0.660303 3.15079
-2.3655 0.73753977 3.1689401
-2.3291066 0.72049499 3.1815283
-2.1172302 0.71300238 3.1795466
-2.0969448 0.71702147 3.1965151
-1.20085 0.72450298 3.18347
-1.186765 0.72086048 3.1695399
-1.0666229 0.73114234 3.1618359
-1.0266942 0.72485286 3.1756833
-0.98873764 0.7196973 3.1903965
-0.474985 0.74339199 3.1905999
-0.41244301 0.74216998 3.1917701
-0.37779221 0.7346552 3.1901941
-0.32058868 0.73289317 3.1824217
-0.26998413 0.73088628 3.1793833
-0.22491364 0.72923124 3.1747575
-0.17872316 0.72589368 3.1717207
-0.12672284 0.71873891 3.1660292
-0.071678445 0.71646839 3.1679044
-0.028128887 0.71102756 3.1642258
0.016592108 0.70844638 3.160624
-2.5074699 0.79648 3.151
-2.4546402 0.77294207 3.1575534
-2.4221287 0.77583092 3.1808901
-2.3653166 0.77581769 3.1917899
-1.182005 0.78433526 3.1567626
-1.1191241 0.78755796 3.1592519
-1.0806681 0.77140981 3.1719162
-1.04094 0.75940752 3.1956
-0.70850152 0.79249847 3.194015
-0.66738498 0.79019248 3.1910949
-0.62630433 0.78764939 3.1868317
-0.57448369 0.77989328 3.1808674
-0.52216446 0.77549231 3.1842732
-0.47424224 0.77644897 3.1694336
-0.42892838 0.77400953 3.1684029
-0.37945715 0.76117104 3.1730616
-0.32143101 0.75767988 3.167897
-0.269701 0.76243901 3.1532049
-2.57442 0.84336698 3.1563301
-2.5226822 0.8323428 3.1709559
-2.47837 0.8320114 3.1898034
-2.4244699 0.81188327 3.1814301
-2.3843801 0.81073999 3.19943
-1.1729701 0.81042701 3.1635849
-1.1272949 0.82554966 3.1812515
-1.093065 0.80250955 3.18805
-0.9180966 0.84439439 3.1959035
-0.86723262 0.83604699 3.1956501
-0.82302618 0.83399868 3.1853917
-0.7770738 0.83370751 3.1737976
-0.73147053 0.82377744 3.1746175
-0.67965645 0.82520205 3.1653378
-0.63064414 0.81437701 3.1623619
-0.56606299 0.80292398 3.1581933
-0.51911402 0.80182832 3.1598835
-2.6085949 0.87670499 3.156775
-2.5770576 0.87554348 3.1710026
-2.5347733 0.86967772 3.1838999
-1.21755 0.89775699 3.1951599
-1.1748101 0.88905221 3.1902225
-1.1239122 0.87730867 3.1863592
-1.0713863 0.88096219 3.1786425
-1.0249938 0.87927276 3.1756849
-0.97737765 0.87790459 3.1738589
-0.92766869 0.8741225 3.1708274
-0.87965274 0.8657465 3.1651676
-0.83063662 0.85834944 3.1644082
-0.76758748 0.85912204 3.1540849
-0.74366701 0.85851002 3.1561501
-3.2402501 0.94795197 3.177
-2.7034299 0.93718803 3.1535001
-2.6700249 0.9354735 3.1668801
-2.6289802 0.9209674 3.1803441
-2.5703249 0.90799546 3.191735
-1.41624 0.9489615 3.194205
-1.37333 0.94229102 3.18326
-1.3218549 0.93440151 3.1786711
-1.2738073 0.93003446 3.1785541
-1.2289642 0.9266966 3.1702302
-1.1704025 0.91847461 3.1645288
-1.126865 0.90820777 3.1621425
-1.0891399 0.91153252 3.1528401
-3.23524 0.98284799 3.1762497
-2.7525301 0.98620898 3.16605
-2.7278473 0.97461605 3.1751127
-2.6738234 0.9657194 3.1829767
-2.64677 0.95644802 3.18764
-1.73221 0.99944299 3.1963899
-1.68062 0.99432302 3.1984801
-1.6338201 0.9951635 3.1860299
-1.5764679 0.98965997 3.180984
-1.525048 0.98137176 3.1830959
-1.4718071 0.97654045 3.1731973
-1.430896 0.96645367 3.1748061
-1.380505 0.95934725 3.1621425
-3.2269549 1.0088151 3.1677299
-3.1977201 1.00925 3.19207
-2.8219197 1.0273901 3.1545866
-2.7748361 1.0239739 3.1768942
-2.7333601 1.00911 3.1921649
-2.1439199 1.04969 3.19716
-2.07375 1.0326433 3.1906099
-2.0333052 1.034675 3.1940651
-1.9729824 1.0352575 3.1887677
-1.922735 1.0404025 3.1780677
-1.8730099 1.0403259 3.176152
-1.8204925 1.0314825 3.1737599
-1.7671402 1.0243499 3.1757171
-1.7234457 1.0286543 3.1713173
-1.6657066 1.0098433 3.1709433
-1.6311034 1.01158 3.1690433
-1.5748266 1.0100933 3.1635666
-1.52065 1.0020599 3.15488
-2.90905 1.089805 3.1626501
-2.8627701 1.07365 3.1673851
-2.8238776 1.0700101 3.1770272
-2.7897351 1.0681601 3.1915751
-2.3262849 1.0899 3.1796699
-2.2736778 1.0795161 3.1837399
-2.2209301 1.079018 3.1795678
-2.1829464 1.0600801 3.1920433
-2.1298482 1.0697566 3.1688318
-2.0706599 1.0578634 3.1656563
-2.0291538 1.05826 3.1688361
-1.97456 1.05793 3.1656098
-1.93721 1.05196 3.16098
-1.8780251 1.06073 3.15168
-1.8461699 1.05738 3.1542301
-2.9807799 1.14565 3.17611
-2.9237847 1.12521 3.17067
-2.8754649 1.1217875 3.1886799
-2.8140581 1.123754 3.1919103
-2.7748301 1.13861 3.19171
-2.7497399 1.13631 3.19842
-2.670125 1.13298 3.1911774
-2.6308601 1.13818 3.1949
-2.5811474 1.1385674 3.1849651
-2.5217376 1.1290125 3.182395
-2.4741015 1.1311049 3.1786919
-2.4205382 1.122206 3.1748798
-2.3742533 1.1088567 3.1751499
-2.3200824 1.1146325 3.1634626
-2.2867699 1.111825 3.1716499
-2.1856999 1.10233 3.15242
-3.0208251 1.179765 3.1569126
-2.9658976 1.173865 3.1696351
-2.9268825 1.1832175 3.1677299
-2.8748083 1.1711183 3.1742432
-2.8212574 1.17808 3.1725273
-2.7713959 1.17248 3.177798
-2.7243676 1.168785 3.1756575
-2.67589 1.17002 3.169235
-2.6227434 1.1638933 3.1640034
-2.5684052 1.1710625 3.1582651
-2.5279901 1.15605 3.1643
-3.0121601 1.22065 3.1540899
-2.9823399 1.216645 3.1580501
-2.8471999 1.20337 3.1501701
1.8053601 -2.42173 3.23487
1.81206 -2.3942101 3.20825
0.47959587 -2.3116314 3.2131603
0.37983 -2.2613299 3.21978
0.42365053 -2.2767467 3.2250233
0.48055863 -2.2804832 3.241905
0.52776116 -2.2700014 3.22299
0.27440098 -2.20491 3.2077434
0.3301228 -2.220629 3.2261591
0.37361202 -2.23649 3.2330902
0.54984802 -2.23948 3.2279899
0.56195432 -2.2278433 3.2337568
0.18373799 -2.15113 3.2063601
0.22592182 -2.1633785 3.2161815
0.27516949 -2.1849434 3.23277
0.58805418 -2.181004 3.2164798
0.61329901 -2.1547101 3.2021401
0.12995933 -2.1035936 3.2093735
0.17360802 -2.1212287 3.2240129
0.211097 -2.134475 3.2343149
0.59876001 -2.1400399 3.238065
0.62742406 -2.119102 3.2194819
0.080509797 -2.0685401 3.2151082
0.12426668 -2.0784817 3.2316515
0.63806236 -2.0835841 3.237144
0.661443 -2.0586648 3.2120352
-0.019060001 -2.0066099 3.2063699
0.026515314 -2.0190039 3.2213249
0.077035196 -2.038805 3.2381465
0.66903377 -2.0198951 3.2236152
-0.072545841 -1.965176 3.2124283
-0.030018311 -1.97816 3.2293973
0.012647923 -1.9881734 3.2379301
0.67894 -1.99674 3.24107
-0.164795 -1.90185 3.21597
-0.12877788 -1.9236175 3.22118
-0.085359216 -1.9355617 3.2312748
-0.0453122 -1.94168 3.24826
0.69019097 -1.9435101 3.2260599
0.70498049 -1.9099851 3.2235999
-0.2286882 -1.863986 3.208142
-0.18369858 -1.8713101 3.2254767
-0.14253867 -1.8861966 3.2400901
0.72261596 -1.893085 3.2297902
-0.28066888 -1.8175713 3.2191401
-0.23489076 -1.8297287 3.2339861
0.74415398 -1.8383 3.2260051
0.75836533 -1.8146133 3.2329767
-0.37089732 -1.7614933 3.2080934
-0.32880402 -1.7755208 3.2245119
-0.27538198 -1.79224 3.245995
0.77048427 -1.7671874 3.2084951
-0.42265198 -1.7149115 3.2181313
-0.37604779 -1.7339323 3.2342389
0.78293651 -1.7237 3.2239625
-0.514422 -1.66179 3.2127199
-0.47783902 -1.6744013 3.2218652
-0.43849751 -1.6851934 3.2339766
0.78694397 -1.6855034 3.2233067
0.80558598 -1.657025 3.2105701
-0.57444221 -1.6181167 3.2117882
-0.53225845 -1.6312454 3.2304957
-0.49083248 -1.64175 3.2364025
0.81520021 -1.6169026 3.2312226
-0.62727487 -1.567067 3.2204196
-0.58376062 -1.5816971 3.2337441
-0.54893702 -1.59699 3.2406399
0.83531028 -1.5727099 3.2187135
-0.72238874 -1.5185225 3.2046325
-0.67919433 -1.528434 3.223098
-0.6429227 -1.5376568 3.2418735
0.843997 -1.5343 3.2200365
0.85244 -1.5055799 3.2426
1.1356599 -1.513225 3.21069
1.1773785 -1.5159514 3.2146456
1.2262434 -1.5213966 3.2258615
1.26307 -1.5226561 3.2266121
-0.808492 -1.46201 3.2032001
-0.77408582 -1.4685779 3.2201002
-0.73087347 -1.482958 3.2303767
-0.69793302 -1.49085 3.2451401
0.85966599 -1.45538 3.21539
1.03628 -1.45135 3.20874
1.0761549 -1.4679784 3.2142766
1.1218451 -1.4711466 3.2326167
1.17521 -1.488376 3.2393298
1.21882 -1.48842 3.24541
1.3302575 -1.470135 3.2253299
-0.87137949 -1.4171925 3.2088249
-0.82903343 -1.426751 3.2229142
-0.78119802 -1.4395733 3.2460833
0.86541241 -1.423808 3.2215641
0.94178498 -1.40283 3.2087901
0.97955197 -1.4145633 3.2124434
1.02028 -1.4231075 3.2269313
1.0669867 -1.4398867 3.2357366
1.3462 -1.4429801 3.23932
-0.95785397 -1.36192 3.2051401
-0.92554295 -1.3690121 3.2209771
-0.88246214 -1.3828455 3.2324312
-0.8477 -1.38849 3.2484801
0.88476598 -1.3736399 3.2207224
0.92902458 -1.3682172 3.2205904
0.97154176 -1.3818041 3.234792
1.3602549 -1.3786383 3.2206099
-1.0199921 -1.315046 3.2145462
-0.97809523 -1.3251851 3.2269039
-0.93462598 -1.3327425 3.2444549
0.91408366 -1.3419132 3.2374535
1.384688 -1.325596 3.2261021
-1.110415 -1.2573099 3.2111301
-1.076381 -1.27005 3.219635
-1.0338728 -1.2847242 3.2300401
-0.99889803 -1.28878 3.2497301
1.41246 -1.27315 3.2308235
-1.22279 -1.2030649 3.2086802
-1.1752934 -1.2158712 3.2183132
-1.1313537 -1.2285787 3.2290027
-1.0939602 -1.2331734 3.2434967
1.425905 -1.2389951 3.20925
-1.3004 -1.15505 3.20592
-1.2706261 -1.162056 3.214452
-1.22445 -1.1748782 3.2291529
-1.1726 -1.184568 3.245398
1.4475566 -1.18293 3.2317097
-1.3612967 -1.1145433 3.2121899
-1.3213087 -1.1247225 3.2265
-1.2765 -1.1370859 3.2379079
1.44486 -1.1294134 3.2409365
1.45456 -1.1321599 3.215605
2.22225 -1.12449 3.2032399
2.2708349 -1.12555 3.2190351
-1.46007 -1.06111 3.2019
-1.4202234 -1.0718883 3.2116919
-1.3796362 -1.0813099 3.2295938
-1.3397032 -1.0916834 3.2446401
1.39504 -1.06624 3.2319
1.42156 -1.09048 3.2429299
-1.510805 -1.0078425 3.219995
-1.4773388 -1.0291089 3.2255108
-1.4319375 -1.0440276 3.2319751
2.34255 -1.00737 3.2222099
-1.61868 -0.95222497 3.207365
-1.5742429 -0.97245151 3.2195225
-1.53114 -0.98356986 3.2348335
2.3687339 -0.96939075 3.2314658
-1.70385 -0.90579897 3.2037899
-1.6696849 -0.9143303 3.2162333
-1.6258501 -0.92435777 3.2290912
-1.59152 -0.93921351 3.2388749
2.3779449 -0.92628098 3.236095
-1.7691733 -0.86427432 3.2042634
-1.7253339 -0.87271196 3.2176273
-1.6803261 -0.88561708 3.2360439
1.2218233 -0.8777613 3.2265584
1.25769 -0.88879597 3.21329
2.3920951 -0.89643347 3.2248399
2.4238067 -0.86967087 3.2182934
-1.8172383 -0.82204813 3.2100813
-1.7734001 -0.82993501 3.2281313
-1.72833 -0.84513605 3.2450399
1.2260524 -0.82111853 3.2293274
2.429985 -0.83906275 3.233855
2.45927 -0.81595504 3.2223077
-1.913715 -0.76404297 3.2057049
-1.8724433 -0.77526635 3.2213867
-1.8331884 -0.78904647 3.2330697
-1.7861199 -0.79604799 3.2440951
1.2329733 -0.7701385 3.2291718
2.4804032 -0.76972884 3.2228718
-2.00897 -0.700504 3.20731
-1.9711829 -0.71199304 3.2180874
-1.9292213 -0.7348454 3.2237475
-1.8904433 -0.74419528 3.2399199
1.2432075 -0.71646821 3.2338574
1.25756 -0.71782964 3.2148201
2.4984851 -0.7252785 3.2371349
2.5093951 -0.72295702 3.2145052
-2.0585067 -0.65652597 3.2079
-2.0223958 -0.66818875 3.2242513
-1.9806867 -0.68528134 3.2389164
1.186235 -0.65888649 3.23682
1.2270217 -0.67520911 3.2218115
1.2646933 -0.67226571 3.2093933
2.5219347 -0.67681068 3.2208984
-2.1212025 -0.60676223 3.2158098
-2.0787513 -0.62082428 3.2258339
-2.0397666 -0.63041872 3.2445266
1.1789583 -0.6266315 3.2298634
1.214555 -0.62942964 3.2035515
1.2644949 -0.64095128 3.2060699
2.542872 -0.62507617 3.22364
2.5515001 -0.60183102 3.21628
-2.1271067 -0.58189303 3.2411602
-2.09271 -0.58652103 3.2486501
1.1690688 -0.58216101 3.2191663
2.5659499 -0.57470125 3.2206049
1.1813419 -0.52270108 3.2281041
2.5810683 -0.5280565 3.2220001
1.1911666 -0.48327732 3.225497
1.2052 -0.45827502 3.217895
2.592545 -0.49125901 3.2292449
2.6100001 -0.46259177 3.2179902
1.2177919 -0.42379421 3.2120743
2.6300366 -0.42229533 3.2170801
1.236726 -0.36675 3.2202561
2.6425765 -0.39165464 3.22367
2.6509099 -0.36026001 3.2247801
-2.66189 -0.30015999 3.2009101
-2.6121399 -0.31747499 3.20924
-2.5816667 -0.32299832 3.2180033
1.24362 -0.33919451 3.2360601
1.25695 -0.3212195 3.2133701
2.6741333 -0.32314679 3.2259948
-2.7115002 -0.2646395 3.2100849
-2.6642723 -0.27313 3.2234025
-2.6246517 -0.28794017 3.232867
-2.5827401 -0.29966301 3.24492
1.27065 -0.27634802 3.2269843
2.6918876 -0.27600425 3.2268398
-2.7723498 -0.2095035 3.214395
-2.7273216 -0.22767499 3.2235615
-2.6833503 -0.23991899 3.2427666
1.274408 -0.22205558 3.2253737
2.712095 -0.22399475 3.2270825
-2.8172519 -0.1645468 3.2153339
-2.7822299 -0.1758018 3.2310181
-2.7483799 -0.190696 3.24033
1.27938 -0.17668168 3.2217064
2.7315202 -0.17168359 3.2255359
-2.8673999 -0.1154325 3.221025
-2.8344126 -0.129765 3.2362449
1.28461 -0.13363966 3.2213266
1.3002 -0.112559 3.23049
2.7356601 -0.133555 3.2319801
2.7524002 -0.12091 3.2278633
-2.8741276 -0.086556673 3.2292953
-1.6318001 -0.066084899 3.2428501
-1.369125 -0.064319447 3.2365651
-1.34207 -0.06419 3.23805
-1.26045 -0.063345402 3.2156301
-1.2201775 -0.067119747 3.215045
-1.16933 -0.070689701 3.2084398
1.3144675 -0.084142298 3.22122
2.7738819 -0.076204531 3.223753
-1.86429 -0.033245899 3.21223
-1.8361701 -0.0219345 3.2257264
-1.77389 -0.032826599 3.2025599
-1.7173266 -0.027319198 3.2384768
-1.6752067 -0.021594001 3.2361333
-1.6265862 -0.030456776 3.2278538
-1.5632867 -0.021289535 3.2248566
-1.52793 -0.0156525 3.211925
-1.4672199 -0.031979199 3.22543
-1.44937 -0.031945501 3.22788
-1.3274733 -0.047433566 3.2029734
1.32824 -0.0476573 3.2105899
2.7879565 -0.03139497 3.2346499
2.8038399 -0.018440399 3.2045801
-2.30931 0.00080206798 3.2492499
-2.2551701 0.036425401 3.2081499
-1.81793 0.00076408399 3.2061601
-1.66599 0.00075695198 3.2118649
-1.62421 0.00075405801 3.20855
-1.5909899 0.00075085397 3.2014699
1.31744 0.016944399 3.22929
2.8086166 0.020212499 3.2281897
-2.4341199 0.092627898 3.24049
-2.3700368 0.085718177 3.2371864
-2.3151727 0.07310757 3.2388699
-2.2657723 0.076678671 3.2137225
-2.2269299 0.071723901 3.2027299
2.835686 0.082479171 3.2255421
-2.5204599 0.149584 3.2451601
-2.4708002 0.11738601 3.2290335
-2.4211366 0.128327 3.2103865
-2.3889399 0.11882299 3.214725
-2.3186898 0.1085875 3.2073898
1.41799 0.115722 3.2446301
2.8438835 0.124344 3.2362201
2.8576701 0.137363 3.22702
-2.60622 0.17954749 3.245965
-2.5731049 0.17854249 3.239995
-2.53947 0.168212 3.2332799
-2.4916201 0.166256 3.2072999
1.4897066 0.18210132 3.2311566
2.8439901 0.157196 3.24736
2.8638499 0.1801708 3.217628
-1.5659001 0.247614 3.20259
1.469075 0.23917201 3.2251501
2.8715651 0.22545874 3.220325
-1.6208633 0.282958 3.2117531
-1.5767034 0.27420381 3.2231035
-1.538695 0.2733475 3.2255449
1.4753383 0.2799125 3.2151051
2.8763916 0.27471802 3.2225666
-3.5464001 0.31874701 3.2023201
-1.7694632 0.33231965 3.2061265
-1.7314174 0.33314699 3.2157526
-1.6744722 0.32091299 3.2221179
-1.6292167 0.3127965 3.2328584
-1.5977499 0.30145201 3.2441001
-1.4835 0.33169201 3.24806
1.4805502 0.33035368 3.2226684
1.50156 0.345943 3.2039199
2.7829599 0.349897 3.2376201
2.8315766 0.32589164 3.2348869
2.8753624 0.32353249 3.2176552
-3.6321602 0.37626553 3.20228
-1.807165 0.382146 3.206435
-1.7765923 0.37438887 3.2282557
-1.7300633 0.36158666 3.2334263
-1.6897601 0.36016297 3.2352664
-1.01284 0.366505 3.2409201
-0.99130303 0.364429 3.22632
1.4854866 0.369315 3.2229998
1.5027001 0.37087351 3.2041001
2.5696149 0.39767551 3.2477798
2.62376 0.39331165 3.23685
2.6733451 0.38275301 3.2317901
2.7276633 0.37903604 3.2305467
2.7725198 0.37755573 3.2227149
2.8193598 0.36048472 3.2238274
2.8546548 0.36124951 3.2092149
-3.7176001 0.413203 3.20065
-3.5759802 0.41630799 3.2028551
-1.855895 0.43650299 3.2114401
-1.8254716 0.42337999 3.2296512
1.51448 0.4234255 3.2242751
2.4272602 0.42548299 3.2235067
2.4792883 0.42856118 3.2251997
2.5258 0.42184651 3.2256024
2.5759976 0.42393726 3.2163277
2.6280401 0.42623898 3.2080774
2.6716335 0.40745631 3.2210665
2.7194951 0.40299401 3.2121949
2.75617 0.40414 3.20082
-1.910475 0.49083599 3.2052701
-1.8701019 0.47515041 3.2244041
-1.00889 0.46013999 3.2189701
1.2808967 0.49130735 3.2461269
1.330014 0.48596221 3.240068
1.356565 0.483834 3.22771
1.4335999 0.49142933 3.2373333
1.5135429 0.46612573 3.2295301
2.58323 0.45176199 3.20402
-1.95131 0.537992 3.2120399
-1.9160018 0.52548295 3.2229435
-1.8874067 0.50743133 3.2328498
-0.98715466 0.51790833 3.2151868
-0.934214 0.537395 3.2142401
0.66377699 0.549963 3.2392001
0.72901303 0.54130465 3.2408369
0.77894068 0.53788465 3.2437599
0.82940435 0.53985935 3.2463701
0.87852603 0.54078931 3.2420499
0.93296146 0.53840172 3.2407176
0.97875613 0.53548533 3.2374334
1.0264975 0.5304091 3.2325528
1.078119 0.5291844 3.2353082
1.1294563 0.53367293 3.2267661
1.173311 0.52452928 3.227123
1.2224337 0.52525091 3.2274635
1.2735589 0.52097023 3.2234435
1.3261477 0.52245069 3.2166321
1.368305 0.50667596 3.2080851
1.4414001 0.512317 3.22332
1.4787266 0.52058148 3.2290912
1.50535 0.50059301 3.23792
-1.9705236 0.58013988 3.2195151
-1.9300934 0.56999367 3.2410069
-1.166635 0.58263397 3.2344451
-1.1490901 0.577905 3.21032
-0.90859747 0.55984402 3.2093301
-0.87738973 0.57311374 3.2151499
-0.83284748 0.59459698 3.2161198
0.18292999 0.59038103 3.2454848
0.22177367 0.59051031 3.24422
0.27596474 0.59019578 3.2391326
0.32665801 0.58682078 3.2387724
0.37807202 0.58434635 3.2427616
0.42433915 0.5837447 3.2349403
0.47167921 0.57679123 3.2355356
0.52150667 0.57831448 3.2291248
0.57635111 0.57666528 3.2297716
0.6289202 0.57813114 3.222131
0.67840505 0.57343608 3.220855
0.72160995 0.57198751 3.21767
0.77117079 0.56090969 3.2175128
0.82341772 0.56541836 3.2188814
0.87367064 0.56146985 3.2209101
0.92370945 0.56305999 3.2195282
0.9731192 0.56413966 3.2145569
1.0211834 0.55643064 3.2051067
1.07549 0.55988532 3.2125235
1.115345 0.55980849 3.201185
-2.3617699 0.64385903 3.2349801
-2.0145366 0.6260137 3.21649
-1.9848826 0.62384832 3.23703
-1.15274 0.61191797 3.2158799
-1.14834 0.62561101 3.20121
-0.82173312 0.62898326 3.2162499
-0.104308 0.63805199 3.2479999
-0.06269633 0.64142668 3.2388632
-0.0242348 0.63911211 3.2313313
0.019940045 0.63661182 3.2315178
0.073974818 0.63402194 3.2277575
0.12668583 0.62860227 3.2282982
0.17425442 0.62575954 3.2229233
0.22059289 0.62374312 3.2213488
0.27065566 0.61915022 3.2174463
0.33062845 0.61330259 3.2129457
0.37520146 0.61079663 3.2137668
0.41753125 0.60666847 3.2087498
0.47637802 0.60402596 3.2093475
0.52229905 0.60342956 3.200515
0.59415603 0.60575002 3.2032399
-2.3276181 0.68177974 3.2315338
-2.2956901 0.67732501 3.2453201
-2.0609734 0.68240935 3.2075768
-2.0242331 0.66918212 3.230479
-1.184075 0.66419601 3.22136
-0.92542648 0.69363052 3.2046149
-0.87488806 0.69072199 3.2132382
-0.82417566 0.67145324 3.2307501
-0.474123 0.69142902 3.2486248
-0.41825402 0.689879 3.247
-0.36983424 0.69107401 3.2379551
-0.32223555 0.68542075 3.2340331
-0.27444398 0.68267542 3.224262
-0.22800526 0.67713171 3.2282875
-0.17636436 0.66946065 3.224967
-0.1221448 0.66634065 3.2216461
-0.077060901 0.66398144 3.218847
-0.029329199 0.66752321 3.2055779
0.019836238 0.66158563 3.2074335
0.08883135 0.66032898 3.2002449
0.111887 0.66058803 3.2008901
-2.32394 0.73341995 3.2269433
-2.1140001 0.74959302 3.21755
-2.0712481 0.72926807 3.2284389
-2.0346251 0.71993005 3.2465
-1.20763 0.71241099 3.2042899
-0.96841604 0.73093474 3.215765
-0.92646343 0.7268523 3.2310898
-0.87608898 0.71905917 3.2385921
-0.83343965 0.70649928 3.2399032
-0.71705598 0.74648798 3.2426801
-0.67532235 0.74414802 3.2389534
-0.62342083 0.736287 3.24104
-0.57706928 0.73193353 3.2352467
-0.52582431 0.73034346 3.2247565
-0.47861108 0.72344553 3.2191491
-0.43023089 0.72114712 3.2221324
-0.37339076 0.71403605 3.2133422
-0.32396823 0.7157613 3.2068524
-0.28841501 0.71000499 3.2014401
-0.226427 0.70898497 3.2004399
-2.3589499 0.78995103 3.2045801
-2.3275049 0.77842468 3.2297633
-2.1209266 0.769934 3.2245934
-2.0894935 0.77529794 3.2366569
-1.064925 0.7893495 3.2113199
-1.0238588 0.77615887 3.2281475
-0.98412257 0.77793884 3.2444627
-0.87269342 0.79031426 3.2419424
-0.82394022 0.78183413 3.23314
-0.77463967 0.77305162 3.2306221
-0.72433203 0.77057326 3.2230217
-0.67368084 0.76685035 3.2152646
-0.62224346 0.76098633 3.2129018
-0.56969976 0.75491071 3.2115474
-2.4233332 0.83626765 3.2117033
-2.3694735 0.82637334 3.2245634
-2.3371565 0.8174867 3.2297268
-1.219425 0.82560402 3.2156148
-1.18142 0.84081465 3.2066734
-1.1092401 0.84077299 3.20296
-1.0743024 0.82613677 3.2129815
-1.0280023 0.82414222 3.2253532
-0.97444695 0.82431823 3.224931
-0.92472678 0.81835538 3.2253988
-0.87722874 0.8146286 3.2199814
-0.81895703 0.8128233 3.2068849
-0.7765125 0.80589098 3.2034149
-2.5159032 0.87804168 3.2060766
-2.469588 0.87454242 3.2230763
-2.4188025 0.869169 3.235745
-2.39663 0.858531 3.24418
-1.3303475 0.8873862 3.2410977
-1.2769815 0.87950438 3.2333057
-1.2214249 0.87133777 3.217865
-1.1767167 0.86846066 3.20451
-1.1097701 0.85734802 3.2011399
-1.0754067 0.85568833 3.2035201
-1.02328 0.85252935 3.2040033
-0.97795469 0.85569531 3.2051001
-2.57444 0.93180132 3.2103136
-2.5221801 0.91654778 3.225862
-2.4758632 0.9130283 3.2432568
-1.66737 0.94995803 3.2458999
-1.6315351 0.94415498 3.2365899
-1.5819701 0.94014639 3.239867
-1.5194783 0.93599701 3.2346849
-1.4744416 0.92788607 3.2306566
-1.4265163 0.92227638 3.2251625
-1.3790128 0.91849953 3.2262931
-1.3246332 0.90612864 3.2182932
-1.2764901 0.90488929 3.2053463
-1.23909 0.90158302 3.20382
-3.23594 0.97341102 3.20382
-2.6716552 0.98474395 3.2129149
-2.6189401 0.96427006 3.2116868
-2.5825274 0.96690845 3.2316475
-2.5385268 0.96027404 3.2430298
-2.16642 0.98755699 3.2495
-2.12275 0.99815154 3.2347498
-2.0771899 0.99365103 3.2392201
-2.0281749 0.98731256 3.2370548
-1.9756451 0.99012649 3.2349825
-1.9206899 0.98605919 3.2367301
-1.8671061 0.97314119 3.2392879
-1.8248171 0.98292047 3.2265561
-1.780434 0.97980464 3.2294922
-1.7239239 0.9742648 3.2279425
-1.6768084 0.97011775 3.2249317
-1.6241965 0.97404903 3.2138665
-1.5767419 0.95881426 3.2152519
-1.5296534 0.96285868 3.2067966
-1.4901201 0.959108 3.20702
-3.24177 1.00227 3.24087
-2.7197132 1.0254034 3.2145233
-2.6731775 1.0179524 3.2255373
-2.6279299 1.0250567 3.2400935
-2.59354 1.04214 3.2469201
-2.371515 1.04105 3.2408252
-2.3274701 1.0432601 3.23262
-2.2709901 1.0364875 3.2356975
-2.2207348 1.02816 3.2278252
-2.1726327 1.0235085 3.2223113
-2.1197376 1.0262625 3.2127924
-2.0800266 1.01473 3.2188065
-2.0224116 1.015805 3.21331
-1.9747651 1.0141599 3.2173851
-1.927485 1.0168101 3.2129452
-1.8783625 1.0093551 3.2062697
-1.83465 1.01332 3.2052951
-1.788415 1.0069 3.2008948
-2.7612576 1.0782324 3.2097251
-2.7224417 1.0691949 3.2256851
-2.680995 1.0763276 3.2302976
-2.6348276 1.0761875 3.2361276
-2.5752552 1.0770667 3.2320232
-2.5188935 1.07445 3.2253201
-2.4818275 1.0827 3.225435
-2.4252887 1.0713915 3.22316
-2.36919 1.073285 3.2095001
-2.3246534 1.0653833 3.2160566
-2.2828 1.0541101 3.22013
-2.2496901 1.06564 3.2048199
-2.84321 1.13065 3.20351
-2.778245 1.110525 3.20368
-2.7306535 1.1207266 3.2035332
-2.68086 1.1083651 3.21206
-2.6266899 1.1115124 3.2157526
-2.5632401 1.11037 3.206645
-2.5223899 1.10499 3.2091601
-2.4998701 1.10342 3.21647
1.78282 -2.4656749 3.2727098
1.798905 -2.4400899 3.2685699
0.443699 -2.2513101 3.25946
0.48085102 -2.2550366 3.26036
0.51755702 -2.25635 3.2574799
0.3780385 -2.2124898 3.2647977
0.42129356 -2.2263412 3.2746677
0.4696717 -2.2357466 3.2830334
0.52452415 -2.230355 3.2802966
0.55831498 -2.2075768 3.2663002
0.28052172 -2.1613998 3.2613502
0.32618374 -2.1784484 3.2689059
0.36518103 -2.185605 3.2908225
0.57415152 -2.1745701 3.2765002
0.227066 -2.1166718 3.2674818
0.27394325 -2.1296501 3.2828789
0.58555049 -2.139575 3.277365
0.60825932 -2.1198733 3.2745569
0.14398175 -2.0656152 3.2599676
0.17563967 -2.0744517 3.2725265
0.2150865 -2.081147 3.2872498
0.62720627 -2.074275 3.2815251
0.65055501 -2.05388 3.2636001
0.080701686 -2.0116498 3.2650738
0.12562171 -2.0306487 3.279494
0.16695499 -2.0425601 3.29708
0.65473354 -2.0176549 3.2804074
-0.01064765 -1.95831 3.2573299
0.026822995 -1.9705486 3.2693143
0.070190787 -1.9862579 3.2838738
0.67699027 -1.9732876 3.2698326
-0.076461896 -1.910876 3.2561538
-0.028151957 -1.93011 3.2773998
0.01550532 -1.94332 3.288805
0.69679999 -1.9357901 3.270365
-0.165563 -1.85765 3.2530601
-0.12538262 -1.8724 3.2706041
-0.082414851 -1.8767812 3.2839987
-0.0456811 -1.89966 3.2906401
0.71676022 -1.8757639 3.267458
-0.2165755 -1.80879 3.2600451
-0.18285622 -1.82354 3.268738
-0.144951 -1.8335974 3.2882152
0.7344408 -1.8218759 3.270052
-0.3011145 -1.76704 3.2563949
-0.2633794 -1.7717538 3.2676537
-0.22288483 -1.784655 3.280695
-0.18374801 -1.79688 3.29847
0.74419397 -1.79018 3.29866
0.75966048 -1.7749798 3.2664852
-0.35959822 -1.7092174 3.26138
-0.3182658 -1.7243768 3.2737687
-0.27927634 -1.7411 3.28174
0.77305245 -1.732385 3.2848151
-0.45056099 -1.6569 3.2509301
-0.41109231 -1.6707258 3.2650044
-0.37621671 -1.6798302 3.2804458
-0.327618 -1.694 3.2948952
0.79077518 -1.6714661 3.2727478
-0.51330727 -1.60807 3.2577376
-0.46685424 -1.6215333 3.273627
-0.42250839 -1.6389059 3.2833061
0.79895699 -1.61883 3.2818401
0.80689001 -1.626075 3.2737851
-0.60082799 -1.5500799 3.2608099
-0.56567132 -1.5647956 3.2668245
-0.52185768 -1.5805399 3.281697
-0.48747399 -1.5989799 3.2944
0.82681453 -1.56337 3.2658949
-0.65812099 -1.5124199 3.256125
-0.61835724 -1.5212871 3.2731919
-0.57340139 -1.534128 3.2904084
0.83884603 -1.5332999 3.2783401
1.28127 -1.50063 3.2551799
-0.71300173 -1.4581975 3.2680674
-0.67403907 -1.4771172 3.2743604
-0.63574499 -1.48524 3.2867
0.85696071 -1.4682599 3.27688
1.14205 -1.4616801 3.2518599
1.1754975 -1.4625249 3.2685223
1.2302499 -1.4686155 3.2751653
1.2714161 -1.4810261 3.2796662
1.33649 -1.45135 3.2641399
-0.816531 -1.4092 3.25863
-0.77314961 -1.4173077 3.2710667
-0.72889435 -1.4375772 3.2835901
0.86765403 -1.40152 3.26984
1.04602 -1.41399 3.2577
1.0796381 -1.418854 3.270638
1.1235 -1.4305062 3.2716365
1.16854 -1.4300776 3.2885876
1.20699 -1.44318 3.2852099
1.342096 -1.4184439 3.269938
1.35677 -1.4018101 3.28391
-0.86285675 -1.364476 3.261404
-0.81818247 -1.3783233 3.2765267
-0.77816874 -1.39031 3.2902
0.87877965 -1.3788633 3.2747734
0.98220199 -1.3590266 3.2651665
1.0273211 -1.3783666 3.2760708
1.0709583 -1.3758835 3.2942019
1.11191 -1.39844 3.2994599
1.360935 -1.370965 3.2790699
-0.95786047 -1.30664 3.2570748
-0.91805482 -1.3179933 3.2712736
-0.87502122 -1.3327734 3.2835333
-0.82875901 -1.34814 3.2944951
0.89072704 -1.3376967 3.2643499
0.92206216 -1.3162578 3.2783144
0.96752816 -1.3283666 3.2883952
1.01086 -1.3445899 3.2869501
1.3774186 -1.3202387 3.2760985
-1.02527 -1.262246 3.262754
-0.97489995 -1.2789688 3.2741065
-0.93370366 -1.2933 3.2941301
1.38624 -1.29152 3.2941699
1.4109299 -1.274578 3.2811482
-1.113405 -1.211205 3.26421
-1.0678962 -1.2243663 3.2673135
-1.0249771 -1.2348442 3.2863228
-0.98989499 -1.24819 3.2948401
1.427175 -1.2162975 3.2699125
-1.1695867 -1.1607283 3.2730398
-1.1266351 -1.182425 3.2783873
-1.0869499 -1.1935133 3.2921302
1.4370284 -1.1783167 3.2812264
-1.274685 -1.1135616 3.2672532
-1.2310818 -1.1270546 3.2765479
-1.1945651 -1.140615 3.2797649
1.441965 -1.13205 3.28216
2.23985 -1.110165 3.2557349
2.283195 -1.11761 3.261065
-1.4012901 -1.05063 3.25002
-1.3682799 -1.0555174 3.2624426
-1.3240556 -1.07125 3.2700756
-1.2869549 -1.088775 3.2774875
2.2882977 -1.0799725 3.2899225
2.3073249 -1.07312 3.2706451
-1.4633867 -1.0092667 3.2541599
-1.4225276 -1.0191263 3.2687273
-1.3792483 -1.0269016 3.2814283
-1.3428 -1.0408 3.29967
2.2182 -1.04791 3.29966
-1.523612 -0.9610132 3.2653141
-1.4768367 -0.97654557 3.2785869
-1.4307534 -0.99141771 3.2898533
1.2922699 -0.96396798 3.2898099
2.35869 -0.957955 3.2588601
-1.61 -0.91063499 3.2634799
-1.57161 -0.92453635 3.2703388
-1.5265319 -0.93749875 3.2865822
1.22706 -0.91380262 3.2764466
1.2787399 -0.92880601 3.2612801
2.3658965 -0.92072964 3.2653968
-1.70155 -0.861929 3.2506001
-1.6644901 -0.86925858 3.266494
-1.6244025 -0.88151181 3.2788825
-1.580685 -0.89195246 3.2920651
1.2103125 -0.86625147 3.2789226
