ply
format ascii 1.0
comment PCL generated
element vertex 1566
property float x
property float y
property float z
element camera 0
property float view_px
property float view_py
property float view_pz
property float x_axisx
property float x_axisy
property float x_axisz
property float y_axisx
property float y_axisy
property float y_axisz
property float z_axisx
property float z_axisy
property float z_axisz
property float focal
property float scalex
property float scaley
property float centerx
property float centery
property int viewportx
property int viewporty
property float k1
property float k2
end_header
1.582955 0.17534076 2.6311111
1.6199666 0.18888168 2.6123135
1.6677899 0.1789545 2.623965
3.0422699 0.18001933 2.6298265
3.05057 0.197293 2.6040499
-2.5929301 0.216185 2.64785
-1.14186 0.237776 2.6023901
-1.075475 0.21657699 2.60605
1.5942049 0.22049749 2.6393349
1.62483 0.21414675 2.63638
1.67276 0.201832 2.64568
3.0404449 0.22536001 2.6415148
3.0575502 0.228055 2.6187432
3.069555 0.27128267 2.6312282
3.0932901 0.31687701 2.6151049
3.1060133 0.33968997 2.62918
3.1146777 0.37366325 2.627455
3.1287553 0.42102352 2.633775
3.157902 0.48136157 2.62007
3.1724374 0.52567226 2.6220524
1.6311519 0.56833935 2.6324439
1.6631 0.56980699 2.61569
3.1851201 0.57063437 2.6285598
3.2012 0.59369999 2.61708
3.1982801 0.61527199 2.64557
3.2087135 0.627276 2.6286032
3.2131751 0.67226338 2.6288302
3.2238727 0.72125649 2.6268823
3.23665 0.76776522 2.6301038
3.2516301 0.791143 2.61446
3.2281621 0.83334601 2.6347461
3.2549067 0.82958364 2.6061232
3.0090799 0.89591402 2.6498301
3.1742051 0.891518 2.6472149
3.2257223 0.876481 2.62375
2.6837001 0.93789202 2.6398101
2.8424001 0.94419199 2.6399801
2.9461901 0.94235802 2.64396
2.9833226 0.93633795 2.6308274
3.0297 0.92989796 2.6342573
3.082695 0.93439651 2.6396849
3.1182084 0.93163157 2.6236539
3.17662 0.91895223 2.6321175
3.20609 0.92060471 2.6114633
1.7365401 0.99768603 2.6471751
1.835345 0.9950645 2.64202
1.8757701 0.99253398 2.63995
1.932848 0.9865734 2.64009
1.9831525 0.99228227 2.6376977
2.0311399 0.9840048 2.6346259
2.0822859 0.98549813 2.6348379
2.115768 0.98289138 2.6299939
2.1773787 0.98420513 2.6305127
2.2287426 0.98729974 2.6291077
2.2779868 0.98164493 2.6323586
2.3180599 0.98080605 2.6320925
2.3728716 0.9824459 2.6320965
2.4227328 0.9763537 2.6288059
2.473454 0.97736043 2.625792
2.523972 0.97842658 2.625864
2.5764749 0.98103273 2.6231649
2.6215785 0.97114116 2.6275985
2.6741664 0.97016168 2.6256883
2.7208176 0.9764542 2.6195102
2.7714384 0.96854657 2.6313784
2.8188651 0.96585697 2.6262825
2.8652401 0.97987103 2.6111851
2.918838 0.96823299 2.6229241
2.9661367 0.96500796 2.6115034
3.02474 0.96800798 2.60973
3.0729234 0.96320868 2.6098733
1.5251874 1.0414375 2.6414623
1.5710434 1.0412549 2.6314633
1.6248913 1.0370142 2.6323757
1.6798922 1.0307655 2.6278532
1.7231268 1.0270681 2.624855
1.7774212 1.0288444 2.6244555
1.8216238 1.0192362 2.6246099
1.8743613 1.0217545 2.6152143
1.9243351 1.0143501 2.6192784
1.9719374 1.0176851 2.6128101
2.0249083 1.0091367 2.610965
2.07832 1.0081999 2.60568
2.1287966 1.0106367 2.6043231
2.1622601 1.00576 2.6080799
2.2357099 1.00116 2.60954
2.2710052 1.006 2.604985
2.3443699 1.00376 2.6173999
2.3600399 1.00339 2.60448
2.5855401 1.00678 2.6094501
2.6819849 1.003315 2.6026249
0.97894305 1.0995867 2.6417866
1.04123 1.09258 2.6456101
1.07204 1.0953833 2.6430433
1.1224471 1.0914587 2.6397316
1.1790583 1.0844134 2.6406784
1.2310143 1.0857627 2.6344774
1.2784464 1.0810992 2.6320384
1.3267123 1.0774033 2.6310186
1.376555 1.07542 2.62761
1.4242361 1.075408 2.6208248
1.4751153 1.0664972 2.6247311
1.5265844 1.0649828 2.6143043
1.57772 1.0657641 2.6073799
1.6282876 1.0595299 2.6085174
1.6734533 1.0571967 2.6036768
0.64578098 1.14617 2.6457801
0.67411631 1.1479234 2.6441934
0.72270477 1.1422524 2.6388361
0.77257562 1.1383268 2.6368456
0.82519525 1.1296035 2.6374292
0.87785739 1.1304382 2.6327407
0.9257412 1.125756 2.6276286
0.97512263 1.1298225 2.6192398
1.0252601 1.1229414 2.6206079
1.0751475 1.1192375 2.6175773
1.1298887 1.1129729 2.6154771
1.1751913 1.1120813 2.6141763
1.220076 1.110294 2.612926
1.2703199 1.1088766 2.6067297
1.31739 1.1048625 2.60991
1.35393 1.10482 2.60566
0.33102319 1.1954739 2.6410539
0.37613702 1.1914034 2.6362677
0.42324668 1.1904049 2.6355011
0.47562084 1.1834666 2.6345942
0.52546299 1.1805825 2.6291625
0.57562053 1.1735024 2.627085
0.62353414 1.172866 2.6244521
0.67587984 1.1741334 2.6167133
0.72436178 1.1690075 2.6133599
0.7760334 1.1639687 2.6124787
0.8261798 1.157045 2.6115265
0.87652975 1.1533649 2.6081724
0.91903549 1.1549649 2.6000299
-0.02234591 1.2425367 2.6445234
0.031580143 1.2379057 2.6392114
0.07929375 1.2377599 2.6361728
0.12700981 1.2349339 2.6321893
0.17266679 1.2304811 2.6305354
0.22772452 1.2255917 2.62589
0.27592021 1.2198865 2.624068
0.32203183 1.2187665 2.6196847
0.3711729 1.2194401 2.61323
0.43010509 1.2139933 2.6098735
0.47228676 1.2081375 2.6111624
0.52299678 1.2085974 2.6041627
0.571024 1.2004267 2.6039333
-0.405348 1.29978 2.6398799
-0.37215963 1.2929261 2.642956
-0.32619786 1.2897059 2.641957
-0.27381188 1.2849163 2.6390347
-0.22541666 1.2869878 2.6301847
-0.1758007 1.2809037 2.6299694
-0.12337699 1.2747236 2.6265492
-0.076044567 1.2724516 2.6231468
-0.028902171 1.2706276 2.6199493
0.021451538 1.2649642 2.6163332
0.077623695 1.2643801 2.6113043
0.121767 1.2617725 2.6071351
0.17178899 1.2572775 2.6035774
0.20518801 1.25704 2.6010499
-0.75232399 1.34763 2.6446099
-0.72284299 1.3449135 2.6455066
-0.67346048 1.3440975 2.6368825
-0.62454867 1.3344901 2.6406736
-0.57435644 1.33197 2.6306539
-0.52453363 1.3279712 2.6306698
-0.47369406 1.3259354 2.6277559
-0.42778987 1.3229024 2.6214304
-0.37618887 1.3208734 2.6196368
-0.3293772 1.3153738 2.6164401
-0.27177346 1.3084756 2.6156209
-0.22451998 1.3091635 2.6095734
-0.1769775 1.30665 2.60729
-0.136439 1.3051651 2.6061549
-0.089117102 1.30147 2.60023
-1.11251 1.3952399 2.64327
-1.0241899 1.3908616 2.6441383
-0.96361476 1.3849399 2.6408401
-0.92486298 1.3866788 2.6331537
-0.8692013 1.380718 2.6316679
-0.82591951 1.3765019 2.6293838
-0.77767003 1.3758661 2.6245623
-0.72539437 1.3730761 2.6202955
-0.67704225 1.3687549 2.6180277
-0.6259439 1.3642845 2.613539
-0.57633901 1.3597624 2.6108327
-0.52168649 1.3551774 2.6025724
-0.472119 1.35033 2.6005099
-1.418615 1.4488101 2.6422601
-1.3849001 1.44503 2.6483099
-1.3205034 1.4396067 2.6430283
-1.27386 1.4363999 2.6350901
-1.2299963 1.43572 2.6312239
-1.1817541 1.433283 2.632565
-1.1279753 1.4254992 2.6277139
-1.0763665 1.4221774 2.6197908
-1.0288551 1.4186029 2.6169453
-0.97961086 1.4145243 2.6166375
-0.92834705 1.410045 2.6107049
-0.87811244 1.409578 2.6075242
-0.82234532 1.4038668 2.6038334
-0.79274797 1.4011199 2.6057501
-1.7284 1.493485 2.63903
-1.676415 1.4899167 2.6354783
-1.6212467 1.4823484 2.638375
-1.5752363 1.4794836 2.63468
-1.5242337 1.4767861 2.6318023
-1.4764678 1.4774956 2.6263223
-1.4272256 1.4716533 2.6219532
-1.3758168 1.468169 2.6232724
-1.3314117 1.4701351 2.6134799
-1.2824961 1.458234 2.6168761
-1.2370332 1.4595933 2.6096132
-1.16493 1.455615 2.603395
-1.13939 1.45084 2.6027
-2.0327966 1.5390667 2.6415603
-1.9744349 1.537025 2.6308784
-1.9205066 1.5344133 2.6321199
-1.8720372 1.5266229 2.6275356
-1.8245686 1.524747 2.6232188
-1.7759641 1.5164187 2.6235118
-1.7230483 1.5153484 2.6123934
-1.6798999 1.50956 2.6142249
-1.6320641 1.5076361 2.6085179
-1.56673 1.5059226 2.6096399
-1.53371 1.5112799 2.6064899
-1.486305 1.5018101 2.6078448
-2.4028001 1.5984401 2.6466401
-2.37341 1.5903 2.6445799
-2.3360033 1.5919367 2.6381199
-2.2767625 1.5907425 2.630055
-2.2345898 1.5848199 2.6417301
-2.1755114 1.5805386 2.6284387
-2.1308429 1.5704515 2.6306872
-2.0783582 1.568675 2.6232834
-2.0290027 1.56423 2.6179152
-1.978965 1.5587001 2.6103902
-1.9216833 1.5558332 2.60584
-1.87675 1.5506001 2.60376
-2.66203 1.64535 2.6493001
-2.60005 1.64694 2.64082
-2.5333667 1.6425167 2.6385901
-2.4721251 1.625865 2.6320176
-2.4286535 1.62257 2.63025
-2.376374 1.6257359 2.6186841
-2.3182375 1.6131425 2.6090674
-2.2677951 1.609975 2.6082401
-2.225405 1.6121501 2.6156576
-2.9204099 1.69402 2.6454501
-2.8092766 1.6798366 2.6330264
-2.7731168 1.6788768 2.6388199
-2.7273202 1.6808519 2.627604
-2.6806102 1.6733681 2.6308141
-2.6359401 1.6666266 2.6301467
-2.5713649 1.6610525 2.6147149
-2.5241535 1.6660666 2.61553
-2.4275601 1.6577066 2.6068966
-2.9632699 1.7270499 2.63872
-2.94257 1.7339 2.6091199
-2.8822899 1.70139 2.63468
-2.824635 1.71134 2.6168151
-2.7372301 1.7132 2.60186
-0.60694599 -2.15873 2.6742101
-0.5777244 -2.16732 2.6903801
-0.67014134 -2.1175871 2.6701121
-0.62495297 -2.1313915 2.6881831
-0.59260398 -2.14779 2.6934099
-0.76913226 -2.0641401 2.6624174
-0.72971171 -2.0760446 2.6754637
-0.68975979 -2.0882518 2.6891479
-0.86425471 -2.0076234 2.6625798
-0.82203996 -2.0265152 2.668328
-0.77554721 -2.0321038 2.6834052
-0.74414903 -2.0348899 2.6984701
0.78316402 -2.0007801 2.66435
1.07569 -2.0082002 2.6546102
1.1307478 -2.0241747 2.6709824
1.1683635 -2.0295568 2.6886466
-0.95299798 -1.95128 2.65236
-0.92052424 -1.9608361 2.6628079
-0.87503129 -1.9796119 2.6804709
-0.82396978 -1.9938624 2.6930425
0.7850647 -1.965155 2.67626
0.99274898 -1.9617651 2.661725
1.029345 -1.9736063 2.6721723
1.0730737 -1.9809737 2.6859739
1.11801 -1.9957299 2.68908
1.1662101 -1.96668 2.66115
-1.0215499 -1.902565 2.6560001
-0.97474039 -1.9199427 2.6669283
-0.92791301 -1.9320929 2.6865745
-0.89688498 -1.94812 2.69594
0.78886402 -1.9248126 2.6799424
0.81443 -1.9223 2.6804302
0.88203698 -1.90248 2.6538799
0.92515385 -1.9189399 2.6666272
0.97266912 -1.9315737 2.6759601
1.01451 -1.93459 2.69698
-1.1048501 -1.85313 2.65115
-1.07253 -1.8621019 2.6628041
-1.027715 -1.8742139 2.676235
-0.98016679 -1.8904301 2.6895001
0.82594991 -1.8751378 2.6705
0.87602735 -1.8755599 2.6795151
0.91624272 -1.890795 2.683615
1.2827275 -1.8738675 2.6767876
1.30819 -1.87035 2.6605501
-1.15754 -1.8137566 2.6594234
-1.1226956 -1.8259901 2.6689134
-1.0805 -1.8337271 2.6859841
-1.04083 -1.84707 2.6961398
0.83254248 -1.8417116 2.6874716
0.86761999 -1.8436 2.6976099
1.29838 -1.8474801 2.6981201
1.31104 -1.8287899 2.6707242
-1.2193813 -1.7600937 2.6707199
-1.1755621 -1.7766083 2.6792974
-1.1288149 -1.7945576 2.6920099
1.32129 -1.778054 2.6688323
-1.3213079 -1.7090361 2.660588
-1.2745281 -1.7221055 2.6744025
-1.231005 -1.736565 2.6873767
1.3394074 -1.7178825 2.66998
1.35051 -1.7015001 2.6721101
-1.4119749 -1.6592751 2.65589
-1.3710612 -1.6725237 2.6655939
-1.3299837 -1.6782575 2.6839685
-1.2900901 -1.69291 2.6947751
1.3592333 -1.6754751 2.6691902
-1.5001 -1.60026 2.65433
-1.4670715 -1.6115901 2.6641812
-1.4249381 -1.6268054 2.6773198
-1.3819917 -1.6374933 2.6898067
-1.34536 -1.64737 2.69872
1.3716371 -1.6254414 2.6792397
2.1045001 -1.60412 2.6702001
-1.5563501 -1.5632935 2.6580467
-1.5198901 -1.5734956 2.669662
-1.4794316 -1.5797566 2.6877565
1.3891883 -1.5743266 2.6739399
1.40483 -1.55055 2.65697
2.1615701 -1.57488 2.66137
2.2639699 -1.558795 2.65696
-1.65149 -1.50201 2.65799
-1.6159444 -1.5186133 2.6657093
-1.572908 -1.5257417 2.6801927
-1.5355301 -1.5423301 2.6912334
1.396835 -1.53573 2.68928
1.410404 -1.5162519 2.6695638
2.0069599 -1.50186 2.6716399
2.2821913 -1.5335 2.6770198
2.30059 -1.53178 2.6677599
-1.7181749 -1.46584 2.6600976
-1.6729578 -1.4757845 2.6735332
-1.6295049 -1.4872376 2.6890597
1.4209833 -1.4721817 2.6823285
2.0236049 -1.4719299 2.68454
2.0678475 -1.4715576 2.6818826
2.12427 -1.47632 2.6856201
2.1508999 -1.46622 2.6944599
2.2998199 -1.4687099 2.6581199
2.3015425 -1.4738325 2.6857977
-1.80686 -1.40385 2.65467
-1.7711934 -1.4208133 2.6649246
-1.7288349 -1.431487 2.6820183
-1.68867 -1.4435567 2.6927433
1.4348739 -1.421212 2.6767881
2.0374699 -1.439945 2.6934352
2.0747232 -1.4280801 2.6903832
2.12309 -1.44458 2.6791301
2.178865 -1.44266 2.6921649
2.3264399 -1.4241213 2.6743624
2.3594999 -1.41389 2.6573248
-1.8718001 -1.361586 2.6623061
-1.82944 -1.3773611 2.669179
-1.7866999 -1.3821534 2.6888716
1.44699 -1.38878 2.6743069
1.4607974 -1.3659875 2.6705551
2.03704 -1.3844399 2.6981499
2.33143 -1.3920701 2.6993799
2.3717875 -1.3732525 2.6731737
-1.9549201 -1.30811 2.6588299
-1.918815 -1.320475 2.6696634
-1.8759174 -1.3321576 2.6820798
-1.824975 -1.348155 2.6914999
1.4792399 -1.3250717 2.67785
1.9788001 -1.33459 2.698
2.3925698 -1.3335934 2.6758068
2.4078667 -1.3096399 2.6703634
-2.0248318 -1.2620499 2.65978
-1.9806174 -1.2756664 2.6743758
-1.9341201 -1.2852167 2.6923418
1.4913449 -1.2795024 2.6828625
1.5019 -1.26797 2.6704249
2.4177856 -1.2717184 2.6762969
-2.1101899 -1.2123801 2.6591599
-2.0694826 -1.2226913 2.6668448
-2.0269902 -1.2290717 2.6867402
-1.98533 -1.23721 2.6993999
1.5169625 -1.2253087 2.6702888
2.4347699 -1.2315617 2.6768532
2.453995 -1.20827 2.6696351
-2.1710198 -1.162405 2.6637449
-2.1292009 -1.177339 2.6767066
-2.083868 -1.19121 2.6885502
1.5387039 -1.1757689 2.6763985
1.55074 -1.18364 2.65049
2.4610384 -1.1732783 2.6737602
-2.2663534 -1.10967 2.6585033
-2.2207918 -1.1239481 2.6664979
-2.1851282 -1.1316117 2.6828117
1.548775 -1.1428599 2.680445
1.563316 -1.1152021 2.670728
2.4849367 -1.1223117 2.6754782
-2.3552499 -1.05761 2.65027
-2.3182242 -1.0675172 2.6641827
-2.2767775 -1.0814987 2.6744924
-2.2271276 -1.0947125 2.6894925
1.57601 -1.0775688 2.6781473
2.5043166 -1.0791984 2.6738684
-2.417788 -1.00957 2.6591959
-2.373785 -1.02449 2.6754663
-2.3279016 -1.0352234 2.6864336
1.5931101 -1.0280939 2.6846538
1.6092075 -1.0155125 2.66712
2.5236971 -1.0247443 2.6734943
-2.51594 -0.95915902 2.65119
-2.4732802 -0.97109056 2.6647613
-2.4321418 -0.9752866 2.6864359
-2.39272 -0.99183846 2.684515
1.6282122 -0.97636497 2.6723433
1.6792542 -0.96643245 2.6629829
1.7103701 -0.98682702 2.656955
2.5419822 -0.9804408 2.6788201
2.5571201 -0.95648801 2.65711
-2.5661349 -0.92304504 2.65553
-2.5259743 -0.92911887 2.6707344
-2.4793067 -0.93757266 2.6875999
1.64318 -0.94533098 2.6895001
1.6696901 -0.94001621 2.6862624
1.70345 -0.93864298 2.69414
2.5638428 -0.92477381 2.6737173
-2.66132 -0.85567802 2.65271
-2.6217129 -0.86604869 2.6692615
-2.5759816 -0.88885146 2.6752715
-2.5283232 -0.89245439 2.6933832
2.5893657 -0.87696683 2.6734002
-2.7215023 -0.81638932 2.6636624
-2.6748464 -0.82836443 2.6774187
-2.6263967 -0.83432102 2.6923332
2.6096442 -0.81996584 2.67415
-2.775605 -0.7743057 2.6668961
-2.7290001 -0.78620118 2.683315
-2.6912401 -0.79596698 2.69839
2.6235716 -0.77212638 2.6759799
-2.8186767 -0.71621233 2.6656482
-2.7761497 -0.73240834 2.6864135
-2.7402 -0.747962 2.6979301
2.638948 -0.72433221 2.6764619
2.65066 -0.70222801 2.6617
-2.9591601 -0.657579 2.65323
-2.9196181 -0.66290367 2.670414
-2.8758221 -0.67967463 2.668318
-2.8292465 -0.68446594 2.6873734
-2.78795 -0.69901001 2.69469
2.6419899 -0.68732703 2.68748
2.6576536 -0.66967696 2.6757233
-3.0121899 -0.60956395 2.6642051
-2.9682672 -0.62494385 2.6762271
-2.93437 -0.64207 2.6944301
2.673593 -0.62577254 2.6736772
-3.0714061 -0.57480019 2.6642957
-3.0228238 -0.57891303 2.6757579
-2.9884701 -0.59219301 2.69171
2.6877873 -0.58375251 2.6676874
2.710835 -0.55144203 2.67311
-3.1710548 -0.51317501 2.6633649
-3.119365 -0.52789181 2.6689718
-3.0705099 -0.53227335 2.6928265
2.7191427 -0.52199548 2.6782875
-3.2200351 -0.47643051 2.6782923
-3.1778333 -0.49020866 2.6777298
-3.1410899 -0.4851945 2.6888151
2.736526 -0.48011503 2.6752839
-3.2269166 -0.43918064 2.6942766
2.7458 -0.449388 2.6761999
2.7563798 -0.42861921 2.6705577
2.777086 -0.37760082 2.6719081
2.7913475 -0.33922824 2.6867547
2.8068035 -0.318315 2.6671765
2.81517 -0.27827248 2.6735115
1.84385 -0.20848501 2.6925199
2.8355942 -0.2300034 2.672636
1.47716 -0.15504099 2.6914501
1.5333561 -0.16184679 2.6890919
1.57487 -0.16419199 2.688035
1.6246479 -0.1606928 2.68098
1.675895 -0.166379 2.6834526
1.7274925 -0.17116174 2.6798897
1.7820839 -0.16698721 2.6703541
1.8290638 -0.17943026 2.6801739
1.865465 -0.17410299 2.6650975
2.8638201 -0.17481367 2.674325
1.4352615 -0.12557358 2.6801028
1.4728385 -0.1298957 2.6708558
1.5261499 -0.13377416 2.6682351
1.5730534 -0.14186233 2.6702664
1.625955 -0.13885501 2.6577849
1.6726325 -0.139769 2.6563199
1.7267001 -0.144564 2.657105
2.8858356 -0.12501755 2.6724226
1.4728439 -0.072739556 2.6864238
2.9108534 -0.069984667 2.67468
-2.65221 -0.049836699 2.6851399
-2.6277075 -0.032853477 2.6825976
1.4889414 -0.029560128 2.6751328
2.9298999 -0.025873475 2.6770425
-2.59481 0.00069730199 2.6564701
-1.16352 0.041370399 2.6958101
-1.1326534 0.041234568 2.6959066
-1.08746 0.0410605 2.6974599
1.49789 0.00063742301 2.66856
1.5145915 0.030953702 2.6754401
2.9472699 0.00072475098 2.6772001
2.9650438 0.022153649 2.674262
-2.5643549 0.075195551 2.6682124
-1.10499 0.0544095 2.6844149
-1.0695583 0.065490849 2.6901333
1.5331463 0.076774351 2.6705377
2.9688499 0.068597257 2.6770661
-2.5839767 0.11442617 2.6776981
-1.03714 0.120785 2.6822901
1.5454367 0.11471999 2.6868601
1.5592101 0.131303 2.6659341
2.9918098 0.11421133 2.6732366
3.0071166 0.13852167 2.6753902
-2.5916076 0.17133351 2.6709926
1.5663638 0.17526424 2.6729615
1.71763 0.190845 2.6865399
1.75033 0.176552 2.67662
3.0269558 0.17839058 2.6713328
-2.5870302 0.21706967 2.6710699
-1.07482 0.21379 2.6596601
1.5788945 0.22452135 2.6784301
1.6254801 0.23954134 2.6587532
1.6720133 0.23317234 2.6833966
1.7139349 0.2132335 2.6947601
3.0437067 0.22418366 2.6820133
-2.8061652 0.2685805 2.678735
1.5896399 0.26706201 2.69065
1.6186661 0.26612839 2.682832
3.0494699 0.25535101 2.69573
3.0602901 0.27328551 2.679625
-2.81738 0.34054968 2.6635532
3.0808916 0.32851681 2.6684818
-2.80496 0.38309199 2.6973701
3.0936973 0.37558722 2.674885
3.0991099 0.404908 2.69278
3.1109979 0.4270784 2.680692
1.9346433 0.473755 2.6926668
1.9534 0.49113601 2.69595
3.1414981 0.47663102 2.6673639
1.58723 0.52297699 2.6872699
1.63061 0.52929503 2.6744535
1.6641001 0.52427101 2.6568201
3.1413867 0.51903695 2.6811969
3.1545701 0.52735549 2.65763
1.5941399 0.56548768 2.6703701
1.6154432 0.56447405 2.6533568
3.1499801 0.55755103 2.6826301
3.1680081 0.58108884 2.67395
3.1784201 0.62624002 2.6782799
3.18592 0.67117518 2.6795239
3.2002699 0.69424301 2.6663201
3.19681 0.71645099 2.6937301
3.20663 0.72835869 2.6761734
3.2115753 0.77418488 2.6757286
3.14976 0.845792 2.6911099
3.1871879 0.83360082 2.6784561
3.21487 0.81270999 2.66907
2.84852 0.89843398 2.6919
2.9447 0.89318103 2.68961
2.9773276 0.88557249 2.6728349
3.0337901 0.88486803 2.67647
3.0713577 0.88109499 2.6785851
3.1226459 0.87407321 2.6726241
3.1740932 0.87050599 2.6590834
1.8445801 0.94257897 2.68994
1.876755 0.94707453 2.6891551
1.922475 0.93869102 2.6957049
1.97938 0.93931782 2.6914761
2.0287061 0.93825561 2.684696
2.08024 0.93826032 2.6903267
2.1209359 0.93504477 2.6844919
2.17326 0.93265343 2.6845002
2.2293966 0.93303376 2.6816883
2.2753861 0.9335826 2.681438
2.3166065 0.93145299 2.6802368
2.37251 0.9355635 2.6767197
2.4305758 0.92873621 2.6801083
2.476315 0.93143356 2.6767225
2.5236652 0.93049401 2.6806333
2.5765817 0.92972422 2.6815665
2.6200159 0.93041402 2.6701698
2.6727021 0.92169267 2.67819
2.7291579 0.92895526 2.671402
2.7765357 0.92237651 2.6771979
2.8231421 0.92474681 2.67205
2.8748167 0.92901301 2.6659667
2.9232361 0.92146742 2.6741958
2.9666901 0.91664368 2.6598434
3.073015 0.90659702 2.655925
1.5269151 0.994681 2.68712
1.572845 0.99275476 2.6862574
1.6295799 0.98502487 2.6879215
1.6766278 0.9815197 2.6803489
1.7236713 0.97830969 2.6778374
1.7763755 0.97424358 2.676662
1.8260401 0.97262812 2.6701798
1.8700272 0.97281617 2.6634412
1.9180433 0.96246409 2.6705234
1.9759134 0.96521336 2.6685183
2.02753 0.96318632 2.6622267
2.0731001 0.95776623 2.66329
2.1340899 0.95675498 2.6611433
2.17732 0.96015447 2.658895
2.2258449 0.95903552 2.6584549
2.2780449 0.95910454 2.661
2.3264201 0.95730102 2.65784
2.3606601 0.96111399 2.6506
2.4110999 0.951325 2.65011
2.4964001 0.96482402 2.6500101
2.53174 0.95482999 2.66136
2.57406 0.961016 2.6589851
2.89252 0.95480603 2.6544499
0.99147201 1.04333 2.6989999
1.0228167 1.0465133 2.6984863
1.07134 1.0454326 2.6911726
1.128088 1.0378481 2.6936221
1.1773218 1.036715 2.6869135
1.2277837 1.0361862 2.6844888
1.276472 1.039448 2.676723
1.3242055 1.0292822 2.6802089
1.3752651 1.0276333 2.6787655
1.4238499 1.0277729 2.673322
1.4729233 1.0226008 2.6707973
1.5251534 1.0181644 2.6700966
1.580215 1.0168017 2.6628184
1.6202432 1.009225 2.6631081
1.6623768 1.0110999 2.6572266
1.77246 1.00517 2.6542799
0.57478851 1.09958 2.6978099
0.63830698 1.0887001 2.6979799
0.67401922 1.0907149 2.6960649
0.72675222 1.08865 2.6896124
0.77678698 1.084303 2.689225
0.82444751 1.0840021 2.6850877
0.87392151 1.0811588 2.6813273
0.92553103 1.0785757 2.6764715
0.97439289 1.0744032 2.6764259
1.0246265 1.0732214 2.6719491
1.079067 1.0700941 2.6669052
1.1253611 1.0638634 2.6692309
1.1709114 1.0625029 2.6620157
1.2182783 1.0635116 2.6571534
1.257995 1.0597551 2.6540799
1.3322934 1.0531566 2.65185
1.428465 1.0510449 2.6530199
0.249999 1.1459399 2.69981
0.27699566 1.1448067 2.6949131
0.32471722 1.144855 2.6905899
0.38383242 1.1363572 2.685107
0.42913389 1.1358186 2.6835415
0.47561836 1.1335891 2.6824541
0.52642035 1.1302854 2.6812322
0.57531416 1.1263407 2.6772711
0.62466478 1.1250664 2.6724179
0.67369586 1.1176749 2.6714635
0.72681713 1.1144592 2.6659153
0.77726501 1.11085 2.6649065
0.82307255 1.1089081 2.6606102
0.87064946 1.10861 2.6554949
0.95166099 1.10025 2.65183
-0.0090508396 1.18845 2.6995299
0.025015527 1.1920738 2.6896725
0.081215762 1.1847309 2.6865354
0.12680182 1.1793299 2.6830888
0.17567992 1.176506 2.6814215
0.22833201 1.1734936 2.6747448
0.2757791 1.1734108 2.6708326
0.32130715 1.1704557 2.6674693
0.37678146 1.1650872 2.6626174
0.42542368 1.1639684 2.6610544
0.46890986 1.16003 2.6597183
0.52155596 1.15668 2.65604
-0.459905 1.24932 2.6988049
-0.4317055 1.247975 2.69946
-0.36782169 1.24268 2.6951368
-0.32478115 1.2433367 2.6832416
-0.27658057 1.2356383 2.6880834
-0.22307047 1.2316064 2.6862493
-0.17389216 1.2301258 2.6796668
-0.12473775 1.2264636 2.6765838
-0.07688991 1.223636 2.6716712
-0.030513152 1.2180506 2.6722579
0.022230592 1.2169161 2.664294
0.079059713 1.2120688 2.6629701
0.12352119 1.208562 2.6572161
0.17347001 1.202865 2.656095
0.2138785 1.2021401 2.6520052
-0.67371899 1.2880628 2.6919515
-0.62427902 1.2896234 2.68345
-0.57291687 1.281832 2.6815162
-0.52319765 1.2800509 2.6760702
-0.4749178 1.2772585 2.6741757
-0.42585462 1.2761157 2.6682808
-0.37406239 1.2688085 2.6710813
-0.32331267 1.2652034 2.661135
-0.27506351 1.263255 2.6611426
-0.22670217 1.2599934 2.6577251
-0.1883868 1.2572 2.6574521
-1.00977 1.34987 2.6908901
-0.97505099 1.3419466 2.6836598
-0.92467916 1.341472 2.6820221
-0.87523627 1.3387113 2.6809974
-0.82277942 1.3361912 2.6791966
-0.77162939 1.3255798 2.6776984
-0.72732717 1.3178533 2.6759388
-0.67666715 1.3188082 2.6677291
-0.63012683 1.310138 2.661324
-0.57372522 1.307245 2.656615
-0.53476167 1.3016534 2.65992
-1.40277 1.395 2.69104
-1.36756 1.3899368 2.6938732
-1.326808 1.391036 2.688168
-1.2743758 1.3836786 2.6871884
-1.2252656 1.3805233 2.6870766
-1.1695663 1.3782874 2.6770654
-1.1197811 1.3749689 2.6728134
-1.0743192 1.3754841 2.6698959
-1.0215278 1.3655357 2.6712537
-0.97421449 1.3653762 2.6648648
-0.92413116 1.3618866 2.6610451
-0.88625932 1.3573633 2.6556699
-0.8316533 1.3532934 2.6612401
-0.77645898 1.35305 2.6503501
-1.8409801 1.44786 2.69765
-1.7569799 1.44757 2.69449
-1.7217226 1.43793 2.6888576
-1.6734749 1.4382149 2.6911783
-1.619104 1.430856 2.6866939
-1.5746715 1.4279172 2.6795201
-1.529482 1.4266229 2.6752954
-1.472813 1.423913 2.6776202
-1.4250277 1.4189833 2.6769197
-1.3749889 1.4208177 2.6656179
-1.3255601 1.4150966 2.6662266
-1.2755049 1.4115349 2.6647515
-1.223362 1.4106519 2.6603322
-1.174855 1.409145 2.6515899
-2.0330734 1.4813334 2.6916134
-1.9786761 1.486356 2.6897979
-1.9285468 1.4887567 2.6725199
-1.8759201 1.4819375 2.6749625
-1.8208874 1.4755151 2.6774175
-1.7762088 1.4729637 2.6718435
-1.7266757 1.4716257 2.6644971
-1.67027 1.46261 2.6665082
-1.6260475 1.4591925 2.6649776
-1.58382 1.45284 2.6596301
-1.525035 1.45629 2.652735
-1.481655 1.4512351 2.6610651
-2.3731999 1.5494 2.6975999
-2.2797201 1.5359399 2.6940351
-2.2284598 1.536052 2.67906
-2.1702249 1.5325433 2.675
-2.1222885 1.5221919 2.6773584
-2.0766926 1.5247475 2.6673975
-2.022126 1.511722 2.6702399
-1.9784725 1.513715 2.6665125
-1.92699 1.50713 2.655575
-1.873455 1.50459 2.65588
-1.83327 1.5060199 2.6582999
-2.6080899 1.59802 2.6729
-2.5814667 1.5902267 2.6892469
-2.52214 1.583205 2.6912999
-2.4779401 1.5868349 2.67484
-2.42852 1.5792879 2.6763778
-2.3759222 1.5652319 2.6731763
-2.3225217 1.567565 2.6710584
-2.2726474 1.5654376 2.6709275
-2.21942 1.55462 2.6503
-2.1974399 1.5509599 2.6545999
-2.8710999 1.64933 2.68538
-2.8190467 1.6335001 2.6793766
-2.78807 1.6279449 2.6871901
-2.7216549 1.6332074 2.6755476
-2.6756625 1.6200451 2.6869049
-2.6212051 1.6276176 2.6588676
-2.5720074 1.6191125 2.670305
-2.5174825 1.613035 2.6632352
-2.9260502 1.6692867 2.6778667
-2.8732135 1.6719866 2.6642969
-2.7755599 1.65757 2.6582098
-2.9781899 1.7165999 2.6628101
-0.51849103 -2.20029 2.71121
-0.47160599 -2.20456 2.7233601
-0.42490268 -2.2108166 2.7372701
-0.39322299 -2.2127099 2.7434001
-0.57111299 -2.1560149 2.7077899
-0.52193612 -2.1744621 2.7197289
-0.47401384 -2.1898201 2.7300053
-0.61681604 -2.1095777 2.7163577
-0.58035636 -2.1234686 2.7217162
-0.53338051 -2.1393049 2.7386386
-0.71477598 -2.05619 2.70292
-0.67034751 -2.069066 2.7202978
-0.63160986 -2.0791399 2.7329886
-0.59528297 -2.09306 2.7450299
0.75624299 -2.0542901 2.7471499
-0.77224302 -2.0091324 2.7113349
-0.72137135 -2.0255518 2.7249243
-0.68100041 -2.0381334 2.73756
0.7682687 -2.0178125 2.7245102
1.17098 -2.0020299 2.71487
-0.8578257 -1.9589434 2.7115002
-0.82029718 -1.96952 2.7189398
-0.78023726 -1.9808862 2.7370577
-0.74035954 -1.9982901 2.7430949
0.77622062 -1.97657 2.7275333
1.0792476 -1.95503 2.716485
1.1233617 -1.97341 2.7217433
1.1646066 -1.976325 2.7293215
-0.91999251 -1.908345 2.7113326
-0.87624037 -1.9237392 2.7250662
-0.82751602 -1.9391675 2.741235
0.78483659 -1.9126034 2.7275898
0.98411381 -1.9087441 2.7133961
1.02993 -1.9269819 2.721014
1.0726261 -1.934716 2.7333019
1.12474 -1.94396 2.744545
1.2321301 -1.91618 2.7316899
1.2543933 -1.91197 2.7282569
-1.01021 -1.85771 2.7115166
-0.97268087 -1.8675036 2.7200251
-0.92987263 -1.882091 2.7324266
0.79597932 -1.8866833 2.7178266
0.80796397 -1.855595 2.715765
0.889144 -1.8564 2.71206
0.92845786 -1.8710251 2.7200899
0.96942276 -1.88433 2.7335527
1.0114551 -1.896755 2.7406449
1.27511 -1.8761672 2.7202156
-1.0701771 -1.8097471 2.7134686
-1.0244251 -1.8240532 2.7284789
-0.98070872 -1.838295 2.7426798
0.82426196 -1.8170099 2.7288401
0.87088197 -1.8257887 2.7307796
0.90891147 -1.84198 2.7339349
1.291106 -1.8331921 2.7276902
1.3019 -1.80481 2.7325699
-1.15766 -1.7543499 2.7095499
-1.1259326 -1.7698976 2.7165327
-1.0782659 -1.7776091 2.7340722
-1.03836 -1.79368 2.74614
0.839517 -1.78828 2.7494299
0.86405551 -1.7911 2.7476549
1.3149167 -1.7712799 2.7248402
-1.25212 -1.7095799 2.7033401
-1.2175741 -1.715224 2.7118258
-1.177592 -1.7242 2.7279489
-1.1335781 -1.738344 2.7395861
1.3297017 -1.725315 2.7261
-1.30615 -1.6604967 2.7144768
-1.2712632 -1.6723185 2.7222393
-1.2258885 -1.6863272 2.733197
1.3454959 -1.681406 2.727742
1.3581001 -1.66414 2.7119801
-1.41212 -1.60594 2.7048399
-1.3715286 -1.6164256 2.7149527
-1.3264433 -1.627974 2.7289448
-1.2804899 -1.6380401 2.74423
1.3638967 -1.6225632 2.7245467
-1.4666033 -1.5670233 2.7070568
-1.4277325 -1.5724492 2.7252457
-1.3795956 -1.5870658 2.736253
1.3814001 -1.573458 2.7235882
-1.5614001 -1.50541 2.70943
-1.5219992 -1.5215355 2.7213733
-1.4772555 -1.5378623 2.7309012
-1.44915 -1.54967 2.7320499
1.3927275 -1.532935 2.72576
1.40107 -1.5017999 2.7158501
2.2439101 -1.51143 2.7046101
2.2759235 -1.5059366 2.7050502
-1.6208401 -1.4630644 2.718461
-1.5771061 -1.4767989 2.7271018
-1.5344174 -1.489905 2.7402477
1.4115282 -1.4737301 2.7319882
2.1880901 -1.47991 2.70856
2.2327299 -1.4527299 2.71368
2.283035 -1.4684917 2.7257833
-1.7163401 -1.4069734 2.7105935
-1.6721891 -1.423032 2.7221689
-1.63841 -1.4366881 2.7312858
1.4304327 -1.4251128 2.7270043
2.0249336 -1.42826 2.7218301
2.0508151 -1.4186449 2.70574
2.1275101 -1.44323 2.7177236
2.1676641 -1.4166839 2.719516
2.2441101 -1.4429899 2.73488
2.3084319 -1.42497 2.7258918
-1.80489 -1.35087 2.70982
-1.7681012 -1.3673178 2.7189245
-1.7237101 -1.383877 2.7287285
-1.680675 -1.39422 2.743185
1.4438699 -1.38999 2.7367799
1.455305 -1.3671299 2.7198949
2.0323849 -1.378715 2.7116151
2.0831099 -1.3736351 2.7206101
2.1354799 -1.35549 2.71787
2.1658165 -1.3788233 2.7301235
2.326055 -1.372545 2.7178674
2.3622434 -1.3655466 2.7169964
-1.8660635 -1.3142699 2.7098732
-1.8260833 -1.3228621 2.7218022
-1.7892433 -1.3337101 2.7378767
1.4688985 -1.3277843 2.7239244
1.99194 -1.32709 2.72262
2.0313001 -1.31489 2.71768
2.0760701 -1.32033 2.7253101
2.122365 -1.3384275 2.73207
2.335175 -1.3477399 2.74068
2.3846667 -1.3293567 2.7201884
-1.9598351 -1.252365 2.7054849
-1.9201783 -1.2615434 2.71965
-1.8803799 -1.2785208 2.7305255
-1.84132 -1.2960651 2.7407
1.4882535 -1.2718216 2.7259381
2.0403099 -1.28775 2.74282
2.0787349 -1.29618 2.7452049
2.3893099 -1.2928433 2.7346299
2.4091675 -1.2724199 2.7274625
-2.0152967 -1.2155633 2.7080166
-1.9735787 -1.222945 2.7250888
-1.928375 -1.235145 2.7399302
1.4960099 -1.24303 2.7471499
1.5082915 -1.2241957 2.7236173
2.4228716 -1.2273383 2.7268698
-2.1073751 -1.16301 2.7059951
-2.0696299 -1.1672312 2.7206287
-2.0271692 -1.1808534 2.730911
-1.9925749 -1.19807 2.7423449
1.5274671 -1.1704656 2.7223155
2.4411001 -1.1845275 2.7307699
2.4555433 -1.1615866 2.7167132
-2.1694825 -1.1170075 2.7100048
-2.1268389 -1.1286633 2.7233567
-2.0799 -1.1412667 2.74055
1.540445 -1.1298 2.7344775
1.55207 -1.1206033 2.7136364
2.4692786 -1.1251886 2.7249787
-2.2648549 -1.0576301 2.711005
-2.2256725 -1.0690725 2.7203064
-2.1802764 -1.0865151 2.7307913
-2.1431601 -1.09973 2.7451501
1.54994 -1.08885 2.72032
1.56941 -1.0724384 2.720793
2.4885499 -1.07012 2.7251835
2.51178 -1.05169 2.7084301
-2.3618 -1.00114 2.7074201
-2.3255949 -1.0105499 2.7150149
-2.27812 -1.0297837 2.72473
-2.2399399 -1.0379801 2.7437432
1.5820371 -1.0295415 2.7285445
2.5085759 -1.0221961 2.727098
-2.4168999 -0.96309108 2.7116935
-2.3727949 -0.96924102 2.7261999
-2.3242948 -0.98654813 2.7337732
-2.28917 -0.99843001 2.7444401
1.59735 -0.99934 2.7307899
1.6192758 -0.9708907 2.7188156
2.5326333 -0.97547466 2.722543
-2.4712961 -0.91861737 2.7105379
-2.4272938 -0.92882627 2.7282662
-2.390125 -0.94218099 2.7432299
1.641318 -0.92878294 2.7261422
1.6750617 -0.91700631 2.719857
1.7162566 -0.91790962 2.73399
2.5409498 -0.93686062 2.7209899
2.5607133 -0.91103166 2.7289035
-2.568362 -0.86100304 2.7111859
-2.5193729 -0.87311023 2.726923
-2.4813278 -0.88618785 2.7371502
-2.44963 -0.898103 2.7474
1.6770834 -0.89300537 2.7418997
1.7061599 -0.88740402 2.7481799
2.5773032 -0.87325615 2.7247498
-2.619102 -0.81489259 2.715868
-2.58149 -0.82966876 2.7324083
-2.5441999 -0.83917499 2.74577
2.595705 -0.82942551 2.7182248
-2.7107849 -0.76439548 2.710325
-2.6769667 -0.77741051 2.7235382
-2.6329525 -0.78961402 2.73051
2.5989699 -0.79853398 2.74576
2.610606 -0.7738784 2.7185519
-2.7665944 -0.7161693 2.7227287
-2.7257116 -0.73358387 2.7323916
-2.6941049 -0.7408185 2.74439
2.626915 -0.72633523 2.7221
-2.87078 -0.65551698 2.7079799
-2.821193 -0.6706934 2.7246726
-2.7829034 -0.67417938 2.7355535
2.637162 -0.6785776 2.7291141
2.653255 -0.66434896 2.7041149
-2.9211931 -0.61856335 2.711585
-2.8740199 -0.62495381 2.7267601
-2.8375602 -0.63821304 2.7402248
2.64522 -0.64072001 2.73225
2.6656847 -0.61874348 2.7179475
-3.013135 -0.56819355 2.70276
-2.978426 -0.56849259 2.7170138
-2.9301429 -0.57836372 2.7318399
-2.8847699 -0.58919799 2.7484
2.6812899 -0.57226318 2.7238581
2.7021101 -0.57235903 2.7082901
-3.0622149 -0.51776451 2.7083001
-3.0295503 -0.52584583 2.7241135
-2.9839332 -0.53571469 2.7374566
2.6933851 -0.530671 2.7379498
2.7112801 -0.51565689 2.7214966
-3.171665 -0.46082199 2.702745
-3.1189525 -0.46761799 2.7188025
-3.0763514 -0.48097733 2.73119
2.7273698 -0.46789402 2.7274415
-3.273675 -0.42192501 2.7144151
-3.2188001 -0.40909651 2.71766
-3.1801939 -0.42205161 2.724298
-3.14025 -0.43648502 2.7362401
2.7435701 -0.42215842 2.7280579
2.761435 -0.40099749 2.71365
-3.2659981 -0.37118238 2.7264099
-3.22806 -0.38572034 2.7334869
-3.1922801 -0.39060199 2.74474
2.768364 -0.37070799 2.7271478
-3.3030601 -0.34041101 2.74771
-3.275075 -0.32905751 2.74137
2.781384 -0.32896239 2.7253201
2.7905598 -0.2974405 2.7214301
2.8118134 -0.26883632 2.71822
1.49128 -0.20131899 2.74769
1.514045 -0.20146349 2.73983
1.5724201 -0.20656824 2.7374101
1.6306301 -0.21053259 2.7387538
1.67976 -0.21318583 2.7339499
1.7295275 -0.21480025 2.7350249
1.7697301 -0.21605626 2.7351201
1.8233125 -0.22298764 2.7266612
2.8286242 -0.22609356 2.7255399
1.4217113 -0.166448 2.7309163
1.4727588 -0.17236049 2.71908
1.517174 -0.17437878 2.7175639
1.5651432 -0.187084 2.7178333
1.6248519 -0.182496 2.71156
1.6706066 -0.18918867 2.7047367
1.71768 -0.1903515 2.70208
1.779825 -0.19229299 2.70542
2.8453534 -0.18191101 2.7246866
2.8552465 -0.17040233 2.72422
-2.7079899 -0.102491 2.74051
-2.6725199 -0.10179 2.73458
1.4275925 -0.12381226 2.7315373
2.8679843 -0.12348528 2.727773
-2.7014351 -0.07650625 2.7345049
-2.6835799 -0.076470494 2.746525
1.4459951 -0.092058495 2.7342501
1.4614013 -0.0744882 2.7163985
2.8864334 -0.082423031 2.7359765
2.9062161 -0.066904142 2.7146602
1.4792366 -0.02792185 2.7259884
2.916465 -0.026076801 2.7279925
-2.6415901 0.0177109 2.7342501
-1.20583 0.041897301 2.7207601
-1.171865 0.025686482 2.7152483
-1.1204175 0.021026433 2.7174914
-1.0745873 0.019067317 2.7171383
-1.0304707 0.023532085 2.7270839
-0.97244579 0.010741929 2.7297049
1.4954 0.0077808299 2.7121673
1.5054274 0.036542073 2.7301927
2.9272025 0.0052063665 2.7221875
2.95399 0.036731452 2.730895
-2.61479 0.051506899 2.73611
-2.5770099 0.084681399 2.72574
-1.06162 0.054596499 2.70836
-1.0358402 0.07492587 2.7192032
1.5167272 0.070375189 2.7244513
2.97522 0.084877498 2.7228966
-2.5741715 0.12387683 2.7265666
-1.0408067 0.11327901 2.7180865
1.5356021 0.12060389 2.7227311
1.55612 0.14422899 2.7043099
2.9865284 0.12737149 2.7265766
-2.5879328 0.166656 2.7257874
1.5435539 0.171244 2.732456
1.5562401 0.178322 2.7135165
1.7704901 0.19341201 2.7065899
3.0104167 0.17605199 2.7193868
-2.6023967 0.21975933 2.71667
-2.5954499 0.22060251 2.7393751
1.5400851 0.21058249 2.737025
1.5593987 0.22471599 2.7215462
1.72866 0.237249 2.7163148
1.7659632 0.21382368 2.7189932
1.81479 0.21167 2.74191
3.0303733 0.219613 2.7296083
-2.6186831 0.27201167 2.7301197
-2.5944433 0.25942531 2.7256935
1.5844049 0.27717349 2.7288516
1.6196333 0.29145399 2.7076066
1.6778368 0.27524135 2.7209435
1.7180266 0.27819684 2.7382534
1.7522 0.26184797 2.7359052
3.0384374 0.26590076 2.7337375
3.0553851 0.29317302 2.7142701
-2.8124599 0.34925801 2.70807
1.5965 0.307154 2.7309699
1.6214166 0.31504568 2.7244833
1.66573 0.31788552 2.73437
1.70292 0.31326801 2.74792
3.070962 0.3275364 2.721884
-2.7821102 0.3909885 2.7043252
3.0858417 0.37384358 2.7371938
-2.7827499 0.40225601 2.7341499
1.95669 0.44945699 2.7381499
2.00231 0.437159 2.7412801
3.0918934 0.41336834 2.7294066
3.1036 0.44495001 2.7249801
1.6247499 0.47681302 2.710465
1.65201 0.485672 2.70682
1.94554 0.462277 2.7203701
1.9879349 0.45721599 2.71838
2.01847 0.45285901 2.73014
3.1187024 0.47358775 2.7180223
1.5789167 0.51360035 2.7289867
1.6179934 0.50871998 2.7102535
1.8890575 0.52586502 2.7309375
1.9196916 0.51912934 2.7110136
3.1308749 0.52198315 2.7219384
1.6013499 0.58616 2.7010801
1.84551 0.55236501 2.74896
1.8656549 0.55150151 2.731535
1.9201435 0.58344632 2.7379267
1.96099 0.55897498 2.7272401
3.1448576 0.57101524 2.7267225
3.1542001 0.59902501 2.71334
1.89057 0.60288203 2.7439499
1.9117399 0.60467601 2.7430401
3.14676 0.61059201 2.73873
3.16364 0.63334501 2.7270298
3.1770802 0.67652345 2.7331378
3.17854 0.7230016 2.73193
3.0845001 0.787377 2.7484801
3.1459899 0.78389847 2.7376351
3.1773317 0.77512652 2.7157917
2.9303751 0.84238946 2.738575
2.9792602 0.84052998 2.7255332
3.0334265 0.83019763 2.7353766
3.0837076 0.82797974 2.729625
3.1230981 0.82323629 2.7209938
3.1619849 0.82081997 2.7086051
1.82858 0.88815302 2.74769
1.881685 0.89482301 2.7459202
1.92378 0.89329767 2.7388
1.97671 0.89001966 2.7417698
2.0276949 0.88694429 2.7344999
2.0736859 0.88740015 2.730844
2.1254649 0.884996 2.7415099
2.1681175 0.88909566 2.73282
2.219425 0.88839197 2.7360649
2.2742321 0.88837183 2.7322021
2.3257051 0.88567096 2.73473
2.3698649 0.88282746 2.7333298
2.4266801 0.88005036 2.7413921
2.4775238 0.87575758 2.7377179
2.523838 0.8811208 2.731524
2.5777476 0.88830745 2.7243302
2.6218233 0.87896699 2.7298584
2.6795802 0.88155174 2.7327576
2.7223155 0.87582213 2.7262757
2.7735875 0.87092674 2.7290049
2.8216538 0.88472575 2.7210221
2.8743365 0.87128377 2.7308102
2.9205518 0.87180865 2.7181058
2.9674866 0.86769563 2.7072766
3.0270548 0.860623 2.7104602
3.0742002 0.85672349 2.7049298
1.52203 0.94623101 2.7469201
1.5750725 0.94344872 2.74142
1.632576 0.93508422 2.7367721
1.677352 0.93360978 2.7334282
1.7244887 0.93110585 2.7330158
1.7785025 0.92793196 2.7265351
1.8243158 0.92812026 2.7196071
1.8713938 0.92108583 2.7221198
1.9273342 0.91685981 2.7215028
1.973572 0.91414756 2.7168782
2.0176051 0.914285 2.7120652
2.0729125 0.91713226 2.7080927
2.1217501 0.90826774 2.7131674
2.17802 0.910833 2.70714
2.2192602 0.90547526 2.7145526
2.2764449 0.90778601 2.7066102
2.3314333 0.90970701 2.7051432
2.3761702 0.90400398 2.702455
2.432085 0.90707499 2.7209249
2.4702466 0.90784961 2.711673
2.5014801 0.90522999 2.7055299
2.62923 0.90553153 2.70366
2.7306399 0.90136802 2.7002699
2.8989899 0.90857399 2.7072401
1.0107501 0.99913001 2.7474751
1.07401 0.99078721 2.7381675
1.13065 0.98933327 2.7394199
1.17458 0.98937869 2.7367802
1.2254943 0.9906984 2.7333786
1.2728066 0.98382801 2.7335415
1.3220633 0.98058617 2.729681
1.3727775 0.97806358 2.7271559
1.42522 0.97388601 2.7268972
1.4740455 0.9747799 2.7191188
1.5223061 0.97358578 2.7172489
1.5723314 0.96813768 2.7185328
1.61756 0.96130848 2.7135358
1.6749767 0.95619535 2.7084167
1.724465 0.95494199 2.7086
1.76208 0.95111251 2.7049999
1.81344 0.95793003 2.7028301
0.64544302 1.04529 2.74597
0.67352176 1.0421325 2.7424173
0.72375011 1.040655 2.7386091
0.77618754 1.0397201 2.7335799
0.82595515 1.0331054 2.7323718
0.87754595 1.0280088 2.7319877
0.92505836 1.0263833 2.7257206
0.97252536 1.0246277 2.7236867
1.028306 1.0189725 2.7272644
1.073391 1.018888 2.7165432
1.1204245 1.0156312 2.7147431
1.1757751 1.0130137 2.7114563
1.2281801 1.0140824 2.7078073
1.2755717 1.00934 2.7121551
1.3247449 1.0062925 2.70825
1.42717 1.002125 2.703625
0.28687701 1.0887151 2.74684
0.32824701 1.0888075 2.7432401
0.37701297 1.0903467 2.7420366
0.4256745 1.0843912 2.7407999
0.47632298 1.0804962 2.7389863
0.52432275 1.07608 2.7315748
0.57692569 1.0731994 2.7253783
0.62422431 1.0700184 2.722801
0.67702013 1.0678834 2.7170694
0.72498953 1.0678512 2.7120652
0.7729845 1.0634433 2.7120235
0.83233297 1.0584275 2.708755
0.87368965 1.0514833 2.7112067
0.91743231 1.0533867 2.7046735
-0.124365 1.1472534 2.7484233
-0.071304396 1.145635 2.7458525
-0.019554049 1.1405776 2.7436275
0.028129632 1.1367401 2.74089
0.075162716 1.13659 2.7343273
0.12006558 1.1328092 2.731848
0.17713664 1.1296688 2.7271485
0.22396295 1.1250386 2.7263982
0.2719717 1.1182562 2.7251534
0.32667339 1.1176381 2.7186315
0.37231201 1.116063 2.7175736
0.42167905 1.1119337 2.7164545
0.47858292 1.1064637 2.7109027
0.52721703 1.1007167 2.7086031
0.554847 1.10093 2.7046499
-0.42101476 1.1942775 2.7434673
-0.36860001 1.193114 2.7428219
-0.32181761 1.1886175 2.7405853
-0.27210268 1.1838284 2.7335651
-0.22125614 1.1844594 2.7306135
-0.17460091 1.1793432 2.7291615
-0.12596756 1.1756907 2.7226534
-0.070902191 1.1740875 2.7203207
-0.024073986 1.171059 2.7187693
0.025096981 1.1642509 2.7159898
0.068349652 1.16028 2.7120965
0.12483799 1.156656 2.7103343
0.154635 1.1602 2.7026801
-0.78323197 1.24788 2.7492299
-0.72203201 1.2411233 2.7467165
-0.67289484 1.2402819 2.7393737
-0.62359422 1.2366437 2.7363834
-0.57115149 1.2371711 2.7279577
-0.52431971 1.2273149 2.7313735
-0.47557166 1.22403 2.7271538
-0.42617109 1.2240236 2.7188637
-0.37973091 1.2215186 2.7184937
-0.32691064 1.2166877 2.7129068
-0.27813014 1.2078174 2.7150462
-0.22228475 1.21111 2.7083826
-0.17357901 1.207145 2.7021351
-1.10069 1.299 2.7428401
-1.08559 1.29854 2.7466199
-0.97103572 1.29432 2.7411151
-0.92707276 1.2888499 2.7406249
-0.87154216 1.2861716 2.7392957
-0.82606328 1.2836815 2.7338443
-0.77794117 1.2770437 2.7262509
-0.72428709 1.2722421 2.7190278
-0.67544842 1.2627671 2.7193799
-0.62609017 1.2647012 2.7112775
-0.58368152 1.2620633 2.7082701
-0.52514964 1.2561466 2.7045801
-0.48862749 1.2518649 2.70047
-1.410125 1.348495 2.7481451
-1.32927 1.342386 2.7399421
-1.2713116 1.3333199 2.7375267
-1.2274499 1.3295801 2.7360611
-1.1760774 1.327139 2.7283707
-1.1303827 1.3250073 2.7278945
-1.0777565 1.3266557 2.724355
-1.0259553 1.3222753 2.7220693
-0.97681403 1.3218856 2.7147286
-0.92413294 1.3163792 2.7136481
-0.87304205 1.3122171 2.7105231
-0.82424134 1.3094534 2.7085283
-0.79299498 1.31224 2.7035601
-1.763765 1.39545 2.7482152
-1.679225 1.394385 2.7404552
-1.6246718 1.3894033 2.7311432
-1.5694851 1.3824733 2.7322814
-1.5243512 1.3809938 2.7287061
-1.47229 1.3760476 2.7231677
-1.4264888 1.3746113 2.7231674
-1.3755988 1.3676167 2.7222536
-1.3245261 1.3648319 2.7192001
-1.281276 1.3603179 2.717046
-1.2294599 1.3554367 2.7086098
-1.1953549 1.3579149 2.70649
-1.12734 1.3547734 2.7030067
-1.09453 1.3505599 2.70439
-2.0272799 1.4467599 2.7395549
-1.97789 1.44242 2.7392399
-1.9261235 1.435195 2.7407234
-1.869858 1.427094 2.7354722
-1.8211768 1.4257534 2.7212977
-1.7757684 1.4243733 2.7204666
-1.7235525 1.41386 2.7265761
-1.6703025 1.4106525 2.7160749
-1.6259999 1.407405 2.706795
-1.5858167 1.4069099 2.7098901
-1.51854 1.40298 2.70205
-2.3174 1.49455 2.74839
-2.2701275 1.4892175 2.7355425
-2.2159519 1.4821938 2.7335098
-2.1715822 1.4859051 2.7332602
-2.1209297 1.4741576 2.7321126
-2.0756967 1.4703432 2.7226369
-2.0169575 1.4642375 2.7152076
-1.97329 1.46453 2.7159848
-1.9272175 1.4626925 2.7124224
-1.8864433 1.4569601 2.7122068
-2.61535 1.54082 2.7419701
-2.5613699 1.54811 2.7402201
-2.5201101 1.5427799 2.7234449
-2.4730382 1.5315959 2.7289219
-2.42277 1.5340279 2.7232978
-2.3716388 1.5247772 2.72611
-2.3164866 1.5230716 2.71717
-2.28108 1.51671 2.72225
-2.2335074 1.51053 2.7083025
-2.1731331 1.5066466 2.7087066
-2.1301 1.50007 2.7174301
-2.0750899 1.50141 2.70244
-2.9367099 1.59981 2.74823
-2.8162951 1.592325 2.718905
-2.7723634 1.5755433 2.7331066
-2.7316532 1.5846866 2.7272866
-2.6806133 1.5726099 2.7284133
-2.6238625 1.5768626 2.7200625
-2.5736952 1.5654449 2.7223125
-2.52508 1.5671899 2.7019901
-2.4723701 1.5640334 2.7097299
-3.0687799 1.62992 2.7336299
-2.9705849 1.631495 2.7167001
-2.8573999 1.6145 2.72206
-2.76843 1.60864 2.7081499
-2.72316 1.6166199 2.7030599
-2.66239 1.60198 2.7049601
-3.1324401 1.66282 2.7072999
-3.07622 1.65338 2.7306001
-2.9967651 1.659925 2.7144101
-0.41815698 -2.20101 2.7566252
-0.37709421 -2.2211981 2.7744579
-0.3302325 -2.2331502 2.7858899
0.58464897 -2.2167449 2.761975
0.62654388 -2.2226617 2.7778366
0.67098498 -2.2236202 2.7918434
0.70237899 -2.2471299 2.7945199
-0.46975201 -2.1684201 2.7578862
-0.42847854 -2.1750071 2.7779958
-0.38312539 -2.1889338 2.788754
0.58506471 -2.1863475 2.7859974
0.61112499 -2.19223 2.7890201
-0.55845273 -2.11163 2.7605624
-0.51733029 -2.1190958 2.7702086
-0.47545102 -2.13485 2.7792373
-0.44304699 -2.1392901 2.79845
-0.61674666 -2.0674334 2.7588367
-0.57615978 -2.0721462 2.7749984
-0.53103566 -2.0889533 2.7921467
0.74052322 -2.0760601 2.775142
-0.71138203 -2.005235 2.75934
-0.67043871 -2.0188658 2.7641501
-0.62958658 -2.0329113 2.7786875
-0.59835601 -2.0392301 2.7972701
0.75731903 -2.0256333 2.7710965
-0.76362896 -1.957755 2.7595801
-0.72690177 -1.9726917 2.7733958
-0.67769635 -1.9904999 2.790132
0.77184522 -1.9761775 2.76897
1.1681401 -1.9627149 2.75962
-0.82424551 -1.9155488 2.7679799
-0.77841878 -1.9302568 2.7805319
-0.73647898 -1.94521 2.79601
0.78182203 -1.9282032 2.7853167
1.04378 -1.91247 2.75579
1.07716 -1.9142978 2.7619519
1.1224985 -1.9219358 2.7805641
1.1772646 -1.9321088 2.7783065
1.23736 -1.9082201 2.7527599
-0.91272932 -1.8624201 2.7639332
-0.87407786 -1.8786709 2.7728548
-0.83186299 -1.8858225 2.7908726
0.78581542 -1.8811134 2.7780533
0.80432999 -1.85991 2.7735651
0.949705 -1.85308 2.7574301
0.98379457 -1.8654575 2.7676373
1.02782 -1.8807234 2.7792411
1.0733533 -1.8900599 2.7919834
1.2372133 -1.8758467 2.77108
1.258384 -1.870362 2.7609859
-0.97150654 -1.8134786 2.7688725
-0.93292105 -1.830506 2.7794349
-0.890975 -1.84243 2.7999301
0.79978502 -1.84946 2.75791
0.80957246 -1.823205 2.7805548
0.89588296 -1.8162501 2.76371
0.92772782 -1.8231275 2.7705061
0.97259897 -1.8392224 2.7887249
1.2348299 -1.82407 2.7929432
1.2856101 -1.8233999 2.7723987
-1.063825 -1.7579501 2.7647774
-1.0248172 -1.7739692 2.7739866
-0.98606616 -1.7840952 2.7862682
0.83030957 -1.7758166 2.7802591
0.87858856 -1.7830073 2.7891386
0.91741502 -1.78905 2.7988801
1.2992949 -1.78347 2.7896199
1.309005 -1.75869 2.7781701
-1.172735 -1.7025599 2.755955
-1.1211563 -1.7185254 2.7659619
-1.08086 -1.7317228 2.7821543
-1.0442801 -1.7408 2.7942901
1.3237519 -1.7191601 2.7786722
-1.225482 -1.6635201 2.760808
-1.1760384 -1.6758842 2.7792251
-1.1264274 -1.6895025 2.7935801
1.339224 -1.6752999 2.7732978
-1.30852 -1.61248 2.76015
-1.2771571 -1.6174361 2.7742419
-1.2272724 -1.63622 2.7859211
-1.18604 -1.64744 2.7969
1.3485 -1.6439101 2.7943599
1.3591861 -1.6241779 2.773834
-1.40492 -1.55257 2.75705
-1.3717643 -1.5642401 2.7663643
-1.3288836 -1.57925 2.7777536
-1.29755 -1.58673 2.7908101
1.3769979 -1.5748041 2.7772241
-1.46802 -1.5138525 2.7599201
-1.4248177 -1.5256366 2.7729409
-1.3811026 -1.536865 2.7843075
-1.3469501 -1.54213 2.7990301
1.3943775 -1.5206001 2.7813499
1.400395 -1.510095 2.7553802
-1.5612568 -1.4573134 2.7576802
-1.5207944 -1.4693756 2.7702091
-1.4809089 -1.4820622 2.7833078
-1.4394232 -1.4931134 2.7928097
1.4127632 -1.47855 2.7850666
-1.6179 -1.4187551 2.7579584
-1.5774412 -1.4255167 2.7784207
-1.5414767 -1.4369532 2.7924869
1.4224701 -1.4305401 2.7702532
2.14781 -1.43636 2.7778201
2.15573 -1.4302 2.75506
2.2182801 -1.40328 2.7500999
2.2797575 -1.425555 2.7765403
2.3077133 -1.4186467 2.77688
-1.727348 -1.361062 2.7580941
-1.6753937 -1.3695236 2.7729182
-1.6320536 -1.3842863 2.7828276
-1.5973099 -1.39732 2.79128
1.4378315 -1.3835943 2.7746212
1.45297 -1.3599601 2.7704449
2.18767 -1.36077 2.75843
2.2360549 -1.380055 2.7862501
2.3218949 -1.3777651 2.7831023
-1.7734842 -1.3191072 2.7610843
-1.7262681 -1.3287411 2.780231
-1.68679 -1.34183 2.7957399
1.4623483 -1.3205383 2.7727134
2.1256101 -1.30963 2.75776
2.175915 -1.3247867 2.7733414
2.3369741 -1.326586 2.7842982
2.365746 -1.3180799 2.762234
-1.8613666 -1.2578534 2.7594566
-1.8220317 -1.275214 2.7696261
-1.7775968 -1.2873417 2.7843151
-1.7393399 -1.29734 2.7979
1.4788685 -1.2726001 2.7740016
2.070565 -1.2720233 2.7722867
2.1240776 -1.2802501 2.7851174
2.1712999 -1.29325 2.7971599
2.3482299 -1.29066 2.7992101
2.3834434 -1.2717217 2.7763784
-1.9219149 -1.215825 2.7629282
-1.8773471 -1.2283714 2.7733858
-1.8480899 -1.233735 2.79392
1.495145 -1.2249475 2.7824376
1.5090265 -1.20848 2.7746601
2.4129016 -1.2225584 2.7743466
-2.0129335 -1.15878 2.7587597
-1.9734819 -1.1718681 2.7735581
-1.9299672 -1.1892599 2.7829816
1.5179358 -1.1692514 2.7811658
2.43208 -1.1754934 2.7747285
-2.10603 -1.11383 2.7543099
-2.0750022 -1.119498 2.767796
-2.0289464 -1.1320713 2.7780311
-1.97772 -1.1385601 2.7915599
1.5330229 -1.1239128 2.7778831
1.55351 -1.10215 2.76087
2.4438901 -1.142105 2.7838299
2.4578662 -1.118624 2.7780082
-2.1681173 -1.0587125 2.7599401
-2.1256189 -1.0766991 2.7730849
-2.080236 -1.092734 2.7842202
1.547745 -1.085925 2.793015
1.5604101 -1.06903 2.7704682
2.4730766 -1.0785366 2.7719316
-2.2511799 -1.01292 2.7553699
-2.2176449 -1.0225083 2.7675965
-2.1768215 -1.0304029 2.7807829
