ply
format ascii 1.0
comment PCL generated
element vertex 1531
property float x
property float y
property float z
element camera 0
property float view_px
property float view_py
property float view_pz
property float x_axisx
property float x_axisy
property float x_axisz
property float y_axisx
property float y_axisy
property float y_axisz
property float z_axisx
property float z_axisy
property float z_axisz
property float focal
property float scalex
property float scaley
property float centerx
property float centery
property int viewportx
property int viewporty
property float k1
property float k2
end_header
2.75525 -0.114371 3.21925
-2.8728399 -0.086523198 3.2278526
-1.174875 -0.074760079 3.2115901
1.28297 -0.063948601 3.2341599
1.3252801 -0.069596164 3.2329533
2.7734082 -0.076169632 3.2231915
-1.85553 -0.024765551 3.2158198
-1.8252776 -0.020448601 3.2190299
-1.78391 -0.033011898 3.2206399
-1.708135 -0.024324249 3.2147398
-1.6709766 -0.027187498 3.2409499
-1.6303843 -0.027872989 3.2404058
-1.5686724 -0.024121275 3.23595
-1.524485 -0.032328352 3.24545
-1.492245 -0.023814648 3.2177401
1.28996 -0.047437102 3.2063301
1.3213434 -0.042238865 3.2087333
2.793575 -0.028152101 3.2290301
2.8054199 -0.0184507 3.2063899
-2.2546849 0.027517401 3.207515
-1.81839 0.00076427602 3.20696
-1.6745567 0.00075679639 3.2089167
-1.6217461 0.0073709204 3.2154498
1.3041101 0.016982401 3.24174
1.37966 0.041660499 3.2447
2.81422 0.022993773 3.2267957
-2.40996 0.092404097 3.2437501
-2.37008 0.09191975 3.2430451
-2.3078632 0.07296513 3.2346067
-2.2687125 0.07677985 3.2178926
1.3857 0.065699399 3.21474
1.44017 0.098563097 3.2093999
2.8322177 0.082362309 3.2215683
-2.5046799 0.148647 3.2248399
-2.4752951 0.12980324 3.2315726
-2.4233222 0.1212524 3.218204
-2.3334899 0.108861 3.2102101
-2.2760701 0.107843 3.20101
1.4181499 0.115735 3.2449901
2.8412099 0.117181 3.20908
2.86236 0.13758799 3.2323201
-2.6011 0.188592 3.2391701
-2.56849 0.168901 3.2346101
-2.526135 0.17655501 3.2158852
-1.68024 0.16771799 3.2164099
-1.60641 0.150353 3.2297299
1.49527 0.197181 3.20066
2.8676531 0.17638284 3.2184498
-1.5665851 0.247722 3.203985
1.469852 0.23056781 3.2189362
2.8723125 0.22551349 3.2211652
-3.5038199 0.29573601 3.20105
-1.6083132 0.27717701 3.2135899
-1.5788374 0.27459753 3.2274575
-1.534988 0.28514642 3.2291939
1.4759101 0.28003132 3.2163684
2.8803701 0.27512416 3.2270184
-3.54549 0.318665 3.2014999
-1.76402 0.33796701 3.2084601
-1.72973 0.33784434 3.2219365
-1.6715289 0.32032585 3.2164111
-1.626086 0.30511579 3.2365539
-1.00038 0.34628701 3.20239
1.480913 0.33358315 3.2323115
1.50011 0.34560701 3.20082
2.8285651 0.33242649 3.236995
2.870512 0.32166821 3.2233417
-1.8076967 0.37379432 3.2081668
-1.7769477 0.37445444 3.2289014
-1.72672 0.355809 3.2341852
-1.6890349 0.35498202 3.24089
-0.98830199 0.36332601 3.2165501
1.488344 0.37804061 3.2312522
1.5053 0.37975869 3.2088401
2.6078701 0.399174 3.2409201
2.68137 0.37704268 3.2360268
2.7254226 0.37507623 3.2221251
2.7838626 0.37355524 3.2272475
2.817935 0.36030924 3.2222126
2.8529449 0.36103898 3.2072949
-3.6777999 0.43275699 3.20087
-3.5971701 0.40688801 3.2047601
-1.865155 0.43667626 3.2087073
-1.8278735 0.42428344 3.2265844
-1.02665 0.4212735 3.2253599
1.518235 0.43287951 3.2312651
2.43764 0.42618737 3.2251766
2.4746022 0.4247784 3.228014
2.5244482 0.4309558 3.222805
2.5799651 0.42457899 3.2213049
2.6356676 0.41798827 3.2184625
2.6685832 0.40699068 3.2173965
2.7149301 0.40231949 3.206825
2.7720098 0.40504098 3.201005
-1.91151 0.47390649 3.2091351
-1.8745042 0.47293955 3.2290885
-1.8362401 0.46578801 3.24986
-1.00466 0.47399199 3.2037201
1.29037 0.491799 3.2467799
1.332775 0.48822877 3.2374151
1.356375 0.48376799 3.2272549
1.4341267 0.49160233 3.2385433
1.5098382 0.47525048 3.2365587
-1.95962 0.53790098 3.2072151
-1.9204714 0.52285355 3.2264428
-1.8912734 0.50846267 3.2394867
-0.9792282 0.52722597 3.2252951
-0.93837601 0.53977251 3.2284501
0.63942349 0.54927897 3.2388799
0.66376197 0.54995102 3.23913
0.78917098 0.53241998 3.24123
0.82785171 0.53884035 3.2402401
0.87888837 0.54100633 3.24335
0.92835999 0.53406549 3.2400281
0.97946858 0.53586954 3.2398155
1.0282075 0.53130376 3.2379687
1.0760523 0.53082222 3.235919
1.12622 0.53173035 3.2283168
1.173529 0.52464283 3.2276931
1.2232182 0.52495772 3.2251928
1.272511 0.52054191 3.2207899
1.3244479 0.52178055 3.2124796
1.3680849 0.50659448 3.2075701
1.4243 0.512119 3.2279999
1.48051 0.51441997 3.2243199
1.50392 0.51675898 3.2327099
-1.9663241 0.578143 3.2208617
-1.9373833 0.563761 3.2353432
-1.165105 0.58180654 3.230125
-1.14823 0.57747298 3.2079201
-0.91343307 0.55697328 3.2071066
-0.8741253 0.57395613 3.211683
-0.839315 0.59244025 3.2256875
0.17512301 0.59022802 3.2449999
0.27367935 0.59086466 3.2429702
0.33401918 0.58509916 3.2418981
0.37745515 0.58340269 3.2375619
0.42693886 0.58092052 3.2379742
0.47347873 0.57855558 3.2340112
0.52403587 0.57816291 3.2287149
0.57820189 0.57582432 3.2254829
0.62808281 0.57735813 3.2177989
0.67805779 0.57314998 3.2192466
0.72581947 0.56813383 3.222533
0.77401948 0.56583303 3.2190564
0.8263768 0.56340915 3.2216284
0.87063575 0.56669074 3.2166038
0.92274147 0.57036871 3.2150452
0.96775228 0.55936432 3.2113976
1.0222567 0.55701035 3.2084434
1.0734267 0.55879736 3.2062733
1.1068 0.55953598 3.20186
1.4712566 0.559273 3.2264936
-2.3548 0.64195901 3.22543
-2.33354 0.64113098 3.23207
-2.0105631 0.62476897 3.21014
-1.9795775 0.61915702 3.2383299
-1.1522 0.61968195 3.2131648
-0.82169789 0.62856668 3.2187321
-0.26010501 0.63898098 3.2465401
-0.112038 0.63776553 3.2463598
-0.073079027 0.6406703 3.2416201
-0.021331584 0.63835865 3.2370899
0.022161845 0.63926423 3.2319672
0.07332436 0.63110155 3.2252913
0.12935828 0.62788832 3.2245157
0.17263851 0.62087953 3.222353
0.22060756 0.61817622 3.2223911
0.27243191 0.61651176 3.2179818
0.32884529 0.6140613 3.2171302
0.37481701 0.61017066 3.2104683
0.42453617 0.60908496 3.20824
0.4746682 0.60691041 3.207994
0.53055751 0.60403049 3.2026751
0.58566099 0.60499001 3.20034
-2.3515799 0.65937799 3.2180099
-2.3304484 0.68077093 3.227195
-2.0549102 0.67940199 3.210835
-2.0306976 0.66691631 3.2301223
-1.18507 0.66630799 3.2320435
-0.922225 0.69815701 3.2075052
-0.87498033 0.68692994 3.2126524
-0.82695568 0.6761353 3.226321
-0.46631199 0.691513 3.2499399
-0.401438 0.68791097 3.2392299
-0.36746615 0.68242729 3.2381155
-0.32165253 0.69198567 3.2270317
-0.27333289 0.67771322 3.2285118
-0.2293489 0.67907894 3.2249858
-0.17686974 0.67201477 3.2275295
-0.1222733 0.66701615 3.2249019
-0.074792489 0.663598 3.2169998
-0.031463001 0.66531879 3.2128899
0.019831724 0.66154999 3.2072566
0.058171153 0.66060799 3.2022352
-2.3224599 0.72744721 3.2197323
-2.1182399 0.73712236 3.21401
-2.0746028 0.73121226 3.2226682
-2.0420434 0.71542668 3.2340367
-1.20925 0.71336901 3.20859
-1.00049 0.73502499 3.20803
-0.97088879 0.72797042 3.2129841
-0.92889082 0.72115058 3.2215264
-0.87337202 0.71944267 3.2411268
-0.75920898 0.74897301 3.2465899
-0.72146451 0.74296403 3.2446151
-0.67124873 0.74008149 3.2398076
-0.62574565 0.73371738 3.2365096
-0.57261735 0.73121297 3.2327185
-0.52745771 0.72847128 3.2262096
-0.47899628 0.7261796 3.2214715
-0.42873603 0.71870369 3.2228439
-0.37517411 0.7168563 3.2113948
-0.32410875 0.71607375 3.2082624
-0.28856501 0.71037298 3.2031
-0.242079 0.70974201 3.2030399
-2.3627501 0.79122299 3.2097399
-2.3247051 0.77750778 3.2258599
-2.1292901 0.77297997 3.23738
-2.0831401 0.77364397 3.2393951
-1.06074 0.79221302 3.22505
-1.0235275 0.77590299 3.227051
-0.98568714 0.78189683 3.242368
-0.92881 0.78979301 3.2458799
-0.86455065 0.7903226 3.2376499
-0.82401568 0.7819019 3.2334423
-0.77291524 0.77538657 3.2292621
-0.72174764 0.77473313 3.2211235
-0.67152727 0.76694816 3.2160385
-0.62224549 0.76099211 3.2128832
-0.58451635 0.756881 3.2121966
-2.4246702 0.83209753 3.2144475
-2.3750679 0.82251799 3.2283778
-2.3291533 0.81897664 3.24277
-1.2298967 0.82074136 3.22876
-1.18288 0.84729803 3.20959
-1.10868 0.83228099 3.2029901
-1.0763 0.82765925 3.2189386
-1.0292444 0.82514507 3.2292581
-0.97576433 0.82889599 3.2226756
-0.92196089 0.82299924 3.2199173
-0.87423158 0.81621474 3.2185249
-0.82392329 0.81380975 3.20996
-0.76812506 0.80536002 3.2027433
-2.4724874 0.87170273 3.2164948
-2.431915 0.87053651 3.2351501
-1.36207 0.89327753 3.2368951
-1.3228625 0.88931847 3.2333975
-1.27843 0.88547623 3.2246699
-1.224766 0.87347478 3.2203789
-1.1839249 0.87249351 3.2072749
-1.0834401 0.85567999 3.20138
-1.0148649 0.85221398 3.2048249
-2.5720377 0.92619371 3.2083924
-2.5270879 0.91833037 3.2321479
-2.4867249 0.91786301 3.2446849
-1.66593 0.949139 3.2430999
-1.6269733 0.94648033 3.2480202
-1.5697867 0.93396097 3.2439334
-1.5233814 0.93015373 3.2320998
-1.4775343 0.92807299 3.2302327
-1.4275177 0.92293549 3.2274222
-1.379706 0.9167558 3.218996
-1.325495 0.910375 3.21153
-1.27608 0.90460205 3.2043266
-1.23965 0.90198803 3.20526
-3.2408698 0.99081331 3.2175133
-2.62554 0.96872574 3.2130175
-2.5733259 0.96752155 3.2304699
-2.543 0.95321202 3.23822
-2.17624 0.987876 3.2455602
-2.1133652 0.98890901 3.2413349
-2.0812199 0.98811269 3.2407634
-2.0269651 0.98672605 3.2351351
-1.973278 0.98760605 3.2334862
-1.9186981 0.98502761 3.2333481
-1.8651479 0.98266351 3.2333
-1.8213549 0.98056602 3.2293968
-1.7751473 0.9739204 3.2336757
-1.7265568 0.97270781 3.2266052
-1.6766249 0.97000712 3.2245786
-1.6248026 0.96589923 3.21718
-1.578464 0.95985281 3.2187438
-1.5283166 0.96200866 3.2039602
-1.479005 0.95733452 3.20419
-3.21557 1.0148799 3.2098899
-2.719785 1.0306799 3.207005
-2.6760819 1.02417 3.2240319
-2.6288362 1.0115659 3.2332981
-2.5898352 1.01176 3.2495551
-2.45368 1.0427999 3.2440801
-2.412885 1.0374351 3.2444501
-2.3190067 1.03464 3.2285233
-2.2755101 1.0272125 3.2353599
-2.220315 1.0371599 3.2248425
-2.1675785 1.0203618 3.2234182
-2.1270101 1.0161525 3.2273173
-2.0734742 1.018066 3.214896
-2.0224526 1.0113825 3.2211776
-1.96984 1.0116301 3.2093601
-1.92396 1.006135 3.2093301
-1.8747981 1.012014 3.2111881
-1.75809 1.00441 3.2046499
-1.73765 1.00258 3.20643
-2.7627826 1.07883 3.2115002
-2.7303848 1.0707974 3.2196975
-2.6803486 1.0709342 3.2294958
-2.6235726 1.0831826 3.2287676
-2.5688326 1.08399 3.2214127
-2.5203118 1.073012 3.2301998
-2.4774301 1.0828433 3.2288101
-2.4280818 1.0735383 3.2183602
-2.3779533 1.067855 3.2238715
-2.3204134 1.0634433 3.21016
-2.28896 1.061945 3.20804
-2.1856599 1.056795 3.2037702
-2.7718699 1.1203966 3.2055435
-2.7349 1.114625 3.20434
-2.68279 1.1188874 3.2116926
-2.6253433 1.1127933 3.2072165
-2.5738699 1.11085 3.2019401
-2.5238934 1.1056434 3.2109997
1.7834699 -2.4665999 3.27389
1.7905434 -2.43455 3.2706833
1.81155 -2.4200699 3.2521
0.48038533 -2.2528601 3.2572134
0.51781398 -2.2574799 3.2591
0.37523547 -2.2166865 3.265105
0.425201 -2.2316267 3.2696521
0.47230253 -2.2307775 3.2815151
0.52174348 -2.2324274 3.2855954
0.55275851 -2.2065101 3.27178
0.28458399 -2.1627002 3.2537899
0.32202899 -2.1739283 3.2677116
0.36485147 -2.1835899 3.287775
0.40733501 -2.19768 3.2955401
0.57246989 -2.1710265 3.2775717
0.22697265 -2.1158333 3.2661951
0.2732136 -2.1336644 3.273803
0.313494 -2.1419499 3.2941999
0.58791798 -2.1392701 3.29568
0.60658503 -2.12077 3.2729802
0.141445 -2.0639501 3.2648761
0.17557983 -2.07373 3.271395
0.21399041 -2.084842 3.2869141
0.61905152 -2.0771499 3.2874699
0.083112665 -2.01719 3.26526
0.124772 -2.0275714 3.2808082
0.64974397 -2.0336399 3.2690499
0.6587075 -2.016155 3.2772551
-0.016477033 -1.9583234 3.2636099
0.026530322 -1.9751763 3.2709649
0.07135807 -1.9833883 3.2854099
0.67550778 -1.9759099 3.2765641
-0.075742245 -1.9121225 3.2639701
-0.030380102 -1.9212538 3.2847412
0.01550746 -1.9437599 3.2895551
0.69330949 -1.929615 3.2800751
0.71178448 -1.9109249 3.263495
-0.12679972 -1.8661087 3.2691815
-0.080250986 -1.8842468 3.28265
0.72571713 -1.8769499 3.2732704
-0.21105732 -1.8077134 3.2648365
-0.17822127 -1.8264142 3.2741275
-0.14361666 -1.8409967 3.2885702
0.73903501 -1.827595 3.2778301
-0.30101299 -1.7664399 3.255295
-0.26408625 -1.7703757 3.2716234
-0.22285366 -1.7843233 3.2800884
0.75702733 -1.7790433 3.2747333
-0.35815758 -1.7156579 3.2618618
-0.31866831 -1.726511 3.2778275
-0.27973065 -1.7381834 3.2895
0.7753306 -1.727158 3.261416
-0.45185199 -1.6616499 3.2602501
-0.41145211 -1.6721942 3.2678716
-0.37636855 -1.6805214 3.2818112
-0.33626601 -1.69442 3.2950499
0.79205841 -1.6810801 3.275142
-0.50679106 -1.6111368 3.2614098
-0.46865544 -1.6270112 3.2707543
-0.42508951 -1.6360984 3.2869914
0.81629145 -1.6276824 3.2752376
-0.5633629 -1.5674914 3.2668185
-0.52114028 -1.5765488 3.2801502
-0.480993 -1.5906234 3.2916863
0.82843399 -1.5664151 3.2722998
-0.65781802 -1.5117249 3.2546201
-0.6179412 -1.516909 3.2722745
-0.57991403 -1.540338 3.285764
0.83533597 -1.52938 3.277565
-0.716178 -1.4644949 3.2595975
-0.67491114 -1.4790056 3.276638
-0.63661999 -1.48728 3.2912199
0.83701199 -1.49141 3.2586
1.1774234 -1.4641867 3.26389
1.2282275 -1.4776562 3.2713137
1.2670501 -1.4753666 3.2803066
-0.77009588 -1.4230638 3.2719338
-0.72197878 -1.4415739 3.2798018
0.84992301 -1.43383 3.25827
0.86495304 -1.4208775 3.2705951
1.04379 -1.41097 3.2507401
1.0791833 -1.4087868 3.2683666
1.12581 -1.4285256 3.2722256
1.1735967 -1.4435567 3.2795699
1.219295 -1.447435 3.2922051
1.340286 -1.4237081 3.2739398
1.35004 -1.42968 3.2550001
-0.87327242 -1.3616661 3.2617021
-0.82612723 -1.3809389 3.271965
-0.7807107 -1.3926601 3.2876301
0.88498098 -1.3684765 3.2793801
0.97852224 -1.3606524 3.2620299
1.0284687 -1.3750138 3.2740376
1.0703499 -1.38081 3.2903724
1.3575319 -1.3744839 3.2738342
-0.96632642 -1.3067666 3.2554233
-0.91989392 -1.3245101 3.268682
-0.8756842 -1.3356167 3.2853014
-0.83746701 -1.34859 3.2939401
0.89249259 -1.327432 3.2800918
0.92751229 -1.3243999 3.2640443
0.969594 -1.3259228 3.2838531
1.01308 -1.34754 3.2941599
1.3783268 -1.32162 3.2717636
-1.05047 -1.2568901 3.2518899
-1.01473 -1.2649939 3.2626319
-0.97270459 -1.2788379 3.2748425
-0.93251634 -1.2916499 3.2899399
0.89980602 -1.29796 3.2904999
0.92121863 -1.2908033 3.2832699
1.3938299 -1.2819767 3.2824099
1.4134951 -1.25845 3.272325
-1.10885 -1.21491 3.2581635
-1.0682387 -1.2247562 3.2683563
-1.0276634 -1.2350134 3.2836151
-0.99088299 -1.2494299 3.29813
1.4324733 -1.2173101 3.2661934
-1.21562 -1.161935 3.2537951
-1.1699015 -1.1703001 3.2685986
-1.1267287 -1.1825262 3.2786713
-1.0860167 -1.1924933 3.2893164
1.4397161 -1.1825821 3.2817063
-1.26854 -1.1131116 3.2676764
-1.228377 -1.12878 3.2731729
-1.188938 -1.136602 3.2862
1.4430599 -1.1255699 3.27034
1.45161 -1.13469 3.25611
2.24243 -1.1254801 3.2759099
2.2707448 -1.106735 3.26492
-1.364834 -1.05802 3.2627721
-1.3251233 -1.0740056 3.2722456
-1.280793 -1.0873672 3.2812958
1.43243 -1.09883 3.26774
2.2147999 -1.06498 3.28953
2.29124 -1.083845 3.2832899
2.307585 -1.07322 3.2710152
-1.466315 -1.003665 3.2547801
-1.4213588 -1.0182989 3.2660625
-1.3797684 -1.0273017 3.2826731
-1.33969 -1.03839 3.2920201
-1.5153875 -0.96098876 3.2647274
-1.4744468 -0.97497994 3.2733288
-1.4309525 -0.98727298 3.2913601
-1.61067 -0.91101599 3.2648399
-1.57077 -0.92404467 3.2685871
-1.5252228 -0.93187183 3.287416
1.239025 -0.92206049 3.2822549
1.2731267 -0.92598265 3.26369
2.3703766 -0.92248797 3.2715867
-1.6672599 -0.86631978 3.2643201
-1.6283178 -0.88184327 3.2799213
-1.5859333 -0.89023334 3.2891533
1.2081466 -0.86767006 3.2855666
2.388782 -0.87803638 3.2748902
-1.7663801 -0.80752051 3.2652502
-1.7246734 -0.82629365 3.271769
-1.6828984 -0.83814114 3.2881749
-1.64117 -0.84905899 3.2996199
1.2125101 -0.82875001 3.2668874
2.4202201 -0.82396442 3.2747917
-1.86491 -0.751436 3.25858
-1.8179512 -0.76875091 3.2638538
-1.7775025 -0.78004634 3.2817664
-1.7333699 -0.79961503 3.28512
1.2233235 -0.77792901 3.2686033
2.4409549 -0.79411554 3.2781551
2.4648166 -0.76940662 3.2714999
-1.9121799 -0.70717365 3.2590234
-1.8723851 -0.72064257 3.2727778
-1.83044 -0.73057836 3.2926502
1.1417201 -0.70737302 3.2824199
1.1755266 -0.70787764 3.2753632
1.2251438 -0.72773981 3.2638261
2.4849341 -0.72339219 3.2723362
-1.9674981 -0.65974796 3.2670541
-1.9312316 -0.67565089 3.2783549
-1.886405 -0.68608356 3.2892199
1.138195 -0.67068052 3.2914975
1.1617717 -0.67175865 3.2678635
1.20208 -0.687711 3.25109
2.507715 -0.67373776 3.2779775
-2.0508001 -0.60243702 3.2542601
-2.0203726 -0.61878598 3.2731552
-1.979135 -0.63319701 3.2834675
1.1356086 -0.62406689 3.2778685
1.16558 -0.63654798 3.2584801
2.5293381 -0.62355155 3.2812221
-2.1263268 -0.55505937 3.2686999
-2.0766201 -0.57054889 3.2736931
-2.04123 -0.58276868 3.29232
1.1430426 -0.58038926 3.2797599
1.156285 -0.55435002 3.2697301
2.5466352 -0.57155001 3.2894499
2.5564826 -0.57054025 3.2743025
-2.1313329 -0.52297753 3.2808957
-2.0907049 -0.52818203 3.2913151
1.1646624 -0.52772021 3.2843599
2.5749526 -0.52378851 3.2768526
-2.1577549 -0.4683395 3.291255
1.1787101 -0.48498431 3.2825499
2.5905333 -0.47718266 3.28422
2.6042199 -0.4666515 3.2656901
-2.15874 -0.41438499 3.2987001
1.19833 -0.44050401 3.2749901
1.2158325 -0.41641551 3.2758949
2.6156499 -0.41927099 3.2670126
1.22374 -0.3781696 3.2714458
2.6382034 -0.36927798 3.2695835
1.2430201 -0.32994941 3.2784419
1.260345 -0.31708449 3.2577801
2.6636283 -0.32575747 3.2742317
-2.61255 -0.26416901 3.2670498
-2.5833349 -0.27253151 3.2655149
1.2570734 -0.27740183 3.2760532
2.6759524 -0.27833575 3.2808199
-2.7051101 -0.20944799 3.25896
-2.6673174 -0.21823175 3.2661047
-2.6294816 -0.23354284 3.2781668
-2.5783334 -0.23265068 3.29162
1.2671167 -0.23091084 3.2733018
2.6945777 -0.23413801 3.2732658
2.7065599 -0.211081 3.267
-2.7685502 -0.15350933 3.2657201
-2.7219832 -0.1720445 3.2751033
-2.6877232 -0.18449433 3.2868335
-2.6493399 -0.190422 3.2992799
-0.97297549 -0.17247184 3.2810268
-0.91788018 -0.181252 3.2876861
-0.88159949 -0.1909125 3.2964649
1.2810299 -0.1838145 3.283885
2.721678 -0.16915901 3.2725558
-2.8107352 -0.115475 3.26279
-2.776305 -0.129742 3.2757049
-2.73492 -0.13444801 3.2981501
-1.8874201 -0.103472 3.2888601
-1.65825 -0.101121 3.2947299
-0.98303598 -0.142667 3.2683101
1.28948 -0.14741001 3.2951801
1.3023601 -0.114168 3.28196
2.7376051 -0.124903 3.271225
-2.8661299 -0.064231195 3.2621334
-2.8316984 -0.083566643 3.2759266
-2.7916601 -0.096428297 3.2948
-1.873777 -0.065968119 3.2767215
-1.8276039 -0.061402518 3.2913921
-1.77844 -0.050703797 3.28739
-1.72409 -0.058892496 3.2835474
-1.6762249 -0.066858649 3.27052
-1.633558 -0.073470019 3.2783542
-1.5727899 -0.066406697 3.2848151
-1.52442 -0.066126749 3.2866201
1.3092921 -0.084459201 3.2722278
2.7469399 -0.096229099 3.2832301
2.7581561 -0.072885856 3.2749419
-2.867615 -0.03341005 3.2761524
-1.82575 -0.033470601 3.2576799
-1.71961 -0.033231601 3.2753
-1.682785 -0.041466951 3.2638249
-1.6083435 -0.043929469 3.262953
-1.5737951 -0.049382702 3.2666402
-1.53403 -0.049177103 3.265625
-1.49862 -0.048834901 3.2520499
2.7800999 -0.02830575 3.26829
-2.4504199 0.0194478 3.2992401
-2.42185 0.037919 3.29667
-2.3741634 0.031523634 3.2915566
-2.3238065 0.019017728 3.2695799
2.7914875 0.010606593 3.281785
2.8072 0.039968401 3.2815001
-2.50929 0.075421199 3.26847
-2.4830284 0.075244926 3.2758684
-2.42378 0.070896901 3.2699039
-2.3688433 0.061901763 3.2718399
-2.3397501 0.073601902 3.2553101
2.8174798 0.079118572 3.2744067
-2.55177 0.132614 3.28613
1.46224 0.14973 3.25704
2.8356421 0.12624839 3.268364
-2.6969399 0.19140901 3.25002
-2.63446 0.16245601 3.281945
-2.57498 0.151703 3.2792301
1.49244 0.176193 3.2799101
1.50001 0.183397 3.2534699
2.8444777 0.17280149 3.2749174
2.8556349 0.187281 3.2593551
1.4765167 0.21720235 3.2713134
2.8519251 0.227015 3.2715225
1.47435 0.27616751 3.27741
2.78386 0.28802434 3.2930965
2.8351698 0.28019741 3.2820358
2.8624032 0.27623001 3.2618234
-1.6216739 0.33034402 3.2579803
-1.5747162 0.32196361 3.2718565
-1.5279175 0.32764125 3.2817626
-1.4870501 0.33248499 3.25583
1.471356 0.32196742 3.2847819
2.6326568 0.33995667 3.2900865
2.6775999 0.33797103 3.2781351
2.7320824 0.33565325 3.2799373
2.7735741 0.32438117 3.273056
2.822685 0.31445348 3.26863
-1.7563601 0.394391 3.2669301
-1.7256581 0.38187361 3.2573419
-1.67264 0.37646773 3.2718749
-1.6255656 0.37360516 3.2832415
-1.58875 0.36142668 3.2892964
-1.50179 0.352532 3.28671
-1.33147 0.39690149 3.284425
1.4324225 0.37732375 3.2950149
1.4664866 0.36317232 3.2820632
2.3939099 0.37357801 3.29458
2.427815 0.3838 3.2841897
2.4788327 0.38589877 3.2784424
2.5266476 0.38341725 3.2769225
2.568795 0.38049933 3.27314
2.6242902 0.37304452 3.2641182
2.6782701 0.36564401 3.2579701
2.77245 0.35103601 3.2620499
-1.81976 0.448737 3.26085
-1.7765543 0.42321417 3.2736857
-1.722826 0.41934124 3.2881722
-1.678835 0.41134301 3.2961299
1.18907 0.44466799 3.29934
1.28906 0.44794798 3.2962451
1.32118 0.43488199 3.2891338
1.3778833 0.43407097 3.2924633
1.424086 0.42555961 3.290976
1.4799724 0.42198545 3.2823188
1.5087301 0.43493399 3.2530401
-1.8203167 0.47335634 3.2720997
-1.7886634 0.45678902 3.2945566
-1.0188 0.46465901 3.2505801
0.69070202 0.49526301 3.29812
0.74030298 0.49641001 3.29758
0.7727316 0.49668267 3.2935932
0.82269585 0.491427 3.2929082
0.87658572 0.49479252 3.2884226
0.92266065 0.49177432 3.2860203
0.96788245 0.48753166 3.2845001
1.02308 0.48438498 3.2833574
1.0780634 0.48028132 3.2844617
1.125754 0.48283282 3.2783198
1.17391 0.47675648 3.2784073
1.2229955 0.47576189 3.27233
1.2699257 0.47227356 3.2676985
1.318336 0.46797261 3.259496
1.3823351 0.46886232 3.2765217
1.42187 0.46725321 3.272284
1.4825951 0.47066876 3.2779248
-1.8693113 0.52470648 3.2678823
-1.8367125 0.51939249 3.2931526
-0.92030102 0.54313099 3.2537999
0.20813499 0.54897499 3.2813101
0.27168316 0.54288149 3.2892332
0.32685751 0.54314524 3.286875
0.38243172 0.5337854 3.2880416
0.42941099 0.53567863 3.2810521
0.47676203 0.53579581 3.2767122
0.52135652 0.53142232 3.2775548
0.57145768 0.52485222 3.276895
0.62168288 0.52276731 3.276938
0.66962337 0.52313209 3.2718213
0.7206921 0.52498472 3.264766
0.7678709 0.52076644 3.2695229
0.8255294 0.51862532 3.2670486
0.87557191 0.51993316 3.2654469
0.91782933 0.51323301 3.2659199
0.97311425 0.5108825 3.2650974
1.018625 0.50749755 3.25894
1.0700334 0.50092298 3.2571099
1.1216933 0.50235069 3.2533634
1.4444051 0.52769053 3.272465
1.4754667 0.51290798 3.2566433
-1.9216843 0.58440888 3.2694573
-1.8927301 0.56775469 3.2859333
-0.875144 0.5687415 3.2704549
-0.16866298 0.59902269 3.2947433
-0.12144367 0.59918767 3.2970898
-0.070094302 0.59367776 3.2899375
-0.03000108 0.59054077 3.2863021
0.020185066 0.5855059 3.2863157
0.074979238 0.5803135 3.2821457
0.12964155 0.57950515 3.2762012
0.17661491 0.56965792 3.2764337
0.22473446 0.57324243 3.2695465
0.27208573 0.57377064 3.262327
0.32113776 0.56354886 3.2657399
0.37728244 0.55825865 3.2674401
0.41923299 0.56404805 3.2597251
0.45829499 0.563959 3.25506
0.53873599 0.55054802 3.2609301
0.57759154 0.55012953 3.25315
0.60942602 0.55050945 3.250895
1.45829 0.55170298 3.2566299
-1.9747651 0.63498151 3.2565
-1.9318417 0.62651563 3.2809165
-1.20096 0.64528501 3.29723
-0.80853802 0.60682702 3.26705
-0.79460001 0.64035398 3.2736399
-0.47192901 0.63623399 3.2986901
-0.42280775 0.64588451 3.290205
-0.37425533 0.64005667 3.2855031
-0.32621771 0.63533705 3.2828469
-0.27897501 0.63087171 3.2868598
-0.22791462 0.62745345 3.2803872
-0.17330682 0.62805897 3.269779
-0.12294871 0.62242931 3.2735426
-0.073497601 0.61686164 3.2632515
-0.029776961 0.61457962 3.2600479
0.016961049 0.61459941 3.2600899
0.077153139 0.60818166 3.2590635
0.113289 0.60691202 3.25138
-2.3048699 0.68003303 3.2582901
-2.0093067 0.68678403 3.2613933
-1.9715151 0.67068517 3.269335
-1.9432367 0.67454964 3.2931335
-1.21083 0.674649 3.2693801
-0.7810142 0.68254471 3.2806981
-0.71686965 0.69043428 3.2901332
-0.66816539 0.68980098 3.2947769
-0.61450976 0.68070662 3.2904019
-0.57287866 0.68435287 3.2816744
-0.52420771 0.67847502 3.2751122
-0.47169444 0.67183167 3.2725418
-0.42228609 0.67554218 3.2656262
-0.37217966 0.66008532 3.2637732
-0.32407334 0.66586471 3.25617
-0.293017 0.65858197 3.2622299
-0.22155251 0.65562654 3.2515998
-2.3131881 0.72535676 3.2776198
-2.0231616 0.72810215 3.2644598
-1.990895 0.72334695 3.28866
-0.92109346 0.74171948 3.25757
-0.87804967 0.73935133 3.2556698
-0.82594138 0.72359091 3.2603323
-0.78153235 0.72300833 3.2760048
-0.73196465 0.71761841 3.2690625
-0.68213987 0.71559715 3.2676849
-0.63014382 0.70710605 3.2646065
-0.58773702 0.71174753 3.2537451
-2.3118639 0.77421755 3.274152
-2.11744 0.79321402 3.2527101
-2.0611701 0.788858 3.2581949
-2.0272086 0.76602823 3.280973
-1.2559199 0.77257079 3.2759976
-0.97343278 0.76910675 3.2559826
-0.93158001 0.77394903 3.2588401
-0.8822847 0.76856929 3.2573817
-0.82896799 0.75454998 3.2587731
-0.79553401 0.75324303 3.2592599
-2.3166065 0.82939702 3.2726867
-2.2964301 0.83721602 3.29199
-2.1029601 0.81257403 3.2639899
-2.0728199 0.82037604 3.2712126
-2.0492899 0.81269199 3.29233
-1.410615 0.8490445 3.295845
-1.32988 0.84083748 3.2861199
-1.273034 0.83322966 3.2705619
-2.4033051 0.87028253 3.2511849
-2.3745725 0.8793658 3.26473
-2.3362257 0.87480944 3.2776716
-2.2997899 0.85706103 3.2929001
-2.0778999 0.85315102 3.2925401
-1.7497801 0.89664501 3.29778
-1.60151 0.89986098 3.2916601
-1.5684075 0.88711095 3.2883451
-1.5262001 0.88257748 3.2844477
-1.469483 0.88562495 3.2795827
-1.4228467 0.88005275 3.27211
-1.3760086 0.87076527 3.2699056
-1.3283399 0.86680859 3.26213
-1.2864525 0.85945451 3.26648
-2.4702759 0.93581027 3.255476
-2.4245658 0.92520195 3.2694087
-2.3775361 0.92675066 3.2853322
-2.3378999 0.92063397 3.29761
-2.2141199 0.94529402 3.2966299
-2.16118 0.93833899 3.2922399
-2.1183136 0.93898797 3.2878599
-2.0724699 0.93640995 3.2848024
-2.0317068 0.93597132 3.28881
-1.9763376 0.93428731 3.2798376
-1.9213501 0.92938054 3.2840056
-1.8733684 0.9306581 3.2843103
-1.8232574 0.92916656 3.2867675
-1.774285 0.93080717 3.2751334
-1.7266673 0.9235816 3.2756901
-1.676055 0.92350996 3.2753725
-1.625765 0.91619533 3.27425
-1.5846767 0.91650897 3.2659132
-1.5291266 0.90495831 3.2636335
-1.4884 0.90092897 3.2616799
-2.5625899 0.99896902 3.2539101
-2.525032 0.97944337 3.2605259
-2.4831851 0.98440719 3.2813773
-2.427835 0.977449 3.28109
-2.3770499 0.97853136 3.28792
-2.325655 0.98512852 3.2834227
-2.27035 0.97741747 3.2788649
-2.221148 0.97686118 3.2765641
-2.1643949 0.96326101 3.2717776
-2.13465 0.96861839 3.2681332
-2.069586 0.96706665 3.2606978
-2.01652 0.96335495 3.2627926
-1.97074 0.96008092 3.25718
-1.9212949 0.9606415 3.2561951
-1.877605 0.95645702 3.258765
-1.8267399 0.95294499 3.26706
-1.71228 0.95580202 3.2513101
-2.61641 1.0474501 3.2572351
-2.5680599 1.0299799 3.2536402
-2.5309298 1.0265701 3.2608924
-2.4838979 1.02786 3.2677522
-2.4239399 1.0137475 3.2665124
-2.3745022 1.021154 3.2658341
-2.3171802 1.0095949 3.26455
-2.2642751 1.002655 3.2632499
-2.2331352 1.01547 3.2505698
-2.6005199 1.0642999 3.2506599
-2.57638 1.0622801 3.2567501
-2.51755 1.05375 3.25457
1.74743 -2.51194 3.3412299
1.7623301 -2.5039799 3.32182
1.7689867 -2.4673233 3.3195636
0.4358595 -2.20398 3.30195
0.47339299 -2.2089751 3.3050849
0.51125205 -2.2146549 3.3088899
0.37422419 -2.166734 3.3119159
0.42777669 -2.1732621 3.3316746
0.4751465 -2.1900449 3.33304
0.52357852 -2.1859615 3.3286672
0.55503702 -2.16155 3.3164201
0.28612977 -2.1129327 3.30759
0.32721868 -2.1265416 3.3257217
0.367443 -2.1374621 3.3354499
0.57609397 -2.1314681 3.323632
0.225283 -2.0626218 3.3111622
0.27494028 -2.0841827 3.3306301
0.31506699 -2.0994501 3.34108
0.61822951 -2.0671649 3.3199625
0.135582 -2.0083899 3.308975
0.17650813 -2.0242586 3.3238449
0.21843059 -2.0340199 3.3338361
0.63420033 -2.0366535 3.3289499
0.65418297 -2.0118999 3.3101699
0.041926701 -1.9506299 3.3009
0.081819251 -1.962265 3.3101625
0.12893143 -1.9797115 3.3367984
0.66242397 -1.974045 3.323245
-0.0108721 -1.91029 3.30915
0.024319822 -1.9184579 3.3231013
0.0740031 -1.9384521 3.3334842
0.68079305 -1.9251267 3.3278034
0.70107102 -1.90347 3.3123801
-0.076345101 -1.862545 3.3123076
-0.028461844 -1.8754777 3.325912
0.0066146199 -1.8855 3.3436501
0.70566934 -1.8705133 3.31935
-0.175688 -1.80291 3.30988
-0.12842561 -1.8180888 3.3194976
-0.085825808 -1.8329985 3.3278229
-0.046191499 -1.8438801 3.3480899
0.72456354 -1.8245817 3.3264284
0.75010198 -1.80439 3.3248401
-0.2116762 -1.764204 3.3158822
-0.17237914 -1.7716415 3.3315885
-0.14147049 -1.7910149 3.32885
0.74472266 -1.7822267 3.3390334
0.76238698 -1.75666 3.3137801
-0.26724187 -1.7190771 3.3188686
-0.22458883 -1.7336651 3.3310802
0.74940902 -1.7499501 3.34548
0.76736528 -1.7255768 3.3217831
-0.35953 -1.6676732 3.3084867
-0.32065842 -1.6763951 3.3221192
-0.27396041 -1.6871319 3.3425241
0.77822804 -1.6828567 3.3332832
-0.453935 -1.60068 3.3016801
-0.41819182 -1.614212 3.316658
-0.37160289 -1.6302557 3.3288221
-0.33874199 -1.6372499 3.3459301
0.7915175 -1.6477849 3.3229198
0.80731452 -1.6270599 3.3197298
-0.51068866 -1.5549666 3.3120766
-0.47055873 -1.5700662 3.3258414
-0.42848936 -1.5829767 3.3380814
-0.38972199 -1.59952 3.3482299
0.82389402 -1.5907199 3.3267698
-0.56839734 -1.5154985 3.3201585
-0.52562219 -1.5306729 3.3278558
-0.49023151 -1.53057 3.3413
0.83193165 -1.5293232 3.3314703
-0.65602398 -1.45891 3.3131101
-0.62139046 -1.4730421 3.3208911
-0.58682305 -1.4832425 3.3341675
0.84470963 -1.4867901 3.3230534
0.85048002 -1.46387 3.3301899
-0.75554299 -1.40368 3.30358
-0.72041887 -1.4179785 3.3109498
-0.67410254 -1.4272245 3.3275635
-0.64225698 -1.44051 3.340965
0.86183405 -1.4112151 3.31918
1.13236 -1.4023401 3.3037801
1.176248 -1.4161341 3.306308
1.2256566 -1.4199384 3.3219984
1.2666365 -1.4265317 3.3264484
-0.81138593 -1.3575801 3.3058002
-0.77135617 -1.3694438 3.3171299
-0.72793257 -1.3817815 3.3359714
-0.69311702 -1.39719 3.34582
0.87666637 -1.38204 3.3156433
1.078885 -1.3647475 3.3095551
1.1224251 -1.3783633 3.3207915
1.172612 -1.388814 3.3288503
1.2215 -1.39025 3.34969
1.3459767 -1.3737067 3.3188365
1.3578 -1.35033 3.3047199
-0.86388141 -1.315696 3.3117301
-0.82545424 -1.3225288 3.3274632
-0.77986997 -1.3359621 3.3412819
0.880193 -1.33628 3.34623
0.98096752 -1.3076949 3.3236499
1.0222362 -1.3203675 3.3283837
1.0745343 -1.3339714 3.3302915
1.37296 -1.319598 3.3349621
-0.95844603 -1.25115 3.3105199
-0.92154282 -1.2708689 3.3156056
-0.88371372 -1.28142 3.3288972
-0.84559798 -1.2934099 3.3471799
0.88984102 -1.29117 3.32549
0.92235261 -1.2699188 3.3182876
0.96929735 -1.2874099 3.33183
1.012545 -1.28958 3.344965
1.38152 -1.275704 3.3293138
1.40654 -1.25914 3.30582
-1.05958 -1.20003 3.3001599
-1.0220584 -1.2135634 3.3128166
-0.97805995 -1.224015 3.3247705
-0.93406272 -1.2368525 3.3419349
0.91785449 -1.2436199 3.3446801
1.3900234 -1.2419701 3.3377266
1.41132 -1.2187979 3.3100879
-1.1210359 -1.1567661 3.310384
-1.0728725 -1.1714475 3.3226161
-1.0314766 -1.1896499 3.3317168
1.4236699 -1.1714728 3.3253784
-1.20981 -1.1045101 3.3073401
-1.1667013 -1.120805 3.3202128
-1.1256833 -1.1308117 3.3363686
-1.08674 -1.14308 3.3462701
1.43242 -1.1277425 3.3346975
2.2442033 -1.1328167 3.3320434
-1.3078001 -1.05717 3.3039701
-1.2710921 -1.064636 3.3158402
-1.2267938 -1.0781624 3.3297987
-1.1783425 -1.0894575 3.3428349
1.37994 -1.05989 3.3454001
1.4093699 -1.09045 3.31142
2.2395101 -1.09576 3.3210101
2.2765 -1.061955 3.3275599
2.3034401 -1.0612 3.30861
-1.3685166 -1.0145299 3.3064835
-1.3283875 -1.0252287 3.3224723
-1.282518 -1.0375999 3.3334222
-1.24511 -1.04467 3.3436699
2.2893651 -1.02127 3.3176398
2.3025301 -1.04184 3.3123901
-1.45249 -0.96026099 3.3025999
-1.4175321 -0.96899003 3.3204181
-1.3756638 -0.98558587 3.3298388
-1.33664 -0.99765801 3.3448501
1.24907 -0.95289302 3.3301201
1.2853767 -0.96019769 3.3238766
-1.5157676 -0.90726471 3.3237927
-1.476395 -0.92669404 3.3203111
-1.428828 -0.94094676 3.3355038
1.22735 -0.92387497 3.32847
-1.60307 -0.86453497 3.30251
-1.5665988 -0.87432754 3.32444
-1.5264167 -0.88123584 3.3385198
2.3849676 -0.8611232 3.3302701
-1.7017 -0.80105501 3.30565
-1.6708299 -0.81315488 3.3184385
-1.6272868 -0.82858521 3.3227966
-1.5925851 -0.84213448 3.3287001
1.2120866 -0.81286031 3.32603
2.39361 -0.82911646 3.33989
2.4041049 -0.82614446 3.3163149
-1.7653074 -0.75800377 3.3141475
-1.7254726 -0.77215868 3.3219776
-1.6785179 -0.78041422 3.339262
1.19854 -0.75532198 3.3334999
1.21205 -0.77770442 3.3362117
2.4251659 -0.78551757 3.3314538
2.4575832 -0.7687723 3.3131399
-1.86101 -0.70406401 3.30007
-1.8200766 -0.71581799 3.3165786
-1.7779433 -0.72711396 3.3303716
-1.73737 -0.73907501 3.34658
1.1334025 -0.7177797 3.33758
1.1706575 -0.73577553 3.3092976
1.20394 -0.73158598 3.3003199
2.4706416 -0.72529221 3.3202965
-1.9129534 -0.66083002 3.3078034
-1.8691151 -0.67027777 3.3256223
-1.8309368 -0.68464869 3.3424199
1.1214716 -0.67942619 3.3353469
2.4895079 -0.67291498 3.326118
-1.968406 -0.61250943 3.3151138
-1.9272338 -0.62534475 3.3321586
-1.888255 -0.63980746 3.3401899
1.11709 -0.61317998 3.33217
2.5121875 -0.63096327 3.3198776
-2.05459 -0.55500102 3.30546
-2.0225766 -0.5671382 3.32145
-1.9800715 -0.58101314 3.3319883
1.1369176 -0.57535052 3.3291249
2.533102 -0.57839382 3.3236918
-2.0720637 -0.51676726 3.3198738
-2.032902 -0.53263623 3.3420939
1.149135 -0.5379805 3.33002
1.1576166 -0.51748502 3.3220701
2.5445199 -0.53701103 3.3295901
2.5623975 -0.51847148 3.3272576
-2.1215417 -0.46959934 3.3224249
-2.0849502 -0.48154464 3.3387868
1.1798359 -0.47699779 3.3315339
2.5801001 -0.47971523 3.3174825
-2.1229451 -0.42526001 3.33588
1.1919301 -0.44732648 3.3329201
1.2070551 -0.42196798 3.3266549
2.5932751 -0.4330695 3.3306298
2.6110439 -0.41544262 3.3177238
-2.1413968 -0.37450266 3.33833
1.2157625 -0.375144 3.317085
2.6273427 -0.37594047 3.32377
-2.01842 -0.339757 3.34602
1.2335474 -0.32592151 3.31973
2.6406398 -0.33774948 3.325325
2.6566899 -0.31553701 3.3224401
1.2386817 -0.28069666 3.3245132
2.6688399 -0.27095559 3.3284562
-2.6159649 -0.20916149 3.31072
-2.572315 -0.208702 3.32762
-1.9665899 -0.22372733 3.3307965
-0.97279298 -0.20933899 3.3176098
-0.92672557 -0.2130245 3.3211524
-0.89214897 -0.207481 3.3036201
1.244235 -0.238749 3.3173199
1.25781 -0.21991535 3.3218534
2.6852701 -0.22592467 3.3268168
-2.6742373 -0.16265425 3.3133273
-2.6271617 -0.17508984 3.3325865
-2.577085 -0.19000399 3.3347049
-1.9432 -0.15874299 3.34531
-0.95921701 -0.192076 3.30123
-0.94265199 -0.191972 3.3029599
1.2784433 -0.18186001 3.3291302
2.7115433 -0.17472599 3.3306503
-2.76929 -0.115755 3.3038499
-2.7223375 -0.12023875 3.319515
-2.6780725 -0.1296455 3.3374975
-1.9634399 -0.1057 3.34302
-1.9418199 -0.1232065 3.3441
-1.86643 -0.10863049 3.3290174
-1.6869249 -0.110919 3.330915
-1.63379 -0.1083218 3.3189423
-1.5754666 -0.101243 3.3315766
-1.5221651 -0.10956649 3.34484
-1.47435 -0.1085185 3.325335
-1.44487 -0.134158 3.34586
-1.336655 -0.149281 3.3364902
1.2744551 -0.115363 3.329185
1.30112 -0.132129 3.3255
2.7338099 -0.126093 3.3223
-2.8185401 -0.0578743 3.3090949
-2.7776318 -0.073936522 3.3207934
-2.732655 -0.091512799 3.332835
-2.42592 -0.055345301 3.3385401
-1.92005 -0.086787596 3.3075399
-1.858 -0.086338401 3.3144701
-1.8231667 -0.086333364 3.3297567
-1.7945 -0.068478398 3.3169
-1.69094 -0.0849296 3.31916
-1.6173401 -0.084214196 3.314805
-1.5786867 -0.078184836 3.31092
-1.53573 -0.083464652 3.3107052
1.2832866 -0.092894264 3.31265
2.738225 -0.087168574 3.3287625
2.7546599 -0.057972498 3.3304801
-2.85811 -0.018798299 3.3013101
-2.8297076 -0.028617375 3.3225174
-2.7992001 -0.038434401 3.3410101
-2.4697299 -0.018013749 3.3435049
-2.40447 -0.017738501 3.30935
-2.38341 -0.017718401 3.3167
2.7647176 -0.028555226 3.324235
-2.868448 0.024625104 3.3277519
-2.8476801 0.00085044699 3.3255
-2.5600901 0.019833386 3.3352802
-2.529875 0.01504656 3.3413901
-2.4764676 0.024227384 3.3159575
-2.4201627 0.010132943 3.3126225
-2.3787501 0.000818728 3.31025
2.7810619 0.020532385 3.3313615
-2.86725 0.060385101 3.34793
-2.5959899 0.096606001 3.3441601
-2.5499799 0.057691101 3.32178
1.38431 0.084843703 3.3455501
1.40017 0.084783897 3.33758
2.7961266 0.079915933 3.3424003
2.8066199 0.079660363 3.31738
-2.781445 0.1379545 3.3359199
-2.6301951 0.13519749 3.3318949
-2.5806401 0.115075 3.32388
1.3913825 0.10996 3.3389299
1.4203528 0.12524258 3.3193629
2.8220532 0.13256367 3.3217533
-2.7630949 0.166225 3.3128152
-2.62642 0.153612 3.30831
1.42485 0.16454075 3.3252964
1.4723142 0.17416501 3.3222802
2.8234386 0.18165658 3.3231971
1.4329544 0.21982172 3.3319714
1.4731851 0.21441366 3.3223655
2.7451501 0.237022 3.34991
2.7850399 0.237893 3.34165
2.82337 0.2264028 3.3240342
1.4310716 0.27065817 3.3342152
1.4628021 0.26660541 3.3134639
2.3352399 0.29870901 3.3310499
2.59671 0.29051799 3.3482201
2.6330099 0.291311 3.3381701
2.6759448 0.28307825 3.3365324
2.7274942 0.27847901 3.3255162
2.7704775 0.26609352 3.3223
2.8160501 0.25684798 3.3022699
1.4268415 0.32356444 3.3302612
1.4554474 0.31593275 3.3087277
2.3317552 0.32614851 3.3238649
2.381165 0.32908425 3.3371475
2.4331799 0.340491 3.33318
2.4730625 0.33258775 3.3318248
2.5254581 0.3287414 3.32709
2.5760057 0.32648686 3.3184617
2.6230667 0.31552699 3.3173902
2.676245 0.31117499 3.315995
2.7153399 0.31231099 3.30813
-1.6085501 0.39375401 3.320755
-1.5665699 0.37482083 3.3185117
-1.5325924 0.37378073 3.3201776
-1.4826651 0.379188 3.3067751
-1.3703099 0.369914 3.33656
-1.33795 0.36565 3.30338
1.282815 0.38481098 3.33498
1.385058 0.3800458 3.3216081
1.4241734 0.36168233 3.3110435
1.47034 0.38795701 3.30316
2.374965 0.35631049 3.3260751
2.4256101 0.3582395 3.32113
2.468595 0.358998 3.304635
2.50774 0.36054501 3.3008201
-1.7144099 0.44816399 3.30123
-1.6755073 0.43599817 3.3192689
-1.6217052 0.42761949 3.3290162
-1.5826365 0.41796398 3.3417003
-1.46123 0.40546 3.32179
-1.34558 0.41778401 3.31761
0.82594347 0.43972802 3.34657
0.87282467 0.44012067 3.3403034
0.92903501 0.43557134 3.33619
0.96909636 0.44192567 3.3338668
1.0210583 0.43499053 3.3326619
1.074693 0.43228242 3.3265083
1.1269766 0.42963022 3.3304057
1.1737543 0.43032998 3.3236313
1.2257432 0.42838833 3.3239393
1.2715082 0.4207508 3.3172691
1.302225 0.408068 3.3103251
1.3746258 0.41718146 3.3151059
1.42071 0.41464302 3.3054333
1.4610651 0.42136699 3.30088
-1.80072 0.48735401 3.3002999
-1.7690949 0.47585416 3.3157349
-1.7307833 0.47274718 3.330513
-1.6728026 0.4638285 3.34059
-1.41766 0.45289201 3.3050799
0.17984766 0.49477199 3.3474731
0.227578 0.49461928 3.3440866
0.27551666 0.49482536 3.3425968
0.32643241 0.48831159 3.3387802
0.37078652 0.48633733 3.3327
0.42488211 0.4847295 3.3305523
0.47436619 0.48110431 3.3299255
0.52884263 0.47854358 3.329591
0.5792436 0.47487462 3.3274789
0.63062757 0.4777154 3.3214791
0.67711538 0.47176507 3.3226144
0.72698826 0.4728696 3.3224218
0.77784979 0.4677231 3.3191013
0.82966053 0.46507427 3.3242414
0.87705237 0.46813738 3.3178015
0.92946082 0.46296647 3.3139169
0.98402822 0.4625842 3.3111
1.0317699 0.45704901 3.3077533
1.07567 0.45837301 3.3070149
1.1191599 0.45942768 3.3037865
1.15443 0.46042001 3.30195
1.42597 0.491083 3.3246801
1.4740951 0.46488702 3.3036251
-1.8154716 0.53141785 3.315665
-1.7825161 0.51546538 3.3352203
-0.16281599 0.54272604 3.344435
-0.12295032 0.54267699 3.3452933
-0.071865395 0.53556538 3.342504
-0.027264165 0.53336835 3.3393281
0.020411935 0.53442824 3.3357282
0.076894045 0.53014255 3.3351102
0.12829261 0.52282518 3.3319168
0.17857957 0.52285576 3.3199313
0.22605978 0.52288854 3.317781
0.27387765 0.51560748 3.319813
0.31859246 0.51811349 3.3104842
0.36563259 0.5138092 3.3115582
0.42462325 0.50792474 3.3096452
0.48028836 0.50812769 3.3050201
0.53637755 0.50865752 3.301755
1.4493901 0.51027298 3.33162
-1.8729634 0.58144617 3.3077316
-1.8273799 0.57108557 3.3312156
-0.8741625 0.57876551 3.3311749
-0.47771701 0.59575599 3.3457999
-0.42881265 0.59479028 3.3451931
-0.37915435 0.59242368 3.3361666
-0.33052081 0.58484304 3.3341
-0.27470988 0.57932258 3.3388863
-0.22369787 0.57829976 3.3240488
-0.16987434 0.57153457 3.322458
-0.12211566 0.57067508 3.3188243
-0.076524094 0.56817108 3.3169351
-0.024807585 0.56470287 3.3121846
0.020296603 0.5595212 3.3114097
0.075585797 0.55354375 3.313385
0.13052501 0.55205768 3.3030331
-1.90195 0.63708198 3.3053
-1.8727601 0.62440449 3.3244915
-1.84059 0.6018405 3.3393202
-0.8215425 0.616449 3.3192101
-0.790021 0.64972901 3.3245299
-0.716286 0.64902103 3.33341
-0.67209858 0.64208567 3.3389282
-0.62662667 0.63215512 3.3347263
-0.57279539 0.63355511 3.33512
-0.52266675 0.62840122 3.3278649
-0.47483262 0.62208098 3.3212953
-0.42555851 0.62015402 3.3158023
-0.37674549 0.61253422 3.3119268
-0.32869962 0.61020982 3.3118901
-0.28469449 0.60703552 3.3108199
-0.22481374 0.60186046 3.3079848
-1.9197125 0.68017584 3.3251548
-1.8788466 0.65902263 3.3403034
-0.77048802 0.66683596 3.3194885
-0.724244 0.66756046 3.3172326
-0.671561 0.66910529 3.3151848
-0.62473106 0.66237348 3.3087902
-0.57171339 0.65730166 3.3111298
-0.5132705 0.65422451 3.302495
-2.3079901 0.74799597 3.32675
-1.9674599 0.72454178 3.3071322
-1.9296579 0.72396177 3.3324981
-1.25641 0.72435302 3.3366101
-2.30212 0.77404249 3.3130698
-2.29144 0.77672499 3.3350251
-2.0150366 0.78696829 3.3050766
-1.97173 0.77580535 3.3201902
-1.9403574 0.76994473 3.3413601
-1.3183466 0.7930097 3.3394701
-1.29793 0.79654998 3.3348
-2.3017099 0.80186701 3.30708
-2.29478 0.82299197 3.3213775
-2.0567 0.833745 3.30055
-2.0230098 0.82602561 3.31637
-1.976952 0.82126302 3.333678
-1.94425 0.8229605 3.3483748
-1.87867 0.84490001 3.34746
-1.72671 0.84981799 3.3469601
-1.5717151 0.83978224 3.3392351
-1.5252975 0.84008801 3.3367825
-1.4746517 0.83585685 3.33535
-1.4205333 0.82078362 3.3258317
-1.374805 0.82202625 3.3221812
-1.3254859 0.82184505 3.3128781
-1.2937599 0.81087899 3.3208899
-2.31212 0.88975048 3.3045049
-2.2847934 0.88063484 3.3233118
-2.2019501 0.89225698 3.3287201
-2.1716468 0.88376904 3.3346136
-2.1129901 0.88091868 3.3185732
-2.070986 0.87967521 3.3149581
-2.0225575 0.86952984 3.3196025
-1.9745418 0.86957496 3.3316348
-1.9287499 0.87419766 3.330188
-1.8772025 0.87684327 3.3327713
-1.82254 0.87607771 3.3300388
-1.7727314 0.8772487 3.3262799
-1.7274051 0.87552238 3.326735
-1.6756527 0.87695199 3.3227859
-1.6250416 0.87372237 3.3165212
-1.5794376 0.85866201 3.318815
-1.5197501 0.864779 3.3075151
-1.4791501 0.85934049 3.317945
-1.44207 0.85262901 3.3010099
-2.3301833 0.93507671 3.3086433
-2.2750051 0.92101812 3.3188884
-2.2273874 0.92299151 3.3227351
-2.1830299 0.92531848 3.3107076
-2.1339574 0.9108457 3.3134775
-2.0831749 0.91386098 3.3080401
-2.025635 0.91300547 3.31038
-1.96724 0.91146296 3.3095498
-1.93539 0.90019202 3.31617
-1.86526 0.91023397 3.3083501
-1.8219299 0.90636867 3.3102634
-2.33392 0.96040595 3.3018799
-2.2813001 0.954081 3.3013601
-2.2439899 0.95012403 3.3032401
1.73235 -2.5706799 3.3967299
1.7409934 -2.5323668 3.3772469
1.74982 -2.49505 3.3584199
1.759665 -2.47418 3.3657651
0.47932664 -2.1619368 3.3593369
0.51904523 -2.159112 3.360162
0.37881449 -2.115175 3.3670337
0.42969787 -2.1287313 3.3770854
0.47273049 -2.1365299 3.3847127
0.52867347 -2.1346076 3.38432
0.57280099 -2.1173661 3.3639998
0.27827501 -2.0596666 3.35658
0.32580334 -2.0744784 3.3771896
0.36862803 -2.08936 3.387975
0.59015352 -2.077915 3.3817098
0.60886699 -2.0589299 3.3571701
0.22926635 -2.0143101 3.3689415
0.27266568 -2.0332134 3.378155
0.62207985 -2.0234571 3.3750687
0.14073551 -1.962745 3.3575802
0.17334315 -1.9686099 3.3718357
0.21600661 -1.981582 3.386296
0.64391798 -1.9911849 3.3764648
0.65961701 -1.965655 3.36971
0.083801098 -1.9168617 3.3649235
0.12285733 -1.9281601 3.3770514
0.16475558 -1.930608 3.3956299
0.67588663 -1.9154899 3.3795121
-0.0111103 -1.85298 3.3647101
0.026304446 -1.8715956 3.3715112
0.0689511 -1.880075 3.3860767
0.69224203 -1.89268 3.37638
0.70719254 -1.857625 3.37112
-0.076896355 -1.8111825 3.3577125
-0.0307696 -1.8231367 3.37694
0.018386114 -1.8386999 3.3920567
-0.150815 -1.7628 3.3561001
-0.12501366 -1.7683433 3.36742
-0.084022641 -1.7802101 3.3791614
0.72759229 -1.77911 3.3644326
-0.21647361 -1.711352 3.3605263
-0.17027691 -1.726379 3.3754489
-0.134183 -1.7376601 3.3903799
0.73861301 -1.739815 3.3919349
0.75670475 -1.7212976 3.37274
-0.30519599 -1.65971 3.35216
-0.26947287 -1.663007 3.3732288
-0.22280987 -1.6763613 3.3855438
0.77293664 -1.6794167 3.3708699
-0.36472201 -1.603085 3.3579102
-0.32108301 -1.6216468 3.3716977
-0.27701524 -1.632665 3.3940926
0.79318798 -1.6433699 3.37977
0.80534071 -1.6146699 3.3754532
-0.41438597 -1.5636461 3.3645699
-0.37683851 -1.5761236 3.3807876
-0.34015 -1.59168 3.3789501
0.80962074 -1.5794601 3.3727002
-0.52551335 -1.5078968 3.3532102
-0.46951091 -1.5246438 3.3693347
-0.43347856 -1.5299171 3.3872743
-0.39264601 -1.54171 3.3982
0.82645398 -1.5282532 3.3924034
-0.60959798 -1.45249 3.35095
-0.57114214 -1.4675751 3.3608568
-0.52915025 -1.4798063 3.37363
-0.48844135 -1.4938134 3.3859336
0.83962297 -1.47954 3.3860266
0.86012 -1.45436 3.3773201
-0.66077399 -1.40086 3.3599801
-0.62613553 -1.419645 3.3694763
-0.58452064 -1.4322566 3.3841286
-0.54606599 -1.44809 3.39569
0.84001702 -1.40649 3.38536
-0.71692801 -1.3593801 3.3600299
-0.68099231 -1.3747901 3.3723657
-0.63470352 -1.3878025 3.3917627
0.86689234 -1.3766166 3.3534031
1.144685 -1.35642 3.3607249
1.174005 -1.35991 3.36183
1.2214315 -1.3753986 3.36307
1.2692175 -1.3771675 3.3736527
1.3449249 -1.3731 3.3723402
-0.77297056 -1.31429 3.3659358
-0.73631757 -1.3294775 3.3746138
-0.69924802 -1.34056 3.3971901
0.87998301 -1.3274199 3.3740599
1.08293 -1.310395 3.3581548
1.1250199 -1.3231057 3.3783514
1.169735 -1.3299974 3.3889451
1.221355 -1.34707 3.394135
1.34466 -1.33718 3.38362
1.3564067 -1.3311667 3.3624833
-0.86527979 -1.2631874 3.3643951
-0.8268913 -1.2747611 3.37254
-0.78536761 -1.290458 3.3816421
0.92653203 -1.26411 3.373935
0.97665751 -1.2619625 3.3564475
1.0303315 -1.2757957 3.3710341
1.0710971 -1.2756144 3.3837242
1.10908 -1.2946301 3.3885601
1.3645201 -1.2772475 3.3747201
-0.91995668 -1.2179337 3.3718011
-0.87816453 -1.2318345 3.3859789
0.9277643 -1.22025 3.3761401
0.97324377 -1.2207149 3.3819675
1.0171601 -1.24147 3.3882668
1.386305 -1.2280775 3.3811452
1.4026999 -1.209775 3.363565
-1.0534199 -1.1610399 3.35272
-1.0166674 -1.1714826 3.3651323
-0.97259104 -1.1780901 3.3784699
-0.92827946 -1.1903851 3.3857226
0.93250102 -1.18332 3.3850501
0.95379299 -1.18845 3.3958199
1.4114701 -1.1739765 3.3796966
-1.1118599 -1.11698 3.3551166
-1.0719888 -1.1246467 3.3702435
-1.0305783 -1.1358384 3.3864167
1.4150133 -1.1260633 3.3674133
2.2251239 -1.128536 3.3806343
-1.21146 -1.06233 3.35094
-1.1716686 -1.0629038 3.3721802
-1.1303787 -1.0839238 3.3761714
-1.096025 -1.09249 3.3905549
2.23294 -1.0875199 3.3753099
-1.30211 -1.01477 3.35111
-1.2653856 -1.0168072 3.3698099
-1.2250375 -1.0296788 3.378269
-1.19239 -1.0423651 3.3833399
-1.374382 -0.95759857 3.3618882
-1.3237246 -0.97371334 3.372107
-1.283072 -0.98680782 3.3898857
1.24027 -0.95927501 3.35762
1.29065 -0.98869503 3.38518
1.30601 -0.98716402 3.3745
-1.460485 -0.90179849 3.3589702
-1.4222863 -0.91531646 3.3713112
-1.3806833 -0.92564702 3.3836462
-1.34914 -0.93743002 3.3919401
-1.5231625 -0.85759676 3.3629551
-1.4773037 -0.87274146 3.3756676
-1.4285451 -0.88443047 3.3934526
-1.6079832 -0.80931067 3.3539734
-1.5719339 -0.82007235 3.3720512
-1.5259651 -0.83390695 3.3859446
1.2227401 -0.83909702 3.38766
2.3814349 -0.82530999 3.3825526
2.4023399 -0.80343503 3.3580101
-1.70116 -0.75622898 3.35585
-1.6670575 -0.76109725 3.3712623
-1.6284158 -0.77766031 3.3744454
-1.5886532 -0.78497058 3.3913133
1.14914 -0.75602198 3.3508699
1.1847967 -0.77589732 3.3802931
2.39906 -0.789536 3.39589
2.4203234 -0.76240367 3.3791001
-1.7680935 -0.71262866 3.3556201
-1.7244525 -0.72209752 3.3715827
-1.6780125 -0.73754728 3.3874273
1.0942249 -0.70820153 3.3878751
1.1219867 -0.72301131 3.3671434
2.4387076 -0.73534375 3.3743927
2.4595799 -0.71771669 3.3647301
-1.8203634 -0.66951102 3.3661935
-1.7751287 -0.67763007 3.3840463
-1.73314 -0.691535 3.3889699
1.09425 -0.66923249 3.3652101
1.10878 -0.65122902 3.3566899
2.4790616 -0.67549211 3.3799763
-1.9058501 -0.60698801 3.3568599
-1.8689051 -0.62292254 3.3733835
-1.8302432 -0.63735598 3.3900535
-1.79936 -0.64293301 3.3998499
1.09828 -0.63814002 3.3828299
1.1148725 -0.61468101 3.3670051
2.49265 -0.63951302 3.3984699
2.5072734 -0.62377095 3.3691065
-1.9665275 -0.56113374 3.3607275
-1.9267088 -0.57701421 3.3784351
-1.88972 -0.59243548 3.390615
1.1331967 -0.5687353 3.3691368
