ply
format ascii 1.0
comment PCL generated
element vertex 1582
property float x
property float y
property float z
element camera 0
property float view_px
property float view_py
property float view_pz
property float x_axisx
property float x_axisy
property float x_axisz
property float y_axisx
property float y_axisy
property float y_axisz
property float z_axisx
property float z_axisy
property float z_axisz
property float focal
property float scalex
property float scaley
property float centerx
property float centery
property int viewportx
property int viewporty
property float k1
property float k2
end_header
1.1781282 1.3901882 2.3389616
1.2260273 1.3845301 2.3369172
1.27388 1.3852909 2.3301609
1.3249491 1.3804175 2.3312857
1.3752136 1.3778316 2.3242295
1.4250076 1.3718854 2.3252022
1.4768089 1.3700444 2.3154812
1.5229125 1.3627888 2.3142288
1.5780467 1.3625717 2.31443
1.6182467 1.3569833 2.3117368
1.67018 1.3551468 2.3043499
1.76494 1.35422 2.3008001
0.73440164 1.4453067 2.3474767
0.77845323 1.4451975 2.3426876
0.82286459 1.4390322 2.3379776
0.88060683 1.4328849 2.3367469
0.92830503 1.432308 2.3324227
0.97505516 1.4282968 2.3296571
1.0246931 1.4240876 2.3274477
1.074072 1.4250814 2.320761
1.1231292 1.4181466 2.3198426
1.1733687 1.4157513 2.3135653
1.22106 1.4122738 2.3111339
1.2656533 1.4086066 2.3092835
1.3279099 1.4034966 2.3043935
0.28688699 1.49857 2.34956
0.38360551 1.4883499 2.3485851
0.42275947 1.4905925 2.3464298
0.47124878 1.4869059 2.3380859
0.52797514 1.4807045 2.3373253
0.57871586 1.4821149 2.3319843
0.62327123 1.4775409 2.3320377
0.67248708 1.4760109 2.3258224
0.72452861 1.4708006 2.3211515
0.77524233 1.4715074 2.3157542
0.8240521 1.4662855 2.31615
0.87245643 1.4594877 2.3123877
0.92087317 1.4608579 2.307014
0.97489482 1.45653 2.3049481
1.0164599 1.4534199 2.3027601
0.079982154 1.5421 2.3422718
0.1268945 1.5432312 2.3376548
0.17791481 1.5352801 2.3357742
0.23009413 1.5283347 2.331738
0.28001666 1.5275199 2.3283942
0.32883871 1.5224239 2.3238966
0.37214202 1.5181551 2.3244934
0.42080614 1.5156133 2.3211458
0.4733943 1.5162311 2.3144457
0.52211887 1.5108571 2.3123691
0.57405138 1.5081357 2.3077686
0.62957454 1.5059251 2.3037775
-0.372356 1.59039 2.34972
-0.31661519 1.593042 2.3440843
-0.27311164 1.5878263 2.3432789
-0.21866775 1.5868999 2.3355417
-0.17495354 1.5852112 2.3335166
-0.12952425 1.5811082 2.3296776
-0.075435221 1.5780019 2.3298807
-0.026672293 1.5765704 2.3253314
0.023114664 1.57147 2.3233919
0.073768437 1.568135 2.3190119
0.12396699 1.566805 2.312804
0.17754263 1.5630437 2.3119087
0.2243702 1.55672 2.3067138
0.27257568 1.55292 2.3017533
-0.709508 1.6458349 2.34373
-0.67437905 1.6415933 2.3456166
-0.62458819 1.6400101 2.3404076
-0.57480854 1.6371056 2.3325932
-0.5243786 1.633357 2.3288198
-0.47201246 1.6302025 2.3273382
-0.42481828 1.6247808 2.3266799
-0.37820345 1.6208208 2.3233643
-0.32776931 1.62113 2.3205829
-0.27224615 1.6157017 2.3183742
-0.22196479 1.614439 2.3120587
-0.17419468 1.6114401 2.3065901
-0.12484849 1.607305 2.3073516
-0.092802703 1.60711 2.3081868
-1.07126 1.6979699 2.3442898
-1.0193599 1.6901325 2.3426576
-0.97090882 1.6888515 2.338943
-0.92525065 1.6848075 2.3395627
-0.87692511 1.6859288 2.33078
-0.82304764 1.6810879 2.3276701
-0.7732206 1.6738601 2.3276324
-0.72357637 1.6732547 2.3222194
-0.67204911 1.6694317 2.3184297
-0.62540239 1.6659529 2.315562
-0.5728637 1.6648134 2.3058867
-0.54127532 1.6597567 2.3091667
-0.46399331 1.65809 2.3025134
-1.32414 1.742975 2.3478651
-1.2774174 1.7390776 2.3373475
-1.2252949 1.7326766 2.3407383
-1.1766 1.7342867 2.3316865
-1.1262015 1.7287207 2.3270266
-1.0793608 1.7257918 2.3247511
-1.0301728 1.7220726 2.3176
-0.97894269 1.716799 2.316371
-0.92419481 1.712473 2.3110757
-0.87363464 1.70692 2.3061399
-0.81995171 1.7073799 2.30373
-0.77117664 1.70327 2.3018599
-1.7323699 1.79576 2.342165
-1.6715651 1.7869425 2.3408127
-1.6227026 1.7745175 2.3441124
-1.5801088 1.7828825 2.3325927
-1.5239962 1.7840999 2.3284738
-1.471957 1.7788589 2.3338339
-1.4229914 1.7751514 2.3288074
-1.3761284 1.77352 2.3277998
-1.3255267 1.7732723 2.3218644
-1.2752666 1.7684045 2.314512
-1.2286685 1.7639028 2.317944
-1.162825 1.75254 2.3044801
-2.11601 1.83805 2.34986
-2.07935 1.843035 2.34218
-2.031425 1.8365051 2.3396175
-1.972355 1.8302751 2.3343899
-1.9212971 1.82339 2.3228643
-1.8754511 1.8244075 2.3233776
-1.826876 1.8221173 2.3285027
-1.7744951 1.8192813 2.32055
-1.7240299 1.816098 2.3182018
-1.6775912 1.8156288 2.3174736
-1.6327521 1.810364 2.3213639
-1.580258 1.8126961 2.310864
-1.5299667 1.8097767 2.3085268
-1.4736121 1.8109519 2.3068559
-1.4248099 1.80494 2.3069401
-2.35254 1.8966 2.3443799
-2.322 1.8853 2.34444
-2.27665 1.8928367 2.3338034
-2.2224066 1.8857065 2.3296731
-2.1845701 1.8811979 2.330322
-2.1380551 1.86068 2.316855
-2.4241898 1.9125633 2.3333333
-2.3825734 1.9198567 2.3188734
-2.3316233 1.9222432 2.32024
-2.2876799 1.92073 2.30568
-2.2332799 1.90231 2.31071
-1.774755 -1.7067549 2.3963699
-1.873435 -1.659405 2.3815551
-1.8311067 -1.6736349 2.3890083
-1.7983 -1.69973 2.3885701
-1.9745034 -1.6104684 2.3662837
-1.9265633 -1.6239367 2.3786602
-1.886494 -1.6398361 2.3892722
1.4274874 -1.6148374 2.3792577
-2.0693519 -1.559706 2.3603199
-2.0208972 -1.5717472 2.3769495
-1.9764881 -1.588884 2.3903542
1.4363887 -1.5777799 2.3748989
-2.1639099 -1.5010099 2.3554299
-2.1111686 -1.5161114 2.3750432
-2.0790555 -1.5315857 2.3815744
-2.03391 -1.53792 2.393445
1.43968 -1.53901 2.368835
1.4546239 -1.5182421 2.3740418
2.390245 -1.5137451 2.3896699
-2.2063665 -1.4632901 2.3565333
-2.1722412 -1.4719726 2.3762789
-2.1360915 -1.4883751 2.3810999
1.4715719 -1.477926 2.3743498
2.3989 -1.49756 2.3917301
2.4132061 -1.4724181 2.3741901
-2.30019 -1.40809 2.3575301
-2.2709601 -1.4183917 2.3728132
-2.2272458 -1.4301469 2.3782229
-2.1872532 -1.4415699 2.3932703
1.4877625 -1.4406174 2.3805799
1.5064167 -1.42037 2.3645232
2.4365556 -1.4248199 2.3720956
-2.3657737 -1.364772 2.3648121
-2.3247302 -1.3754619 2.3775947
-2.2782025 -1.391585 2.3911076
1.5244689 -1.3761911 2.376338
2.4449749 -1.39221 2.3810148
2.458734 -1.3701179 2.371016
-2.458395 -1.3026 2.3622499
-2.4206114 -1.3184338 2.3690486
-2.374825 -1.329155 2.3867326
-2.3343301 -1.3393101 2.3984799
1.5401514 -1.3243886 2.3729873
1.55563 -1.30858 2.3552101
2.4793432 -1.32458 2.3752415
-2.5559299 -1.25072 2.35495
-2.5192935 -1.2674934 2.3587933
-2.4770925 -1.2768362 2.3749149
-2.4289751 -1.28778 2.39518
1.54708 -1.29217 2.3812151
1.569719 -1.2729269 2.3705173
1.624202 -1.265188 2.3582902
1.6679701 -1.2733833 2.37199
2.49352 -1.2867266 2.38098
2.5048335 -1.26232 2.3717034
-2.6149101 -1.2105401 2.357445
-2.5689929 -1.2198187 2.3724573
-2.5238998 -1.2380158 2.3812714
-2.48527 -1.2475801 2.39959
1.5868565 -1.2396735 2.38749
1.6267182 -1.2324979 2.383954
2.5230443 -1.2224443 2.3749688
-2.6698718 -1.159174 2.3634899
-2.625315 -1.1764612 2.3736863
-2.5834599 -1.1878667 2.3885934
2.5387001 -1.177265 2.3745115
2.55475 -1.1568201 2.3628299
-2.7222958 -1.1259743 2.3698616
-2.6788566 -1.1352834 2.38587
-2.61731 -1.14955 2.3980899
2.5655999 -1.1278416 2.3804367
-2.7782369 -1.077273 2.3712699
-2.7310035 -1.0933533 2.3920202
2.5803883 -1.0758533 2.3731081
-2.8169761 -1.0140619 2.367568
-2.7867501 -1.03862 2.3933799
2.5897782 -1.0241866 2.3696983
-2.90505 -0.95800197 2.3724999
-2.8726919 -0.97931623 2.3741899
-2.8375132 -0.98687667 2.3858535
2.59132 -0.99544501 2.39657
2.6076334 -0.97598481 2.3731866
-2.97416 -0.90944803 2.38481
-2.9275351 -0.93704247 2.3836401
-2.8894601 -0.93290102 2.3990099
2.6304142 -0.92588407 2.374696
2.6455867 -0.88645768 2.3827267
2.6577539 -0.87383604 2.371892
-2.9954901 -0.84191799 2.39165
2.6695058 -0.82706553 2.3765113
2.6891561 -0.77745479 2.3800159
2.70502 -0.7584005 2.3635449
2.7132018 -0.71907729 2.3759067
2.7309101 -0.67425096 2.3776002
2.7508399 -0.65542501 2.36988
2.74559 -0.64167398 2.39834
2.7588949 -0.622585 2.3690834
2.7740917 -0.57427186 2.3723583
2.7875853 -0.52649599 2.3831732
2.8068199 -0.50900298 2.3578501
2.8081861 -0.48077816 2.375886
2.8308759 -0.43225259 2.372822
2.8459601 -0.3888005 2.37974
2.8554749 -0.37594327 2.3666451
2.8747761 -0.3292262 2.3870442
2.9171965 -0.22509515 2.3748817
2.9389849 -0.17538817 2.3701632
2.9511099 -0.150464 2.3657701
2.97947 -0.1143358 2.3773701
2.9884601 -0.075625874 2.38273
3.0083201 -0.050395399 2.3830099
2.99998 -0.0163128 2.3768301
3.0244699 0.017748848 2.3961749
2.2105 1.1983149 2.3947799
2.2979801 1.1998301 2.3947699
2.3339949 1.19028 2.395505
2.37323 1.1979899 2.39272
2.4223475 1.1863476 2.3922024
2.4818101 1.1900166 2.3856032
2.525995 1.1844674 2.3845224
2.5720351 1.1842 2.3795075
2.6197577 1.1844575 2.37447
2.6762776 1.18181 2.3864851
2.7330267 1.1801567 2.3908398
2.7776551 1.1866801 2.38831
2.8035049 1.19031 2.3775401
2.8691332 1.1855401 2.38501
2.91343 1.179565 2.3810849
1.7247701 1.2468851 2.3983951
1.7946 1.24553 2.3990901
1.81393 1.24871 2.3961101
1.8772376 1.2405025 2.3932426
1.9224679 1.238984 2.3869181
1.9784368 1.2355 2.3835051
2.0228302 1.235574 2.381474
2.0773139 1.2354788 2.3793249
2.1261072 1.2293389 2.3733151
2.1752546 1.2249302 2.3748066
2.2250159 1.2236173 2.369503
2.2742136 1.22278 2.3716183
2.3218267 1.2155383 2.37061
2.374166 1.2126061 2.368984
2.4200058 1.214762 2.36552
2.4741974 1.2118974 2.3627875
2.5219066 1.2097234 2.3591199
2.5877697 1.2117933 2.3556366
2.6679068 1.2061033 2.3560667
2.7743199 1.2107468 2.37356
2.8292699 1.20243 2.3611701
2.90535 1.20235 2.3603799
1.4298401 1.2982033 2.3929033
1.47653 1.294915 2.3912776
1.52964 1.2916181 2.3900018
1.5744867 1.2842968 2.3849101
1.6265249 1.282835 2.3819931
1.6731445 1.2785745 2.3789797
1.7263501 1.2809039 2.376019
1.776337 1.272738 2.373693
1.8269825 1.2700013 2.3707299
1.8735751 1.2668988 2.3680387
1.92672 1.262622 2.363812
1.9680467 1.2588133 2.3584032
2.0162601 1.25617 2.3602052
2.0694702 1.2580299 2.3549597
0.98578453 1.3473849 2.3989649
1.00714 1.3491499 2.3950901
1.078074 1.3414999 2.3938918
1.12688 1.3391157 2.3877029
1.172585 1.3366417 2.3915067
1.2229289 1.3368611 2.3845899
1.278476 1.330304 2.386111
1.3297231 1.3269931 2.380887
1.3766427 1.3228509 2.3744445
1.423148 1.3238419 2.3705239
1.4743867 1.3189822 2.3668532
1.5272838 1.3166813 2.3667526
1.5753915 1.3121344 2.3614743
1.620785 1.3084049 2.3565249
1.67765 1.30514 2.3580399
1.7043 1.3090301 2.3522899
0.733751 1.3919233 2.3914766
0.77354193 1.3887614 2.3896272
0.82790077 1.3887562 2.3853164
0.87345678 1.384166 2.3817351
0.92775208 1.3790976 2.3808792
0.97542959 1.3753859 2.3761997
1.0232251 1.3762116 2.3711123
1.0732157 1.3710001 2.3695965
1.119435 1.3692262 2.3642435
1.1735127 1.3645173 2.3656142
1.229305 1.3617268 2.3619349
1.272778 1.3570302 2.359854
1.3134201 1.355405 2.3520751
1.36392 1.3509901 2.3551199
0.32123727 1.4458026 2.3974099
0.37304801 1.446425 2.3920498
0.42481425 1.4403187 2.3885076
0.47895163 1.4371318 2.386029
0.52760816 1.4382782 2.3792963
0.57197767 1.4312185 2.3796101
0.62236744 1.4230288 2.3795526
0.6774013 1.4226855 2.3744855
0.72491872 1.4218051 2.3697743
0.77341431 1.4165751 2.3652775
0.8224166 1.4139709 2.362797
0.87032986 1.411926 2.356842
0.9229815 1.4061217 2.3571749
0.96538401 1.4035549 2.3538051
0.027256798 1.4925913 2.3941715
0.07606779 1.4904749 2.391644
0.12754539 1.4889762 2.3872011
0.18075319 1.4828572 2.3854799
0.23087575 1.4787908 2.3818209
0.27355579 1.4734124 2.3818572
0.32044366 1.473955 2.3745055
0.37016657 1.4714864 2.3702099
0.42349899 1.4677166 2.3643134
0.47532576 1.4622937 2.3609238
0.5238288 1.460714 2.3580139
0.5733673 1.4593433 2.3516133
0.62099373 1.4520875 2.3576748
0.65466601 1.45486 2.3547699
-0.37482736 1.5478067 2.3929331
-0.32821101 1.5442226 2.3927126
-0.2711032 1.5417719 2.3890338
-0.22213161 1.54062 2.3830037
-0.17168945 1.53064 2.386682
-0.12613279 1.5344193 2.3776956
-0.077333651 1.5282196 2.3780565
-0.027035993 1.5222139 2.3753822
0.024516523 1.5257107 2.3671739
0.075909622 1.5177833 2.3671365
0.12726234 1.5167398 2.3634603
0.17854963 1.5095176 2.3626287
0.22574 1.5033381 2.3574319
0.26810348 1.500985 2.3552949
0.30076799 1.50393 2.35656
-0.76559299 1.59799 2.3982699
-0.70723301 1.58834 2.3971701
-0.67420387 1.5886672 2.3929372
-0.62308502 1.5852189 2.3894413
-0.57222474 1.5815735 2.3868301
-0.52255797 1.5803528 2.3838911
-0.47577938 1.5765425 2.3819902
-0.42117852 1.5731378 2.3772645
-0.37560073 1.5750607 2.3665776
-0.32906842 1.5697099 2.3697102
-0.27622408 1.5636418 2.3710208
-0.22141525 1.5621175 2.3621838
-0.17561449 1.5580066 2.3589134
-0.1339906 1.5588 2.3541741
-0.097759597 1.55972 2.3515999
-1.05539 1.6497101 2.3945601
-1.01886 1.6448325 2.3913825
-0.97455615 1.6394399 2.38656
-0.92795682 1.6357466 2.3833666
-0.87716198 1.6348699 2.3824878
-0.82356894 1.6281279 2.3786387
-0.77677906 1.6252629 2.3742986
-0.72542632 1.6221402 2.3713725
-0.67620367 1.6190368 2.3668878
-0.62840915 1.6128901 2.3654037
-0.57279545 1.6077715 2.3594716
-0.53038281 1.6089599 2.359004
-0.47372574 1.6029201 2.3540249
-0.44013199 1.6001101 2.3550401
-1.3244267 1.6945633 2.3971798
-1.2697884 1.6867833 2.3904135
-1.21833 1.683995 2.3864574
-1.1761256 1.686397 2.3838086
-1.1249045 1.6773446 2.3780529
-1.0738969 1.6733 2.3718946
-1.0246866 1.6728132 2.3712168
-0.97188097 1.6642386 2.3636343
-0.92097074 1.66048 2.3580251
-0.88321322 1.659804 2.3582599
-0.83494431 1.6560367 2.3548234
-1.75449 1.7491 2.39165
-1.724445 1.741865 2.3941851
-1.6776861 1.7388121 2.391068
-1.6277039 1.739392 2.3816662
-1.5731755 1.7315533 2.38077
-1.5208436 1.7337275 2.3797925
-1.4733543 1.7307221 2.3737779
-1.426831 1.7282819 2.3762155
-1.3741407 1.7244726 2.3768151
-1.3208922 1.7206988 2.3736033
-1.2699801 1.7209746 2.366792
-1.2212399 1.7131133 2.3631935
-1.1816025 1.70962 2.360095
-1.14095 1.7051799 2.3608298
-2.1080201 1.79626 2.39657
-2.07145 1.793555 2.393115
-2.0253601 1.78917 2.392055
-1.9739766 1.7950767 2.38097
-1.9235983 1.7850701 2.3845685
-1.8713729 1.7795372 2.3789716
-1.8243675 1.7727963 2.3790638
-1.7808461 1.7756325 2.3709087
-1.7267361 1.7717301 2.3671269
-1.67782 1.76319 2.3665676
-1.632395 1.7621325 2.3613651
-1.5632951 1.7583975 2.3545625
-1.5230601 1.761585 2.3541651
-1.49714 1.75713 2.35905
-1.4321251 1.7553451 2.3529351
-2.4108601 1.84832 2.38551
-2.3576801 1.8330899 2.3928199
-2.320715 1.84049 2.3896098
-2.2652798 1.839215 2.38096
-2.2179902 1.830595 2.3807232
-2.169642 1.825976 2.3835678
-2.1248314 1.8267034 2.37025
-2.0752981 1.817432 2.3681462
-2.0217285 1.8129467 2.3668997
-1.9769667 1.81425 2.3634198
-1.9299049 1.80738 2.3651299
-1.8617599 1.802565 2.3569951
-1.80978 1.80485 2.35305
-2.54302 1.87938 2.39675
-2.4688401 1.87321 2.3952401
-2.42699 1.87132 2.374485
-2.3738775 1.8688724 2.3753648
-2.3145461 1.867136 2.3677742
-2.2709126 1.87718 2.3668475
-2.21454 1.8575251 2.3659949
-2.1786399 1.86427 2.3611801
-2.5123 1.90415 2.3751199
-2.47017 1.9023 2.3554299
-2.41435 1.9022599 2.35426
-2.24279 1.90771 2.3611
-1.53097 -1.81336 2.44397
-1.6574301 -1.7574199 2.4245601
-1.6220624 -1.76002 2.4383724
-1.5864151 -1.77766 2.44292
-1.54748 -1.79957 2.44735
-1.7528 -1.707635 2.41028
-1.7204238 -1.7134175 2.4248559
-1.6763812 -1.7304888 2.4338462
-1.64393 -1.74388 2.4433899
-1.813542 -1.6683819 2.410748
-1.7720741 -1.676034 2.425936
-1.7353433 -1.6821966 2.4402733
1.395715 -1.660605 2.44541
1.40777 -1.66468 2.42944
-1.91196 -1.6043401 2.40466
-1.8687712 -1.6203144 2.4188466
-1.8305135 -1.6332022 2.4366479
-1.7914 -1.64584 2.4404399
1.4137614 -1.6252486 2.4238544
2.3278999 -1.6158201 2.44771
-1.9750271 -1.562583 2.4124486
-1.929122 -1.5767339 2.425832
-1.88937 -1.5883332 2.4386168
1.4317466 -1.5695466 2.4276466
2.34325 -1.59824 2.4423201
2.3636475 -1.5632776 2.4258099
-2.0659001 -1.5132 2.40362
-2.0228877 -1.5210834 2.4196932
-1.9757999 -1.5309914 2.4384243
1.4431549 -1.5272235 2.4290984
1.4540401 -1.50395 2.41926
2.3771667 -1.5231034 2.42594
-2.1180868 -1.4684983 2.4130032
-2.0738046 -1.4807937 2.4271591
-2.0314233 -1.49356 2.4380801
1.4654083 -1.4744349 2.4268682
2.3917801 -1.4850134 2.4348133
2.4029374 -1.4656177 2.4211376
-2.2080567 -1.4113866 2.4135432
-2.1706913 -1.42284 2.4239523
-2.1311586 -1.4363586 2.435147
-2.09653 -1.44534 2.4466
1.4851972 -1.4237055 2.4289818
2.419843 -1.4264842 2.4232571
-2.2760379 -1.3644243 2.4180145
-2.2259932 -1.379019 2.4301667
-2.1919949 -1.3854101 2.4452748
1.5136244 -1.3734277 2.42465
2.44136 -1.3765017 2.4229801
2.4569199 -1.35431 2.4296501
-2.37818 -1.305995 2.4039149
-2.3224585 -1.3209928 2.4220054
-2.2857149 -1.3346574 2.4322276
1.5336399 -1.3274672 2.4250343
2.4662628 -1.3257599 2.4247301
-2.4655099 -1.26193 2.4019899
-2.42292 -1.2692028 2.4148786
-2.3739173 -1.2809376 2.4278603
-2.33792 -1.297725 2.435065
1.54252 -1.2920849 2.4253149
1.5586128 -1.2676257 2.4243572
1.6807899 -1.2544399 2.40295
2.4844944 -1.2771186 2.4244943
-2.5241425 -1.2140601 2.410315
-2.4722688 -1.2232009 2.4270062
-2.4294333 -1.2410001 2.4391868
1.58055 -1.2220453 2.424978
1.61138 -1.20622 2.4014399
1.66851 -1.2189201 2.4190767
2.4948201 -1.24933 2.41995
2.5119541 -1.2226042 2.4225631
-2.5746498 -1.1682837 2.417855
-2.5299416 -1.1798543 2.435653
1.58988 -1.1901951 2.43683
1.624631 -1.1813645 2.4324262
1.6667299 -1.189955 2.4393251
2.5303259 -1.1716141 2.4263299
-2.70012 -1.11421 2.4050901
-2.674135 -1.1185551 2.407505
-2.6293044 -1.1257269 2.4221129
-2.573 -1.1405666 2.4447067
2.54093 -1.1447001 2.4322701
2.5556951 -1.1192232 2.4259682
-2.76122 -1.05516 2.4094551
-2.7175825 -1.0711737 2.4181113
-2.6739402 -1.0829221 2.4315019
-2.6461201 -1.09565 2.4470699
2.5714488 -1.07372 2.4252331
-2.7771926 -1.0230738 2.4240236
-2.7294466 -1.03225 2.4414699
2.5863438 -1.031994 2.4230342
-2.82181 -0.969428 2.4183426
-2.7868252 -0.98575449 2.44136
2.5936525 -0.97647125 2.428395
2.60904 -0.96534729 2.4247
-2.9612701 -0.91069001 2.4066601
-2.9178934 -0.91741568 2.4193268
-2.874032 -0.92754567 2.4242883
-2.8429067 -0.94361967 2.4360068
2.6242266 -0.92060351 2.4281199
-3.01899 -0.87700748 2.4184899
-2.9828568 -0.86941266 2.4278166
-2.933578 -0.87851077 2.4367199
2.6396499 -0.87549144 2.4332643
2.6577001 -0.85407698 2.4143701
-3.0193102 -0.82490575 2.43454
-2.9842331 -0.84097236 2.4373
2.6602116 -0.82117182 2.4206717
2.6792159 -0.77338356 2.4262385
2.6930301 -0.73373103 2.4341075
2.7060001 -0.71278334 2.4160566
2.7225564 -0.6764555 2.4247782
2.7400041 -0.63104939 2.4255643
2.7509 -0.60992903 2.40977
2.7472799 -0.59626102 2.43925
2.7615268 -0.57581848 2.4210382
2.76967 -0.53242981 2.4232521
2.7913139 -0.48419818 2.4266901
2.8081 -0.4640235 2.41166
2.79743 -0.44975299 2.44942
2.8248377 -0.42648211 2.4242902
2.838728 -0.379356 2.417048
2.8532801 -0.35137397 2.43609
2.8676767 -0.31755 2.4218681
2.8821549 -0.27247775 2.4310374
2.90449 -0.28519899 2.41061
2.8880649 -0.22637349 2.4322848
2.9153452 -0.20129001 2.41116
2.9281719 -0.16834401 2.4238584
2.9390199 -0.13506201 2.4345951
2.956162 -0.114623 2.4154339
2.972538 -0.067547329 2.4334266
3.0011699 -0.0505617 2.40962
2.99595 -0.033617601 2.43748
3.0150375 -0.025057625 2.4208825
1.65457 0.041149601 2.4495399
3.0317423 0.017910263 2.4263749
1.5789584 0.07394404 2.4456983
3.0393298 0.058221534 2.4292333
3.0564966 0.081540935 2.4313967
3.0595 0.121808 2.4213133
3.0874848 0.16662151 2.44119
2.2253799 1.14793 2.44926
2.29757 1.14455 2.44695
2.3336201 1.142485 2.444705
2.3880632 1.1385466 2.4434602
2.4290833 1.1397367 2.4387867
2.48123 1.142085 2.4296551
2.5231102 1.1414801 2.4403467
2.5787299 1.1404467 2.4386966
2.6344099 1.1402099 2.44034
2.6612501 1.13609 2.4380851
2.7242899 1.13299 2.4344499
2.7722399 1.14046 2.43664
2.8211751 1.14118 2.4347901
2.8796 1.13664 2.4428101
2.9329457 1.13232 2.4388757
1.7925 1.19549 2.4497499
1.8292624 1.1927475 2.4440651
1.88333 1.1895267 2.44292
1.91791 1.1914375 2.43537
1.971655 1.1861717 2.4367433
2.0264699 1.1906321 2.4307179
2.0702765 1.1808101 2.4355485
2.1246777 1.1742723 2.4330814
2.1782064 1.17444 2.4251411
2.2181983 1.1713099 2.4152184
2.2697759 1.1726546 2.422539
2.320555 1.16776 2.4191802
2.3746583 1.1707634 2.4206667
2.4273124 1.1644975 2.4222124
2.474544 1.168988 2.4151218
2.5239902 1.1629 2.4066901
2.573065 1.16159 2.4137101
2.6266968 1.1578532 2.4198732
2.6828651 1.16327 2.4178801
2.7173967 1.1583067 2.4173832
2.7791932 1.1584767 2.4135633
2.8234501 1.1643701 2.4098101
2.8851268 1.16315 2.4121101
2.9363999 1.1625299 2.4131701
1.39404 1.24809 2.4492099
1.41936 1.2450733 2.4430969
1.4815301 1.2420399 2.4426849
1.5288717 1.2405235 2.4392183
1.5802283 1.237775 2.4335434
1.6295338 1.2362738 2.4302115
1.6715168 1.22675 2.4291739
1.7276326 1.2251046 2.4292331
1.7745488 1.2249788 2.4245462
1.8249819 1.222841 2.421453
1.8738556 1.2176372 2.4150984
1.92504 1.211692 2.415118
1.9723101 1.2174799 2.4121199
2.0293448 1.2099699 2.4061375
2.0844598 1.210705 2.4114051
2.1184676 1.20544 2.412415
1.03889 1.297195 2.44625
1.075495 1.293775 2.4431977
1.12542 1.2903249 2.443635
1.1768165 1.2870463 2.43999
1.2298213 1.2792749 2.4362786
1.275719 1.2789046 2.4341016
1.3215082 1.2805091 2.4278383
1.3734254 1.2765045 2.4233618
1.4234973 1.2725044 2.4175763
1.4715466 1.2682378 2.4200277
1.5232663 1.2689713 2.415885
1.57368 1.2610565 2.4111032
1.6164501 1.2594349 2.4049449
1.67406 1.25606 2.4075849
1.70029 1.25939 2.4012799
1.76056 1.25685 2.4044099
0.67665368 1.3435234 2.4481065
0.72864854 1.3444 2.4435761
0.77870822 1.3424438 2.4363186
0.82213789 1.3342587 2.4363413
0.87658674 1.3305467 2.4333615
0.92657989 1.3287457 2.4307373
0.97359884 1.3245394 2.4273713
1.0247461 1.3224252 2.4221959
1.07489 1.31975 2.4178345
1.124279 1.3128179 2.419858
1.1776917 1.31531 2.41465
1.2214786 1.3097414 2.4126155
1.2656701 1.3080649 2.4068398
1.31703 1.3043449 2.4033749
1.36597 1.30459 2.4001601
0.29069999 1.39038 2.4479599
0.34345999 1.39353 2.4477701
0.37595776 1.3932625 2.4432049
0.431043 1.3883715 2.4393499
0.47839913 1.3843689 2.4350123
0.52214903 1.38217 2.4327619
0.57313102 1.3780906 2.4278808
0.62674868 1.3744929 2.4252601
0.67320192 1.3737855 2.4228661
0.71970546 1.3711635 2.4192212
0.77277434 1.3668659 2.412415
0.82649982 1.3634924 2.4122636
0.87364918 1.3590901 2.4096775
0.91953498 1.3598601 2.4049325
-0.014517359 1.4456949 2.4443951
0.024520855 1.4450525 2.4430425
0.076493636 1.4371613 2.4427311
0.128373 1.4356124 2.438091
0.1800987 1.4337271 2.4319866
0.22522815 1.4319416 2.4256735
0.27165493 1.4271237 2.4245245
0.32261261 1.4199512 2.4241443
0.37448612 1.4199042 2.4177012
0.42661867 1.4143143 2.4150393
0.47678483 1.4112045 2.4113131
0.52544647 1.4118084 2.4087284
0.57154405 1.4066551 2.4053926
0.67231899 1.4 2.4012899
-0.41899934 1.49897 2.4491067
-0.37138999 1.4939799 2.4468675
-0.32433033 1.49016 2.4458201
-0.27239189 1.4886763 2.4412065
-0.22594446 1.4824326 2.4390655
-0.16992283 1.4799747 2.431119
-0.12527306 1.480415 2.4297903
-0.079453871 1.476697 2.4250593
-0.027360551 1.4731207 2.4198923
0.023025464 1.4680469 2.4209929
0.07626719 1.4637758 2.4171116
0.1279531 1.4623684 2.4127524
0.17953967 1.4608849 2.4073601
0.21810301 1.45948 2.4022851
-0.71890551 1.54479 2.4405551
-0.67199641 1.5422621 2.4411178
-0.6255042 1.5381483 2.4353766
-0.57428867 1.5371381 2.4319079
-0.52536279 1.5301391 2.4345093
-0.47595423 1.5329258 2.4250636
-0.42545849 1.5256101 2.4248412
-0.37282375 1.5197849 2.4221451
-0.32669494 1.5189499 2.4180665
-0.27781567 1.5176669 2.4151392
-0.22322857 1.5149142 2.4108527
-0.17044523 1.50978 2.4059625
-0.12469167 1.5070467 2.4037168
-0.09211465 1.5052249 2.401895
-1.02205 1.59585 2.4405599
-0.97264725 1.5899413 2.4387102
-0.91688329 1.5844686 2.4323273
-0.874125 1.582309 2.43259
-0.82730174 1.5784625 2.4241483
-0.77479374 1.573223 2.4249961
-0.7268998 1.57209 2.4196632
-0.675883 1.5633537 2.4194818
-0.62364167 1.5605568 2.4143317
-0.57856119 1.5584121 2.4112439
-0.52548665 1.5538999 2.4080567
-0.49848101 1.55246 2.4103799
-1.41993 1.64899 2.4445901
-1.36693 1.6382101 2.4484501
-1.3248451 1.64587 2.4461799
-1.271655 1.6407474 2.4422851
-1.2265875 1.6353201 2.4299724
-1.1754581 1.6340361 2.425616
-1.123152 1.6297461 2.424998
-1.0759751 1.6245624 2.4235828
-1.028753 1.618511 2.4202311
-0.98166382 1.6191 2.4150898
-0.92769271 1.6085156 2.4123499
-0.87134415 1.6117749 2.4065351
-0.78141201 1.60271 2.4018199
-1.76512 1.69769 2.4391899
-1.7195001 1.6906276 2.440145
-1.673645 1.6829274 2.4397125
-1.6254884 1.6875501 2.4359915
-1.5715917 1.6831549 2.4363034
-1.5275478 1.6822178 2.4319766
-1.4726131 1.676576 2.4287198
-1.4278766 1.6750088 2.4263213
-1.3762641 1.672969 2.4209239
-1.3276334 1.6694956 2.4190435
-1.2776058 1.6623328 2.4180672
-1.2233175 1.6639549 2.4112399
-1.1708933 1.6610767 2.4026067
-1.129395 1.6521499 2.40325
-2.06194 1.7424951 2.4407001
-2.0197001 1.7417901 2.443835
-1.9720826 1.72805 2.4435725
-1.9303625 1.7349875 2.4412575
-1.8814434 1.7269316 2.4328682
-1.8264918 1.7206063 2.4259863
-1.7766913 1.7267724 2.4174876
-1.7295856 1.7194988 2.42417
-1.6720967 1.7144217 2.4134817
-1.6241699 1.711874 2.41254
-1.5798401 1.7087733 2.40734
-1.5281851 1.708185 2.4049776
-1.48619 1.70207 2.4052899
-1.4235749 1.70373 2.402905
-2.4287801 1.79339 2.44418
-2.3178799 1.7942801 2.4302101
-2.281512 1.7873681 2.4308341
-2.2215977 1.783855 2.4273
-2.173924 1.782902 2.421118
-2.1345332 1.7791301 2.4298184
-2.0841999 1.7720652 2.4252284
-2.0343068 1.7648133 2.4198215
-1.9783587 1.7665566 2.4158456
-1.922045 1.7591976 2.4140575
-1.877485 1.7548 2.4111452
-2.6958101 1.81953 2.4435101
-2.5730097 1.8301333 2.4322798
-2.5313666 1.83841 2.4351432
-2.4694018 1.8265101 2.4297299
-2.4168425 1.8207926 2.4298849
-2.3784266 1.8221701 2.4171398
-2.331898 1.8176081 2.4157619
-2.2774999 1.8240149 2.40821
-2.237565 1.8117549 2.409385
-2.1815901 1.8009599 2.40172
-2.14358 1.81275 2.4080501
-2.64571 1.86288 2.4284999
-2.58338 1.854835 2.409415
-2.5183799 1.85639 2.4184201
-2.473865 1.859715 2.4116101
-1.3742924 -1.86185 2.4848199
-1.3336034 -1.8799567 2.4949033
-1.5163399 -1.8089 2.4550102
-1.4645983 -1.8151898 2.4725933
-1.42642 -1.8281357 2.4830072
-1.3890433 -1.8386701 2.4942665
-1.5697913 -1.766885 2.4634676
-1.52223 -1.7800174 2.4769528
-1.479635 -1.7925476 2.4851325
-1.6732174 -1.7042475 2.4559875
-1.62562 -1.7219702 2.4717748
-1.5776072 -1.7363472 2.4840443
-1.53879 -1.74561 2.4991601
1.38747 -1.70898 2.4850099
-1.7175363 -1.66987 2.4658
-1.6724143 -1.6786122 2.4839602
-1.63615 -1.69007 2.4953799
1.3912326 -1.6701124 2.4833274
-1.8153801 -1.6110474 2.4649649
-1.7761772 -1.6271272 2.4719694
-1.7293575 -1.63906 2.4854486
1.39371 -1.6362 2.4542999
1.411082 -1.6190821 2.4714122
2.2854724 -1.6309301 2.4787376
2.3164749 -1.6071025 2.4720702
-1.9165599 -1.559355 2.4604049
-1.8698611 -1.5678831 2.4701502
-1.8267272 -1.5823981 2.4812036
-1.78622 -1.5930901 2.49404
1.4239483 -1.5809517 2.4789217
2.3404734 -1.5762666 2.4734399
-1.9598666 -1.51639 2.4621134
-1.9215109 -1.5250778 2.4760857
-1.8838834 -1.5342799 2.49051
1.4425716 -1.522965 2.4835918
2.3616617 -1.5245982 2.4687233
-2.06408 -1.46025 2.4581001
-2.024091 -1.4738766 2.4655368
-1.9818456 -1.4842877 2.481488
-1.934485 -1.4979 2.4927101
1.44901 -1.4923301 2.473515
1.456816 -1.4694301 2.4666381
2.3812072 -1.4761343 2.4779258
-2.15589 -1.40622 2.45081
-2.1159117 -1.4145402 2.4662099
-2.07424 -1.425683 2.4817042
-2.0325849 -1.440365 2.4859974
1.472513 -1.4231743 2.4778085
2.3978033 -1.4369 2.47662
2.4122875 -1.41833 2.4722023
-2.2195566 -1.3529167 2.4641836
-2.1736634 -1.3702955 2.4690979
-2.1353366 -1.3834267 2.48546
-2.0927899 -1.3902 2.4977901
1.4944949 -1.3849626 2.4783726
1.5051675 -1.36329 2.4730175
2.43083 -1.3796183 2.4703665
-2.2684901 -1.31959 2.4578032
-2.2259774 -1.3256224 2.4797764
-2.1884751 -1.3293149 2.4955149
1.5253375 -1.3274786 2.4748559
2.441102 -1.337518 2.4843919
2.4575465 -1.3166467 2.468787
-2.3652098 -1.2623733 2.4565899
-2.3220859 -1.2731789 2.4713449
-2.2810516 -1.2878432 2.4813082
-2.24809 -1.29641 2.4929199
1.5414871 -1.2778558 2.4782288
1.5513999 -1.2696 2.4703901
2.4721217 -1.27833 2.4744833
-2.4233136 -1.2152288 2.4656787
-2.3737233 -1.2326845 2.4780333
-2.3340299 -1.24413 2.4974
1.545805 -1.24213 2.4891949
1.5622243 -1.2239615 2.4701157
2.4907351 -1.2350234 2.4808981
2.50789 -1.21041 2.4669199
-2.5096102 -1.169585 2.4556398
-2.4751425 -1.1738125 2.4719989
-2.434 -1.18489 2.4853201
-2.38469 -1.1940566 2.4949534
1.585109 -1.176293 2.478399
1.62975 -1.1554151 2.4551048
1.692425 -1.179045 2.48877
2.5152814 -1.1768371 2.4718571
-2.60268 -1.1160901 2.45485
-2.5712881 -1.118798 2.4684463
-2.5298276 -1.1307788 2.4801126
-2.49105 -1.147665 2.4878449
1.6192423 -1.1366856 2.4775667
1.664185 -1.1405151 2.4883499
2.5366716 -1.1280117 2.4763565
-2.66784 -1.0610834 2.4605851
-2.6222725 -1.0709826 2.4751663
-2.5875573 -1.0810425 2.4877777
2.54178 -1.09826 2.49791
2.5600486 -1.0734557 2.476413
-2.7231879 -1.014024 2.467144
-2.6838083 -1.0271734 2.4826083
-2.6499701 -1.03706 2.49999
2.5823898 -1.02205 2.4646001
-2.80598 -0.95003998 2.4705999
-2.77122 -0.97694927 2.467907
-2.7362375 -0.98283601 2.4911075
2.5902283 -0.97796232 2.4790883
-2.8605766 -0.90960902 2.4625766
-2.8183839 -0.92698497 2.470634
-2.7807834 -0.94342333 2.4884434
2.5977001 -0.9414745 2.466815
2.6136775 -0.91940629 2.474515
-2.900955 -0.87343705 2.4586201
-2.8760059 -0.87888205 2.4710221
-2.8427501 -0.87974149 2.4946451
2.6274316 -0.87793851 2.4746568
-2.9681075 -0.82573128 2.461935
-2.9315577 -0.83685374 2.4809551
2.6442633 -0.84020901 2.4764068
2.6575935 -0.81703663 2.4651468
-3.0334749 -0.77703768 2.4655399
-2.9884048 -0.79102427 2.4811475
2.6640298 -0.77947861 2.4759367
-3.0703001 -0.739461 2.4853899
-3.0360799 -0.74865901 2.4533701
2.6809814 -0.72793943 2.4780557
2.6912432 -0.69151402 2.4774067
2.7120752 -0.67247397 2.4662375
2.7261345 -0.62713504 2.477149
2.7429547 -0.58320248 2.47541
2.75475 -0.55800653 2.4683449
2.7655826 -0.52174878 2.4770036
2.7846856 -0.47308856 2.4774373
2.8115785 -0.41680929 2.4752429
2.8327017 -0.36984348 2.4762833
2.8424702 -0.32889274 2.489495
2.857265 -0.31547326 2.4660702
2.8707128 -0.26999444 2.4744487
2.8907268 -0.231654 2.4848299
2.9065001 -0.220669 2.4788799
2.9270699 -0.16971134 2.4689734
2.9381661 -0.115387 2.4685359
2.94714 -0.067972101 2.4898801
2.9563401 -0.067929819 2.4790642
1.7420599 -0.0132724 2.4933
1.8126349 -0.0134367 2.4939799
2.9840498 -0.025147226 2.4748626
1.5348001 0.034130175 2.48985
1.5755987 0.029202513 2.4835837
1.6239609 0.020899964 2.4806633
1.6733428 0.018165609 2.4774899
1.7178985 0.014344591 2.4825256
1.76609 0.00061932398 2.4993801
2.99527 0.017999515 2.484205
3.0161719 0.021461073 2.4667079
-1.0933499 0.082584903 2.4989049
1.54047 0.058426302 2.4701202
1.5685475 0.074334458 2.4681213
1.624692 0.059872478 2.4545438
3.0318639 0.066788383 2.4788718
-1.152885 0.1213955 2.4997101
-1.1222438 0.12241291 2.4940355
-1.0805089 0.1226311 2.494617
1.5917701 0.109072 2.4929399
3.0483699 0.105353 2.4784901
3.0559781 0.12617519 2.4643159
-1.1189142 0.16130087 2.4925115
-1.0880899 0.15603232 2.4951398
3.0728633 0.176053 2.4786384
3.1088099 0.194134 2.4563401
3.1077943 0.2300438 2.473012
3.1272776 0.27567473 2.4811251
3.1322167 0.31491566 2.4866965
3.1635551 0.3228595 2.487715
3.1684451 0.3681525 2.4858751
3.1829948 0.42380449 2.4892402
3.2064149 0.48131949 2.498095
3.22489 0.54789603 2.4995201
3.2413599 0.60566199 2.4992399
3.13462 1.0467 2.49792
2.3377349 1.09618 2.4981399
2.4312601 1.09667 2.49914
2.4679751 1.093785 2.4951849
2.51791 1.092885 2.48896
2.5813551 1.089045 2.49735
2.6315951 1.0958951 2.4856
2.66712 1.086615 2.4946899
2.7288101 1.09077 2.4877167
2.7737 1.08796 2.4912901
2.8114631 1.0878167 2.4852467
2.8815601 1.09176 2.49771
2.9274399 1.0989449 2.48768
2.9667101 1.08909 2.4939849
3.057565 1.07846 2.4919801
3.13168 1.06402 2.48718
1.69037 1.14236 2.49979
1.8683333 1.1410099 2.4932935
1.91933 1.14042 2.4956167
1.9768902 1.137374 2.489352
2.02859 1.1378028 2.4827843
2.0754914 1.1310142 2.4779115
2.12956 1.1276629 2.48019
2.1792474 1.1209675 2.47843
2.2255037 1.1254387 2.4695439
2.2789929 1.1194171 2.4781342
2.3250616 1.12219 2.473285
2.3737502 1.1178859 2.473906
2.4212918 1.1134101 2.47507
2.4798768 1.1162916 2.4691732
2.5314367 1.1202466 2.4680634
2.5752451 1.1145949 2.4709499
2.6255901 1.1145667 2.4671268
2.6826 1.1153532 2.474
2.7132599 1.12115 2.4660375
2.7747426 1.1107049 2.467355
2.8194599 1.1181049 2.4595652
2.8655627 1.1188774 2.4624274
2.9156151 1.1121199 2.4707551
2.96542 1.10306 2.46875
3.0044601 1.1108299 2.46562
3.0634301 1.10438 2.465555
1.44059 1.1934201 2.49681
1.4676249 1.198045 2.495945
1.52359 1.1907784 2.4850349
1.5795984 1.1863629 2.4835072
1.6257515 1.1826115 2.4811771
1.67406 1.1778378 2.4836366
1.7282822 1.173406 2.481828
1.77674 1.1768123 2.4756968
1.8248122 1.1663011 2.476872
1.8727815 1.1670086 2.4666686
1.9303485 1.1634914 2.47225
1.9737525 1.1617275 2.4656925
2.01987 1.166568 2.45648
2.07459 1.1526351 2.4524851
2.1369901 1.1501 2.45911
2.1561201 1.15197 2.4521899
0.99576098 1.24865 2.4967101
1.078045 1.2437975 2.49369
1.1261971 1.2405701 2.4897645
1.1776184 1.2344269 2.4907835
1.2254971 1.2359743 2.4833984
1.2738184 1.2331077 2.4762852
1.3274636 1.2278737 2.4779091
1.3745241 1.2248451 2.4755075
1.4234768 1.2210958 2.4739847
1.4760749 1.2185421 2.4721131
1.5232133 1.2152368 2.4624732
1.5710634 1.21322 2.4614151
1.6217859 1.210954 2.4594319
1.6693399 1.2055199 2.45468
1.71954 1.2006468 2.4593365
0.64146399 1.29994 2.49756
0.67930913 1.2959718 2.4919598
0.71940494 1.2929075 2.489995
0.77185249 1.2872438 2.4900463
0.82935166 1.2853082 2.4843109
0.87692618 1.28113 2.4819582
0.92486131 1.2793633 2.4762228
0.97457057 1.2736576 2.4740539
1.0240082 1.2729474 2.4716451
1.0743216 1.2664151 2.4699326
1.1238939 1.2689064 2.4646838
1.1703657 1.2591957 2.4675014
1.2201117 1.2583367 2.4596334
1.27953 1.26017 2.4514301
1.3291334 1.2538667 2.4533932
0.34641799 1.3404599 2.4995899
0.37567487 1.3431929 2.48807
0.43045038 1.3401699 2.4880261
0.47164798 1.3349313 2.4871502
0.52509838 1.3304725 2.4851391
0.57935596 1.3257027 2.4783242
0.62692773 1.3274184 2.471493
0.67216915 1.3214475 2.4693291
0.72714478 1.3185972 2.4667072
0.77535129 1.31505 2.4635344
0.82350087 1.3110012 2.4586098
0.87293571 1.3085899 2.4560034
0.92511898 1.3041301 2.4531868
-0.014804751 1.3928649 2.4969201
0.024562877 1.3913151 2.4938824
0.078588024 1.3861425 2.4908462
0.12975761 1.3862146 2.4861856
0.17603107 1.3815583 2.4814918
0.22052164 1.3792568 2.47826
0.27173734 1.3711557 2.4771647
0.32391274 1.3706737 2.4709404
0.37841654 1.3688926 2.4625359
0.42573252 1.3650528 2.4634221
0.47157475 1.3577237 2.4651213
0.52299809 1.3577551 2.4602513
0.57556874 1.3513801 2.4536901
-0.38113368 1.43917 2.4977901
-0.32311827 1.4406072 2.4940383
-0.27663943 1.4374872 2.4887397
-0.22356761 1.4348267 2.4830241
-0.17075343 1.4311064 2.4807932
-0.1226488 1.4242457 2.4813743
-0.07631813 1.4271494 2.4748998
-0.028169027 1.4234129 2.47346
0.024527743 1.4173237 2.4669256
0.076148078 1.4118317 2.4680965
0.12873501 1.41436 2.4586802
0.17099723 1.4103376 2.4566
0.219713 1.406215 2.4532199
0.25221801 1.40599 2.45017
-0.77779102 1.49895 2.49985
-0.71512222 1.493964 2.493576
-0.67444348 1.4898067 2.4922485
-0.62062657 1.485375 2.4865232
-0.57403296 1.4829466 2.4852211
-0.52405351 1.4816018 2.4767547
-0.47575343 1.4771709 2.4769368
-0.42799357 1.4736255 2.4777293
-0.37319082 1.4677037 2.4745977
-0.32529879 1.4678633 2.4656744
-0.28014579 1.4629636 2.4643028
-0.22487533 1.459195 2.4597034
-0.17841034 1.4552332 2.45593
-0.12568898 1.45178 2.4525301
-0.086431026 1.4509267 2.4523168
-0.047221601 1.45059 2.4524701
-1.0711633 1.54606 2.4977601
-1.0170199 1.5402035 2.4942467
-0.97753221 1.5373875 2.4882798
-0.92674595 1.5338323 2.4854712
-0.8773253 1.5293663 2.4815118
-0.82258093 1.5326462 2.4732668
-0.77599263 1.5251632 2.47474
-0.72652918 1.5205631 2.4693999
-0.67495424 1.520427 2.466265
-0.63037497 1.5136938 2.4635174
-0.57832277 1.5104825 2.4571426
-0.51968569 1.5091734 2.4507568
-0.473905 1.5050167 2.4512401
-1.48534 1.59813 2.49839
-1.368425 1.5896649 2.4981852
-1.317835 1.595665 2.4868226
-1.2696067 1.5891234 2.4857635
-1.2162662 1.5785563 2.4873791
-1.1726723 1.5763233 2.4829831
-1.1246046 1.5757682 2.4784403
-1.0748215 1.5766466 2.4692864
-1.0228724 1.5708017 2.4685457
-0.96909148 1.5621849 2.466789
-0.92479402 1.5637532 2.4634469
-0.88061523 1.5565774 2.4562149
-0.83865047 1.5525501 2.4533701
-1.8215666 1.6434301 2.4970233
-1.76837 1.645875 2.4906201
-1.72484 1.6415033 2.4916298
-1.6764084 1.6369267 2.4880049
-1.6196417 1.636075 2.4831183
-1.5753863 1.6331388 2.4819689
-1.5253212 1.6274076 2.4763889
-1.4730374 1.6259236 2.4711218
-1.4256909 1.6220783 2.4758027
-1.3732957 1.6216292 2.4724145
-1.3208638 1.6238675 2.4637761
-1.2795318 1.614732 2.4634578
-1.2315216 1.6111151 2.4616148
-1.1767919 1.607386 2.457232
-1.1299866 1.6062299 2.4529433
-2.1117301 1.6984299 2.4890001
-2.08091 1.69314 2.4962702
-2.0318301 1.6869467 2.49771
-1.973332 1.679862 2.48826
-1.9243001 1.68461 2.479435
-1.8714584 1.67916 2.4826467
-1.8246601 1.6760358 2.4703045
-1.7776054 1.6700089 2.4685533
-1.7273268 1.6674666 2.464205
-1.6749439 1.659646 2.4658401
-1.6304951 1.6660825 2.4575675
-1.5769149 1.6610425 2.4559751
-1.51397 1.65688 2.45123
-1.49691 1.6544501 2.4548199
-1.40644 1.65037 2.4533801
-2.3315301 1.743345 2.4949751
-2.2701402 1.739035 2.47879
-2.2214468 1.7346433 2.4854867
-2.1736517 1.7318283 2.4794567
-2.1201642 1.7257999 2.4680429
-2.0712516 1.7177849 2.4683783
-2.0279334 1.7164949 2.4703915
-1.9829401 1.70576 2.4672365
-1.9217067 1.71042 2.4571931
-1.88232 1.7033 2.4651501
-2.68522 1.78836 2.4921999
-2.61445 1.7881451 2.4959302
-2.57107 1.79401 2.4914899
-2.512975 1.7788949 2.4861701
-2.4719033 1.7779466 2.4763165
-2.4352036 1.7734833 2.4763134
-2.3746784 1.773213 2.4720743
-2.3270543 1.769228 2.4714618
-2.2651038 1.7666219 2.4606659
-2.2214799 1.7603076 2.4664526
-2.1656451 1.7584651 2.453475
-2.72651 1.80399 2.4965301
-2.6690149 1.8102601 2.476645
-2.6300573 1.8254449 2.46438
-2.5756133 1.81665 2.4713666
-2.5146301 1.8075349 2.4628901
-2.39342 1.8094 2.4586699
-1.12647 -1.96161 2.5472
-1.07871 -1.97361 2.5491199
-1.25833 -1.90663 2.5122399
-1.224342 -1.911968 2.5205438
-1.1802375 -1.9268476 2.5362785
-1.3207142 -1.87155 2.5124457
-1.2751855 -1.8783267 2.5274577
-1.2327139 -1.887838 2.5392241
-1.1999201 -1.89512 2.5499101
-1.42399 -1.8057899 2.5070901
-1.3730383 -1.8238573 2.5224581
-1.3243887 -1.8363675 2.5366688
-1.28405 -1.849385 2.5447102
-1.50721 -1.75976 2.5035701
-1.4758514 -1.7723314 2.5150273
-1.426419 -1.7778093 2.5336802
-1.38625 -1.79193 2.5438499
1.36598 -1.7542599 2.54091
-1.60382 -1.7036901 2.5000999
-1.5680367 -1.7138532 2.5121415
-1.5244583 -1.7259809 2.5266747
-1.482782 -1.7417761 2.5332701
-1.44997 -1.74892 2.5467701
1.3796867 -1.71936 2.5194933
-1.65293 -1.6606801 2.50579
-1.6201587 -1.6739612 2.5150476
-1.5793351 -1.6792111 2.5361638
-1.54496 -1.6908 2.5420899
1.3843319 -1.6780081 2.5304482
2.27107 -1.66895 2.52073
-1.7555701 -1.60876 2.5035501
-1.7167816 -1.6164299 2.5135899
-1.6762065 -1.6305308 2.5255182
-1.6327332 -1.6402717 2.5402267
1.3956 -1.6439199 2.54158
1.40437 -1.624058 2.521194
2.17819 -1.62094 2.5156701
2.2776849 -1.6246926 2.5253689
-1.8193625 -1.5556675 2.5081451
-1.7745656 -1.5722064 2.5229528
-1.7299671 -1.5848714 2.5364528
-1.69539 -1.5945801 2.54636
1.4199001 -1.5716871 2.5213757
2.05779 -1.5922 2.52473
2.2878873 -1.5760601 2.52788
2.3255901 -1.5711429 2.5182645
-1.8760002 -1.5186929 2.5129845
-1.8317839 -1.5280912 2.5296774
-1.79798 -1.54106 2.54055
1.4306821 -1.5236561 2.5176301
2.3413935 -1.5304683 2.5266569
2.3593166 -1.5124966 2.5183699
-1.967765 -1.4622599 2.51089
-1.9276848 -1.476754 2.5224171
-1.8792901 -1.4862217 2.5344067
-1.84957 -1.49831 2.54319
1.4429641 -1.479654 2.5347981
1.4517851 -1.466105 2.51279
2.372144 -1.47588 2.5268462
-2.05812 -1.4038301 2.50701
-2.0198412 -1.4189888 2.5168989
-1.9790244 -1.4307221 2.5350399
-1.94204 -1.44669 2.54547
1.4617412 -1.42466 2.5200987
2.390002 -1.4308001 2.5290058
2.4071851 -1.415225 2.5099549
-2.15347 -1.35116 2.50279
-2.12641 -1.362776 2.511848
-2.0755053 -1.3750111 2.522819
-2.0308299 -1.3868451 2.5399649
1.4825075 -1.3793277 2.527535
1.50255 -1.36295 2.5149701
2.414577 -1.3773129 2.5261257
-2.21523 -1.3118401 2.50684
-2.1703343 -1.3203858 2.5154898
-2.1280427 -1.33082 2.5355201
-2.0824966 -1.3442599 2.5458066
1.5110762 -1.3260363 2.5209188
2.4342818 -1.3266661 2.527616
2.4543099 -1.30469 2.51439
-2.2670314 -1.2635916 2.5091617
-2.2226064 -1.2773019 2.5271499
-2.1780167 -1.2903867 2.5394766
1.5312588 -1.2770313 2.5274076
2.44714 -1.29311 2.5438001
2.46542 -1.2726666 2.5240734
-2.35325 -1.21336 2.5013101
-2.32287 -1.2236766 2.5168834
-2.2839899 -1.2315371 2.5326245
-2.2478001 -1.24085 2.54547
1.5440099 -1.237905 2.5235448
1.5579 -1.2155025 2.5237424
2.4848549 -1.221015 2.5232451
-2.4209678 -1.1659181 2.5134518
-2.3724313 -1.1762413 2.5302687
-2.3295059 -1.193308 2.5350699
1.5688512 -1.1746438 2.5255275
1.70512 -1.16579 2.51617
2.4890101 -1.18822 2.53493
2.507628 -1.165828 2.5190959
-2.5203767 -1.1107765 2.5079367
-2.4709551 -1.1200221 2.5197892
-2.4291632 -1.1356734 2.5323951
-2.3968899 -1.14547 2.5473399
1.5876657 -1.1348529 2.5236871
1.6224285 -1.1110485 2.517467
1.6716051 -1.111575 2.5208201
2.528173 -1.1239971 2.5289197
-2.5654833 -1.0730067 2.5143251
-2.5268984 -1.0789183 2.5305483
-2.4872599 -1.087405 2.5338101
1.627538 -1.08671 2.5385699
1.6623334 -1.0834833 2.5403333
2.5442851 -1.07552 2.5325651
2.5589268 -1.0586933 2.5197401
-2.6636667 -1.0122133 2.5116334
-2.6238158 -1.0250114 2.5234601
-2.5809882 -1.0393467 2.5365968
2.5726964 -1.0219837 2.5215228
-2.7152719 -0.97581738 2.5128281
-2.6790161 -0.98033267 2.528754
-2.6458802 -0.98303449 2.541805
2.5885119 -0.97015697 2.5269899
-2.8043001 -0.90393001 2.51212
-2.7686386 -0.92282498 2.5196271
-2.7251265 -0.93787432 2.5353568
2.605484 -0.92337543 2.5273919
-2.86502 -0.85821044 2.5060649
-2.8231032 -0.87295502 2.5231333
-2.792985 -0.8629415 2.54182
2.6225643 -0.87388593 2.5233314
-2.9689901 -0.801458 2.50845
-2.9212816 -0.82016319 2.5169733
-2.8772838 -0.83128643 2.52738
-2.8375332 -0.83636403 2.5410731
2.6365733 -0.82527763 2.5291932
2.6526999 -0.81024951 2.5133801
-3.0241699 -0.75644004 2.5214052
-2.9737284 -0.76559168 2.5262802
-2.91816 -0.78946853 2.5341499
-2.8776901 -0.79529601 2.5485101
2.6461148 -0.77985847 2.54513
2.6602621 -0.76537478 2.5196579
-3.1028199 -0.71164799 2.5200901
-3.0679426 -0.72090751 2.519995
-3.0252335 -0.73390365 2.5327034
-2.9943399 -0.72910404 2.5478899
2.6741939 -0.719607 2.5257401
-3.1113701 -0.69573998 2.5310199
-3.0957401 -0.69619203 2.54988
2.6889637 -0.68141896 2.5282567
2.7074699 -0.65945232 2.5204065
2.7104847 -0.62036598 2.5259669
2.7351441 -0.57105529 2.5233028
2.74561 -0.53948498 2.5387599
2.7544668 -0.52107501 2.5197165
2.7717261 -0.47516185 2.5248101
2.7923479 -0.425605 2.526608
2.8043699 -0.405586 2.5220499
2.8175297 -0.37232232 2.5228834
2.8317521 -0.32214838 2.5260041
2.8454499 -0.289545 2.5414701
2.86235 -0.26775551 2.5204124
2.8841536 -0.221807 2.5254083
2.8988099 -0.188346 2.5353899
2.9045148 -0.17095575 2.5260501
2.9248183 -0.11973283 2.5204318
1.77906 -0.056106102 2.5457499
1.821155 -0.056529701 2.547765
1.88179 -0.057067402 2.5453601
1.9153934 -0.0621957 2.5426166
2.9400651 -0.068379849 2.5299716
1.4984 -0.0129621 2.5465701
1.531716 -0.01844926 2.5372379
1.5779066 -0.019911701 2.5304868
1.62833 -0.025024613 2.5313187
1.6761299 -0.0231825 2.5262501
1.7212987 -0.029120725 2.5269387
1.7799 -0.029374575 2.5258276
1.829356 -0.036349542 2.5252419
1.8764668 -0.037657231 2.5289032
2.9700201 -0.025299551 2.5253325
1.5270063 0.01072957 2.513375
1.575995 0.00398632 2.505775
1.6707 0.00061379099 2.50193
1.78746 0.00062107301 2.5012701
2.9903018 0.01228673 2.5217998
-2.6071999 0.097594902 2.5244601
-2.5952635 0.086793303 2.5318067
-1.16234 0.090336204 2.5212801
-1.1215589 0.074341342 2.51334
-1.0724864 0.07185816 2.5147119
-1.0421999 0.079121135 2.5278139
1.5613087 0.078589998 2.5320456
1.69802 0.069971398 2.51335
3.0181582 0.070666164 2.5234702
-2.65903 0.13167401 2.5451801
-2.59604 0.113966 2.5411201
-1.168944 0.12608701 2.5148439
-1.1098 0.101861 2.5026901
-1.0589384 0.11613683 2.50721
-1.0345041 0.12091783 2.5287201
1.58277 0.1209442 2.5244162
3.0392618 0.12352683 2.5183182
-1.1690617 0.17195702 2.5215983
-1.1321719 0.1865976 2.50945
-1.0714933 0.176266 2.5137362
-1.037505 0.16119416 2.5285001
3.046555 0.16826701 2.5383401
3.0557075 0.18126974 2.5211577
-1.156 0.206889 2.53475
-1.118194 0.210288 2.5230339
-1.089245 0.20522949 2.534425
3.08922 0.23120849 2.521045
3.0932598 0.27666348 2.5370898
3.107415 0.276324 2.5157151
3.1279426 0.326922 2.5188227
3.1446199 0.360589 2.53719
3.1681082 0.38561764 2.5241549
3.1704152 0.42579377 2.5321574
3.18591 0.46289951 2.5213552
3.202085 0.4730095 2.5145299
3.2142448 0.52565873 2.5238025
3.2334926 0.57844025 2.5187602
3.2394302 0.62725997 2.5316899
3.26612 0.63799149 2.5109749
3.2648532 0.67415428 2.5270834
3.2802067 0.72835797 2.5379367
3.23895 0.97526997 2.54003
2.37712 1.04559 2.54742
2.5151649 1.049135 2.532485
2.58092 1.045545 2.5434499
2.6624501 1.04066 2.537375
2.7182434 1.0385433 2.5377934
2.7717299 1.04207 2.53789
2.8272052 1.04414 2.54425
2.8596599 1.03756 2.5288401
2.9057 1.04775 2.5373199
2.98452 1.04505 2.54582
3.0246935 1.0324399 2.5410035
3.0764251 1.030535 2.5292048
3.1218002 1.0343432 2.5183067
3.1842251 1.01371 2.5374599
1.83585 1.099195 2.54035
1.87956 1.091995 2.5456052
1.9196675 1.0899 2.5421877
1.9698124 1.085035 2.5372651
2.0270214 1.0839657 2.5326385
2.0754368 1.0795417 2.5341117
2.1227486 1.0812086 2.5289915
2.176095 1.07831 2.5295062
2.2271838 1.073895 2.5259488
2.2763236 1.0740449 2.5248816
2.3274183 1.074705 2.5246952
2.3787117 1.0751567 2.5234251
2.4272425 1.0696738 2.5274451
2.4748061 1.0695399 2.514502
2.5306599 1.0734925 2.5099649
2.5715201 1.0629367 2.5219667
2.6295066 1.0683085 2.5250266
2.6684101 1.0656834 2.5085402
2.7191348 1.0647 2.5165601
2.7735949 1.0654025 2.5154877
2.8269348 1.05825 2.5225749
2.8730798 1.071438 2.5170579
2.9275734 1.0668601 2.5175366
2.9760768 1.0698034 2.5165398
3.0236568 1.0600833 2.5175734
3.07622 1.05776 2.51846
3.10657 1.06181 2.5060599
1.429215 1.1447251 2.5470848
1.4709435 1.1444933 2.5417535
1.5302049 1.13375 2.5438831
1.5794425 1.13701 2.5381424
1.6302145 1.1309372 2.5341098
1.6706376 1.1239045 2.5326788
1.726284 1.123011 2.5316589
1.777615 1.1286409 2.524833
1.8219346 1.1259035 2.5209999
1.8766325 1.1189876 2.5187063
1.9274616 1.1123582 2.51842
1.970458 1.113276 2.514936
2.02003 1.11229 2.5111573
2.0787032 1.1082 2.5123365
2.1262999 1.11024 2.5074701
2.2560999 1.10015 2.50612
1.0283999 1.195225 2.54777
1.077865 1.1946417 2.5421436
1.1293859 1.1852801 2.5424037
1.172415 1.1881399 2.537245
1.227149 1.18981 2.5319159
1.27862 1.18213 2.5300939
1.3252585 1.17673 2.5291071
1.3767508 1.1751758 2.5253708
1.4250909 1.1704808 2.5192668
1.4795222 1.1730012 2.5159566
1.5236222 1.1656067 2.5187891
1.5706079 1.162706 2.50898
1.6184781 1.155534 2.5102379
1.67013 1.1582251 2.5092301
1.7252851 1.15095 2.5058751
0.64004803 1.24405 2.5476
0.67403573 1.2450234 2.5423965
0.72592968 1.2429601 2.5407958
0.77980614 1.2383927 2.5342145
0.82986289 1.2300349 2.5365474
0.87571508 1.2325345 2.5304964
0.92403549 1.2265207 2.5290799
0.97440082 1.2281399 2.5227945
1.0238627 1.2210214 2.5195022
1.0757843 1.2217321 2.5181923
1.1239001 1.213856 2.5162899
1.1747025 1.21103 2.5133662
1.225966 1.215134 2.5068779
1.2787976 1.20699 2.5108747
1.31677 1.2061701 2.5025601
1.37586 1.20082 2.5039799
0.28928047 1.2974 2.5468202
0.32889301 1.296945 2.5418301
0.37559852 1.2917401 2.5419667
0.42203063 1.2918525 2.5360813
0.47577801 1.2872633 2.5349972
0.52919441 1.2842678 2.5293558
0.57476771 1.2756019 2.5287313
0.62238544 1.2752787 2.5239193
0.67485976 1.2725031 2.5199752
0.72402585 1.268743 2.5169539
0.77497286 1.2657524 2.5115163
0.82292712 1.2597942 2.5130401
0.86968517 1.255444 2.508312
0.91651851 1.255995 2.50265
-0.0084301755 1.3446851 2.5436802
0.024622627 1.3419688 2.5382888
0.077449352 1.3411574 2.5356724
0.13022509 1.3367679 2.5346079
0.1736266 1.3314631 2.5314641
0.222451 1.3262349 2.5305197
0.27469274 1.3236201 2.521111
0.32625186 1.3230673 2.5179479
0.376504 1.3197799 2.5150118
0.42036968 1.3169301 2.5130048
