ply
format ascii 1.0
comment PCL generated
element vertex 1588
property float x
property float y
property float z
element camera 0
property float view_px
property float view_py
property float view_pz
property float x_axisx
property float x_axisy
property float x_axisz
property float y_axisx
property float y_axisy
property float y_axisz
property float z_axisx
property float z_axisy
property float z_axisz
property float focal
property float scalex
property float scaley
property float centerx
property float centery
property int viewportx
property int viewporty
property float k1
property float k2
end_header
2.3802152 1.2913899 2.282485
2.4167125 1.28452 2.2888551
2.4727759 1.290328 2.2850001
2.5196383 1.2812133 2.2812936
2.5643835 1.2874032 2.2724667
2.6270483 1.28444 2.2794917
2.6784525 1.2772801 2.2825224
2.7190235 1.2864767 2.2740366
2.7579501 1.28009 2.28074
1.79808 1.34299 2.29492
1.8158801 1.3381951 2.2932949
1.8823974 1.34108 2.2913675
1.9305201 1.337538 2.2844059
1.9764349 1.33559 2.2831025
2.0286529 1.3290672 2.2887943
2.0768936 1.33252 2.2769151
2.130414 1.3240521 2.2765489
2.181124 1.330008 2.2720599
2.2244487 1.3198463 2.2785552
2.2801616 1.3173517 2.2754149
2.3229449 1.3161774 2.2655272
2.3698673 1.3092101 2.2618399
2.4282568 1.3091601 2.2612801
2.4855134 1.31732 2.2580202
2.5264699 1.32214 2.2577
2.5655067 1.3149067 2.2596099
2.60883 1.30673 2.25333
1.47849 1.3957225 2.2932024
1.529415 1.3902824 2.2913675
1.5786588 1.3850255 2.2852435
1.6273557 1.3848114 2.2805388
1.6737924 1.3846189 2.2775879
1.7188699 1.3763549 2.278398
1.774052 1.3715279 2.2744608
1.8258849 1.3717114 2.2688239
1.8708333 1.3680855 2.2686579
1.9286613 1.3634014 2.2629728
1.9844068 1.3551368 2.2644134
2.0184467 1.3564533 2.2600234
2.073875 1.3542399 2.2546649
2.11657 1.35487 2.25
2.1649301 1.35112 2.2535601
1.0961699 1.44938 2.2960401
1.133245 1.440925 2.2971001
1.1775017 1.4415365 2.2904367
1.225755 1.4366838 2.2902038
1.2786062 1.4346424 2.2830751
1.3226931 1.4291481 2.28285
1.3731328 1.4287636 2.2770116
1.4225085 1.4254292 2.2730937
1.4711674 1.4196388 2.2704663
1.5175779 1.417793 2.2663288
1.56703 1.4149359 2.2626481
1.6227283 1.41187 2.2584267
1.6742201 1.40556 2.2528901
0.71573204 1.4981734 2.2978699
0.78350466 1.4912766 2.2962568
0.82424647 1.48805 2.2932117
0.87439758 1.487542 2.285414
0.92585999 1.4825581 2.2844884
0.97638053 1.4784223 2.28301
1.0263157 1.4792629 2.2762337
1.0753216 1.4734045 2.2734067
1.1211015 1.4707977 2.2719316
1.1716601 1.4714912 2.2647877
1.2285676 1.46382 2.2628601
1.2698419 1.460242 2.260978
1.3215625 1.45752 2.261405
1.358485 1.453915 2.253175
0.37470734 1.5414534 2.2983634
0.42016649 1.544575 2.2963748
0.4723523 1.5397571 2.2917399
0.52577823 1.5369949 2.2875361
0.57701957 1.5329279 2.2838149
0.62907964 1.5287793 2.2814825
0.67431068 1.5278093 2.2745013
0.7235958 1.524825 2.275902
0.7727766 1.5192617 2.2701159
0.82482064 1.5207829 2.2646015
0.87120986 1.5151113 2.2623749
0.92443848 1.5113277 2.2596767
0.97442102 1.508535 2.256125
1.02402 1.5041499 2.2525351
1.06156 1.50423 2.2534001
0.037264399 1.5924799 2.2963901
0.075423896 1.5917026 2.2942851
0.12896471 1.5850073 2.2933812
0.17696209 1.5888 2.2849667
0.22880572 1.5818934 2.2811627
0.27976143 1.5772917 2.2792189
0.32910505 1.5742954 2.2748771
0.37638322 1.5729773 2.2718279
0.42145613 1.5689222 2.2705994
0.4698666 1.5651908 2.2662823
0.51913506 1.5653061 2.2625701
0.56931978 1.5617733 2.2593699
0.62644851 1.55769 2.2582185
0.6918205 1.55211 2.2515199
-0.37634152 1.6454076 2.2971649
-0.31961423 1.642462 2.2946038
-0.271099 1.6417364 2.29075
-0.22557734 1.6381785 2.2896249
-0.17823599 1.6374828 2.2813818
-0.12736441 1.6314428 2.2833467
-0.077383786 1.6268679 2.2810864
-0.02591374 1.6245853 2.274884
0.024586046 1.6220748 2.274848
0.075308837 1.6186775 2.2688992
0.12416178 1.6146042 2.2665908
0.17222549 1.6128 2.2600133
0.2269485 1.6074749 2.2566676
0.27128932 1.6076633 2.2526667
-0.71271801 1.6916 2.2999201
-0.66613001 1.6930751 2.2927425
-0.6274066 1.690078 2.2904658
-0.57614815 1.6859355 2.2863867
-0.52270943 1.6811544 2.28245
-0.47417679 1.681659 2.2763259
-0.42718709 1.6766516 2.2761488
-0.37513655 1.6729518 2.2711406
-0.32382745 1.6691347 2.2695746
-0.26987642 1.6670732 2.2621
-0.22453777 1.6634711 2.2610457
-0.18588567 1.6607418 2.2600117
-0.12805475 1.6558799 2.2564201
-0.076996401 1.6528599 2.2539625
-1.01809 1.74825 2.29217
-0.97436696 1.740975 2.2890148
-0.9218626 1.7356389 2.2863424
-0.8699705 1.732338 2.2825933
-0.82655883 1.7274226 2.2798717
-0.77566224 1.7253505 2.2773473
-0.72477412 1.7222224 2.2726293
-0.67641544 1.7181386 2.2694125
-0.62728488 1.7136112 2.2669075
-0.57673919 1.7099962 2.2626624
-0.52609175 1.7066959 2.260118
-0.48111701 1.702415 2.2570701
-1.3195025 1.7933526 2.2958474
-1.27257 1.7933301 2.2926366
-1.2218384 1.7884749 2.2908914
-1.1720816 1.7851671 2.2820358
-1.1202017 1.7755915 2.281255
-1.0693418 1.7745099 2.2732298
-1.024164 1.769426 2.269295
-0.97826058 1.7678678 2.26759
-0.93202704 1.7648749 2.2632101
-0.87983954 1.7624328 2.2567201
-0.82366967 1.7551767 2.2513967
-0.79479402 1.75049 2.2530601
-1.96378 1.80557 2.2620599
-1.9284251 1.82391 2.280745
-1.8771367 1.8319501 2.2764232
-1.82978 1.8406351 2.2771349
-1.7703151 1.8390232 2.2780733
-1.7273365 1.8435465 2.2862535
-1.6744419 1.84074 2.2890561
-1.62125 1.8400301 2.2906301
-1.5771483 1.8364834 2.2903249
-1.5192586 1.8357099 2.2885699
-1.473542 1.830862 2.2868819
-1.4278675 1.8293364 2.2842224
-1.3772991 1.8268299 2.2792501
-1.3234231 1.824309 2.2722962
-1.270031 1.8183579 2.2707944
-1.223984 1.8145599 2.2721279
-1.1750743 1.8139229 2.2600658
-1.10974 1.8050051 2.255465
-1.08632 1.8006001 2.2578299
-1.7204866 1.8513899 2.2683034
-1.6815634 1.8565902 2.2636566
-1.6263517 1.8570551 2.2654133
-1.5722151 1.8604951 2.2654848
-1.5258526 1.85877 2.2639525
-1.477288 1.860618 2.26143
-1.4322674 1.85546 2.26353
-1.3720766 1.8558868 2.2525899
-2.3013699 1.9184999 2.2882199
-2.27949 1.93048 2.28509
-2.2239835 1.92686 2.2848082
-2.1669714 1.9282272 2.2738285
-2.2506001 1.95283 2.26158
-2.2306299 1.9660701 2.25969
-2.1121101 -1.55427 2.3373399
-2.0759101 -1.573645 2.340245
1.4607075 -1.5779876 2.345005
-2.2205901 -1.5026 2.32055
-2.1742389 -1.5183262 2.3334925
-2.1333635 -1.5357834 2.3388736
1.443705 -1.5346451 2.321965
1.460588 -1.5175099 2.3183441
-2.30211 -1.46286 2.30387
-2.2707677 -1.4667151 2.324595
-2.2330856 -1.4787843 2.3325069
-2.1989701 -1.48803 2.34583
1.4843709 -1.481993 2.3277891
1.5047801 -1.45437 2.32549
-2.40908 -1.40079 2.3083401
-2.3649275 -1.41322 2.3113799
-2.3240201 -1.4291559 2.321986
-2.2808964 -1.4395467 2.3395998
1.5142901 -1.4253576 2.3234036
2.4414001 -1.43425 2.33935
2.4540401 -1.41579 2.32991
-2.4581435 -1.3649932 2.3095233
-2.4235966 -1.3725816 2.3226268
-2.3761575 -1.3848437 2.3338923
-2.3341501 -1.3937401 2.34427
1.5332178 -1.3755878 2.3265154
2.4632289 -1.3752338 2.326859
-2.5155766 -1.3154551 2.3190815
-2.4745362 -1.3337464 2.3252802
-2.4332035 -1.3390599 2.3433332
1.54523 -1.3337851 2.3408298
1.562481 -1.3216133 2.3198879
1.628 -1.3105774 2.3088725
1.65433 -1.3055 2.33324
2.485945 -1.329695 2.3251534
2.50214 -1.305325 2.3220448
-2.6186235 -1.2605133 2.3146267
-2.5736113 -1.2698487 2.3275063
-2.5332141 -1.288058 2.33919
1.5804763 -1.2839251 2.3317564
1.6164659 -1.282212 2.329932
1.6555901 -1.2852399 2.3447852
2.5134716 -1.2717767 2.3226433
-2.6635301 -1.2172632 2.3168132
-2.6305912 -1.2274286 2.3291686
-2.5973151 -1.2306499 2.3461151
2.5342317 -1.23217 2.3252349
-2.7511899 -1.15803 2.3125501
-2.7156281 -1.16724 2.3250079
-2.6800802 -1.1881566 2.33008
2.5455067 -1.1932933 2.3271301
2.5596423 -1.1659325 2.3242252
-2.81443 -1.10367 2.33143
-2.7739899 -1.1141075 2.3369975
-2.7398136 -1.1357133 2.3321266
2.5704484 -1.1248933 2.3281701
-2.83776 -1.05592 2.3396399
-2.7878201 -1.08298 2.34659
2.58267 -1.074635 2.3284917
2.5976901 -1.04992 2.3218
2.6076465 -1.01833 2.3276451
-2.8883901 -0.97786701 2.34992
2.623323 -0.97380841 2.325433
2.6392002 -0.92812735 2.3223851
2.6565101 -0.90243602 2.30637
2.6641486 -0.87273079 2.3230088
2.6782131 -0.82438636 2.3251951
2.6935151 -0.78764904 2.344955
2.7071981 -0.77363193 2.3187239
2.7188635 -0.72954983 2.3278835
2.7406299 -0.67980784 2.3288
2.75179 -0.66404802 2.30776
2.7669737 -0.62399626 2.3227425
2.7902982 -0.57622534 2.3254499
2.80267 -0.55419999 2.3151901
2.797085 -0.53180397 2.3452301
2.8115602 -0.51872802 2.317328
2.8221233 -0.47451532 2.3311932
2.8420248 -0.42586219 2.3252165
2.8644435 -0.3774285 2.32005
2.88342 -0.32938099 2.326175
2.89429 -0.28919947 2.3399351
2.9171014 -0.27865756 2.3187959
2.9291236 -0.23199333 2.3262949
2.9347701 -0.19915099 2.3335299
2.9663749 -0.17555049 2.3443899
2.74564 1.19824 2.3494101
2.17781 1.24617 2.34847
2.2495201 1.24479 2.3472199
2.2842951 1.243125 2.3443999
2.3347301 1.245445 2.3426552
2.38589 1.239795 2.3434901
2.4228849 1.2423301 2.3225799
2.4740276 1.2359675 2.336585
2.5169852 1.23303 2.3383801
2.577635 1.2383199 2.3385375
2.6249681 1.2342961 2.32865
2.675755 1.2302999 2.3216975
2.7358027 1.2293901 2.3329248
2.7756901 1.22726 2.3201501
2.8076949 1.2272301 2.3250799
2.86151 1.22589 2.3427
1.79379 1.29278 2.3439701
1.8284801 1.2952733 2.3441734
1.8735933 1.2930467 2.3402064
1.9239725 1.2874025 2.3391299
1.9764115 1.2853843 2.3331273
2.0247948 1.2819532 2.32934
2.075871 1.2801211 2.3289471
2.1261444 1.2736021 2.3275034
2.1761572 1.2710787 2.3266699
2.22084 1.2680362 2.3242698
2.2749085 1.2717487 2.31829
2.3208959 1.2670139 2.319732
2.3739383 1.2650816 2.31845
2.4132767 1.2598699 2.3090899
2.4768848 1.2613775 2.3127999
2.51424 1.2599 2.3073001
2.5651534 1.2608232 2.3088667
2.6200399 1.2590899 2.30826
2.6612999 1.25862 2.3011601
2.7333901 1.2598799 2.3053601
1.4688375 1.344125 2.3437023
1.5290786 1.3363 2.3409984
1.5709667 1.3341783 2.337785
1.6258715 1.3374128 2.3301599
1.6762567 1.3335299 2.3310535
1.7221382 1.3297229 2.3276083
1.7734432 1.3207366 2.3223391
1.8290659 1.32046 2.3179886
1.8709099 1.3153957 2.3166511
1.9217482 1.31444 2.3128603
1.970698 1.3124239 2.3108602
2.0170798 1.30689 2.3073301
2.060235 1.30778 2.3045602
1.04522 1.3996 2.3496399
1.0733899 1.39262 2.3470666
1.1287739 1.391118 2.33986
1.177825 1.3898333 2.3383584
1.2268957 1.3855098 2.3385684
1.2722888 1.3843155 2.3374155
1.3239827 1.3825482 2.3300326
1.3761387 1.3758107 2.3272443
1.4279584 1.3737775 2.3221109
1.4805061 1.3697281 2.3191659
1.5280576 1.367725 2.3131013
1.573162 1.36114 2.315134
1.6193374 1.3614025 2.3115749
1.6696498 1.358 2.3088043
1.74845 1.36699 2.3001399
1.75817 1.354575 2.305855
0.69300699 1.44057 2.3498199
0.73423767 1.4450001 2.3469834
0.77427983 1.4402748 2.3425634
0.82160056 1.4364711 2.3404531
0.87857914 1.434401 2.3360777
0.92592335 1.4315801 2.3341153
0.97640073 1.4265574 2.3301036
1.0269541 1.4259157 2.3263884
1.0772326 1.424252 2.3200812
1.1275451 1.419917 2.3176701
1.1736861 1.4161239 2.3141751
1.2181257 1.4125916 2.3143172
1.2741399 1.4104438 2.3091512
1.3292567 1.4049101 2.30671
1.3773949 1.4053249 2.3018799
1.41091 1.40452 2.30141
0.29985499 1.49936 2.3494
0.32508567 1.4974666 2.3434801
0.36917681 1.494676 2.3442941
0.42198801 1.4921317 2.3398917
0.47367817 1.4869822 2.3414888
0.52909744 1.4829551 2.3377647
0.58100271 1.4795657 2.3353193
0.62683272 1.4795207 2.3279777
0.67238498 1.473109 2.3269534
0.72505057 1.4718838 2.3228524
0.77503943 1.471125 2.3151464
0.82568645 1.4622834 2.3185525
0.87225497 1.461627 2.3122287
0.91954374 1.4578325 2.3065999
0.97392952 1.4557025 2.3068976
1.01736 1.454705 2.3048
0.024475619 1.5419799 2.3455751
0.075835526 1.5404375 2.3487
0.12690075 1.5433301 2.337805
0.17740646 1.5369755 2.3359983
0.23086207 1.5312529 2.3331087
0.27982283 1.526458 2.3267605
0.32653606 1.528043 2.3208637
0.37103885 1.5194376 2.3223686
0.42099568 1.5187185 2.3174841
0.47289279 1.5150591 2.3157709
0.52248359 1.5118821 2.313946
0.5727852 1.5076318 2.309855
0.62300831 1.5056367 2.3048398
-0.39223999 1.591815 2.3492751
-0.31564 1.5933776 2.3406925
-0.27185497 1.5867672 2.3399129
-0.21793142 1.585989 2.337137
-0.17495221 1.5852889 2.3336365
-0.12821615 1.5810568 2.3336654
-0.07804016 1.5789635 2.3281612
-0.026667979 1.5758935 2.3243439
0.021900609 1.5723011 2.3219166
0.075634658 1.56635 2.3219149
0.1243991 1.56523 2.3139277
0.17738312 1.5616465 2.3098388
0.22457799 1.5580721 2.3087239
0.26634949 1.55374 2.3036299
-0.71626204 1.6460067 2.34232
-0.67009497 1.6425924 2.3411398
-0.6241082 1.6387377 2.338594
-0.57343143 1.6347485 2.3371699
-0.52722669 1.63261 2.3349235
-0.47089991 1.6295469 2.329258
-0.42514208 1.6260251 2.3284724
-0.37798125 1.61959 2.3254907
-0.32626632 1.6180031 2.3202586
-0.27198759 1.6141858 2.3161964
-0.22494334 1.6123412 2.3145921
-0.17787014 1.6124829 2.3060114
-0.13299839 1.6057819 2.30826
-1.06495 1.69899 2.3482399
-1.01677 1.69276 2.3452532
-0.9702118 1.687512 2.3447299
-0.92325372 1.6894168 2.336365
-0.87523973 1.6825819 2.3318858
-0.8260653 1.678118 2.3298895
-0.77486622 1.6745315 2.3249369
-0.72702485 1.6723442 2.3212624
-0.67848176 1.6711744 2.3148894
-0.62023455 1.66545 2.3129718
-0.57746017 1.6605713 2.3123014
-0.5229618 1.6570734 2.308655
-0.47501498 1.657452 2.3050821
-0.43697101 1.65455 2.3016901
-1.41998 1.74936 2.34833
-1.324275 1.743155 2.348105
-1.2838449 1.7429526 2.3410225
-1.227965 1.7402601 2.336205
-1.1772701 1.735267 2.3330073
-1.1259733 1.728374 2.3265426
-1.0774369 1.7247106 2.3237677
-1.0298183 1.7216631 2.3211658
-0.97660708 1.7153836 2.3176517
-0.92376584 1.711677 2.3099999
-0.87391108 1.7074867 2.3069067
-0.84513903 1.704 2.3102901
-0.756787 1.70103 2.3024199
-1.7144899 1.7928851 2.3466549
-1.6709449 1.786255 2.3399301
-1.6246185 1.7860801 2.3360043
-1.5772724 1.7878201 2.3383999
-1.5283779 1.7839811 2.3332112
-1.4742311 1.7842287 2.33184
-1.4236457 1.7759615 2.3298585
-1.3781381 1.7732441 2.3251977
-1.3290355 1.7688934 2.3238521
-1.2755456 1.768791 2.3150189
-1.2246083 1.7640234 2.3131049
-1.17476 1.7622615 2.3099616
-1.09086 1.75208 2.30125
-2.0621099 1.83477 2.33689
-2.0293834 1.83491 2.3310335
-1.9768798 1.8339717 2.3327479
-1.9237581 1.8307734 2.3290417
-1.872245 1.82892 2.3242567
-1.8264067 1.8216701 2.32481
-1.7781557 1.8191744 2.322881
-1.7272526 1.8171914 2.3247375
-1.6732028 1.81644 2.3136384
-1.6228001 1.814954 2.313554
-1.576884 1.8122181 2.3117821
-1.5291126 1.8114951 2.3090274
-1.4821934 1.80922 2.3086665
-1.4243574 1.804355 2.3061576
-1.3621401 1.80378 2.3015499
-2.40605 1.89572 2.3461699
-2.372555 1.8908651 2.3388748
-2.33093 1.8858299 2.3380799
-2.2745836 1.8800501 2.3388202
-2.2259059 1.8844761 2.3335299
-2.1720767 1.8785583 2.3294485
-2.14059 1.86173 2.33887
-2.0969501 1.85156 2.3477499
-2.4157367 1.916 2.3317733
-2.3637931 1.9305667 2.3092535
-2.32181 1.903505 2.311425
-2.2811735 1.90874 2.3170002
-2.2355001 1.9042 2.313
-2.1798301 1.90054 2.3029699
-1.77421 -1.706225 2.3956251
-1.8632325 -1.664395 2.3878725
-1.8265834 -1.6818767 2.3886833
-1.79836 -1.69979 2.38866
-2.0174799 -1.60899 2.3503699
-1.9686075 -1.61488 2.3673925
-1.9187574 -1.6252074 2.3838277
-1.8841025 -1.64274 2.3907573
1.43463 -1.6149832 2.3820031
1.45079 -1.60119 2.35937
-2.0645833 -1.5618067 2.35653
-2.0223675 -1.5739325 2.3751101
-1.9749559 -1.5876539 2.3885102
1.4369017 -1.5753382 2.3757882
-2.16278 -1.50023 2.3541999
-2.1217322 -1.5168213 2.3649287
-2.0798712 -1.528245 2.3802025
-2.0376301 -1.5335733 2.3956101
1.4445825 -1.5297149 2.3749425
1.4541576 -1.5142225 2.375205
2.3836267 -1.5257767 2.3922966
-2.2098601 -1.4655933 2.3602536
-2.1703489 -1.4739767 2.3767433
-2.135555 -1.48719 2.3862951
-2.0973301 -1.49784 2.3913801
1.4721278 -1.4737222 2.371362
2.4167402 -1.4752529 2.3763244
-2.3009601 -1.40856 2.35831
-2.2683642 -1.4191529 2.3743386
-2.2262824 -1.4320501 2.3796468
-2.1870365 -1.4414266 2.3930333
1.4916133 -1.4338417 2.3764799
1.5081949 -1.4149576 2.3708825
2.4336474 -1.4222598 2.3738911
-2.4047699 -1.35936 2.3525901
-2.3667533 -1.3580533 2.3584735
-2.3276982 -1.375353 2.375149
-2.28386 -1.3829379 2.391124
1.5283829 -1.3727349 2.3777709
2.4453232 -1.3854033 2.3789699
2.4566066 -1.3607234 2.3705132
-2.4721801 -1.3056599 2.3615701
-2.4214787 -1.3189037 2.3699126
-2.37538 -1.3309232 2.3802319
1.5410199 -1.3212651 2.3736575
1.55375 -1.305915 2.370285
2.474983 -1.326897 2.3776829
-2.55656 -1.25103 2.35553
-2.5281482 -1.2627161 2.3686299
-2.4748712 -1.2747055 2.3769956
-2.4323399 -1.2827634 2.3959732
1.5665017 -1.2726355 2.3765152
1.6285921 -1.2607139 2.3614261
1.68093 -1.276135 2.39363
2.4920249 -1.292815 2.3821049
2.5054717 -1.2707959 2.370996
-2.6011 -1.20789 2.3591499
-2.5695186 -1.22007 2.37293
-2.5348375 -1.2277575 2.3865499
-2.4866252 -1.244235 2.3870149
1.5867434 -1.2395934 2.3873265
1.6144983 -1.2314767 2.3793352
1.65458 -1.2384801 2.3974352
2.5200689 -1.2250463 2.3774638
-2.6752701 -1.15762 2.3634474
-2.631846 -1.178398 2.3721621
-2.5845268 -1.1883433 2.38958
2.538424 -1.1794701 2.3808722
2.5511699 -1.1633199 2.3563151
-2.7232442 -1.1263542 2.3706715
-2.6834602 -1.1297425 2.3900423
-2.6398799 -1.1358 2.3962801
2.560765 -1.1257334 2.3759484
-2.80338 -1.0554399 2.3720801
-2.7755337 -1.0799087 2.3756599
-2.7323501 -1.0938934 2.3932002
2.5824039 -1.074134 2.3790739
-2.8621473 -1.0196575 2.3599451
-2.8227849 -1.0270975 2.3684149
-2.7913401 -1.0403399 2.39732
2.5935066 -1.0256584 2.3731282
-2.9214799 -0.95214999 2.372895
-2.8679054 -0.97842002 2.3744133
-2.83477 -0.99347901 2.3917799
2.5939 -0.99643701 2.3989601
2.6084836 -0.97629982 2.373965
-2.960875 -0.90796947 2.3901949
-2.9354899 -0.93690002 2.37431
2.6306 -0.92595214 2.3748798
-2.99212 -0.87536597 2.37781
2.6442761 -0.88349056 2.3802722
2.655215 -0.861619 2.3637452
2.6689363 -0.82595956 2.3795252
2.687104 -0.77684438 2.3782001
2.7014799 -0.76555502 2.3583601
2.695955 -0.72777653 2.3928649
2.7097998 -0.72013551 2.3673768
2.7276316 -0.66952318 2.370595
2.7423975 -0.63079429 2.3825798
2.7584867 -0.61094832 2.3661268
2.770144 -0.57402945 2.3738828
2.7882981 -0.52962101 2.380254
2.8001499 -0.50779402 2.3522501
2.8077741 -0.48071441 2.3755441
2.8295383 -0.4289948 2.37516
2.8416269 -0.39649168 2.3749366
2.85569 -0.37241098 2.3749275
2.8780479 -0.32960859 2.38975
2.9219615 -0.22200043 2.3819788
2.9420269 -0.16769665 2.38884
2.958045 -0.16319576 2.362545
2.9734266 -0.11742616 2.369205
2.98208 -0.0841747 2.3934801
3.0140965 -0.067543969 2.3871734
3.0140851 -0.024896301 2.3879251
2.2825599 1.19591 2.3927999
2.3481801 1.19344 2.3958199
2.3800874 1.18941 2.3884101
2.4278278 1.186628 2.3858261
2.4728167 1.18294 2.3886766
2.5250399 1.1893133 2.3923466
2.567184 1.1813641 2.3866019
2.63047 1.1892951 2.3841674
2.6750998 1.1813 2.3854277
2.7299051 1.183825 2.383105
2.7771332 1.1868267 2.3755867
2.8291833 1.18196 2.3834002
2.8801227 1.1843925 2.3739374
2.90677 1.176865 2.3756449
1.7363 1.2499501 2.39996
1.79232 1.24395 2.39604
1.8206351 1.248235 2.390605
1.8775325 1.2407 2.3936224
1.9192033 1.2414466 2.3895833
1.97785 1.2362314 2.3884799
2.0258183 1.2319549 2.3840516
2.07623 1.2348275 2.3780849
2.1252487 1.2242374 2.3782101
2.1780858 1.2249286 2.3755372
2.2270074 1.2219937 2.374985
2.2721133 1.2216684 2.3694103
2.3196683 1.2144001 2.3684084
2.36569 1.2194281 2.36239
2.4251299 1.2221159 2.3622358
2.47469 1.212145 2.363265
2.5407934 1.2161633 2.3669932
2.57424 1.2079201 2.364265
2.6137266 1.2132233 2.3615167
2.6729333 1.2083601 2.3604867
2.7179101 1.21033 2.35004
2.81863 1.218645 2.3608699
2.8599701 1.20803 2.3510201
1.43777 1.2990501 2.39096
1.4796381 1.2910521 2.390372
1.5256121 1.2910321 2.3824298
1.5755867 1.28755 2.3855035
1.623121 1.28027 2.3830702
1.6804411 1.2801011 2.3836167
1.7247179 1.279721 2.373775
1.7726254 1.2724655 2.3731914
1.8216861 1.272535 2.3693326
1.8767899 1.2692435 2.3665712
1.9240959 1.262854 2.3662181
1.9709181 1.2629341 2.3651581
2.0263026 1.2577025 2.3579252
2.1130099 1.25065 2.35467
0.99300498 1.34813 2.39797
1.00727 1.3493299 2.3954
1.0818533 1.3455533 2.3940632
1.1232821 1.341898 2.3910379
1.1729217 1.3370333 2.3922017
1.228425 1.338593 2.382776
1.2799822 1.3290067 2.3825622
1.3279442 1.328935 2.3788884
1.3769208 1.322455 2.3785925
1.4248625 1.3283175 2.3683875
1.4745989 1.3191688 2.3671825
1.5199065 1.3167434 2.3640883
1.5787767 1.3102283 2.3637784
1.62883 1.317112 2.3568699
1.6684824 1.307175 2.3578124
1.721915 1.3042049 2.3511651
0.68437666 1.3978733 2.39451
0.7250964 1.3920435 2.3939366
0.77376026 1.3927425 2.392585
0.82861179 1.3865513 2.3861501
0.8757233 1.3831892 2.38463
0.92489135 1.3804147 2.3819101
0.97740233 1.3768163 2.374577
1.0257745 1.3737812 2.3715112
1.0739427 1.36816 2.3725481
1.124182 1.3702971 2.3671241
1.1739854 1.3650745 2.3665907
1.2254241 1.3636199 2.3593841
1.2724121 1.356644 2.3591762
1.3243967 1.3596133 2.3561132
1.363525 1.350605 2.354445
0.33440399 1.4469249 2.39779
0.372989 1.4461925 2.3916626
0.42517886 1.4415661 2.3905749
0.48004192 1.4393219 2.3864861
0.53008783 1.4356831 2.3814046
0.57268798 1.4291301 2.3835647
0.6239239 1.4249114 2.379622
0.67405641 1.423764 2.3719172
0.72673982 1.4217001 2.3691266
0.7719788 1.4111574 2.3686662
0.82291639 1.4123278 2.3637099
0.87091237 1.4128561 2.3583961
0.92291659 1.4060334 2.3570249
0.96577251 1.40412 2.3547449
0.0374243 1.498615 2.3919849
0.0760535 1.4901299 2.3910875
0.12965377 1.4864767 2.3876333
0.17898168 1.4816442 2.3861201
0.23032917 1.4804183 2.3802717
0.27352077 1.4732215 2.3815684
0.32031024 1.4733763 2.3735957
0.37092954 1.4708436 2.3690486
0.42364284 1.4682441 2.365171
0.47578016 1.4636974 2.363184
0.52309781 1.4615701 2.3558233
0.5741145 1.4548075 2.3580525
0.6204133 1.4507674 2.35554
-0.37503132 1.5486201 2.3941901
-0.32808897 1.5436325 2.3917975
-0.27044535 1.5422601 2.386215
-0.22163963 1.5359263 2.3868392
-0.17176799 1.53122 2.3875837
-0.12528276 1.5335093 2.3796165
-0.077639468 1.5301141 2.3774948
-0.027036613 1.5222164 2.3753939
0.024064232 1.5184226 2.3728688
0.075917788 1.5179158 2.3673334
0.12723891 1.5165108 2.3630934
0.17929201 1.5117289 2.3615477
0.2254995 1.5062751 2.3584933
0.27444866 1.5006167 2.3540633
-0.71473002 1.59006 2.3981299
-0.67847514 1.5906733 2.3931348
-0.62259185 1.5893043 2.3857388
-0.57232267 1.5818324 2.3872159
-0.52234596 1.5797263 2.3829298
-0.47545338 1.5754205 2.3802938
-0.42311487 1.5729795 2.3752122
-0.37472352 1.5748291 2.3686149
-0.32830656 1.5702572 2.367522
-0.27704743 1.5652347 2.3660135
-0.22155325 1.5631512 2.3637462
-0.175835 1.5599133 2.3618016
-0.139219 1.5569299 2.3564639
-1.0237666 1.6436733 2.3955033
-0.97665215 1.641565 2.3924518
-0.92588812 1.6381401 2.3879361
-0.86998487 1.6313246 2.3856502
-0.82360476 1.627594 2.377387
-0.77704865 1.62368 2.3760133
-0.72481906 1.6207893 2.3694041
-0.67590308 1.6183332 2.36586
-0.62922817 1.6171855 2.3650546
-0.57317674 1.6088371 2.3610344
-0.53001541 1.6078479 2.3573761
-0.47391951 1.6035676 2.3549776
-1.41219 1.69884 2.39941
-1.3752799 1.696595 2.3951049
-1.32218 1.6917067 2.3931401
-1.2692975 1.6861449 2.3894975
-1.2219044 1.6843677 2.3860798
-1.1688013 1.6822801 2.37918
-1.1224667 1.6795777 2.3752916
-1.0702307 1.6764215 2.3736062
-1.018338 1.667868 2.3694458
-0.97304487 1.6662542 2.3665128
-0.92810047 1.6641085 2.3605099
-0.88356525 1.657738 2.3607781
-0.81976599 1.6527233 2.3539565
-1.81696 1.74977 2.3965099
-1.75405 1.74866 2.3910501
-1.723745 1.7411599 2.3932149
-1.6597466 1.7347933 2.3905001
-1.6240225 1.73875 2.3860402
-1.5732751 1.7318138 2.3856764
-1.5246713 1.7301525 2.3802674
-1.4761533 1.7288177 2.3767269
-1.4272746 1.7287964 2.3769464
-1.3746781 1.7254809 2.3737283
-1.3207133 1.7188646 2.3742235
-1.2721485 1.7184871 2.3663414
-1.2279299 1.7162657 2.3626084
-1.17679 1.714875 2.3548551
-1.13138 1.70136 2.3582399
-2.10812 1.79635 2.3966899
-2.05898 1.79776 2.3886199
-2.0199001 1.7920033 2.3874533
-1.9787199 1.7837549 2.3891501
-1.9221934 1.7784767 2.3856618
-1.8700043 1.7782401 2.3772414
-1.8242986 1.7749742 2.3750885
-1.7797087 1.7745163 2.3693938
-1.7272468 1.7676377 2.3666291
-1.6777 1.7606167 2.3740766
-1.6242279 1.7628161 2.361516
-1.575776 1.7611401 2.3619819
-1.52285 1.7613649 2.3538799
-1.4783275 1.7596124 2.35534
-1.4408799 1.75714 2.3519199
-1.35286 1.7523 2.3508201
-2.3634501 1.83757 2.39867
-2.3245702 1.84354 2.3935549
-2.2698102 1.8345425 2.3905425
-2.2216325 1.8318651 2.3734424
-2.1794918 1.8325615 2.3746517
-2.1259339 1.8341112 2.3724413
-2.0717039 1.8198462 2.375432
-2.020164 1.8183701 2.363724
-1.9740551 1.8113375 2.3661325
-1.9306475 1.8080325 2.36602
-1.8743401 1.8072166 2.3585367
-2.52525 1.86625 2.3800099
-2.4858301 1.87965 2.39575
-2.435215 1.8776801 2.382565
-2.3650351 1.8651426 2.374295
-2.3161724 1.8620574 2.3695951
-2.2857099 1.8675051 2.357585
-2.2207501 1.8614167 2.3547499
-2.47071 1.90272 2.3559501
-1.52022 -1.8096 2.4425502
-1.65459 -1.7544 2.4203999
-1.6223325 -1.7603099 2.4387751
-1.576905 -1.7754974 2.4437401
-1.5376101 -1.7969151 2.4474149
-1.7596802 -1.70682 2.4112966
-1.7200087 -1.7130076 2.4242675
-1.6769123 -1.7258811 2.4336348
-1.6354849 -1.742985 2.4460502
-1.8131233 -1.6681199 2.4077532
-1.7724357 -1.6732944 2.4280188
-1.73603 -1.68286 2.4412401
1.41318 -1.66035 2.4306667
-1.91265 -1.604925 2.40553
-1.8686633 -1.6202167 2.4187024
-1.82728 -1.6302956 2.4323301
-1.79185 -1.64626 2.4410601
1.4170033 -1.6257733 2.4172666
2.3264 -1.6147799 2.4461401
-1.9750229 -1.56257 2.4124386
-1.9284545 -1.5737628 2.4264674
-1.8873633 -1.5866499 2.4360301
1.4297749 -1.574855 2.4269698
2.3405299 -1.59638 2.4394801
2.35677 -1.5647033 2.4304934
-2.0639999 -1.5118001 2.4014101
-2.0219672 -1.5190814 2.4197388
-1.98517 -1.5334021 2.4308078
-1.94832 -1.53742 2.44505
1.444042 -1.5348841 2.428282
2.3779964 -1.5236217 2.4267931
-2.1188841 -1.4634202 2.4120679
-2.0745134 -1.4800185 2.4233057
-2.0306067 -1.4929667 2.4371099
1.44884 -1.4988699 2.430145
1.4660971 -1.4726843 2.4227912
2.3914802 -1.48483 2.43451
2.4031625 -1.4657526 2.4213624
-2.21031 -1.40587 2.41363
-2.171056 -1.420208 2.42398
-2.1302428 -1.4357357 2.4341071
-2.0948801 -1.4442101 2.44467
1.4849675 -1.4267412 2.428725
2.4147816 -1.4265267 2.4232733
-2.3173299 -1.35462 2.402
-2.2728372 -1.3669356 2.4157815
-2.2314534 -1.3784611 2.43065
-2.1805649 -1.3910799 2.4431801
1.4958835 -1.3921033 2.4370468
1.5148076 -1.3706613 2.4242928
2.4386914 -1.3779744 2.4254341
-2.4022 -1.3024 2.4037399
-2.371454 -1.3123839 2.4118438
-2.3241479 -1.3265188 2.421932
-2.2814078 -1.3270299 2.4422498
1.5322311 -1.3258066 2.423604
2.4483099 -1.34957 2.4211299
2.4647117 -1.3208467 2.42577
-2.4185135 -1.267735 2.4160931
-2.3788533 -1.2772501 2.4366183
-2.33584 -1.2926866 2.4395866
1.5466299 -1.2955251 2.4317951
1.5546839 -1.267284 2.42804
1.6831599 -1.25621 2.4063399
2.483927 -1.2768172 2.42395
-2.5177476 -1.217 2.4096625
-2.4739211 -1.220633 2.4270778
-2.4284999 -1.2383579 2.4349179
1.5794173 -1.2263173 2.4210081
1.6281401 -1.2068366 2.4087667
1.6730766 -1.22226 2.4256465
2.494355 -1.240885 2.4228001
2.510525 -1.21807 2.426235
-2.6077864 -1.1556233 2.4061134
-2.5716374 -1.1689398 2.4203341
-2.5297134 -1.18251 2.4330034
-2.4833901 -1.1894 2.4493301
1.58645 -1.1935867 2.44052
1.6182414 -1.1858586 2.4318757
1.6616999 -1.18741 2.44275
2.5290215 -1.1758658 2.4278243
-2.667115 -1.11905 2.4153574
-2.6241016 -1.1229883 2.429765
-2.5883534 -1.1315433 2.4442768
2.5429075 -1.1355076 2.42981
2.56006 -1.1109159 2.4177959
-2.76405 -1.0562401 2.4119101
-2.7212069 -1.0678457 2.420157
-2.6780658 -1.08289 2.4322515
-2.64504 -1.0951999 2.44607
2.5745239 -1.073416 2.4278038
-2.7759063 -1.0226049 2.4229102
-2.7274334 -1.03149 2.4396698
2.5883567 -1.0274251 2.4245851
-2.8250179 -0.97107792 2.4146361
-2.78596 -0.99389702 2.43805
2.5950699 -0.98682398 2.43448
2.6052899 -0.96955645 2.4272599
-2.9196568 -0.92191237 2.4088366
-2.8739414 -0.92431355 2.4233043
-2.8314776 -0.94308424 2.4355524
2.6177533 -0.92751056 2.4245718
-3.0232899 -0.86710697 2.40832
-2.9719734 -0.87199539 2.4171867
-2.9346838 -0.87883455 2.437654
-2.8961999 -0.889139 2.44994
2.63715 -0.88285226 2.4240098
2.65415 -0.86385649 2.42348
-3.0185399 -0.83219951 2.4233251
-2.98125 -0.84012365 2.4348533
2.64802 -0.83984202 2.43926
2.6578603 -0.81798899 2.4242659
-3.0202301 -0.76210099 2.43613
2.6810501 -0.77391559 2.4278901
2.689955 -0.74113655 2.42939
2.7038 -0.713682 2.4238801
2.7196751 -0.67573756 2.4222264
2.7366364 -0.62761432 2.4281466
2.7488499 -0.58325678 2.4356101
2.76319 -0.56732398 2.4191399
2.7782433 -0.53002769 2.4244068
2.7941761 -0.48468262 2.429184
2.8108249 -0.46447599 2.4140201
2.8202956 -0.42773628 2.4255371
2.8434341 -0.37040362 2.428282
2.8533001 -0.35033599 2.4211099
2.8669217 -0.31747499 2.4212267
2.8785319 -0.2715258 2.4325759
2.90095 -0.284852 2.40767
2.8943701 -0.235313 2.43697
2.9082999 -0.20980549 2.4200549
2.9281435 -0.16834533 2.4238117
2.94573 -0.1224445 2.4329548
2.9563835 -0.11775867 2.4030333
2.9755349 -0.065342829 2.4240375
2.98722 -0.0335196 2.4303801
3.0053732 -0.022157101 2.42398
3.0218468 0.017875824 2.4263687
1.5800649 0.070652425 2.447505
1.6173199 0.054326098 2.4491701
3.0408766 0.058128398 2.4195299
3.0808201 0.087819397 2.4395499
3.0705099 0.12229967 2.4300234
3.0880649 0.1666635 2.4416451
3.1020999 0.22881 2.4483299
2.22473 1.14759 2.44853
2.28947 1.14052 2.4383299
2.3301101 1.1487551 2.4381251
2.3876133 1.1383433 2.4430201
2.4318776 1.1424725 2.4357901
2.47891 1.136655 2.4449151
2.5130465 1.1394299 2.4403565
2.5703402 1.1434901 2.433645
2.6291599 1.1404979 2.4312339
2.6800749 1.140465 2.4402452
2.723475 1.1395 2.4367151
2.7759266 1.1367334 2.4304199
2.8289464 1.13162 2.4407034
2.88393 1.13835 2.44648
2.9232025 1.1257324 2.4358525
2.98509 1.1391701 2.43343
3.0165701 1.14425 2.4207799
1.78925 1.19332 2.4453001
1.83059 1.1935949 2.4457901
1.8854433 1.1908567 2.4456532
1.9295559 1.1864815 2.4386756
1.980965 1.1872076 2.4338751
2.0276675 1.1831551 2.4305389
2.0785298 1.1811358 2.4308956
2.1238387 1.1738256 2.432137
2.1723213 1.1753314 2.4249613
2.2224932 1.1731879 2.4252701
2.2692513 1.1708472 2.4195559
2.31759 1.17424 2.4131
2.3700538 1.166074 2.420064
2.4132798 1.1644467 2.4110067
2.4688265 1.1592201 2.4143133
2.5289218 1.1626279 2.4155421
2.5832 1.1582899 2.4100451
2.6254101 1.16591 2.40453
2.6860631 1.1578001 2.4178636
2.7301302 1.1588434 2.4080067
2.7944651 1.159605 2.4173899
2.82286 1.164135 2.4093051
2.8754449 1.157505 2.4110551
2.9251699 1.15809 2.40394
1.38504 1.24631 2.44906
1.4266901 1.24499 2.4462099
1.4818325 1.2423124 2.4432025
1.5292999 1.2409157 2.4348814
1.5809333 1.2311834 2.4376409
1.6301944 1.2354522 2.4269834
1.6744651 1.2297326 2.4322774
1.7223959 1.230747 2.4246697
1.7737266 1.2219683 2.4244316
1.8289511 1.2179545 2.4221966
1.8732243 1.2172258 2.4142814
1.9267734 1.214005 2.4124548
1.974275 1.2132599 2.4135299
2.0232666 1.2073499 2.4065332
2.0764999 1.20608 2.4022
2.1258399 1.20139 2.4081402
2.1575501 1.20613 2.4012499
1.02305 1.29426 2.4454625
1.078028 1.29491 2.44118
1.1304539 1.291304 2.442018
1.1776301 1.2874757 2.4387212
1.2303524 1.2798388 2.4373424
1.2767349 1.2807689 2.431798
1.3213773 1.2803717 2.4275866
1.3734576 1.2769266 2.4289732
1.4209054 1.2748654 2.4210091
1.470225 1.2711151 2.4196591
1.5208868 1.26701 2.4121349
1.5721271 1.2644771 2.4116032
1.6156499 1.2588151 2.403765
1.6718434 1.261 2.4071467
1.75782 1.2549 2.4006701
0.68364549 1.3443251 2.448045
0.7285955 1.3417333 2.44262
0.77861053 1.3422812 2.4360363
0.82363337 1.3365469 2.431566
0.87657446 1.3305326 2.4333394
0.9245978 1.327317 2.4322908
0.97365105 1.3283418 2.4249203
1.0229722 1.32207 2.422997
1.0740594 1.3249251 2.4140732
1.1256499 1.3137336 2.4174154
1.1797543 1.3124971 2.4153886
1.2219599 1.3121837 2.4119725
1.2723781 1.307906 2.4053378
1.341995 1.301585 2.40448
0.32158601 1.3927766 2.4489067
0.37592402 1.3931476 2.4429975
0.43099958 1.3882142 2.439074
0.47754928 1.3882444 2.431797
0.52211338 1.3820591 2.4325664
0.57369214 1.379445 2.4302831
0.62717038 1.3754201 2.4269009
0.67491907 1.3745327 2.4210098
0.72075737 1.3688223 2.418617
0.77609318 1.3707234 2.4125917
0.82089007 1.364946 2.4079499
0.87059075 1.3578314 2.4104486
0.92304593 1.35682 2.4059234
0.95079899 1.35842 2.4000101
-0.086322002 1.44917 2.4493599
-0.021045461 1.4471732 2.4468632
0.024530388 1.4455924 2.4439526
0.076472618 1.4368312 2.4421687
0.12838624 1.43578 2.438375
0.17879584 1.4349865 2.4313815
0.22450395 1.4273232 2.4301453
0.27062917 1.425776 2.4253047
0.32118616 1.4235278 2.4225149
0.37455428 1.4201574 2.4181283
0.42678162 1.4148616 2.4159758
0.47640783 1.413092 2.4108157
0.52215111 1.4086579 2.4066761
0.5713535 1.4061899 2.4045949
0.604761 1.4081399 2.4012301
-0.40550399 1.49809 2.44946
-0.371378 1.4939249 2.4467776
-0.3211374 1.4929121 2.4393361
-0.27739513 1.4924388 2.4399099
-0.22179334 1.4844656 2.4358854
-0.16987987 1.4815527 2.4324403
-0.12531851 1.4809074 2.4305866
-0.079419032 1.4762436 2.4243131
-0.027384803 1.4744673 2.4221163
0.024523132 1.4724051 2.4185128
0.076304026 1.4645609 2.4183993
0.12618755 1.4611882 2.4134209
0.17946875 1.4603776 2.4065399
0.22456367 1.4594799 2.4017565
-0.71975803 1.546615 2.443435
-0.671884 1.5419781 2.44066
-0.62631148 1.5401382 2.4385169
-0.57418406 1.5368572 2.431462
-0.52493423 1.531913 2.4325352
-0.47561997 1.5318264 2.4233258
-0.42408657 1.5268662 2.4229023
-0.3730588 1.5207465 2.4236779
-0.32829258 1.5220166 2.4151635
-0.27623108 1.5193943 2.4137707
-0.22392 1.5102768 2.4125955
-0.17444721 1.507874 2.4082081
-0.12482933 1.50872 2.40639
-0.085592598 1.5045401 2.40095
-1.0771466 1.59101 2.4450834
-1.0284333 1.5949234 2.4367502
-0.97183353 1.5931256 2.4388585
-0.92190337 1.5867467 2.4413583
-0.87431741 1.5826555 2.4331243
-0.8277123 1.5797426 2.4303136
-0.7742188 1.5744756 2.4233065
-0.72770464 1.571099 2.4227853
-0.67398548 1.5653473 2.418525
-0.6263901 1.5655401 2.4156444
-0.57881403 1.559104 2.4123139
-0.52560669 1.5542899 2.4086633
-0.497747 1.5501699 2.4068301
-1.40205 1.64522 2.44572
-1.3713733 1.6425734 2.4428868
-1.3297867 1.6430167 2.4387734
-1.2797416 1.6418518 2.4409001
-1.2243249 1.6334699 2.4359462
-1.1743578 1.62778 2.4303834
-1.1249552 1.6250817 2.4281034
-1.0746776 1.6226249 2.4206574
-1.026359 1.6197656 2.4168599
-0.98129559 1.6150744 2.4151084
-0.92259204 1.6127288 2.4139791
-0.87142271 1.6050067 2.41044
-0.82620901 1.60615 2.4052
-1.81993 1.69751 2.4480252
-1.7728868 1.6898566 2.44538
-1.72129 1.6923749 2.4426875
-1.6702759 1.685614 2.4353759
-1.6277586 1.6844057 2.4367728
-1.572427 1.6799858 2.4351001
-1.5266789 1.6844456 2.4244778
-1.471715 1.6755581 2.4272192
-1.42927 1.6730988 2.4260399
-1.378903 1.671735 2.417527
-1.3265377 1.6681311 2.4170656
-1.27674 1.6674343 2.4130301
-1.226828 1.6611999 2.41326
-1.1754159 1.6577461 2.4080999
-1.12973 1.652635 2.403955
-1.0747 1.658 2.4015701
-2.0757568 1.7419434 2.4453135
-1.9743017 1.7359883 2.4310865
-1.9217457 1.7296343 2.4265041
-1.87795 1.7292329 2.4280815
-1.8300143 1.7224867 2.4265611
-1.7780546 1.72624 2.4151545
-1.7312933 1.7179351 2.4202485
-1.6835986 1.7191542 2.4101987
-1.623246 1.710898 2.4111681
-1.58083 1.7098399 2.4088399
-1.513555 1.7079949 2.40288
-1.48707 1.70307 2.4066999
-1.43169 1.70469 2.4008701
-2.36379 1.79334 2.4429951
-2.3216701 1.79721 2.43418
-2.28069 1.7924134 2.4365501
-2.2333341 1.775368 2.4370601
-2.1732066 1.7782584 2.4248483
-2.1322134 1.7771868 2.4271801
-2.08233 1.778615 2.4187484
-2.0317352 1.7625667 2.4167731
-1.9866033 1.75919 2.4095533
-1.9258933 1.75818 2.4030132
-1.88187 1.75164 2.4023299
-2.6017699 1.80883 2.44628
-2.57353 1.83634 2.4290299
-2.5229201 1.8337259 2.4234359
-2.4680874 1.8294475 2.4222474
-2.4201674 1.8233 2.4333076
-2.3719151 1.8143926 2.4245374
-2.3292599 1.8219326 2.4130926
-2.2803233 1.8101034 2.41418
-2.2276099 1.8103275 2.413105
-2.172195 1.80812 2.4012101
-2.1452501 1.81416 2.40992
-2.63112 1.858745 2.4323499
-2.5952001 1.85712 2.40347
-2.469815 1.856665 2.40766
-2.43434 1.85771 2.414125
-1.37602 -1.8641876 2.4879351
-1.332765 -1.88133 2.4918251
-1.4727801 -1.8133143 2.4663701
-1.4247532 -1.8262383 2.4863217
-1.3877449 -1.84542 2.4946599
-1.5709441 -1.7590961 2.4641578
-1.5212398 -1.7755277 2.4751322
-1.4753901 -1.788306 2.4903059
-1.44041 -1.7987 2.4962001
-1.66676 -1.7054367 2.4585233
-1.624704 -1.7194375 2.4724798
-1.5770358 -1.7357042 2.4831369
-1.53771 -1.74437 2.49739
1.38851 -1.71026 2.4868801
-1.7209214 -1.6696615 2.4656844
-1.674156 -1.6774521 2.4815869
-1.63621 -1.69013 2.49547
1.395316 -1.673526 2.4805522
1.40098 -1.67423 2.4504499
2.26911 -1.65513 2.48807
-1.8179601 -1.6100765 2.4579835
-1.7737921 -1.6242515 2.4740329
-1.7273142 -1.6405472 2.4875014
1.4156275 -1.62448 2.4760351
2.2858152 -1.6240525 2.4737675
2.316885 -1.6073899 2.4725125
-1.9081399 -1.5517499 2.458715
-1.8702526 -1.5684036 2.4680636
-1.8224455 -1.5812554 2.4801455
-1.78567 -1.59259 2.4932599
1.4262251 -1.5733815 2.4813368
2.3365321 -1.579554 2.4710941
2.3511 -1.55363 2.47558
-1.968948 -1.518858 2.459552
-1.9220167 -1.5254666 2.4767487
-1.8831234 -1.5336599 2.4895031
1.43774 -1.5251633 2.4715116
2.3459201 -1.53359 2.47822
2.3645749 -1.5236783 2.473105
-2.06266 -1.45925 2.4564199
-2.0218935 -1.472289 2.4628687
-1.9800178 -1.4829257 2.4791946
-1.944145 -1.4915199 2.4940801
1.4479899 -1.49158 2.491605
1.4580619 -1.4706719 2.4687321
2.3815315 -1.4763328 2.47825
-2.1150284 -1.4139484 2.4651835
-2.0746031 -1.4236078 2.4787133
-2.0355759 -1.437916 2.4849439
1.4699861 -1.42441 2.4784539
2.39571 -1.4450099 2.4644599
2.408884 -1.418004 2.476578
-2.2205234 -1.3556033 2.4537332
-2.173588 -1.3718021 2.4705129
-2.1280601 -1.38873 2.4837523
-2.0938001 -1.39087 2.4990001
1.4931933 -1.3838568 2.4730368
1.5091634 -1.36098 2.4792101
2.4310918 -1.377398 2.4750741
-2.2630699 -1.3216 2.4631026
-2.2222755 -1.3225844 2.4799666
-2.1775842 -1.337678 2.4899898
1.5196317 -1.324175 2.4679401
2.4423351 -1.339855 2.4849648
2.4549077 -1.3228875 2.4657149
-2.3639767 -1.2617134 2.4552968
-2.3193212 -1.27121 2.4720724
-2.2773669 -1.2896487 2.4840941
1.5385667 -1.2776411 2.4737124
1.5648 -1.25433 2.4672201
2.4707434 -1.2775917 2.4730983
-2.422807 -1.2125043 2.4666042
-2.378792 -1.2262323 2.47967
-2.3419302 -1.23724 2.48893
1.5639101 -1.2248828 2.47803
2.4905982 -1.234955 2.4807599
2.5072451 -1.2100949 2.466275
-2.5532401 -1.15003 2.45028
-2.5178833 -1.16817 2.4553034
-2.4744186 -1.1717929 2.4757085
-2.4341576 -1.1849675 2.4854848
1.584366 -1.175745 2.4772332
1.6243868 -1.1574434 2.45609
1.66642 -1.1700968 2.4692466
2.5173132 -1.1790866 2.4787815
-2.60272 -1.10782 2.4576299
-2.56969 -1.1181101 2.4669039
-2.533083 -1.1302272 2.4779716
-2.4918551 -1.139825 2.4913874
1.6215528 -1.1382657 2.48107
1.661895 -1.1389401 2.4849248
2.536485 -1.1279334 2.4761684
-2.69455 -1.0518 2.45068
-2.6262465 -1.0763588 2.4663239
-2.5885677 -1.0814526 2.488735
2.5437701 -1.09912 2.49986
2.5617242 -1.0755457 2.4730144
-2.75003 -1.00984 2.45895
-2.7161801 -1.0149574 2.468915
-2.6795001 -1.0330112 2.4788775
-2.6323299 -1.0434099 2.4894135
2.5794032 -1.0278033 2.4726932
-2.7745523 -0.97326988 2.4737222
-2.7326 -0.98152304 2.4877951
2.59249 -0.98150223 2.4772859
2.6095099 -0.95925498 2.4582901
-2.866255 -0.90482652 2.4641352
-2.8208873 -0.92181909 2.4709499
-2.7920799 -0.93401599 2.4920399
2.6087098 -0.92524731 2.4764886
-2.9151566 -0.8645134 2.4637434
-2.8715639 -0.86931181 2.48176
-2.8336766 -0.8815217 2.4956267
2.6310899 -0.87823439 2.4732015
-3.0185499 -0.80961204 2.4548402
-2.9754381 -0.81721181 2.4680803
-2.928328 -0.83124751 2.4825082
-2.89659 -0.84278798 2.49365
2.639755 -0.83688349 2.4778025
2.65503 -0.81159699 2.469115
-3.06163 -0.77251899 2.46945
-3.03057 -0.78221536 2.4834366
2.6628649 -0.77914304 2.4748666
-3.0643201 -0.72924745 2.482645
2.6873975 -0.72659403 2.4759386
2.6972849 -0.67506599 2.49699
2.7094383 -0.67721713 2.465692
2.7248402 -0.62774372 2.4767499
2.7415061 -0.580091 2.479152
2.7528 -0.55098701 2.4828601
2.7667887 -0.52462441 2.4744
2.7855599 -0.47654334 2.4748318
2.8027201 -0.45060301 2.4540501
2.79719 -0.42726648 2.482435
2.8152862 -0.41231361 2.470562
2.8317852 -0.36973301 2.4754817
2.8439901 -0.33155569 2.4855335
2.8573451 -0.31548125 2.4661474
2.8726478 -0.27018204 2.4761322
2.8873057 -0.22338299 2.4804101
2.9126132 -0.16891734 2.45678
2.939326 -0.1154526 2.4695301
2.9461751 -0.084860146 2.4732351
2.9580767 -0.062234666 2.4785998
1.72579 -0.0132537 2.49806
1.81501 -0.0134026 2.4832799
2.9843526 -0.025146276 2.4751251
1.53283 0.034091275 2.486655
1.5762688 0.028998289 2.4798689
1.625685 0.027674276 2.4762163
1.6739949 0.021072092 2.4784575
1.7237934 0.014410447 2.4856884
1.769695 0.00061772903 2.4903698
2.99576 0.0093101235 2.484695
3.0047102 0.018004004 2.476325
1.5455999 0.06059945 2.464005
1.5684422 0.075045384 2.4667902
1.6177175 0.064534426 2.4563975
1.669015 0.069057398 2.48435
3.0343075 0.065928303 2.47609
3.055495 0.0789169 2.4526248
-1.15323 0.140513 2.49968
-1.1188691 0.12230717 2.4924448
-1.0812299 0.12505922 2.4954324
1.5777349 0.108576 2.4851952
3.0464599 0.105287 2.4769299
3.0604501 0.12636581 2.467912
-1.15337 0.15325201 2.4993801
-1.1179067 0.16089417 2.4965169
-1.0842367 0.16028951 2.4970918
3.075865 0.17621867 2.4810631
3.10167 0.19368801 2.45069
3.08935 0.21789134 2.48369
3.11516 0.236145 2.4693832
3.1216125 0.27519548 2.476665
3.12672 0.31107551 2.47697
3.15979 0.3224645 2.484755
3.1728868 0.37758598 2.4880898
3.1823249 0.4237155 2.4887199
3.1956902 0.4616355 2.4930351
3.2202699 0.54711199 2.49594
3.22945 0.60343701 2.4900501
2.24699 1.09571 2.4960001
2.26966 1.09895 2.4918699
2.363395 1.092485 2.49893
2.41626 1.093595 2.4983149
2.46577 1.0943266 2.4871333
2.5975001 1.09229 2.49804
2.6317275 1.087525 2.4886074
2.67963 1.08822 2.4912901
2.71785 1.0887066 2.4878967
2.7741599 1.08814 2.4917099
2.8198774 1.087045 2.4884448
2.8785 1.0906 2.49506
2.91558 1.0856675 2.4809699
2.9693251 1.095585 2.475625
3.0929401 1.05715 2.49506
3.11813 1.05942 2.4764199
1.7191501 1.14685 2.4969501
1.82804 1.1496201 2.4923301
1.8747301 1.13885 2.4958701
1.9172549 1.1401975 2.4870701
1.9773381 1.137628 2.4899142
2.0248878 1.137588 2.481262
2.0723157 1.1295115 2.4832342
2.1261592 1.127673 2.4783199
2.1815872 1.1249386 2.4777913
2.2259457 1.1258415 2.4762371
2.2739885 1.12375 2.4702144
2.3246253 1.1219832 2.4728215
2.3731327 1.1187357 2.47191
2.4321451 1.1177649 2.47681
2.4801626 1.1164274 2.4694874
2.5329983 1.112716 2.4703641
2.582288 1.1191881 2.4717741
2.6195726 1.1160026 2.4654799
2.6668949 1.1083601 2.4706299
2.7161701 1.1181051 2.4702275
2.7679942 1.11383 2.4625781
2.82128 1.11017 2.4644401
2.8750374 1.1121175 2.4657874
2.9108901 1.10692 2.4500799
3.0464799 1.10157 2.4711299
3.0697 1.10333 2.45135
1.44052 1.19337 2.4967
1.4665051 1.197135 2.49405
1.5305899 1.1874976 2.4911575
1.578997 1.1859157 2.4825885
1.6274101 1.1833466 2.477891
1.6770338 1.177765 2.4837151
1.721861 1.1792009 2.4749572
1.77283 1.173584 2.476048
1.8239055 1.169619 2.4704211
1.8729414 1.1671072 2.4668787
1.92398 1.160426 2.4665859
1.9783599 1.1632559 2.4621201
2.014225 1.1598949 2.46068
2.0692101 1.1539434 2.4605
2.1550601 1.15141 2.45099
0.99589002 1.2488101 2.49704
1.01012 1.24959 2.49402
1.078706 1.24025 2.492698
1.1251971 1.2394615 2.4875371
1.1740571 1.2357057 2.4869812
1.2239479 1.2324522 2.4867156
1.2698991 1.2338879 2.478725
1.3249568 1.2285849 2.476841
1.3763975 1.2231375 2.4772024
1.4201969 1.218259 2.4732032
1.4725055 1.2187617 2.4693575
1.5223389 1.2127675 2.4691663
1.563185 1.2063625 2.4581649
1.6220766 1.2070833 2.4546566
1.6788999 1.2071366 2.4537766
1.73657 1.20225 2.4540501
0.62067747 1.2980825 2.4981427
0.69672698 1.29075 2.4992001
0.72337073 1.2907634 2.4928701
0.77696222 1.2857399 2.489785
0.8271659 1.2835425 2.4842691
0.87770021 1.2822973 2.4795518
0.92233068 1.2771713 2.4791098
0.97352356 1.2742513 2.4766686
1.02625 1.2701615 2.4706941
1.0739366 1.2659575 2.4690418
1.1230212 1.2679375 2.4627938
1.1727949 1.263455 2.4609287
1.219715 1.2579182 2.4588115
1.2806967 1.25668 2.45558
1.3286233 1.2533866 2.4524601
0.27977201 1.34896 2.49224
0.326013 1.344115 2.4935451
0.38899049 1.3432651 2.4919524
0.42479005 1.3388799 2.4863913
0.47403368 1.3332589 2.4887378
0.52622259 1.3274231 2.4838414
0.57921731 1.3253881 2.4777274
0.62494129 1.3259983 2.4727731
0.67179453 1.320636 2.4749629
0.72526723 1.3157978 2.4685032
0.77556568 1.3154154 2.4642122
0.82414949 1.3120501 2.4605689
0.87227565 1.3076032 2.4541533
0.9373495 1.3011899 2.4544899
0.95881498 1.3029799 2.4513199
-0.027950404 1.393315 2.4976602
0.028469514 1.392368 2.48984
0.078697398 1.3897264 2.4872389
0.12916151 1.3871533 2.4833667
0.1763788 1.385488 2.483722
0.22038025 1.37837 2.4766827
0.27340937 1.3749661 2.47421
0.32558152 1.37117 2.4724801
0.37628847 1.3682487 2.4690173
0.42731518 1.3676968 2.4589443
0.47372881 1.360898 2.4623427
0.52298743 1.3577062 2.46016
0.57629424 1.3531001 2.4568076
-0.3535955 1.4421649 2.4914398
-0.32649815 1.439775 2.4901299
-0.27968612 1.4376239 2.4908137
-0.22388956 1.43576 2.4870522
-0.1727373 1.429087 2.4834149
-0.12259822 1.423645 2.4802985
-0.077130713 1.4261574 2.4731469
-0.027801646 1.4220488 2.475338
0.023211502 1.4184268 2.4659801
0.076623932 1.4146612 2.4611976
0.128704 1.4139462 2.4579639
0.17423834 1.4070534 2.45788
0.206687 1.406245 2.4542751
-0.76983351 1.49681 2.4979901
-0.72022837 1.4932418 2.493155
-0.67843729 1.4945574 2.4920826
-0.62515193 1.4861467 2.4910309
-0.57394701 1.482691 2.4848044
-0.52269673 1.4802992 2.4811199
-0.47386467 1.4761423 2.4788432
-0.42625171 1.4767115 2.47594
-0.37448823 1.4688535 2.4735153
-0.32532209 1.4680023 2.4659202
-0.27853432 1.4650741 2.4654176
-0.22918561 1.4615959 2.463485
-0.17202452 1.456645 2.4586451
-0.125908 1.4542366 2.4566801
-0.079935804 1.45138 2.4531898
-0.047208302 1.4501801 2.4517801
-1.0710566 1.5459067 2.4974999
-1.0132276 1.5404 2.4903724
-0.97182983 1.53658 2.4897857
-0.92662132 1.5318854 2.4860089
-0.87633109 1.5275925 2.4824693
-0.82332009 1.5302671 2.4742057
-0.77473712 1.5274376 2.4730771
-0.7262131 1.5199001 2.4683175
-0.67489111 1.5202739 2.4660311
-0.62528682 1.5110345 2.4637265
-0.57843482 1.5107787 2.4576199
-0.5275405 1.5080718 2.4573433
-0.47405601 1.5054733 2.4519832
-0.43977499 1.5020599 2.45138
-1.46679 1.5941401 2.49915
-1.37826 1.5925699 2.49951
-1.3187261 1.586372 2.4917121
-1.2729133 1.5853916 2.4890115
-1.2215889 1.5825578 2.4793267
-1.1763099 1.5809863 2.4775176
-1.1271015 1.5735524 2.4793458
-1.0734801 1.5716919 2.4743273
-1.0235528 1.5735965 2.4681392
-0.97267652 1.5658675 2.4641376
-0.92421061 1.5627884 2.461925
-0.88187122 1.558805 2.4597275
-0.83971345 1.55451 2.45647
-1.84367 1.6493 2.49721
-1.770775 1.6481199 2.49403
-1.7255434 1.6421534 2.4926367
-1.67686 1.63736 2.4886718
-1.6270275 1.63591 2.48545
-1.5764962 1.6304688 2.48564
-1.5287226 1.6310425 2.48194
-1.4753455 1.6284618 2.4749973
-1.4264365 1.6229291 2.4770963
-1.3712169 1.6185169 2.4732339
-1.3197646 1.6192644 2.4687731
-1.2747126 1.6155825 2.4635701
-1.2346926 1.6094174 2.4600224
-1.1785866 1.6049833 2.4544232
-1.1129301 1.60209 2.45189
-2.16239 1.69633 2.49773
-2.07933 1.69186 2.494385
-2.0275126 1.6911925 2.4914451
-1.9665124 1.688885 2.4904051
-1.9176319 1.6773819 2.4815819
-1.8722234 1.6760256 2.4733133
-1.8229128 1.66976 2.4756341
-1.7754717 1.6686383 2.4735816
-1.7273899 1.6675118 2.4642832
-1.673948 1.658664 2.464376
-1.6211625 1.6604525 2.4607701
-1.5776725 1.6542399 2.4611177
-1.524435 1.6601751 2.4524601
-1.49484 1.65216 2.4514301
-2.4214699 1.74888 2.49441
-2.39642 1.74303 2.49823
-2.3303449 1.74245 2.49369
-2.274425 1.7338974 2.4877076
-2.2189851 1.72848 2.472955
-2.1775563 1.7295988 2.4776387
-2.1243119 1.7203659 2.4763122
-2.0721984 1.7185968 2.4695032
-2.0214972 1.7197758 2.4658601
-1.9782233 1.7169867 2.4656932
-1.93214 1.704705 2.459955
-1.89957 1.70471 2.4581499
-2.6528201 1.7784801 2.4947
-2.6139798 1.7906899 2.4742951
-2.5788 1.7844501 2.488265
-2.5153275 1.7818425 2.4785001
-2.4756401 1.7840641 2.47804
-2.4158599 1.79636 2.4611399
-2.3791764 1.7708083 2.4772265
-2.3197434 1.7683249 2.4648466
-2.28176 1.7667849 2.46383
-2.212935 1.7618799 2.4526949
-2.1515999 1.75368 2.45205
-2.1198902 1.75583 2.4548402
-2.78602 1.8013099 2.4923799
-2.7197499 1.81756 2.4777951
-2.675885 1.8149149 2.4830201
-2.6320801 1.84776 2.4630301
-2.56795 1.8112267 2.4639866
-2.5209799 1.80594 2.45366
-2.46732 1.80925 2.45241
-2.44293 1.80384 2.45841
-1.1171451 -1.958665 2.5460401
-1.25913 -1.90785 2.51386
