ply
format ascii 1.0
comment PCL generated
element vertex 1549
property float x
property float y
property float z
element camera 0
property float view_px
property float view_py
property float view_pz
property float x_axisx
property float x_axisy
property float x_axisz
property float y_axisx
property float y_axisy
property float y_axisz
property float z_axisx
property float z_axisy
property float z_axisz
property float focal
property float scalex
property float scaley
property float centerx
property float centery
property int viewportx
property int viewporty
property float k1
property float k2
end_header
-0.1442045 -2.0927451 3.03583
0.68041575 -2.0862498 3.03128
0.70732552 -2.0692325 3.017915
-0.31570649 -2.00104 3.0090749
-0.271485 -2.0189786 3.0224411
-0.23233183 -2.0334098 3.0352085
0.71763033 -2.0287299 3.0246303
-0.40433699 -1.95629 3.0006101
-0.36828676 -1.9655524 3.0100024
-0.32833537 -1.9772067 3.0287924
-0.28709468 -1.9903933 3.0408866
0.72919595 -1.9848876 3.0159924
-0.46072823 -1.9099948 3.0076976
-0.4191559 -1.9229637 3.0201452
-0.37564212 -1.9371501 3.0328915
0.74221104 -1.9373633 3.0177567
0.753959 -1.90819 3.00349
-0.51677901 -1.8662943 3.0121074
-0.47328922 -1.8769612 3.0286391
-0.43252197 -1.8875966 3.0391366
0.76262635 -1.8693733 3.00933
-0.61942005 -1.8039551 3.00368
-0.57285178 -1.8173711 3.0260789
-0.53352386 -1.8369272 3.02685
0.78499198 -1.8206134 3.0312665
0.80106103 -1.81125 3.0298848
-0.67004663 -1.7636467 3.0092432
-0.62927836 -1.7761312 3.0261712
-0.59894198 -1.79099 3.0389199
0.79389101 -1.7705801 3.01511
0.80072701 -1.76938 3.0492301
-0.76350397 -1.7093276 3.0104175
-0.72077811 -1.7225133 3.0202658
-0.6798808 -1.73006 3.0351241
-0.645634 -1.74345 3.0388601
0.796718 -1.7441601 3.04198
0.81049371 -1.71594 3.0119467
1.1182834 -1.7077032 3.00453
1.173208 -1.713336 3.014298
1.2137717 -1.7098135 3.0254984
-0.80659801 -1.66828 3.0062733
-0.77417576 -1.6739361 3.0289598
-0.73710066 -1.6869601 3.0432498
0.81841451 -1.6639149 3.0202851
1.0349566 -1.6619834 3.0064499
1.0743484 -1.6708883 3.0261433
1.12283 -1.6814365 3.0324833
1.17291 -1.69355 3.0409501
1.2334133 -1.6791267 3.0333269
1.2976251 -1.66676 3.0062499
-0.87042361 -1.616909 3.0209622
-0.82613105 -1.6349951 3.027586
-0.79009998 -1.64082 3.0467
0.83737898 -1.6290779 3.0140622
0.94490099 -1.6012 3.0027399
0.98106301 -1.6140001 3.0190575
1.02531 -1.6258433 3.0308969
1.23092 -1.64232 3.0427001
1.299415 -1.6356101 3.0259299
1.3141119 -1.617968 3.021832
-0.96864849 -1.5624549 3.0055001
-0.92519188 -1.5737615 3.0243998
-0.88515764 -1.5931034 3.03567
0.84564352 -1.573185 3.0303001
0.8692376 -1.561084 3.0197539
0.9259004 -1.5743417 3.0272858
0.96664602 -1.5833199 3.041146
1.26939 -1.57736 3.0193601
1.3315201 -1.5719584 3.0290432
-1.05691 -1.5136 3.00069
-1.0231401 -1.518321 3.0157409
-0.98160839 -1.529591 3.0293291
-0.9422785 -1.53962 3.0457902
0.8875683 -1.5416766 3.0286634
0.915236 -1.54133 3.0483899
1.34747 -1.532465 3.046325
1.358266 -1.5203079 3.018666
-1.12034 -1.4584601 3.012162
-1.0760347 -1.4771682 3.0261362
-1.0415767 -1.4846168 3.0395734
1.3690941 -1.474492 3.0261841
-1.2135999 -1.4050701 3.007935
-1.1714387 -1.4194514 3.0165825
-1.1300615 -1.4295415 3.0348899
-1.09642 -1.44249 3.04357
1.3791457 -1.4212972 3.0241256
2.19083 -1.40561 3.01598
-1.30462 -1.3589 3.0011899
-1.2675233 -1.3703583 3.0116851
-1.2285063 -1.3801199 3.0278139
-1.183095 -1.3916276 3.0419526
1.3972549 -1.3815 3.0371151
1.4077034 -1.3672533 3.0206499
2.19891 -1.39273 3.0341001
-1.3620349 -1.3149775 3.0106425
-1.3241673 -1.3209636 3.0223961
-1.2802399 -1.3369501 3.0348945
-1.2445199 -1.34758 3.04018
1.422135 -1.3242234 3.0251932
2.18009 -1.34498 3.0217099
-1.4591 -1.25323 3.00562
-1.4256012 -1.2684088 3.0163488
-1.382055 -1.2785619 3.0291851
-1.34911 -1.28947 3.0458801
1.436826 -1.281546 3.0297401
1.45216 -1.26413 3.0265501
-1.5186266 -1.21402 3.0088768
-1.478801 -1.2261569 3.025001
-1.433075 -1.2384375 3.0387497
1.4482599 -1.21166 3.03526
1.4618043 -1.2256629 3.0172355
2.0615799 -1.21895 3.030905
2.12848 -1.23588 3.0170701
-1.6042299 -1.158165 3.014725
-1.5702579 -1.1687849 3.0228519
-1.5259261 -1.187115 3.0320575
1.4705518 -1.1790221 3.026242
2.02755 -1.1656899 3.0309501
2.0629251 -1.17466 3.00879
2.23244 -1.15555 3.0134201
2.25436 -1.17544 3.0019
2.3361483 -1.1762666 3.0272901
2.3522301 -1.15271 3.00123
-1.7100199 -1.10536 3.0011799
-1.6711949 -1.1161001 3.0147035
-1.62968 -1.1292241 3.0269411
-1.5848501 -1.1372349 3.04286
1.49072 -1.1175749 3.0192251
1.50247 -1.12128 3.01195
2.040735 -1.12377 3.0080099
2.17467 -1.14396 3.0048699
2.2002399 -1.14807 3.0048599
2.3577676 -1.1260225 3.0270276
-1.759115 -1.060575 3.0099001
-1.7235345 -1.0754755 3.0229521
-1.680406 -1.0864941 3.036494
-1.64757 -1.0911 3.0421901
1.49956 -1.0866899 3.0160601
1.5155483 -1.0667967 3.0217583
2.0155201 -1.08962 3.03473
2.3859518 -1.0759617 3.0226014
2.41189 -1.05492 3.04005
-1.86274 -1.001 3.0041699
-1.8211769 -1.0167789 3.016845
-1.7742889 -1.0313699 3.0270488
-1.7361168 -1.0428333 3.0432434
1.5323637 -1.0213761 3.0274251
2.4228866 -1.0293232 3.0191152
-1.920562 -0.96316922 3.0093181
-1.8721055 -0.97242707 3.028182
-1.83178 -0.98293704 3.0425568
1.3331151 -0.95302248 3.03723
1.3699925 -0.95772046 3.02527
1.4287733 -0.95841169 3.0211966
1.4827825 -0.96750879 3.0338326
1.5428824 -0.9789362 3.0354924
1.5577267 -0.96687394 3.0218632
2.4395866 -0.99316293 3.0334198
2.45559 -0.96803999 3.0249531
-2.0025401 -0.91136003 3.0039101
-1.9702684 -0.92193967 3.0155716
-1.9322157 -0.93164158 3.0296772
-1.89896 -0.943896 3.0446
1.337505 -0.9222669 3.0260601
1.3797234 -0.92046851 3.0250914
1.4196867 -0.92575854 3.0302837
1.4680088 -0.93029404 3.0371089
1.5190681 -0.92511445 3.0277381
1.5511401 -0.93753552 3.022645
2.4662156 -0.92803973 3.0268857
-2.061595 -0.85927051 3.0197124
-2.0249798 -0.874843 3.0244448
-1.9843483 -0.88758582 3.0409133
1.29827 -0.86628503 3.03965
1.3222433 -0.87964869 3.0287349
1.3735272 -0.87706643 3.036597
1.41447 -0.89057553 3.0271399
2.49101 -0.87491244 3.0248299
-2.1518149 -0.81339502 3.0070601
-2.1210701 -0.81892824 3.020514
-2.0817649 -0.83326405 3.0270331
-2.04072 -0.83559501 3.0464399
1.2889575 -0.83130878 3.03561
1.3055274 -0.82298124 3.0120101
1.3525701 -0.84499699 3.0009
2.5137599 -0.82999229 3.0262401
-2.2230866 -0.76024199 3.01666
-2.1760342 -0.77478707 3.0257885
-2.1374867 -0.78505164 3.0389869
1.28987 -0.751109 3.0438499
1.3159033 -0.77559632 3.0220966
2.528348 -0.78437376 3.0214541
-2.3064001 -0.71279001 3.0035999
-2.271414 -0.71854502 3.0164502
-2.2276657 -0.7320711 3.0288103
-2.1910701 -0.73509949 3.0457249
1.293695 -0.73318255 3.0348501
1.3159678 -0.72291249 3.0209489
2.5409999 -0.72773248 3.0348549
2.5577621 -0.72368419 3.0210061
-2.4055099 -0.65122098 3.00963
-2.374825 -0.65880799 3.0193849
-2.3233159 -0.67894781 3.0230172
-2.28128 -0.69023579 3.0354681
1.3268629 -0.673316 3.02441
1.3560899 -0.65130198 3.0065501
2.5737817 -0.67452306 3.032465
-2.4632003 -0.60834533 3.0112867
-2.4220729 -0.61636776 3.0271642
-2.3881433 -0.62929666 3.0362968
-2.3380651 -0.64954054 3.0407801
1.34709 -0.63108599 3.0310049
1.354045 -0.61720824 3.0181274
2.5890548 -0.62470901 3.0335
2.6079502 -0.61008602 3.0148327
-2.55917 -0.555996 3.0139101
-2.5176919 -0.56598288 3.0237153
-2.4747081 -0.57726496 3.0352199
-2.43731 -0.586254 3.0443048
1.37409 -0.57473385 3.0191019
1.674565 -0.56877577 3.0109949
1.7211975 -0.58573347 3.0194199
1.75612 -0.587955 3.0448201
2.6173267 -0.5780564 3.0254135
-2.65802 -0.50733399 3.0030401
-2.6160722 -0.51702338 3.0199099
-2.5753667 -0.52572888 3.0320899
-2.5229967 -0.53195602 3.0408299
1.3914701 -0.53417426 3.0335727
1.4019351 -0.51907498 3.0083499
1.585075 -0.51509225 3.0179102
1.6273987 -0.52643764 3.022346
1.6814851 -0.53214598 3.0387075
2.638746 -0.5272634 3.0328341
-2.7137232 -0.46330667 3.016433
-2.677145 -0.47690472 3.0233948
-2.6303999 -0.48620173 3.04088
1.2779375 -0.46980724 3.0388074
1.3200067 -0.46330699 3.0343132
1.3777287 -0.48011136 3.035605
1.409374 -0.48383179 3.0134463
1.5758632 -0.48400235 3.0105133
1.6170675 -0.48342773 3.0087099
2.656215 -0.47541532 3.0220783
-2.7711251 -0.40901524 3.0085599
-2.7337666 -0.42835334 3.0262816
1.2447 -0.42013699 3.0276098
1.2722678 -0.42852843 3.0230045
1.3207084 -0.44035134 3.0179465
1.3651667 -0.44059733 3.0039032
2.6801341 -0.41796961 3.0254657
-2.85654 -0.35292801 3.00652
-2.8180559 -0.36664122 3.017292
-2.7801862 -0.37343019 3.0355358
-2.7451899 -0.38750201 3.0490899
1.267092 -0.36378041 3.0286241
2.69227 -0.3758885 3.0231349
2.7052901 -0.36596 3.00441
-2.8747978 -0.32477659 3.0216522
-2.8244503 -0.334887 3.0404634
1.2809528 -0.32918099 3.0219474
2.6986101 -0.34914401 3.03301
2.7158859 -0.32687396 3.0199821
-2.9227288 -0.27912211 3.0195103
-2.8759365 -0.29345867 3.0431967
1.29871 -0.28417599 3.0438199
1.3082325 -0.27059701 3.0154924
2.7325966 -0.27607834 3.0256751
-3.0184567 -0.214683 3.0058801
-2.9777868 -0.22619133 3.0086534
-2.9289439 -0.23694861 3.0312676
1.3259357 -0.23108557 3.0168073
2.7444899 -0.239418 3.02425
2.7604499 -0.21759741 3.022562
-3.1280651 -0.1537765 3.0107651
-3.0671549 -0.16223499 3.0178552
-3.03614 -0.1902625 3.0192599
1.338622 -0.1805114 3.0276279
1.3550899 -0.1603605 3.0174851
2.7785401 -0.17734359 3.0238919
-3.2239101 -0.116875 3.0193901
-3.1827533 -0.12280967 3.02514
-3.1214099 -0.1252805 3.0387776
-3.0771 -0.13431799 3.04549
1.3466001 -0.13805699 3.03947
1.3642234 -0.12211933 3.0193851
2.7904403 -0.14194566 3.0338299
2.8096333 -0.117143 3.0210466
-3.3555 -0.058990199 3.0063901
-3.3179901 -0.078500502 3.0060301
-3.2811534 -0.065176226 3.0288134
-3.2268379 -0.081818141 3.0364199
-3.17571 -0.096973397 3.0415699
-3.1472399 -0.096692897 3.0478899
-3.0799401 -0.076478302 3.0498199
1.3783175 -0.078247286 3.0269175
2.8248856 -0.071237512 3.0254686
-3.42085 -0.019330449 3.0138102
-3.37412 -0.032522302 3.0119734
-3.3297501 -0.029105874 3.034265
-3.2911999 -0.038989902 3.0497799
-2.73913 -0.035868101 3.0281501
-1.88853 -0.048275001 3.0378301
1.3828716 -0.030087134 3.0227432
2.8416531 -0.030375434 3.0226433
2.8517699 -0.0179024 3.01053
-3.467545 0.041415349 3.0202951
-3.4205065 0.021035137 3.024873
-3.3749435 0.0075237243 3.0355532
-2.6943898 0.027978601 3.01157
-2.0357099 0.0172763 3.0106101
-1.98019 0.0172983 3.0451801
1.3880167 0.0058516175 3.02756
1.4124066 0.041811701 3.0147564
2.8626068 0.019578768 3.0276883
-3.5822999 0.083270602 3.0136399
-3.4731102 0.068672635 3.0305433
-2.6637502 0.082324103 3.0258298
-2.0776234 0.062221933 3.04375
-2.0374601 0.061858129 3.0407665
1.39808 0.08581645 3.03529
1.4294714 0.082526684 3.0244472
2.8873279 0.072425857 3.0266342
-3.6136868 0.13244332 3.0328434
-3.5931766 0.118098 3.0278533
-2.63587 0.13167074 3.0257826
-2.1045699 0.134822 3.02493
-1.96386 0.148527 3.0171499
-1.9160726 0.14360251 3.019275
-1.8718251 0.13081567 3.0260582
-1.8281672 0.13024029 3.030983
-1.7743483 0.13456483 3.02565
-1.7214266 0.13666317 3.0334198
-1.6751933 0.13372232 3.0459232
-1.04634 0.14871401 3.00261
1.426968 0.1178906 3.0104098
1.456905 0.116523 3.0040751
2.9081767 0.126772 3.0216033
-3.6455901 0.168171 3.0465
-2.6258385 0.18336436 3.0244875
-2.1223199 0.15286 3.0497899
-2.0866599 0.185739 3.0472951
-2.029505 0.18359299 3.030545
-1.970255 0.17298377 3.0089202
-1.9185866 0.168835 3.0023601
-1.8895299 0.162779 3.0019901
-1.8263534 0.16148032 3.0021098
-1.7725333 0.16579734 3.0039165
-1.7347575 0.16404624 3.0116651
-1.0724499 0.1641155 3.0069549
-1.0295451 0.18046936 3.0111077
-0.98324251 0.18569574 3.0165749
1.430775 0.17207074 3.0436502
1.45564 0.187833 3.0369201
2.9195487 0.17137434 3.0258617
-2.6294231 0.22318399 3.019623
-2.26317 0.241612 3.0393901
-2.2109399 0.239668 3.0353601
-2.1714232 0.23277266 3.0367401
-2.1331301 0.22603633 3.0390568
-2.086576 0.2184418 3.028496
-2.04985 0.21637499 3.00846
-1.0336013 0.22108363 3.0329502
1.475745 0.20296499 3.0199852
1.51618 0.2198655 3.0250049
2.9421301 0.2197115 3.0294001
2.9567802 0.24206533 3.0199668
-2.6234102 0.2622135 3.021225
-2.3920701 0.29861501 3.0370901
-2.3186677 0.285119 3.0098677
-2.2816048 0.27183801 3.0285678
-2.2289474 0.26536 3.0247774
-2.17731 0.25478899 3.02121
-2.1415801 0.25256601 3.0046401
-1.1188267 0.28783104 3.0144918
-1.0702828 0.27425787 3.0244086
-1.0459499 0.27088436 3.0421035
-0.96334875 0.28474051 3.0487251
1.57947 0.268251 3.0149
2.9584301 0.27742749 3.0250101
-2.6066401 0.307457 3.03163
-2.5695 0.32421148 3.0364799
-2.5237002 0.33963448 3.0302601
-2.4840801 0.33907101 3.04883
-2.4243901 0.333303 3.0083799
-2.36659 0.312769 3.00331
-2.3389201 0.31138599 3.0009699
-1.318325 0.33731499 3.019665
-1.1707145 0.3230643 3.0204992
-1.1172355 0.32917377 3.0168834
-1.0769166 0.32374653 3.0328157
-1.04798 0.30147901 3.04585
2.9732022 0.3303794 3.0324299
-2.0679333 0.37902763 3.0107868
-2.0251758 0.37239286 3.0318143
-1.98168 0.37099102 3.04632
-1.3057275 0.36591598 3.0388801
-1.2757341 0.38680083 3.0341001
-1.1709467 0.37577567 3.0418785
-1.1286 0.3772895 3.0391002
-1.085016 0.36902142 3.042408
1.598305 0.35903448 3.04338
2.9792001 0.37181568 3.0324199
-3.27373 0.43900901 3.0447099
-2.87695 0.4146255 3.0390301
-2.8304367 0.44113699 3.0140965
-2.1259501 0.40388399 3.00248
-2.0697243 0.42090812 3.0105042
-2.0314486 0.41370586 3.0321
-1.99708 0.40154499 3.0498199
-1.2678251 0.41865075 3.036885
-1.11845 0.41057801 3.04811
1.5828482 0.42868733 3.0248935
2.9933102 0.42406902 3.0297
3.00365 0.432392 3.0042701
-3.2079999 0.47497699 3.04652
-3.17314 0.49237201 3.0448201
-2.9156499 0.45537901 3.0420599
-2.1106949 0.49017948 3.02089
-2.0749261 0.46932927 3.0264528
1.5928974 0.47404873 3.0293324
1.6060133 0.47601998 3.0073335
2.991195 0.473362 3.03931
3.0105467 0.47605035 3.0177433
-3.29848 0.53943098 3.0218799
-3.2028201 0.53339398 3.03439
-3.1224401 0.52644902 3.0248101
-2.1526451 0.53655052 3.0239949
-2.1280484 0.52123016 3.030555
-2.0956299 0.50952798 3.0476699
1.5942 0.52835065 3.0403433
1.6087821 0.52331257 3.0212121
2.82898 0.54937601 3.04987
2.8768101 0.53226602 3.0339899
2.9331634 0.53034967 3.0357068
2.9775364 0.51915348 3.0191066
3.0182099 0.50192702 3.0105
-3.3422101 0.56341898 3.0250199
-3.2589798 0.565956 3.0154052
-3.2225399 0.55314702 3.0165999
-3.1875701 0.57012701 3.0146999
1.6156949 0.57192749 3.0215425
2.4929399 0.594778 3.03438
2.6486399 0.59134197 3.0489199
2.6840649 0.59301502 3.03738
2.7300899 0.58764452 3.038615
2.7706919 0.58093148 3.0328817
2.8267097 0.57532549 3.0257351
2.8734386 0.56889504 3.0190103
2.9198134 0.55970132 3.0172799
2.9548099 0.555121 3.0079501
1.6364099 0.63889134 3.0280933
2.24596 0.64265198 3.01563
2.2821598 0.6454975 3.0123849
2.32162 0.63284075 3.0243976
2.3724799 0.62357217 3.0288539
2.4245913 0.62631142 3.0221686
2.4744401 0.62431401 3.0200739
2.5304902 0.62429786 3.0234783
2.5751934 0.61874467 3.0207217
2.6202149 0.61798096 3.0194526
2.6682475 0.61709154 3.014905
2.7189398 0.61782736 3.0091133
2.76703 0.61547601 3.00565
2.8025401 0.60044497 3.01267
1.18016 0.69636565 3.0434902
1.2317367 0.69928294 3.04127
1.2872601 0.68852103 3.0495601
1.32127 0.68992066 3.04479
1.376955 0.68833375 3.037365
1.4296244 0.6775614 3.0345902
1.472507 0.67556411 3.0234873
1.5270259 0.68096286 3.0214543
1.5670025 0.67767954 3.0132401
1.6250499 0.66565341 3.021776
2.34287 0.650204 3.0059299
2.36569 0.65163201 3.0009301
0.563164 0.74548799 3.04932
0.6241715 0.7471388 3.0467999
0.68125695 0.7445755 3.0427949
0.72646487 0.74339825 3.0394981
0.77834576 0.74050868 3.0403776
0.82483679 0.73913527 3.0319858
0.87403035 0.73409641 3.0345564
0.92865348 0.7294367 3.035886
0.97742164 0.72581446 3.0304942
1.0249375 0.72370452 3.0299301
1.0729407 0.72524565 3.0236022
1.1229967 0.7279914 3.0215504
1.1749178 0.72400749 3.0241122
1.2227563 0.72418129 3.018975
1.276705 0.71686089 3.0235462
1.3212488 0.71500045 3.0184989
1.3743316 0.71243787 3.0163066
1.4189234 0.70732433 3.0144532
1.4616201 0.70895702 3.0059249
0.23329949 0.79802454 3.0448849
0.27718151 0.79677951 3.0371001
0.32507014 0.78955257 3.0396631
0.37613401 0.78831089 3.0387857
0.42568219 0.78394389 3.0338717
0.47759187 0.78417695 3.0286744
0.52274895 0.77793211 3.0288441
0.57264906 0.77499074 3.023185
0.62703842 0.77128482 3.01754
0.67118448 0.77116579 3.0173435
0.72072697 0.77063572 3.0139961
0.77428746 0.75901753 3.0200448
0.82705981 0.76561934 3.0091584
0.87377977 0.75723499 3.0072851
0.92249995 0.75280708 3.0101998
0.96131301 0.75374353 3.0044949
1.0008399 0.75511801 3.0000601
-0.158097 0.84303802 3.0432401
-0.12860167 0.84340066 3.045517
-0.072340935 0.83933318 3.0433621
-0.02504685 0.8332451 3.0387268
0.031143896 0.82983917 3.0338647
0.077841267 0.83222616 3.0263581
0.12051418 0.83198965 3.0243101
0.17317474 0.82976371 3.0217412
0.22328793 0.82799822 3.0203774
0.27332935 0.81709576 3.0165634
0.32536101 0.82034755 3.0125175
0.37150216 0.81545973 3.0116768
0.4186278 0.81133592 3.0086479
0.46729201 0.80871797 3.004765
-0.474356 0.8988505 3.048435
-0.42807332 0.89591002 3.0434799
-0.370193 0.8899976 3.0397301
-0.32201734 0.88387531 3.0391433
-0.27627599 0.88740659 3.0275068
-0.22401749 0.87774265 3.0245445
-0.17214616 0.87642294 3.0223949
-0.1292832 0.87065774 3.0202012
-0.076269455 0.86636758 3.0173457
-0.026700411 0.86345237 3.0144651
0.023235496 0.85812294 3.0121841
0.077495798 0.86290902 3.0047066
-2.9296551 0.94580251 3.0408201
-0.70830202 0.94152898 3.0494201
-0.65940452 0.94423354 3.0397701
-0.62463099 0.93730885 3.0338228
-0.57659322 0.92728746 3.0376356
-0.52380508 0.93177533 3.0319469
-0.47475243 0.92677271 3.0241418
-0.4255029 0.92020059 3.0184355
-0.37679511 0.91568851 3.0134971
-0.32206425 0.91225612 3.0147312
-0.27844274 0.9157325 3.0032775
-0.24494199 0.910474 3.00109
-0.15668701 0.90914202 3.0009799
-3.025825 0.98732948 3.030355
-2.9790425 0.97670525 3.0350776
-0.97811353 0.99185151 3.0494552
-0.9098655 0.99266201 3.041255
-0.87222427 0.98962319 3.0360672
-0.81885928 0.98482919 3.0358799
-0.76976222 0.97667003 3.0267007
-0.72084135 0.97419649 3.0208006
-0.67580384 0.96899712 3.0207167
-0.62381667 0.96608019 3.0111768
-0.57431322 0.96183282 3.0102336
-0.54191762 0.95983332 3.0118835
-3.2106199 1.04207 3.01563
-3.1089499 1.0265424 3.0120149
-3.06652 1.0238317 3.0297766
-3.03497 1.02306 3.0494101
-1.2725301 1.04882 3.0395401
-1.2287966 1.0453366 3.0424135
-1.1726316 1.0349299 3.0353234
-1.1239266 1.0312622 3.0287588
-1.07534 1.0270637 3.0290775
-1.0266837 1.0271208 3.0228944
-0.97531492 1.0235883 3.0176799
-0.9291783 1.0160414 3.0164514
-0.87871581 1.0140767 3.0107565
-0.82975465 1.0024832 3.0109332
-0.797436 1.00001 3.0099001
-3.1751735 1.07245 3.0191
-3.1235001 1.0660933 3.0262535
-3.078475 1.080685 3.0461049
-1.55171 1.09969 3.0461099
-1.51934 1.094065 3.0404999
-1.4744849 1.0930774 3.0258825
-1.4266437 1.0828888 3.0324526
-1.37433 1.07649 3.03174
-1.322525 1.073006 3.022527
-1.2719285 1.0707557 3.0150788
-1.2269819 1.0632019 3.0229859
-1.1825175 1.0599051 3.0074501
-1.1288667 1.0574466 3.0025799
-1.0781034 1.0533199 3.0043967
-3.4284599 1.12091 3.0301001
-3.26297 1.13352 3.0090401
-3.2192402 1.1208833 3.0159633
-3.177582 1.1206119 3.0329318
-3.1494999 1.10167 3.0445499
-1.7662001 1.1437399 3.038415
-1.7150419 1.1365099 3.0257478
-1.6714956 1.1290971 3.0328214
-1.6218418 1.1267 3.026742
-1.578028 1.126984 3.01893
-1.525986 1.1134501 3.01968
-1.4759001 1.1123934 3.0019333
-1.43972 1.10931 3.0062301
-1.39016 1.1018 3.0010099
-3.4953401 1.15016 3.0111201
-3.3341 1.1886549 3.01053
-3.266665 1.168825 3.0212274
-3.2306299 1.1565599 3.04229
-2.1752765 1.1929735 3.0385568
-2.13201 1.1898251 3.0406001
-2.0765281 1.1844981 3.0324922
-2.0253572 1.1771414 3.0308945
-1.9737216 1.1821983 3.0231636
-1.9251058 1.1809243 3.0228686
-1.8792583 1.1753601 3.0275099
-1.8244426 1.1656301 3.0220876
-1.7774725 1.165365 3.0132599
-1.745605 1.1608701 3.013535
-1.66848 1.156165 3.0039248
-1.63731 1.15161 3.00314
-3.4044399 1.2442501 3.0083499
-3.3647535 1.2328399 3.0222399
-3.3294899 1.225215 3.0323849
-3.2826052 1.2051649 3.0272701
-2.4630001 1.23717 3.0492201
-2.4153352 1.245255 3.035445
-2.3714399 1.23663 3.03146
-2.3280461 1.2325979 3.029366
-2.2839875 1.2326851 3.0352802
-2.22576 1.2203851 3.0262225
-2.174654 1.2230619 3.0178299
-2.1294034 1.20728 3.0245435
-2.0712299 1.2113333 3.0050299
-2.0208549 1.20946 3.0047851
-1.98307 1.2022099 3.00072
-3.4118335 1.2842168 3.0159132
-3.3774366 1.27466 3.0349267
-2.6754501 1.2917349 3.0375099
-2.6298068 1.2927834 3.0211
-2.5796499 1.28176 3.0263801
-2.5234962 1.2768461 3.0228221
-2.4746141 1.27064 3.017158
-2.4311249 1.2714701 3.0118899
-2.3752098 1.25204 3.013155
-2.320925 1.2603199 3.0060151
-2.2838299 1.25472 3.0090301
-3.5018499 1.32789 3.00019
-3.4694664 1.32616 3.0212467
-3.4322033 1.3295032 3.0346735
-2.97879 1.33797 3.0420251
-2.9161499 1.33496 3.0341799
-2.8769901 1.3281466 3.0358934
-2.8342168 1.3267599 3.0338764
-2.7725253 1.3207424 3.0214
-2.7234397 1.320384 3.0190482
-2.6807899 1.30875 3.0203099
-2.60941 1.31081 3.0007
-2.5589001 1.30404 3.00981
-3.5126765 1.3770766 3.0068567
-3.48613 1.376235 3.0273974
-3.3020201 1.38964 3.0466199
-3.2302799 1.39715 3.0432401
-3.1687899 1.383635 3.0370498
-3.12497 1.37767 3.0467701
-3.0839965 1.37883 3.0252635
-3.0335567 1.3643833 3.0347598
-2.97509 1.3714124 3.0081778
-2.94207 1.3598599 3.02897
-2.8590801 1.35874 3.00425
-3.5682549 1.4347999 3.0059352
-3.5214932 1.42588 3.0112133
-3.4626701 1.4331499 3.0298331
-3.4127901 1.40995 3.0397301
-3.3687866 1.42123 3.0290699
-3.3224399 1.42072 3.0193
-3.2842 1.4126034 3.0325899
-3.2290101 1.433195 3.01052
-3.179085 1.42445 3.01582
-3.1401 1.41599 3.0132899
-3.55621 1.45565 3.00685
-3.3966999 1.46621 3.0027599
0.43777201 -2.46663 3.05339
0.33538699 -2.403415 3.0529251
0.38067499 -2.4101701 3.0569499
0.42870298 -2.4084568 3.06073
0.46280125 -2.4134727 3.0686975
0.28387466 -2.3633602 3.0626934
0.32900786 -2.3734143 3.073487
0.37748522 -2.3883061 3.0772281
0.41795924 -2.3901899 3.0873122
0.48371133 -2.3937299 3.0807667
0.51593536 -2.3661735 3.0630834
0.22637276 -2.3145025 3.065315
0.26727173 -2.3280325 3.0803511
0.3169615 -2.3465152 3.0835452
0.53994048 -2.347465 3.07535
0.5631097 -2.3251631 3.0825598
0.14043434 -2.2610533 3.0608265
0.18403426 -2.2770712 3.0732412
0.22670999 -2.2927251 3.087585
0.58996433 -2.2914102 3.0789196
0.60264599 -2.2554801 3.06195
0.082195655 -2.21769 3.0659802
0.12654388 -2.2285423 3.0781362
0.17299801 -2.24424 3.0934548
0.61610031 -2.2169952 3.0757768
-0.015385031 -2.15944 3.0598433
0.026699841 -2.1744251 3.0736251
0.069494717 -2.1873641 3.086858
0.63875127 -2.1752899 3.0825698
-0.074198999 -2.11237 3.062634
-0.028958911 -2.1279364 3.076129
0.0072878902 -2.14311 3.0936999
0.64905602 -2.1488299 3.0775001
0.66456199 -2.1171999 3.0811749
-0.161281 -2.0523801 3.0613699
-0.12596239 -2.0752239 3.0663364
-0.083497874 -2.0864565 3.0854216
-0.044021901 -2.09676 3.0953701
0.68448651 -2.0648298 3.0694101
-0.2234365 -2.0138497 3.0607052
-0.1815522 -2.027271 3.074564
-0.13942699 -2.0375967 3.0860865
0.68823963 -2.0363133 3.0906565
0.70812774 -2.024785 3.074635
-0.309228 -1.96182 3.0527501
-0.27511674 -1.9685049 3.070106
-0.23057413 -1.9848499 3.0840943
0.728095 -1.9670516 3.0692284
-0.40663701 -1.90037 3.0510199
-0.371411 -1.912908 3.0607219
-0.32632619 -1.9275261 3.0741901
-0.286172 -1.940755 3.091475
0.73775899 -1.93644 3.0906799
0.75657296 -1.91549 3.0763798
-0.45526901 -1.86313 3.0553899
-0.42121673 -1.8654039 3.0674925
-0.37803486 -1.8820986 3.0849602
-0.34306499 -1.8975199 3.0880499
0.76391298 -1.8694717 3.0772831
-0.55152202 -1.80457 3.0514901
-0.51464671 -1.8206016 3.0599833
-0.47221798 -1.828298 3.07377
-0.42870277 -1.8354125 3.0928249
0.77334499 -1.81575 3.0627699
-0.60816097 -1.752815 3.0618849
-0.5715009 -1.7724699 3.0655701
-0.52370083 -1.7851915 3.084357
-0.489209 -1.79176 3.092525
0.78549629 -1.7818075 3.0752001
-0.66929102 -1.7101568 3.0612304
-0.62562466 -1.7236594 3.0751204
-0.57413954 -1.7407274 3.09196
0.80759776 -1.7258575 3.0825925
-0.72151673 -1.6718528 3.0649858
-0.68151826 -1.6785983 3.0806489
-0.63531101 -1.69373 3.0997901
0.81509298 -1.67001 3.0620325
1.13704 -1.6568 3.061085
1.1768333 -1.6656517 3.0667565
1.2152367 -1.6721083 3.0675068
-0.81302166 -1.6161433 3.0585167
-0.77409244 -1.6236122 3.0748889
-0.73521215 -1.63757 3.0838633
0.82766056 -1.6174924 3.0643299
1.03994 -1.60304 3.062185
1.0806729 -1.6244414 3.0651784
1.117848 -1.6356701 3.0738461
1.1675024 -1.64094 3.0928574
1.2271324 -1.6332724 3.078675
1.30556 -1.60131 3.05918
-0.90320998 -1.5583301 3.0538099
-0.86910492 -1.5708137 3.06741
-0.82791072 -1.5793461 3.0820212
-0.79478145 -1.59305 3.0888801
0.83442664 -1.5902767 3.0745966
0.85375249 -1.55582 3.0733249
0.93749899 -1.55128 3.06392
0.98160356 -1.563365 3.0711949
1.0215317 -1.5796949 3.0811002
1.0634999 -1.59707 3.08496
1.2344967 -1.5800567 3.0813468
1.279 -1.55593 3.0567901
1.319046 -1.5750439 3.076596
-0.95763469 -1.5154501 3.0592167
-0.92277801 -1.523085 3.0774033
-0.88102788 -1.5369067 3.0891116
0.86802435 -1.5273514 3.0832944
0.92246532 -1.5194888 3.0777774
0.96552354 -1.530068 3.086638
1.22693 -1.53703 3.07673
1.28488 -1.5463099 3.0779901
1.3408375 -1.5267376 3.0699499
-1.05003 -1.46179 3.0574999
-1.0158639 -1.4721539 3.068665
-0.97536987 -1.4806266 3.0815308
0.88595366 -1.4820133 3.0942233
0.90216303 -1.4899549 3.0867052
1.3589126 -1.4773175 3.07444
-1.1138519 -1.4091499 3.0667739
-1.0713924 -1.4251931 3.0749745
-1.0338275 -1.4348549 3.0874851
1.37421 -1.4254276 3.0846648
2.1905999 -1.41078 3.0954299
2.2054701 -1.40852 3.07955
-1.2155825 -1.3555574 3.058085
-1.1709911 -1.368907 3.0704892
-1.1297925 -1.3820275 3.0806746
-1.08867 -1.38823 3.09624
1.3942267 -1.3784251 3.0797465
2.1495299 -1.35983 3.0874801
2.1989901 -1.38616 3.07744
2.2140801 -1.38415 3.06198
-1.2715443 -1.3121058 3.0627615
-1.2243712 -1.3260955 3.0764356
-1.1827199 -1.3354501 3.09237
1.4122725 -1.330045 3.0701799
-1.35861 -1.2659867 3.0622699
-1.3203845 -1.2768345 3.0718765
-1.275642 -1.287742 3.086684
-1.23994 -1.2946301 3.09705
1.4303633 -1.2735051 3.0794535
2.1305599 -1.2796149 3.06475
2.15837 -1.27112 3.0532
-1.4692125 -1.203665 3.056685
-1.4192932 -1.2168455 3.0683088
-1.37667 -1.2367085 3.0792944
-1.33021 -1.24266 3.0927765
1.4439619 -1.230876 3.0831478
1.45829 -1.20358 3.0617499
-1.52369 -1.160138 3.0604398
-1.4807289 -1.1729287 3.0763922
-1.4393266 -1.1811366 3.0872166
1.46645 -1.168586 3.07411
-1.6076851 -1.1086149 3.0578499
-1.5714675 -1.1217138 3.0716925
-1.5277885 -1.1334128 3.0876331
1.482825 -1.134325 3.0621724
2.18102 -1.13038 3.09635
2.2255402 -1.1480451 3.0629201
2.2860401 -1.1378 3.06144
2.3331199 -1.128436 3.0724778
2.3565049 -1.118305 3.0560699
-1.6735758 -1.060733 3.0684187
-1.6262755 -1.0779945 3.0753899
-1.5853667 -1.09199 3.0925434
1.491025 -1.0812217 3.0710485
1.50843 -1.0572733 3.0734265
2.337137 -1.0873066 3.0882499
2.3675168 -1.0737115 3.0662615
-1.7689266 -1.00445 3.0634501
-1.7212241 -1.021335 3.0747759
-1.68179 -1.0315925 3.0871549
1.34912 -1.00258 3.08653
1.433 -1.0488501 3.0945899
1.49001 -1.01017 3.0599
1.5092701 -1.02675 3.0694933
2.387248 -1.0241439 3.0744359
2.4118268 -1.00894 3.06545
-1.8190733 -0.96829385 3.0618117
-1.7760274 -0.97572839 3.0793326
-1.74108 -0.99085099 3.0933001
1.31796 -0.97133219 3.072118
1.35576 -0.97950298 3.0633299
1.52246 -0.97745073 3.0548463
2.3843501 -0.98590398 3.0959101
2.4307971 -0.97204399 3.0784357
-1.9100367 -0.91838002 3.0574567
-1.8713987 -0.92685062 3.0716763
-1.8340225 -0.94086248 3.0829926
-1.79995 -0.94489598 3.09745
1.2734025 -0.90934074 3.0690973
1.3191757 -0.92828417 3.0770614
2.4474499 -0.93419701 3.0843799
2.4556868 -0.92045635 3.0742867
-2.0046999 -0.85182601 3.0579801
-1.9698056 -0.86359972 3.07177
-1.9292265 -0.88146108 3.0781956
-1.8892733 -0.89363766 3.0904133
1.2798344 -0.87220079 3.0697744
2.4765668 -0.87758684 3.0696449
-2.0695524 -0.81033528 3.061115
-2.02333 -0.82180035 3.0763712
-1.9866099 -0.83788645 3.0868149
1.287825 -0.82057619 3.084245
2.4926119 -0.82822961 3.081496
2.51074 -0.8106634 3.0628567
-2.1517701 -0.75939202 3.0538001
-2.1189435 -0.77043366 3.06758
-2.0780628 -0.77977669 3.080817
-2.0451801 -0.792687 3.0992801
1.2828457 -0.7747308 3.0791442
1.3098966 -0.7829327 3.0571868
2.5248599 -0.77041858 3.0775828
-2.21822 -0.71230298 3.0542099
-2.1715243 -0.72482997 3.0644829
-2.1310768 -0.73332304 3.087368
1.2887039 -0.72129714 3.073566
2.53896 -0.7351265 3.0847499
2.5500801 -0.71725899 3.08427
-2.2692776 -0.66928148 3.0643675
-2.2259748 -0.68270189 3.0751989
-2.1847832 -0.69129997 3.0920231
1.2939501 -0.69490147 3.087105
1.3135101 -0.67377698 3.0725398
2.5613079 -0.68415517 3.0830441
-2.3703258 -0.61512417 3.058676
-2.3249445 -0.61925989 3.0761921
-2.2797415 -0.63778299 3.08447
-2.24049 -0.64916199 3.0975101
1.3382416 -0.63015383 3.0742865
1.35019 -0.60043001 3.08583
2.578325 -0.62883425 3.0728774
-2.468045 -0.55359101 3.05426
-2.4185176 -0.56818873 3.0570426
-2.373004 -0.57772541 3.0750742
1.2245724 -0.56596076 3.090385
1.3659239 -0.57302701 3.0735722
1.7392035 -0.56229132 3.0681965
1.76959 -0.57599199 3.0707901
2.5952432 -0.58271962 3.0804865
2.61204 -0.56019324 3.0629375
-2.5603499 -0.50586498 3.0562601
-2.522275 -0.51713949 3.0590401
-2.47754 -0.53583503 3.05176
-2.34654 -0.54808199 3.0856099
1.222629 -0.52993995 3.0904331
1.25722 -0.51570803 3.09073
1.3323271 -0.5188446 3.0862973
1.3702475 -0.51969761 3.064981
1.7334349 -0.53133422 3.0685425
2.6208401 -0.52764136 3.0724566
-2.6647401 -0.45713201 3.0508599
-2.6216025 -0.46052051 3.0675874
-2.5745342 -0.47225228 3.0777943
-2.5237033 -0.48050368 3.0712833
1.229409 -0.48247352 3.0782039
1.2701161 -0.486036 3.056298
1.3323733 -0.48325703 3.0607765
2.6351717 -0.48163816 3.0740159
-2.7141376 -0.41469848 3.06179
-2.6757851 -0.42882696 3.0726051
-2.6305234 -0.43406367 3.0927067
1.2349833 -0.44183335 3.0588567
1.2548399 -0.40290999 3.076345
2.666676 -0.42846879 3.0714958
-2.7634602 -0.3574965 3.0725002
-2.7301877 -0.37998751 3.0837002
-2.6972599 -0.38854101 3.0962
1.2582924 -0.37562448 3.0767474
2.6889632 -0.37005249 3.0721817
-2.8213749 -0.31693351 3.055505
-2.7808475 -0.32586974 3.0777473
1.2828834 -0.31485233 3.0740469
2.6953549 -0.33376402 3.083045
2.71032 -0.3147465 3.06686
-2.8769674 -0.26810524 3.0686049
-2.829026 -0.29212061 3.0759401
1.2881975 -0.28223899 3.0715923
1.30124 -0.26158899 3.05142
2.71837 -0.28196058 3.0751557
-2.910846 -0.22302718 3.073698
-2.8906901 -0.24569499 3.08481
1.29849 -0.248592 3.08794
1.3134112 -0.2224935 3.0721698
2.7442939 -0.22705939 3.0803502
2.7504301 -0.204283 3.06762
-2.91751 -0.189328 3.08252
-2.89219 -0.168836 3.0566199
1.3300999 -0.17240401 3.0705383
2.7671165 -0.17385666 3.0761731
-3.08745 -0.115401 3.05633
1.3389999 -0.1240615 3.0840549
1.3539 -0.1155495 3.0567198
2.7819622 -0.134413 3.084996
2.8014801 -0.111609 3.05846
-3.2214301 -0.058339301 3.0520699
-3.1791925 -0.067910172 3.0623751
-3.126477 -0.077131741 3.0618534
-3.0882599 -0.096058197 3.0576401
1.34022 -0.080389358 3.083894
1.3592376 -0.073001273 3.0596576
2.7990799 -0.083996199 3.091445
2.8108234 -0.074371301 3.0695765
-3.30336 -0.0191577 3.0611801
-3.2646151 -0.028962549 3.0590949
-3.2147102 -0.028787974 3.0629301
-3.1679699 -0.038443301 3.0689399
-1.9031399 -0.015723299 3.06161
-1.8891801 -0.026633197 3.0621464
1.3619715 -0.034880083 3.070833
2.8288901 -0.027466998 3.0725124
-3.3711898 0.034480765 3.0662568
-3.33255 0.0075199623 3.0653436
-2.7210801 0.037691999 3.0748301
-1.96236 0.00074079202 3.0518501
-1.931375 0.00074665598 3.089515
-1.87745 0.00073993998 3.0722151
-1.65643 0.049150299 3.09863
1.3815676 0.028156489 3.0798225
1.4101675 0.039960276 3.0823398
2.840425 0.00080601254 3.08515
2.8610897 0.032407034 3.0781467
-3.45661 0.082478397 3.0618801
-3.422318 0.070043936 3.072974
-2.68155 0.074009798 3.063
-1.8171333 0.092986465 3.0585899
-1.7740617 0.090130933 3.0736017
-1.7199832 0.087010883 3.0800717
-1.6703457 0.078791246 3.0766442
-1.6276457 0.085341349 3.080786
-1.5707 0.085926592 3.0954666
1.38449 0.075421482 3.0614719
1.4183049 0.063165545 3.0597849
2.87764 0.076845482 3.0777149
-3.5796199 0.13587999 3.06287
-3.54704 0.145767 3.0697
-3.4621499 0.1238875 3.0831425
-3.4305551 0.103025 3.0901499
-2.65185 0.14761101 3.0940101
-2.1509099 0.128205 3.0578001
-2.1180577 0.11594341 3.0652401
-1.81267 0.114416 3.0505199
-1.76362 0.11386549 3.0548601
-1.7260201 0.1135145 3.060185
-1.6728939 0.1222326 3.054184
-1.622695 0.11618625 3.0614376
1.4044 0.142194 3.0873799
2.892875 0.1244815 3.0693722
-3.65417 0.18953399 3.0527599
-3.6245952 0.1786515 3.064115
-3.5792398 0.17791951 3.07862
-3.5378201 0.167008 3.0960801
-2.2292299 0.191504 3.0973899
-2.1792378 0.17584579 3.0824721
-2.1218534 0.17583467 3.0593567
-2.0885448 0.1606455 3.0511999
1.4135799 0.15718301 3.0666699
1.4814301 0.189132 3.0517499
2.89835 0.15381099 3.0916901
2.9064519 0.1765818 3.0782042
-3.6712034 0.22598465 3.0772467
-3.64363 0.211097 3.0787599
-3.5966899 0.20957799 3.0745101
-2.619 0.22814001 3.068475
-2.5997901 0.237956 3.09586
-2.4021001 0.231176 3.0884299
-2.36921 0.2384955 3.079155
-2.3195279 0.228229 3.082052
-2.2718899 0.23217165 3.0742168
-2.2241199 0.213017 3.0663834
-2.1799901 0.21152534 3.0612733
-2.12802 0.20411099 3.0555601
-1.6893101 0.22785899 3.09781
-1.0110899 0.22981019 3.067394
-0.99083 0.23160824 3.0878
1.48814 0.221532 3.0638399
1.52195 0.22286651 3.0745749
2.9295719 0.22653517 3.0648041
-3.7032552 0.26644549 3.089685
-2.6180539 0.27445561 3.0812421
-2.5964999 0.25587699 3.09078
-2.46222 0.28724101 3.0934401
-2.41645 0.283959 3.0694101
-2.3756998 0.27019367 3.0629065
-2.3274601 0.26219499 3.0566001
-1.90732 0.29392302 3.0803366
-1.88668 0.29138201 3.09391
-1.80158 0.263706 3.0953
-1.09603 0.26064101 3.0917399
-1.0230867 0.27279103 3.0713975
-0.97865313 0.26724616 3.07707
-0.94974101 0.27339399 3.09688
1.5387501 0.256239 3.08729
1.5617599 0.273435 3.0934899
2.93905 0.26352367 3.0817966
2.9517801 0.28913701 3.0697801
-2.60039 0.30884799 3.0576899
-2.5427451 0.32536951 3.0714951
-2.473465 0.31322402 3.0715652
-2.4346499 0.31056452 3.056705
-1.965596 0.33335501 3.05586
-1.9234655 0.32735777 3.0724492
-1.88929 0.32503849 3.09551
-1.31025 0.34118599 3.0622101
-1.22076 0.3301475 3.0572748
-1.0519034 0.332809 3.0548232
-1.0259483 0.32361054 3.0807664
-0.98478699 0.30866033 3.0846965
1.5941 0.33763301 3.07514
1.60072 0.33565101 3.05024
2.9465699 0.31950399 3.097265
2.9579282 0.32830018 3.0730281
-2.0431199 0.353645 3.0559499
-1.964638 0.37040299 3.057904
-1.9227359 0.36732599 3.0825241
-1.89107 0.35031801 3.09624
-1.2783366 0.37187567 3.0672169
-1.20848 0.36938 3.0662899
-1.1952 0.38540801 3.0748
-1.10191 0.39490199 3.0501299
-1.0659484 0.38457251 3.0590401
-1.0339638 0.37359577 3.0836112
1.5866201 0.37293375 3.0667477
2.9763801 0.38116598 3.0755932
-3.24505 0.43780899 3.0519099
-3.0357499 0.40837401 3.08745
-2.965955 0.42333549 3.0817299
-2.01267 0.43154898 3.0589964
-1.9774057 0.41777489 3.0771101
-1.2612133 0.42465267 3.0771101
-1.224635 0.41063201 3.0813498
-1.1649934 0.41966367 3.0666635
-1.1241474 0.42985624 3.0616913
-1.0759989 0.42698133 3.0677691
-1.0408 0.4281458 3.0863035
1.57892 0.41302776 3.066505
2.9703522 0.434627 3.0824938
-3.273535 0.46029049 3.0593848
-2.0552299 0.48255 3.0599651
-2.0314875 0.47025537 3.0775962
-1.98555 0.456662 3.09568
-1.27307 0.45280099 3.08881
-1.15333 0.464066 3.0915899
-1.1178117 0.47645101 3.0778916
-1.0722855 0.47391841 3.0825312
-1.037145 0.4681015 3.09585
1.5814972 0.48006457 3.0677187
2.79864 0.49400601 3.0947599
2.8319199 0.49649301 3.0960801
2.8732052 0.48907501 3.0891175
2.923408 0.47787762 3.0772481
2.9714899 0.470606 3.0604432
-3.2720833 0.51029801 3.0926769
-2.11567 0.54150665 3.0613701
-2.0745249 0.52977544 3.0829391
-1.10716 0.51045901 3.09935
1.577968 0.52151078 3.0683999
2.4821501 0.546381 3.09905
2.6342549 0.53874302 3.0929949
2.6830201 0.54294997 3.09711
2.7244821 0.53017598 3.090394
2.768095 0.52789748 3.0732601
2.8163249 0.53075749 3.0650201
2.87149 0.52051777 3.0651975
2.92977 0.50968397 3.058605
2.95871 0.50171697 3.0548699
-2.17693 0.57929647 3.07005
-2.1306684 0.57587582 3.0802472
-2.08776 0.56747103 3.0977099
1.5965199 0.57689351 3.0893698
1.6156374 0.58310574 3.0675652
2.325 0.58438802 3.0636799
2.3824601 0.57748401 3.0798199
2.4220719 0.57896507 3.073174
2.475327 0.57729816 3.0753515
2.5295525 0.57047498 3.075305
2.5782471 0.56960541 3.073606
2.6280599 0.56881028 3.0721223
2.6756575 0.56740355 3.0668826
2.7247498 0.56740099 3.0591733
-2.15745 0.60698199 3.08991
-2.1380799 0.60638398 3.0966401
1.2321949 0.64559352 3.0975451
1.2717633 0.64177734 3.0933201
1.3196784 0.64196616 3.0930216
1.3753901 0.63783151 3.0957751
1.4291238 0.62558651 3.0880613
1.4656233 0.63474464 3.0754602
1.5251698 0.6353057 3.0869732
1.5857999 0.62532401 3.0847077
1.6191688 0.62612051 3.0625651
2.2941401 0.61622798 3.0516601
2.3475399 0.60329503 3.0555999
2.3731501 0.60528702 3.0541
0.62480801 0.69651335 3.0993767
0.67002732 0.69630796 3.0909433
0.71646637 0.69733399 3.0874135
0.78348339 0.69120598 3.090034
0.828973 0.68779427 3.0850549
0.87551832 0.6884383 3.0778799
0.92307657 0.681669 3.0816734
0.97756767 0.6816929 3.0780964
1.0232762 0.67629999 3.0788889
1.0729749 0.68122184 3.0718179
1.1259159 0.67542738 3.0757911
1.1736789 0.67056328 3.0775011
1.223821 0.67238903 3.0711012
1.2734325 0.67290556 3.0677862
1.3273066 0.66947103 3.06299
1.374065 0.6631707 3.0669973
1.41939 0.65594172 3.066345
1.52579 0.660155 3.070585
1.5835466 0.65981865 3.0759401
1.60861 0.664397 3.05952
0.18351501 0.74683833 3.0917933
0.22835033 0.74709839 3.0904369
0.27018338 0.74120522 3.08921
0.32558939 0.74004775 3.0865912
0.37811786 0.73727697 3.0842457
0.42526138 0.73558563 3.0828812
0.47595659 0.73400903 3.078522
0.52956152 0.72815281 3.0800917
0.57620847 0.72381496 3.075006
0.62098658 0.72226024 3.0749388
0.67288947 0.72230077 3.0726576
0.72563171 0.71946144 3.0640786
0.76997405 0.71302223 3.0681925
0.81796998 0.7171306 3.0571961
0.87606072 0.71281993 3.0533049
0.92302424 0.70548499 3.0631351
0.96636993 0.70269203 3.0578632
-0.17510433 0.79377669 3.09319
-0.1225995 0.79294598 3.0917125
-0.07775975 0.79296553 3.0927949
-0.022389701 0.78466195 3.0853639
0.029281326 0.78092682 3.0869234
0.078872293 0.77493054 3.0829847
0.12338038 0.77921617 3.07634
0.1737258 0.77885985 3.0705655
0.22523698 0.77422357 3.061765
0.27134356 0.7717452 3.0611701
0.32331288 0.76446575 3.0590913
0.37273997 0.76394898 3.058814
0.42055967 0.75852901 3.0571034
0.47337472 0.75978255 3.0560775
-2.72174 0.84863502 3.0876501
-2.69995 0.84767801 3.09708
-0.48022032 0.84924835 3.0991633
-0.4208582 0.84256142 3.0926759
-0.3713437 0.83522916 3.0879583
-0.32555601 0.83345503 3.08515
-0.27438438 0.83176965 3.0826449
-0.22513066 0.82967073 3.0718935
-0.17536908 0.82411081 3.0673974
-0.12951256 0.81936991 3.0725682
-0.079270653 0.81620389 3.0671737
-0.025207801 0.8081401 3.0613832
0.02171009 0.80498552 3.05913
0.078454271 0.80389929 3.0590601
0.13023449 0.80734301 3.05582
0.197023 0.80063498 3.0569899
-2.82145 0.89718497 3.0704999
-2.7741151 0.89415455 3.0867751
-2.7374566 0.87681705 3.0885103
-0.65201402 0.88668603 3.0943201
-0.61869699 0.89028311 3.083415
-0.5696398 0.88216519 3.083261
-0.52471036 0.87797523 3.0815611
-0.47673887 0.87616289 3.0695782
-0.43017617 0.87022972 3.0649223
-0.37881261 0.86673737 3.0626237
-0.32393616 0.85920769 3.0636015
-0.28125599 0.85801715 3.0567679
-2.8737521 0.93425596 3.0618939
-2.83164 0.92703003 3.0814965
-2.7857449 0.91700053 3.0953851
-0.91214198 0.94913399 3.09008
-0.87335551 0.94108999 3.0852649
-0.82770067 0.93367338 3.0835984
-0.77397716 0.92834914 3.0759478
-0.73003203 0.92317384 3.0740409
-0.67915696 0.91820067 3.0721397
-0.62891698 0.91467303 3.0633614
-0.56836849 0.90554202 3.0593948
-0.52063203 0.90125567 3.0510333
-3.2421999 0.99778301 3.0946801
-3.12234 0.99917901 3.0774801
-2.97085 0.994991 3.0571799
-2.9235802 0.98304397 3.0713477
-2.8734131 0.97306734 3.0832999
-2.84148 0.96445799 3.0961599
-1.2621 0.995781 3.09706
-1.2142301 0.98940951 3.0899
-1.166352 0.98526984 3.0900741
-1.127368 0.98843879 3.0771642
-1.0775162 0.97751385 3.0813427
-1.0268201 0.97807193 3.0753357
-0.97348011 0.96850473 3.0733571
-0.92732799 0.96880895 3.0685
-0.87190151 0.96233124 3.0591717
-0.82308197 0.9591828 3.0590818
-0.79129499 0.95015299 3.06285
-3.2754099 1.00881 3.07149
-3.22142 1.0204633 3.0799532
-3.1803501 1.02508 3.0603199
-3.0191574 1.0391076 3.0638676
-2.970875 1.0309975 3.0841823
-2.9370301 1.0161999 3.0857
-1.50771 1.0375299 3.09482
-1.45889 1.04024 3.09202
-1.4244001 1.0369741 3.0873921
-1.37314 1.0333427 3.07795
-1.324446 1.024165 3.0728631
-1.2751729 1.020967 3.0726318
-1.2217742 1.0149057 3.0657887
-1.1810321 1.013326 3.0648658
-1.1264433 1.0069233 3.0595233
-1.0736667 1.0016233 3.0567532
-3.0567899 1.0799651 3.0587401
-3.03035 1.0810624 3.0835876
-2.992105 1.07793 3.0961499
-1.86439 1.0997601 3.0957999
-1.7163134 1.08969 3.085387
-1.6810199 1.08496 3.0845633
-1.6216236 1.0841575 3.0785625
-1.5731684 1.0758833 3.0780849
-1.5230937 1.0662149 3.0726938
-1.4757982 1.0667167 3.0652034
-1.4218134 1.0554801 3.0673635
-3.1189837 1.1250579 3.078238
-2.1635301 1.14013 3.0871
-2.1236565 1.1405168 3.0869968
-2.078285 1.1363575 3.0847249
-2.0272484 1.1362067 3.0769634
-1.9777142 1.137782 3.0813222
-1.922094 1.132988 3.0792601
-1.8711849 1.1296149 3.0663083
-1.8236244 1.1250013 3.0641587
-1.7775414 1.1170343 3.0768001
-1.7288525 1.1145275 3.06548
-1.6716267 1.10674 3.0592899
-1.6138901 1.10868 3.0501499
-1.5840249 1.1051099 3.0508099
-3.2236531 1.1816701 3.0646133
-3.1660035 1.1593367 3.0708535
-3.1297166 1.1649866 3.09126
-2.4122734 1.1870166 3.0932333
-2.37586 1.19335 3.08917
-2.335485 1.1867549 3.0887599
-2.2760475 1.1838624 3.0765924
-2.2221599 1.1788321 3.0679379
-2.1698201 1.165465 3.070255
-2.1230125 1.1656799 3.06233
-2.0669498 1.1564801 3.0599849
-1.9721849 1.1593349 3.05354
-1.932945 1.15649 3.0639501
-3.3118899 1.24036 3.06585
-3.2683249 1.2214251 3.0632849
-3.2298374 1.2184074 3.0792575
-3.1866999 1.213565 3.0901852
-2.71644 1.24923 3.0850699
-2.671525 1.24166 3.0855851
-2.6153998 1.2331049 3.0894852
-2.5732868 1.2360934 3.0760033
-2.5195932 1.2328717 3.0727282
-2.4755099 1.2155166 3.0859802
-2.42553 1.2198267 3.07057
-2.3689067 1.21725 3.0589867
-2.3213003 1.2052866 3.0682666
-2.2664852 1.205905 3.0552349
-3.3559501 1.29079 3.0585401
-3.3243873 1.2762001 3.068095
-3.2749403 1.26686 3.0817668
-3.234225 1.28251 3.0931399
-3.01285 1.28306 3.09884
-2.9839699 1.29921 3.0976701
-2.91961 1.2938399 3.0792551
-2.8748751 1.2869999 3.0836701
-2.8230848 1.2865951 3.0764852
-2.7768421 1.2786479 3.0775161
-2.72247 1.2764001 3.065515
-2.6682231 1.2640867 3.0680435
-2.6361651 1.2625 3.070235
-2.56621 1.25622 3.053865
-3.4052348 1.333285 3.0575452
-3.380455 1.33171 3.0710201
-3.330745 1.3243475 3.0788724
-3.2769551 1.315185 3.081835
-3.2318351 1.3300126 3.0854301
-3.1742001 1.3289666 3.0793867
-3.1438751 1.3350201 3.0815449
-3.0806675 1.33096 3.0680523
-3.0311751 1.3196374 3.0805776
-2.9736531 1.3183367 3.0670664
-2.9338 1.30572 3.0738499
-2.82622 1.30309 3.05652
-3.4524801 1.37533 3.05305
-3.4167049 1.37994 3.0539899
-3.3699799 1.363145 3.0692301
-3.3267632 1.3762866 3.0643733
-3.2794363 1.368 3.0677567
-3.2320931 1.36651 3.0678368
-3.1322401 1.36055 3.0604601
-3.43889 1.44196 3.0555201
0.37339151 -2.35975 3.113045
0.42248467 -2.3669789 3.1247828
0.47541589 -2.3795974 3.1275327
0.51458174 -2.3649526 3.1202223
0.28458735 -2.3065567 3.1136696
0.32743299 -2.3236945 3.1215367
0.37413749 -2.3383601 3.1368899
0.41119802 -2.3459201 3.143115
0.53749043 -2.3275878 3.1299682
0.566185 -2.3086865 3.1185033
0.22420001 -2.2659199 3.114645
0.26671934 -2.2791166 3.1298816
0.318627 -2.28988 3.1463799
0.57665741 -2.2739959 3.1278319
0.12907267 -2.20421 3.1087635
0.1753508 -2.221988 3.1247997
0.21256532 -2.2327998 3.1391017
0.59238946 -2.2397749 3.130425
0.60607803 -2.2336299 3.1013801
0.0417585 -2.15172 3.1057401
0.082379036 -2.1652033 3.1185083
0.1292575 -2.1830137 3.1309149
0.16475299 -2.1923499 3.1428051
0.62264228 -2.182205 3.12257
-0.01850239 -2.104435 3.1067848
0.026368046 -2.1221499 3.1209567
0.06782195 -2.1354125 3.1339126
0.64081502 -2.1450601 3.1458001
0.65695155 -2.1217699 3.116595
-0.11205 -2.0574601 3.10533
-0.07387808 -2.0651224 3.1088624
-0.029329598 -2.07476 3.1281924
0.012850456 -2.0859032 3.1375465
0.66547602 -2.0897701 3.1421301
-0.162181 -2.0111699 3.1031799
-0.12677325 -2.0173275 3.1182714
-0.080809273 -2.0351999 3.1323783
0.68510652 -2.01987 3.1263549
-0.22088026 -1.9637876 3.1146026
-0.17931499 -1.9791235 3.1231301
-0.133489 -1.985015 3.143065
0.69755304 -1.992635 3.1356449
0.71286535 -1.9786034 3.12836
-0.31116199 -1.906 3.10462
-0.27506191 -1.9191233 3.1167479
-0.23644757 -1.92994 3.1282356
-0.19658799 -1.94761 3.14362
0.73085701 -1.9249281 3.1176262
-0.36580536 -1.86096 3.1092465
-0.32847658 -1.8755934 3.12503
-0.29057133 -1.8887701 3.1379101
0.74020803 -1.8920799 3.12767
0.76126367 -1.8653635 3.1276865
-0.45798999 -1.80721 3.10495
-0.42186072 -1.8148071 3.1222301
-0.38141209 -1.8310866 3.129972
-0.34561399 -1.84359 3.1424999
0.77683973 -1.8227425 3.12236
-0.52044934 -1.761956 3.1135719
-0.47347799 -1.7754062 3.1258535
-0.43173873 -1.7893699 3.141505
0.78349721 -1.7725301 3.1361127
-0.5676176 -1.71868 3.1186414
-0.52729243 -1.7305585 3.1353686
-0.48463899 -1.74675 3.143435
0.79691201 -1.74798 3.1267099
-0.65745598 -1.66676 3.1090767
-0.61974663 -1.6730182 3.1261299
-0.57942659 -1.6867981 3.1338942
0.789303 -1.69815 3.11233
0.81391197 -1.67547 3.1293499
-0.71759224 -1.6186867 3.1178656
-0.67383784 -1.6305833 3.131691
0.82085502 -1.6365399 3.1244049
1.1302366 -1.61142 3.1100769
1.175015 -1.6160283 3.1132984
1.222963 -1.6173429 3.1290927
-0.82123196 -1.5557499 3.10779
-0.77408266 -1.5729029 3.1204913
-0.73191941 -1.590764 3.1328881
0.83881104 -1.5819401 3.110815
0.86633831 -1.55958 3.1267068
1.03952 -1.5571351 3.1129251
1.0756075 -1.5745087 3.1134002
1.1240933 -1.5810333 3.1334584
1.1661667 -1.58846 3.136903
1.31489 -1.56195 3.1031101
-0.90952802 -1.50359 3.1012299
-0.87561119 -1.51367 3.1141541
-0.82981712 -1.529632 3.1335168
-0.78412336 -1.5468298 3.1379232
0.84636766 -1.5149699 3.1336367
0.87683547 -1.51877 3.113565
0.99029803 -1.5206975 3.1109924
1.0265716 -1.5280633 3.132205
1.07267 -1.543875 3.139905
1.29653 -1.54342 3.11304
1.3234534 -1.5276656 3.1237044
-0.96516103 -1.4616734 3.1085799
-0.92853236 -1.4750299 3.1188433
-0.88397443 -1.4813237 3.1379411
-0.84912503 -1.49586 3.14042
0.86989611 -1.4681216 3.1168983
0.92909104 -1.4740756 3.1235821
0.97072446 -1.489405 3.1333125
1.00615 -1.499 3.1458199
1.3425879 -1.481156 3.1279378
1.3593099 -1.4616101 3.1077151
-1.0202216 -1.418685 3.1125333
-0.97920543 -1.4279366 3.1300223
-0.93534935 -1.4422475 3.14077
0.88401639 -1.427676 3.1360521
0.90902495 -1.4358201 3.1358449
1.3628938 -1.4266001 3.1311381
-1.11274 -1.3637633 3.1061766
-1.075598 -1.369841 3.124064
-1.0310071 -1.3836185 3.1335855
-0.99837899 -1.39891 3.1464701
1.3840725 -1.3723975 3.1180427
2.1896 -1.39184 3.10097
2.21506 -1.3687501 3.110225
-1.20793 -1.31185 3.1038001
-1.1713088 -1.318505 3.1203964
-1.1308849 -1.328764 3.1323941
-1.089185 -1.3415899 3.1435499
1.39916 -1.34141 3.10606
1.4090276 -1.317665 3.1151648
2.19538 -1.34048 3.1294701
2.2097049 -1.3252001 3.1378751
-1.31051 -1.2502199 3.1036799
-1.2756516 -1.2623285 3.1124701
-1.229244 -1.27584 3.124799
-1.18765 -1.28539 3.1384678
1.417734 -1.276052 3.1272359
-1.3735234 -1.2111167 3.1100817
-1.3232613 -1.2204522 3.1251454
-1.276782 -1.2359699 3.1371701
1.435858 -1.217702 3.1243219
-1.46084 -1.1598051 3.1069851
-1.4175714 -1.1700885 3.1146858
-1.3750978 -1.1798811 3.131649
-1.3336101 -1.19023 3.1344399
1.4485101 -1.18975 3.13573
1.4612384 -1.1725017 3.1248982
-1.5167099 -1.1145725 3.1152401
-1.47472 -1.127568 3.126513
-1.427386 -1.140234 3.1381941
1.475945 -1.1264633 3.1277933
2.22768 -1.14511 3.1258099
-1.614985 -1.0566375 3.1089725
-1.5709851 -1.071545 3.125731
-1.5309449 -1.08824 3.1327918
-1.49577 -1.092495 3.14043
1.42489 -1.05501 3.1190701
1.4786533 -1.0896467 3.1146135
2.3253751 -1.0795726 3.1181049
2.35671 -1.0579801 3.1317449
-1.6655368 -1.0170983 3.1129048
-1.6237837 -1.0252975 3.1305888
-1.5823568 -1.0342432 3.1447232
1.34215 -1.01572 3.1357551
