ply
format ascii 1.0
comment PCL generated
element vertex 1514
property float x
property float y
property float z
element camera 0
property float view_px
property float view_py
property float view_pz
property float x_axisx
property float x_axisy
property float x_axisz
property float y_axisx
property float y_axisy
property float y_axisz
property float z_axisx
property float z_axisy
property float z_axisz
property float focal
property float scalex
property float scaley
property float centerx
property float centery
property int viewportx
property int viewporty
property float k1
property float k2
end_header
0.97601336 -0.93376946 3.5930884
1.0213801 -0.92295229 3.5861757
1.0771539 -0.92000675 3.585484
1.124758 -0.92738545 3.588778
1.1771101 -0.92708248 3.5819199
1.2223375 -0.92718327 3.5701423
1.2630625 -0.93061155 3.573185
-1.20704 -0.85536897 3.55581
-1.1702257 -0.8691144 3.5674686
-1.1241329 -0.88115734 3.5850487
-1.0876499 -0.89546102 3.5978
0.9822678 -0.8717894 3.5813487
1.0211467 -0.87886333 3.5611432
1.06174 -0.88655901 3.558265
1.12784 -0.88965797 3.55531
1.1718167 -0.89601868 3.5713866
1.22795 -0.89767736 3.5633767
-1.2778301 -0.80881405 3.5576198
-1.2303045 -0.82330108 3.5734401
-1.18304 -0.83814025 3.5898025
0.99817699 -0.84991699 3.57463
1.00695 -0.83208251 3.5757251
-1.379115 -0.75473404 3.5594802
-1.32128 -0.76946503 3.5689273
-1.2760483 -0.77794379 3.5815268
-1.23695 -0.79172498 3.5990601
1.0277966 -0.7732057 3.5821035
2.34552 -0.77155203 3.5648701
-1.45382 -0.70212001 3.55265
-1.416216 -0.7103222 3.569078
-1.3786114 -0.723719 3.5784841
-1.342 -0.73335391 3.5887401
1.03922 -0.71476799 3.5764751
-1.516915 -0.6564697 3.5637226
-1.4740885 -0.66940397 3.5718875
-1.4258751 -0.67889851 3.5883868
-1.3893 -0.68779099 3.59725
1.0584 -0.66975528 3.5735035
2.406395 -0.65581399 3.5738349
-1.5761601 -0.61619771 3.5682189
-1.5311416 -0.62503183 3.5857232
-1.48689 -0.63645601 3.5938799
1.0800101 -0.61567903 3.56901
2.4279635 -0.62393737 3.576617
-1.6640749 -0.56513405 3.5529451
-1.6211013 -0.57514375 3.5741386
-1.5759749 -0.58451599 3.590255
-1.24026 -0.58657998 3.5813501
1.10277 -0.56548101 3.5883601
2.4452648 -0.5683465 3.582675
2.4616225 -0.57250553 3.5650775
-1.75778 -0.51377499 3.55177
-1.72145 -0.52306485 3.5657101
-1.6785715 -0.5345667 3.5782187
-1.6468451 -0.54104996 3.5883799
-1.2230749 -0.52956951 3.5659351
1.09857 -0.52807897 3.57898
1.1044633 -0.52808696 3.5776331
2.4786658 -0.52286959 3.5848339
2.50948 -0.51924562 3.5597732
-1.7671261 -0.47951379 3.57476
-1.7294786 -0.48459455 3.5869083
-1.69073 -0.49725199 3.59547
1.1248584 -0.47513416 3.5778229
2.4999599 -0.48129401 3.5915501
2.51228 -0.4697645 3.5696402
-1.8784834 -0.41330934 3.55176
-1.75525 -0.42762041 3.582674
-1.31343 -0.40919399 3.5864799
-1.2697999 -0.44205901 3.5706
-1.20495 -0.40269199 3.5534101
-1.166618 -0.40979061 3.5632999
-1.1283933 -0.40833232 3.5700102
-1.0818076 -0.40692326 3.5817223
-1.0300699 -0.420389 3.5952301
1.1301301 -0.424986 3.5794418
2.5350025 -0.42598325 3.576215
-1.90826 -0.38032201 3.5537901
-1.8738799 -0.3882615 3.5524199
-1.7214041 -0.37863579 3.5892379
-1.67127 -0.36585301 3.5890651
-1.62666 -0.3640635 3.5847549
-1.578465 -0.36695901 3.5823774
-1.5233561 -0.37611818 3.5911479
-1.4740201 -0.3700884 3.5813141
-1.4214916 -0.36947784 3.5780418
-1.379145 -0.37531051 3.5887499
-1.3256328 -0.37197727 3.5692201
-1.119495 -0.3828885 3.5537949
-1.0816901 -0.381841 3.55232
-1.0198849 -0.39017028 3.5618324
1.139995 -0.38616002 3.5739999
1.15907 -0.360223 3.5760999
2.56058 -0.37516901 3.5800235
-1.6688275 -0.34058151 3.5627599
-1.621012 -0.33260441 3.5606399
-1.571625 -0.33277151 3.5576127
-1.5270621 -0.33387321 3.5642343
-1.47953 -0.33923101 3.55762
-1.426865 -0.33734101 3.551995
-1.35903 -0.33594999 3.5562999
1.18111 -0.32624051 3.5876501
2.5774767 -0.32141748 3.5743067
1.1942459 -0.284879 3.57795
1.20767 -0.264355 3.5847001
2.593915 -0.27172551 3.5804148
2.6069851 -0.27098548 3.5581501
1.18908 -0.246492 3.5876801
1.20392 -0.245911 3.5745599
2.6160815 -0.22171301 3.5802119
2.642 -0.181389 3.5704899
2.66136 -0.16107801 3.5572701
1.27338 -0.0167946 3.5587201
1.2756757 0.023540284 3.5729287
2.6885099 0.00089252501 3.55653
1.2159333 0.083482362 3.5970566
1.26932 0.077595063 3.5831966
1.13359 0.141836 3.598
1.1690167 0.14185201 3.5894601
1.235478 0.1319426 3.5925338
1.2766844 0.12236842 3.5819144
1.30694 0.13686267 3.5774434
0.89029998 0.19171999 3.59057
0.9268043 0.19208668 3.5905235
0.97254503 0.19252399 3.58968
1.0223925 0.18850349 3.58602
1.0734183 0.18464518 3.5849485
1.1266834 0.17597266 3.5748258
1.1732632 0.17596267 3.5622966
1.2159966 0.173741 3.5663016
1.2756133 0.17212868 3.5798433
1.306686 0.1745376 3.5718861
0.43161431 0.23980398 3.5931098
0.4753015 0.24029401 3.59624
0.51814336 0.24032234 3.5920401
0.56953281 0.23177232 3.5867083
0.62133598 0.23191367 3.582468
0.66953176 0.23373099 3.5770581
0.72643042 0.22896671 3.5790083
0.77752572 0.236812 3.5679226
0.82597995 0.22323264 3.5745711
0.87972105 0.22741798 3.5670459
0.9210847 0.22049013 3.5669653
0.97252738 0.22094227 3.5640316
1.0237025 0.213146 3.557045
1.07412 0.209351 3.55516
1.12107 0.20999765 3.5555098
1.2674 0.239044 3.5628951
0.072636671 0.28927466 3.5886633
0.12329667 0.2888 3.5815766
0.1777318 0.282287 3.5836701
0.22835359 0.28195181 3.5771117
0.27549002 0.27998349 3.5709801
0.3263565 0.28003633 3.5685368
0.38022688 0.27014014 3.5741115
0.42911199 0.263841 3.570735
0.4804945 0.26408234 3.5689516
0.52772748 0.26007974 3.5673525
0.58245867 0.25561365 3.5576231
0.62532902 0.25576198 3.554065
0.67025834 0.25669035 3.5609035
-0.26792768 0.34169734 3.5952733
-0.225207 0.34152851 3.5955901
-0.18187468 0.34011969 3.5824401
-0.12856928 0.32797831 3.5848415
-0.079811774 0.32415801 3.5741389
-0.031237951 0.32045874 3.5806839
0.01953306 0.32009703 3.576685
0.072124667 0.31254783 3.5623381
0.1194904 0.31132701 3.5667019
0.16914125 0.30853474 3.5620925
0.22360265 0.30384764 3.5543299
-0.56219 0.39609101 3.5964401
-0.51834548 0.39540452 3.59497
-0.46882975 0.38916001 3.5821948
-0.41990152 0.38305232 3.5698216
-0.36807632 0.37649381 3.5659654
-0.32714644 0.37634042 3.5715573
-0.27477983 0.36509815 3.571928
-0.22849619 0.36588341 3.565166
-0.1850635 0.35930449 3.5607002
-0.12986065 0.35407865 3.5525563
-0.0793183 0.353744 3.55019
-0.028907901 0.35386401 3.55182
-1.1063 0.44200599 3.59741
-1.08169 0.404098 3.5815899
-0.93904102 0.438007 3.5989499
-0.81444168 0.43943867 3.5841701
-0.77107263 0.43486786 3.5773566
-0.72648138 0.43323988 3.5769174
-0.67258996 0.43289098 3.5791531
-0.62577361 0.4305256 3.567975
-0.57570118 0.41916814 3.56932
-0.52687603 0.41665959 3.5681062
-0.47040269 0.40815631 3.5594566
-1.1097701 0.45746151 3.5764699
-1.0779325 0.47889251 3.5777102
-1.02349 0.48374137 3.5789719
-0.96889025 0.47370926 3.5778923
-0.92225367 0.46825728 3.5815756
-0.87289095 0.46580115 3.5745232
-0.83386075 0.46344939 3.5673099
-0.78435302 0.46417901 3.5536301
-0.67792201 0.46178001 3.55109
-1.02309 0.50631362 3.5619833
-0.98592001 0.50513297 3.5611999
1.6136967 -2.6584332 3.6147001
1.62895 -2.6259074 3.6320801
1.6508501 -2.61023 3.6342599
1.6646399 -2.59799 3.6089799
0.48044801 -1.9156001 3.6127801
0.52274108 -1.9169763 3.6249487
0.56812799 -1.9200598 3.6195467
0.34378701 -1.85274 3.6020701
0.37386751 -1.8626 3.61884
0.42493525 -1.8720338 3.62696
0.46263051 -1.888365 3.63816
0.59236228 -1.8836999 3.635855
0.62092364 -1.8712981 3.61641
0.277022 -1.8078001 3.6073151
0.3295542 -1.819734 3.6274719
0.37472227 -1.838825 3.6393375
0.403593 -1.8413849 3.64186
0.63391399 -1.8420399 3.6385901
0.65610236 -1.8207067 3.62275
0.23738119 -1.767288 3.6180024
0.27595201 -1.7797461 3.6321177
0.30684701 -1.7909751 3.63925
0.66519368 -1.7789899 3.6362782
0.135557 -1.71495 3.6052201
0.17575273 -1.7220688 3.6244023
0.2188876 -1.7354839 3.635592
0.68394399 -1.739115 3.6278751
0.71121025 -1.7181101 3.6259601
0.083526999 -1.661204 3.6120541
0.12656917 -1.6818167 3.6275752
0.16440299 -1.69064 3.645225
0.72291797 -1.6657875 3.62971
-0.01208715 -1.61834 3.6081748
0.027205607 -1.6185544 3.6186314
0.076483019 -1.6355699 3.6408401
0.73510599 -1.64296 3.6252
-0.0667198 -1.56497 3.60638
-0.032710761 -1.5748887 3.6234212
0.015373072 -1.5891299 3.6378651
0.74796999 -1.59331 3.6077099
0.76912653 -1.570915 3.6267948
-0.15708999 -1.5032901 3.6059599
-0.11861157 -1.5212401 3.6145687
-0.076134667 -1.5338765 3.6313019
-0.048957601 -1.54079 3.6478801
0.78666276 -1.52245 3.6347897
0.80283499 -1.5179 3.6205599
-0.210811 -1.46228 3.6040101
-0.17048956 -1.4707286 3.6264603
-0.13377567 -1.4881867 3.6366899
0.81913602 -1.47693 3.6198399
-0.27091399 -1.4132932 3.6141403
-0.22756413 -1.429585 3.629895
-0.193893 -1.4433849 3.6340351
0.81966001 -1.441 3.63432
-0.35344899 -1.36443 3.6036501
-0.32141274 -1.3737363 3.6240001
-0.27826634 -1.3896667 3.6398766
-0.24861901 -1.39898 3.64818
0.84856802 -1.3908499 3.60478
-0.42277583 -1.3157071 3.6124327
-0.3732174 -1.3348129 3.6300545
-0.52259254 -1.2528801 3.6078248
-0.47696429 -1.2702245 3.622277
-0.43592975 -1.2882224 3.6333725
-0.56739128 -1.2081125 3.6147101
-0.53089637 -1.2229213 3.6268637
-0.49296698 -1.23691 3.6410666
-0.65543199 -1.16064 3.60623
-0.61325127 -1.1705686 3.6172256
-0.58012098 -1.1888067 3.6235435
-0.71969879 -1.1176641 3.6071041
-0.6757617 -1.128989 3.6257291
-0.63209951 -1.1400125 3.6362624
1.2326432 -1.1089967 3.6120434
1.2774049 -1.1255167 3.6113431
1.3165419 -1.127372 3.620568
-0.81643802 -1.05367 3.6076801
-0.77619284 -1.0675584 3.6187084
-0.7322461 -1.0804372 3.6293943
-0.68939972 -1.0897199 3.6425934
1.133275 -1.0627301 3.6004701
1.1676825 -1.0692074 3.6153674
1.2227057 -1.0733913 3.6314943
1.2756751 -1.09241 3.6349349
1.317775 -1.0780375 3.6425352
-0.86723852 -1.0064075 3.6166551
-0.82256573 -1.0249687 3.6319187
-0.78651398 -1.04346 3.6445601
0.94272 -1.03518 3.6140251
1.09341 -1.0141 3.60868
1.1282901 -1.0168976 3.61075
1.1688499 -1.0245466 3.6296799
1.2154001 -1.024225 3.6410387
1.2766575 -1.01642 3.62519
1.3018399 -1.03557 3.6356001
-0.96062702 -0.96555299 3.60482
-0.91802555 -0.97408676 3.6152027
-0.88099915 -0.97573537 3.6356499
-0.84103 -0.99002302 3.64921
0.94479251 -0.98334098 3.6340649
1.0426632 -0.95807475 3.6002901
1.0822134 -0.97598249 3.6117852
1.1246333 -0.97272938 3.6137183
1.173524 -0.97391617 3.6111259
1.2243149 -0.98834753 3.6246948
1.2654381 -0.98022586 3.6115577
-1.0172274 -0.91897273 3.61392
-0.97754991 -0.93032897 3.6265991
-0.93223304 -0.94071561 3.631918
0.94626099 -0.93966401 3.6492901
0.96124166 -0.91888863 3.6123199
-1.116815 -0.86136949 3.605655
-1.0719475 -0.87890637 3.621315
-1.0274234 -0.88817483 3.6341183
0.95263737 -0.87472129 3.61184
-1.20091 -0.80970901 3.6052499
-1.17045 -0.81826276 3.6182239
-1.1304772 -0.83398658 3.6241214
-1.0906533 -0.84260005 3.64026
0.97208595 -0.82239556 3.6239154
1.00696 -0.80378598 3.6159201
-1.2646633 -0.76393533 3.6082399
-1.2234299 -0.77651614 3.6200402
-1.174206 -0.78830183 3.6354339
0.99491799 -0.79057097 3.6444299
1.0183401 -0.769885 3.6287951
2.29898 -0.75604397 3.6213601
2.3322401 -0.7571125 3.6103148
-1.35147 -0.70506102 3.6009099
-1.3215365 -0.71885711 3.6174171
-1.2778962 -0.72954673 3.6284926
-1.2379251 -0.74365652 3.6396852
1.033325 -0.7319845 3.62042
2.3075099 -0.73886198 3.6382699
-1.4506 -0.65470099 3.6031599
-1.42483 -0.65539199 3.61549
-1.3750175 -0.67033303 3.6223035
-1.3297149 -0.67913455 3.6369486
-1.2881733 -0.676476 3.6327066
1.04425 -0.6886 3.6321199
1.0631599 -0.66236597 3.63533
-1.5183166 -0.60897034 3.6070766
-1.4729825 -0.61869043 3.6193061
-1.4246714 -0.62690204 3.6379497
-1.373855 -0.63885099 3.644165
-1.271405 -0.61978054 3.6110148
-1.24782 -0.608069 3.6008699
1.071924 -0.62178099 3.6316361
2.4302201 -0.61210203 3.6166601
-1.6108299 -0.55047601 3.6019299
-1.5713085 -0.56350797 3.6134932
-1.5215663 -0.56661057 3.6309226
-1.4819549 -0.58246624 3.640085
-1.2708668 -0.57454467 3.6152298
-1.22788 -0.57544851 3.632935
1.0832975 -0.57811946 3.6173625
2.4285667 -0.56892604 3.6270466
-1.6519901 -0.51510698 3.6028099
-1.624245 -0.52426594 3.6113248
-1.5782017 -0.52425414 3.6272516
-1.5322676 -0.52426922 3.6428776
-1.22717 -0.53009951 3.6360099
2.444715 -0.5225625 3.629385
2.4604599 -0.50154698 3.61379
-1.71644 -0.46231601 3.60778
-1.6735699 -0.47749662 3.6129737
-1.6298633 -0.47984552 3.6288497
-1.580429 -0.47885719 3.6373465
-1.5322951 -0.47821414 3.6478817
-1.4782701 -0.45729601 3.64486
-1.426055 -0.45523101 3.64258
-1.37312 -0.45278898 3.6365936
-1.33421 -0.45189199 3.63989
-1.2651999 -0.46788651 3.6391602
-1.218895 -0.46396351 3.6181002
-1.1765918 -0.47387314 3.6358216
-1.124595 -0.46822748 3.63922
-1.0712366 -0.46657667 3.6252401
1.1112167 -0.48067132 3.6260967
2.4856033 -0.47698936 3.6261866
2.5093801 -0.46294299 3.6073201
-1.7222128 -0.42803842 3.6101456
-1.6734962 -0.42205262 3.6182685
-1.6266233 -0.42355999 3.6270599
-1.5729744 -0.42154285 3.6255298
-1.5241324 -0.4298625 3.6329298
-1.474582 -0.42950138 3.6280022
-1.4232481 -0.42359361 3.6225638
-1.3764575 -0.42382926 3.621495
-1.32988 -0.43087649 3.61607
-1.26499 -0.44661099 3.6122501
-1.2209321 -0.43775803 3.6092937
-1.1683966 -0.44386935 3.6131432
-1.11799 -0.43266922 3.6054699
-1.068864 -0.43386501 3.6116538
-1.04031 -0.442294 3.6293299
1.11443 -0.42619035 3.6211398
2.5239317 -0.42447916 3.6255667
-1.6782451 -0.38579601 3.60256
-1.63674 -0.3846795 3.6054649
-1.573455 -0.38266248 3.6057649
-1.50349 -0.39929199 3.6108301
-1.473375 -0.398514 3.61256
-1.44412 -0.39794499 3.6159899
-1.3782099 -0.39462101 3.60221
1.14301 -0.37241 3.6149399
1.15521 -0.35567302 3.624665
2.5451901 -0.364346 3.6273601
2.5541601 -0.37434602 3.6187601
1.1691201 -0.3205792 3.6304319
2.564656 -0.32875258 3.6333358
2.5813534 -0.27666631 3.6168365
2.5767698 -0.24269849 3.6192
1.23514 -0.053017102 3.6447048
1.26659 -0.089232698 3.64979
1.23036 -0.023074701 3.6404934
1.25755 -0.034942102 3.62447
1.2294649 0.018690096 3.6282117
1.2540751 0.027587701 3.614485
1.10912 0.089831203 3.6434801
1.1896666 0.083726339 3.6149199
1.2282068 0.060163498 3.6145499
1.258 0.0676625 3.6112976
0.94158798 0.142152 3.64972
0.97630471 0.14205901 3.6400268
1.02255 0.14234251 3.6377649
1.0730585 0.13014428 3.6402099
1.1171086 0.12487815 3.6241243
1.18964 0.11656474 3.623955
1.22175 0.11622525 3.6039951
0.483946 0.18548767 3.6421499
0.52505666 0.19151999 3.6423633
0.57850301 0.19198333 3.6450167
0.63424873 0.18740025 3.6334724
0.67796075 0.18464501 3.6244037
0.73285437 0.18711199 3.6423233
0.77299815 0.18404667 3.6328599
0.82424879 0.18003614 3.6190145
0.87598699 0.17841882 3.6194851
0.9219135 0.16587619 3.629956
0.97128391 0.16765584 3.6204386
1.0199181 0.16580699 3.6077423
1.0803267 0.15941234 3.6090298
0.082405746 0.242211 3.64926
0.136733 0.23598166 3.6408768
0.17344421 0.23479322 3.6390362
0.22827402 0.23458281 3.633292
0.27916101 0.23226701 3.62131
0.328372 0.22873257 3.6206741
0.37443927 0.22423975 3.6243675
0.41888598 0.21641065 3.6334636
0.47030234 0.21626101 3.6258533
0.52249867 0.21644282 3.6235268
0.57410437 0.20778 3.6167467
0.62605304 0.20783199 3.6109533
0.68222195 0.212164 3.6031301
0.71602702 0.208903 3.6170299
0.76904505 0.21350124 3.612915
-0.25430799 0.29452801 3.64869
-0.167752 0.29420701 3.6482401
-0.12925701 0.28609639 3.6346321
-0.081093155 0.28425568 3.6340334
-0.029415535 0.28277835 3.6155431
0.024076419 0.27698839 3.6243651
0.073345639 0.26644316 3.6261137
0.12439951 0.26567331 3.6143818
0.171271 0.26121402 3.6102774
0.22247276 0.26116601 3.6073499
0.27775934 0.25670099 3.6016867
0.32968131 0.25727832 3.6063602
-0.52481747 0.34822351 3.6438699
-0.47164199 0.347417 3.6406751
-0.42747769 0.33805466 3.637845
-0.3778162 0.33864599 3.6295419
-0.31983015 0.33285001 3.6298814
-0.27018902 0.31876135 3.6273615
-0.22151498 0.31626698 3.620702
-0.17964961 0.31844959 3.607924
-0.140405 0.30824849 3.6102152
-0.0804241 0.30749699 3.6026299
-1.07959 0.356581 3.64183
-0.820243 0.38719901 3.6415901
-0.77800673 0.3784022 3.6315904
-0.72903925 0.38099852 3.6387649
-0.66997451 0.37970853 3.6344926
-0.6220116 0.3804501 3.6271825
-0.58303916 0.38472539 3.6183281
-0.53256357 0.37556413 3.6171784
-0.48133183 0.36980182 3.619524
-0.42489532 0.361848 3.6143501
-0.3826575 0.36252099 3.6245899
-0.31991601 0.35973799 3.6010001
-1.0762428 0.4314706 3.6242568
-1.0217284 0.43467602 3.6306498
-0.96839952 0.42441186 3.63011
-0.92290878 0.42336959 3.6297097
-0.8742094 0.41967824 3.6254923
-0.82990742 0.41658884 3.6174538
-0.78128898 0.40793782 3.6107781
-0.72014129 0.40465751 3.6143975
-0.67635524 0.40445575 3.6188076
-1.0615251 0.459355 3.6035099
-1.02574 0.45910949 3.609365
-0.997078 0.458078 3.6069
1.6244634 -2.6114433 3.6782732
1.67366 -2.6245699 3.6975999
0.47844127 -1.8661574 3.66081
0.52309871 -1.8724744 3.6682537
0.57457966 -1.8677801 3.667783
0.34622499 -1.80988 3.65188
0.37944269 -1.8120102 3.6688068
0.42775753 -1.8232224 3.6775475
0.47152832 -1.8386301 3.6831367
0.51531601 -1.84092 3.6984248
0.58211499 -1.8398234 3.68787
0.62025237 -1.8233551 3.6645281
0.288086 -1.7632 3.65237
0.3302905 -1.7731687 3.67593
0.37328133 -1.7876734 3.6812832
0.63762546 -1.7862999 3.687525
0.65357751 -1.7587149 3.67454
0.23111799 -1.71667 3.6627226
0.27225539 -1.7273849 3.6773589
0.31862402 -1.7389801 3.6930599
0.67953616 -1.7248261 3.6795781
0.70739698 -1.70347 3.6673
0.1269915 -1.65131 3.65539
0.17714086 -1.6742771 3.6700385
0.22244476 -1.6802526 3.6913724
0.70811701 -1.6769 3.6818349
0.087901354 -1.612972 3.6669183
0.12553219 -1.6236919 3.6805339
0.15609699 -1.64636 3.6916299
0.72925055 -1.6251687 3.6781428
-0.0122611 -1.5636801 3.6524
0.027315289 -1.5653399 3.6701729
0.069423601 -1.5828401 3.6864257
0.74249899 -1.58428 3.68911
0.76277572 -1.572675 3.6707225
-0.103892 -1.50157 3.6531701
-0.076530755 -1.5040751 3.6597149
-0.028462838 -1.5281576 3.674135
0.015402645 -1.5365701 3.6879151
0.77561665 -1.51872 3.6801732
-0.11730928 -1.4687144 3.6741512
-0.076817751 -1.4812975 3.6803749
-0.049325202 -1.49445 3.6874499
0.78831929 -1.47543 3.6934602
0.81211299 -1.4607 3.6874199
-0.2220315 -1.40335 3.6608748
-0.1749095 -1.4254887 3.6738534
-0.13655725 -1.4336225 3.6893625
0.81167698 -1.42255 3.6973701
-0.302827 -1.36099 3.6515701
-0.26782459 -1.3640701 3.6729
-0.23185684 -1.3760843 3.6804798
-0.1870935 -1.396255 3.697315
-0.37060726 -1.3098875 3.6579123
-0.32184023 -1.3280822 3.6703568
-0.28662801 -1.34271 3.68521
0.84222299 -1.3367701 3.68296
-0.42698798 -1.2637714 3.665664
-0.37906832 -1.2786242 3.6798356
-0.33225101 -1.29661 3.6939402
0.87519002 -1.29345 3.6689999
-0.50085402 -1.21136 3.66189
-0.47333202 -1.229544 3.6721439
-0.43494219 -1.2301919 3.6896141
-0.30307499 -1.23428 3.6879599
-0.57011175 -1.1689099 3.6612384
-0.52243662 -1.1801325 3.6768239
-0.48481801 -1.19828 3.6837699
-0.62400103 -1.1140329 3.6655698
-0.58072388 -1.1297066 3.6832101
-0.54045099 -1.1461 3.69906
-0.71661234 -1.0585667 3.6639767
-0.67545199 -1.0717626 3.6769574
-0.63413024 -1.0836899 3.6903973
1.24863 -1.05607 3.6540201
1.2802651 -1.0684875 3.6547749
1.3113101 -1.08035 3.65324
-0.80617797 -1.0095 3.6568899
-0.76867765 -1.0263776 3.6636951
-0.72477484 -1.03449 3.6797903
1.24808 -1.03708 3.6566999
1.26888 -1.03892 3.65802
-0.86688805 -0.96202534 3.6589034
-0.82527202 -0.97503155 3.6769347
-0.78100222 -0.98554325 3.6911213
-0.96050102 -0.90219301 3.6543751
-0.918616 -0.91444921 3.674495
-0.87967098 -0.9353568 3.6819141
-0.83929455 -0.9441005 3.6936851
-1.02153 -0.86327356 3.6641617
-0.97450501 -0.87047172 3.678057
-0.93040705 -0.88985348 3.6886799
-1.1181999 -0.814991 3.6512301
-1.072716 -0.82303965 3.6733251
-1.0266566 -0.83117062 3.68905
-0.99653101 -0.83743101 3.69521
-1.21312 -0.76333201 3.6510999
-1.1733351 -0.76859373 3.6641176
-1.1239477 -0.7826947 3.6761599
-1.09124 -0.78537899 3.6971099
0.9774645 -0.7783857 3.6647866
1.007195 -0.75709248 3.6605
-1.261515 -0.71039605 3.65628
-1.2178628 -0.72452849 3.6719398
-1.1799533 -0.736862 3.6852701
-1.14568 -0.74856001 3.6890099
1.0120919 -0.72683221 3.676564
2.3704865 -0.72120166 3.6705468
-1.3182549 -0.65670949 3.655025
-1.2697258 -0.67358398 3.6734529
-1.2292982 -0.68400627 3.6928551
1.05659 -0.65146399 3.6816599
2.3554499 -0.68703198 3.68097
-1.4168999 -0.60507751 3.6549699
-1.3715299 -0.61446482 3.668648
-1.3267214 -0.62491232 3.6711483
-1.2672167 -0.63573301 3.6937568
1.0601467 -0.63184369 3.6742232
-1.4682575 -0.5566625 3.6608474
-1.4274464 -0.57210511 3.6666076
-1.3760457 -0.570409 3.6864879
-1.3267499 -0.57819128 3.6893625
-1.230275 -0.57601202 3.6999149
1.0732975 -0.58277923 3.6816425
1.10317 -0.55693603 3.65484
-1.504945 -0.52437198 3.652575
-1.472442 -0.5264352 3.6644561
-1.4274721 -0.52245939 3.6764901
-1.39475 -0.52445853 3.6872602
-1.3177201 -0.52937138 3.67518
-1.280962 -0.52409601 3.6734061
-1.2210933 -0.51895434 3.6684048
-1.1768112 -0.52806813 3.6845148
-1.126402 -0.5111202 3.6692822
-1.0914 -0.50270098 3.66887
1.0857176 -0.52788895 3.6809776
1.1030799 -0.52092236 3.6587169
2.437305 -0.54786646 3.67856
2.4592052 -0.5198375 3.6940999
-1.5026335 -0.47756767 3.65189
-1.470336 -0.4802956 3.6536319
-1.4237933 -0.48494503 3.6601651
-1.3734651 -0.48333675 3.6616149
-1.326278 -0.48326057 3.6590919
-1.2818933 -0.48280767 3.6574466
-1.23212 -0.48707998 3.6555948
-1.115885 -0.48364499 3.6564102
-1.07458 -0.48522899 3.67869
1.0941825 -0.46894526 3.6833272
1.10695 -0.48664099 3.6755199
2.4802969 -0.47444367 3.6745701
-1.0343699 -0.41152301 3.6782
1.0984499 -0.447079 3.6509199
1.11063 -0.42141098 3.6618299
2.4872067 -0.42686701 3.6757333
2.5116768 -0.41398668 3.6712267
1.1383901 -0.37274501 3.6831467
2.5285439 -0.37951198 3.6768022
1.14878 -0.33485201 3.6986098
1.1566 -0.322891 3.66202
2.5378635 -0.34085369 3.6880801
2.556165 -0.31625748 3.6677151
2.5787232 -0.27245569 3.6683998
1.22536 -0.11532839 3.690686
1.25411 -0.107722 3.6705699
1.19997 -0.053450499 3.68646
1.2200663 -0.078191698 3.6726437
1.28645 -0.071320899 3.65027
1.2144899 0.027893301 3.6711249
0.98207152 0.09043885 3.6981401
1.0304074 0.085871652 3.6841326
1.0791286 0.077487774 3.6713169
1.14273 0.073039398 3.69048
1.17734 0.090971202 3.67642
0.46125501 0.14121801 3.6962099
0.57704055 0.141627 3.694355
0.62228066 0.14190333 3.6959898
0.65666997 0.141709 3.6862099
0.73336458 0.1351456 3.6889901
0.77420473 0.133393 3.6833625
0.82367045 0.13002786 3.6876016
0.87466109 0.12499323 3.6798782
0.92325413 0.12504642 3.6721971
0.97540027 0.116499 3.6725471
1.0236361 0.1147478 3.6627343
1.06582 0.1077595 3.65784
0.17907266 0.19246764 3.6867769
0.23167068 0.18397748 3.6895134
0.27774867 0.18657465 3.6807535
0.32265252 0.18797 3.6767099
0.37116334 0.18392415 3.6795247
0.42532066 0.17720851 3.671845
0.46970999 0.16924684 3.6685183
0.52951235 0.16689199 3.6743269
0.57807136 0.16853181 3.6658778
0.62268466 0.165746 3.6763501
0.67271066 0.15894501 3.67449
0.72169042 0.1658974 3.6656461
0.77797395 0.15890266 3.6572697
0.81305701 0.158887 3.65096
0.86026955 0.159493 3.6570101
-0.17871299 0.24561849 3.6988149
-0.117478 0.245536 3.69926
-0.077905893 0.2404315 3.6890152
-0.029951317 0.23576802 3.6849315
0.022191482 0.231673 3.6790059
0.070886329 0.226631 3.6779602
0.12284281 0.2227966 3.6711917
0.1827565 0.21344475 3.6721275
0.23014501 0.21309675 3.6639977
0.27353251 0.208818 3.6625252
0.31700799 0.208921 3.661545
-0.50505501 0.299831 3.69591
-0.46852064 0.29893935 3.6882935
-0.42415398 0.2985805 3.6877651
-0.37604141 0.29089397 3.6834679
-0.32414669 0.28496557 3.6819799
-0.27594113 0.2772595 3.6781039
-0.22088099 0.27861154 3.6697721
-0.17135271 0.27378443 3.6736755
-0.125347 0.26118851 3.6724551
-0.081777729 0.26059034 3.66483
-0.029723933 0.26005134 3.65769
0.0048195901 0.25981 3.65431
-1.08365 0.34289348 3.689255
-0.81189698 0.338341 3.69029
-0.77496964 0.33772802 3.6893101
-0.7123875 0.33745348 3.6956749
-0.66662699 0.336703 3.6935999
-0.62780041 0.33482537 3.6775768
-0.5709942 0.33445042 3.680598
-0.52053499 0.32486466 3.6774151
-0.47956282 0.32846561 3.6625023
-0.430033 0.31399167 3.6613667
-0.37286577 0.31777823 3.6592178
-0.33305049 0.312749 3.65413
-1.07125 0.38281888 3.6765215
-1.021602 0.3850756 3.6891239
-0.97256356 0.38627261 3.6749883
-0.92104095 0.37490165 3.6792912
-0.87279558 0.37763357 3.679306
-0.82991713 0.36775616 3.6745315
-0.7654835 0.35750374 3.6640449
-0.71758175 0.3577615 3.6740901
-0.68088472 0.36139852 3.6708651
-0.62529272 0.35100603 3.6617432
-0.57876664 0.356915 3.6679499
-1.06578 0.41148299 3.6551399
-1.0297834 0.41134235 3.6616499
-0.98960203 0.40948701 3.6526201
1.635875 -2.5733948 3.724565
1.65099 -2.5581801 3.74265
0.44766 -1.8009501 3.71769
0.47717077 -1.8132725 3.7165275
0.52926171 -1.8219059 3.7183702
0.57492077 -1.8187051 3.71629
0.61229849 -1.8057151 3.70804
0.37860048 -1.763325 3.7163649
0.42580602 -1.778235 3.725755
0.47528329 -1.78326 3.7414367
0.52846003 -1.7956951 3.7457299
0.58778 -1.79987 3.7472701
0.62732941 -1.7758039 3.7294381
0.29025799 -1.70163 3.71018
0.32926401 -1.72321 3.7141619
0.36985123 -1.72919 3.7401524
0.40962601 -1.74525 3.7472401
0.642313 -1.73237 3.7411599
0.66248924 -1.71744 3.7175574
0.18468699 -1.65088 3.7006102
0.22270951 -1.65441 3.7067351
0.2678279 -1.6750481 3.7259831
0.32091099 -1.6948199 3.7418351
0.68782377 -1.6790001 3.7249801
0.137218 -1.60777 3.70277
0.17559767 -1.6164032 3.721278
0.22055566 -1.63682 3.7328665
0.71660948 -1.6144401 3.7265601
0.090469852 -1.57162 3.7197523
0.12218783 -1.578155 3.7344217
0.74749255 -1.566525 3.723855
-0.021736801 -1.5018849 3.705905
0.027437538 -1.5208828 3.7154584
0.066969 -1.5330549 3.7298975
0.100227 -1.54118 3.74897
0.76227027 -1.5296 3.7097933
-0.077181049 -1.459655 3.7042098
-0.031115158 -1.4739215 3.7256513
0.012347624 -1.4895034 3.7447166
0.775078 -1.4735566 3.7274599
-0.11742499 -1.4182416 3.7212298
-0.079443462 -1.433356 3.7325978
-0.0497526 -1.4493099 3.7311599
0.80056047 -1.426795 3.7392101
-0.21495099 -1.36099 3.7110701
-0.17648712 -1.3753163 3.7238111
-0.13015734 -1.3851533 3.7424603
0.79719853 -1.383265 3.7350249
0.81109101 -1.374855 3.709065
-0.30618301 -1.30225 3.7117901
-0.26771799 -1.3210175 3.7172074
-0.22487533 -1.32821 3.73246
-0.197604 -1.3309751 3.7412748
0.79323399 -1.34831 3.7248199
0.82821703 -1.34422 3.7068999
0.85182202 -1.3145 3.7358301
-0.36993098 -1.2638 3.71223
-0.32466385 -1.2751716 3.7194014
-0.28262568 -1.28178 3.7314968
-0.19747899 -1.29287 3.74825
-0.46000051 -1.20465 3.7059951
-0.42194632 -1.2150732 3.7212565
-0.38048545 -1.2315278 3.7344601
-0.33743432 -1.2432634 3.7327633
-0.50549448 -1.1585 3.71135
-0.4706966 -1.1719579 3.7265024
-0.42984 -1.1893867 3.743737
-0.56676269 -1.1197233 3.7167366
-0.52778631 -1.1301733 3.7233202
-0.49041599 -1.13842 3.7437601
-0.65024602 -1.05593 3.7098501
-0.62422025 -1.067265 3.7191577
-0.58298457 -1.0849614 3.7327199
-0.54397798 -1.09849 3.73575
-0.72079086 -1.0104001 3.717176
-0.67319924 -1.0254562 3.7280262
-0.62706804 -1.044595 3.7420449
-0.76604575 -0.96722674 3.72193
-0.73085135 -0.98121881 3.7368979
-0.69155002 -0.98994797 3.7465301
-0.86482298 -0.91526425 3.7079177
-0.81695592 -0.9262656 3.7252574
-0.78133881 -0.94176424 3.7329175
-0.92349261 -0.87094146 3.7143302
-0.87598217 -0.88081563 3.7322688
-0.82772398 -0.89667547 3.736855
-1.0563 -0.804887 3.70785
-1.0195251 -0.80931801 3.7143025
-0.97807139 -0.82335228 3.7220175
-0.93454474 -0.83658522 3.7390761
-1.1230299 -0.7517345 3.7111599
-1.0766524 -0.76903623 3.7256539
-1.0281579 -0.78287959 3.7365539
0.97026098 -0.76354802 3.7014301
2.3206401 -0.75287747 3.7234349
-1.1583233 -0.72217506 3.7132599
-1.1238858 -0.71804196 3.7335358
-1.09043 -0.73612601 3.7363701
0.98299539 -0.73213381 3.7111821
1.008 -0.70989603 3.70715
2.3279901 -0.71126902 3.7202699
-1.2140499 -0.66735762 3.7095668
-1.1728333 -0.68057632 3.7237401
-1.14061 -0.68332201 3.74754
0.99037737 -0.69026762 3.74123
1.0278561 -0.67451662 3.7144063
2.34846 -0.67060202 3.7159801
-1.2291356 -0.62587482 3.7207925
-1.1730489 -0.62544131 3.731828
1.0547 -0.62485999 3.74841
-1.2127033 -0.58088398 3.7165298
-1.17505 -0.57584673 3.7125773
-1.13908 -0.5761677 3.7233574
1.065135 -0.57451952 3.7222099
-1.1191649 -0.54109901 3.7096949
-1.08927 -0.51929402 3.72614
1.074122 -0.52609241 3.7322102
2.4307749 -0.51012146 3.7158399
1.0803175 -0.47934374 3.7349324
2.4340167 -0.46368635 3.7332065
2.4613199 -0.48964199 3.70082
1.09879 -0.43642399 3.7186899
1.1139266 -0.413232 3.7280235
2.4678099 -0.42945799 3.71701
1.1274825 -0.37767273 3.7218151
2.492095 -0.37878251 3.7157249
2.5137701 -0.36869299 3.7065401
1.13506 -0.34527099 3.7169199
2.5179601 -0.34874001 3.71439
2.5630901 -0.309322 3.7203002
2.5775299 -0.28909299 3.7214999
1.19586 -0.163948 3.7323
1.21136 -0.16356499 3.71892
1.1865916 -0.12733017 3.7354367
1.2143234 -0.13884799 3.7085466
1.18407 -0.081364222 3.72856
1.19792 -0.0174923 3.74155
1.0215183 0.028044216 3.7391269
1.070775 0.032571476 3.7256851
1.1284399 0.037363149 3.7399001
1.1840521 0.022793408 3.7352099
1.2085867 0.019061504 3.7132034
0.68563801 0.090373002 3.74703
0.72150052 0.090371802 3.741715
0.78016436 0.083348945 3.73945
0.82593149 0.086039156 3.731595
0.87140119 0.079880193 3.7304459
0.92234653 0.07269901 3.7233467
0.97578543 0.067724302 3.72086
1.0241575 0.063931704 3.71349
1.061595 0.05499915 3.7103848
1.1418951 0.05538705 3.7196498
1.1670949 0.064347953 3.7061601
0.23464 0.142185 3.7384501
0.25265399 0.142377 3.7425799
0.32370001 0.14248733 3.7411268
0.37606966 0.14220667 3.7298634
0.42918551 0.13335967 3.7260582
0.48789465 0.136253 3.7187366
0.52406418 0.12485143 3.7271543
0.57018226 0.11988243 3.7251942
0.62737054 0.11637417 3.7269619
0.682154 0.1228885 3.714715
0.72391301 0.113677 3.72209
0.77319568 0.10799833 3.7233334
0.81557798 0.107692 3.7053552
-0.118765 0.19516833 3.7412832
-0.039194249 0.1949645 3.73843
0.022427788 0.19404535 3.7207067
0.077901997 0.18201172 3.7316899
0.12795849 0.17877962 3.7225349
0.18533173 0.17241624 3.72525
0.2252135 0.159446 3.728775
0.26862475 0.163424 3.7168977
0.3180652 0.1661648 3.716064
0.37367299 0.15885434 3.7053998
0.40906301 0.158952 3.7047999
-0.42156231 0.249668 3.7459266
-0.385847 0.249561 3.7471299
-0.32684574 0.2441525 3.7366347
-0.27719 0.23886733 3.7263317
-0.22166456 0.23494001 3.7270472
-0.16861415 0.22458243 3.724853
-0.12054629 0.22409272 3.7176585
-0.076856963 0.21683766 3.7089536
-0.030180499 0.21105666 3.7103531
0.022382131 0.211007 3.7093649
0.074891254 0.2108265 3.7055149
0.109889 0.21083701 3.7049699
-0.76606297 0.28783399 3.73838
-0.73082668 0.28807333 3.7468336
-0.62089199 0.28702 3.74753
-0.57082003 0.27986869 3.7378368
-0.52335423 0.28055853 3.7321424
-0.47207519 0.27469918 3.7179585
-0.4218418 0.27243719 3.7157102
-0.39135098 0.2738435 3.71329
-0.33771101 0.26439551 3.70821
-1.1130034 0.31695798 3.7360601
-1.0676279 0.3245762 3.7349763
-1.025543 0.33240885 3.7312772
-0.97552502 0.3338412 3.7336617
-0.92791557 0.33593839 3.7250581
-0.87486178 0.32723662 3.7334664
-0.83979827 0.32444832 3.7336199
-0.76767236 0.31591532 3.7145731
-0.72900116 0.31692028 3.72226
-0.67668104 0.31505635 3.71719
-0.62966096 0.31288117 3.7115397
-0.57972318 0.30916101 3.7155819
-0.53482699 0.30174649 3.7167699
-1.05879 0.36161801 3.7012701
-1.0220834 0.361384 3.7065566
-0.97470105 0.36050951 3.70679
-0.89002597 0.35897899 3.7063899
1.62909 -2.5582199 3.7507801
1.632985 -2.5316401 3.7785249
1.6526699 -2.5281401 3.7652102
1.63246 -2.4981301 3.79579
1.6538 -2.49717 3.7862999
0.56864399 -1.80062 3.7513299
0.47544849 -1.762665 3.7662225
0.5276944 -1.7750272 3.7714226
0.57305133 -1.7657876 3.7802975
0.61391205 -1.7686466 3.75846
0.37594098 -1.7114276 3.7620249
0.422858 -1.7293279 3.7702339
0.4716818 -1.7329718 3.7883618
0.51187599 -1.74756 3.79126
0.62755758 -1.7257301 3.7785745
0.29249501 -1.65809 3.76056
0.32190549 -1.6716149 3.7642076
0.36916286 -1.6774385 3.7845311
0.41182199 -1.69713 3.7894299
0.64732498 -1.68792 3.7922201
0.67327285 -1.66754 3.762008
0.227808 -1.6187134 3.7576768
0.27112585 -1.6281242 3.7795944
0.31976134 -1.6422668 3.78983
0.68524897 -1.64703 3.7955301
0.70196134 -1.6215 3.7849634
0.138367 -1.5656199 3.7552299
0.17684099 -1.5718398 3.7687712
0.2254625 -1.5900174 3.7841575
0.72984618 -1.5802981 3.7765839
0.043734599 -1.5029 3.7604101
0.075162165 -1.5108967 3.7622268
0.12196375 -1.5273625 3.7733424
0.16450299 -1.5311133 3.7922535
0.73772502 -1.53846 3.79054
0.75257349 -1.5199699 3.7685351
-0.0126456 -1.45804 3.7537501
0.031190982 -1.4691416 3.7730548
0.069101937 -1.48498 3.7860601
0.100896 -1.49584 3.7950301
0.76194799 -1.4814725 3.7785473
-0.057632677 -1.418062 3.7690899
-0.02398802 -1.4294621 3.77738
0.012339383 -1.4429666 3.7871335
0.78470594 -1.4229201 3.7600834
-0.16120701 -1.35463 3.7516699
-0.12164367 -1.37466 3.7702348
-0.083089881 -1.386935 3.7857151
-0.17638859 -1.3311479 3.76559
-0.137762 -1.3423733 3.794627
0.81212854 -1.34543 3.77301
-0.17907301 -1.2934 3.7504499
0.84247601 -1.29149 3.7923701
-0.36392501 -1.2006201 3.76355
-0.34516048 -1.208895 3.7595301
-0.41582099 -1.17146 3.768126
-0.3798252 -1.1836966 3.7720366
-0.34606099 -1.18418 3.7758901
-0.51632631 -1.1107801 3.7585335
-0.47225696 -1.1236874 3.7705398
-0.42557326 -1.144685 3.7870426
-0.57164699 -1.06172 3.7638133
-0.53291404 -1.07406 3.7801688
-0.4857665 -1.09341 3.7924151
-0.656515 -1.01085 3.75721
-0.61692238 -1.0229888 3.7715352
-0.58133429 -1.0345075 3.7823999
-0.72540998 -0.96015429 3.7574551
-0.67479563 -0.97489274 3.775265
-0.63596064 -0.99245805 3.7888868
-0.80370402 -0.90051699 3.7574501
-0.77260381 -0.91393298 3.7704761
-0.72948837 -0.93381703 3.7795479
-0.698915 -0.94479698 3.79726
-0.863455 -0.85905951 3.776475
-0.82641035 -0.87750363 3.7791948
-0.79001498 -0.88737798 3.7862201
-0.95147502 -0.80909598 3.7500501
-0.91859829 -0.81718147 3.7723925
-0.89082074 -0.84023476 3.7733126
0.97067398 -0.834122 3.76823
-1.02394 -0.76103854 3.7570324
-0.97492474 -0.776263 3.7719443
-0.93400264 -0.79049367 3.7873099
0.96775001 -0.77618533 3.7662666
-1.10571 -0.70311999 3.76037
-1.0729684 -0.71625251 3.7703316
-1.03286 -0.72776937 3.7773814
-0.995951 -0.74115002 3.7835901
0.97107673 -0.71968722 3.7690825
2.3156452 -0.72718704 3.764215
-1.1237715 -0.66892827 3.7788529
-1.078558 -0.6810534 3.7930458
0.97855067 -0.67029303 3.7738934
2.32021 -0.68752199 3.7781401
-1.137048 -0.62625855 3.7699323
0.990848 -0.64969802 3.7994201
1.0235586 -0.62835467 3.7775156
1.05624 -0.60734898 3.75629
2.3674798 -0.61718547 3.7767901
-1.12499 -0.58310354 3.7745199
1.040455 -0.57915574 3.7918649
1.05624 -0.57970703 3.7597251
2.3697269 -0.58425635 3.7922733
1.0584199 -0.534742 3.7728801
1.0715867 -0.47972131 3.7790401
1.03793 -0.42313299 3.78076
1.083865 -0.41809067 3.7818718
1.11149 -0.40461001 3.76493
1.0876451 -0.3875455 3.7861252
1.11415 -0.38710901 3.7755001
2.5273299 -0.352929 3.7708499
2.549 -0.332219 3.76178
1.184 -0.164848 3.7574401
1.1308775 -0.123693 3.7792649
1.1638401 -0.1186415 3.757735
1.09424 -0.054497901 3.7901199
1.1271377 -0.072706059 3.7678003
1.164 -0.072707064 3.7591667
0.93096399 -0.017474148 3.7974749
0.9883675 -0.017517149 3.7957599
1.0221367 -0.023649566 3.7889566
1.092025 -0.026765499 3.78269
1.1293175 -0.026658272 3.7591147
1.1732175 -0.026720352 3.7574651
0.7390905 0.037084348 3.7854049
0.76744503 0.037140802 3.7869899
0.82366133 0.0372185 3.786
0.88250303 0.029941121 3.7784138
0.92230684 0.016437896 3.7788827
0.97329891 0.019073511 3.7748256
1.0276734 0.00084848033 3.7618599
1.1240033 0.013073177 3.7578335
1.1733251 0.00085262553 3.75791
0.292099 0.090553403 3.79445
0.30948201 0.090388902 3.7864399
0.37301651 0.090591952 3.7904849
0.42213476 0.086035721 3.7841699
0.46665999 0.085972749 3.7773352
0.5268448 0.081780933 3.7849934
0.57584345 0.083374806 3.7702
0.6255123 0.081740357 3.7712426
0.67014962 0.070667185 3.776391
0.72725451 0.067851044 3.7720759
0.76927829 0.06098913 3.7651336
0.82398051 0.059630603 3.7657151
0.8742494 0.055151101 3.7590568
-0.021875849 0.1439095 3.7901001
0.01392126 0.1351265 3.7949851
0.076187968 0.14338833 3.7755401
0.13345981 0.1364176 3.779546
0.17413273 0.13437749 3.7706599
0.21901785 0.12860434 3.774543
0.27498776 0.12353899 3.7756789
0.32611135 0.11675551 3.7695448
0.379926 0.11684667 3.7686081
0.42379302 0.107757 3.7582951
0.46860301 0.11226 3.755795
0.50412202 0.107777 3.7512701
-0.56417704 0.19965699 3.7985799
-0.51845396 0.19944149 3.79918
-0.481558 0.19911399 3.7964599
-0.43530101 0.18957499 3.79021
-0.36760077 0.193892 3.7919476
-0.31760901 0.18903899 3.7883551
-0.28153923 0.1933455 3.7865551
-0.2234592 0.1899974 3.7763519
-0.17117123 0.18139924 3.7767246
-0.1243775 0.1747295 3.7780249
-0.07511086 0.17868067 3.7687519
-0.028084787 0.17356372 3.7678216
0.019152902 0.1714334 3.7653117
0.067038402 0.16054699 3.7597001
0.128947 0.160275 3.75195
0.1734035 0.16042951 3.7540751
-0.814601 0.23772 3.7946501
-0.77689129 0.23732668 3.7940533
-0.740421 0.23729099 3.7989299
-0.56868583 0.22820358 3.790612
-0.52639472 0.226053 3.7894325
-0.47925416 0.22504151 3.7770767
-0.42387947 0.22420883 3.7676151
-0.3689267 0.22721371 3.7579672
-0.32759166 0.22058232 3.7635734
-0.28080001 0.21516533 3.7755435
-0.235155 0.21427551 3.76211
-1.17775 0.25974 3.7802
-1.11825 0.29564866 3.7772033
-1.0718601 0.28631949 3.7865276
-1.0287501 0.2764563 3.7870071
-0.97983325 0.28654319 3.7829139
-0.92605764 0.28002 3.7825058
-0.87716627 0.2737675 3.7770119
-0.77204525 0.26236838 3.7873101
-0.72779876 0.26327851 3.7804976
-0.67953801 0.27109477 3.7694511
-0.6253435 0.26201648 3.7758052
-0.57314199 0.256338 3.7643075
-0.53148526 0.26017451 3.7591524
-0.47685599 0.25071898 3.7570031
-0.36862999 0.26772499 3.7530799
-1.09215 0.311876 3.7537601
-1.03327 0.310662 3.75091
-0.97860837 0.31065264 3.7618666
-0.91999865 0.30930367 3.7559099
1.6364551 -2.4714351 3.8232498
1.6577799 -2.4703898 3.8136101
1.6393501 -2.44296 3.84794
1.66133 -2.4428401 3.83973
0.43320999 -1.70533 3.8059499
0.47333133 -1.71008 3.81267
0.52463269 -1.7188182 3.8269215
0.57430762 -1.7212199 3.8264279
0.61299849 -1.71018 3.822125
0.38323551 -1.660315 3.80966
0.42450798 -1.6706051 3.8299017
0.47073039 -1.68766 3.8336682
0.63229251 -1.6852325 3.8270276
0.6595065 -1.6554949 3.8192902
0.28464401 -1.610855 3.80441
0.32720819 -1.6182499 3.8295922
0.36819997 -1.6330818 3.8336565
0.67794502 -1.6238375 3.8208325
0.22974534 -1.5629734 3.8147433
0.27270028 -1.5803655 3.821903
0.316064 -1.58603 3.84813
0.686885 -1.59287 3.82497
0.71018052 -1.5712825 3.8225627
0.139513 -1.50362 3.8136899
0.18463182 -1.5216368 3.82145
0.22214176 -1.5339725 3.8327074
0.72599983 -1.527124 3.8188679
0.075714201 -1.46666 3.8114901
0.118126 -1.4756887 3.8247752
0.16593868 -1.4877033 3.8450801
0.76208854 -1.461905 3.840965
-0.0128279 -1.4140199 3.8030601
0.027418237 -1.4186975 3.8225327
0.069555528 -1.4390801 3.831847
0.77624398 -1.44252 3.8150799
-0.106712 -1.35101 3.8003099
-0.063128382 -1.3689634 3.8125451
-0.022366183 -1.3807117 3.826175
0.012372094 -1.3810101 3.8462365
0.79707301 -1.3684 3.84238
-0.11664834 -1.3192201 3.8272083
-0.076049499 -1.3302183 3.8396719
0.82140255 -1.3224699 3.8268199
0.84451997 -1.2661049 3.80932
-0.37585199 -1.153255 3.8029399
-0.34869349 -1.16509 3.8110399
-0.41803387 -1.1185558 3.8170831
-0.37505969 -1.1290767 3.8336535
0.89907598 -1.13907 3.81899
-0.51503599 -1.05922 3.80829
-0.47624874 -1.0749114 3.8178475
-0.42907026 -1.0885201 3.8327451
-0.56455082 -1.0156883 3.8115847
-0.52379698 -1.030125 3.8335168
-0.4903245 -1.04739 3.8397899
-0.62409514 -0.97017568 3.8180048
-0.5772332 -0.98187637 3.8363621
-0.75649202 -0.910065 3.80603
-0.71490496 -0.91502571 3.8125978
-0.67761558 -0.93632805 3.829776
-0.64743555 -0.94147944 3.830755
-0.82551944 -0.85848999 3.82447
-0.77523202 -0.87961936 3.8258483
-0.74164099 -0.89596099 3.8313899
-0.90700901 -0.80012703 3.8083899
-0.87333697 -0.82212454 3.8276756
-0.81979996 -0.84343797 3.8457601
-0.78172702 -0.842821 3.8488901
-0.92308253 -0.77129239 3.8152542
-0.8939985 -0.7770375 3.8401749
-1.0096534 -0.71554899 3.8153
-0.96896088 -0.726071 3.8242135
-0.93104023 -0.74388176 3.8366525
2.30425 -0.70234603 3.81705
-1.0757926 -0.6593498 3.8182626
-1.0276463 -0.67635918 3.8300135
-0.9797985 -0.69372451 3.8427701
0.97824454 -0.67244452 3.82407
2.3092899 -0.683155 3.8285401
-1.1140059 -0.61539322 3.8288639
-1.08384 -0.63321 3.8328273
-1.04757 -0.63868099 3.8448
0.98467398 -0.62382054 3.8171549
1.0096101 -0.612634 3.8010399
2.28111 -0.61896998 3.83534
2.3459599 -0.61968398 3.80829
-1.121915 -0.57243454 3.8336549
0.98775738 -0.57898498 3.8348768
1.0211 -0.57400203 3.8196282
2.34953 -0.59991401 3.81688
2.3698101 -0.57121599 3.83146
-1.10234 -0.50623697 3.8420999
1.035684 -0.53279638 3.8199399
1.05208 -0.50362802 3.8250999
2.3874199 -0.54165 3.84144
1.068615 -0.47463799 3.8160949
1.03074 -0.446437 3.8248
1.0668576 -0.44130075 3.8129075
1.10865 -0.37300599 3.82604
1.1361475 -0.2140155 3.8272727
1.15013 -0.24301501 3.8392
1.14466 -0.185847 3.82341
-0.32573459 -0.1191134 3.8432059
1.12316 -0.129509 3.82003
-0.35911301 -0.071991302 3.84939
-0.32766464 -0.083848871 3.8381732
0.93334401 -0.054807398 3.84659
0.97561622 -0.059470676 3.8403049
1.00467 -0.0546473 3.8206401
1.08851 -0.055142902 3.8392
0.82482451 -0.017555799 3.8353601
0.87617683 -0.02498186 3.833746
0.92433298 -0.031479798 3.8294201
0.97298265 -0.029977268 3.8237898
1.00041 -0.035991501 3.80462
0.414781 0.037267648 3.8425798
0.48841399 0.037326403 3.84197
0.53361249 0.032728277 3.8343749
0.57422382 0.026369762 3.8330741
0.62693685 0.028261984 3.8367016
0.67780507 0.030081201 3.8280339
0.71957213 0.013895286 3.8304756
0.77769274 0.013913768 3.8243384
0.82618868 0.011831015 3.8153598
0.86776501 0.0054325811 3.8137648
-0.57336318 0.08089596 3.8262839
0.086466596 0.091338553 3.8357449
0.149995 0.091445297 3.8385799
0.17657501 0.091129005 3.8243451
0.21592401 0.085174166 3.8267467
0.295623 0.073487297 3.8405499
0.33452219 0.08047232 3.8260338
0.37138876 0.062476777 3.8303299
0.41713619 0.062268622 3.81321
0.4794282 0.062379263 3.8142982
0.53054196 0.055201098 3.8120699
0.57593751 0.055205598 3.8072901
0.61750853 0.059802227 3.8070424
-0.57097352 0.128876 3.8466001
-0.52327996 0.14662866 3.8363698
-0.45925951 0.137429 3.8406048
-0.43067333 0.14611065 3.8310802
-0.37557349 0.13678034 3.8289566
-0.32163969 0.13697466 3.8378
-0.276021 0.12778418 3.8369751
-0.23278601 0.12993425 3.8360925
-0.17809914 0.12967137 3.8306649
-0.12135283 0.13624084 3.8255367
-0.074356213 0.1306784 3.8232918
-0.038264681 0.12700561 3.8209999
0.025617797 0.12449771 3.8235228
0.077057503 0.11789183 3.8170116
0.12642175 0.1132645 3.8112373
0.176034 0.1088585 3.8125248
0.21150151 0.1085775 3.8012099
-0.66349202 0.18407699 3.840555
-0.62580901 0.1837665 3.8386202
-0.57219398 0.17814051 3.8221397
-0.52003902 0.17674443 3.8116269
-0.47298259 0.1782932 3.8162141
-0.42668298 0.17923129 3.8177986
-0.37744659 0.17044319 3.810014
-0.3237415 0.167482 3.8077974
-0.27175602 0.16932334 3.8185167
-0.23349775 0.16735275 3.8095977
-0.192596 0.16252001 3.8034401
-0.111817 0.162581 3.80707
-1.11619 0.243944 3.8405499
-1.085765 0.243398 3.8380399
-1.0329067 0.24194665 3.8248634
-0.97727048 0.24192449 3.835535
-0.92581463 0.23521167 3.8367167
-0.897147 0.231094 3.8241649
-0.81497848 0.22208551 3.84167
-0.77534902 0.2212795 3.83341
-0.72045702 0.22694878 3.8123002
-0.67214704 0.21750411 3.8218274
-0.62634557 0.22173057 3.8160002
-0.59346151 0.2094505 3.8092301
-1.1615601 0.2716575 3.8241224
-1.121135 0.27090302 3.8219898
-1.078465 0.26029751 3.8113749
-1.01116 0.25965899 3.81547
-0.97184068 0.2590147 3.8132164
-0.91152102 0.25760299 3.8027301
1.641885 -2.41381 3.8715
1.6642799 -2.4142399 3.8642001
1.64634 -2.3873501 3.89937
0.48411548 -1.6635618 3.8686903
0.52822781 -1.6718768 3.8746603
0.57627249 -1.6780636 3.8769286
0.62168103 -1.662666 3.8734639
0.39145449 -1.61675 3.8633676
0.42679736 -1.6213784 3.8714516
0.47372401 -1.6362801 3.8893824
0.63871402 -1.63832 3.8884399
0.65922701 -1.6231049 3.8622174
0.29037797 -1.56101 3.8601401
0.32880759 -1.568272 3.8683658
0.37062731 -1.5824083 3.8802414
0.685848 -1.5796667 3.8655198
0.23142232 -1.5106932 3.8645
0.27535626 -1.5281675 3.8767397
0.31815001 -1.53845 3.8932199
0.72084153 -1.515765 3.8752975
0.130891 -1.457265 3.85989
0.18599083 -1.4756132 3.8687031
0.22592331 -1.4849834 3.8915069
0.258829 -1.4948699 3.8968201
0.74368602 -1.4832375 3.8722925
0.077833578 -1.4144201 3.8602524
0.11909575 -1.4240937 3.8784213
0.16698666 -1.4398667 3.8883169
0.77227998 -1.4203968 3.8733168
-0.022571601 -1.3524649 3.864125
0.031594068 -1.3717217 3.8789301
0.06848345 -1.3813901 3.8859725
0.102427 -1.38622 3.8987999
0.786107 -1.373325 3.88957
-0.057403866 -1.3172133 3.8623302
-0.024594862 -1.322178 3.8852201
0.00602378 -1.34183 3.8936999
0.81040448 -1.3263149 3.8720551
-0.11751 -1.2712232 3.8681614
-0.072628967 -1.277825 3.8810201
0.82216197 -1.28117 3.89323
-0.11813051 -1.23935 3.8968048
0.87241197 -1.1636701 3.8742001
-0.358601 -1.1173934 3.8635499
-0.33434251 -1.12339 3.8743949
0.88623405 -1.134095 3.8757749
-0.42683148 -1.0617584 3.8618867
-0.37528452 -1.0828015 3.8853383
-0.33563501 -1.09921 3.89538
0.891846 -1.09663 3.8871601
-0.51037705 -1.01255 3.8556199
-0.4710815 -1.0248317 3.8686686
-0.43350178 -1.0334949 3.8858252
-0.61366701 -0.956348 3.85584
-0.57316351 -0.96394175 3.8714349
-0.52381778 -0.98046768 3.8738086
-0.4853605 -0.99068952 3.88871
-0.71885753 -0.90254498 3.86359
-0.67004901 -0.91274548 3.8804977
-0.6304056 -0.93758535 3.88501
-0.57099748 -0.94454998 3.8935151
-0.54260403 -0.94447601 3.89626
-0.76478797 -0.86361498 3.8576701
-0.72755367 -0.87343639 3.8633502
-0.67420697 -0.87736517 3.8884814
-0.86024803 -0.80866301 3.8589301
-0.82083869 -0.81629163 3.8551781
-0.77218854 -0.82211 3.8627899
-0.72877979 -0.82776284 3.87766
-0.6869083 -0.84284568 3.8932502
-0.87477058 -0.76925766 3.8677402
-0.8239094 -0.77216899 3.8769865
-0.77510548 -0.77992749 3.8911533
-0.91485721 -0.7159918 3.8721302
-0.88236541 -0.73610038 3.8817832
-0.84606999 -0.73735398 3.8947899
2.29808 -0.706824 3.85186
-1.0126801 -0.65925598 3.8603499
-0.97286427 -0.67310911 3.868727
-0.93170083 -0.68329638 3.8813019
2.3206201 -0.67172498 3.8959
-1.0681801 -0.61174858 3.8655159
-1.0267661 -0.62696862 3.872828
-0.99114048 -0.64476597 3.8947802
-0.94196898 -0.64357603 3.8965299
2.3229499 -0.62465101 3.8601
-1.11471 -0.5688737 3.8791533
-1.082145 -0.58349895 3.8870149
2.38129 -0.56603199 3.8738101
-1.1060899 -0.52681202 3.8532701
-0.666417 -0.521694 3.8900299
-0.63749504 -0.52092451 3.8877749
0.98851049 -0.53774154 3.881825
1.018285 -0.5211243 3.8705151
-1.0882601 -0.47069401 3.8664601
-0.64725 -0.46531999 3.8945799
1.0252017 -0.48054382 3.8755486
1.059195 -0.47882849 3.8538098
-0.62849599 -0.44658601 3.8977499
-0.61244696 -0.37278444 3.8738201
-0.58119231 -0.36336601 3.88342
-0.62233901 -0.349888 3.8666
1.08593 -0.26442999 3.89446
1.1200501 -0.27201718 3.8863881
1.1141 -0.22900635 3.8772669
-0.36095899 -0.108971 3.8685501
0.94556302 -0.111925 3.8959899
0.97412097 -0.1119635 3.891875
1.118185 -0.12165999 3.87187
-0.36561099 -0.072080038 3.8534935
-0.33074167 -0.06019013 3.87537
0.72283751 -0.055036202 3.8985801
0.7795155 -0.055089749 3.89393
0.827811 -0.055197503 3.8939667
0.87754929 -0.059778851 3.8778574
0.92485696 -0.073903434 3.875782
0.96982706 -0.083412021 3.8752849
1.01779 -0.0741506 3.8704064
1.0638601 -0.093601599 3.8933499
1.12254 -0.093764797 3.8875699
-0.30718601 -0.02669685 3.88726
-0.28906101 -0.035913501 3.89149
0.51329601 -0.0176108 3.8903852
0.59925097 -0.017693801 3.8993101
0.6267885 -0.017684851 3.8938651
0.67802054 -0.022344973 3.88834
0.72796607 -0.026965136 3.8751166
0.77921784 -0.02508142 3.8640919
0.82510263 -0.036388602 3.8814201
0.86087197 -0.036325701 3.8683801
0.22581832 0.037645232 3.8940866
0.28042915 0.028368568 3.88325
0.325955 0.028319523 3.8759902
0.37225819 0.028367234 3.8776217
0.43011943 0.013938041 3.8743713
0.47544482 0.01610443 3.8615615
0.51888424 0.0054355431 3.8624802
0.57712901 0.00086244196 3.8778601
0.6234085 0.0008622515 3.8730202
0.66828561 0.00086023263 3.8596466
-0.82541347 0.094223753 3.8947349
-0.58269697 0.055976901 3.8641
-0.52784604 0.092771135 3.8714066
-0.46902981 0.085412517 3.876718
-0.42151943 0.081772618 3.8832698
-0.38098675 0.088190876 3.885345
-0.32463148 0.083274581 3.8744233
-0.26947033 0.083200745 3.8744953
