ply
format ascii 1.0
comment PCL generated
element vertex 1547
property float x
property float y
property float z
element camera 0
property float view_px
property float view_py
property float view_pz
property float x_axisx
property float x_axisy
property float x_axisz
property float y_axisx
property float y_axisy
property float y_axisz
property float z_axisx
property float z_axisy
property float z_axisz
property float focal
property float scalex
property float scaley
property float centerx
property float centery
property int viewportx
property int viewporty
property float k1
property float k2
end_header
-2.9531598 1.315495 3.056375
-2.92434 1.30151 3.06393
-2.8850999 1.3123 3.0507801
-2.8307199 1.30516 3.0613799
-3.4424 1.3502001 3.0511899
-3.3658552 1.36147 3.065465
-3.3085351 1.36116 3.06286
-3.2608299 1.36027 3.05038
-3.231745 1.36092 3.0755601
-3.12237 1.3562599 3.0508201
-3.0975599 1.35419 3.0611
0.381989 -2.36655 3.1037199
0.42269945 -2.3757145 3.1213129
0.47470638 -2.3761177 3.1229525
0.51045895 -2.35778 3.12886
0.28118098 -2.3085198 3.10498
0.32748112 -2.3240831 3.1220534
0.3718912 -2.3389421 3.1308541
0.41175801 -2.3491449 3.14744
0.53004742 -2.3227739 3.1315579
0.558568 -2.30758 3.1062801
0.22548799 -2.2641618 3.1179221
0.27050376 -2.2793751 3.1313851
0.309293 -2.2865801 3.1426401
0.56947482 -2.277148 3.1262538
0.140783 -2.2121134 3.1078532
0.17358567 -2.2184565 3.12691
0.20969699 -2.2391849 3.1365926
0.5909155 -2.2341952 3.1226401
0.60720253 -2.2116752 3.1233201
0.082372479 -2.1652334 3.1185434
0.12523723 -2.177459 3.1289067
0.62528914 -2.1740384 3.1251202
0.65518802 -2.15183 3.1169701
-0.018503096 -2.1038151 3.105865
0.029387457 -2.1181028 3.1266644
0.067905404 -2.1381426 3.1379175
0.63380766 -2.1354568 3.144603
0.65822452 -2.1129501 3.1303
-0.067986198 -2.0665059 3.1128242
-0.029311074 -2.0732002 3.1258314
0.0071507902 -2.0996799 3.1347201
0.67179704 -2.06762 3.1186302
-0.16228899 -2.0125 3.1052301
-0.1269415 -2.0201313 3.1225989
-0.088609539 -2.033448 3.132618
0.68703097 -2.0212798 3.120894
0.71552199 -2.00314 3.1306901
-0.220789 -1.9629625 3.1132975
-0.17926656 -1.9786344 3.122349
-0.13777 -1.989705 3.1414351
0.69828749 -1.99473 3.1389499
0.71849954 -1.9620049 3.1184149
-0.31931201 -1.90476 3.1019349
-0.27269 -1.9190326 3.1197577
-0.23660871 -1.9312286 3.130347
-0.1880165 -1.9466 3.14237
0.72702897 -1.9278525 3.1346626
-0.36615765 -1.86278 3.1122963
-0.32860422 -1.8762567 3.1261134
-0.29026899 -1.8867832 3.1346133
0.74169499 -1.89588 3.13395
0.76219398 -1.8619734 3.1343067
-0.458381 -1.80876 3.1076
-0.42274866 -1.8197089 3.1183388
-0.3838596 -1.8319585 3.1281624
-0.3375285 -1.8452251 3.1459851
0.77530432 -1.8188967 3.1318133
-0.5122847 -1.7593399 3.1124401
-0.47368115 -1.7761261 3.1271262
-0.43965572 -1.7834125 3.1394024
0.78911978 -1.7745675 3.1191125
-0.56716603 -1.7173015 3.1161559
-0.52794826 -1.729159 3.1309056
-0.48486549 -1.747565 3.1448951
0.79349697 -1.7371625 3.1366
-0.66409123 -1.6648574 3.1075151
-0.62108749 -1.6748501 3.1241269
-0.58560127 -1.6878976 3.1351376
0.81417769 -1.6815567 3.1279068
-0.72126275 -1.6161215 3.1126673
-0.67425531 -1.6299447 3.1295226
-0.63882601 -1.63656 3.14498
0.82587004 -1.6217659 3.1218941
1.136445 -1.6094649 3.1112051
1.1746551 -1.6155316 3.1123383
1.2251333 -1.6177768 3.1230068
-0.81778169 -1.5598532 3.1034164
-0.77430254 -1.5733449 3.1213784
-0.72802216 -1.5876113 3.1340973
0.84019101 -1.5763626 3.1194899
0.89836103 -1.55216 3.1174099
1.0329133 -1.5583034 3.1101
1.0814571 -1.5696343 3.1189499
1.1209617 -1.5738434 3.1259482
1.1788033 -1.5873766 3.1379783
1.23903 -1.59073 3.14854
-0.87310892 -1.5174683 3.1117551
-0.82711399 -1.5309931 3.1286089
-0.77933407 -1.5426632 3.1439035
0.84305602 -1.54176 3.1080101
0.855165 -1.50147 3.10201
0.942294 -1.51011 3.1000299
0.97596425 -1.5182641 3.1180339
1.02078 -1.5301075 3.1292326
1.0729051 -1.544235 3.140645
1.3198289 -1.5281056 3.1313078
-0.96738499 -1.45544 3.10833
-0.92587513 -1.47201 3.1180673
-0.87981898 -1.4853777 3.1371462
0.84658301 -1.49895 3.1410401
0.87326562 -1.465348 3.1200519
0.92725831 -1.4762609 3.123142
0.97817349 -1.49447 3.1428452
1.345395 -1.47334 3.1175098
1.355655 -1.4668951 3.1219749
-1.02074 -1.4193934 3.1140966
-0.98099869 -1.424853 3.1312797
-0.93514097 -1.441925 3.140065
0.88673496 -1.4379501 3.1386766
0.910779 -1.4468 3.1387701
1.3666559 -1.4166679 3.1242661
-1.1208124 -1.3639275 3.10816
-1.0734723 -1.3669488 3.1252365
-1.0317371 -1.3845986 3.135803
1.3829325 -1.3754926 3.1266575
2.19906 -1.3978601 3.1143701
2.2160833 -1.3785868 3.1082199
-1.1732968 -1.3156322 3.1190243
-1.1331468 -1.3305311 3.1320121
-1.0978301 -1.34211 3.1424952
1.3926034 -1.3291267 3.1267433
1.4044833 -1.3188534 3.1113501
2.2113533 -1.3341767 3.1441965
-1.2719582 -1.260985 3.1123619
-1.2275172 -1.2733545 3.1254144
-1.18555 -1.2816625 3.1415401
1.4197067 -1.2752634 3.1243231
-1.371735 -1.20403 3.107775
-1.323072 -1.217945 3.1226587
-1.2755533 -1.2341633 3.1394317
1.441992 -1.22676 3.126884
-1.45104 -1.15859 3.1068799
-1.4192082 -1.1678883 3.119365
-1.3754251 -1.1821063 3.1298327
-1.3365099 -1.19282 3.1412499
1.44682 -1.18836 3.1320801
1.4596467 -1.1739767 3.1205933
2.2428999 -1.15293 3.1471701
2.2692201 -1.15698 3.1471
-1.5114065 -1.1182667 3.1095302
-1.475167 -1.122882 3.1288788
-1.42714 -1.1400499 3.1376619
1.4753158 -1.120986 3.1279302
2.18894 -1.13449 3.10761
2.3390701 -1.11836 3.1075101
-1.6170534 -1.05381 3.1141033
-1.573342 -1.073087 3.1174893
-1.5301056 -1.08963 3.1305213
-1.49852 -1.08614 3.14854
1.42767 -1.05707 3.12516
1.4837949 -1.08656 3.11233
2.331264 -1.08514 3.1213403
2.35585 -1.0626301 3.10993
-1.6684558 -1.013052 3.1144419
-1.6264021 -1.0263855 3.1270266
-1.5872999 -1.03944 3.13972
1.3415051 -1.0152349 3.1342449
1.3662651 -1.0235651 3.1235251
2.3699882 -1.0281317 3.1209166
-1.76491 -0.96105599 3.1066101
-1.7248155 -0.9737075 3.1196799
-1.6830021 -0.98741543 3.13396
-1.6451401 -0.99366099 3.1465399
1.29526 -0.962237 3.1484499
1.3088633 -0.97650099 3.1321402
2.3886375 -0.98230398 3.12184
2.4227176 -0.96188903 3.1182024
-1.8233045 -0.91810238 3.116461
-1.7772733 -0.92988503 3.1287677
-1.7322534 -0.94213438 3.1420233
1.2684299 -0.92343301 3.1196334
1.31319 -0.93540698 3.10639
2.4348867 -0.92889404 3.1308734
2.4589701 -0.90177703 3.1080599
-1.9108375 -0.86635756 3.11201
-1.8735934 -0.87593269 3.1264055
-1.828665 -0.88715053 3.144455
1.2597876 -0.87549198 3.1240525
2.4668274 -0.87396377 3.134635
-2.00477 -0.80751598 3.10465
-1.9733601 -0.81415808 3.1183939
-1.9329884 -0.82825738 3.1300831
-1.89853 -0.84043998 3.14414
1.243155 -0.81093705 3.1421099
1.2634981 -0.82827795 3.1159501
2.4864573 -0.82496297 3.1163673
-2.06181 -0.76113951 3.11379
-2.0272601 -0.77700788 3.1210556
-1.9827141 -0.78691405 3.1396518
1.2454367 -0.77955896 3.1387634
1.2610941 -0.77237999 3.1213439
2.4946966 -0.78865671 3.1321268
2.5130701 -0.7660743 3.117995
-2.1194031 -0.71788305 3.1086133
-2.0804589 -0.73139971 3.1260362
-2.04333 -0.746521 3.1424601
1.2798275 -0.72233051 3.1259251
2.5273399 -0.72132629 3.1271129
-2.1674898 -0.67348444 3.1138256
-2.12553 -0.69047374 3.1278622
1.2943834 -0.69162935 3.1264067
1.3094033 -0.66451901 3.1233265
2.5413399 -0.6855765 3.1336398
2.555335 -0.66582549 3.11867
-2.2743399 -0.60518724 3.1174426
-2.2256489 -0.63074499 3.1191013
-2.1745157 -0.633811 3.1361887
1.24265 -0.60206097 3.13182
1.33016 -0.61529785 3.1228518
2.5680649 -0.63039643 3.1287687
-2.3269975 -0.57635224 3.1071301
-2.27987 -0.57892871 3.1204252
-2.2245951 -0.59923697 3.136035
1.21901 -0.57857049 3.120075
1.2795075 -0.56691277 3.1282248
1.327224 -0.57397348 3.130965
1.35594 -0.57122201 3.1038501
2.586658 -0.57938355 3.13258
2.6012301 -0.56386852 3.1026101
-2.1384499 -0.53571397 3.1076801
1.19147 -0.52448636 3.1169016
1.24423 -0.53250301 3.10039
1.32601 -0.53699553 3.1026402
2.6125121 -0.51983273 3.1228259
-2.56564 -0.45570999 3.1033001
1.2176476 -0.46618202 3.1200724
2.627995 -0.47446325 3.1298327
2.6501901 -0.464118 3.1043
-2.6563699 -0.40646899 3.1150601
-2.6135759 -0.41911882 3.1175661
-2.5722899 -0.41776937 3.1295481
-2.52721 -0.41883701 3.12885
1.2356633 -0.428633 3.1216466
1.25104 -0.40928799 3.13274
2.644305 -0.4383395 3.136055
2.6561749 -0.42395473 3.1251376
-2.708225 -0.362176 3.11146
-2.67449 -0.37118629 3.1301301
-2.6264632 -0.381888 3.1393068
1.24935 -0.37724301 3.1317
1.2610899 -0.377628 3.1313534
2.6700249 -0.3726255 3.1203749
-2.76319 -0.31771699 3.10975
-2.7211332 -0.32649997 3.1295366
1.27122 -0.32681578 3.1286659
2.6902332 -0.32337034 3.1191466
-2.8224838 -0.27146041 3.1179802
-2.7806466 -0.29389903 3.1199303
1.2791899 -0.27449176 3.1258724
2.6970201 -0.299889 3.1409099
2.7130461 -0.27704602 3.1257899
-2.90907 -0.2186275 3.1060851
-2.877548 -0.22421598 3.1265159
-2.8350735 -0.23997635 3.1386101
1.297145 -0.227716 3.129025
1.3054825 -0.2153005 3.1174276
2.7287166 -0.22497116 3.1296599
-2.9098966 -0.17153616 3.1263983
-2.88431 -0.190878 3.1495099
1.3161099 -0.1690322 3.117208
2.74259 -0.187666 3.12992
2.757544 -0.16522701 3.126776
-2.8941901 -0.132948 3.1281199
1.322174 -0.12843919 3.1246078
2.7773302 -0.12667525 3.1187751
1.3320043 -0.08023838 3.1199257
2.7887325 -0.084535651 3.1327999
2.8096251 -0.05613045 3.121295
-1.7212 -0.015704334 3.1443799
1.3457 -0.0465848 3.12217
1.3545099 -0.030657601 3.1008301
2.8164375 -0.027717423 3.1291676
-1.80582 0.034001101 3.1477699
-1.75669 0.00074587401 3.1345999
-1.728372 0.017149553 3.1351581
-1.65045 0.0332154 3.1248
-1.6248218 0.041277234 3.13237
-1.57217 0.045112502 3.1341374
-1.5296699 0.043503199 3.1291101
-1.476452 0.042134881 3.123162
-1.4323175 0.032459952 3.1284451
-1.38749 0.016553599 3.1308801
1.3368267 0.011244856 3.1299498
1.3793411 0.026436573 3.1261573
2.8355241 0.017165953 3.1224816
-3.38888 0.082316697 3.10483
-2.7251301 0.056609299 3.11308
-1.8106033 0.055960666 3.13153
-1.7783525 0.058574177 3.13586
-1.733855 0.066089347 3.111445
-1.6223732 0.065216437 3.1084335
-1.5728699 0.075617932 3.11269
-1.5366299 0.072643593 3.1105723
-1.478375 0.064206496 3.107235
1.37404 0.084997565 3.1168535
2.8618398 0.077356078 3.1252799
-3.4662001 0.144969 3.10357
-3.4208782 0.12387717 3.1156168
-3.39218 0.1341835 3.1414499
-2.68856 0.11167 3.10392
-2.30299 0.124257 3.13305
-2.273845 0.14172399 3.1442299
-2.23669 0.141045 3.14451
-2.13241 0.103464 3.1001799
1.38041 0.111363 3.1167901
1.4173867 0.122345 3.1166067
1.47132 0.13982834 3.1381767
2.8787599 0.12554225 3.1247199
-3.5534401 0.1781835 3.1093102
-3.51598 0.18771601 3.1112001
-3.4312201 0.16535449 3.1236949
-2.4294851 0.19868901 3.142765
-2.365695 0.18748049 3.1286302
-2.32495 0.18190175 3.126025
-2.2756302 0.179369 3.1140561
-2.2224 0.174353 3.105695
-1.72569 0.198669 3.14765
-1.6742575 0.19288425 3.1369174
-1.645005 0.188719 3.1478601
-1.5371966 0.18886869 3.1402333
1.4863733 0.16583733 3.1154664
1.53126 0.1863945 3.1348948
2.8893616 0.17415166 3.1342947
-3.6212401 0.232696 3.112215
-3.5792265 0.21760134 3.1182365
-3.54617 0.210271 3.13696
-2.62801 0.22209699 3.1305599
-2.57796 0.23206234 3.1153367
-2.5257549 0.22788526 3.1257324
-2.4774575 0.22677824 3.1338675
-2.4279499 0.22468551 3.12219
-2.371985 0.21312651 3.101305
-2.3350599 0.212176 3.10376
-2.2585199 0.20996 3.1027601
-1.8143851 0.23657826 3.1191673
-1.7731651 0.23377018 3.1140416
-1.7291117 0.23028517 3.1211135
-1.6750433 0.2292442 3.1270266
-1.64507 0.213248 3.14675
-0.984595 0.23081499 3.1329601
1.50893 0.243202 3.14537
2.9114752 0.222499 3.1200924
-3.6772277 0.28164041 3.1176059
-3.6358776 0.27111673 3.1316226
-3.5951099 0.25414601 3.1421001
-2.614825 0.285207 3.1106601
-2.5806999 0.2753475 3.1215601
-2.5268085 0.27342919 3.1240501
-2.4781458 0.26823139 3.1286302
-1.8768932 0.26737934 3.1151497
-1.8272101 0.28266615 3.1174157
-1.7713499 0.27362299 3.1327324
-1.733135 0.26452547 3.138695
-1.68514 0.26345301 3.1438501
-1.10412 0.262564 3.1145599
-1.0180299 0.283122 3.1052599
1.5177299 0.27658525 3.1263673
2.9243116 0.27187702 3.1306849
-3.7632301 0.346349 3.1342299
-3.7211328 0.3220675 3.1191351
-3.68943 0.32205099 3.14714
-2.6164601 0.312929 3.1105101
-2.5778151 0.31156951 3.1152949
-2.4793 0.307262 3.1135001
-2.0040801 0.32183701 3.10324
-1.858575 0.31226924 3.1079025
-1.8268334 0.32019651 3.1346581
-1.01168 0.30641198 3.1094398
-0.97174251 0.32625002 3.1249375
1.52508 0.307845 3.13427
1.55843 0.31777102 3.1421051
1.6137249 0.3190425 3.1343551
2.9333365 0.31766766 3.1309299
2.95175 0.34908399 3.1001799
-3.7737851 0.37979698 3.1402149
-3.2151699 0.361646 3.13399
-3.1712501 0.36708164 3.1481066
-3.0887799 0.356262 3.1468899
-1.9232501 0.38674268 3.10989
-1.8738278 0.36719477 3.1257865
-1.35282 0.37975401 3.1166201
-1.22479 0.374365 3.1076701
-1.019345 0.3752135 3.101815
1.5936832 0.38139868 3.1347969
1.60234 0.35912499 3.1279299
2.935452 0.365922 3.1312799
-3.7834499 0.41334599 3.14522
-2.99124 0.40756699 3.1100399
-1.95855 0.43438601 3.1144867
-1.9329834 0.41745546 3.12867
-1.89937 0.405579 3.1407101
-1.31879 0.442099 3.11481
-1.22544 0.426716 3.14938
-1.19885 0.438537 3.1242199
-1.0166833 0.42931256 3.1224499
1.5886499 0.42494097 3.13323
2.8869667 0.43937767 3.1402833
2.915612 0.42298403 3.1254761
-2.0118852 0.49484748 3.114815
-1.9766189 0.47497305 3.1268742
-1.94482 0.45897299 3.1373799
-1.30381 0.45813501 3.12006
-1.26428 0.46432534 3.1391602
-1.16812 0.485661 3.12936
-1.14571 0.49835601 3.1135099
-1.0571899 0.49329501 3.10302
-1.0190821 0.47569162 3.1213059
1.562682 0.47624502 3.1303439
2.6753132 0.48376501 3.1438236
2.7258477 0.48432797 3.1268559
2.7819457 0.4729206 3.1285739
2.8251901 0.4743982 3.1128061
2.86869 0.46119601 3.1055701
2.9007101 0.463227 3.1046
-3.58234 0.54775101 3.1035099
-2.05846 0.54932952 3.1087499
-2.0312428 0.5268923 3.1231143
-1.9958 0.51430601 3.14065
-1.11563 0.53123593 3.1290801
-1.0752932 0.51762563 3.1204464
1.4930533 0.52534169 3.1378033
1.52653 0.52309984 3.1311245
1.5582175 0.5168137 3.1199298
2.4351602 0.52385002 3.1271939
2.4843099 0.52515566 3.1287467
2.5248976 0.52418053 3.1208999
2.5742779 0.51526678 3.1266639
2.63201 0.51411551 3.1295125
2.675036 0.52112657 3.1121421
2.71174 0.50742298 3.1001899
-3.6289999 0.55167401 3.10781
-2.0767622 0.58047163 3.1217198
-2.0351849 0.56090999 3.14258
-1.10923 0.56574303 3.1470799
1.327245 0.59351599 3.1414251
1.380492 0.58673298 3.1418042
1.4145035 0.58462071 3.1231749
1.4819874 0.57822043 3.1300638
1.53127 0.57255697 3.1206059
1.5836 0.58623898 3.1015501
-2.117533 0.62889844 3.1232343
-2.0859034 0.61372304 3.1355333
-1.09556 0.64542902 3.14538
0.68794799 0.64558852 3.1473799
0.72683764 0.64600569 3.1425698
0.773848 0.64674801 3.1374466
0.83902752 0.64179802 3.1396499
0.87131482 0.64279133 3.1377966
0.91525573 0.64165699 3.1302099
0.97406483 0.63325441 3.1392961
1.0225786 0.62994725 3.1363943
1.072252 0.62815255 3.1295681
1.1210663 0.62630028 3.1256139
1.1740991 0.62641311 3.121835
1.223801 0.62099111 3.12607
1.2751832 0.61969668 3.1205854
1.3247715 0.62166119 3.1150544
1.3740133 0.61691117 3.117625
1.40801 0.60975754 3.1115298
1.4867101 0.62001634 3.1098566
1.51911 0.60762799 3.105845
1.5639334 0.61414629 3.1103802
-2.1252 0.66507399 3.13921
-1.1257349 0.68456906 3.1431916
-1.0898421 0.6803984 3.143012
0.163414 0.69714546 3.1485901
0.22377925 0.69647795 3.1425049
0.27746665 0.69834262 3.1475267
0.3219153 0.68852097 3.1351817
0.37783197 0.68681771 3.1344099
0.42877802 0.68251914 3.1336157
0.47429398 0.68258971 3.1287258
0.52525532 0.68392712 3.1218972
0.57576311 0.67579776 3.1232061
0.62620002 0.67606097 3.1225438
0.6738264 0.67673278 3.1194799
0.71995628 0.67014033 3.1166201
0.77352172 0.66682273 3.1135643
0.82193172 0.66597754 3.1182976
0.87355232 0.66694856 3.1117382
0.93660301 0.66213334 3.1128933
0.98016387 0.65855998 3.1110582
1.0301833 0.65306497 3.1109734
1.070395 0.65388948 3.1043849
-2.4140201 0.74763799 3.14358
-1.1685467 0.73044062 3.1415966
-1.1262809 0.72877461 3.1385744
-1.09075 0.71033895 3.14573
-0.208113 0.74484003 3.14939
-0.16234601 0.74385202 3.14713
-0.12406925 0.74169844 3.139185
-0.067435175 0.73856151 3.143785
-0.025780285 0.73358423 3.139735
0.030064683 0.72720617 3.1324229
0.079722181 0.72860628 3.1287544
0.1277751 0.73016822 3.1229403
0.16840982 0.72756732 3.1192536
0.22466826 0.72154349 3.1209962
0.27500966 0.72215843 3.1142344
0.32467699 0.71634436 3.1142399
0.3763783 0.71438771 3.110817
0.42626765 0.70865172 3.1099834
0.46390802 0.70861602 3.1055651
-2.5629799 0.79655498 3.11534
-2.5214701 0.79046798 3.1345026
-2.4824533 0.78013468 3.1451766
-2.4444799 0.75142401 3.1480801
-1.1613975 0.77063876 3.1385374
-1.1324174 0.77378428 3.1422799
-0.47032365 0.79743701 3.1479967
-0.4229587 0.79482299 3.1425667
-0.37670866 0.79379702 3.1428463
-0.32688078 0.78518599 3.138072
-0.27415714 0.77910507 3.13026
-0.22351509 0.77674001 3.1259565
-0.17789191 0.7723617 3.1207948
-0.12407839 0.77065539 3.1185999
-0.070650823 0.76478523 3.1137002
-0.025569551 0.75842088 3.1121113
0.026912181 0.75512534 3.1090868
0.069380604 0.75506735 3.1082399
-2.6545701 0.84515297 3.1133101
-2.6198533 0.83576965 3.1196632
-2.5735319 0.82706201 3.129668
-2.5386701 0.82842398 3.14922
-0.6638363 0.84426337 3.1361167
-0.62705684 0.84061575 3.1382816
-0.57663012 0.8343693 3.1349599
-0.52557671 0.82602793 3.1330597
-0.47073159 0.82495451 3.1236212
-0.42204264 0.81798875 3.1159101
-0.37408483 0.81101888 3.1166298
-0.32799217 0.80939549 3.1142018
-0.29692301 0.8071025 3.10761
-2.7194424 0.88699371 3.1121376
-2.671345 0.87885571 3.1268051
-2.6312199 0.86545348 3.13359
-2.59868 0.86397099 3.1468501
-0.92277163 0.89719963 3.1405067
-0.87115145 0.88476819 3.1365366
-0.8205114 0.88407725 3.1313326
-0.77353507 0.88618338 3.1248362
-0.72066337 0.87288016 3.1217165
-0.67450058 0.866898 3.1203141
-0.62646735 0.86485898 3.1134319
-0.57569069 0.856067 3.1122532
-0.53530902 0.85255897 3.10467
-2.8096001 0.940911 3.1001799
-2.7789533 0.93279129 3.1136131
-2.7325461 0.92401922 3.1269639
-2.6963699 0.91566998 3.1496699
-1.25781 0.94029498 3.1473401
-1.201925 0.94262695 3.1412449
-1.1665701 0.94273537 3.1415331
-1.1255081 0.93683374 3.1358039
-1.0728999 0.93625981 3.1235147
-1.0247227 0.92426354 3.1315958
-0.97442979 0.92134517 3.1250935
-0.92482388 0.92287737 3.1195362
-0.87634218 0.91777372 3.1130929
-0.83296937 0.911129 3.1097832
-0.79899502 0.91295701 3.1034999
-3.2415299 0.98028147 3.11623
-2.8585899 0.98966497 3.1101201
-2.8184199 0.97609019 3.1203275
-2.7751465 0.97004604 3.1364868
-1.50741 0.99880701 3.1478601
-1.47829 0.99595749 3.148335
-1.420495 0.99150401 3.13694
-1.3738033 0.98511249 3.1354816
-1.3231373 0.97888339 3.1316202
-1.2722099 0.97131836 3.1298702
-1.2235733 0.96481317 3.1216748
-1.17748 0.96795648 3.1160934
-1.1281075 0.95932627 3.1148424
-3.2229323 1.0114175 3.1261301
-2.9637101 1.0451601 3.1087999
-2.9236798 1.0315574 3.120955
-2.872 1.0291433 3.1282332
-2.83587 1.0112801 3.132535
-1.6753267 1.03934 3.1409233
-1.6297939 1.0378059 3.1368001
-1.5662324 1.0352875 3.1275249
-1.52701 1.0236375 3.1252387
-1.4793216 1.0213751 3.1219652
-1.427115 1.008085 3.1148601
-1.37752 1.0098966 3.1078002
-1.33942 1.00571 3.1062701
-3.0081601 1.09364 3.1101899
-2.9720299 1.08345 3.1206467
-2.9311326 1.072235 3.1375699
-2.1682799 1.09807 3.1452999
-2.132185 1.093335 3.14662
-2.0734434 1.0887666 3.1357234
-2.0327933 1.0886999 3.1325967
-1.9759599 1.0832767 3.1411698
-1.9282166 1.0832384 3.1296566
-1.8756441 1.0841659 3.1287522
-1.824844 1.080034 3.1241479
-1.7727957 1.0735056 3.1207013
-1.7221743 1.0686944 3.1165674
-1.6809275 1.063995 3.1177802
-1.6270876 1.064765 3.1111925
-1.586305 1.051525 3.113075
-3.0143151 1.129495 3.1260252
-2.98277 1.1288199 3.1456001
-2.3789799 1.139402 3.1401799
-2.279002 1.1336859 3.13041
-2.2189827 1.1280525 3.120275
-2.1738861 1.116984 3.1255958
-2.1256118 1.1211799 3.1241357
-2.0827651 1.108175 3.1197751
-2.0230999 1.110535 3.1066275
-1.98128 1.1089966 3.11691
-1.91267 1.10789 3.1015201
-1.8708767 1.1035767 3.1064899
-3.1193466 1.1821467 3.1120634
-3.082212 1.1699779 3.1360562
-3.0265501 1.16802 3.1480801
-2.8099699 1.19587 3.14398
-2.7139001 1.19886 3.1345899
-2.68958 1.1965899 3.1415401
-2.6163001 1.185125 3.142885
-2.5753 1.1891667 3.1306899
-2.5269134 1.1749667 3.1319234
-2.4746127 1.1775186 3.1214714
-2.4303224 1.1765 3.1254125
-2.3790426 1.1718426 3.1192474
-2.3228924 1.162125 3.11553
-2.2837501 1.16528 3.11304
-3.1827433 1.2274467 3.1066964
-3.1236546 1.2286786 3.1284969
-3.07284 1.2289 3.1462951
-2.983567 1.23788 3.1407368
-2.9143052 1.23282 3.1383026
-2.8735399 1.2358749 3.135155
-2.8246801 1.22067 3.1322942
-2.775928 1.228622 3.1292779
-2.7226074 1.227445 3.1183248
-2.6737134 1.2180099 3.1270134
-2.6221302 1.2123567 3.1110232
-2.5722401 1.211575 3.1135402
-2.52019 1.20023 3.10251
-3.2160833 1.2762667 3.1036332
-3.1737201 1.2817775 3.1120825
-3.1233749 1.2737 3.1150351
-3.0829799 1.272555 3.1167524
-3.0317326 1.268795 3.1155851
-2.9682367 1.2647833 3.1146431
-2.93241 1.25414 3.1255
-2.8775101 1.262965 3.1129501
-2.8253901 1.25291 3.10852
-3.1176 1.30188 3.10005
1.81029 -2.41152 3.1929801
0.440056 -2.3564899 3.15413
0.46733302 -2.35782 3.1525099
0.346892 -2.3006301 3.15868
0.38009024 -2.31248 3.1717749
0.42183766 -2.319989 3.1775854
0.4799993 -2.3327401 3.1779017
0.52111274 -2.3124399 3.1723549
0.28580466 -2.2592335 3.1653931
0.32869688 -2.2719076 3.1736436
0.36661249 -2.2861199 3.1900849
0.542615 -2.2814898 3.1798751
0.56231999 -2.261425 3.1663599
0.22188887 -2.2176871 3.1683629
0.26803583 -2.2329383 3.1828535
0.31101599 -2.24719 3.1938901
0.58213884 -2.2281399 3.1756535
0.14721701 -2.1582451 3.16485
0.17421584 -2.1760199 3.1718032
0.21575899 -2.1809239 3.190974
0.25562701 -2.1967001 3.19714
0.59258199 -2.1792901 3.1688099
0.61077899 -2.1633532 3.1786735
0.082599469 -2.1180234 3.1667633
0.12461101 -2.1309502 3.1788402
0.16541301 -2.1422999 3.1940801
0.63168931 -2.12484 3.1779101
-0.0102109 -2.05966 3.16291
0.024402903 -2.0750897 3.1684132
0.069776565 -2.0867341 3.185452
0.64269698 -2.09899 3.18538
0.66212702 -2.0732775 3.1787527
-0.068567954 -2.0203481 3.1625078
-0.031362355 -2.0283177 3.1801178
0.015655115 -2.042685 3.19046
0.67350262 -2.0328901 3.1870165
-0.163307 -1.95473 3.1565599
-0.12551852 -1.9711925 3.1662412
-0.08463382 -1.9860934 3.1790352
0.69083101 -1.981065 3.1553302
0.70999551 -1.969 3.1695499
-0.2180105 -1.9151649 3.1619949
-0.18061788 -1.9233309 3.1772776
-0.138557 -1.9388775 3.1861825
0.71971339 -1.922864 3.177156
-0.313436 -1.85151 3.15874
-0.27815402 -1.869127 3.1649814
-0.23471387 -1.8766522 3.1822555
-0.18933851 -1.8903351 3.195435
0.74405175 -1.8787451 3.1805251
-0.3672775 -1.813215 3.162075
-0.33074746 -1.8201013 3.1773388
-0.28447217 -1.8362461 3.1865582
0.76251745 -1.8184941 3.170258
-0.460807 -1.75097 3.15399
-0.42353201 -1.7690433 3.1656435
-0.38510227 -1.7813231 3.1790445
-0.34828001 -1.78939 3.1969099
0.7754975 -1.7845249 3.1800351
-0.51078451 -1.7088 3.1656952
-0.47855166 -1.721229 3.17364
-0.43468249 -1.74224 3.1887548
0.80274802 -1.71022 3.1730599
-0.60737199 -1.65755 3.1515999
-0.56881499 -1.6696757 3.1639786
-0.53143036 -1.6773062 3.1810842
-0.4880645 -1.69154 3.1942949
0.80889499 -1.68016 3.1735601
-0.66473854 -1.60606 3.1597848
-0.62287873 -1.6247774 3.1690211
-0.58281302 -1.6355834 3.184942
0.82017863 -1.6202021 3.177768
-0.753667 -1.55182 3.15449
-0.71665478 -1.5661234 3.163842
-0.6748355 -1.5770278 3.1801612
-0.63774002 -1.5922066 3.1902401
0.83485651 -1.564425 3.17962
1.1326749 -1.55705 3.1517949
1.1778567 -1.5625666 3.1655266
1.2277601 -1.5672833 3.1756589
1.25752 -1.57535 3.15345
-0.80831069 -1.5124735 3.1571434
-0.76954836 -1.5194374 3.1711948
-0.72993565 -1.532115 3.1866901
-0.69303298 -1.54723 3.1975801
0.84300399 -1.5306001 3.190305
0.85504699 -1.5388 3.16243
1.0267967 -1.5047632 3.1533699
1.07784 -1.5176617 3.1687334
1.1262574 -1.5310361 3.1796501
1.1685175 -1.53693 3.1862249
1.24799 -1.53346 3.19978
1.31743 -1.506815 3.160615
-0.90068901 -1.45004 3.15588
-0.86675489 -1.4641501 3.1643512
-0.82421416 -1.4794611 3.1738291
-0.78481966 -1.48691 3.1912334
0.85437799 -1.49617 3.1765101
0.97732174 -1.4653758 3.165453
1.0240486 -1.4767244 3.1731942
1.06724 -1.4826976 3.1933775
1.3344427 -1.4789871 3.1768773
1.35848 -1.45354 3.1612799
-0.95788974 -1.4093533 3.1664667
-0.9200502 -1.4214599 3.1740003
-0.87614328 -1.4352601 3.1893902
0.87801391 -1.4219614 3.1777384
0.92499167 -1.4231533 3.1696017
0.95936197 -1.4311351 3.1802325
1.347715 -1.434705 3.19225
1.35754 -1.4183866 3.17206
-1.0208449 -1.3650275 3.1676948
-0.97503877 -1.37974 3.1825933
-0.93019652 -1.391125 3.1901851
0.89688897 -1.3933749 3.1732349
0.90876251 -1.3824301 3.18994
1.373045 -1.3712749 3.1789434
-1.114342 -1.3113741 3.159898
-1.0698711 -1.3234588 3.1745143
-1.0277667 -1.3315617 3.1903918
-0.98895103 -1.34241 3.19591
1.3916632 -1.3388233 3.1712902
1.40275 -1.31022 3.1763101
-1.2021101 -1.2571501 3.15817
-1.1693534 -1.2657584 3.1662617
-1.1269655 -1.2796544 3.1799576
-1.0815001 -1.29433 3.1930752
1.4134684 -1.2730933 3.1748066
-1.2669976 -1.214365 3.1602726
-1.222199 -1.2275611 3.1727257
-1.178865 -1.2424124 3.1887026
1.4328159 -1.222298 3.1730781
-1.3662 -1.16377 3.1538749
-1.3245354 -1.1709927 3.1700189
-1.2812711 -1.1810555 3.18559
-1.24413 -1.19949 3.1914599
1.4493001 -1.17046 3.1912899
1.4525399 -1.1704725 3.1753397
-1.46613 -1.1036299 3.1586599
-1.4253025 -1.1131737 3.1676974
-1.3800349 -1.131636 3.174334
-1.3489799 -1.13694 3.19031
1.463324 -1.12567 3.1723042
2.1828451 -1.13211 3.1780851
2.22594 -1.13088 3.1870351
2.2797735 -1.14083 3.1816101
-1.55562 -1.0574501 3.15238
-1.5191561 -1.06446 3.1658881
-1.4728938 -1.075615 3.1765938
-1.4323567 -1.0852166 3.1907101
2.3418851 -1.0638399 3.1665399
2.35535 -1.05232 3.1507101
-1.6116199 -1.0106 3.1565101
-1.5753675 -1.0250162 3.1661611
-1.5328466 -1.03289 3.1814849
-1.49333 -1.04397 3.1930301
1.33839 -1.0318 3.1941299
1.3684 -1.04588 3.1701801
2.359818 -1.0242319 3.1805463
-1.6665 -0.96532303 3.1676371
-1.6257925 -0.97734404 3.178834
-1.582865 -0.99257296 3.1853776
1.289355 -0.97210097 3.154655
2.3835225 -0.97588247 3.16395
-1.766835 -0.90736127 3.1631899
-1.7205055 -0.92050117 3.173878
-1.6839366 -0.93243629 3.18522
1.25586 -0.924685 3.15049
2.3935251 -0.93633747 3.178735
2.4190819 -0.91644919 3.1700623
-1.86139 -0.85628402 3.1521201
-1.8230486 -0.86769885 3.1637757
-1.7765628 -0.87743872 3.1827445
-1.73908 -0.88924199 3.1948099
1.2314301 -0.85975897 3.1731601
1.2564634 -0.87643403 3.1633332
2.4310327 -0.88883924 3.1857948
2.4568651 -0.8647753 3.1702249
-1.9141699 -0.816037 3.16383
-1.8716723 -0.82649821 3.176929
-1.8278799 -0.83633065 3.1870565
1.236854 -0.832012 3.1693377
2.4705167 -0.8248505 3.1726749
-2.0042901 -0.76223701 3.1503601
-1.9694026 -0.76644927 3.1667376
-1.9325758 -0.78349578 3.1768057
-1.889365 -0.79586947 3.1953499
1.23752 -0.78545249 3.1807351
1.256075 -0.7576555 3.1632199
2.4843574 -0.782332 3.1785526
2.50019 -0.76139998 3.1573801
-2.06182 -0.71515954 3.1594701
-2.0231812 -0.72904038 3.1689539
-1.980908 -0.7408334 3.1834259
1.2666262 -0.72599036 3.1791253
2.4934199 -0.74637997 3.1886401
2.509625 -0.72094828 3.1685226
-2.1158299 -0.66604173 3.1609674
-2.0794411 -0.67961389 3.1752861
-2.03708 -0.69430369 3.1917102
1.2851779 -0.68283087 3.1816998
1.3066 -0.66191745 3.16991
2.5359185 -0.67217714 3.1780331
-2.15382 -0.631836 3.1519401
-2.1285133 -0.63677078 3.1793416
1.2388799 -0.61197501 3.1910601
1.2849283 -0.62691098 3.1825416
1.3156834 -0.6341905 3.16664
2.5445051 -0.63538599 3.183285
2.5624399 -0.61647105 3.1726551
1.182595 -0.560112 3.1673048
1.20725 -0.58424497 3.182615
1.30443 -0.59262002 3.1527801
2.5787599 -0.57487673 3.1724224
-2.1377299 -0.52672702 3.1794701
1.17851 -0.52821624 3.1726525
2.5915632 -0.53691769 3.1789665
2.6065166 -0.51114202 3.1648066
1.205098 -0.47350898 3.172528
2.6188374 -0.474062 3.1818302
1.2238724 -0.42937872 3.1754999
2.6365826 -0.43156675 3.1724899
-2.6582999 -0.35363099 3.15714
-2.6173034 -0.3584483 3.1651735
-2.5773365 -0.36907849 3.1674135
1.2416451 -0.398112 3.17854
1.259945 -0.36287349 3.182755
2.6641216 -0.37617764 3.1726549
-2.7198632 -0.30036533 3.1648197
-2.6735327 -0.32346353 3.1779599
-2.62305 -0.33521301 3.1859801
-2.5858002 -0.33399951 3.192795
-2.53773 -0.33134899 3.1854401
1.2692599 -0.319242 3.1872566
2.688288 -0.32455522 3.17872
-2.7745681 -0.27229819 3.167562
-2.7239175 -0.27346277 3.1889975
1.2780834 -0.27088699 3.1828134
2.7100632 -0.27113733 3.1823633
-2.8564 -0.209397 3.1524799
-2.8177884 -0.2218105 3.1723032
-2.7780676 -0.237046 3.1843302
-2.7447801 -0.246126 3.1977601
1.2842884 -0.22170116 3.1639416
2.7199152 -0.23177275 3.1815276
-2.8742397 -0.16673256 3.1741927
-2.8332434 -0.18446065 3.1858532
1.2919635 -0.17509484 3.1852634
1.30503 -0.17363733 3.1508868
2.7411823 -0.1800025 3.18224
2.75191 -0.151526 3.1779499
-2.8882198 -0.12770067 3.1794865
1.2916725 -0.13509975 3.18611
1.309298 -0.1201128 3.163286
2.7640035 -0.12610365 3.1689203
1.3203551 -0.078964725 3.1690626
2.7870274 -0.070876472 3.175745
-1.85092 -0.0161226 3.1893101
-1.7149034 -0.026802801 3.1702602
1.3331679 -0.034452621 3.1785541
1.363596 -0.021683799 3.1725059
2.8058548 -0.027884848 3.1707699
-1.82864 0.0091645662 3.18769
-1.7866049 0.0257491 3.1692674
-1.70423 0.00074628199 3.1505799
-1.66739 0.008961414 3.1760375
-1.6278551 0.017166849 3.17665
-1.5826751 0.021144126 3.1749277
-1.53845 0.0089061623 3.1935701
-1.4543101 0.0167764 3.1561699
1.32184 0.00072920398 3.15168
1.3756633 0.0060536689 3.1634934
2.8251657 0.023909884 3.1782079
-2.2147701 0.088969298 3.18487
1.36348 0.080623403 3.1628799
1.421445 0.089765355 3.1887751
2.8436399 0.068295397 3.17682
2.8569133 0.090802528 3.1671903
-2.4575601 0.14693201 3.1990399
-2.4149301 0.14546099 3.17823
-2.3756101 0.13888432 3.1843932
-2.325845 0.12146426 3.1817
-2.27969 0.1164785 3.1882248
-2.2348299 0.11510751 3.16012
-1.56721 0.14744449 3.17045
1.45284 0.114576 3.1949401
2.8619351 0.12650076 3.1777475
-3.42344 0.17992467 3.1569464
-2.4697852 0.17386001 3.1787901
-2.4235351 0.17253301 3.1709275
-2.3831699 0.162608 3.17033
-2.34884 0.16148099 3.1591799
-1.6197118 0.18045665 3.1567316
-1.5781186 0.17751513 3.1603315
1.49334 0.196927 3.1965301
2.8759449 0.17054451 3.1825523
-3.5632701 0.232329 3.1510201
-3.5464399 0.232596 3.1717601
-3.45402 0.20847701 3.16032
-3.4276199 0.20812801 3.1714201
-2.56863 0.204781 3.1978199
-2.5143299 0.201905 3.16469
-2.4762599 0.20029899 3.1510999
-1.86938 0.237362 3.1770401
-1.653 0.24712799 3.1600001
-1.6246712 0.2322644 3.1637311
-1.5757612 0.22984467 3.1773322
-1.5324025 0.22866401 3.1745825
1.4817986 0.23018236 3.1750927
1.5202533 0.22872834 3.1699436
2.8934774 0.2241115 3.1721349
-3.6128149 0.2872355 3.1555851
-3.5688534 0.27568117 3.1713297
-3.52279 0.2801995 3.192395
-1.7503099 0.28245699 3.1500001
-1.7152975 0.27801475 3.1612875
-1.6681179 0.27816382 3.1715801
-1.6304034 0.26521301 3.1924102
-1.4882901 0.26721251 3.1596498
1.4876629 0.27296343 3.1798115
1.50299 0.29369399 3.16991
1.5702267 0.27875933 3.1624
1.60906 0.29824001 3.18592
2.8958664 0.27378899 3.18964
2.90839 0.27312168 3.167237
-3.6789 0.33667365 3.1612499
-3.6284001 0.33530235 3.1779602
-3.58899 0.31972951 3.1863999
-3.54229 0.318378 3.1986101
-3.1665599 0.34065801 3.1573501
-3.13235 0.329153 3.15871
-1.8085849 0.3353135 3.1568749
-1.7797725 0.31450623 3.1726375
-1.7257481 0.30779099 3.18611
-1.69328 0.300648 3.1947801
1.49685 0.320279 3.19594
1.5205238 0.32899827 3.1684012
1.574206 0.33474761 3.1606503
1.60455 0.3221015 3.17502
2.8985548 0.32281899 3.1888549
2.9191768 0.32544664 3.16294
-3.7292881 0.3813836 3.1691022
-3.6748569 0.37413833 3.1913033
-3.1240165 0.38530502 3.1570365
-3.0945101 0.376708 3.15099
-1.8608351 0.38945198 3.16875
-1.8273662 0.36545962 3.1778951
-1.0237135 0.37473834 3.1670902
1.5256851 0.3791005 3.1777799
1.5745699 0.37536725 3.1611328
2.8318336 0.38177368 3.1934135
2.874264 0.37385139 3.1789999
2.9121501 0.37081298 3.1631966
-3.8102 0.438133 3.1652501
-3.7692151 0.4250305 3.1694951
-3.7290373 0.42413974 3.1909199
-3.5776601 0.44719201 3.18326
-3.5353501 0.42339599 3.18345
-1.9136901 0.438393 3.1611474
-1.8809358 0.42105785 3.1814716
-1.8473099 0.408957 3.1993101
-1.013105 0.43141699 3.181185
1.526028 0.42502928 3.1737151
1.569062 0.4235 3.157568
2.5429299 0.44799 3.1898501
2.6897199 0.438014 3.1909201
2.7288702 0.43015176 3.1839375
2.7792726 0.43201351 3.1701026
2.8233478 0.42470616 3.1670821
2.8672473 0.41724551 3.1630502
-3.8239501 0.46166101 3.17435
-3.78385 0.45943099 3.1784501
-3.7451749 0.46822 3.1818099
-3.6789 0.46394849 3.1801548
-3.6208949 0.49127799 3.162595
-3.5664301 0.47755802 3.16991
-1.959875 0.49890849 3.175575
-1.9288243 0.47553587 3.18223
-1.20521 0.47854 3.1833601
-1.0166019 0.48181081 3.1653962
-0.99617499 0.485632 3.17484
1.526783 0.4777008 3.1692181
1.56406 0.459997 3.1593001
2.4440801 0.49522701 3.1645501
2.479594 0.48388258 3.1763301
2.5258849 0.47448301 3.18296
2.5650434 0.47850835 3.1656563
2.6249483 0.47379032 3.1743486
2.6751001 0.45925176 3.1707451
2.7389998 0.457268 3.1564651
-3.77723 0.502231 3.168
-3.5624199 0.50878799 3.16278
-2.0037999 0.53355902 3.1509299
-1.97203 0.52564901 3.1736686
-1.94187 0.51814002 3.1988001
-1.16669 0.52332401 3.16854
-1.14967 0.53860003 3.16766
-1.06528 0.52805263 3.1568
-1.0219725 0.52105761 3.1656063
-0.9799397 0.53437102 3.1843786
1.24756 0.54923803 3.1993599
1.2643 0.54949099 3.19572
1.31847 0.53566098 3.1958899
1.374212 0.5306356 3.187814
1.4018 0.53648603 3.1726899
1.476915 0.53054726 3.1610651
1.52476 0.50705302 3.1529801
2.52618 0.50055802 3.16185
2.5515201 0.50188297 3.15767
-2.0633099 0.59237403 3.16417
-2.0205002 0.57765514 3.1715229
-1.9930351 0.55491698 3.1856551
-1.1201934 0.58185267 3.1765263
-1.0727116 0.56918693 3.1694868
-1.0180242 0.57519943 3.1792967
-0.96732014 0.58095324 3.177979
-0.91983253 0.58063382 3.1870291
-0.88380837 0.59144634 3.1953602
0.72947949 0.5929805 3.1987848
0.76931101 0.593629 3.1950467
0.82702523 0.59156978 3.1901422
0.87422746 0.59204078 3.1873899
0.93265015 0.5903582 3.1877601
0.98030013 0.59061199 3.1778584
1.030255 0.59216589 3.1743286
1.0773885 0.57651013 3.1856728
1.1274024 0.57573342 3.1829925
1.1753832 0.57513839 3.1778631
1.22732 0.57700211 3.1736245
1.2783779 0.57125521 3.1727607
1.3233755 0.57009232 3.1677768
1.3721151 0.56269777 3.1650913
1.42804 0.56156397 3.1644349
1.46371 0.56836498 3.1687999
-2.0699515 0.63421947 3.1680486
-2.0341825 0.61583197 3.1877625
-1.1179862 0.6255815 3.1636951
-1.0712141 0.62318957 3.1630681
-1.0231172 0.63135916 3.1676972
-0.97074503 0.63093078 3.1750937
-0.92288095 0.62608278 3.1794562
-0.87289858 0.62772995 3.1905067
-0.84152603 0.61984551 3.1979399
0.18829 0.64411998 3.19473
0.226725 0.64450026 3.1945572
0.280146 0.64396733 3.188513
0.32620981 0.63648784 3.1871336
0.37210998 0.63786697 3.182128
0.42359215 0.63316435 3.185271
0.47945997 0.62643284 3.1829216
0.52837282 0.62737358 3.1757369
0.57541889 0.62602675 3.1758387
0.62339658 0.6265049 3.1729801
0.67148107 0.62254006 3.1728821
0.72379935 0.61926442 3.1693189
0.77642739 0.61894691 3.166271
0.8252126 0.61938536 3.1609199
0.87692815 0.61581737 3.1629684
0.92746478 0.6183365 3.1652765
0.97104448 0.61476374 3.15733
1.016505 0.61230898 3.1546001
1.07876 0.60069704 3.1638367
1.1291766 0.60229594 3.1589699
1.16236 0.603064 3.15377
-2.33571 0.69128001 3.1900799
-2.1598048 0.681997 3.1708651
-2.1135726 0.678491 3.1738076
-2.0829499 0.67605495 3.1939566
-1.1663966 0.68245196 3.1767132
-1.13528 0.66603601 3.15729
-1.0661221 0.67815816 3.1544518
-1.0244699 0.67662054 3.1648099
-0.97203189 0.67839503 3.1790624
-0.92735529 0.67411155 3.1911914
-0.87573904 0.66123503 3.1960468
-0.102946 0.69134301 3.1971099
-0.072076298 0.68958038 3.1894901
-0.021022284 0.68557853 3.1836951
0.021598769 0.68487996 3.1772838
0.075058609 0.68469769 3.1731675
0.12800631 0.67939746 3.1771531
0.17357022 0.67414939 3.1729062
0.22545801 0.67127228 3.1714561
0.27856857 0.67071736 3.1654131
0.32438967 0.66336036 3.1643867
0.37011883 0.66337115 3.1604366
0.42428821 0.65708375 3.1626725
0.47727033 0.656434 3.1535332
0.52366996 0.65721434 3.1515334
-2.4005001 0.74908203 3.1609099
-2.3647268 0.73939037 3.1614666
-2.3323717 0.72264004 3.1735733
-2.1183 0.71335369 3.1811368
-2.09447 0.71617448 3.19275
-1.2032501 0.72594702 3.18981
-1.187675 0.72139049 3.1719999
-1.0694749 0.73106229 3.1621437
-1.0274128 0.72536832 3.1779199
-0.994986 0.71509701 3.1931601
-0.42830196 0.74287599 3.19327
-0.37339902 0.74127251 3.1914301
-0.31395048 0.73361474 3.1803601
-0.27122018 0.72834325 3.1777687
-0.22651134 0.7257663 3.1784856
-0.18014926 0.7239424 3.1726294
-0.12513974 0.7173593 3.1708133
-0.07350482 0.71371567 3.1644638
-0.029004401 0.70918024 3.1639922
0.019644253 0.70682698 3.1604149
0.095450297 0.71352398 3.1538301
0.118329 0.70663249 3.1576149
-2.45467 0.78215349 3.1557851
-2.4241648 0.78118896 3.1689601
-2.3865826 0.78085625 3.190105
-2.3477001 0.76791102 3.1928999
-1.20417 0.78297651 3.1817751
-1.1753 0.77458048 3.152205
-1.115532 0.78408635 3.15962
-1.0820282 0.77239162 3.1759338
-1.0401549 0.758838 3.1932001
-0.70135099 0.78542602 3.19994
-0.67557347 0.79844451 3.1900499
-0.61835659 0.78409058 3.1877644
-0.56652015 0.78007525 3.1783471
-0.51969087 0.77717054 3.1781881
-0.47360569 0.77207178 3.1757421
-0.42599988 0.76964146 3.170579
-0.37841532 0.76669878 3.1627765
-0.33436215 0.7626577 3.160692
-2.5154135 0.83201599 3.1662767
-2.4798675 0.822716 3.1815326
-2.43524 0.82476854 3.193675
-1.1743159 0.8260026 3.1793199
-1.1265033 0.82493478 3.1789181
-1.0912349 0.80115354 3.1826601
-0.97006863 0.84811902 3.1990299
-0.91804099 0.84432548 3.1956301
-0.86691469 0.83574063 3.1944866
-0.82592762 0.83615267 3.1823745
-0.77918172 0.83188057 3.174387
-0.7296887 0.82120365 3.1737177
-0.68214667 0.82393557 3.168005
-0.63167167 0.81571698 3.1675732
-0.58590734 0.81093979 3.161612
-0.53418034 0.80134469 3.1560366
-2.6208301 0.88707501 3.15189
-2.5731621 0.87801999 3.176388
-2.5279665 0.86949301 3.1872034
-2.4965701 0.86096901 3.1960299
-1.1710366 0.88047379 3.1855686
-1.1222249 0.8786788 3.1809912
-1.0719675 0.88145667 3.1803801
-1.0225111 0.87942433 3.1768756
-0.9744457 0.87606663 3.1662858
-0.92842323 0.87099391 3.1666489
-0.87922019 0.86133742 3.1723201
-0.82961226 0.85884547 3.1568875
-0.77527064 0.8589794 3.1520798
-2.7034299 0.93718898 3.1535001
-2.6703498 0.92815399 3.1629035
-2.6278281 0.92057133 3.178978
-2.5727901 0.90886652 3.1947999
-2.53353 0.90494001 3.19909
-1.4069 0.94826502 3.1947999
-1.374055 0.94279999 3.1849852
-1.3266101 0.93016917 3.18591
-1.282545 0.93224448 3.1747248
-1.2313976 0.92496794 3.1711111
-1.17483 0.91881299 3.1644638
-1.1268475 0.90819347 3.1621025
-1.0809265 0.91134232 3.1543233
-3.2352934 0.98287338 3.1763232
-2.7657001 0.98748249 3.1635499
-2.7250152 0.97360152 3.1717949
-2.676095 0.96495497 3.18609
-1.720695 0.99773347 3.194665
-1.6791451 0.99345303 3.1956799
-1.6207125 0.99069375 3.19157
-1.567438 0.98144042 3.1807079
-1.5258174 0.98030174 3.17188
-1.47553 0.97467929 3.1694565
-1.4285134 0.96263552 3.1746318
-1.3716741 0.9607892 3.1607862
-1.3296551 0.95118654 3.1651301
-3.2258601 1.01166 3.1843801
-2.8192401 1.0304075 3.1629324
-2.7736676 1.02303 3.1831427
-2.7337298 1.0092449 3.19257
-2.69242 1.00463 3.19735
-2.1179099 1.04574 3.19491
-2.08411 1.042305 3.1987951
-2.0220966 1.0423166 3.1794865
-1.977204 1.0338459 3.1885598
-1.9291174 1.03506 3.1909552
-1.8758868 1.03111 3.1825383
-1.8233399 1.0285817 3.1731203
-1.7771728 1.0293701 3.170326
-1.7251513 1.0262487 3.170136
-1.6693474 1.0131724 3.1705399
-1.6246479 1.0126259 3.1665659
-1.5880133 1.0169801 3.1616032
-1.5285 1.00174 3.15065
-2.9256499 1.09232 3.1630001
-2.87117 1.077282 3.1690741
-2.8280201 1.0695333 3.1884868
-2.7883999 1.05783 3.19261
-2.3261197 1.0850867 3.1871598
-2.271946 1.08606 3.1793301
-2.2214682 1.0747584 3.1776831
-2.1730981 1.071514 3.1757979
-2.13118 1.0636475 3.1824148
-2.0759878 1.0641201 3.167598
-2.016525 1.07037 3.1557724
-1.9805633 1.0654601 3.1674299
-1.9268732 1.0584866 3.1672964
-1.8803151 1.06203 3.15556
-1.8232399 1.0541 3.1525466
-2.9578469 1.1327333 3.1652367
-2.9138534 1.1193334 3.1667001
-2.8698401 1.1263001 3.1843739
-2.8262768 1.1396866 3.1926668
-2.77895 1.1403 3.19645
-2.67384 1.144245 3.1928849
-2.6140251 1.13503 3.192275
-2.57287 1.13951 3.1798165
-2.5210049 1.12869 3.1814549
-2.4673362 1.126246 3.1794562
-2.4240975 1.1192125 3.1808424
-2.3693299 1.1134474 3.1698198
-2.3252125 1.1195101 3.16012
-2.2634549 1.11403 3.1546049
-2.2279 1.10991 3.1586599
-3.07111 1.19774 3.1532099
-3.0186434 1.1835767 3.1595631
-2.9651828 1.1735876 3.1688552
-2.9210598 1.1778734 3.17171
-2.8797479 1.176312 3.1750221
-2.8172767 1.16889 3.1733501
-2.778728 1.1801401 3.169714
-2.7252333 1.1691183 3.1766665
-2.6745937 1.1790999 3.1649301
-2.62888 1.1619825 3.1663949
-2.5673199 1.1610401 3.159725
-2.52492 1.15465 3.16046
-2.49733 1.15061 3.16131
-3.031935 1.2245975 3.1570201
-2.9607499 1.2099133 3.1596167
-2.8857701 1.2113301 3.15728
1.8089366 -2.4143066 3.2283566
0.47558397 -2.3079898 3.2121799
0.34774399 -2.25385 3.20012
0.3786884 -2.264056 3.2189419
0.42338756 -2.2753313 3.2230189
0.48025337 -2.2790368 3.23985
0.5266977 -2.2733648 3.2192414
0.28646934 -2.2123468 3.2056134
0.33261013 -2.2243674 3.2268777
0.3776885 -2.236995 3.245645
0.54107547 -2.24068 3.23103
0.56631601 -2.2154119 3.2269359
0.22711539 -2.16063 3.2180419
0.27227256 -2.1785257 3.2312186
0.31168449 -2.1908901 3.238735
0.59409136 -2.1833067 3.2239501
0.60157102 -2.1589999 3.2481699
0.141903 -2.1130335 3.2112103
0.17625299 -2.1228013 3.2262728
0.21129251 -2.136425 3.2372675
0.62088519 -2.1174979 3.2256241
0.041781399 -2.0504701 3.2023101
0.080399342 -2.0660419 3.2112319
0.12256329 -2.0815742 3.227797
0.64183325 -2.0755875 3.2236776
-0.019080101 -2.0083201 3.20911
0.026534744 -2.0194402 3.2220414
0.073483802 -2.03935 3.2354198
0.665286 -2.0262275 3.2251251
-0.073688261 -1.9621 3.2135365
-0.030004689 -1.9779462 3.2290301
0.012655954 -1.9892768 3.2397232
0.686903 -1.98154 3.2139826
-0.12822928 -1.9173471 3.2166543
-0.085425369 -1.93106 3.2362068
0.68930203 -1.94101 3.22191
0.71256959 -1.9168119 3.2224262
-0.22336149 -1.855245 3.2083449
-0.17821945 -1.8736387 3.2297366
-0.1345222 -1.885368 3.24142
0.73235399 -1.8738233 3.2264168
0.75214899 -1.85374 3.21278
-0.27319658 -1.8157713 3.2225773
-0.23271601 -1.83593 3.2308066
-0.199062 -1.8492 3.23684
0.74378753 -1.83743 3.2244802
0.75412351 -1.8154399 3.2420301
-0.37771651 -1.7591051 3.2062798
-0.32826009 -1.7760179 3.2280421
-0.28737774 -1.7917074 3.234545
0.7743755 -1.7761725 3.2247725
-0.42384923 -1.7176075 3.2167976
-0.37563854 -1.732039 3.2307177
0.78913319 -1.72909 3.220984
-0.51330602 -1.65818 3.20574
-0.47798812 -1.6704832 3.2208555
-0.4308486 -1.684165 3.2360711
0.79603696 -1.6812867 3.2408102
0.80668002 -1.66776 3.2112501
-0.61167902 -1.60215 3.20105
-0.57653743 -1.613258 3.212522
-0.53128767 -1.6282867 3.2246644
-0.49837101 -1.6473 3.2263
0.80845475 -1.6246425 3.2169027
-0.669783 -1.551165 3.2099199
-0.62772781 -1.57012 3.2200789
-0.58685786 -1.582255 3.2324631
-0.54116899 -1.598875 3.245585
0.83196265 -1.5826899 3.2266033
-0.71743017 -1.5128081 3.212328
-0.67996478 -1.5217845 3.2298989
-0.64327031 -1.5385132 3.2436435
0.84198201 -1.527325 3.2269902
1.13336 -1.50165 3.20754
1.181895 -1.515515 3.2178116
1.2252028 -1.5265515 3.2247984
1.266315 -1.5192875 3.2319701
-0.80802202 -1.4611599 3.20134
-0.77150893 -1.4708463 3.2196121
-0.73703355 -1.4805114 3.2338085
-0.69874501 -1.49259 3.24892
0.84792602 -1.49761 3.22543
0.86106867 -1.4744767 3.2142766
1.0358 -1.45069 3.2072699
1.080282 -1.467294 3.2161598
1.12137 -1.4790334 3.2279737
1.1769475 -1.487905 3.2328949
1.3266333 -1.4752933 3.2269499
-0.87142545 -1.4172601 3.2089801
-0.82916164 -1.4269947 3.2234526
-0.78984529 -1.4405966 3.2317498
0.85943198 -1.4383 3.2207301
0.940898 -1.40151 3.20577
0.983558 -1.423322 3.2108741
1.0235955 -1.42273 3.2318029
1.0693076 -1.4363549 3.2344077
1.3386949 -1.4395649 3.2332199
1.35754 -1.4105899 3.2283649
-0.957807 -1.36185 3.2049799
-0.92296177 -1.3704233 3.2187901
-0.88273168 -1.3832535 3.2333977
-0.84627599 -1.38615 3.2430201
0.88339072 -1.3839775 3.2113075
0.9292056 -1.3684886 3.2212043
0.97322124 -1.3868251 3.2325926
1.36441 -1.3799868 3.2226601
-1.0169079 -1.311986 3.2171841
-0.97829282 -1.3254569 3.2275538
-0.94000071 -1.34026 3.2342598
0.88965499 -1.34987 3.2311499
0.91519392 -1.3330219 3.2402139
1.3836328 -1.3246001 3.2236571
-1.1170801 -1.2557833 3.2136667
-1.076015 -1.2696209 3.2185409
-1.037583 -1.2791857 3.2358131
-0.99896699 -1.28887 3.2499499
1.39094 -1.2890201 3.2292051
1.413995 -1.26074 3.22192
-1.2226751 -1.20296 3.2084
-1.1761243 -1.2167299 3.2205434
-1.1341101 -1.2293112 3.23034
-1.090575 -1.238095 3.2407951
1.4362932 -1.2222234 3.2408266
-1.2638559 -1.161986 3.2163577
-1.2234622 -1.1766056 3.2273681
-1.1804299 -1.1856967 3.2428567
1.4477899 -1.19168 3.22963
1.4502701 -1.16798 3.24299
-1.3600534 -1.1135234 3.2092502
-1.3219867 -1.1256323 3.2217686
-1.2789334 -1.13275 3.2389219
1.44697 -1.14819 3.24069
1.4600201 -1.13641 3.22767
2.21857 -1.10423 3.2033401
2.2734199 -1.126855 3.222755
2.3001001 -1.11689 3.2068
-1.45933 -1.06057 3.20029
-1.4171985 -1.0686142 3.2164271
-1.3796526 -1.0813363 3.2296438
-1.3386599 -1.0908333 3.24212
2.2927699 -1.08505 3.2448299
-1.5177799 -1.0143965 3.2192633
-1.4725392 -1.0240917 3.2243226
-1.43179 -1.043925 3.2316723
1.30958 -1.002 3.2253101
2.3392999 -1.00598 3.21773
2.35764 -1.00582 3.2057199
-1.6162267 -0.95810938 3.2078836
-1.5701367 -0.969679 3.2165179
-1.5301867 -0.98295099 3.232805
-1.4919 -0.986687 3.24986
2.34253 -0.97005099 3.2318399
2.3687224 -0.9758485 3.2199826
-1.6656841 -0.91229802 3.2169299
-1.6276749 -0.9253962 3.2327225
-1.5904551 -0.93858451 3.2367048
2.3478899 -0.93486899 3.2485499
2.38747 -0.92694902 3.2172766
-1.77262 -0.85883403 3.2053099
-1.7248375 -0.87246734 3.2166965
-1.6829516 -0.88119465 3.2367098
-1.64239 -0.89238101 3.2496901
1.2190971 -0.8740775 3.2258127
1.2567 -0.88809699 3.2107601
2.39062 -0.89003348 3.2435551
2.415725 -0.87214166 3.2191334
-1.8186016 -0.8226583 3.2124884
-1.7739413 -0.83018446 3.2290938
-1.7366199 -0.84498 3.24073
1.227302 -0.82136106 3.2150083
2.4363849 -0.83656597 3.2434299
2.4590142 -0.82214367 3.2244461
-1.9100834 -0.76953363 3.20473
-1.8700329 -0.77630275 3.2234273
-1.8323666 -0.78703117 3.23861
-1.79918 -0.79800898 3.24822
1.24172 -0.76653242 3.2254519
2.4775898 -0.77081466 3.2314484
-2.0085199 -0.70034999 3.2066
-1.9696627 -0.71505362 3.2197363
-1.9296787 -0.73291761 3.2255385
-1.8891534 -0.74369472 3.23773
1.2423884 -0.7200768 3.2309816
1.26161 -0.70069599 3.21244
2.49909 -0.7254585 3.23792
2.510515 -0.72329497 3.215945
-2.063385 -0.65127802 3.2103951
-2.0258501 -0.66588992 3.2222114
-1.984732 -0.67841446 3.239224
1.1881551 -0.65997201 3.2420399
1.22679 -0.67507434 3.2212267
1.26817 -0.67539632 3.2099926
2.5176766 -0.67737228 3.2276351
-2.1172519 -0.6093024 3.21665
-2.0758529 -0.62111288 3.2271926
-2.0448899 -0.63609201 3.2393899
1.179162 -0.62355381 3.23768
1.2179037 -0.63284439 3.2101126
1.2597799 -0.64263099 3.2013967
2.54035 -0.62254137 3.2356532
2.5586464 -0.60830706 3.2121232
-2.13077 -0.58723265 3.2336667
-2.09323 -0.58666599 3.24946
1.13827 -0.59812099 3.2369699
1.1693714 -0.58534634 3.2132399
2.5649376 -0.57447553 3.2193301
1.1758884 -0.52401954 3.22756
2.585325 -0.5289188 3.2273169
-2.1463201 -0.47980401 3.2351301
1.1928333 -0.48823833 3.2213032
1.20243 -0.468409 3.2335401
2.58989 -0.49255699 3.24419
2.6118979 -0.46893683 3.2232423
1.215415 -0.41971669 3.2334864
2.6263924 -0.425908 3.2243824
1.2422849 -0.37116233 3.2297468
1.2579 -0.368622 3.2000699
2.64133 -0.38875502 3.2285099
2.656985 -0.35979152 3.213995
-2.6639099 -0.30038899 3.2033501
-2.6321101 -0.31211567 3.2106903
-2.5832551 -0.31735748 3.2263451
1.24354 -0.33917552 3.2358799
1.258462 -0.31899077 3.2244759
2.6709349 -0.3227495 3.2221215
-2.6771023 -0.271213 3.2142799
-2.6252835 -0.28488168 3.2338331
-2.58114 -0.29947701 3.2429099
1.2732561 -0.27096 3.2286758
2.6897967 -0.27928767 3.2301731
2.7046101 -0.26677501 3.22453
-2.7621834 -0.21531899 3.2081068
-2.7245734 -0.22776566 3.2278864
-2.677485 -0.2460165 3.241215
1.275906 -0.22232041 3.2291439
