ply
format ascii 1.0
comment PCL generated
element vertex 1568
property float x
property float y
property float z
element camera 0
property float view_px
property float view_py
property float view_pz
property float x_axisx
property float x_axisy
property float x_axisz
property float y_axisx
property float y_axisy
property float y_axisz
property float z_axisx
property float z_axisy
property float z_axisz
property float focal
property float scalex
property float scaley
property float centerx
property float centery
property int viewportx
property int viewporty
property float k1
property float k2
end_header
-2.1702201 -1.2691343 2.5656669
-2.1295564 -1.2780199 2.5836837
-2.09182 -1.29329 2.58532
1.5223289 -1.2735389 2.5739889
2.4460082 -1.2760839 2.576118
2.4557199 -1.26399 2.5659101
-2.2628565 -1.2191534 2.5626433
-2.2228284 -1.224444 2.5790789
-2.1739399 -1.2398601 2.59094
1.5400783 -1.2211649 2.5712898
1.55902 -1.2001801 2.55007
2.4676099 -1.22501 2.5729716
-2.3552301 -1.15738 2.5546501
-2.31745 -1.1663314 2.56704
-2.2770245 -1.1822122 2.57652
-2.2354898 -1.19055 2.595355
1.559065 -1.1728467 2.5669281
2.484632 -1.1840041 2.57757
2.5051899 -1.16229 2.56355
-2.4225419 -1.1086061 2.5654638
-2.3756728 -1.122342 2.5759196
-2.3334122 -1.1380799 2.5905499
1.5798411 -1.1242656 2.5754244
2.4972401 -1.14961 2.59167
2.5138686 -1.1287117 2.5690548
-2.5113001 -1.06109 2.55424
-2.4725342 -1.0704185 2.5683417
-2.43174 -1.083042 2.58465
-2.3949599 -1.08638 2.59552
1.5966024 -1.091115 2.57393
1.6172502 -1.0640286 2.5693054
1.6760781 -1.075806 2.560344
1.71042 -1.06031 2.59846
2.5306385 -1.0820829 2.5785885
2.55058 -1.05899 2.5532501
-2.570024 -1.0155101 2.5601401
-2.5258822 -1.0219178 2.5791023
-2.4839125 -1.0426525 2.5901124
1.6365167 -1.0401133 2.5894368
1.668115 -1.0404775 2.5826573
2.5455 -1.03018 2.5890734
2.5570323 -1.0220875 2.5642099
-2.6570699 -0.96184498 2.5595801
-2.6182418 -0.97008866 2.5716867
-2.579004 -0.98339593 2.5854039
2.5713549 -0.97751802 2.5750833
-2.7176661 -0.90893281 2.569838
-2.6768675 -0.93199563 2.5732036
-2.6386752 -0.94736004 2.5897698
2.5911775 -0.93270278 2.5806499
2.6015699 -0.907812 2.55918
-2.7716901 -0.87148327 2.5706074
-2.7269263 -0.88123262 2.5863461
2.6102715 -0.87621051 2.5719032
-2.85952 -0.81231999 2.55778
-2.83057 -0.81631929 2.5694799
-2.7922084 -0.8298232 2.5743001
2.625294 -0.82589781 2.5746439
-2.9245875 -0.75535125 2.5708251
-2.8765872 -0.77850115 2.5729313
-2.8381801 -0.78755903 2.5884426
2.6390624 -0.77981305 2.5768299
2.65657 -0.75768101 2.5611601
-3.0173926 -0.71255475 2.5720901
-2.9704075 -0.72626597 2.5809174
-2.9246449 -0.73568952 2.5903749
-2.8644152 -0.7465905 2.59214
2.6636238 -0.72592962 2.575582
-3.0545199 -0.659159 2.58462
-3.0239749 -0.679528 2.5924251
2.6810968 -0.67608422 2.5781066
-3.1589701 -0.61568499 2.5880599
-3.1132751 -0.62098449 2.59585
-3.0735099 -0.64344549 2.5885949
2.69187 -0.63713765 2.5812666
2.7058201 -0.61387402 2.5686834
-3.1378298 -0.58455902 2.5755901
2.7192414 -0.57545549 2.5734632
2.7405219 -0.530249 2.5844319
2.7574501 -0.50949752 2.5702548
2.7603834 -0.47597599 2.5780518
2.7824018 -0.42566016 2.5752552
2.79545 -0.392196 2.57637
2.8057339 -0.37167418 2.5699902
2.8251832 -0.32498384 2.5755801
2.8385749 -0.28288898 2.581615
2.8513801 -0.25671202 2.5648398
2.861222 -0.2264488 2.5728822
2.8869133 -0.17198767 2.5716851
1.82636 -0.100877 2.5975699
1.85868 -0.101451 2.5992501
1.9072001 -0.1020925 2.5931051
2.8963366 -0.13225433 2.5870934
2.9116049 -0.1121615 2.5808949
1.4881949 -0.061193049 2.5887001
1.52381 -0.061521318 2.5890815
1.574185 -0.063535735 2.5791938
1.6288385 -0.065216728 2.5733256
1.6808558 -0.073984973 2.5825412
1.72682 -0.070230775 2.5704777
1.7752016 -0.070739619 2.5687573
1.8226455 -0.073292844 2.5659957
1.86994 -0.07475464 2.5690522
1.9118125 -0.079669826 2.5709777
2.9358132 -0.057201903 2.5624766
1.49221 -0.029501539 2.577888
1.5210074 -0.037030123 2.5621774
1.57594 -0.040709335 2.5564234
1.76222 -0.0418595 2.55053
2.9344499 -0.034092899 2.5719299
2.9550369 -0.022547534 2.56936
-2.6067224 0.025199544 2.5817075
-2.591285 0.025226608 2.5948999
1.5315001 0.028256152 2.5853858
2.9727001 0.01823402 2.5742879
-2.610055 0.074351504 2.5843351
-2.5842299 0.097943902 2.5581701
-1.128245 0.052368902 2.5622499
-1.0347025 0.080745995 2.565805
1.5457549 0.0730175 2.5731878
1.5601934 0.092647135 2.5692134
2.9934349 0.062280476 2.5760875
3.0062251 0.089025795 2.5865049
-2.5899441 0.1309866 2.5741019
-1.0160949 0.12213787 2.563005
1.5720541 0.12539721 2.5775981
1.63278 0.139697 2.55603
3.0242722 0.12798201 2.5722139
-2.59027 0.164196 2.5901101
-1.032545 0.17447616 2.5748117
1.59067 0.158682 2.5865967
1.6210572 0.16659614 2.5824986
1.65719 0.17001501 2.5928099
3.040725 0.16944474 2.5811949
3.05845 0.19663499 2.5787699
-1.0779333 0.21618335 2.5704968
3.0686226 0.22344249 2.5695
3.086292 0.26579201 2.5778739
3.0903699 0.30666101 2.5973201
3.1161184 0.32452467 2.5678899
3.1352117 0.38077986 2.5775049
3.1420834 0.42433897 2.5832865
3.15379 0.436344 2.56884
3.1655974 0.47055823 2.5820675
3.19469 0.52319747 2.5715475
3.2151201 0.57266754 2.5792768
3.2237616 0.62966084 2.5745552
3.2351067 0.67580938 2.5797131
3.2527201 0.68924701 2.566
3.2425351 0.71909249 2.5878749
3.2621949 0.7343117 2.5714874
3.2657325 0.77827221 2.5715551
3.2746284 0.82894295 2.576685
3.2736933 0.87510365 2.5809534
3.3022499 0.85072702 2.5583
3.1933601 0.93564099 2.5950401
3.2259901 0.93961698 2.58395
3.2622335 0.92570901 2.5806
3.3032501 0.91290998 2.5794301
2.2479701 0.99939501 2.5936
2.4347899 0.99724799 2.5999401
2.6287899 0.99310398 2.5966101
2.6656051 0.99718601 2.586725
2.8391199 0.99012297 2.59007
2.8815601 0.99553752 2.5809851
2.97911 0.99538797 2.59203
3.025775 0.992625 2.585345
3.0831423 0.97788548 2.5817549
3.1237099 0.97356492 2.5812066
3.172744 0.96527684 2.5812058
3.2283499 0.96341103 2.5634067
1.8370199 1.04837 2.5935202
1.87914 1.0396399 2.5964351
1.9305426 1.04285 2.59165
1.9709799 1.0402 2.5873575
2.0238523 1.0358175 2.5843225
2.0686367 1.0347718 2.5832767
2.1257412 1.0286937 2.5792713
2.1796317 1.0343934 2.5733402
2.2279744 1.0253614 2.5823243
2.276233 1.0292372 2.5741584
2.3269928 1.0245086 2.5798073
2.3798273 1.0298128 2.5741458
2.4291785 1.0236571 2.5757244
2.4795401 1.0167249 2.5739975
2.5234132 1.0265334 2.5705066
2.5718899 1.0274134 2.5768301
2.6238401 1.0241767 2.5761817
2.6726921 1.0308759 2.5677421
2.7288501 1.0209341 2.5785861
2.7801318 1.01776 2.57406
2.8239133 1.0103401 2.5794666
2.8732851 1.0191998 2.5652726
2.9415751 1.015815 2.5833249
2.9747601 1.01587 2.5695467
3.0274949 1.0083301 2.5641398
3.06201 1.00457 2.56215
3.17418 1.0042599 2.55267
1.42787 1.09761 2.5985
1.46041 1.09308 2.59389
1.525094 1.087914 2.591126
1.577005 1.0874733 2.5854232
1.6252072 1.0866287 2.5808685
1.6754868 1.0795645 2.5803001
1.7212799 1.076902 2.5772729
1.7760998 1.079291 2.571038
1.8215269 1.0746989 2.5723832
1.8777549 1.068879 2.570816
1.9289961 1.070042 2.566726
1.9730341 1.066362 2.5617337
2.0220478 1.0619279 2.56299
2.0821733 1.0584034 2.55635
2.11326 1.0530699 2.55812
2.2044101 1.0506999 2.5523701
2.3311801 1.05598 2.55181
2.49265 1.05024 2.55446
2.52233 1.05564 2.5546999
1.0206367 1.1451133 2.5966966
1.0764467 1.1411901 2.5950098
1.1223384 1.1383901 2.5922065
1.1742587 1.1412113 2.5856953
1.2196729 1.1341914 2.5835812
1.2772727 1.1305045 2.58305
1.3262601 1.12841 2.5768125
1.3735501 1.1217308 2.5762751
1.424665 1.1190161 2.5728731
1.4773282 1.1173037 2.5681572
1.5281198 1.1128421 2.5665939
1.5684459 1.109988 2.5670679
1.623118 1.109496 2.5568881
1.6677151 1.107875 2.5583248
1.7314399 1.10067 2.5522101
0.61108601 1.19961 2.5945799
0.68123531 1.19093 2.5961633
0.72691202 1.1902826 2.5935102
0.77482522 1.1869955 2.5896463
0.82633281 1.1854756 2.5818529
0.8762961 1.180307 2.5795124
0.92703921 1.1752484 2.5789185
0.97649777 1.1728836 2.573895
1.0261924 1.1707941 2.5731823
1.0731809 1.1677636 2.5718362
1.1244209 1.165328 2.5664163
1.17258 1.1605675 2.5586624
1.2264466 1.1581618 2.5625517
1.270882 1.161366 2.5571082
1.30399 1.15758 2.5501599
0.32574531 1.2445666 2.5977232
0.37687668 1.2395966 2.5925748
0.42582446 1.237035 2.5864089
0.47801355 1.2329453 2.5839229
0.52593923 1.2290872 2.5802863
0.57611221 1.2258929 2.5773349
0.62788975 1.2259998 2.5695584
0.67433536 1.2172165 2.5730948
0.72461569 1.2182186 2.5665336
0.77338231 1.2129085 2.5631344
0.82003659 1.208082 2.558594
0.86678052 1.20821 2.55338
0.92652225 1.2016675 2.5576749
-0.030034255 1.2951801 2.594928
0.027613165 1.29021 2.5921185
0.078078233 1.2877562 2.5884664
0.12474617 1.2875134 2.5863369
0.17120183 1.2792616 2.5834641
0.22523098 1.2760444 2.5768259
0.27744707 1.2709974 2.5750105
0.32600531 1.2722962 2.5691278
0.37086269 1.2652692 2.5696676
0.42138591 1.262328 2.5636511
0.47770438 1.2593613 2.5591438
0.52161252 1.25747 2.55637
0.55885303 1.255355 2.55375
-0.4646185 1.348305 2.5975699
-0.42290175 1.3454149 2.597455
-0.37467536 1.3428932 2.5983267
-0.32305145 1.3433086 2.59076
-0.2711165 1.3401687 2.5869701
-0.22342913 1.3299422 2.5864823
-0.17455888 1.3311599 2.579004
-0.12067124 1.3265544 2.5779533
-0.075260028 1.3212038 2.5758021
-0.029832236 1.3237554 2.5686896
0.024691902 1.3166574 2.5672841
0.077736825 1.31422 2.561455
0.12416766 1.3075366 2.5624616
0.17051187 1.3067162 2.5585001
0.2036525 1.3065951 2.5562
-0.81273901 1.39941 2.5973549
-0.70011801 1.39781 2.58693
-0.66850102 1.3932199 2.5929101
-0.62545532 1.3858129 2.5882313
-0.57655728 1.3858582 2.581485
-0.52318192 1.3810525 2.5796843
-0.47520289 1.3790708 2.5719912
-0.42404646 1.3719484 2.5731523
-0.37620077 1.3704021 2.5670321
-0.32886961 1.36771 2.5671918
-0.27674365 1.3620118 2.5654199
-0.22922936 1.3584601 2.5622702
-0.18533449 1.3587276 2.55774
-1.1213399 1.4461966 2.5994399
-1.05566 1.44979 2.5930901
-1.0238367 1.4452734 2.5942833
-0.97129571 1.4397399 2.59078
-0.92693996 1.4350801 2.5859582
-0.87677515 1.4325389 2.5813661
-0.82326782 1.4296855 2.5736578
-0.77480769 1.4265931 2.5721395
-0.72808623 1.4192415 2.5727894
-0.67594784 1.4183607 2.5660934
-0.62639862 1.41299 2.5619476
-0.57725298 1.4111 2.5578601
-0.53850597 1.4006799 2.5585999
-1.49129 1.49922 2.59987
-1.41326 1.49572 2.5878699
-1.37933 1.4912467 2.5930901
-1.32871 1.4901301 2.589088
-1.2720087 1.4850129 2.5864201
-1.2225971 1.4801586 2.5850544
-1.168959 1.4734271 2.5834911
-1.1252059 1.4780707 2.5726149
-1.0779083 1.4716862 2.5714781
-1.0263699 1.467389 2.5673099
-0.97676057 1.4636722 2.5680614
-0.92414886 1.4590501 2.5653365
-0.87629396 1.4566966 2.5575635
-0.845456 1.45181 2.5566199
-1.85059 1.54206 2.59829
-1.80911 1.54957 2.59431
-1.777815 1.5429 2.5959301
-1.7184601 1.5371161 2.5884061
-1.6699798 1.5299541 2.58898
-1.639745 1.532485 2.5911498
-1.577221 1.5328723 2.5784776
-1.5243207 1.5268791 2.5787373
-1.4732423 1.5263511 2.5738523
-1.4291819 1.523751 2.5701938
-1.3746799 1.5160178 2.5703411
-1.3222166 1.5142783 2.5701132
-1.2730633 1.5124468 2.5617135
-1.2248484 1.5089966 2.56159
-1.18003 1.5055 2.5536969
-2.0679302 1.593765 2.5950451
-2.0243001 1.5911961 2.586884
-1.97229 1.5826501 2.5942066
-1.9251751 1.5897733 2.5777018
-1.8766128 1.5764085 2.5807946
-1.8280479 1.5772178 2.5741835
-1.7746714 1.5709612 2.5687184
-1.7216899 1.562564 2.56739
-1.6769115 1.5663801 2.5622828
-1.62674 1.5585425 2.5620875
-1.58532 1.55562 2.5562301
-1.53713 1.56056 2.5504899
-1.49894 1.5522799 2.5513
-2.4054799 1.64077 2.59589
-2.36729 1.6407499 2.5955
-2.2233758 1.6341841 2.577426
-2.1716602 1.6309017 2.573055
-2.1227913 1.6250751 2.5775549
-2.081234 1.6289221 2.5674739
-2.0239632 1.6193815 2.5657902
-1.9731072 1.6184987 2.5646827
-1.8721399 1.603955 2.5518451
-2.76355 1.685305 2.59249
-2.673595 1.6900749 2.5882149
-2.6321349 1.689625 2.5900998
-2.58201 1.689 2.59764
-2.5238636 1.6817065 2.5838468
-2.4714026 1.68244 2.5782874
-2.428648 1.6795502 2.5743539
-2.3770316 1.6683416 2.5727434
-2.326088 1.6667759 2.5707779
-2.2776179 1.660454 2.567358
-2.9586301 1.73241 2.5867901
-2.89382 1.73475 2.58989
-2.8178 1.7350399 2.595535
-2.77635 1.7297976 2.5850749
-2.7209034 1.7211267 2.5768833
-2.6738851 1.7263484 2.5701849
-2.61691 1.7164167 2.5691898
-2.5739074 1.7163225 2.5644498
-2.5158198 1.7115167 2.5586834
-2.47788 1.7072099 2.5573699
-2.3938301 1.70179 2.5509
-2.9186399 1.75734 2.5640399
-2.8582201 1.78025 2.55864
-2.8257999 1.762115 2.5701098
-2.7811899 1.75476 2.5578201
-2.7174799 1.75532 2.5541401
-2.5701799 1.7523 2.5505199
-0.763605 -2.1031399 2.63079
-0.73432195 -2.1083999 2.6444299
-0.87473899 -2.0585899 2.6049135
-0.82133639 -2.0653884 2.6235957
-0.78019464 -2.082864 2.636884
-0.92162937 -2.0184426 2.6106186
-0.87819779 -2.0285959 2.6314168
-0.83892423 -2.0419824 2.63837
0.97105199 -2.0035801 2.6157801
1.03845 -2.01316 2.6410651
1.0752749 -2.0230951 2.6434901
1.105 -2.03408 2.6496601
-1.0165 -1.955235 2.6066198
-0.97165376 -1.9702501 2.616679
-0.92683434 -1.986215 2.6345987
0.78937501 -1.96982 2.6342301
0.80246598 -1.97184 2.6180201
0.89551699 -1.95918 2.60584
0.92601204 -1.9687599 2.6172841
0.96810997 -1.972966 2.6301882
1.006705 -1.989395 2.6326201
-1.0698172 -1.9167329 2.6104429
-1.027946 -1.9252539 2.629518
-0.98389864 -1.938906 2.6376338
0.79732203 -1.93664 2.6156502
0.82931519 -1.9125357 2.6192214
0.87806046 -1.9284028 2.6202488
0.91656703 -1.9358 2.6401465
-1.1677151 -1.8583601 2.603745
-1.1212225 -1.8733816 2.6189942
-1.0746771 -1.8859686 2.636744
0.84609503 -1.89087 2.6461301
0.85998905 -1.895355 2.633065
-1.25488 -1.8006999 2.61289
-1.2221237 -1.8140476 2.6175425
-1.1800159 -1.8291461 2.6264257
-1.1408026 -1.8411999 2.6363275
1.3215749 -1.8197899 2.6340182
-1.320695 -1.7618867 2.6135931
-1.2744292 -1.7759011 2.6232572
-1.2299579 -1.782954 2.6410499
1.3374968 -1.7723666 2.6222184
-1.41084 -1.71085 2.6042399
-1.3714517 -1.7206084 2.6207433
-1.3263874 -1.7348049 2.6334014
-1.2903301 -1.7452 2.6440201
1.3453774 -1.7237825 2.6222801
1.35155 -1.72172 2.6157451
-1.50771 -1.65403 2.60269
-1.4719883 -1.6646399 2.6143181
-1.4257566 -1.6776199 2.6283352
-1.3888766 -1.6946567 2.6329031
1.3654584 -1.6756583 2.6224685
-1.5629834 -1.6166633 2.6055965
-1.5239401 -1.6225569 2.6256332
-1.480945 -1.6352067 2.6356819
-1.4495 -1.64241 2.6447401
1.3781484 -1.6309885 2.6248302
2.0684149 -1.631145 2.63585
2.1324699 -1.60367 2.6014299
2.1858301 -1.614 2.6428399
2.2717199 -1.60944 2.62589
-1.65859 -1.55685 2.6076601
-1.6217756 -1.5719501 2.6129198
-1.579551 -1.5795499 2.6284344
-1.5464799 -1.592355 2.6363349
1.3924561 -1.5863199 2.626478
1.4052633 -1.56005 2.6238701
2.08569 -1.5936 2.6065199
2.1092501 -1.59486 2.64412
2.23206 -1.55961 2.6273301
2.2789402 -1.5677413 2.6238899
-1.7158899 -1.51196 2.6190403
-1.6759763 -1.525599 2.6251173
-1.6327299 -1.5369298 2.6353259
1.4169015 -1.5199186 2.6261241
2.07968 -1.52291 2.630635
2.164495 -1.50843 2.6408
2.2200301 -1.53439 2.6210499
2.2957702 -1.5257025 2.6267352
2.3051801 -1.5062799 2.6491101
-1.81238 -1.45893 2.6040499
-1.7738956 -1.469499 2.6155522
-1.7297045 -1.4810289 2.6320221
1.4263316 -1.47673 2.6283751
2.0997601 -1.47583 2.6471901
2.10267 -1.49444 2.6433101
2.3217113 -1.4808886 2.6217129
2.3549199 -1.4616433 2.61851
-1.90004 -1.4030401 2.6001799
-1.8637928 -1.4163055 2.6143944
-1.821592 -1.4278201 2.6306734
-1.77482 -1.443655 2.644135
1.4426433 -1.4224817 2.6215484
2.3669217 -1.4250783 2.6270366
-1.9662933 -1.35465 2.6120567
-1.9227431 -1.3707089 2.623198
-1.8813382 -1.3821417 2.6366317
-1.84168 -1.39059 2.64885
1.44956 -1.39692 2.6214299
1.4649737 -1.3710325 2.6267362
2.389405 -1.38306 2.6308799
2.4038601 -1.36204 2.6149349
-2.0253334 -1.3127383 2.6125867
-1.9771298 -1.323011 2.6304967
-1.9433933 -1.3411201 2.6387167
1.4848686 -1.3256874 2.6249576
1.50249 -1.30059 2.61921
2.4124672 -1.3280658 2.6225441
-2.1175535 -1.2580167 2.60853
-2.0749571 -1.2722272 2.6217117
-2.0311682 -1.2861149 2.6375716
1.5094466 -1.270285 2.6270516
2.4320412 -1.2781715 2.6229813
-2.17344 -1.2198566 2.6139383
-2.1282537 -1.2270974 2.6298573
-2.0924149 -1.239035 2.6401849
1.5322726 -1.2283838 2.6241586
1.55001 -1.20135 2.605
2.4458201 -1.24254 2.62956
2.458514 -1.2199519 2.6198201
-2.25827 -1.16019 2.6093934
-2.21964 -1.1714344 2.6256611
-2.183702 -1.19294 2.6313062
-2.14656 -1.1985199 2.64978
1.5391134 -1.1885033 2.6378167
1.559054 -1.171078 2.61974
2.4765587 -1.1728613 2.6253171
-2.3161421 -1.1145101 2.6209199
-2.2763724 -1.1288176 2.6263461
-2.245775 -1.1349001 2.6444449
1.5709642 -1.1243343 2.627903
2.4936619 -1.1286681 2.627892
2.507215 -1.1117899 2.6165199
-2.4228101 -1.0643399 2.6126151
-2.3733242 -1.0764015 2.6215427
-2.3319767 -1.087725 2.6326833
1.5909841 -1.0764139 2.628612
1.60294 -1.06359 2.61289
1.71571 -1.07856 2.60128
2.5206916 -1.071485 2.6291702
-2.5148499 -1.00263 2.60658
-2.4708223 -1.0182643 2.62006
-2.4280999 -1.0257186 2.6362612
-2.3882999 -1.0379933 2.6443167
1.6247412 -1.025314 2.6203961
1.6742451 -1.0192199 2.61765
1.70437 -1.02089 2.6355901
2.5389082 -1.0282433 2.6256683
-2.5684867 -0.96357328 2.6059301
-2.5239856 -0.9726541 2.6254468
-2.4818065 -0.98255926 2.6467369
1.64239 -0.99571598 2.6377001
1.6649733 -0.99235004 2.6329868
2.5603116 -0.97675031 2.6221917
-2.6662199 -0.906766 2.6042268
-2.6169131 -0.92497486 2.6130784
-2.5753598 -0.93360269 2.6319568
-2.53775 -0.94419497 2.6489799
2.5810685 -0.92742306 2.6226344
2.60198 -0.902906 2.6249399
-2.7208397 -0.86228663 2.6112201
-2.6785486 -0.87130016 2.6275926
-2.6285059 -0.89370155 2.6326618
2.5963433 -0.88022965 2.63554
2.6079102 -0.86698169 2.61956
-2.7702017 -0.82193112 2.6150682
-2.7306299 -0.83180481 2.6336334
2.6145899 -0.82523221 2.6222215
-2.8155701 -0.77474958 2.6199167
-2.7815976 -0.79289246 2.6381998
2.636534 -0.77567685 2.6258757
-2.95399 -0.71436596 2.6067801
-2.9235032 -0.70967132 2.6201532
-2.8816299 -0.72040868 2.6241484
-2.830538 -0.74112481 2.6305041
2.6482048 -0.73955595 2.6193099
2.6592951 -0.71470451 2.620615
-3.0111699 -0.66629195 2.606755
-2.9771271 -0.67430294 2.6270845
-2.9449799 -0.68985999 2.63397
2.6723361 -0.67839795 2.625988
-3.10128 -0.614905 2.6340599
-3.0762348 -0.620709 2.62656
-3.021595 -0.62662876 2.6271412
-2.98508 -0.64156401 2.6492901
2.6874402 -0.63084167 2.6247034
-3.15871 -0.56282651 2.6131549
-3.1255331 -0.58341932 2.6341851
-3.06902 -0.58502251 2.641845
2.6980901 -0.5965305 2.6210499
2.7103376 -0.57172322 2.6221225
-3.1678274 -0.53325999 2.6336277
-3.1403899 -0.546139 2.6478801
2.7259951 -0.53036147 2.6289935
-3.2020299 -0.47702 2.6468799
2.7394266 -0.47983369 2.6343699
2.7526634 -0.47912899 2.6164
2.74839 -0.44697401 2.6477799
2.7667217 -0.42855084 2.6214449
2.7869785 -0.38397315 2.6257401
2.8009601 -0.36096299 2.61587
2.7899599 -0.34452599 2.6380701
2.8131161 -0.32366723 2.6187961
2.8274214 -0.27375787 2.6269686
2.8362901 -0.237615 2.6291976
2.86127 -0.213183 2.6127434
2.8779001 -0.17353 2.6251485
1.4690433 -0.110899 2.6465132
1.5201932 -0.11157733 2.6429467
1.5783526 -0.11601249 2.6414275
1.6209301 -0.11271933 2.6276901
1.6704024 -0.12646537 2.6381788
1.727536 -0.123577 2.63802
1.7765288 -0.11701544 2.6248643
1.8220477 -0.13082422 2.624692
1.8784626 -0.12824175 2.6222315
1.90421 -0.117038 2.6031201
2.8927965 -0.13344866 2.6354067
2.9068599 -0.104259 2.6233301
1.4490499 -0.096556902 2.64241
1.4728509 -0.07792037 2.6255684
1.5227534 -0.089876145 2.6171134
1.5743179 -0.091836341 2.612498
1.629122 -0.092560522 2.611316
1.6765449 -0.098899245 2.6112001
1.7224466 -0.09949217 2.6072133
2.920722 -0.073053241 2.633512
-2.6259751 -0.020051226 2.6296999
1.4930199 -0.030709025 2.6361725
1.50818 -0.0132869 2.6240499
2.9397399 -0.0168241 2.6077299
-2.5704913 0.028769772 2.6149085
1.5181466 0.019277222 2.6309988
2.948035 0.00071446947 2.63077
2.9640381 0.025430679 2.6229558
-2.603085 0.091061354 2.605655
-2.5841174 0.076875709 2.6301136
-1.11137 0.0537428 2.6450901
1.540902 0.067644104 2.618098
1.5520767 0.084540002 2.6162136
2.9827125 0.062809527 2.6295474
3.0032599 0.089740403 2.6312399
-2.602505 0.14120799 2.6322951
-2.5982699 0.124066 2.6142249
-1.01929 0.12435299 2.616925
1.5644642 0.127041 2.6255143
3.0096982 0.12525368 2.6198866
-2.6010001 0.18129601 2.6000199
-2.5894198 0.185423 2.628566
-1.0337801 0.1768595 2.6145201
1.5847243 0.17750934 2.6228833
1.6294 0.19917101 2.6219401
1.65632 0.185619 2.6205499
3.0318718 0.17956932 2.6261084
-1.08759 0.224262 2.6169901
1.59761 0.22097501 2.6449699
1.6166468 0.21859767 2.6355066
3.04387 0.21597099 2.6291299
3.0548098 0.22786234 2.61643
3.0478401 0.25217199 2.6300499
3.078958 0.27851897 2.62251
3.09395 0.308837 2.6328001
3.1062624 0.33636501 2.6242723
3.1183524 0.37410277 2.6305552
3.129272 0.42451501 2.6304741
3.1593361 0.48159641 2.6212461
1.67299 0.53698301 2.6376801
3.1752677 0.52613997 2.6243825
1.5878534 0.56941801 2.63727
1.6259675 0.57535654 2.6239798
3.1853249 0.57401681 2.6246135
3.1930866 0.61926705 2.6285565
3.2041199 0.63131797 2.61204
3.2143881 0.67252254 2.6298249
3.21909 0.7201885 2.6229925
3.235275 0.77073354 2.6243498
3.2320251 0.83454323 2.6322374
3.2553549 0.82028699 2.6093249
3.173455 0.89131451 2.646595
3.2244048 0.87613076 2.6226649
2.71701 0.94338101 2.64132
2.75301 0.94972801 2.6449101
2.9722767 0.94071102 2.6473
3.0237875 0.92495972 2.6386952
3.0737565 0.932868 2.6197965
3.1345501 0.93080604 2.6264477
3.1766598 0.91757369 2.6233635
3.2262697 0.91425025 2.612335
1.838975 0.99702901 2.6472299
1.88982 0.98819399 2.6466801
1.9213951 0.99249351 2.6440802
1.977308 0.99325716 2.6385782
2.0324066 0.98668528 2.6400299
2.0773001 0.98649448 2.6329486
2.12164 0.98847985 2.6232467
2.1780961 0.98421443 2.636184
2.2238264 0.98401827 2.6277337
2.2796085 0.9796288 2.6350484
2.3217518 0.98357719 2.6223216
2.3727901 0.98403978 2.6260977
2.4178939 0.97994214 2.630302
2.4750044 0.97756958 2.6303227
2.5299528 0.97756344 2.6246071
2.5741966 0.97163582 2.6233432
2.6208248 0.97782254 2.6167099
2.6685221 0.9660964 2.628402
2.7208917 0.97646004 2.6195519
2.7708762 0.9765808 2.6163702
2.8215399 0.97145337 2.624084
2.8786242 0.96922934 2.6227901
2.9324725 0.97097194 2.6306
2.9698 0.97875077 2.6138351
3.0186062 0.96474868 2.6186559
3.057085 0.96326554 2.6068101
1.42453 1.0481501 2.645715
1.4856499 1.04067 2.6448901
1.525355 1.0415225 2.6416826
1.57342 1.0378948 2.6370649
1.633198 1.03737 2.635462
1.6749356 1.0314544 2.6265755
1.7298479 1.0277331 2.6292999
1.7778956 1.0291212 2.6251478
1.820828 1.0224833 2.6227045
1.8747567 1.0177877 2.6208668
1.9238883 1.01411 2.6186984
1.9759239 1.018878 2.608402
2.0230279 1.0113341 2.6141458
2.07356 1.0097233 2.6147966
2.11081 1.0124 2.6007299
2.1798601 1.010195 2.61408
2.3584299 1.0027 2.6027
2.46433 1.00246 2.6010201
2.57635 1.0032099 2.6001799
2.61006 1.00962 2.6034501
0.95051003 1.09892 2.6486199
1.026835 1.092145 2.64906
1.0724334 1.0957967 2.6440499
1.1210999 1.0921686 2.6358929
1.1750276 1.0869339 2.6381412
1.2314262 1.084065 2.6368089
1.2771291 1.082189 2.6281879
1.3278176 1.0786238 2.6282752
1.3769482 1.0766646 2.6245954
1.422807 1.0743549 2.6182091
1.4780254 1.0696819 2.6195846
1.5240899 1.0669366 2.6156268
1.5725751 1.0635116 2.6149752
1.6220083 1.0602766 2.6142449
1.6638451 1.05585 2.6044099
1.76274 1.05557 2.604135
0.63166934 1.1453301 2.6465232
0.67947876 1.1454425 2.6370275
0.72532761 1.1408087 2.6374471
0.7741406 1.1398038 2.6352837
0.82598341 1.130975 2.6363881
0.87546599 1.1312889 2.6279469
0.92640525 1.1265861 2.6295433
0.97641152 1.1243627 2.6251407
1.0208817 1.1205217 2.6216273
1.0736984 1.1177959 2.6177118
1.1265467 1.1146733 2.6120498
1.1738557 1.1125844 2.6106
1.2222301 1.1110767 2.6098185
1.2581466 1.11125 2.6034033
1.3162875 1.10394 2.6077325
0.32876635 1.1890267 2.6479132
0.376183 1.1894701 2.6436501
0.42763364 1.1914001 2.6337099
0.47426113 1.1837791 2.6313951
0.52372521 1.17891 2.6290317
0.57472897 1.1762364 2.6274278
0.62376386 1.1732926 2.6253979
0.67555809 1.1706146 2.617563
0.72412699 1.1686387 2.6125164
0.77596575 1.163855 2.6122286
0.826572 1.1575967 2.6127815
0.87123919 1.154546 2.6048
0.92668498 1.15593 2.6001799
-0.029109824 1.24301 2.6454873
0.02937386 1.23701 2.6437583
0.07805644 1.2374864 2.6356182
0.12555942 1.2339389 2.6301157
0.17402214 1.2318447 2.6299994
0.22765122 1.2251515 2.6249626
0.27624372 1.2242513 2.6206658
0.32198223 1.2160301 2.624954
0.37254781 1.2145506 2.6200871
0.42773199 1.215885 2.6085813
0.47533867 1.2106633 2.6075833
0.52348739 1.206395 2.6079385
0.57802653 1.2009599 2.6038699
-0.40497601 1.2985899 2.63747
-0.37731433 1.2973634 2.6381133
-0.32889277 1.2878525 2.6402552
-0.27142921 1.2865757 2.6370845
-0.22532845 1.2865289 2.6292343
-0.17785494 1.2787405 2.6325037
-0.12332825 1.2742951 2.6256609
-0.076083474 1.2731949 2.6246674
-0.028453596 1.2686846 2.6192367
0.023266247 1.2642086 2.6179247
0.079155996 1.2650367 2.6126244
0.12511067 1.2650417 2.6055334
0.17191724 1.2582226 2.6055374
-0.75102901 1.34531 2.6400599
-0.72272271 1.3446802 2.6450434
-0.67356825 1.3408101 2.6387048
-0.62594527 1.3391536 2.6360064
-0.57242358 1.3350201 2.6299489
-0.5260793 1.3326516 2.6283329
-0.47312966 1.3241826 2.6260989
-0.42660859 1.31981 2.6246934
-0.37596834 1.3201177 2.6181345
-0.32732943 1.3158191 2.6145592
-0.274297 1.313889 2.6124511
-0.22445233 1.3088032 2.6088533
-0.1767965 1.30527 2.6045349
-0.136246 1.3033 2.6024299
-1.11439 1.3976001 2.6477399
-1.0814633 1.3925734 2.6479433
-1.0324049 1.392235 2.6444998
-0.97134215 1.3862551 2.6443532
-0.92542255 1.387495 2.6347225
-0.86983025 1.3853787 2.6278551
-0.82564718 1.3811811 2.6263454
-0.77402395 1.3756135 2.6206605
-0.72360086 1.3758993 2.6175597
-0.67788255 1.3683341 2.6169889
-0.62324309 1.3611212 2.6133161
-0.57654572 1.3625243 2.6079857
-0.52188957 1.3557074 2.603595
-0.486325 1.35195 2.60164
-1.40956 1.44725 2.6426899
-1.3743734 1.4418434 2.6456268
-1.3172076 1.4360424 2.6364901
-1.277805 1.43562 2.6382649
-1.227687 1.4303139 2.631937
-1.1786669 1.429531 2.6256671
-1.1296227 1.4206392 2.6303892
-1.076629 1.4225249 2.6204393
-1.030324 1.4206239 2.6206622
-0.980326 1.41555 2.6185403
-0.92345691 1.4121474 2.6105473
-0.87287295 1.408365 2.6082602
-0.837439 1.4057 2.6036501
-1.82587 1.49994 2.6475699
-1.7180834 1.49132 2.6392734
-1.671266 1.48967 2.633162
-1.6281087 1.4882944 2.6282713
-1.5734928 1.4786141 2.6303918
-1.5239134 1.4775121 2.6318855
-1.4714133 1.4774956 2.6195555
-1.4253761 1.467581 2.6204712
-1.3770062 1.4667838 2.6197386
-1.3273057 1.4661585 2.6112671
-1.279875 1.4620615 2.6171501
-1.2251375 1.45948 2.6076748
-1.19233 1.46252 2.6076901
-2.0139451 1.540545 2.6403098
-1.9669524 1.5375075 2.6364398
-1.9184685 1.5327801 2.6293232
-1.8759017 1.52428 2.6328118
-1.8235735 1.5216966 2.6251669
-1.77306 1.5200399 2.6272457
-1.7277601 1.5171561 2.6155219
-1.676585 1.506565 2.609035
-1.6199449 1.520335 2.60532
-1.5783501 1.502275 2.606185
-1.53013 1.50776 2.60042
-2.40169 1.5977 2.6454201
-2.3162501 1.5919501 2.6335199
-2.2848201 1.5878301 2.6431699
-2.2292249 1.5882275 2.6410999
-2.1640875 1.5864025 2.6146874
-2.1280773 1.5755472 2.6240501
-2.0782971 1.5712827 2.6297629
-2.0247934 1.5658201 2.6163533
-1.9881575 1.5627326 2.6148024
-1.92836 1.559345 2.6065326
-1.88236 1.55524 2.6115501
-2.74705 1.64596 2.64678
-2.6158948 1.6423099 2.6454449
-2.53019 1.6393976 2.6417124
-2.4721699 1.6409768 2.6401768
-2.4303 1.6402 2.63062
-2.3720117 1.6162566 2.6251199
-2.3217669 1.6241699 2.6091466
-2.2760448 1.615815 2.6177065
-2.2220025 1.6096776 2.6116376
-2.1791201 1.60507 2.6024499
-2.9149699 1.69086 2.6405201
-2.8164999 1.68417 2.6398599
-2.7626748 1.67196 2.6168299
-2.7318032 1.6788231 2.6305382
-2.6730275 1.67379 2.6319752
-2.6232033 1.6682667 2.6249833
-2.5755401 1.670222 2.6195421
-2.5174651 1.657685 2.6164
-2.4771349 1.6614876 2.6137576
-2.9375801 1.71207 2.61584
-2.88375 1.70225 2.6360199
-2.8477199 1.71049 2.62656
-0.60852599 -2.16435 2.68118
-0.58170527 -2.1633525 2.692275
-0.5395965 -2.1809249 2.6986699
-0.712385 -2.11272 2.6549599
-0.67382306 -2.1196673 2.6749308
-0.62870717 -2.1347268 2.6903899
-0.80357999 -2.0585999 2.65451
-0.76930344 -2.064888 2.658694
-0.72994369 -2.076719 2.6763182
-0.69483203 -2.0855968 2.6949532
1.14847 -2.0548201 2.6653099
-0.87025952 -2.00351 2.6550999
-0.82302123 -2.021991 2.6680169
-0.77689695 -2.0374527 2.6855242
0.77260703 -2.0137701 2.6854999
1.0369101 -2.0257149 2.6599798
1.0809667 -2.0078533 2.6635401
1.1300712 -2.0208633 2.6776021
1.1637367 -2.0214965 2.6780069
-0.92061841 -1.96105 2.6631019
-0.87665969 -1.9761031 2.677829
-0.82850397 -1.99247 2.6882818
0.77921897 -1.9653867 2.6673033
0.99330002 -1.9551001 2.6680701
1.0258833 -1.9752116 2.6715899
1.0685313 -1.9799175 2.6858714
1.1105 -1.99665 2.69311
1.17321 -1.97849 2.67713
-1.0216501 -1.902755 2.65627
-0.9714241 -1.9203625 2.6655474
-0.93094534 -1.9329783 2.6855183
-0.888457 -1.9467 2.6960499
0.79007179 -1.931585 2.6816676
0.810489 -1.9173074 2.6713324
0.88556099 -1.91008 2.66448
0.92492706 -1.9153911 2.6722591
0.97184002 -1.9297346 2.6802866
1.014675 -1.9427049 2.6926301
1.27277 -1.90448 2.6963999
-1.10493 -1.8532701 2.65135
-1.07269 -1.862406 2.663238
-1.0235441 -1.8750552 2.6788442
-0.98152763 -1.88896 2.6912668
0.82732457 -1.8706198 2.6686051
0.87776834 -1.8793017 2.684845
0.91182929 -1.8861599 2.6969967
1.284955 -1.8712575 2.671505
1.30876 -1.87116 2.6617
-1.1633575 -1.8114874 2.6564224
-1.1203051 -1.8232987 2.6695437
-1.0763137 -1.8350912 2.6865063
-1.03218 -1.84544 2.6961901
0.82415104 -1.8400775 2.6871073
1.29725 -1.84587 2.69578
1.3056619 -1.8213841 2.6714618
-1.2180115 -1.7621843 2.671087
-1.1765467 -1.7796383 2.6790102
-1.1284025 -1.793905 2.6910324
1.32572 -1.7709514 2.6721485
-1.320668 -1.7082121 2.6593001
-1.2752167 -1.7236258 2.6744034
-1.2372272 -1.7354715 2.6831
1.3392 -1.7226861 2.6790602
-1.411305 -1.6584849 2.6546249
-1.3713012 -1.67282 2.6660686
-1.3303938 -1.6787615 2.6847937
-1.28952 -1.692165 2.6935849
1.348965 -1.691785 2.6732202
1.3579223 -1.6650851 2.6751752
2.1177101 -1.68195 2.65343
-1.5106001 -1.6031849 2.6556101
-1.4677057 -1.6122772 2.6653199
-1.4245273 -1.6263318 2.6765482
-1.3797719 -1.6414779 2.6883419
1.3730462 -1.6211612 2.6784189
2.1035299 -1.60338 2.6689701
2.1826649 -1.61585 2.6750901
-1.5580934 -1.56504 2.6610334
-1.5208621 -1.5745056 2.6713653
-1.4803432 -1.5807266 2.6894035
1.389598 -1.573508 2.6799579
1.40444 -1.55013 2.65624
2.15488 -1.5700099 2.6531401
-1.6605401 -1.50315 2.65607
-1.6191261 -1.516475 2.6694264
-1.578932 -1.532619 2.6773369
-1.5363699 -1.5431733 2.6926966
1.4049774 -1.5281575 2.679435
2.01864 -1.51061 2.6872001
2.2786272 -1.5286587 2.6739688
-1.7086998 -1.4646367 2.6583402
-1.67343 -1.4762044 2.6742945
-1.6282761 -1.484472 2.689764
1.4190999 -1.4700384 2.6715784
2.0294552 -1.464955 2.6879799
2.072392 -1.4668139 2.681936
2.1245298 -1.4623101 2.673635
2.1644499 -1.46393 2.6793101
2.2155299 -1.4923199 2.6704099
2.3137834 -1.4776517 2.6742382
-1.80755 -1.40439 2.65569
-1.7734088 -1.4176451 2.6667402
-1.7282699 -1.4310091 2.6811371
-1.6878333 -1.4428501 2.6914299
1.4347967 -1.4246699 2.6722085
2.0086267 -1.4386965 2.6903267
2.0727549 -1.43881 2.694845
2.1161966 -1.4390601 2.6770165
2.1686699 -1.44995 2.69192
2.3298402 -1.4262323 2.6782484
2.361445 -1.41506 2.6595101
-1.90003 -1.35096 2.6573
-1.8679949 -1.3593817 2.6651134
-1.8296299 -1.3735189 2.6751666
-1.7850081 -1.3867 2.688868
1.4459 -1.39245 2.69803
1.4537625 -1.3779124 2.6701474
2.0322001 -1.38115 2.69174
2.3720889 -1.3734163 2.6734924
-1.9532599 -1.307 2.65658
-1.9188662 -1.3205137 2.6697276
-1.8774232 -1.3270633 2.6881969
1.4760532 -1.3270049 2.6768
2.3940301 -1.327042 2.6827121
2.4099951 -1.3105149 2.6611149
-2.0501699 -1.2538199 2.6561201
-2.0170882 -1.2622 2.6649435
-1.976872 -1.2751273 2.6749547
-1.9386834 -1.2900699 2.6862333
1.4929441 -1.28468 2.6728318
1.50532 -1.25576 2.68258
2.4211001 -1.2734543 2.6799471
-2.10814 -1.21121 2.65659
-2.0727463 -1.2246299 2.6710713
-2.0300953 -1.2309433 2.6908448
1.51842 -1.226485 2.6728451
2.4378018 -1.2301819 2.6720281
2.4542351 -1.208385 2.6698852
-2.1689937 -1.1685038 2.6629388
-2.1234446 -1.17532 2.6802387
-2.0833797 -1.1909399 2.6879377
1.5306013 -1.1767287 2.6832364
1.553 -1.1628699 2.66276
2.4618378 -1.17881 2.672832
-2.2267671 -1.1253228 2.6638629
-2.184397 -1.1285244 2.6843998
1.54522 -1.14579 2.69099
1.5648357 -1.1240414 2.6737072
2.4790587 -1.1265526 2.6781113
-2.35606 -1.0579799 2.65118
-2.3205016 -1.0650216 2.6678984
-2.2771199 -1.0838323 2.6737566
-2.22681 -1.09455 2.6891074
1.5811449 -1.0753374 2.6751323
2.4962549 -1.0880051 2.6780801
2.506115 -1.0738175 2.6693699
-2.4207301 -1.0014851 2.66836
-2.3762937 -1.0174744 2.6744123
-2.3319938 -1.0372421 2.684644
1.59568 -1.0413001 2.67803
1.6099614 -1.0191357 2.6711657
1.718745 -1.0067799 2.665175
2.5260134 -1.02732 2.6714885
-2.4685299 -0.96709329 2.6668198
-2.430656 -0.97468519 2.684792
-2.3998499 -0.98642099 2.69489
1.6308163 -0.97916663 2.6786664
1.67243 -0.97291821 2.6637213
1.71375 -0.97047853 2.685075
2.5407834 -0.98752803 2.6731398
2.5563433 -0.9640457 2.6650267
-2.56635 -0.91464102 2.6579599
-2.5228562 -0.92662609 2.671695
-2.4815273 -0.93085325 2.6893601
1.64511 -0.94643998 2.6926501
1.669795 -0.94008017 2.6864276
1.70267 -0.93821198 2.6928999
2.5694952 -0.92576963 2.6744201
-2.6629901 -0.856215 2.6543801
-2.6239045 -0.86676306 2.6714842
-2.5764871 -0.88902825 2.6758072
-2.5301201 -0.89308268 2.6952868
2.58728 -0.87450981 2.6755717
-2.71049 -0.81623936 2.6624868
-2.6726463 -0.8276813 2.675235
-2.6274967 -0.83466667 2.6934536
2.597775 -0.84174651 2.68485
2.6109824 -0.81468797 2.6736727
-2.7727187 -0.76615274 2.67453
-2.7278068 -0.78584266 2.6821415
-2.6897399 -0.795524 2.6968801
2.626394 -0.76832324 2.6723897
-2.8634748 -0.70264196 2.6612101
-2.8225942 -0.71773434 2.6729569
2.6423714 -0.7267521 2.6742733
2.6522601 -0.702654 2.6633101
-2.95772 -0.65725899 2.6519401
-2.9241419 -0.67339802 2.6635485
-2.8747351 -0.67006922 2.6782751
-2.8469501 -0.67854548 2.6957998
2.6485801 -0.68904102 2.69418
2.6612759 -0.66545117 2.66766
-2.9730499 -0.6197713 2.6727283
-2.9319832 -0.63431472 2.6831434
-2.89607 -0.63753498 2.6893599
2.676496 -0.62197119 2.6728837
-3.0652199 -0.57747602 2.660413
-3.0243568 -0.5759328 2.6807365
-2.9869299 -0.591887 2.69032
2.6897719 -0.58129233 2.6749101
2.7041249 -0.55865902 2.6650651
-3.21401 -0.51570302 2.65154
-3.1519201 -0.51154298 2.6630099
-3.124414 -0.52458298 2.668658
-3.0758564 -0.54429072 2.6854503
2.7138219 -0.53096449 2.676276
-3.22084 -0.47987902 2.6623702
-3.175946 -0.48056239 2.6688762
-3.14063 -0.494313 2.6872101
2.7313485 -0.47823241 2.6757171
-3.2543001 -0.42877001 2.6972599
-3.22664 -0.44490302 2.6879549
2.7446699 -0.44053751 2.6762249
2.7552063 -0.42018366 2.6683834
2.7749214 -0.38135448 2.6766701
-2.0506999 -0.304189 2.6575899
-2.0294933 -0.32008865 2.6772935
2.7951267 -0.329918 2.6756365
2.8036849 -0.32019651 2.653605
-2.1045499 -0.292209 2.6695199
-2.0520699 -0.28913799 2.6607499
2.8137221 -0.28200999 2.6791241
1.8271834 -0.22318 2.6974933
2.8392699 -0.23302867 2.6842535
2.856545 -0.20940951 2.6655698
1.49446 -0.155366 2.6906099
1.5270433 -0.15578833 2.6846101
1.571862 -0.1657566 2.69226
1.6204416 -0.16252784 2.6811984
1.6848881 -0.16842261 2.6915379
1.732425 -0.1639645 2.6802375
1.7773079 -0.1702812 2.6812482
1.82741 -0.1788373 2.6762111
1.8665767 -0.16754633 2.6570265
2.8615386 -0.17467968 2.6721802
1.437317 -0.12574585 2.6839345
1.4692919 -0.13426599 2.6715541
1.5209628 -0.13256942 2.6659055
1.572204 -0.1358472 2.6628461
1.624768 -0.13667561 2.6574903
1.7175268 -0.14440367 2.6580801
1.7766249 -0.14566901 2.6570201
2.8856547 -0.12260183 2.6760714
1.4446549 -0.097672351 2.68241
1.4765834 -0.060483132 2.6828401
2.8948333 -0.081644662 2.6806133
2.9093575 -0.056702878 2.6735902
-2.628195 -0.032866474 2.6831126
1.4871516 -0.027538469 2.6757069
2.924365 -0.025826225 2.6719999
-2.59604 0.01741329 2.672365
-1.171545 0.041414101 2.6963549
1.49572 0.00064308703 2.6966
1.5095614 0.024890019 2.6756344
2.960845 0.036364701 2.6735599
-2.568975 0.075330123 2.6730051
-1.10219 0.0542733 2.6777048
-1.06792 0.069831751 2.6858799
-1.04221 0.093339801 2.658
1.534961 0.078539424 2.6697402
2.9709487 0.074734077 2.6751745
-2.5864398 0.11936087 2.6788762
-1.0339949 0.1270225 2.6739049
1.537846 0.11437861 2.679996
1.560975 0.13978976 2.6812074
2.9892733 0.11410367 2.6709566
3.0050967 0.13842835 2.6735899
-2.6024899 0.15043201 2.6611099
-2.5956376 0.16744101 2.6753674
-1.05856 0.19991 2.6572299
1.5664999 0.17040056 2.6787224
1.70346 0.18927 2.6643701
3.0193968 0.18098433 2.6789834
-2.6031599 0.21703801 2.6582899
-2.5933635 0.21760567 2.6775999
1.5801737 0.22340101 2.6826601
1.6146049 0.2437755 2.6560199
1.6704935 0.23017782 2.6759434
1.70202 0.219983 2.69099
3.0382299 0.22377832 2.6771698
3.0534301 0.236049 2.6682899
-2.80896 0.27748901 2.6807699
1.591825 0.25904101 2.679235
1.6250166 0.27296948 2.6865752
1.67047 0.26349601 2.69944
3.04548 0.25501701 2.69221
3.0605335 0.27620098 2.6768882
-2.8187299 0.34683502 2.669245
3.0799499 0.3262217 2.6748216
-2.7906697 0.38192001 2.6935368
3.0937326 0.3755925 2.6749024
3.1231999 0.41882098 2.6708374
1.9324499 0.46814367 2.6903698
3.1350541 0.47567219 2.6618838
1.56968 0.52197701 2.68924
1.6285241 0.52502835 2.68029
1.67621 0.51344103 2.67856
1.9131401 0.50396103 2.69876
3.140785 0.50967401 2.6821151
3.1541736 0.53142732 2.6679299
1.57763 0.57747698 2.6610701
1.6170449 0.55696201 2.6520801
3.1676099 0.57761598 2.6776097
3.1736348 0.62530625 2.6742525
3.1847701 0.67059577 2.6838698
3.2019801 0.68524754 2.66974
3.1935701 0.72512805 2.688935
3.20472 0.72334802 2.66378
3.207875 0.77329159 2.6726601
3.1782436 0.83121407 2.6806827
3.2189 0.82073402 2.6523449
2.8338799 0.89666295 2.6939201
2.9198101 0.89119399 2.6990399
2.9764602 0.89720505 2.6858766
3.0288799 0.88475877 2.6803024
3.0673001 0.88918501 2.67274
3.1260998 0.87930399 2.6779699
3.1760166 0.87104601 2.6607168
1.8796849 0.94856298 2.6933899
1.921995 0.93845797 2.695035
1.97785 0.93858242 2.6893942
2.0275621 0.93773556 2.6831961
2.073844 0.93334943 2.6781859
2.126327 0.93137878 2.6798155
2.179852 0.92947024 2.681186
2.2304766 0.93078166 2.6837749
2.2747722 0.93333161 2.6807461
2.3292139 0.93404639 2.6779621
2.3781831 0.93489403 2.6798999
2.4226422 0.93372381 2.6756239
2.472878 0.92774153 2.6785879
2.5265241 0.92603242 2.683032
2.574055 0.92880183 2.6789367
2.6230781 0.92630333 2.674695
2.6811924 0.93443102 2.67084
2.7324524 0.92540652 2.6792126
2.7767801 0.92150402 2.6721237
2.8303199 0.92534602 2.674305
2.8740401 0.928294 2.6698341
2.9225183 0.9212262 2.6735203
2.97405 0.92389649 2.6764951
3.0011401 0.917382 2.6705999
3.0768552 0.90772402 2.6592102
3.1291201 0.914801 2.6533
1.431 0.99964899 2.6936901
1.52081 0.99553233 2.6929266
1.5837466 0.99581933 2.6821499
1.6295167 0.98498249 2.6878102
1.6778221 0.98582762 2.683476
1.7223339 0.98354179 2.6753368
1.7747861 0.97896731 2.6706238
1.8231133 0.97099137 2.6766865
1.8725599 0.9741326 2.6670413
1.9246076 0.96410888 2.6703427
1.971338 0.96842718 2.6640301
2.0204558 0.96760684 2.6571782
2.0701799 0.95642298 2.6595426
2.1349633 0.96784633 2.6590197
2.1748569 0.957555 2.6618032
2.22647 0.95930451 2.6591949
2.2876301 0.95152497 2.6592801
2.32269 0.95577097 2.653595
2.3827734 0.96000862 2.6564333
2.4296999 0.95533299 2.6550951
2.519465 0.95342749 2.6638598
2.6387801 0.95164901 2.6523299
1.0221567 1.04584 2.6967499
1.076645 1.0435951 2.6955075
1.133954 1.0351501 2.6929619
1.1774501 1.0368334 2.6872149
1.2271488 1.0371726 2.6877239
1.276674 1.032127 2.6835151
1.3250234 1.0299267 2.6818523
1.3723973 1.0284728 2.6757207
1.4247572 1.0244228 2.6725328
1.4758391 1.0209874 2.6713936
1.5261242 1.0216156 2.669167
1.5662017 1.0133134 2.6671419
1.6200771 1.0123199 2.6618102
1.67635 1.0084666 2.6596999
1.71223 1.01185 2.6524
1.77135 1.00454 2.6526101
0.68880451 1.092265 2.6970601
0.72723901 1.0893875 2.6914425
0.77411538 1.0886014 2.6888549
0.82521939 1.0850289 2.6876044
0.87463355 1.0830708 2.6759455
0.92718053 1.0774369 2.6787517
0.97663218 1.0766592 2.675293
1.0253419 1.0718518 2.6724427
1.0772465 1.0678116 2.6707103
1.12519 1.0637021 2.6688178
1.1691729 1.0627486 2.6634028
1.2154039 1.0620741 2.658704
1.26789 1.0584475 2.6581175
1.31935 1.05797 2.6597576
1.358845 1.0569651 2.65222
1.45654 1.05549 2.6542001
0.2841095 1.145995 2.69713
0.32942218 1.1409184 2.6931031
0.37654313 1.1397585 2.6887801
0.42397287 1.1395943 2.6879501
0.47572657 1.13388 2.6831367
0.52611303 1.13108 2.6780841
0.57397819 1.128134 2.6761565
0.62415004 1.1214848 2.6736345
0.67425549 1.1186043 2.6736844
0.72704166 1.1148093 2.6667385
0.7756303 1.1142685 2.6654985
0.82205218 1.1099867 2.6582966
0.87704802 1.1079201 2.6519535
0.91054201 1.1011 2.6659701
-0.063522696 1.1999 2.6893899
-0.034006324 1.1952367 2.6910183
0.025021385 1.1919426 2.6893752
0.079423383 1.1910524 2.6863325
0.12688634 1.1828579 2.6839821
0.17620565 1.1777012 2.6800141
0.22832938 1.1735194 2.6748013
0.27586567 1.1737524 2.6715994
0.32186729 1.1693654 2.6696522
0.37771401 1.1672659 2.6642892
0.42350084 1.1640242 2.6614444
0.46838865 1.1586983 2.6566684
0.52820075 1.1563425 2.65414
-0.42414102 1.24605 2.6961401
-0.37463698 1.2424124 2.69381
-0.32688072 1.2408515 2.6851614
-0.27639642 1.2348274 2.6863267
-0.22104482 1.2319434 2.6839066
-0.17133373 1.2326636 2.6755936
-0.123115 1.2285262 2.6734059
-0.077871323 1.2257029 2.6712151
-0.029266546 1.2210068 2.666465
0.022242699 1.2174321 2.6654189
0.07902652 1.2115937 2.6619339
0.126247 1.208796 2.6576159
0.1694572 1.205838 2.6559341
0.213773 1.20154 2.6506801
-0.71313 1.29649 2.6868
-0.67257679 1.2913879 2.6911681
-0.62310296 1.2849958 2.6897969
-0.57165384 1.2804347 2.6841662
-0.52263188 1.277952 2.6812518
-0.475162 1.2749875 2.6747773
-0.42540485 1.2747672 2.6654241
-0.37393585 1.2686507 2.6667848
-0.32320499 1.2648101 2.6602986
-0.27488112 1.2624338 2.6594138
-0.22667666 1.2597883 2.657285
-0.1924125 1.25138 2.6584849
-1.0751867 1.3446733 2.69732
-1.0163625 1.34172 2.6898527
-0.9766193 1.3368416 2.6908267
-0.92779803 1.3384733 2.683285
-0.87370318 1.3324382 2.6874256
-0.81657082 1.3331811 2.6823401
-0.77338362 1.3244332 2.6797733
-0.72626579 1.320164 2.6703768
-0.67544585 1.3148181 2.6656535
-0.62681776 1.3140899 2.66255
-0.57775432 1.3119966 2.6572418
-0.52779895 1.308465 2.6580465
-0.49125499 1.31021 2.6500599
-1.4119849 1.3966501 2.6909852
-1.3648901 1.39477 2.6854949
-1.3292733 1.3889817 2.6865284
-1.2731149 1.3844099 2.6828775
-1.223395 1.3802788 2.6822035
-1.1722051 1.3778092 2.6803849
-1.1225781 1.3714236 2.6780615
-1.0707366 1.3682532 2.6742234
-1.0199533 1.3682878 2.6651745
-0.97501677 1.3638157 2.6672313
-0.92424035 1.3620449 2.6613533
-0.8766647 1.3595384 2.6568251
-0.82901955 1.3575567 2.6589234
-0.78522599 1.35605 2.6545601
-1.767185 1.449445 2.6938
-1.7197466 1.4437566 2.6889765
-1.6736549 1.4383632 2.6914647
-1.6203699 1.43373 2.6841166
-1.5740131 1.428746 2.6812079
-1.5285933 1.4287555 2.6769166
-1.4742068 1.4283568 2.6747139
-1.4241126 1.4202062 2.672559
-1.3782729 1.4200385 2.6644328
-1.3267914 1.4173642 2.6621685
-1.274205 1.4074675 2.6594701
-1.2184134 1.4024334 2.6596334
-1.17619 1.410745 2.6546001
-2.0685999 1.49672 2.69399
-2.0474899 1.49339 2.6978199
-1.9753933 1.48339 2.6807168
-1.9234943 1.4845816 2.6832085
-1.8750775 1.47998 2.6884227
-1.8273926 1.4799638 2.6732039
-1.7764844 1.4764185 2.6694558
-1.7246758 1.4699229 2.6614099
-1.6738701 1.46323 2.6617525
-1.628495 1.4578925 2.660675
-1.5146151 1.453645 2.6515
-2.332165 1.53943 2.6970148
-2.2726433 1.5359334 2.6896601
-2.22188 1.536705 2.6796799
-2.1722717 1.5340199 2.67752
-2.1234934 1.5230633 2.6788683
-2.0727687 1.5213572 2.6690843
-2.0270467 1.5174899 2.6721618
-1.9795049 1.5145026 2.6678998
-1.92926 1.5089099 2.658705
-1.8880351 1.5018101 2.6643648
-2.6454799 1.5918 2.6877699
-2.5875101 1.59631 2.6826601
-2.5250866 1.5891466 2.6867335
-2.470572 1.5814021 2.6760662
-2.4216201 1.5739484 2.6774302
-2.3734629 1.57452 2.6718271
-2.3234565 1.568215 2.6721218
-2.2693849 1.56319 2.6670823
-2.2175851 1.5677125 2.6597002
-2.17887 1.56656 2.6554
-2.1168952 1.55181 2.655925
-2.0596199 1.5566 2.6531799
-2.7700751 1.622735 2.6856999
-2.7216201 1.6332049 2.6755376
-2.6710775 1.62363 2.6704597
-2.6203079 1.615522 2.6666281
-2.5689499 1.61235 2.6632998
-2.5302901 1.61281 2.6536698
-2.4846098 1.6159067 2.6563666
-2.4414549 1.6213701 2.65449
-2.96627 1.65257 2.6821201
-2.9199898 1.67076 2.6763372
-2.8715365 1.6683201 2.6767998
-2.8227367 1.6604667 2.6714067
-2.7062099 1.6614799 2.66169
-0.47126499 -2.20297 2.7214
-0.42495298 -2.21099 2.7374833
-0.57049298 -2.1536798 2.7048602
-0.517335 -2.1703939 2.7208426
-0.47352099 -2.186547 2.7310512
-0.44163999 -2.198 2.7499101
-0.61491901 -2.113292 2.7122662
-0.57912171 -2.1241634 2.7267842
-0.54166824 -2.1406524 2.7391374
-0.71435797 -2.0549901 2.70134
-0.67015207 -2.0732682 2.716624
-0.62932837 -2.0797837 2.7365513
-0.59547198 -2.09372 2.7458999
0.74198502 -2.07478 2.7469499
-0.77332199 -2.0122478 2.7107618
-0.72449291 -2.0255857 2.726316
-0.67851228 -2.0411949 2.7370501
0.76205677 -2.0261276 2.7298725
-0.85222602 -1.96065 2.7100501
-0.82056999 -1.9701812 2.7198274
-0.77952129 -1.9809172 2.7320485
-0.74752498 -1.99643 2.7388301
0.77612942 -1.9763566 2.7272003
1.0813925 -1.9589076 2.7218747
1.125945 -1.9779816 2.7280052
1.1648815 -1.9811671 2.7243826
-0.91964835 -1.915584 2.7126622
-0.87522167 -1.9241183 2.725913
-0.8278625 -1.939955 2.7423551
0.78430682 -1.923782 2.7184119
0.80180502 -1.90051 2.73774
0.98615772 -1.9097233 2.7120469
1.0251914 -1.9215844 2.7267554
1.0655433 -1.9396667 2.7342567
1.1847301 -1.93388 2.7425201
1.240325 -1.91635 2.7288651
1.2589999 -1.90794 2.7076001
-0.96868825 -1.8732049 2.7176175
-0.93054092 -1.8834466 2.7343912
-0.885203 -1.8935601 2.7476499
0.807769 -1.8696899 2.7323599
0.89165002 -1.86163 2.7197101
0.93002307 -1.8703613 2.7269688
0.97121531 -1.8904533 2.7314332
1.00436 -1.89834 2.74542
1.24237 -1.8940067 2.7389934
1.2762413 -1.8737726 2.7248814
-1.0705444 -1.8103714 2.7144015
-1.0218699 -1.8276743 2.7243528
-0.98197186 -1.8402061 2.7368979
0.82562155 -1.8217865 2.7292318
0.86886346 -1.83298 2.7247689
0.91166002 -1.83982 2.74666
1.2915025 -1.825315 2.7173424
1.30343 -1.8069299 2.73578
-1.16606 -1.755325 2.7083549
-1.1230534 -1.7689433 2.7192831
-1.0787443 -1.7838631 2.7316272
-1.03847 -1.79388 2.7464399
0.83341372 -1.7834874 2.7430224
1.316265 -1.7715534 2.7227399
-1.2162167 -1.7203966 2.7120249
-1.1766499 -1.7282611 2.7283454
-1.13486 -1.7414576 2.7393277
1.3284575 -1.7237349 2.7235327
-1.314876 -1.6581919 2.7167342
-1.2714674 -1.6725683 2.7226677
-1.2261838 -1.6846025 2.7358351
-1.185655 -1.69873 2.7443299
1.3432099 -1.6796101 2.72911
1.35287 -1.65774 2.70155
-1.41154 -1.60528 2.7037201
-1.3722723 -1.6162657 2.7161913
-1.3283489 -1.6314466 2.729739
-1.281275 -1.639045 2.7459049
1.34814 -1.6399 2.7464299
1.3615075 -1.6282974 2.7273426
-1.470266 -1.5614359 2.715322
-1.4287224 -1.5737067 2.7261748
-1.378288 -1.591204 2.736258
1.3827585 -1.5811267 2.7310116
-1.5681034 -1.5120767 2.7071702
-1.5225469 -1.5198079 2.7172539
-1.4818845 -1.5303235 2.7354534
1.39569 -1.52834 2.7351501
1.4046434 -1.5210867 2.7154434
2.2780199 -1.50827 2.7008901
-1.62287 -1.4597977 2.7195878
-1.578203 -1.4778301 2.7289939
-1.5337651 -1.4892676 2.7390776
1.4154539 -1.482244 2.7242341
2.2321432 -1.4674765 2.7186966
2.2819736 -1.4763883 2.7207501
2.3062148 -1.45804 2.7086101
-1.716 -1.4066933 2.7100499
-1.671592 -1.4225321 2.7211883
-1.6267518 -1.4308532 2.7377617
1.4277916 -1.4279799 2.7257001
2.0405099 -1.41478 2.7281401
2.06078 -1.4244567 2.7068367
2.115835 -1.42607 2.7130001
2.1717775 -1.4210925 2.7183826
2.21279 -1.43389 2.72892
2.3154473 -1.417995 2.7297378
-1.8102733 -1.3562566 2.7049799
-1.7689286 -1.36303 2.7185574
-1.7277708 -1.3793352 2.7284951
-1.6840934 -1.3895634 2.7453098
1.4409332 -1.3871332 2.7312133
1.4542425 -1.3661425 2.7179174
2.030545 -1.3747201 2.7288251
2.0725601 -1.39722 2.71264
2.1165466 -1.3541332 2.7258599
2.1721649 -1.3749374 2.7383223
2.3324382 -1.3749372 2.7232814
2.35607 -1.370595 2.706425
-1.8651 -1.3136034 2.7084835
-1.8285356 -1.3246444 2.72545
-1.7907834 -1.3348466 2.7402201
1.4682443 -1.3271929 2.7227099
2.0398901 -1.32046 2.7291801
2.0621924 -1.310565 2.7135699
2.1300032 -1.3332599 2.7306068
2.373534 -1.3303337 2.7285175
-1.9533499 -1.25334 2.71224
-1.9234819 -1.269279 2.7174852
