ply
format ascii 1.0
comment PCL generated
element vertex 1532
property float x
property float y
property float z
element camera 0
property float view_px
property float view_py
property float view_pz
property float x_axisx
property float x_axisy
property float x_axisz
property float y_axisx
property float y_axisy
property float y_axisz
property float z_axisx
property float z_axisy
property float z_axisz
property float focal
property float scalex
property float scaley
property float centerx
property float centery
property int viewportx
property int viewporty
property float k1
property float k2
end_header
1.10903 -0.684807 3.3521199
2.4433401 -0.69476497 3.3982301
2.4754798 -0.67450833 3.3751018
-1.91078 -0.608558 3.36554
-1.8723415 -0.62045097 3.3750198
-1.8302059 -0.63533342 3.3847339
1.0965101 -0.63711298 3.3773799
1.1129433 -0.62290835 3.3739831
2.49224 -0.63692701 3.3787098
2.5067101 -0.61877602 3.3821101
-1.961475 -0.5654645 3.36129
-1.9261225 -0.57683879 3.3774211
-1.88985 -0.59247553 3.3908401
1.1336379 -0.56504643 3.3672938
2.5224533 -0.57995445 3.3771384
-2.05528 -0.50577098 3.35166
-2.0148442 -0.51282537 3.3690579
-1.9791366 -0.52961248 3.3835535
1.14387 -0.52663147 3.3700449
1.1564851 -0.50805402 3.3555
2.5409219 -0.52650082 3.3799999
2.5601749 -0.51132751 3.35391
-2.0667129 -0.46841201 3.3638587
-2.0203214 -0.47561601 3.3804584
1.1704401 -0.469758 3.3830602
2.5648301 -0.47796834 3.3771231
-2.116395 -0.4093405 3.365315
-2.073806 -0.42483941 3.3757737
-1.98517 -0.433842 3.3984001
1.190475 -0.41797799 3.3710151
2.5858719 -0.43057197 3.3746002
2.6064601 -0.406207 3.3506601
-2.125365 -0.37446302 3.3830349
-2.083905 -0.38270849 3.39257
-2.0273199 -0.35925999 3.3592501
1.19583 -0.37646002 3.3769798
1.2091733 -0.36705101 3.3633432
2.614965 -0.37418574 3.3743975
-2.1276901 -0.30940101 3.37288
-2.0935199 -0.327997 3.3935399
-2.0367551 -0.3080295 3.3986349
1.2180687 -0.32036659 3.3773687
2.6354675 -0.32132173 3.3769801
-2.08898 -0.26236647 3.37148
-1.98551 -0.25048801 3.37447
-1.04159 -0.26506099 3.39855
1.2300371 -0.27004585 3.3773341
2.6475501 -0.29229999 3.3756599
2.6597919 -0.2688722 3.3701203
-2.0469999 -0.215409 3.36324
-1.97096 -0.213015 3.3517201
-1.0599633 -0.24206567 3.3825033
-1.035355 -0.23872 3.379595
1.24749 -0.234218 3.3762701
1.262055 -0.20863101 3.366605
2.6781199 -0.221009 3.3684299
-2.6208448 -0.15328351 3.3559599
-2.5776248 -0.16708525 3.3639975
-2.01001 -0.197285 3.3798699
-1.9639499 -0.1851892 3.3722122
-1.9318924 -0.16000625 3.3843374
-1.871425 -0.15940401 3.395705
-1.8215051 -0.15815401 3.3845148
-1.79519 -0.15816399 3.39606
-1.72931 -0.192045 3.3910301
-1.6855267 -0.15616933 3.3888633
-1.6259251 -0.15545449 3.3934801
-1.5722849 -0.1544445 3.3875649
-1.532805 -0.15393999 3.3889351
-1.4777566 -0.15268233 3.3761435
-1.4209633 -0.16624182 3.37924
-1.3739172 -0.17082 3.3779786
-1.3308734 -0.17330635 3.3763332
-1.21158 -0.199265 3.37078
1.2821951 -0.17558101 3.3719349
2.691 -0.18882298 3.3736432
2.70521 -0.156565 3.3802099
-2.66679 -0.115498 3.3604801
-2.6267941 -0.12299941 3.3756778
-2.5853033 -0.12788767 3.3909099
-1.920495 -0.141295 3.3649449
-1.8738825 -0.131649 3.36129
-1.8308729 -0.12507816 3.3713515
-1.7772601 -0.122224 3.3835051
-1.66149 -0.138175 3.3827701
-1.6259825 -0.12877899 3.3733125
-1.57656 -0.13681833 3.3756332
-1.5316 -0.12733901 3.3651376
-1.4760425 -0.13084924 3.3618474
1.2858 -0.13775125 3.3705649
2.7162249 -0.12709576 3.3760002
-2.7643499 -0.0579588 3.35373
-2.7182324 -0.0675686 3.37059
-2.6772616 -0.083568878 3.3805649
-2.617872 -0.080627516 3.3948739
-2.57776 -0.0570594 3.395
-2.5230901 -0.062787138 3.37183
-2.4839349 -0.065505803 3.3622751
-1.7762049 -0.0865862 3.3621149
2.7374558 -0.074038073 3.369482
-2.768012 -0.02667072 3.3695438
-2.727675 -0.038385853 3.3826799
-2.60479 -0.037871499 3.39342
-2.5595701 -0.037490301 3.3712599
-2.5299768 -0.024544166 3.3567932
-2.4928851 -0.02760095 3.3563499
2.7456234 -0.032082833 3.3826599
2.7583201 -0.0189155 3.3729999
-2.823663 0.026351277 3.3702528
-2.7785182 0.012747969 3.38978
-2.5717101 0.000838787 3.3504901
2.772212 0.024661506 3.3747482
-2.8603899 0.067162134 3.3642533
-2.8223898 0.076297045 3.3829257
-2.7767758 0.083832577 3.3868461
-2.7264669 0.092474796 3.3864934
-2.6690352 0.088486753 3.382385
-2.6169968 0.078000367 3.3715935
1.3854166 0.079626001 3.3638732
2.7789741 0.076246537 3.3747501
-2.7646999 0.12516201 3.3588035
-2.72212 0.124715 3.3679199
-2.67011 0.117337 3.36462
-2.63662 0.116712 3.359
-1.65733 0.122082 3.37479
1.3821768 0.119028 3.3628199
2.7804759 0.124089 3.3829799
1.3882817 0.17044717 3.3759534
2.74893 0.19937199 3.39464
2.7766752 0.18289165 3.3785982
2.81074 0.159779 3.3575201
1.3915859 0.2181792 3.377058
1.41545 0.22516575 3.3572476
2.6148601 0.235089 3.3944449
2.6714268 0.22976899 3.3848
2.7219899 0.22771199 3.3787174
2.7650335 0.224961 3.3622367
2.80826 0.21917699 3.3517399
1.4133301 0.27217066 3.3609636
2.3896949 0.27491152 3.3724599
2.4323466 0.28004369 3.3811533
2.4829199 0.2789475 3.38747
2.5287817 0.27689815 3.379715
2.5753019 0.267905 3.3748841
2.62485 0.26337627 3.3675098
2.67062 0.26111567 3.3565235
2.7155199 0.25577399 3.35004
1.23589 0.33789301 3.3885801
1.26991 0.33485726 3.392065
1.4113176 0.324485 3.3756976
2.38763 0.30298501 3.3675001
2.4223664 0.31047133 3.3648968
2.481245 0.30634898 3.3640552
2.5316551 0.30781451 3.3559651
-1.55606 0.395583 3.3587101
-1.5356801 0.39475 3.3578601
-1.382995 0.38179949 3.3667049
0.67547899 0.39335099 3.39891
0.72581464 0.39401734 3.3967097
0.76757097 0.394409 3.3930349
0.82789534 0.39578065 3.3941965
0.87920135 0.39664268 3.3918068
0.93372881 0.39072663 3.3873322
0.98061764 0.38391563 3.3874049
1.0349051 0.39521223 3.3822951
1.0764756 0.38373354 3.3826122
1.12308 0.379706 3.3779957
1.1764429 0.37434742 3.3819087
1.2272215 0.37281641 3.3763585
1.267655 0.36259219 3.3711853
1.31142 0.3799085 3.36097
1.3707533 0.37049136 3.3911636
1.4103 0.36905649 3.3931351
-1.61734 0.44982901 3.35478
-1.5726585 0.43113098 3.3601155
-1.527338 0.42365098 3.3718719
-1.48698 0.44692799 3.3768899
-1.3593301 0.40519899 3.3531201
-1.3404 0.42139 3.3515301
0.230721 0.43687332 3.3972733
0.27923298 0.43694001 3.394875
0.32759866 0.43677834 3.3901968
0.37937617 0.43041879 3.3874259
0.42437473 0.43196958 3.3810098
0.47352934 0.42917785 3.3813467
0.52271956 0.429719 3.3800118
0.57265413 0.42261553 3.3826442
0.6186409 0.42416638 3.3722575
0.67178559 0.4236818 3.377233
0.71839112 0.4190937 3.3705771
0.77202988 0.41696 3.3728285
0.82310486 0.41801882 3.3722584
0.87183374 0.41782534 3.3609416
0.92481351 0.41958049 3.3647316
0.97968102 0.41890842 3.3609238
1.0245725 0.41760576 3.360625
1.0715001 0.41406548 3.35449
1.13657 0.40004799 3.3620999
1.16603 0.40430602 3.354615
1.22588 0.40202299 3.3552699
1.34438 0.40749499 3.3698001
1.3661151 0.4174 3.3752551
-1.7134449 0.4896695 3.3565302
-1.67741 0.48932901 3.3682251
-1.6227987 0.47437814 3.3697
-1.5793124 0.46991426 3.390785
-1.5349801 0.45096299 3.39521
-1.4331 0.48605698 3.3608551
-0.072804883 0.49081922 3.3911941
-0.025334956 0.48829556 3.38712
0.020599412 0.49011803 3.3754368
0.068883352 0.48504487 3.3821764
0.12553434 0.47610834 3.378269
0.18102443 0.47119591 3.3721411
0.22921954 0.46606547 3.3717499
0.27528745 0.46181855 3.371923
0.3237181 0.46431914 3.36765
0.37064102 0.45667702 3.3643737
0.42192698 0.45015252 3.359375
0.47035649 0.45841467 3.3553236
0.5197534 0.45143464 3.3583298
0.56870931 0.45195833 3.3560867
0.60101497 0.45199999 3.35201
-1.76388 0.54689646 3.3654251
-1.7277865 0.5281508 3.3734879
-1.6742301 0.52447611 3.3840964
-1.6296266 0.51309437 3.3879268
-1.03048 0.51862699 3.3984499
-0.45073801 0.53755897 3.39605
-0.417162 0.53620201 3.3905399
-0.37376702 0.54418159 3.3821442
-0.3152318 0.54029304 3.382792
-0.27176258 0.53734416 3.3789227
-0.22038801 0.53101867 3.371279
-0.17259477 0.51621872 3.3833513
-0.12544674 0.52079767 3.3760192
-0.077824719 0.51784229 3.3658545
-0.031386197 0.51589179 3.3572149
0.01251494 0.5113005 3.3537002
0.068391107 0.51152366 3.35447
-1.7761371 0.57735586 3.3762612
-1.7382951 0.5676375 3.3963599
-0.91797501 0.56949049 3.3680949
-0.8725515 0.58861351 3.3912301
-0.76182699 0.59443104 3.395745
-0.71021998 0.5926075 3.3934002
-0.66811866 0.59170264 3.3944833
-0.61728477 0.58196974 3.3937149
-0.57835799 0.58066922 3.381192
-0.52489883 0.57913458 3.3787301
-0.47734001 0.58172446 3.3710556
-0.43151554 0.56616282 3.3704178
-0.37392852 0.56061649 3.3666699
-0.33293277 0.55933124 3.3621278
-0.28387365 0.56172532 3.3549998
-0.235274 0.56045401 3.3501101
-1.8616199 0.64141297 3.3520999
-1.8219715 0.62918484 3.3687232
-1.7814513 0.61549503 3.3871615
-1.23136 0.61925852 3.386915
-0.81857353 0.61435878 3.3789625
-0.77697498 0.62411654 3.3702381
-0.72874033 0.62404889 3.3662276
-0.68286759 0.61622715 3.3681912
-0.62970531 0.61086249 3.3658218
-0.57861733 0.60038871 3.3603733
-0.54622298 0.600384 3.3644199
-1.8711075 0.68940777 3.362005
-1.8301319 0.66911823 3.3794541
-1.79904 0.662323 3.3963301
-1.2564501 0.68300998 3.3952899
-1.91426 0.73701 3.3511701
-1.8777559 0.72493356 3.3742831
-1.84586 0.72034234 3.39256
-1.41347 0.74513799 3.39464
-1.3847301 0.74362051 3.3961201
-1.324005 0.73860848 3.38937
-1.2788434 0.73078233 3.3626935
-2.27999 0.78856301 3.3542299
-1.9171587 0.77878231 3.3604801
-1.8695638 0.77351123 3.3807611
-1.8294901 0.79297632 3.3903668
-1.776 0.78917348 3.39328
-1.65616 0.79676199 3.3859899
-1.6289867 0.7890777 3.3886068
-1.5753599 0.78285527 3.39257
-1.5272781 0.77975661 3.3852799
-1.4741315 0.7831136 3.3846443
-1.4221872 0.78022188 3.3752627
-1.3716974 0.77231127 3.3763137
-1.3247883 0.77005786 3.3690732
-2.2804799 0.83137172 3.3760452
-1.9171474 0.82292277 3.3608601
-1.8750467 0.82927513 3.3646717
-1.8247313 0.82357013 3.369941
-1.7735913 0.82465237 3.3723702
-1.7214251 0.82036746 3.3745663
-1.68071 0.81932068 3.3818133
-1.6242366 0.82344455 3.3642533
-1.5810699 0.81200433 3.3694103
-1.5210421 0.80789626 3.365598
-1.4596699 0.81127298 3.3515601
-1.4202566 0.8084237 3.3514433
-1.38095 0.80553001 3.35079
-2.2827799 0.85682398 3.3711865
-2.2362466 0.86982268 3.361623
-1.86184 0.86337602 3.3538301
-1.79381 0.85657698 3.35095
1.7105967 -2.5728667 3.4245701
1.7252067 -2.5223467 3.4291468
1.74552 -2.4979501 3.4113801
0.43129301 -2.10043 3.4096799
0.469679 -2.1070602 3.4162066
0.52240419 -2.1181519 3.4119542
0.38332677 -2.0631075 3.4123125
0.420479 -2.079736 3.4243679
0.4664146 -2.0834777 3.4335041
0.53239572 -2.0944476 3.4376326
0.57041079 -2.0698721 3.4295421
0.29834899 -2.0110202 3.4113798
0.3289184 -2.0251622 3.4210219
0.36822429 -2.0339067 3.4311402
0.413109 -2.0471301 3.44257
0.59410304 -2.0322676 3.4351625
0.61451101 -2.014185 3.42117
0.23035951 -1.9678668 3.4148102
0.27399084 -1.9864216 3.4241934
0.318533 -1.99649 3.4451001
0.62601399 -1.979515 3.4201574
0.123469 -1.90315 3.41273
0.1716363 -1.9230772 3.417593
0.22071901 -1.93139 3.4345717
0.64733166 -1.9382033 3.4256432
0.660685 -1.9057699 3.4058499
0.081798777 -1.8672539 3.4137101
0.1218122 -1.874156 3.4334283
0.160317 -1.896495 3.4400001
0.68292922 -1.8696232 3.4260118
-0.0112814 -1.80918 3.4052401
0.026606955 -1.8211951 3.4225001
0.072311617 -1.8342284 3.4375982
0.69895703 -1.83864 3.4426701
0.71362001 -1.8204551 3.4264851
-0.070294105 -1.7624232 3.4121034
-0.031274825 -1.7747312 3.4170899
0.012403685 -1.7898966 3.4375334
0.72301298 -1.7542 3.4019899
-0.15185601 -1.7030801 3.4052801
-0.12069599 -1.713562 3.4187
-0.087214343 -1.7337557 3.4256413
-0.0381588 -1.743665 3.445755
0.73508471 -1.72587 3.4301653
-0.20857576 -1.6646025 3.4101849
-0.16994433 -1.6727411 3.4284534
-0.1263485 -1.696445 3.435195
0.764705 -1.68261 3.4238799
-0.30766699 -1.60274 3.4049799
-0.27015361 -1.6147258 3.4154019
-0.22422113 -1.6292212 3.4278038
-0.187728 -1.6382 3.4428999
0.78492922 -1.6275259 3.428926
-0.35856101 -1.56162 3.40043
-0.32358336 -1.5687487 3.4243324
-0.27802101 -1.587942 3.4369061
-0.24004699 -1.59895 3.4451001
0.79316002 -1.5905401 3.44748
0.80418706 -1.5770568 3.41484
-0.42434779 -1.5157139 3.4091678
-0.37752861 -1.5297511 3.4270139
-0.33511001 -1.538515 3.44099
0.82381755 -1.524514 3.4223561
-0.512761 -1.4514101 3.40764
-0.47781652 -1.4721012 3.4194999
-0.43178213 -1.4821988 3.4362438
-0.39517501 -1.49898 3.4379301
0.8451333 -1.4600067 3.4187698
-0.617558 -1.40193 3.4174199
-0.57369101 -1.4091451 3.4169326
-0.53002453 -1.4202751 3.4316838
-0.48513603 -1.4375075 3.4366972
0.84532702 -1.43282 3.4007499
-0.66575903 -1.3595999 3.4017501
-0.62101769 -1.3696713 3.4216826
-0.57503885 -1.3835182 3.434242
-0.71377599 -1.3134224 3.4120927
-0.67104691 -1.3259767 3.4309902
-0.6393373 -1.34132 3.4251869
0.85735202 -1.33707 3.4045801
1.1323299 -1.3012 3.40097
1.1740921 -1.3155061 3.4077759
1.2258266 -1.3164167 3.4180334
1.2697817 -1.3250817 3.4297466
1.35781 -1.3052499 3.43119
-0.81115448 -1.254735 3.4043601
-0.76707071 -1.2692614 3.4149756
-0.72578144 -1.2837551 3.4294083
-0.68756199 -1.29922 3.4428799
0.88906503 -1.28063 3.4019201
0.90942502 -1.2502199 3.4200499
1.0958967 -1.2646533 3.4175301
1.1267349 -1.26965 3.4239597
1.1753644 -1.2823029 3.4312859
1.367835 -1.2618949 3.4163799
-0.86839038 -1.210674 3.408154
-0.82283157 -1.2248566 3.4253492
-0.77756876 -1.2412975 3.4399152
0.995004 -1.21384 3.4057801
1.0262166 -1.2199367 3.4165983
1.0711443 -1.2270728 3.4268858
1.12132 -1.23823 3.4474599
1.3808266 -1.2300667 3.4249432
-0.96729052 -1.153165 3.4065952
-0.92394638 -1.1705401 3.4190812
-0.87943757 -1.1811428 3.4370158
-0.83422303 -1.19424 3.4446001
0.92798585 -1.1757666 3.4301367
0.97331041 -1.182393 3.4223883
1.015875 -1.1839675 3.4402125
1.3903176 -1.181455 3.4328575
1.40127 -1.16149 3.4272499
-1.0628 -1.10234 3.4007199
-1.0268559 -1.111336 3.4144883
-0.9799602 -1.1233134 3.4278812
-0.937904 -1.14203 3.43699
0.94634998 -1.14873 3.44979
1.41326 -1.12911 3.42784
-1.15316 -1.05449 3.4042001
-1.114894 -1.0611761 3.4116797
-1.0730928 -1.0731828 3.4252701
-1.0274699 -1.0879861 3.4358521
-0.98370099 -1.09285 3.4496601
1.40157 -1.09026 3.4472699
2.2411399 -1.09622 3.40768
-1.2144201 -1.00319 3.4021699
-1.1726713 -1.0214863 3.4217188
-1.1258771 -1.0291843 3.4343185
-1.08966 -1.04254 3.44385
-1.2727683 -0.96191162 3.4151967
-1.2288425 -0.97701675 3.4299512
-1.1921967 -0.98793405 3.4435532
-1.3604001 -0.91212767 3.4100702
-1.3188726 -0.92246115 3.4246526
-1.2794075 -0.93482053 3.4399576
-1.23527 -0.94322199 3.4493201
-1.46473 -0.85724503 3.4026799
-1.4265159 -0.86439383 3.4147861
-1.3779277 -0.8751232 3.4294963
-1.3386732 -0.88787466 3.4439135
-1.5101601 -0.82111275 3.410455
-1.4713178 -0.82586956 3.4248133
-1.4233525 -0.83929324 3.439245
1.1452 -0.81068498 3.4431601
1.1639301 -0.81169403 3.44278
1.21965 -0.83156198 3.4356599
-1.612335 -0.75991547 3.410295
-1.5705117 -0.77137882 3.4221182
-1.5316867 -0.78585333 3.4319718
-1.49832 -0.79571903 3.44714
1.0330033 -0.77132601 3.4261665
1.075652 -0.76506102 3.4309182
1.1215777 -0.77183068 3.4345908
1.170915 -0.78610623 3.4257674
2.4059758 -0.77110565 3.4258282
-1.6673533 -0.714849 3.40938
-1.6279601 -0.7275309 3.4273612
-1.5877832 -0.73995066 3.4433868
1.0876551 -0.73200405 3.4217348
2.4217677 -0.71773273 3.4327424
-1.7597899 -0.65936702 3.4045999
-1.7194885 -0.67477196 3.4195828
-1.67364 -0.68761837 3.4330478
1.0795679 -0.67777997 3.4343479
2.4416652 -0.67064047 3.439755
2.4686434 -0.66767329 3.4258966
-1.8175341 -0.62041557 3.4129562
-1.7739612 -0.63011855 3.4317951
-1.73417 -0.64523399 3.44172
1.0955 -0.629412 3.4336798
1.1111799 -0.611624 3.4275501
2.4829538 -0.62646139 3.4263642
2.5000501 -0.60249501 3.4145701
-1.90698 -0.55890298 3.4063001
-1.8707701 -0.57173091 3.4203014
-1.8330419 -0.58355558 3.431118
1.122995 -0.57710147 3.4260776
2.5117569 -0.57123828 3.4223366
-1.963865 -0.507797 3.413105
-1.9278268 -0.52718157 3.420891
-1.8797532 -0.54338866 3.4407933
1.1381041 -0.52986377 3.4303498
2.530688 -0.52698803 3.4283643
-2.03601 -0.455246 3.40378
-1.9809812 -0.47511736 3.4217386
-1.94389 -0.491447 3.4405
1.14542 -0.49265099 3.4344599
1.1661433 -0.46349397 3.4257133
2.5404801 -0.4878785 3.4271851
2.5581 -0.4679625 3.4144599
-2.0549634 -0.40793768 3.4142501
-2.0358725 -0.4297505 3.4261224
-1.98513 -0.43781701 3.4381001
-1.73926 -0.406811 3.41658
1.1788133 -0.42053387 3.42184
2.570585 -0.42989516 3.4225667
-2.1008899 -0.36581799 3.4024501
-2.067735 -0.3739385 3.4057999
-1.7531149 -0.36352998 3.42676
-1.7254515 -0.37390599 3.4253585
-1.2242 -0.38348198 3.44626
1.1869084 -0.37319449 3.4317484
1.2066 -0.35450199 3.40958
2.5897598 -0.38558802 3.4333601
2.6102052 -0.36231425 3.4173801
-2.0702333 -0.32912567 3.42033
-1.7724125 -0.30605125 3.4269848
-1.7188475 -0.32294825 3.4359975
-1.6972899 -0.32748753 3.4456
1.1937767 -0.32174468 3.4287634
1.206085 -0.3120665 3.4114051
2.6215401 -0.32445902 3.435565
-2.0602174 -0.27300301 3.4108624
-1.82626 -0.286688 3.4483099
-1.7707567 -0.2746605 3.4258201
-1.73663 -0.2748695 3.4430151
-1.26752 -0.255521 3.4453599
-1.22084 -0.25467697 3.4458466
-1.17356 -0.2536535 3.4433851
-1.13113 -0.26538149 3.439395
-1.08294 -0.26914701 3.44491
-1.0295601 -0.27461201 3.4170599
1.217765 -0.26720297 3.43436
2.6379399 -0.28466377 3.4213424
2.6563799 -0.25595501 3.4279201
-1.964725 -0.21723899 3.43941
-1.93601 -0.217066 3.44908
-1.77584 -0.23529574 3.4379976
-1.7248371 -0.22953014 3.4342215
-1.678435 -0.22027701 3.4459801
-1.62989 -0.21029234 3.4429467
-1.5804551 -0.20955649 3.4470448
-1.51694 -0.2080445 3.44065
-1.48496 -0.207221 3.4359601
-1.421425 -0.21049026 3.4368124
-1.369356 -0.21526361 3.4299819
-1.3157066 -0.22703733 3.4323499
-1.2742001 -0.23303774 3.4263275
-1.2226501 -0.236352 3.4257202
-1.1765699 -0.235595 3.4261334
1.24102 -0.23158866 3.4271135
1.2625051 -0.21151599 3.4182401
2.6625051 -0.22599025 3.4183326
-1.96375 -0.198053 3.4186101
-1.925626 -0.1902872 3.4237103
-1.8833233 -0.18462034 3.4231033
-1.815665 -0.17696351 3.4135101
-1.774565 -0.1675835 3.417855
-1.7113625 -0.1841805 3.41855
-1.6718626 -0.18371099 3.4234624
-1.6253449 -0.17986549 3.4201832
-1.5801599 -0.18223575 3.4254627
-1.5272433 -0.18112566 3.4199467
-1.476705 -0.18020774 3.4179251
-1.43081 -0.187327 3.40187
1.2221251 -0.177892 3.438035
1.2755998 -0.16680729 3.4191945
2.6844132 -0.17726283 3.4231832
-2.55689 -0.114892 3.40346
-1.823205 -0.1241455 3.429595
-1.77544 -0.1061 3.4424601
1.25644 -0.13446601 3.4048901
2.6940999 -0.13783401 3.4242799
2.7103801 -0.118296 3.42628
-2.67012 -0.057814199 3.40293
-2.6433899 -0.057654601 3.4059601
-2.5762866 -0.089394033 3.4048831
-1.81027 -0.088246599 3.42664
-1.7609 -0.087558098 3.41465
2.7211702 -0.078592367 3.4216316
-2.716855 -0.018824399 3.406445
-2.6789401 -0.028569825 3.4144177
-2.6341751 -0.02841555 3.4129801
2.7363968 -0.032392967 3.4349668
-2.761615 0.03055105 3.4061599
-2.7234218 0.020597026 3.4146416
-2.6705368 0.020477848 3.4224083
2.7441566 0.020849394 3.4319
2.7549 0.020778308 3.4068534
-2.76085 0.060226001 3.4049201
-2.7181702 0.059938498 3.4077201
-2.6784999 0.0597119 3.41359
1.3959 0.069444701 3.4210999
2.7497201 0.0608778 3.4384899
2.7605636 0.074156433 3.4260933
1.3807067 0.12107233 3.4304533
2.7372301 0.13392533 3.4339333
2.7613926 0.1157185 3.42291
1.3661814 0.17486072 3.4270244
2.49611 0.1952 3.4491701
2.5307951 0.1956175 3.43853
2.58535 0.1967915 3.43454
2.6302252 0.188071 3.4362402
2.6735036 0.18525384 3.4216583
2.724494 0.1757514 3.4189019
2.7595 0.160285 3.4094701
1.324515 0.22848326 3.4429126
1.3687185 0.224733 3.4379828
1.40316 0.242329 3.43259
2.4436901 0.230958 3.4129901
2.4837251 0.22318551 3.4305699
2.5244274 0.22425474 3.4283676
2.5687349 0.22471076 3.4109349
2.63095 0.21689549 3.41641
2.66558 0.217307 3.40359
1.22369 0.29044652 3.436435
1.2774675 0.28771049 3.4414849
1.3238534 0.28161368 3.4423034
1.3717912 0.27703938 3.4435086
1.406962 0.27621481 3.4206378
2.4447401 0.25024 3.4133101
2.4760733 0.25720766 3.4050467
2.5210299 0.25208899 3.40288
0.67824465 0.34851232 3.4456532
0.76041853 0.34946901 3.44204
0.85456598 0.342244 3.43697
0.92925662 0.34035364 3.4313633
0.98274779 0.33223024 3.4380574
1.027378 0.3302936 3.4344158
1.071682 0.32812861 3.4374416
1.1214867 0.33054653 3.4330232
1.1766789 0.32327211 3.4330187
1.2243762 0.32087216 3.4163501
1.2807734 0.31390634 3.4272268
1.3288537 0.324633 3.4293039
1.3816659 0.32576939 3.4416537
1.4057274 0.3238835 3.4214575
0.20892599 0.39302799 3.4434052
0.28292403 0.39361298 3.4443099
0.33586323 0.38920125 3.4381323
0.3834323 0.38184044 3.4370902
0.43004236 0.38520515 3.4311419
0.48222861 0.37987238 3.4337084
0.53172743 0.38248858 3.4276316
0.5790807 0.37812558 3.4251165
0.62975013 0.37898132 3.4259834
0.67989111 0.37735185 3.4226227
0.73119926 0.37216568 3.4241283
0.78165901 0.37375185 3.4193912
0.82332736 0.36568314 3.4259713
0.87606233 0.36783326 3.4160836
0.91948849 0.36374268 3.4149418
0.96725923 0.3548075 3.4129725
1.02442 0.36358261 3.4096658
1.0797133 0.35334399 3.4146664
1.1311167 0.35364568 3.4046268
1.1853499 0.354776 3.40186
1.20331 0.35509399 3.4001999
1.3404001 0.36741164 3.4288299
1.3737 0.3779304 3.407584
-0.07715296 0.44239131 3.4464567
-0.028060267 0.441569 3.4404733
0.025021484 0.43745723 3.4405475
0.069796331 0.43269435 3.4349716
0.12060162 0.42605284 3.4303038
0.17312972 0.42503965 3.4247427
0.22399767 0.41518998 3.4211333
0.27663463 0.41692361 3.4154687
0.32975051 0.41526303 3.4149301
0.37438399 0.41110724 3.410835
0.42736802 0.40719965 3.4075267
0.47654998 0.407536 3.4052632
0.52605098 0.408052 3.4039366
0.64233702 0.409446 3.4002099
-1.56745 0.48273265 3.4041932
-1.5250229 0.47554344 3.4153287
-1.486505 0.47804302 3.41833
-0.41468501 0.49420649 3.4434049
-0.37314233 0.49361202 3.4427001
-0.32305098 0.49237433 3.4377034
-0.27339399 0.48325768 3.4352853
-0.22391999 0.48241732 3.4318182
-0.17236386 0.47814274 3.4287784
-0.12548524 0.47231346 3.422291
-0.076743752 0.46438155 3.4253263
-0.031100819 0.46144336 3.4161859
0.020809308 0.46279815 3.4139516
0.069412626 0.45867327 3.4131925
0.117666 0.453105 3.40101
0.166238 0.45337799 3.4013901
-1.62037 0.53327399 3.4095716
-1.5705862 0.52493638 3.4268339
-1.5221175 0.51311171 3.4388876
-1.47323 0.50545198 3.4307401
-1.40078 0.53913099 3.4421899
-1.37547 0.536026 3.42783
-1.3336 0.51058996 3.447345
-0.71015602 0.54958701 3.44047
-0.67438668 0.54752165 3.4325364
-0.62446034 0.53900683 3.4391949
-0.57271874 0.53350341 3.4335716
-0.51993215 0.52959317 3.431885
-0.47385988 0.52456063 3.4313126
-0.42117375 0.52286106 3.425035
-0.37299201 0.51830709 3.4166358
-0.32087168 0.51347333 3.4118984
-0.26828241 0.51087558 3.4088559
-0.22255333 0.50379634 3.4079599
-1.7152379 0.58065063 3.4210839
-1.6655824 0.575836 3.4192877
-1.6305625 0.57593656 3.43347
-1.570865 0.56466448 3.439595
-1.28432 0.56838298 3.4363899
-0.98424298 0.55420399 3.41908
-0.92908502 0.57313651 3.4424348
-0.86959916 0.57721382 3.4368801
-0.82523376 0.5854969 3.4200811
-0.78177345 0.57522887 3.4300587
-0.72679281 0.57286674 3.4246738
-0.67214012 0.57046729 3.4180498
-0.62557328 0.56528878 3.418685
-0.56919599 0.55835599 3.4090068
-0.51817703 0.55639696 3.4028749
-0.48520699 0.556068 3.40447
-1.7641425 0.64027274 3.416255
-1.7267572 0.62114757 3.4302056
-1.6779749 0.60683149 3.4410501
-1.64684 0.60520399 3.44208
-1.27038 0.60433197 3.44558
-1.23956 0.64895999 3.40576
-1.8045501 0.68229002 3.4038799
-1.7709484 0.67417103 3.4245985
-1.739195 0.67574704 3.4473851
-1.3709301 0.69792098 3.4432068
-1.3223776 0.68658698 3.4448426
-1.279305 0.68213099 3.4325199
-1.82059 0.72099429 3.4073498
-1.7777998 0.72184509 3.43045
-1.7293401 0.72037667 3.4419384
-1.680302 0.72780979 3.440598
-1.6286716 0.73672348 3.4349864
-1.576004 0.73519021 3.4393742
-1.5229981 0.73367161 3.4303062
-1.4761181 0.72433418 3.4353058
-1.42655 0.72287029 3.4309077
-1.370278 0.7252298 3.4169381
-1.3237284 0.71734399 3.4177382
-1.28615 0.70703399 3.4212999
-1.8255699 0.76810151 3.4087675
-1.773255 0.76494581 3.4138215
-1.7262758 0.77381247 3.4168372
-1.6779584 0.76726818 3.4153652
-1.6184019 0.76894438 3.4083519
-1.57354 0.75983751 3.4156499
-1.527895 0.75470501 3.4052401
-1.478085 0.755983 3.4057925
1.68177 -2.6635301 3.47207
1.6923466 -2.6300433 3.4768569
1.6958849 -2.5792451 3.49511
1.7106199 -2.5696549 3.4735799
1.71628 -2.53123 3.4786849
0.433236 -2.0550399 3.4539199
0.47666299 -2.067045 3.4592426
0.5271219 -2.0666049 3.4676223
0.33774501 -2.0017099 3.45259
0.38291267 -2.0105217 3.4707136
0.42257363 -2.0242219 3.475574
0.47338614 -2.0407751 3.4863398
0.53059864 -2.0364702 3.4925668
0.57286 -2.0234299 3.4723601
0.60220098 -2.0071599 3.47282
0.275208 -1.9624467 3.4564302
0.32203925 -1.9698726 3.4746826
0.35764399 -1.982935 3.4794002
0.58505201 -1.99369 3.4932599
0.61444557 -1.969342 3.470366
0.18816601 -1.90409 3.4525499
0.23302619 -1.9145839 3.4692402
0.27250803 -1.931875 3.4773774
0.30105299 -1.9388 3.4878898
0.63108271 -1.9391001 3.4861166
0.65771735 -1.9083034 3.4674633
0.13294099 -1.85788 3.4524701
0.17008941 -1.8742771 3.4695942
0.21694101 -1.8908951 3.4891274
0.66140401 -1.87955 3.484235
0.089481786 -1.8168061 3.4682441
0.1242035 -1.8269833 3.4782431
0.15164301 -1.8394051 3.47982
0.67568928 -1.8407199 3.4723101
0.70707703 -1.8137268 3.4651334
-0.0114972 -1.760895 3.458555
0.02695285 -1.7710886 3.4691756
0.065096647 -1.7850275 3.4837325
0.71412367 -1.7858566 3.4819934
-0.070820265 -1.7134 3.4562399
-0.029457031 -1.7227186 3.4774268
0.019891478 -1.7411125 3.4941823
0.72576696 -1.72156 3.4675434
-0.11824922 -1.6707835 3.46943
-0.075836018 -1.6799339 3.4804177
-0.047415599 -1.69938 3.48578
0.74758798 -1.688985 3.463305
0.76057035 -1.6700834 3.4739799
-0.21461949 -1.6059899 3.46157
-0.16888875 -1.6276962 3.471035
-0.13654301 -1.64035 3.49347
0.77372801 -1.63301 3.47558
-0.26861119 -1.5661399 3.4616237
-0.22616 -1.576105 3.4803064
-0.180317 -1.596995 3.4884701
0.78571934 -1.58779 3.4742231
0.80127901 -1.57082 3.4963701
-0.363042 -1.51035 3.4669499
-0.32525972 -1.5223315 3.4641204
-0.28138259 -1.5344343 3.4814372
0.82207727 -1.5142025 3.4809852
-0.420169 -1.45833 3.4655933
-0.38026911 -1.4737256 3.4740655
-0.33234999 -1.4897859 3.4872158
-0.50028998 -1.4129 3.4595201
-0.46936664 -1.4161226 3.4770589
-0.43616956 -1.43768 3.4784741
-0.39071649 -1.4445601 3.4993749
0.83970499 -1.43569 3.4592099
-0.60286301 -1.35568 3.4509001
-0.56482899 -1.3626626 3.4612999
-0.51891524 -1.3810067 3.4763033
-0.485443 -1.38526 3.49089
0.850743 -1.35423 3.45186
1.3164101 -1.35432 3.4705801
-0.65425199 -1.30188 3.4551401
-0.61951625 -1.3217238 3.4680128
-0.57692266 -1.3335983 3.4816368
-0.53802401 -1.34998 3.4953499
0.88236248 -1.3181851 3.4809451
-0.71381396 -1.264554 3.4597499
-0.67649198 -1.2743337 3.4755497
-0.63431865 -1.2851466 3.4827268
1.1856949 -1.25895 3.4630351
1.22303 -1.2725834 3.4637651
1.2730887 -1.2792726 3.4765763
1.3727865 -1.27421 3.4830465
-0.7750777 -1.2150114 3.4678202
-0.73424143 -1.2300073 3.4797997
-0.69483298 -1.24273 3.49913
1.08441 -1.2012399 3.4621899
1.1275443 -1.2194487 3.4645941
1.177242 -1.230976 3.4816201
1.2126451 -1.232475 3.49458
1.25273 -1.2454799 3.49279
1.3729675 -1.2208049 3.4710298
-0.87097454 -1.16241 3.4556551
-0.82897651 -1.170216 3.4762759
-0.79085732 -1.17954 3.4845765
0.930399 -1.15056 3.45913
0.97545451 -1.15221 3.454325
1.029388 -1.16677 3.4638298
1.0741934 -1.1764482 3.4776115
1.1162634 -1.18647 3.4884634
1.1604 -1.1980901 3.493135
1.38033 -1.1767349 3.4852266
-0.951455 -1.11308 3.4617901
-0.92380798 -1.1225263 3.4678888
-0.88334143 -1.1373371 3.4761641
0.93732429 -1.1231275 3.4757576
0.97074586 -1.1219513 3.4799771
1.01767 -1.1403199 3.4878933
1.05042 -1.14983 3.4902999
1.39939 -1.1388 3.4829199
1.4057798 -1.1222333 3.4681933
-1.05554 -1.06057 3.4502001
-1.018916 -1.069244 3.4629822
-0.96914214 -1.0787876 3.4764874
-0.93858802 -1.09219 3.4887052
0.95490801 -1.08891 3.4993
1.39228 -1.09706 3.47474
-1.1195099 -1.01117 3.457175
-1.0757825 -1.0283575 3.471494
-1.0295087 -1.0369815 3.4859214
-0.99237502 -1.04988 3.4927001
-1.20135 -0.96151501 3.45807
-1.169596 -0.96761656 3.4761472
-1.1263357 -0.98610455 3.4808373
-1.090085 -0.998676 3.4871399
-1.268232 -0.92237854 3.4602304
-1.2270899 -0.92665851 3.4782298
-1.19384 -0.93429297 3.49946
1.2647099 -0.9299075 3.49101
-1.3231928 -0.87273705 3.4706099
-1.2813957 -0.88598222 3.4832656
1.23861 -0.86208397 3.48557
1.25047 -0.89316499 3.45732
-1.4216479 -0.81909704 3.4614196
-1.3749613 -0.83220863 3.4753361
-1.3272325 -0.84519506 3.4966426
1.0191751 -0.81354654 3.4878402
1.12703 -0.81634301 3.4740748
1.17571 -0.82875597 3.4762249
1.2108268 -0.83570904 3.4845734
-1.5168425 -0.7673825 3.4600701
-1.471495 -0.77910924 3.4768648
-1.432415 -0.79393971 3.4832399
-1.39548 -0.79754603 3.4901199
1.01688 -0.78775299 3.45187
1.06365 -0.78134871 3.4662333
2.38415 -0.77802497 3.4568701
-1.5705729 -0.72265351 3.4651554
-1.5282634 -0.73967743 3.479845
-1.483585 -0.7485345 3.4932151
1.0611767 -0.71065301 3.4701233
2.3947699 -0.74238503 3.4795101
2.4063449 -0.7301535 3.458245
-1.6754349 -0.667458 3.4601851
-1.6245811 -0.68021381 3.473361
-1.5748839 -0.69117296 3.4908662
1.07868 -0.67426097 3.4930799
2.4215097 -0.67734975 3.4763601
-1.76249 -0.61295497 3.46012
-1.7211574 -0.62760663 3.4670897
-1.6721281 -0.64034879 3.4820461
1.0834301 -0.64941698 3.45134
1.11057 -0.60354102 3.4858301
2.4316299 -0.63918 3.4838467
2.4678359 -0.62271154 3.4691741
-1.8138139 -0.57579362 3.463084
-1.7776471 -0.58008373 3.4825699
-1.740075 -0.59647751 3.4827549
1.10918 -0.57111669 3.4659531
2.4954834 -0.58307463 3.4772768
2.5128999 -0.56106353 3.4783149
-1.9078701 -0.50977701 3.4554
-1.872795 -0.51925552 3.4727535
-1.8304421 -0.53865635 3.4830837
-1.7998101 -0.54659301 3.4999001
1.1301466 -0.53281403 3.4781835
2.51967 -0.52100325 3.4731948
-1.964215 -0.45759702 3.460175
-1.9262762 -0.47557339 3.472295
-1.888485 -0.49360651 3.4841299
-1.775805 -0.45155501 3.4847951
1.14343 -0.49922001 3.4848001
1.156745 -0.47174999 3.4712849
2.5402467 -0.47374797 3.4877264
2.5512252 -0.462275 3.4645751
-2.0185637 -0.41240877 3.4665
-1.9774599 -0.42702517 3.4827919
-1.94593 -0.44133201 3.4909599
-1.7786551 -0.42637801 3.4607377
-1.73982 -0.42229903 3.4806199
-1.25553 -0.41380799 3.4788001
-1.2223899 -0.41136849 3.465395
1.14493 -0.44808999 3.4949701
1.16242 -0.43176121 3.4700198
2.5635867 -0.42053166 3.4728935
-2.0585825 -0.36424625 3.4608176
-2.0275855 -0.37439245 3.4774628
-1.9793034 -0.3743023 3.4882233
-1.81253 -0.399387 3.49755
-1.705915 -0.36484301 3.4602752
-1.25895 -0.37162051 3.4920549
-1.2165414 -0.37957487 3.4707015
-1.19771 -0.360154 3.4797699
1.1700524 -0.38172325 3.47791
2.5815558 -0.37511879 3.4754677
-2.0520401 -0.32380801 3.48314
-2.0211201 -0.34179401 3.48929
-1.9756266 -0.34288764 3.4842899
-1.8309761 -0.32840139 3.4710178
-1.7780066 -0.33454064 3.4638665
-1.746085 -0.3121475 3.4593401
-1.6886342 -0.31323403 3.4723079
-1.25925 -0.311066 3.4974599
-1.2190458 -0.32933614 3.4894958
-1.1561 -0.30665699 3.4707301
-1.1205101 -0.31404158 3.4856961
-1.07065 -0.31588119 3.4785981
-1.0274934 -0.30961201 3.46824
-0.98732007 -0.3244184 3.4775841
1.183686 -0.3289724 3.4753342
2.59181 -0.33688599 3.4927499
2.603375 -0.325903 3.46984
-2.0561352 -0.28728151 3.4927249
-2.0191851 -0.25822499 3.49172
-1.98792 -0.257765 3.4983201
-1.9276249 -0.255871 3.4932251
-1.881325 -0.25455949 3.4912848
-1.81868 -0.25093499 3.4568901
-1.7112125 -0.27506125 3.4560399
-1.6692749 -0.2754755 3.4783983
-1.6255801 -0.26668251 3.4972701
-1.59512 -0.266056 3.49876
-1.5210299 -0.26398399 3.49317
-1.46697 -0.262198 3.4842701
-1.4281067 -0.26148632 3.4861233
-1.37547 -0.27125418 3.4913819
-1.3277149 -0.26764047 3.4784374
-1.276392 -0.2783716 3.4734223
-1.2267101 -0.28066298 3.4716678
-1.177394 -0.28293937 3.4692903
-1.1196367 -0.28897101 3.4731634
-1.06812 -0.286567 3.45451
1.20524 -0.29058999 3.46415
2.6262667 -0.27705285 3.4713001
-1.9756101 -0.23781067 3.47767
-1.91976 -0.2263785 3.4600949
-1.8773717 -0.22563533 3.464695
-1.8223033 -0.22704066 3.4581802
-1.70072 -0.248127 3.45788
-1.67593 -0.24205001 3.46505
-1.623755 -0.23837598 3.4726036
-1.571118 -0.23212659 3.4748139
-1.5282741 -0.23849201 3.478688
-1.4764682 -0.22927769 3.4691982
-1.4309934 -0.23673101 3.46258
-1.3788 -0.24148333 3.4620667
-1.33776 -0.24032199 3.45597
1.2205651 -0.213147 3.4585252
1.25537 -0.20467401 3.4507599
2.6434002 -0.237708 3.4704051
2.6510501 -0.21763501 3.4620299
-1.8664733 -0.19191432 3.4599333
1.24567 -0.18867899 3.4772401
1.25692 -0.187782 3.45578
2.669318 -0.17459719 3.4723542
-1.81203 -0.143225 3.4700799
-1.79652 -0.12538999 3.4828401
2.6837265 -0.13250433 3.4822533
2.7033801 -0.118864 3.4560299
2.6966 -0.099395096 3.48683
2.7066479 -0.075257316 3.4768322
1.3266799 -0.0165808 3.4926801
2.71419 -0.024161125 3.4715323
1.3429475 0.013879285 3.4970398
1.38176 0.035639901 3.4835899
2.7315466 0.020985352 3.4741652
1.33717 0.087831706 3.49383
1.380422 0.073862478 3.4798062
2.7254844 0.073201716 3.4775581
1.337834 0.122527 3.489634
1.3678401 0.1309265 3.471375
2.5417399 0.138319 3.4753101
2.5822899 0.129539 3.4915848
2.6220901 0.133168 3.4794567
2.6777165 0.12077466 3.4812851
2.7209539 0.1170014 3.4629378
1.330565 0.17398632 3.4740086
1.35186 0.164754 3.4542351
2.5341549 0.167256 3.46384
2.5776 0.16816726 3.4642375
2.6286666 0.165824 3.4609699
2.6782801 0.16022 3.46121
1.185915 0.242066 3.4931099
1.2075 0.241209 3.4737201
1.293784 0.228753 3.4711182
1.3313466 0.21405299 3.4658365
1.37246 0.24301299 3.45347
0.76278198 0.28707501 3.49717
0.93088198 0.2895585 3.49683
0.97624969 0.284886 3.4820349
1.0254 0.28983435 3.4795101
1.0759099 0.28378198 3.4779658
1.122484 0.28177741 3.4854
1.1721622 0.27530277 3.4781823
1.2159667 0.27200818 3.4600687
1.2757801 0.27091935 3.4683068
1.3258467 0.271745 3.4651034
1.35297 0.27716899 3.4513199
0.220137 0.34883499 3.49547
0.2784315 0.34916949 3.4955101
0.31960732 0.34883198 3.4893067
0.36958948 0.34076282 3.488445
0.42157263 0.33464414 3.4854012
0.46927065 0.3346135 3.4804826
0.51960701 0.33761874 3.4782341
0.57179147 0.33761188 3.4717085
0.62214082 0.33536074 3.4697101
0.67202872 0.32955959 3.4739799
0.72645789 0.32902703 3.4685447
0.77731824 0.31974208 3.48154
0.82763803 0.31972229 3.4721012
0.8795377 0.32028574 3.4682999
0.92252052 0.31619844 3.4682527
0.97083998 0.31142461 3.4641361
1.0222934 0.30590102 3.4677668
1.0751233 0.30646566 3.4620132
1.1275567 0.30684698 3.4534566
-0.078214996 0.39859769 3.4972432
-0.028451866 0.39789966 3.4915435
0.021189574 0.3910358 3.4899077
0.070491947 0.38777232 3.4750233
0.11976867 0.38731167 3.469785
0.17142887 0.38164026 3.4732661
0.22142471 0.37538883 3.476186
0.2655713 0.3744857 3.4652531
0.31763685 0.37137815 3.4658833
0.36666834 0.36277366 3.4590466
0.4337523 0.36382499 3.4630802
0.46589801 0.36312401 3.4530599
0.52416551 0.36353451 3.45048
-0.361191 0.44989401 3.4923
-0.32731667 0.44902065 3.4878833
-0.27700901 0.43990636 3.4853933
-0.22706075 0.43321088 3.4849315
-0.1769731 0.43006334 3.4784944
-0.12708743 0.42887068 3.4704325
-0.077700146 0.42069364 3.4724181
-0.028264984 0.42025033 3.469125
0.017767727 0.41789418 3.4632001
0.070173867 0.410537 3.4564266
0.102883 0.410189 3.4528
-1.0836899 0.480939 3.4887099
-0.57660723 0.48185927 3.4889851
-0.52867937 0.486316 3.4810188
-0.4774411 0.48295799 3.4775648
-0.42426756 0.47484285 3.47596
-0.37863764 0.46699864 3.4773161
-0.32521766 0.470891 3.4631901
-0.27523169 0.461799 3.4607036
-0.22532134 0.46074668 3.4553802
-0.184046 0.460206 3.4530549
-1.5225159 0.53969538 3.4575641
-1.4773574 0.53622854 3.4605303
-1.439175 0.54381001 3.4635901
-1.36676 0.54285347 3.479625
-1.345305 0.53257203 3.4756799
-1.05797 0.51530802 3.4910901
-1.01205 0.54794753 3.4861951
-0.97820652 0.54812449 3.4947751
-0.92982632 0.54479831 3.4824097
-0.88161278 0.53962153 3.4862549
-0.82171446 0.53226316 3.4766848
-0.7699095 0.52301043 3.4810712
-0.72519314 0.52110487 3.4752638
-0.67967737 0.52208036 3.4742212
-0.6303063 0.51058346 3.4751251
-0.5776034 0.50667441 3.466444
-0.54225099 0.51470703 3.45614
-1.6087133 0.56871468 3.4545002
-1.56652 0.581159 3.4620373
-1.521106 0.57839715 3.4776421
-1.478 0.57460296 3.4909801
-1.4362701 0.57182735 3.4937632
-1.2955101 0.59068799 3.4640601
-0.96676451 0.55862153 3.4518349
-0.92037976 0.56286603 3.4611676
-0.87187737 0.55733895 3.4626801
-0.82614148 0.55493051 3.45555
-0.77323747 0.55309999 3.45295
-0.74777198 0.55282199 3.45539
-1.71852 0.64771497 3.45327
-1.6775001 0.63678282 3.4579952
-1.6218272 0.62764931 3.462146
-1.5767637 0.6220206 3.4738462
-1.5254955 0.62415504 3.4911699
-1.4783319 0.62582159 3.4945779
-1.4263366 0.63739133 3.4931467
-1.37345 0.64211351 3.4836149
-1.325048 0.63303655 3.4755299
-1.2884799 0.63487422 3.4649475
-1.71289 0.67599702 3.459435
-1.6733525 0.67453903 3.4660075
-1.6253771 0.67751074 3.4624386
-1.5777137 0.68028796 3.4672961
-1.5261415 0.67307597 3.4718654
-1.4771888 0.67501009 3.4711475
-1.4242401 0.66687256 3.4693341
-1.37753 0.67121315 3.4644215
-1.32576 0.66223097 3.4576402
-1.2898999 0.66597503 3.4554901
-1.70117 0.70188302 3.45316
-1.6679233 0.70645434 3.4568832
-1.6165 0.71417099 3.4502299
-1.5758834 0.71189803 3.4522734
-1.5242851 0.70854247 3.451755
-1.473965 0.7055915 3.45245
1.62014 -2.7235 3.54231
1.63627 -2.6933601 3.5361199
1.6592432 -2.6702034 3.5221665
1.6797934 -2.6225567 3.51653
1.6783 -2.5742099 3.5174401
1.69235 -2.5425401 3.5070601
0.43586099 -2.0122299 3.50282
0.47521138 -2.01157 3.5182047
0.52844781 -2.0165958 3.5164878
0.55965799 -2.002985 3.5134301
0.38384357 -1.9680957 3.5129373
0.42661834 -1.9756817 3.5224268
0.47670969 -1.9900566 3.5429299
0.52470851 -1.9939799 3.5442948
0.57505 -1.9843975 3.53092
0.60328501 -1.95533 3.5059199
0.27373099 -1.913445 3.50631
0.32367364 -1.9206125 3.5211225
0.37451074 -1.9391 3.5350051
0.62321424 -1.9317 3.5236502
0.189401 -1.86296 3.5015299
0.23300149 -1.8674301 3.5147049
0.27441466 -1.8818717 3.5323002
0.302394 -1.88369 3.5337601
0.64038932 -1.8807501 3.5335066
0.6550675 -1.8602149 3.513545
0.17331612 -1.8236312 3.5178113
0.222572 -1.8409724 3.5327125
0.68267977 -1.8229825 3.5245125
0.085021548 -1.7697183 3.5104816
0.12486275 -1.7747636 3.5267251
0.1668915 -1.790355 3.5451226
0.69115698 -1.79324 3.53076
0.70652801 -1.76694 3.5198433
-0.011684 -1.70829 3.50418
0.029630734 -1.7178314 3.5234988
0.071747199 -1.731272 3.5326359
0.72556639 -1.7317834 3.5348835
-0.071650565 -1.65834 3.5181
-0.029754566 -1.6748333 3.5233831
0.0062897103 -1.689815 3.5324149
0.73894125 -1.6743525 3.5259602
0.75489801 -1.66008 3.5153601
-0.154365 -1.6039 3.5044899
-0.11686025 -1.6254038 3.5125163
-0.077864401 -1.6321067 3.5372431
-0.047842301 -1.63808 3.53527
0.76381737 -1.6232767 3.5268784
-0.20725399 -1.5633399 3.50436
-0.17468148 -1.5725436 3.5205224
-0.13141666 -1.5895467 3.5347469
0.78435832 -1.5793333 3.5355265
0.80231601 -1.5548199 3.50755
-0.27319899 -1.51028 3.5082924
-0.22553849 -1.527432 3.5246499
-0.190955 -1.5391999 3.5438199
0.78987348 -1.53881 3.5461249
0.809623 -1.5211633 3.5249999
-0.3306025 -1.4663283 3.5162983
-0.281133 -1.4790674 3.5360537
-0.2437 -1.49712 3.53879
-0.41364124 -1.4144043 3.5216286
-0.37507716 -1.42544 3.5275917
-0.340693 -1.438875 3.53863
-0.51297951 -1.3533299 3.50705
-0.46812564 -1.3725525 3.5171237
-0.43278125 -1.3814875 3.5373278
0.84975398 -1.38125 3.5243199
-0.56420654 -1.315078 3.5138481
-0.52610815 -1.32564 3.5297775
-0.48109353 -1.34482 3.54006
-0.66024798 -1.26109 3.50176
-0.62044609 -1.2691487 3.5165887
-0.58193535 -1.2833318 3.5297248
-0.542494 -1.29022 3.54474
1.2873499 -1.2527549 3.50506
-0.71951264 -1.2157401 3.5099232
-0.67756665 -1.2273862 3.5200763
-0.64074135 -1.2392668 3.5343568
1.19542 -1.20632 3.5097001
1.2323775 -1.2251649 3.5122275
1.2700825 -1.226405 3.5209301
1.30457 -1.2240701 3.5348399
-0.77099341 -1.1686825 3.515635
-0.73019618 -1.183695 3.5270901
-0.69016999 -1.197185 3.535475
0.911663 -1.18909 3.52443
1.09298 -1.15736 3.5043001
1.1277966 -1.1685567 3.5108469
1.1726743 -1.1733015 3.5265229
1.2226866 -1.1822234 3.54039
1.3802049 -1.162185 3.5359249
-0.90609598 -1.10394 3.5032201
-0.86546946 -1.1159667 3.5093682
-0.82157242 -1.1257156 3.528831
-0.77464002 -1.141075 3.54058
0.99434501 -1.11121 3.5019
1.0304149 -1.11674 3.5121398
1.0755762 -1.1267362 3.5267386
1.1235559 -1.1345619 3.5360799
1.16268 -1.1375999 3.5492401
1.3927975 -1.1338 3.5358851
-0.96896946 -1.0529699 3.5086899
-0.92461264 -1.070305 3.5211785
-0.87987232 -1.0783117 3.5278919
-0.83323503 -1.09424 3.5479698
0.93915898 -1.0734366 3.5143735
0.97697395 -1.0762571 3.5157585
1.019224 -1.0800279 3.5324657
1.06191 -1.09091 3.5469601
1.3899332 -1.0779166 3.5469368
-1.0585949 -1.0020249 3.5072699
-1.019174 -1.0100639 3.5185001
-0.97989476 -1.0245413 3.5305061
-0.94258267 -1.0358634 3.5425301
0.93994498 -1.03914 3.5258601
0.97247005 -1.04565 3.542125
1.01043 -1.048195 3.5427399
1.2896301 -1.0114501 3.54564
-1.118688 -0.95803225 3.5097542
-1.0718011 -0.97079343 3.527421
-1.0248849 -0.98562223 3.5413251
1.28137 -0.96907699 3.53109
-1.2192668 -0.90629798 3.5047131
-1.176905 -0.91666365 3.5173836
-1.1310685 -0.92593116 3.5358398
-1.2654518 -0.86254764 3.5164766
-1.2253983 -0.87529373 3.5293434
-1.17658 -0.8882485 3.5447199
1.035785 -0.86203051 3.538095
1.0767399 -0.85951233 3.5172033
1.13256 -0.85976052 3.545145
1.2295532 -0.87829566 3.5325
1.2599 -0.89480901 3.5418799
-1.3638401 -0.808658 3.5092549
-1.3264475 -0.81553441 3.5203137
-1.2847501 -0.82593799 3.5415018
1.0323501 -0.84163547 3.5297651
1.0739883 -0.83107489 3.5132854
1.11508 -0.83562952 3.523685
1.18501 -0.843988 3.50176
-1.4174144 -0.76704699 3.5153415
-1.3760414 -0.77689326 3.5247345
-1.33372 -0.78515202 3.5390301
1.02572 -0.79065901 3.5488999
-1.5191324 -0.71250951 3.5111549
-1.4704201 -0.72039181 3.5253041
-1.4327761 -0.73475963 3.53513
1.0555949 -0.72543502 3.5333099
-1.5738101 -0.66303301 3.5180352
-1.5270814 -0.68347704 3.5276101
-1.48832 -0.68340498 3.5401101
1.0741575 -0.67523777 3.5247149
2.42629 -0.69272298 3.5355999
-1.67339 -0.61948824 3.5082049
-1.6235812 -0.63301319 3.524642
-1.58913 -0.63373101 3.5415201
1.088225 -0.62784147 3.5316849
1.10216 -0.61714303 3.5173049
2.4381051 -0.62137401 3.52337
-1.7595201 -0.56360501 3.5046899
-1.71995 -0.57919455 3.5159001
-1.6753017 -0.58504289 3.5361316
-1.64984 -0.59979397 3.54059
-1.2269 -0.56264901 3.54497
1.08912 -0.59342998 3.5394299
1.10376 -0.57442468 3.5282733
2.44891 -0.59432298 3.5432601
2.4754884 -0.57368785 3.5238018
2.5011201 -0.55298901 3.5028501
-1.8188975 -0.51618397 3.5085201
-1.775543 -0.53038543 3.5286272
-1.7311001 -0.54790169 3.5375299
-1.2264 -0.54481602 3.54567
1.1286819 -0.51896363 3.5306118
2.5056999 -0.528992 3.5260231
-1.91239 -0.46053299 3.51127
-1.8732867 -0.47146532 3.5144949
-1.8278528 -0.48140314 3.5191715
-1.7884866 -0.477052 3.5438998
1.141948 -0.4718352 3.5183041
2.5240276 -0.48034126 3.514245
-1.9605166 -0.41239133 3.50632
-1.9200363 -0.42246774 3.5240076
-1.874864 -0.43537301 3.5369561
1.1437067 -0.41727901 3.5331967
1.15137 -0.41588899 3.5180099
2.542275 -0.42636049 3.5157449
2.55091 -0.43604299 3.5067599
-1.9625975 -0.3745465 3.5169625
-1.9343134 -0.37069348 3.5392065
-1.87841 -0.368808 3.54123
-1.82489 -0.37034634 3.5098066
-1.72507 -0.37987 3.5202849
-1.3152699 -0.35144401 3.54283
-1.29337 -0.36783001 3.5346701
-1.1773534 -0.37320665 3.53002
-1.1159875 -0.36722925 3.5289273
-1.0697351 -0.3705425 3.5290275
-1.023216 -0.36728019 3.5240045
-0.98947299 -0.35935599 3.5213399
1.1607801 -0.37853041 3.5271461
2.5715179 -0.3743394 3.525394
-2.0281034 -0.321816 3.5098565
-1.9692481 -0.32112819 3.5103021
-1.9285051 -0.323275 3.5322275
-1.8863999 -0.33002731 3.5167634
-1.6727024 -0.31514275 3.5275099
-1.6236451 -0.3053315 3.535995
-1.5709966 -0.30384335 3.5346966
-1.5213749 -0.3028695 3.5387301
-1.4718933 -0.30778432 3.5412734
-1.419735 -0.3179445 3.5355148
-1.3827751 -0.31757951 3.5423751
-1.324198 -0.32201481 3.5270619
-1.278752 -0.3342472 3.5180779
-1.2237151 -0.31949753 3.503525
-1.1725171 -0.33260301 3.5103929
-1.123575 -0.343916 3.510565
-1.0765266 -0.34264433 3.50789
-1.0321766 -0.33551431 3.5028565
1.1769966 -0.32975498 3.5265701
2.5929832 -0.32545134 3.5217631
-2.0281901 -0.28726852 3.5055923
-1.9744885 -0.28223372 3.5140431
-1.9199824 -0.28496802 3.5191326
-1.8732233 -0.27996767 3.5095198
-1.6206566 -0.28521702 3.5080202
-1.5702575 -0.27528399 3.5116525
-1.53649 -0.28449899 3.527555
-1.4813499 -0.27721947 3.5056126
-1.4260521 -0.29192358 3.5183201
-1.37252 -0.297665 3.5172949
-1.3212234 -0.29598901 3.5104599
1.2130625 -0.27720925 3.5151749
2.6193576 -0.27468249 3.524745
1.2288634 -0.22820216 3.5176966
1.2590899 -0.208122 3.5139101
2.6335852 -0.22490726 3.52701
2.6517799 -0.21934301 3.50211
2.6425099 -0.18004 3.53126
2.6573749 -0.17496775 3.5215249
2.676985 -0.129997 3.5194049
2.69309 -0.059652399 3.5223801
1.29943 -0.0166771 3.52356
1.31464 -0.0284489 3.5296068
2.6967149 -0.029414799 3.5274401
2.7117901 -0.039451499 3.5074799
1.3149213 0.020491909 3.5195398
1.37075 0.035808299 3.5055301
2.68574 0.031185601 3.53283
2.7091825 0.016024532 3.5141077
1.2882667 0.071086064 3.5455635
1.31446 0.068539679 3.5178089
1.35987 0.053226352 3.502615
2.6393499 0.081199497 3.5301499
2.6772149 0.071345598 3.5211201
2.7147601 0.0614549 3.51108
1.3093901 0.11139166 3.5141933
2.5920999 0.100232 3.5056801
2.6194949 0.1104775 3.5028849
2.6559899 0.101143 3.51229
1.16036 0.1918495 3.5320401
1.2359433 0.18740867 3.5399599
1.3162019 0.17999281 3.5337157
0.93374902 0.24154399 3.54478
0.96896297 0.24173801 3.54035
1.02428 0.2348896 3.529222
1.0773916 0.23421818 3.5339401
1.129805 0.22825162 3.5303276
1.1727387 0.22089143 3.5150828
1.2379034 0.22170766 3.5256531
1.270002 0.23132062 3.52175
1.30082 0.210843 3.5223601
0.341405 0.28694099 3.5470901
0.37454733 0.28653634 3.5394032
0.40962201 0.28754801 3.54899
0.48138753 0.28335175 3.54251
0.53148401 0.28306001 3.5333049
0.57486618 0.28071898 3.5306542
0.63029915 0.27966252 3.5314319
0.67856902 0.28174201 3.5294659
0.72542286 0.28048849 3.5279853
0.77233714 0.26975265 3.5287666
0.82097632 0.27273643 3.5220423
0.87463045 0.2735638 3.5229456
0.92436284 0.26897269 3.51717
0.9711017 0.2657665 3.5136552
1.0240083 0.2661815 3.50756
1.06986 0.25834867 3.50776
1.1245533 0.25907168 3.5048132
1.2757 0.26358899 3.53039
0.0214948 0.33655199 3.5476899
0.071743302 0.33601299 3.5413465
0.11855967 0.33681965 3.5195351
0.17762052 0.33266297 3.5329018
0.22203054 0.32393724 3.527509
0.2704218 0.32157251 3.5236688
0.32247776 0.31848621 3.5231855
0.37243733 0.30996585 3.5177066
0.41973674 0.30674776 3.5249951
0.47388574 0.30652702 3.5170274
0.52459604 0.30929419 3.5141098
0.5717898 0.3094064 3.509644
0.62186921 0.30718026 3.506505
0.67756265 0.303478 3.5045433
0.72142196 0.30423951 3.5067849
-0.264662 0.38808799 3.5479701
-0.22629651 0.38303477 3.5424075
-0.1796817 0.38149759 3.5359998
-0.12887725 0.38267052 3.5233135
-0.076741569 0.37037188 3.5274889
-0.028674208 0.367605 3.5215693
0.021322172 0.36248285 3.5181558
0.071182117 0.35833403 3.5120115
0.125147 0.36214724 3.5069249
0.15995866 0.35567465 3.5108135
0.238019 0.35075799 3.51386
-1.1099 0.43648699 3.5483601
-0.64083099 0.44265601 3.54109
-0.51563901 0.43666422 3.5422826
-0.47011217 0.42856258 3.5294423
-0.42356786 0.42635536 3.5249834
-0.37927347 0.42259479 3.5267963
-0.33023146 0.41946188 3.5219254
-0.27939084 0.41023418 3.5183914
-0.22879073 0.40520948 3.5139174
-0.1787485 0.4011105 3.5167999
-0.128408 0.400078 3.50928
-0.8657912 0.49419701 3.5360675
-0.8233335 0.48759925 3.5269074
-0.77960098 0.47838879 3.5302753
-0.72565031 0.47651523 3.5248303
-0.67204988 0.47466034 3.5184965
-0.62263578 0.47196853 3.5211902
-0.57368374 0.4611015 3.5259449
-0.52957267 0.46209267 3.5277367
-0.48148131 0.45355734 3.5103333
-0.441154 0.45788932 3.5039799
-1.0291483 0.52665883 3.5165482
-0.97419369 0.51955372 3.5248611
-0.92415392 0.51375788 3.5247302
-0.87303853 0.52087677 3.5077925
-0.8297413 0.51192528 3.5135832
-0.79299599 0.51020598 3.50774
-1.4171767 0.57951403 3.5114801
-1.3712634 0.57462215 3.5127716
-1.33088 0.58122998 3.5087664
-1.46882 0.60497898 3.5037799
-1.429985 0.61242563 3.5058219
-1.3714315 0.61378437 3.5080025
-1.33048 0.61621201 3.5030701
1.6081034 -2.7132132 3.5619068
1.6261641 -2.6752782 3.5769877
1.65847 -2.6521201 3.5562999
1.64483 -2.64343 3.59484
1.666975 -2.616765 3.5671601
1.68744 -2.5834498 3.5762601
