ply
format ascii 1.0
comment PCL generated
element vertex 1582
property float x
property float y
property float z
element camera 0
property float view_px
property float view_py
property float view_pz
property float x_axisx
property float x_axisy
property float x_axisz
property float y_axisx
property float y_axisy
property float y_axisz
property float z_axisx
property float z_axisy
property float z_axisz
property float focal
property float scalex
property float scaley
property float centerx
property float centery
property int viewportx
property int viewporty
property float k1
property float k2
end_header
2.7156334 -0.77107066 2.2725418
2.7335865 -0.72332001 2.2710266
2.7424901 -0.68733901 2.2833567
2.7589848 -0.66794127 2.2666402
2.7790415 -0.63038123 2.2777543
2.7935119 -0.586088 2.2818341
2.810955 -0.56228721 2.2657599
2.8291767 -0.51987451 2.2768481
2.8409402 -0.48253897 2.2782166
2.8697932 -0.45648766 2.2635601
2.863462 -0.42764345 2.283174
2.88836 -0.358812 2.2626901
2.89765 -0.310801 2.27672
2.9056401 -0.3363165 2.2797401
2.90611 -0.27883399 2.2872701
2.2359099 1.29441 2.2928748
2.2856851 1.28961 2.2947898
2.34882 1.2872601 2.2944
2.3838375 1.285495 2.2894776
2.4319766 1.2929367 2.2841899
2.4726124 1.2869775 2.2797551
2.528285 1.280905 2.2885849
2.5722799 1.2845583 2.2769265
2.632664 1.279278 2.2802598
2.6910067 1.2812467 2.2849433
2.7163401 1.2852533 2.2717636
2.7614999 1.28174 2.2836699
1.74248 1.34803 2.29916
1.83631 1.34974 2.2879701
1.879884 1.337636 2.29072
1.922712 1.333294 2.2874579
1.9778862 1.3334588 2.2822173
2.0323238 1.3313379 2.28301
2.0743716 1.3295567 2.2826817
2.1242478 1.3290156 2.2758145
2.173492 1.3235859 2.2743099
2.2237184 1.3176614 2.2735372
2.2768967 1.3154566 2.272155
2.3275602 1.3227371 2.2704487
2.36993 1.3147683 2.2700651
2.4290533 1.3095866 2.2620032
2.4794002 1.310185 2.26004
2.5303767 1.31062 2.2564566
2.57939 1.31643 2.25089
2.6344533 1.3085333 2.2564201
2.67396 1.3061 2.2513299
1.39197 1.39937 2.2999401
1.4409699 1.39315 2.2980299
1.4739525 1.391245 2.2951224
1.5290926 1.3899876 2.290895
1.5769 1.387764 2.2881939
1.6317239 1.3847588 2.2842813
1.6752977 1.3829809 2.2773378
1.718179 1.3715451 2.279557
1.7719699 1.3690091 2.2752428
1.8267236 1.3690523 2.2705667
1.8748285 1.3658873 2.2667272
1.9273916 1.360075 2.262645
1.9737368 1.3610268 2.2566199
2.027308 1.3587 2.256788
2.089895 1.352325 2.262085
1.0808734 1.4467233 2.2971165
1.13299 1.4405999 2.2965798
1.1735915 1.4390043 2.2903285
1.225049 1.432899 2.29141
1.2771322 1.4332001 2.2851198
1.3230098 1.432075 2.2782676
1.3729036 1.4285173 2.2766263
1.4231107 1.4228985 2.2757096
1.4735236 1.41914 2.2702072
1.5222037 1.41471 2.2691851
1.5709502 1.41037 2.2655199
1.6187 1.40941 2.2591043
1.6748199 1.4084033 2.2525101
1.7239699 1.40308 2.25723
1.7508301 1.4003299 2.25456
0.72243899 1.4986899 2.2969499
0.78269631 1.4897467 2.2938931
0.82401061 1.4876183 2.2925498
0.87483108 1.4882691 2.2865252
0.92607182 1.4853059 2.2851565
0.97646242 1.4785575 2.283215
1.0241812 1.4777362 2.2762318
1.0737479 1.4732751 2.2746849
1.1226994 1.4735788 2.2687333
1.1740867 1.4683433 2.2670324
1.2264742 1.4616585 2.2637727
1.2707999 1.4646571 2.2586284
1.3111451 1.4602649 2.2548699
1.359445 1.4549301 2.254755
1.40311 1.45129 2.26017
0.41970974 1.5429325 2.2939301
0.47094339 1.5372536 2.2900412
0.52281195 1.5332918 2.2877309
0.57663393 1.534477 2.2827675
0.62730229 1.5322502 2.2773468
0.67600393 1.5281881 2.2745614
0.72456753 1.5231653 2.2743537
0.77298576 1.521925 2.2707081
0.82487863 1.5187041 2.2649982
0.87254328 1.5128657 2.2638757
0.92610341 1.5109056 2.2593157
0.97045875 1.5074749 2.2557375
1.0236299 1.5035501 2.2516398
1.0599999 1.50201 2.2500801
0.030881232 1.5923101 2.2962401
0.075476542 1.592755 2.2958
0.13037299 1.593125 2.2854764
0.17952488 1.586563 2.2866881
0.22937521 1.5809114 2.2822556
0.27935436 1.5782417 2.2772887
0.32899946 1.5737603 2.2741046
0.37889382 1.5702888 2.2714663
0.42467228 1.5691351 2.2666676
0.46976176 1.564839 2.2657642
0.51945907 1.5633122 2.263042
0.57022655 1.56128 2.255873
0.61905032 1.5594267 2.2536199
0.69184649 1.552175 2.25161
-0.3766005 1.6465526 2.2987676
-0.31912616 1.6439449 2.2933118
-0.27102226 1.6412963 2.2901325
-0.22361444 1.6399901 2.2868245
-0.17945065 1.6379837 2.2819974
-0.12729773 1.630564 2.2821205
-0.077357978 1.6262851 2.280277
-0.025175219 1.6253229 2.2759075
0.02456915 1.6214014 2.2739048
0.075317122 1.6188163 2.2691176
0.1233631 1.612808 2.266304
0.17402449 1.6122801 2.262543
0.22581878 1.6060159 2.2597961
0.27122733 1.6073068 2.2521665
-0.755189 1.69744 2.29756
-0.72666627 1.69311 2.2985899
-0.67245716 1.692004 2.2938123
-0.62785631 1.6913134 2.2921431
-0.58129382 1.685148 2.2878089
-0.52324688 1.6797523 2.2834144
-0.47584257 1.6781034 2.2806516
-0.42867339 1.6804731 2.2740448
-0.3752321 1.6733463 2.2716868
-0.32420406 1.66977 2.2674763
-0.26994759 1.6675309 2.2627206
-0.22839157 1.6649171 2.2627299
-0.18368034 1.6601 2.2592733
-0.12810226 1.6564975 2.2572551
-0.077010751 1.6533074 2.2545676
-0.032460134 1.65055 2.2515032
-1.08167 1.748415 2.299005
-1.00888 1.74418 2.2892599
-0.9747225 1.74163 2.2898724
-0.92376614 1.7363698 2.2868233
-0.87406337 1.7351589 2.2798359
-0.82527244 1.731608 2.2779651
-0.77478588 1.7290659 2.273205
-0.72476625 1.7222251 2.2726135
-0.67602164 1.7171263 2.2680738
-0.62567836 1.7120366 2.2683911
-0.57663804 1.7097013 2.262275
-0.52156425 1.70735 2.256635
-0.48129702 1.70305 2.2579098
-1.35739 1.79749 2.29352
-1.34238 1.7965699 2.2988
-1.2663879 1.79431 2.2843778
-1.2180771 1.7828872 2.290257
-1.174114 1.7844622 2.2857227
-1.1202009 1.7756066 2.2812867
-1.0719199 1.7786089 2.274441
-1.0258619 1.7702889 2.2747419
-0.97798836 1.7641537 2.2682076
-0.93283415 1.76069 2.2646599
-0.88766354 1.7626941 2.259454
-0.82461232 1.7572001 2.2539933
-1.95916 1.80132 2.2567401
-1.9091901 1.84308 2.29039
-1.8702067 1.8351234 2.2865233
-1.8202518 1.8402439 2.28563
-1.777905 1.841845 2.2908649
-1.7156501 1.8366833 2.2924767
-1.6704129 1.8389742 2.2841899
-1.61962 1.8381801 2.2883232
-1.576694 1.838424 2.2881961
-1.5190071 1.8350114 2.2827642
-1.480155 1.8307449 2.28458
-1.4292556 1.8306266 2.2816033
-1.3765018 1.8257701 2.2779238
-1.3231666 1.8259476 2.2749765
-1.2714537 1.8250213 2.2650461
-1.22019 1.8157734 2.2623899
-1.1675134 1.8054399 2.2631633
-1.1331166 1.8091768 2.2526133
-1.09993 1.80029 2.2522199
-2.17419 1.89562 2.29702
-1.772145 1.851135 2.2745049
-1.7294376 1.85315 2.2752824
-1.66243 1.85186 2.26597
-1.6298383 1.8582383 2.2655451
-1.5709257 1.8614558 2.2621543
-1.5273867 1.86014 2.2599201
-1.4765621 1.859704 2.2603238
-1.4232634 1.85212 2.2545002
-1.36348 1.8539701 2.2535501
-1.3222899 1.8608201 2.2515099
-1.28729 1.85149 2.2526801
-2.2735267 1.93001 2.2893867
-2.2346649 1.928285 2.2949848
-2.1693919 1.9170341 2.282444
-2.14446 1.93224 2.2618699
-2.3227 1.9531 2.2962401
-2.2627699 1.9642 2.2583866
-2.2171149 1.9612401 2.2614925
-2.11165 -1.5539351 2.3368449
-2.0788 -1.575845 2.3435102
1.44822 -1.55416 2.34045
1.4602166 -1.5658966 2.3215866
-2.2191901 -1.501655 2.3190751
-2.1744452 -1.5184736 2.333725
-2.1357467 -1.5375067 2.3414934
1.462595 -1.523535 2.3212874
-2.3138635 -1.4564567 2.3114133
-2.2758541 -1.464018 2.3261619
-2.2319372 -1.4780171 2.33129
-2.1998 -1.48859 2.34672
1.4838171 -1.477195 2.3254499
1.501465 -1.45818 2.3166952
2.42805 -1.45236 2.34793
-2.4102299 -1.40145 2.3094399
-2.3664825 -1.4141476 2.3129025
-2.3291562 -1.4270029 2.3232141
-2.2803819 -1.4384279 2.3436477
1.5168356 -1.4228578 2.3217845
2.4410701 -1.425935 2.34304
2.4516201 -1.4144 2.32761
-2.4567125 -1.3716149 2.3074851
-2.4229834 -1.3722366 2.3220301
-2.3787024 -1.3816677 2.3353567
-2.3393199 -1.39683 2.3494599
1.5349633 -1.3742069 2.326678
2.4663024 -1.37695 2.3297439
-2.5155241 -1.311412 2.3218262
-2.4752409 -1.3301922 2.3271723
-2.4284902 -1.3432701 2.341115
1.5459 -1.34224 2.3206401
1.5654209 -1.3196059 2.3237071
1.6242175 -1.3103925 2.3106401
2.4890001 -1.3260672 2.3280454
-2.6188166 -1.2605866 2.31477
-2.5729585 -1.2695436 2.3269062
-2.5290999 -1.2859681 2.335392
1.5868968 -1.2823083 2.3344684
1.621225 -1.28488 2.328275
1.65644 -1.285895 2.3459902
2.5138113 -1.2747058 2.3280356
-2.7016699 -1.20033 2.3097899
-2.659955 -1.2230875 2.313205
-2.6249001 -1.2240349 2.3313468
-2.5980401 -1.23917 2.3435199
2.5291684 -1.22971 2.3205831
-2.7511401 -1.15801 2.3125
-2.7204719 -1.1693261 2.3291497
-2.6793141 -1.187288 2.3372083
-2.6430399 -1.1958801 2.34635
2.5438299 -1.1923699 2.3364999
2.5610983 -1.1740583 2.3197401
-2.7710619 -1.1202459 2.3348918
-2.73791 -1.1344099 2.341615
2.5753899 -1.1270516 2.3326383
-2.8187599 -1.07695 2.3294699
-2.7904699 -1.08401 2.34882
2.5854814 -1.0760171 2.3264158
-2.8633499 -1.02556 2.3422301
-2.8414299 -1.04046 2.3491299
2.5946641 -1.0274241 2.3329639
2.6055598 -1.02239 2.3083549
2.6185584 -0.97593039 2.322155
2.6411059 -0.93402827 2.3244638
2.6548049 -0.90463746 2.31952
2.6629941 -0.87236089 2.3219929
2.6805501 -0.82427776 2.32233
2.6929033 -0.78858131 2.3339233
2.71211 -0.76969498 2.32131
2.7253301 -0.72982764 2.3235884
2.7354198 -0.69041753 2.3324723
2.7525635 -0.661452 2.3294399
2.7663214 -0.62280619 2.3257101
2.7873375 -0.57567728 2.3357601
2.8009901 -0.56201553 2.312135
2.79618 -0.539819 2.3429599
2.814564 -0.5192818 2.3198059
2.8279963 -0.4724071 2.3249373
2.8439598 -0.42968303 2.3293519
2.8567901 -0.41040501 2.3245699
2.8743618 -0.37871766 2.3280849
2.8744099 -0.34677401 2.34795
2.9075899 -0.31366199 2.31654
2.8959799 -0.28936398 2.3413
2.9160419 -0.28072119 2.3141341
2.9307342 -0.23557441 2.3304439
2.9563501 -0.216764 2.3333199
2.9417498 -0.18239801 2.3243332
2.9607401 -0.150093 2.3415101
2.81303 1.1955301 2.34762
2.24982 1.2449501 2.3475299
2.26719 1.24588 2.3376
2.3310752 1.24349 2.338975
2.3881967 1.23432 2.34321
2.4256299 1.2398033 2.3321567
2.4777026 1.237805 2.34005
2.52196 1.23413 2.3381002
2.5766642 1.2321481 2.336792
2.6233127 1.2248486 2.3300586
2.681495 1.2265899 2.3385949
2.72701 1.2357099 2.3294926
2.7733524 1.2216051 2.3397601
2.8074198 1.2271 2.3249366
2.8699501 1.2295001 2.3496101
1.7853501 1.291935 2.3469501
1.8369 1.2880599 2.3499899
1.878062 1.288232 2.3428359
1.92865 1.28396 2.3423598
1.9773715 1.286 2.3342426
2.0256014 1.27995 2.3336542
2.0742588 1.2822187 2.3273838
2.1270082 1.2738446 2.32917
2.1766841 1.2766114 2.3204999
2.2239614 1.2698175 2.3275437
2.2757552 1.26952 2.3225701
2.3218234 1.269805 2.3165267
2.375258 1.2634801 2.3239198
2.4242225 1.2668275 2.3136275
2.478735 1.2623025 2.3145199
2.5295801 1.2648166 2.31145
2.5690701 1.25464 2.30498
2.6143351 1.256375 2.3032598
2.6806901 1.2540499 2.3126032
2.7360401 1.2611001 2.30759
2.7697999 1.2518899 2.3104999
1.43602 1.3465199 2.3469
1.4685475 1.343845 2.3432224
1.5234339 1.340326 2.3410981
1.572535 1.3378316 2.3389883
1.6240063 1.3331988 2.3379087
1.6770668 1.324698 2.3309989
1.727006 1.327942 2.3222013
1.7744169 1.3203199 2.3258071
1.8242236 1.32416 2.3220954
1.8674629 1.3138529 2.3212855
1.9243014 1.3092813 2.3182845
1.9712367 1.3104666 2.3082898
2.0298951 1.310305 2.3081748
2.0692301 1.3086801 2.30088
2.11852 1.3054 2.30688
1.04451 1.39864 2.3480301
1.08915 1.39126 2.3492999
1.1258675 1.3951925 2.3425074
1.17393 1.389477 2.3400657
1.2269171 1.3855342 2.3386114
1.2725871 1.384969 2.3339341
1.3234019 1.3819373 2.3290124
1.37385 1.3790959 2.3259292
1.4242676 1.3711724 2.3240123
1.4772763 1.3683474 2.3177552
1.5249622 1.3662165 2.3150754
1.5773842 1.3637571 2.3109343
1.6233361 1.358834 2.3132901
1.666145 1.3535975 2.306385
0.74106896 1.4456201 2.3462701
0.77396935 1.4397017 2.3416364
0.82011229 1.435979 2.33939
0.87818098 1.4371538 2.3361025
0.92568427 1.4291643 2.3342049
0.97499388 1.4311031 2.3233778
1.0250169 1.4245331 2.328187
1.0729339 1.4212134 2.3224187
1.1239382 1.4191691 2.3215225
1.1760228 1.4137928 2.3157029
1.2233771 1.4081343 2.3126915
1.28476 1.4075451 2.3069551
1.3287133 1.4043366 2.3057668
1.36066 1.40911 2.3002601
0.29969499 1.49856 2.34815
0.32526934 1.4983233 2.3448265
0.37705135 1.4962333 2.3438733
0.418369 1.4912519 2.3426681
0.47877342 1.4887928 2.3382828
0.52832621 1.4836788 2.3353844
0.5806675 1.4787236 2.3339877
0.62660462 1.4789792 2.3271232
0.67225695 1.4728127 2.326493
0.72344148 1.4728081 2.3206046
0.77682626 1.4699486 2.3154192
0.82906741 1.46466 2.3165257
0.87268841 1.4623511 2.313395
0.92028326 1.459 2.3084474
0.95954949 1.4605401 2.3053501
1.00822 1.45109 2.3015299
0.037299998 1.5391099 2.3476501
0.074756004 1.5420371 2.3398187
0.12937939 1.538651 2.3384771
0.17799349 1.5358591 2.3366525
0.2302186 1.5291699 2.3329937
0.27976426 1.52617 2.3263123
0.32814986 1.5280627 2.3199673
0.37202445 1.5224131 2.3210561
0.4222188 1.5170554 2.3177955
0.47185099 1.5116127 2.3148267
0.52460289 1.5067762 2.3136024
0.57477659 1.5100728 2.3107283
0.62920552 1.5050275 2.3024001
-0.32124296 1.5932368 2.3420818
-0.27294615 1.5868462 2.3418298
-0.22051184 1.58873 2.335721
-0.17507523 1.5863334 2.3351688
-0.12961949 1.5821509 2.3312082
-0.075397171 1.5771706 2.3286524
-0.026657796 1.5757666 2.3241658
0.023413509 1.5699869 2.3246202
0.076045386 1.5686671 2.3163068
0.12653792 1.5694882 2.3114493
0.17749089 1.5626 2.3112512
0.22438359 1.55673 2.3067319
0.27267066 1.5534533 2.3025401
-0.71689701 1.64747 2.3443997
-0.67061532 1.6438575 2.3429475
-0.6243186 1.6393037 2.339395
-0.5749855 1.6376069 2.3333235
-0.52537686 1.6335784 2.3325262
-0.47186536 1.629673 2.3265951
-0.42461216 1.6240134 2.3255727
-0.37805182 1.6198518 2.3258657
-0.32451916 1.6187974 2.3175633
-0.27209559 1.6148068 2.3171003
-0.22243442 1.6146914 2.3099058
-0.17789872 1.6127243 2.30636
-0.13298342 1.605654 2.308074
-0.090613097 1.60164 2.308985
-1.06522 1.69941 2.34882
-1.032475 1.6981601 2.3433352
-0.97169131 1.69162 2.338805
-0.92240381 1.68786 2.3342135
-0.87620199 1.6845578 2.3288698
-0.82248944 1.6795737 2.3287785
-0.77294135 1.6732508 2.3267834
-0.72558928 1.6679926 2.3241174
-0.67659324 1.6693299 2.3159521
-0.62397742 1.6658572 2.3127546
-0.56993878 1.6626199 2.3059778
-0.53240103 1.6549034 2.3127301
-0.45683551 1.6558 2.30039
-0.4234097 1.6523733 2.3005898
-1.3322966 1.7442402 2.3463733
-1.27846 1.7368766 2.3412883
-1.2263399 1.7379584 2.3331034
-1.1776577 1.7358567 2.3337889
-1.1260936 1.7304864 2.3256755
-1.0776359 1.7226843 2.3255649
-1.0304481 1.7225299 2.3182037
-0.97835666 1.715781 2.3150029
-0.92334741 1.7108915 2.3089354
-0.87051898 1.710865 2.3058727
-0.83013022 1.7089899 2.305074
-0.78527898 1.70485 2.30038
-1.712085 1.790375 2.3433652
-1.6770066 1.79261 2.34217
-1.6245651 1.791625 2.33831
-1.5736721 1.782424 2.337708
-1.5258012 1.7862037 2.3312201
-1.470749 1.7795277 2.3311021
-1.4220886 1.7785712 2.3261313
-1.3792837 1.7746773 2.3225889
-1.3273801 1.7736773 2.3207076
-1.2755144 1.768731 2.3149424
-1.2268779 1.7618141 2.3117621
-1.1726466 1.7567635 2.30724
-2.08057 1.84411 2.343545
-2.021215 1.8352599 2.3233449
-1.979674 1.8397259 2.3342381
-1.9199401 1.82855 2.3279929
-1.871644 1.8267359 2.3280902
-1.8341099 1.8216549 2.3328266
-1.7785389 1.8241961 2.3244519
-1.7273929 1.8134969 2.3250787
-1.6764416 1.8144083 2.3159068
-1.622452 1.8145759 2.313082
-1.577835 1.815245 2.3107531
-1.5283625 1.8105725 2.3078601
-1.4752566 1.8066734 2.3077967
-1.44092 1.806975 2.302695
-2.30251 1.89963 2.3438799
-2.2859499 1.88438 2.347435
-2.219656 1.879178 2.3269877
-2.17396 1.87782 2.3267019
-2.13937 1.86067 2.3375399
-2.4232349 1.9197475 2.3334501
-2.3597333 1.93177 2.3158767
-2.321445 1.925245 2.33605
-2.2676201 1.90098 2.32727
-2.2212548 1.9072 2.30756
-2.3464501 1.9560699 2.33304
-1.7986701 -1.7000901 2.38908
-1.873865 -1.659785 2.3820949
-1.835158 -1.675074 2.3883018
-1.79988 -1.68582 2.3987801
-2.0093598 -1.608645 2.3546901
-1.9672732 -1.6160101 2.3689666
-1.9205 -1.6272609 2.3830819
-1.8793601 -1.6417567 2.39487
1.4315898 -1.61761 2.3789821
-2.0643916 -1.5616666 2.3563116
-2.0223219 -1.5749328 2.3715098
-1.9770651 -1.5835333 2.3893118
1.4373745 -1.5749278 2.3747988
-2.1665299 -1.50283 2.3582799
-2.1257057 -1.5198915 2.3616529
-2.0797176 -1.5281363 2.3800449
-2.0341151 -1.538075 2.3936949
1.4475625 -1.5221701 2.3856027
1.4549825 -1.521975 2.3630676
2.3979499 -1.51337 2.38255
-2.2118599 -1.4669333 2.3624034
-2.1725893 -1.4754912 2.3791857
-2.1230714 -1.4909366 2.3883216
1.4709226 -1.4755026 2.3742025
2.4129982 -1.4779466 2.3792667
-2.3204601 -1.41087 2.3508699
-2.2756016 -1.4171985 2.3711243
-2.2284412 -1.4309199 2.379503
-2.18875 -1.4425598 2.3949068
1.4956232 -1.4401366 2.3754432
1.5078961 -1.420288 2.371278
2.4346433 -1.42529 2.37514
-2.3688025 -1.3609226 2.3702002
-2.3272157 -1.3787733 2.3766055
-2.2874334 -1.3918999 2.3899133
1.5256038 -1.37236 2.3724387
2.4423201 -1.3954099 2.3931501
2.4580638 -1.3715999 2.3762679
-2.4642701 -1.3014899 2.35411
-2.4291 -1.3198889 2.370084
-2.3799717 -1.3335133 2.3848183
1.5427938 -1.3227599 2.3763523
1.55373 -1.30698 2.35233
2.4799283 -1.3249134 2.3758149
-2.5185232 -1.2671033 2.3580699
-2.4765625 -1.2725199 2.3759763
-2.4347801 -1.2825949 2.3886399
1.5728807 -1.2744201 2.3746531
1.635635 -1.262315 2.3615975
1.66424 -1.2705899 2.3666999
2.492625 -1.293125 2.38269
2.507035 -1.2675425 2.3775077
-2.6028152 -1.2168751 2.3575301
-2.5679426 -1.2239562 2.3707976
-2.5308266 -1.2339317 2.3796699
-2.4930499 -1.2407 2.3906133
1.5876232 -1.24029 2.388653
1.6242913 -1.2330788 2.3835788
2.5209274 -1.22142 2.3729787
-2.6706619 -1.1595119 2.3641801
-2.6264474 -1.1769588 2.3747313
-2.595835 -1.1883249 2.391685
2.5394177 -1.179585 2.3770926
2.55268 -1.1640151 2.3577199
-2.75629 -1.10025 2.3731301
-2.7206841 -1.1252972 2.3684442
-2.677546 -1.1274559 2.389344
2.5631759 -1.1218201 2.3725982
-2.80161 -1.05477 2.37058
-2.7786984 -1.07718 2.3763843
-2.7329266 -1.0941167 2.3936965
2.5804732 -1.0781851 2.3829184
-2.8641849 -1.01193 2.3647399
-2.82693 -1.0376334 2.3797967
-2.79217 -1.04065 2.3980401
2.5921481 -1.022534 2.3759079
-2.92187 -0.95227301 2.3731949
-2.8740733 -0.98337716 2.3785183
-2.8429799 -0.99635899 2.39872
2.6149757 -0.97509301 2.3743701
-2.9737899 -0.90933597 2.38451
-2.9333401 -0.92088836 2.38873
-2.8719602 -0.94688702 2.394155
2.6319973 -0.92644686 2.3761215
-3.0132599 -0.88155001 2.3945999
2.642947 -0.89102435 2.3787868
2.6612148 -0.86488295 2.3763702
-2.9960999 -0.842089 2.3921299
2.6719048 -0.82358313 2.3754566
2.6894381 -0.77495557 2.3748565
2.70522 -0.75030297 2.3657999
2.7143457 -0.72117501 2.3728371
2.7299883 -0.67011285 2.3726616
2.7421699 -0.63073677 2.38237
2.7591431 -0.61109263 2.3666868
2.7733049 -0.57411712 2.3716867
2.78688 -0.53460252 2.3811376
2.8041735 -0.51500869 2.3645635
2.7995501 -0.485971 2.3856101
2.809227 -0.4765327 2.3654032
2.8317816 -0.429335 2.3770549
2.8467064 -0.38061833 2.3814232
2.8574467 -0.37980935 2.3601902
2.8755798 -0.32932159 2.387706
2.91013 -0.265798 2.3552599
2.9204144 -0.22153343 2.3718071
2.9444299 -0.17080459 2.3780179
2.9539499 -0.150608 2.3680401
2.9490199 -0.134349 2.3963399
2.9757783 -0.11750767 2.3710618
2.99596 -0.084085397 2.37236
3.009315 -0.05893195 2.383615
3.0188799 -0.024945151 2.3917198
3.01507 0.0091929268 2.3888099
2.1999199 1.19682 2.39744
2.2343299 1.19489 2.39521
2.2850051 1.1971951 2.39536
2.32093 1.18769 2.3963101
2.3788276 1.19477 2.3926725
2.4287 1.1854767 2.3894367
2.4706926 1.1899976 2.38343
2.5245149 1.18783 2.3815451
2.5664198 1.1877366 2.3746166
2.633378 1.1848539 2.385812
2.6851599 1.1819775 2.3791599
2.7312467 1.1825433 2.3764498
2.7778749 1.1830825 2.3720801
2.8190551 1.1675451 2.3856549
2.8824069 1.1919533 2.3691866
2.91853 1.1816 2.3852701
1.79299 1.24441 2.39694
1.8248833 1.2445633 2.3935101
1.8777 1.2408149 2.3938274
1.922896 1.239262 2.3874538
1.9755887 1.2348071 2.3857329
2.0251122 1.2369879 2.3841798
2.0733087 1.23484 2.3791485
2.1228702 1.2258821 2.3782468
2.1783011 1.2277275 2.3724189
2.22702 1.2247242 2.3716428
2.2743452 1.2228433 2.3717501
2.3210557 1.2202028 2.3700116
2.3671679 1.2201821 2.363868
2.4194849 1.2089424 2.3641
2.4682233 1.2156934 2.3597434
2.5241899 1.2162876 2.35358
2.58041 1.206905 2.3550451
2.6777301 1.203725 2.3619552
2.7207699 1.2115999 2.35251
2.75717 1.20328 2.3592701
2.85887 1.2075599 2.3501201
1.34676 1.29949 2.3973601
1.4301701 1.2938334 2.39553
1.4807467 1.2920567 2.3922167
1.53063 1.2914633 2.3849516
1.5799019 1.286646 2.383662
1.6204414 1.2813514 2.3852899
1.6771381 1.277642 2.383045
1.7259951 1.2806501 2.3755131
1.7694098 1.2676589 2.3773556
1.8231277 1.2691922 2.3689713
1.8743759 1.267308 2.3723781
1.9250067 1.2659 2.3662198
1.9735324 1.2631999 2.359235
2.0282767 1.2564033 2.3612666
2.07024 1.25852 2.3559201
2.1143401 1.25143 2.3561599
1.078604 1.342164 2.3950741
1.123072 1.341642 2.3905842
1.1742944 1.3334844 2.3915999
1.2252589 1.3381159 2.3831134
1.277265 1.3285424 2.3827584
1.3279525 1.3289391 2.3788767
1.3769001 1.3224374 2.3785481
1.4248976 1.3236966 2.370609
1.4723041 1.3165269 2.3673823
1.5214472 1.3164185 2.3605444
1.5748301 1.3116529 2.36062
1.6328826 1.308815 2.3612325
1.65821 1.3011949 2.3592801
1.7228401 1.304915 2.3524399
0.69834399 1.39966 2.3944099
0.72513473 1.3942974 2.3930025
0.77782184 1.3878183 2.3925633
0.83118933 1.385909 2.388351
0.87764019 1.3812246 2.3831596
0.92654783 1.3795213 2.3808024
0.97607493 1.3762959 2.377773
1.0236621 1.3739444 2.3726048
1.0742126 1.3702277 2.3712826
1.1242812 1.3704151 2.3673208
1.1731454 1.3640972 2.3648918
1.2250559 1.363206 2.358664
1.274415 1.3572149 2.3559098
1.3237767 1.3589834 2.3550198
1.3728733 1.3529934 2.3552101
0.32775399 1.4460634 2.39711
0.38279802 1.4434625 2.3928099
0.42686501 1.4378166 2.3886666
0.47720525 1.4360157 2.3870032
0.53023398 1.4360777 2.3820531
0.57395458 1.4322293 2.3801684
0.62217617 1.4258056 2.3771896
0.67587024 1.4234241 2.3722885
0.72755295 1.4230293 2.3651588
0.77411759 1.411042 2.3681493
0.82540065 1.4106799 2.3650587
0.87362403 1.41429 2.3571069
0.92036396 1.4076867 2.35572
0.97307134 1.4050733 2.3540165
-0.046546102 1.49965 2.3938701
0.024518654 1.4992125 2.3931
0.076060429 1.4904675 2.3916311
0.1275025 1.4884113 2.3863013
0.18071562 1.4825801 2.385026
0.23024786 1.47992 2.3794816
0.27340609 1.4725884 2.3805418
0.32035244 1.4735712 2.3739064
0.37030038 1.4712615 2.3666604
0.42342103 1.4674433 2.3638802
0.47278637 1.46626 2.3595281
0.52495331 1.4636686 2.3563085
0.56655151 1.4584501 2.3515151
0.62673098 1.4503833 2.3534768
-0.36842901 1.548445 2.3947401
-0.32953519 1.5416441 2.3940198
-0.26864684 1.5399684 2.3918803
-0.22228742 1.5350534 2.3878942
-0.16992658 1.5317383 2.3860223
-0.12407216 1.5330118 2.3766325
-0.077720053 1.5260478 2.3778379
-0.026007939 1.523492 2.374542
0.022688746 1.52369 2.3698151
0.075870045 1.5169634 2.365865
0.12460909 1.513196 2.3634229
0.17852114 1.5091537 2.3620563
0.22584958 1.504076 2.358588
0.274452 1.5006334 2.35409
-0.72926599 1.592435 2.3984351
-0.67445982 1.5892614 2.3938401
-0.6229142 1.5847887 2.3888013
-0.5704717 1.5829608 2.3867981
-0.52207333 1.5825372 2.3797572
-0.47530183 1.5749638 2.3796101
-0.42185965 1.5733923 2.3743384
-0.37647519 1.5751307 2.3685319
-0.32901579 1.5694801 2.3693573
-0.27608666 1.5628508 2.3698289
-0.22143513 1.5622387 2.3623691
-0.17585433 1.5601634 2.3621833
-0.1339654 1.558472 2.353688
-0.097744197 1.5594701 2.3512199
-1.05516 1.6493599 2.3940499
-1.02407 1.6441599 2.3962133
-0.9692632 1.6425381 2.3873439
-0.92556524 1.6363013 2.3812425
-0.87267298 1.6297251 2.3818748
-0.82410711 1.6266001 2.3804772
-0.77756143 1.6247514 2.377578
-0.72489113 1.6209507 2.3696334
-0.67551494 1.6173768 2.3644567
-0.6282621 1.6125389 2.3648891
-0.57329261 1.6091486 2.3614826
-0.5285055 1.6099274 2.3552926
-0.47369877 1.6028526 2.35393
-1.41215 1.69879 2.3993399
-1.3224634 1.6920733 2.3936598
-1.2695917 1.6865233 2.3900449
-1.2186601 1.6850351 2.38678
-1.1715738 1.6837275 2.3805037
-1.123381 1.678561 2.3801219
-1.0746316 1.6744423 2.373507
-1.0198025 1.6722016 2.36678
-0.97728968 1.6680449 2.36696
-0.92582411 1.6665117 2.3586569
-0.88243854 1.658358 2.3562059
-0.82765651 1.65496 2.3552001
-1.7963001 1.74465 2.3981199
-1.7246499 1.742075 2.3944702
-1.6707834 1.7332749 2.3879666
-1.6233575 1.738035 2.3850675
-1.5720999 1.7342937 2.3818665
-1.5246643 1.7286972 2.384577
-1.4757832 1.7283678 2.3761055
-1.4260535 1.7273475 2.374948
-1.3722249 1.7220398 2.3734944
-1.3218337 1.7161725 2.3732338
-1.2752982 1.7134484 2.3681052
-1.2310158 1.71285 2.3602543
-1.1808425 1.7085201 2.3585801
-1.1381834 1.7092667 2.3581564
-2.026005 1.7977049 2.3884301
-1.9738101 1.7949233 2.3807867
-1.9250715 1.7809542 2.3841197
-1.8709328 1.7791258 2.378413
-1.8274335 1.7758734 2.3768222
-1.7753378 1.7716341 2.3738909
-1.7268937 1.7711238 2.368705
-1.6707717 1.7635833 2.3649466
-1.6276802 1.7648383 2.3597782
-1.564935 1.7602224 2.3570151
-1.5277399 1.7591933 2.3592167
-1.4848267 1.7590834 2.3569801
-1.43414 1.757815 2.35625
-2.36256 1.83687 2.3977699
-2.3163269 1.8447634 2.3866632
-2.2633567 1.8343333 2.3870165
-2.224685 1.8294775 2.3887501
-2.1689098 1.8270757 2.3776486
-2.1238933 1.825065 2.3819017
-2.0750515 1.8202873 2.3765056
-2.0265014 1.8228534 2.3632634
-1.97225 1.81762 2.3595524
-1.924955 1.802745 2.3590651
-1.880375 1.8056049 2.3519499
-1.80791 1.80299 2.35062
-2.5186501 1.8676801 2.3902402
-2.47682 1.87284 2.3870699
-2.4310899 1.8659275 2.3842151
-2.3773141 1.8771321 2.3791602
-2.3341732 1.8782965 2.3675966
-2.267802 1.860568 2.3608181
-2.216435 1.859115 2.36801
-2.1630201 1.85781 2.3585749
-2.50738 1.90042 2.37047
-2.4792099 1.90926 2.3640499
-2.4127901 1.9010299 2.35274
-2.3584001 1.90133 2.35022
-1.52107 -1.8106151 2.4439101
-1.6581399 -1.75817 2.42559
-1.62269 -1.760705 2.4393225
-1.5783733 -1.7796766 2.44455
-1.54379 -1.79528 2.44152
-1.7675921 -1.7086118 2.4078822
-1.7197738 -1.7127736 2.4239361
-1.6785465 -1.7275567 2.4360023
-1.64469 -1.74468 2.44451
-1.816034 -1.664802 2.409904
-1.7720122 -1.6729077 2.4274492
-1.7361032 -1.6829367 2.44135
1.39434 -1.658955 2.4430099
1.409315 -1.6578 2.4158602
-1.91274 -1.604995 2.4056401
-1.8676279 -1.6193156 2.4173536
-1.826889 -1.6299634 2.431819
-1.7864 -1.6407866 2.4460466
1.4192867 -1.6235234 2.4238484
-2.0104101 -1.55326 2.4001801
-1.9711766 -1.5610967 2.4134848
-1.9293145 -1.5744618 2.4275656
-1.8802922 -1.5857021 2.440856
1.428975 -1.5667176 2.429565
2.3454101 -1.59971 2.4445701
2.3641276 -1.5636026 2.4263201
-2.0666201 -1.51372 2.4044499
-2.0289514 -1.5215827 2.4149473
-1.9845337 -1.5263799 2.4356115
1.4390781 -1.5356181 2.4247899
1.45332 -1.51837 2.4497399
2.3779969 -1.5218543 2.4218271
-2.1176751 -1.4682235 2.4125566
-2.0750127 -1.4816409 2.4285648
-2.0232451 -1.4936075 2.4394574
1.44941 -1.4991601 2.41155
1.4671601 -1.4737486 2.4245543
2.3938398 -1.4785326 2.437685
2.4056833 -1.4688667 2.41452
-2.2089033 -1.4119267 2.4144633
-2.1711311 -1.4231302 2.4244463
-2.1290483 -1.438325 2.4312816
-2.0983701 -1.44661 2.44875
1.486078 -1.4279079 2.4229259
1.51118 -1.40308 2.4012401
2.42172 -1.4232488 2.4222698
-2.3094249 -1.35462 2.4075601
-2.2720325 -1.3699275 2.4118137
-2.2283285 -1.3737855 2.4325681
-2.1925399 -1.3937 2.44256
1.49167 -1.39745 2.43817
1.513635 -1.3731849 2.4206963
2.4400685 -1.3746201 2.4278352
-2.3740733 -1.3093449 2.4079568
-2.3244565 -1.3267065 2.42225
-2.2741799 -1.3348451 2.4407475
1.5328883 -1.3318001 2.4241316
2.4457099 -1.34814 2.41857
2.4645143 -1.3248099 2.4230011
-2.4205182 -1.2687768 2.4180768
-2.379725 -1.2777201 2.4375334
-2.33938 -1.2985301 2.4365749
1.5424875 -1.2920525 2.4252701
1.5605725 -1.2708051 2.4254375
1.6879801 -1.27426 2.4068799
1.70744 -1.27433 2.4410501
2.4857528 -1.2777557 2.4257214
2.5018699 -1.25287 2.42679
-2.51844 -1.2098867 2.4105003
-2.47123 -1.2226926 2.4259908
-2.4246125 -1.2372075 2.43997
1.5799637 -1.2267445 2.4218664
1.6315299 -1.2093467 2.4137833
1.65818 -1.2124901 2.4148998
2.5084651 -1.2259667 2.4234083
-2.61286 -1.1578633 2.4107933
-2.5734301 -1.1727576 2.4187474
-2.5359521 -1.1812279 2.432344
-2.4881349 -1.1878049 2.4400051
1.59401 -1.193295 2.4431601
1.6230924 -1.1859087 2.4351137
1.6668301 -1.1900201 2.43946
2.5324168 -1.1739167 2.4242055
2.5603099 -1.15044 2.4035599
-2.661025 -1.1082151 2.4126649
-2.6315062 -1.12562 2.4252739
-2.5798426 -1.1362751 2.4460225
2.5404799 -1.14001 2.4495399
2.5571067 -1.1198267 2.4273036
-2.7678499 -1.05453 2.4007101
-2.7221756 -1.0696634 2.4185655
-2.6783459 -1.084698 2.4355102
-2.64344 -1.09453 2.4445901
2.5751374 -1.0672542 2.4269586
-2.8261368 -1.0229067 2.4266167
-2.77495 -1.0293859 2.42839
-2.73698 -1.03862 2.4369099
2.5838361 -1.0211799 2.423938
-2.8538301 -0.983172 2.4133899
-2.8285201 -0.97172827 2.4240925
-2.79842 -0.99834299 2.4489601
2.59604 -0.99223101 2.4181452
2.6042199 -0.96915197 2.4262576
-2.9126949 -0.90352046 2.41343
-2.8820517 -0.92081803 2.4221666
-2.84165 -0.93945396 2.4308574
2.6197371 -0.92357886 2.4218686
-3.0181301 -0.86562699 2.4042101
-2.97562 -0.87920052 2.4210725
-2.9220424 -0.88070571 2.428725
-2.8931501 -0.888201 2.44736
2.6410067 -0.87411469 2.42785
2.65855 -0.85434699 2.4151299
-3.0165982 -0.829862 2.434068
-2.9860001 -0.84886098 2.44767
2.6616886 -0.82161599 2.4220083
-3.03561 -0.76598299 2.44853
2.6774216 -0.77286738 2.424623
2.6920323 -0.73345828 2.4331999
2.7092102 -0.71362466 2.4189234
2.720845 -0.67604035 2.4232619
2.7343767 -0.62710303 2.4261501
2.747355 -0.58798504 2.4408851
2.762948 -0.57474923 2.4155078
2.7755816 -0.52950805 2.4220667
2.7925832 -0.49237069 2.4285533
2.80566 -0.46916074 2.42377
2.8224049 -0.42465937 2.42996
2.8387365 -0.37456501 2.4206634
2.85232 -0.35021499 2.42027
2.8712482 -0.31795317 2.424885
2.8835068 -0.27106968 2.4297152
2.88993 -0.234951 2.4332299
2.9218733 -0.207572 2.4212999
2.9283516 -0.16836135 2.4240017
2.9400399 -0.12933733 2.4305468
2.9556763 -0.10665166 2.4132802
2.9850299 -0.069964096 2.4187286
2.993005 -0.02502035 2.4351602
3.0035901 -0.024964949 2.4119
3.0214219 0.01790962 2.426064
1.54575 0.066993698 2.44998
1.5645549 0.067086175 2.4444826
1.6135499 0.067599803 2.4431801
3.0415599 0.066302761 2.4286399
3.0734501 0.087609403 2.4337201
3.0722969 0.12238333 2.4314368
3.0770798 0.16605949 2.432965
2.2201099 1.14521 2.44345
2.29913 1.14533 2.4486201
2.3299174 1.140695 2.440835
2.3846698 1.14359 2.4428501
2.4741926 1.1385425 2.4387076
2.5230033 1.1304866 2.4442232
2.5828433 1.1422701 2.4425967
2.6216166 1.1414133 2.4313934
2.6639531 1.1332368 2.4365933
2.7268097 1.1340233 2.4367068
2.76682 1.1296967 2.4351399
2.825685 1.14301 2.4386899
2.8659902 1.13994 2.4276099
2.9197099 1.14543 2.4427099
2.9653149 1.1350451 2.4352901
3.00946 1.1415499 2.4150701
1.80753 1.19563 2.44101
1.8767101 1.1905175 2.4458225
1.9234982 1.1905899 2.4343641
1.9772749 1.1814667 2.4361031
2.0229666 1.1788433 2.4335549
2.0757625 1.1825612 2.4304652
2.12727 1.1727087 2.4332175
2.179704 1.1752576 2.4268088
2.2285056 1.1716458 2.4260914
2.275455 1.16896 2.4258482
2.3207679 1.173454 2.4204819
2.3710482 1.1689833 2.416995
2.4224401 1.1597179 2.4214661
2.4717927 1.16205 2.4113674
2.5265551 1.1659524 2.416425
2.5802422 1.165808 2.4135642
2.6322098 1.160575 2.413965
2.688525 1.165725 2.4229898
2.7156799 1.1575667 2.4158666
2.7797899 1.1587234 2.4140699
2.8241799 1.15608 2.41414
2.8747401 1.1659451 2.4064701
2.9277151 1.153795 2.427865
1.39303 1.24718 2.4474299
1.4267 1.2450049 2.4462399
1.4820175 1.2424401 2.4434574
1.5294143 1.2410115 2.4350529
1.5805683 1.2380384 2.4340618
1.6236851 1.2345937 2.428875
1.6762834 1.2270067 2.4333153
1.7246909 1.2263092 2.4265149
1.7739639 1.223098 2.4243579
1.8268533 1.2170955 2.4265089
1.87498 1.2183701 2.4165771
1.924552 1.211386 2.4145122
1.9711475 1.2113425 2.4096975
2.0301919 1.2086519 2.4094861
2.0783901 1.20719 2.4044199
2.1260152 1.2014849 2.40833
2.15769 1.2062 2.4014101
1.0308933 1.29565 2.4457233
1.07539 1.29589 2.4419334
1.128335 1.2886283 2.4417233
1.1808145 1.28791 2.4395778
1.2309686 1.2824029 2.4369628
1.274981 1.2831801 2.4305201
1.3217359 1.2813916 2.4245193
1.3755306 1.2771285 2.4227822
1.4240749 1.2682239 2.423378
1.470551 1.2673745 2.4183922
1.520093 1.27104 2.4138143
1.5701669 1.2629014 2.4085941
1.632365 1.25981 2.407975
1.6713099 1.2539949 2.40362
1.73949 1.25225 2.4043701
0.69052398 1.34488 2.4475
0.72872514 1.3419784 2.4430716
0.77879524 1.3425987 2.4366076
0.82426739 1.3375671 2.4334252
0.8764177 1.3302993 2.4329147
0.92388344 1.3262893 2.430424
0.97495997 1.3273759 2.4248483
1.0246876 1.3223591 2.4220593
1.0742183 1.3189355 2.4163344
1.1258327 1.31394 2.4177971
1.1735241 1.3123341 2.413444
1.2211229 1.3093556 2.4119098
1.2656475 1.308055 2.4068151
0.33010802 1.3921667 2.4468765
0.37955442 1.3895019 2.441874
0.42840639 1.38793 2.4410574
0.476089 1.384305 2.4381649
0.52058148 1.3838717 2.4334242
0.57342947 1.3788124 2.4291699
0.62685448 1.3747374 2.4256818
0.6749354 1.3745707 2.4210591
0.72062999 1.3685793 2.4181945
0.77266663 1.3667028 2.412113
0.82127506 1.365586 2.4090781
0.86809683 1.3551317 2.4089735
0.91489148 1.35462 2.40418
0.99476898 1.35052 2.40223
-0.079808198 1.449355 2.4498148
-0.027582657 1.44802 2.4482524
0.024537133 1.445995 2.4446325
0.076487541 1.436985 2.442435
0.12842213 1.43617 2.4390364
0.18208613 1.4321193 2.4351943
0.22633424 1.4301668 2.4280145
0.27083772 1.4268457 2.4271352
0.32121253 1.4206917 2.4213507
0.37194845 1.4202826 2.4168663
0.42485663 1.4131502 2.4159145
0.4791925 1.4097837 2.4132752
0.52267641 1.4100921 2.409132
0.57110649 1.40555 2.4034975
0.604523 1.40758 2.40028
0.67248899 1.40035 2.4019001
-0.36449265 1.4927834 2.4457166
-0.32126981 1.4935501 2.440376
-0.27400213 1.488435 2.4406538
-0.22611591 1.4841756 2.435102
-0.16946979 1.4813143 2.4352524
-0.12522842 1.4798967 2.4289317
-0.079450123 1.476815 2.4252527
-0.027398862 1.4749631 2.4229319
0.024519755 1.4723607 2.4184425
0.076283306 1.4639868 2.4174416
0.12804933 1.4634825 2.4145992
0.17311527 1.4595543 2.4095685
0.22463967 1.4599934 2.4025967
-0.81484199 1.54641 2.44928
-0.768103 1.54855 2.4347701
-0.72699332 1.5476002 2.4433534
-0.67705452 1.5418749 2.4452724
-0.62542135 1.5379318 2.4350252
-0.57566059 1.5338627 2.4341617
-0.5236361 1.5241728 2.4356408
-0.47579914 1.5324287 2.4242806
-0.42595106 1.5245506 2.4267607
-0.37467825 1.5206307 2.4225199
-0.3292509 1.5191674 2.4151299
-0.27848485 1.5164176 2.415745
-0.22312889 1.5075938 2.4129574
-0.17500083 1.5072217 2.4108131
-0.12467033 1.5068368 2.4033868
-0.098664299 1.50625 2.4033501
-1.11102 1.59936 2.4477
-1.0942 1.5954 2.44679
-1.0342624 1.5950176 2.442945
-0.97320825 1.5895619 2.4394557
-0.92212391 1.5876187 2.4349899
-0.87348944 1.5811487 2.4308121
-0.82487434 1.5769199 2.4297817
-0.77372456 1.576206 2.4236434
-0.7231192 1.5721519 2.419724
-0.67422742 1.5625442 2.4211848
-0.62367183 1.5606217 2.4144266
-0.58161414 1.5602456 2.4119742
-0.52904606 1.5579875 2.4068799
-0.497711 1.55006 2.4066501
-1.3761699 1.640525 2.4486299
-1.31559 1.6422067 2.4319801
-1.2812099 1.641506 2.4362419
-1.2244558 1.6316614 2.4380386
-1.17319 1.6262621 2.4324951
-1.1252159 1.6254641 2.4286566
-1.0743375 1.6220984 2.41992
-1.0273055 1.6212554 2.4190879
-0.98133934 1.6165465 2.4160986
-0.93033034 1.6117136 2.4113777
-0.87029403 1.6029533 2.4073565
-0.82600451 1.603425 2.4057751
-0.76731801 1.60159 2.4036701
-1.817765 1.69549 2.4451199
-1.76537 1.69792 2.4395299
-1.7211126 1.692205 2.4424324
-1.6747324 1.6840125 2.4412901
-1.6316433 1.68365 2.4377801
-1.5803629 1.6837742 2.4331043
-1.5272801 1.6819199 2.4315534
-1.4720628 1.680389 2.425375
-1.4210862 1.6700338 2.4256802
-1.3767709 1.6735908 2.4218142
-1.3289187 1.6706413 2.4162848
-1.2740017 1.6634316 2.4143033
-1.22295 1.6598043 2.4124215
-1.1758039 1.6582901 2.4088881
-1.13123 1.654825 2.40714
-2.05513 1.74353 2.44712
-2.0185552 1.7408299 2.4424701
-1.9628975 1.735925 2.4239376
-1.921018 1.7327321 2.429868
-1.87652 1.729905 2.431715
-1.8215775 1.7267876 2.4217577
-1.7703829 1.7207915 2.4154859
-1.727125 1.7138017 2.4144182
-1.6786418 1.7108699 2.4157033
-1.6177171 1.7152513 2.4106658
-1.5734401 1.709945 2.4127851
-1.5249701 1.70748 2.4082568
-1.48577 1.7015899 2.4046099
-1.43174 1.7047499 2.40095
-2.3323667 1.7898935 2.4416733
-2.2825952 1.7861425 2.4367223
-2.230402 1.7855819 2.434346
-2.1761663 1.7772739 2.4374263
-2.1226718 1.7759998 2.43065
-2.0760839 1.7706175 2.421895
-2.0235755 1.7746701 2.4188788
-1.9684467 1.7677299 2.4105067
-1.9217367 1.7591633 2.40746
-1.8816 1.75139 2.4019899
-2.7021201 1.8238 2.44923
-2.62361 1.835695 2.4381351
-2.581815 1.84488 2.4143801
-2.5356781 1.8300221 2.4359879
-2.4688582 1.8321117 2.4280767
-2.4223633 1.8213867 2.4311934
-2.3787975 1.8121575 2.4265425
-2.3316102 1.8173981 2.4154499
-2.2830167 1.8122367 2.4170201
-2.22405 1.8074 2.409255
-2.1794949 1.8059549 2.413785
-2.11467 1.80193 2.40414
-2.6284201 1.85071 2.4126301
-2.5938799 1.8561701 2.40224
-2.5100801 1.85027 2.41044
-2.48298 1.86017 2.4047401
-1.3739051 -1.86132 2.4841022
-1.3338233 -1.88026 2.4953101
-1.50133 -1.806555 2.4639902
-1.4684213 -1.8137801 2.4742584
-1.4264585 -1.8282001 2.4830813
-1.3785633 -1.84329 2.49506
-1.5731767 -1.7619267 2.4633934
-1.5244383 -1.7765348 2.4754386
-1.481325 -1.7869051 2.4922299
-1.6669034 -1.7055835 2.45873
-1.6257068 -1.7196908 2.4731686
-1.5799663 -1.7351249 2.4825625
1.38436 -1.70515 2.47944
-1.7195271 -1.6683215 2.4636955
-1.68038 -1.6767825 2.4799314
-1.64235 -1.688585 2.48927
1.389585 -1.6718349 2.4782851
2.2669201 -1.65354 2.4856701
-1.8168634 -1.6091133 2.4565032
-1.7751539 -1.6212089 2.4743891
-1.7286812 -1.6384225 2.4844925
1.39696 -1.64002 2.4600301
1.4171671 -1.6227057 2.4692743
2.2857299 -1.6323099 2.46943
2.31954 -1.6134033 2.4732182
-1.90916 -1.5598832 2.4623935
-1.8683901 -1.5619128 2.4744515
-1.8258709 -1.5816501 2.480036
-1.78572 -1.59264 2.49334
1.4245666 -1.5715699 2.4784701
2.2973399 -1.5847 2.49213
2.3354802 -1.5717726 2.47612
2.3626299 -1.55014 2.4576001
-1.957315 -1.5219276 2.4582748
-1.923239 -1.5264511 2.4783201
-1.88541 -1.5355167 2.4925299
1.4376419 -1.523702 2.47613
1.45418 -1.5046999 2.45872
2.3633018 -1.5219268 2.4781315
-2.0620699 -1.45883 2.4557099
-2.0240114 -1.4690237 2.4643302
-1.9783491 -1.4817021 2.481277
-1.9377333 -1.4931833 2.4943867
1.4489601 -1.4791939 2.4760818
1.4602933 -1.4573334 2.4698467
2.3811471 -1.4760929 2.4778743
-2.15715 -1.40704 2.45224
-2.11848 -1.4150101 2.46347
-2.0723729 -1.4243971 2.4794698
-2.0323949 -1.4402275 2.4857724
1.4729058 -1.4236058 2.4729314
2.3927801 -1.44829 2.4763501
2.4099066 -1.4235716 2.4753733
-2.2091799 -1.3514099 2.4667401
-2.1777058 -1.3724079 2.469538
-2.1345017 -1.3828901 2.4844999
1.4865725 -1.3843951 2.4809973
1.507425 -1.3714633 2.470685
2.4298699 -1.3767041 2.4738159
-2.2714601 -1.3158261 2.458976
-2.2220945 -1.32249 2.479769
-2.188025 -1.3290401 2.4950099
1.5244272 -1.3266257 2.4694486
2.4444265 -1.3326901 2.4905531
2.4560525 -1.3235025 2.4668574
-2.3674867 -1.26358 2.45895
-2.3228121 -1.273577 2.47212
-2.2800965 -1.287295 2.4802835
-2.2444301 -1.2943 2.4888699
1.5399361 -1.28652 2.4765801
1.5550066 -1.26381 2.4679935
2.4743099 -1.27944 2.4766834
-2.4213798 -1.2117814 2.4651301
-2.3751211 -1.2304487 2.47539
-2.33886 -1.242425 2.488405
1.5636474 -1.2209954 2.4758937
1.71182 -1.24828 2.45994
2.491986 -1.2314841 2.4760818
2.5079899 -1.2104599 2.46702
-2.5185869 -1.1685034 2.4559898
-2.4751456 -1.1721356 2.4764328
-2.4347572 -1.1852599 2.4860926
-2.37994 -1.1984451 2.492805
1.5883558 -1.1778044 2.4783816
1.6213226 -1.160735 2.4633775
1.6726841 -1.164948 2.4733138
2.5151384 -1.1780933 2.4766436
-2.6029201 -1.10791 2.4578099
-2.5683761 -1.117542 2.465646
-2.529443 -1.1277177 2.4819677
-2.4876235 -1.1418567 2.4909432
1.6208099 -1.1377728 2.4799526
1.6628549 -1.139605 2.4863701
2.5369067 -1.1281201 2.4765832
-2.6702425 -1.0587126 2.4612951
-2.6275163 -1.0756049 2.4717226
-2.5777369 -1.0811716 2.489655
2.5432301 -1.0952749 2.484515
2.55971 -1.074538 2.474792
-2.7648349 -1.012205 2.457675
-2.72136 -1.02396 2.4648659
-2.6786969 -1.029055 2.4817934
-2.64678 -1.03581 2.49699
2.5807614 -1.0267657 2.4782672
-2.8139501 -0.95838046 2.4605451
-2.7757986 -0.98099846 2.4712672
-2.7288873 -0.98593426 2.4903774
-2.6947999 -0.99106503 2.4996099
2.593395 -0.97915941 2.4821117
2.6008899 -0.95608699 2.4501801
-2.87005 -0.90336299 2.4526601
-2.8285365 -0.9206987 2.4737327
-2.7819998 -0.9438343 2.4895298
2.5971899 -0.94431299 2.48103
2.60759 -0.92097753 2.4728484
-2.9026501 -0.85678202 2.46472
-2.8767033 -0.87006396 2.4781415
2.6277399 -0.87804681 2.4749482
-3.01843 -0.80086398 2.4570999
-2.974762 -0.82774764 2.4625962
-2.9290476 -0.83612823 2.4788098
-2.89327 -0.84182298 2.4907999
2.6410227 -0.83729029 2.4789951
2.6570299 -0.81686735 2.4646132
-3.0922101 -0.762501 2.4987299
-3.0336375 -0.78297681 2.4749975
-2.9902151 -0.79150349 2.482615
2.6651733 -0.77981728 2.4770017
-3.0705566 -0.72186834 2.4897699
2.6815815 -0.72993231 2.4745567
2.7006099 -0.70094502 2.4946899
2.7115219 -0.67301917 2.4706252
2.7236664 -0.6267885 2.4765666
2.7399516 -0.57893485 2.4830472
2.7563 -0.55833149 2.4697099
2.7671857 -0.5247069 2.474757
2.7868376 -0.48491126 2.4722326
2.80142 -0.45175701 2.4678049
2.810405 -0.42316151 2.4723101
2.8282166 -0.36926416 2.4723668
2.8408668 -0.33118835 2.4828
2.8581951 -0.31556651 2.4669099
2.8761551 -0.270091 2.4716225
2.8879566 -0.23143333 2.4824436
2.9022701 -0.220347 2.47527
2.9094303 -0.16875301 2.4540901
2.9294586 -0.11872829 2.4733014
2.94859 -0.0851776 2.49069
2.9685752 -0.065127485 2.471755
1.78624 -0.0133963 2.4995301
1.8068 -0.027512901 2.4999101
2.9811172 -0.025126724 2.4724474
1.5348283 0.029612502 2.4851384
1.57332 0.027489498 2.4799914
1.6266037 0.025209147 2.4763174
1.6737124 0.017659586 2.4780562
1.723515 0.0098313242 2.490025
1.768865 0.00061743252 2.4891701
2.9926403 0.0064644143 2.48733
3.0126674 0.026623774 2.46698
-1.1524 0.089563601 2.4997201
-1.13699 0.089350604 2.4983301
1.542235 0.06077195 2.472805
1.5748433 0.076785713 2.47209
1.6145121 0.06247092 2.455806
3.0298347 0.070270717 2.4803264
-1.1571884 0.12564534 2.4981115
-1.1207631 0.1244506 2.4936271
-1.07962 0.12393 2.49582
1.59516 0.109304 2.49825
3.0637581 0.12307301 2.4739749
-1.15148 0.153001 2.49528
-1.1196724 0.16340412 2.4935064
-1.0884466 0.15608467 2.4959567
3.0750399 0.1725554 2.4773343
3.11643 0.19461 2.4623599
3.09899 0.212271 2.48089
3.1166739 0.23396559 2.4730041
3.1290026 0.27583975 2.4824951
3.13592 0.30225399 2.4681001
3.1524549 0.3305935 2.4779701
3.1812401 0.37860131 2.4946368
3.1921949 0.42502999 2.4964352
3.1937101 0.45231399 2.4930999
3.1965401 0.52500898 2.4814501
3.2206099 0.54716903 2.4962001
3.2379251 0.623326 2.4916949
3.05036 1.04887 2.4972899
2.2978899 1.08884 2.4991
2.3311348 1.0930851 2.4910901
2.36917 1.09948 2.4876201
2.40362 1.0915999 2.4999499
2.522325 1.0948 2.49332
2.5717502 1.093295 2.4851999
2.6332202 1.09657 2.4871399
2.6805699 1.0886101 2.4921701
2.7253234 1.0893832 2.4845533
2.8167701 1.0945151 2.482585
2.8741701 1.0889601 2.4913001
2.9286766 1.0923767 2.4854467
2.97209 1.08775 2.4815199
3.03543 1.0738699 2.49195
3.0606999 1.0886199 2.49068
3.1416099 1.06739 2.49507
1.8194666 1.1424099 2.4923601
1.879215 1.14305 2.4930849
1.916225 1.1395824 2.485745
1.9758472 1.1324857 2.4914842
2.0214233 1.1334583 2.4810717
2.0734324 1.1284876 2.4799888
2.1239269 1.1303015 2.4761543
2.1730814 1.1267164 2.480155
2.2232144 1.1244444 2.4732056
2.2756886 1.1217399 2.4753561
2.32002 1.11736 2.471972
2.3774941 1.118112 2.4719341
2.423614 1.1259561 2.467
2.4701016 1.1141334 2.4799266
2.5124767 1.1112733 2.4710934
2.57546 1.112922 2.4663999
2.62502 1.1199 2.4646165
2.6792066 1.1139432 2.47089
2.7207849 1.1122 2.4605951
2.7783952 1.103575 2.4737301
2.8329632 1.1240367 2.45944
2.86763 1.11265 2.4758449
2.9140151 1.1202974 2.4658325
2.9586349 1.109375 2.4593849
3.0548999 1.10462 2.4779601
1.3799649 1.198235 2.4953051
1.4215751 1.189405 2.4952102
1.4760262 1.1910379 2.4905162
1.5267967 1.1909432 2.4912999
1.5801439 1.1846588 2.4858587
1.6249788 1.1801637 2.4838362
1.6740067 1.1778166 2.4835691
1.7235928 1.1803654 2.4774568
1.7751561 1.1759219 2.4744184
1.8255278 1.1706545 2.4726024
1.8737543 1.1676228 2.4679501
1.9253817 1.1625617 2.463517
1.9721226 1.1607651 2.46366
2.0245132 1.1562866 2.4606433
2.07657 1.153735 2.4548399
2.1574399 1.15268 2.4537001
0.98146802 1.24775 2.4994299
1.0248233 1.2463967 2.4938867
1.077235 1.2428526 2.4917901
1.1286763 1.2384162 2.4905286
1.1741272 1.2357644 2.4871116
1.22452 1.2330378 2.4878879
1.2695509 1.2287217 2.4835827
1.3236547 1.2291328 2.4790981
1.3732439 1.2271831 2.4729524
1.4233364 1.2198646 2.4731145
1.4685038 1.2180188 2.4669111
1.5199856 1.2140868 2.4684477
1.5710182 1.2132033 2.4613934
1.6281059 1.208472 2.4582138
1.66774 1.204365 2.4523301
0.62069452 1.29814 2.4982848
0.69084096 1.2924633 2.4930899
0.72724575 1.288415 2.4953649
0.77164346 1.2868775 2.4893298
0.82781249 1.2872179 2.485055
0.87581676 1.2822691 2.4818482
0.92510581 1.2796807 2.476846
0.97670466 1.2726842 2.4772408
1.0223583 1.2732199 2.4675758
1.0732672 1.2692528 2.4693394
1.1234558 1.2665027 2.4653046
1.1708543 1.2615072 2.46191
1.2183516 1.2611867 2.4607067
1.2792751 1.2575601 2.4582932
1.3298534 1.25455 2.4547367
0.34646901 1.34066 2.4999599
0.3792395 1.3403325 2.4953051
0.42555937 1.3347899 2.4938583
0.47386822 1.3328122 2.487901
0.52559412 1.3324407 2.4840677
0.57683331 1.3259995 2.4793994
0.62453842 1.3233708 2.4767914
0.67076504 1.3230062 2.4727566
0.72555506 1.3163337 2.469485
0.77573824 1.315719 2.4647758
0.82421714 1.31214 2.4607422
0.87293202 1.3085901 2.4560068
0.93850201 1.3027799 2.457485
0.959557 1.30399 2.4532199
-0.02137343 1.3927699 2.4967201
0.025856715 1.387526 2.492974
0.081292048 1.3934065 2.4866183
0.13092791 1.3881619 2.4824345
0.17607901 1.3819064 2.4821391
0.22054662 1.3794394 2.478605
0.27276745 1.3725362 2.4764535
0.32391685 1.3679667 2.4733815
0.37632439 1.3657333 2.4703867
0.42635202 1.3628609 2.4672298
0.46933678 1.358639 2.4659212
0.5217129 1.3577656 2.4583087
0.57585925 1.3520925 2.4549801
-0.40850499 1.44182 2.4990699
-0.36957216 1.4417666 2.4938166
-0.32319599 1.4431975 2.4890749
-0.27878144 1.4387871 2.4908185
-0.22405547 1.4375045 2.4830163
-0.17077848 1.4313657 2.4812419
-0.12265094 1.4242592 2.4813862
-0.076322362 1.4273146 2.4751816
-0.027779317 1.4210224 2.4735463
0.024558175 1.4189951 2.4698331
0.074123226 1.4132169 2.4674268
0.12868588 1.41389 2.45786
0.17427766 1.4073366 2.4583766
0.21322466 1.4064366 2.4541132
-0.77009296 1.497315 2.4988351
-0.73287565 1.49132 2.4971368
-0.67449325 1.4933575 2.4908323
-0.62097269 1.4861929 2.4878891
-0.5736202 1.4818423 2.4833767
-0.52402091 1.4815264 2.4766328
-0.47553658 1.4764749 2.4757659
-0.42771214 1.4726667 2.4761224
-0.37609035 1.4718019 2.4705479
-0.32564011 1.4694177 2.4682877
-0.28035909 1.4640328 2.4661164
-0.22502649 1.4635264 2.4598675
-0.17195824 1.4560701 2.4576726
-0.12577833 1.4527868 2.4542301
-0.099551901 1.45182 2.45349
-1.10211 1.5498199 2.4938099
-1.071365 1.546345 2.4981999
-1.018455 1.5429826 2.4933777
-0.97751886 1.536404 2.4913781
-0.92721319 1.5398684 2.4841201
-0.8730427 1.5343802 2.4806991
-0.82179826 1.5332824 2.4736316
-0.77532226 1.5238515 2.47261
-0.72455031 1.5182987 2.4725101
-0.67480111 1.5200861 2.4656997
-0.62719178 1.5134799 2.4642165
-0.57127285 1.5095668 2.4569283
-0.47388831 1.5049766 2.4511766
-0.41268152 1.5001099 2.45187
-1.419405 1.597525 2.49069
-1.3774467 1.5915966 2.4979498
-1.3229201 1.5937834 2.4899035
-1.2683049 1.587495 2.4832234
-1.2223572 1.5777615 2.4859812
-1.1751345 1.5790181 2.4746835
-1.1286474 1.5747849 2.4769819
-1.0745733 1.5739166 2.4699683
-1.0226891 1.570969 2.4667056
-0.97037274 1.5631812 2.4641426
-0.92321587 1.5611134 2.4592884
-0.88165277 1.5584 2.4591
-0.84592199 1.5533201 2.4526899
-1.80091 1.6388299 2.4987299
-1.7607501 1.64598 2.4950199
-1.7177225 1.6383024 2.4921126
-1.6694651 1.6402625 2.4820776
-1.6245899 1.6334549 2.481735
-1.5767512 1.6306955 2.481179
-1.523371 1.6251311 2.4837923
-1.4751275 1.62859 2.4749138
-1.429082 1.6251581 2.4742069
-1.3703859 1.617502 2.471736
-1.32197 1.6179187 2.4697151
-1.2760249 1.6190516 2.457875
-1.234632 1.608086 2.4627481
-1.19591 1.60435 2.4577501
-2.0775399 1.6904 2.4922349
-2.03038 1.6862276 2.4896724
-1.9712143 1.6799971 2.4897728
-1.9163951 1.6808767 2.4813135
-1.8715929 1.6792901 2.4740558
-1.8290067 1.6745316 2.4763551
-1.7766246 1.6705009 2.4713454
-1.724048 1.6656901 2.467634
-1.6806749 1.6592776 2.465965
