ply
format ascii 1.0
comment PCL generated
element vertex 1550
property float x
property float y
property float z
element camera 0
property float view_px
property float view_py
property float view_pz
property float x_axisx
property float x_axisy
property float x_axisz
property float y_axisx
property float y_axisy
property float y_axisz
property float z_axisx
property float z_axisy
property float z_axisz
property float focal
property float scalex
property float scaley
property float centerx
property float centery
property int viewportx
property int viewporty
property float k1
property float k2
end_header
1.4021699 -0.51916951 3.0088501
1.54775 -0.50278598 3.0032101
1.5868641 -0.51992261 3.0169263
1.6272501 -0.52689981 3.0257602
1.6758966 -0.52548569 3.0323703
2.6341383 -0.52961385 3.0235665
-2.718328 -0.46490103 3.0169621
-2.6726077 -0.47439325 3.032505
-2.6290526 -0.48595026 3.0393353
1.27289 -0.46307099 3.04882
1.3212433 -0.46374166 3.0371635
1.3772912 -0.479956 3.0346236
1.4064176 -0.48051798 3.0134025
1.54785 -0.48708501 3.0055301
1.5804501 -0.48196223 3.0134325
1.61265 -0.48553967 3.0062435
2.64256 -0.494634 3.03842
2.661025 -0.47545552 3.018935
-2.7645249 -0.41399327 3.0174799
-2.72995 -0.42872015 3.0331533
1.2477601 -0.42884001 3.0341899
1.2700861 -0.43017387 3.0245786
1.332188 -0.43956 3.01583
1.3649234 -0.44052365 3.0033634
2.6783347 -0.417211 3.0287125
-2.8531799 -0.35251299 3.00298
-2.8184583 -0.36476001 3.0257185
-2.78407 -0.38246736 3.0367434
1.265205 -0.3683925 3.0193732
2.6845467 -0.37872335 3.0255699
2.7040401 -0.365789 3.00301
-2.8670301 -0.321513 3.02038
-2.837605 -0.33534998 3.0379448
1.2804959 -0.31735361 3.0230222
2.7087667 -0.33081582 3.0289266
-2.9672151 -0.26393101 3.0122299
-2.925765 -0.27868199 3.0241134
-2.8782849 -0.29464102 3.0344324
1.2972599 -0.27616835 3.0409801
1.30468 -0.27447334 3.0171731
2.7334869 -0.276171 3.0266399
-3.0069098 -0.2174855 3.00529
-2.9666634 -0.22582 3.0084431
-2.9416101 -0.245232 3.03723
1.3237213 -0.22540425 3.0236528
2.7485099 -0.239768 3.0286801
2.7620475 -0.21232951 3.028105
-3.13538 -0.153667 3.0011499
-3.0717649 -0.162471 3.0224099
-3.030385 -0.18990099 3.013515
-2.8847499 -0.168401 3.0487499
1.34461 -0.1804976 3.0250981
1.3554 -0.16807501 3.0178268
2.7836564 -0.17255799 3.02512
-3.21889 -0.116693 3.0146899
-3.1765034 -0.12255766 3.0192366
-3.1322474 -0.13017701 3.0323699
-3.0759349 -0.1246125 3.0446351
-3.0070701 -0.132082 3.0092199
1.3685666 -0.12253699 3.0290234
2.7927451 -0.1481165 3.030355
2.8092134 -0.11713 3.0205967
-3.32461 -0.058790699 3.0123701
-3.2695899 -0.063441724 3.0293951
-3.224025 -0.084338211 3.0314817
-3.17959 -0.097091898 3.04529
1.3754021 -0.076263778 3.0255058
2.8280401 -0.073931165 3.0246832
-3.40117 -0.019274 3.01351
-3.3673301 -0.019191699 3.01737
-3.3272624 -0.029075202 3.0319948
-3.2743235 -0.032237697 3.04544
-1.8917999 -0.032003835 3.0432398
1.3792087 -0.032066263 3.0295548
2.8459167 -0.024194667 3.02724
2.85165 -0.036594499 3.0102601
-3.4584651 0.041307051 3.0124049
-3.4223413 0.021015897 3.0264902
-3.3797867 0.0075439145 3.03987
-3.3271699 0.00081683497 3.0490601
-2.68418 0.0369302 3.0000899
-1.9811701 0.0173069 3.04669
-1.9272432 0.00073445262 3.0310633
1.3854266 0.0058244858 3.0219266
1.408885 0.0393093 3.020175
2.8489499 0.0383959 3.0418701
2.8638377 0.024239823 3.0145848
-3.4821424 0.072171323 3.0325799
-3.42995 0.061586302 3.03861
-2.6652551 0.082355797 3.0275149
-1.7832 0.097451098 3.0361199
1.42347 0.083312005 3.0289867
2.8808899 0.076120414 3.0232384
-3.6224849 0.135885 3.0283251
-3.5922451 0.119884 3.0299425
-2.6373577 0.131539 3.0192177
-1.96183 0.14837299 3.01403
-1.91935 0.14218201 3.01598
-1.8749634 0.13625067 3.0252151
-1.8251399 0.1301575 3.0301151
-1.7729676 0.13107488 3.0219574
-1.726916 0.138446 3.0359721
-1.6713359 0.1346492 3.043726
-1.63069 0.127829 3.04864
-1.01502 0.148459 3.00526
1.4251925 0.11259275 3.0145874
1.4575651 0.1165605 3.00542
2.905395 0.1237835 3.0303302
-3.6380301 0.167822 3.04018
-2.6268001 0.18344587 3.0256076
-2.0247121 0.18662742 3.026562
-1.9775532 0.17066967 3.0145566
-1.925395 0.163766 3.0076199
-1.8837099 0.162974 3.0096951
-1.82714 0.16155 3.0034101
-1.7675176 0.16449574 3.0070002
-1.7352233 0.17113934 3.0209434
-1.06269 0.193408 3.00108
-1.0293101 0.18463972 3.0051343
-0.97785932 0.188317 3.0203769
1.43092 0.17160976 3.0342276
1.46399 0.155874 3.0172601
2.9210517 0.17147051 3.0274384
-2.6371667 0.223839 3.0285199
-2.2242799 0.24018849 3.03686
-2.16394 0.229737 3.0376601
-2.1225076 0.2280165 3.0293074
-2.0781033 0.21815 3.0274098
-2.0239766 0.21537833 3.0036438
-1.0329137 0.22094111 3.0309601
-0.99186099 0.208913 3.0295601
1.4909101 0.20397601 3.03193
2.9414968 0.22918166 3.0281534
2.952405 0.2380145 3.0041699
-2.603375 0.27016002 3.0139949
-2.3753901 0.28891149 3.0331049
-2.3274152 0.27787134 3.0273983
-2.2618799 0.26625049 3.0192451
-2.2189825 0.26419476 3.011255
-2.18045 0.26261601 3.0083199
-2.1345549 0.25272501 3.0113699
-2.0998199 0.25157499 3.0120101
-1.11772 0.29003498 3.011405
-1.074739 0.27802134 3.0198612
-1.0465833 0.27103066 3.0439465
1.5129499 0.25194299 3.0355201
2.9598074 0.27756724 3.0264149
-2.6209199 0.30914101 3.0482299
-2.47649 0.33803499 3.0395
-2.4438801 0.33598301 3.0325699
-1.970705 0.34141052 3.0493851
-1.3101968 0.33720335 3.0212765
-1.21626 0.33656099 3.0453701
-1.1697267 0.32748452 3.0185401
-1.123595 0.3278456 3.0152621
-1.075129 0.3256512 3.0318136
-1.048985 0.31682801 3.04756
1.60479 0.349006 3.0193901
2.9786155 0.33175585 3.0238769
-2.8252699 0.38997701 3.0029099
-2.05809 0.37546998 3.007905
-2.0268927 0.36995688 3.0340838
-1.9853199 0.37053099 3.0485818
-1.3084866 0.35991597 3.0424869
-1.27503 0.38429382 3.0398128
-1.1720371 0.37640914 3.0405028
-1.1248789 0.37732214 3.0384443
-1.073445 0.36640751 3.0426624
1.5831711 0.37324849 3.0315399
2.9834602 0.37235764 3.0367401
-2.9186599 0.4274255 3.0483251
-2.86887 0.43363801 3.0453
-2.828985 0.44762349 3.017375
-2.0669799 0.42226401 3.0160019
-2.0322442 0.41387042 3.0333059
-1.2690567 0.41520867 3.0402467
-1.15204 0.41174701 3.0479801
-1.13562 0.41130799 3.04916
1.5842882 0.42905316 3.0276287
2.9873223 0.42872849 3.0318048
3.00383 0.43241951 3.0044498
-3.2669301 0.457977 3.0362501
-3.24033 0.457008 3.0453401
-2.9299901 0.45614699 3.04024
-2.8901451 0.46226901 3.03105
-2.8174701 0.46434802 3.00295
-2.1200199 0.488446 3.0005801
-2.07828 0.47169557 3.0268171
1.5919633 0.4675357 3.0315502
1.6039524 0.48057652 3.0122025
2.984865 0.47235599 3.0328774
3.0118399 0.47202551 3.0078549
-3.326355 0.5423615 3.0303149
-3.2151 0.53544003 3.04603
-3.12972 0.52767599 3.0318601
-2.1627169 0.52779633 3.0169303
-2.1283786 0.52142173 3.0252874
-2.0947299 0.50931001 3.04637
1.5921 0.52944797 3.0488501
1.6082916 0.52685905 3.0235417
2.8376 0.54920053 3.0416999
2.9336979 0.5217396 3.0398278
2.9778633 0.5192188 3.0194252
3.0106101 0.500664 3.0029199
-3.28614 0.57717001 3.0052299
-3.2167101 0.55214697 3.0111499
-3.17576 0.56801301 3.00352
-3.14187 0.56541097 3.0047801
-2.1679299 0.56605297 3.0416801
1.6143135 0.57781434 3.0337334
2.4208 0.59042001 3.0485201
2.53193 0.599729 3.04708
2.69718 0.59385598 3.03492
2.73066 0.5877685 3.0392451
2.77052 0.58273286 3.0248559
2.8208525 0.57413399 3.0194724
2.8766499 0.56920475 3.01951
2.9192703 0.55958903 3.0167401
2.95509 0.55517298 3.00823
1.46158 0.64951599 3.03704
1.6333483 0.63339502 3.029505
2.23579 0.63974202 3.0019801
2.325222 0.62655306 3.0285699
2.37146 0.62331235 3.0275521
2.4191782 0.62336451 3.0232351
2.4719083 0.62769049 3.0197632
2.5254085 0.63206112 3.0158417
2.5787265 0.61956984 3.0248718
2.6246002 0.61176103 3.0287235
2.6624 0.608693 3.02707
2.7178102 0.61744052 3.0196049
2.77035 0.61621302 3.0092499
1.1282099 0.69299698 3.0429599
1.19077 0.698057 3.04846
1.2304966 0.69857866 3.0382032
1.277025 0.68722349 3.0464749
1.3215933 0.69008607 3.0455201
1.3774741 0.68663621 3.0410039
1.4309355 0.67819518 3.0374055
1.4716439 0.68134391 3.0175476
1.5297658 0.68076259 3.0192199
1.573175 0.66778255 3.0469952
1.6195332 0.664285 3.0228469
2.34743 0.65147001 3.01179
0.59286404 0.74535847 3.0443048
0.6310727 0.74645764 3.0428169
0.67710596 0.74786067 3.0408733
0.72544378 0.74234515 3.0351982
0.77226782 0.741247 3.0346541
0.82506973 0.73818976 3.0374699
0.88098973 0.73331147 3.0381167
0.9275378 0.7309944 3.0317912
0.97578347 0.72877336 3.0299556
1.0226079 0.72771412 3.0270991
1.0724699 0.72379041 3.0269973
1.1219749 0.72734332 3.0188105
1.174101 0.72349864 3.0220423
1.2228433 0.72501332 3.0133867
1.2762812 0.71662825 3.0225573
1.32152 0.71513903 3.0190864
1.3723458 0.71532583 3.0141885
1.4199699 0.70784235 3.0166533
1.459625 0.70799053 3.0018249
0.12980551 0.79729849 3.0471849
0.18143301 0.79722565 3.0446999
0.225549 0.7967003 3.0402699
0.28234169 0.79257137 3.0404615
0.32917133 0.79032373 3.0380251
0.37534529 0.78664815 3.0323958
0.42545983 0.78348225 3.03211
0.4778215 0.78159207 3.030709
0.52244753 0.77748185 3.0271051
0.5749948 0.7784586 3.0233943
0.62764382 0.7720449 3.0204802
0.67299229 0.77295959 3.0164068
0.72632623 0.77066153 3.0129874
0.77413994 0.76151627 3.0234544
0.8285892 0.75706387 3.0167835
0.87340581 0.75802678 3.0173779
0.92213202 0.75251931 3.0090501
0.97073704 0.75897276 3.0075748
-0.217788 0.84533203 3.0488901
-0.173234 0.84480101 3.0490301
-0.1286165 0.84335053 3.04532
-0.075295135 0.83941185 3.0436082
-0.022093959 0.83436203 3.037096
0.029423494 0.83148766 3.0321448
0.078003839 0.82476085 3.0351722
0.12181167 0.82975173 3.023845
0.17274387 0.82853734 3.0229352
0.2256916 0.82416582 3.015404
0.27579758 0.82204872 3.0156152
0.32712266 0.81470537 3.0129602
0.36804318 0.81285274 3.0080261
0.41504702 0.8071577 3.0049698
0.467814 0.80961001 3.008075
-0.46620899 0.89757049 3.0449901
-0.42436925 0.89225101 3.0449648
-0.38000917 0.8889575 3.0425599
-0.32196733 0.88376647 3.0387383
-0.27412656 0.88293225 3.0276971
-0.22335795 0.87562901 3.0226667
-0.17201801 0.87570649 3.0199606
-0.1291146 0.86958301 3.0164752
-0.076256372 0.8662805 3.0170357
-0.02305419 0.86371827 3.0154202
0.025326509 0.85782307 3.0110955
0.07395228 0.85319126 3.0116177
0.180237 0.85035998 3.0115399
-2.93015 0.94596052 3.0413198
-0.66741949 0.93734646 3.0424352
-0.63077396 0.94352138 3.0366621
-0.57267588 0.9355908 3.0333834
-0.52412307 0.92916888 3.0316973
-0.4749693 0.92714036 3.025353
-0.42429167 0.92378044 3.019877
-0.37855053 0.91316354 3.0194449
-0.32425785 0.90910465 3.013433
-0.27821922 0.90782845 3.0111041
-3.05163 0.98279101 3.0416
-3.0214202 0.99026704 3.0308235
-2.9746301 0.97898769 3.0414765
-0.95136201 0.98817199 3.0439
-0.9181757 0.99074167 3.0420697
-0.8716737 0.98681939 3.034724
-0.82521611 0.98174793 3.0299721
-0.77320564 0.98303521 3.0250986
-0.72018909 0.97296828 3.0240936
-0.67301923 0.96476704 3.0250134
-0.62385637 0.96613783 3.0113382
-0.58155 0.96047705 3.0125628
-0.53006572 0.95139432 3.0034599
-3.21135 1.0423 3.01632
-3.1598001 1.03196 3.0016201
-3.1178348 1.0228851 3.013355
-3.0747032 1.0276834 3.0257435
-3.0319901 1.02206 3.0464101
-1.2605 1.0454201 3.03234
-1.2226825 1.03952 3.039315
-1.1705966 1.0357633 3.0294011
-1.1238444 1.0318687 3.0307443
-1.0746957 1.0297357 3.0300632
-1.0264857 1.0222223 3.0267923
-0.97813761 1.0233508 3.0235
-0.92973375 1.019925 3.017365
-0.8819828 1.0128239 3.0112381
-0.84666997 1.00458 3.0139599
-3.1665165 1.0717601 3.022167
-3.1262798 1.0870349 3.0417275
-1.567165 1.0908599 3.0399299
-1.533355 1.0912426 3.04022
-1.4715641 1.0864221 3.034096
-1.424346 1.089728 3.0283761
-1.3719083 1.0769149 3.0307267
-1.3250099 1.0737379 3.0239851
-1.2769514 1.0662886 3.0227959
-1.223276 1.059984 3.0138218
-1.1739875 1.0631675 3.0069025
-1.1125 1.05665 3.00494
-1.0785 1.0537033 3.0054867
-3.4269199 1.12041 3.0287399
-3.2592399 1.13223 3.0056
-3.2231925 1.1200526 3.0262752
-3.1705301 1.10207 3.0305099
-1.7662051 1.143755 3.038465
-1.71619 1.1355975 3.0343502
-1.6699885 1.1296958 3.0354216
-1.6231781 1.1276201 3.0292418
-1.5780079 1.119416 3.0294862
-1.5212216 1.1139585 3.0174751
-1.4738632 1.1095001 3.0124865
-1.4215499 1.10762 3.0077631
-1.3749399 1.102365 3.0084848
-3.5097101 1.1548899 3.02351
-3.3078399 1.1727149 3.0070851
-3.2682123 1.1693826 3.022645
-3.23086 1.166795 3.03968
-2.1815 1.188885 3.0433049
-2.1283176 1.1877874 3.0353525
-2.0784366 1.1839566 3.0383968
-2.0242367 1.1801833 3.0326269
-1.9746841 1.1730071 3.0341299
-1.9243357 1.1804657 3.0216343
-1.8748014 1.176253 3.0237944
-1.8227819 1.1622339 3.0240021
-1.7722499 1.1635621 3.0158439
-1.7230475 1.1610374 3.0096724
-1.67014 1.15731 3.0068951
-3.3650951 1.2410951 3.02634
-3.32903 1.2180326 3.0246775
-3.27934 1.20769 3.0416601
-2.4120333 1.23903 3.0390234
-2.3673902 1.23923 3.0434499
-2.3202047 1.23769 3.0311699
-2.2722075 1.2376876 3.0253325
-2.2227466 1.22765 3.0192318
-2.1712425 1.2097775 3.0205476
-2.1172051 1.207875 3.0111251
-2.0683899 1.2072433 3.0144131
-2.01916 1.208445 3.00226
-1.9793401 1.2051251 3.0125651
-3.45612 1.2974499 3.0044999
-3.4207098 1.2875566 3.0237567
-3.3746202 1.27361 3.0324099
-2.7720649 1.29135 3.0488949
-2.6805849 1.294205 3.0433149
-2.61218 1.28404 3.01318
-2.5768325 1.2803676 3.0230775
-2.5237942 1.276988 3.02321
-2.4723165 1.2740833 3.0190346
-2.4294367 1.2691067 3.0165203
-2.3904765 1.2645733 3.0248301
-2.30757 1.25793 3.00583
-2.2834201 1.25449 3.0084901
-3.51244 1.3319 3.0092599
-3.4652798 1.3342167 3.0273964
-3.4290199 1.33446 3.0427649
-2.9721198 1.33499 3.0352101
-2.91485 1.33662 3.04142
-2.870008 1.3249 3.0285161
-2.8261323 1.3276925 3.029845
-2.7744641 1.3265001 3.0219378
-2.7288241 1.323018 3.0250118
-2.67941 1.317535 3.01563
-2.6428399 1.3087699 3.0081799
-2.58023 1.30546 3.0008299
-3.5164199 1.3546 3.0052299
-3.4844933 1.3840266 3.0296566
-3.428715 1.38054 3.04653
-3.3017299 1.38952 3.04636
-3.2265 1.385245 3.0430701
-3.172385 1.3852 3.0404902
-3.1221623 1.3792775 3.0336552
-3.0648651 1.3743701 3.03617
-3.0258732 1.3742234 3.02266
-2.9803817 1.3806779 3.014976
-2.9484601 1.36281 3.0355501
-3.55758 1.43477 3.01649
-3.5321133 1.4159368 3.0256202
-3.4776199 1.4406199 3.01565
-3.4310801 1.4187967 3.0290935
-3.3733048 1.42093 3.0241101
-3.3240349 1.4214001 3.020745
-3.29286 1.4168451 3.0276752
-3.229085 1.422965 3.0141649
-3.1875801 1.40786 3.03087
-3.0911701 1.40289 3.0004599
-3.5221548 1.461005 3.0121701
-3.4702899 1.45876 3.0012801
-3.43698 1.45351 3.0093999
0.344125 -2.40274 3.0512199
0.38051835 -2.4091699 3.0556867
0.42693901 -2.4123302 3.0717025
0.46782297 -2.4100859 3.0670943
0.28390232 -2.36359 3.0629835
0.32866138 -2.3705013 3.0752466
0.37514567 -2.383795 3.0807898
0.40944749 -2.3882051 3.0944052
0.47249401 -2.3913467 3.0907333
0.51999962 -2.3694022 3.076088
0.22661124 -2.3169899 3.0685952
0.26927203 -2.3325772 3.0788801
0.308126 -2.34657 3.08442
0.54177201 -2.34672 3.09161
0.57004464 -2.3208919 3.0732801
0.14040133 -2.2604966 3.06007
0.17954752 -2.2794974 3.0682011
0.21776134 -2.2851434 3.0893466
0.253602 -2.29846 3.0934801
0.58913946 -2.2795548 3.08024
0.60874867 -2.26228 3.0586631
0.079795912 -2.2114263 3.0653801
0.12386815 -2.2324986 3.0794275
0.164326 -2.2447801 3.09464
0.61714619 -2.2236917 3.0792866
-0.0097073903 -2.1684101 3.0611401
0.024559608 -2.1755257 3.070919
0.069460824 -2.1868081 3.0860679
0.64212275 -2.1719351 3.0770376
-0.067483515 -2.1178319 3.0637698
-0.028966364 -2.1328499 3.0746174
0.0072929999 -2.1446099 3.09586
0.66159523 -2.1301799 3.0832701
-0.16146401 -2.0547099 3.0648401
-0.12396176 -2.0704024 3.0721912
-0.083393008 -2.0838518 3.0815499
-0.0439611 -2.0938699 3.0911
0.68267059 -2.0695999 3.0662961
-0.26039499 -2.00386 3.0518999
-0.2233585 -2.0130548 3.059505
-0.18008634 -2.0248442 3.0767312
-0.13961534 -2.0401967 3.0900366
0.69215298 -2.0366199 3.0782599
0.71255267 -2.023068 3.060082
-0.30905399 -1.9607199 3.0510299
-0.27499312 -1.971885 3.0666637
-0.23054971 -1.984727 3.0839069
0.72469598 -1.9693625 3.0737176
-0.37057325 -1.9104125 3.0620675
-0.32643998 -1.9315434 3.0735743
-0.28860664 -1.94408 3.0848267
0.74313641 -1.9273421 3.066906
-0.45485899 -1.86145 3.05264
-0.42167538 -1.8674088 3.0708139
-0.37772188 -1.8793412 3.0861735
-0.34267601 -1.89537 3.0845499
0.76387817 -1.8699459 3.076844
-0.55182099 -1.80555 3.0531499
-0.51580501 -1.8129126 3.0617599
-0.47422457 -1.8297001 3.0759559
-0.43569532 -1.8343501 3.0932834
0.77860564 -1.8281034 3.0835636
-0.600137 -1.75328 3.0639901
-0.56692022 -1.7727387 3.0713513
-0.52688247 -1.7861333 3.0838118
0.78464776 -1.77575 3.0738726
0.800776 -1.761265 3.0534451
-0.67431831 -1.7090801 3.0583565
-0.6241703 -1.7231282 3.0743952
-0.58104867 -1.7395034 3.09184
0.78964001 -1.7486 3.0902801
0.80509526 -1.7205551 3.0731101
-0.75965202 -1.66158 3.05441
-0.72362846 -1.6633635 3.0712817
-0.6830101 -1.6774709 3.079987
-0.64179897 -1.689235 3.0901952
0.81251848 -1.68543 3.06301
1.13857 -1.6605568 3.0543134
1.1783299 -1.66874 3.064158
1.2204285 -1.6661228 3.0655229
-0.81405401 -1.60739 3.0539498
-0.77615738 -1.6219738 3.0766082
-0.73711079 -1.636632 3.0882001
0.82858652 -1.635475 3.080245
1.0395401 -1.6106751 3.0573699
1.0782017 -1.6175851 3.0746098
1.1223913 -1.6296862 3.0779328
1.1667359 -1.6345079 3.09023
1.2397434 -1.63913 3.0906565
1.30592 -1.60176 3.06004
-0.90244001 -1.557 3.0511999
-0.86662632 -1.5715083 3.0626233
-0.82917905 -1.5794166 3.0782909
-0.79602897 -1.58734 3.0971
0.8370142 -1.57907 3.0806382
0.85177302 -1.568435 3.0592599
0.93642855 -1.5576351 3.0569448
0.98122793 -1.5703987 3.0723014
1.02265 -1.5846521 3.078706
1.0640725 -1.589625 3.09021
1.2277801 -1.5798249 3.0609751
1.28583 -1.56424 3.0731001
1.324702 -1.57372 3.0715537
-0.95825499 -1.5067451 3.05405
-0.92045313 -1.5239437 3.0741084
-0.87707889 -1.5373857 3.0860958
0.87634337 -1.5377777 3.0762186
0.92062151 -1.5259337 3.0764039
0.96999478 -1.5394574 3.0931726
1.286 -1.54766 3.0806899
1.33883 -1.533468 3.0748477
1.35186 -1.5123 3.0668399
-1.05022 -1.46206 3.0580599
-1.0142175 -1.470955 3.0663688
-0.97270268 -1.478141 3.0804532
-0.94062197 -1.49289 3.0914149
0.88138032 -1.4811875 3.0934601
0.90198648 -1.489675 3.0861001
1.3589921 -1.4788979 3.0687959
-1.1197851 -1.4102033 3.0645034
-1.0733191 -1.42776 3.074784
-1.0291375 -1.44217 3.0836875
1.370658 -1.423352 3.071034
2.1870501 -1.4084899 3.09041
2.2163501 -1.42198 3.0511
-1.2153968 -1.3512665 3.0590534
-1.172452 -1.370342 3.0689609
-1.1286567 -1.3843211 3.0801954
-1.08763 -1.38691 3.0932901
1.3902349 -1.3744124 3.0832653
1.4065599 -1.357435 3.0699048
2.1428299 -1.39171 3.06426
2.17677 -1.38368 3.0827899
2.20818 -1.37366 3.0971701
-1.2665524 -1.3088375 3.0645201
-1.226561 -1.325161 3.0743351
-1.18241 -1.3350967 3.0915565
1.413344 -1.319288 3.0815861
-1.3641925 -1.2634751 3.0574999
-1.3182654 -1.2747957 3.0669587
-1.2764367 -1.2819617 3.0840652
-1.24084 -1.29557 3.0993099
1.4294714 -1.2751428 3.0744228
2.133805 -1.2814749 3.06932
-1.4578199 -1.208545 3.0621099
-1.4193444 -1.2168909 3.0684121
-1.3784856 -1.2306234 3.0820701
-1.3351234 -1.2421299 3.0895731
1.443302 -1.230324 3.0817342
1.457795 -1.2114 3.05797
-1.525052 -1.161166 3.063154
-1.478181 -1.1737729 3.075808
-1.4331442 -1.1812661 3.093658
1.4640424 -1.1677974 3.0755174
-1.6173767 -1.1096001 3.0570099
-1.5663716 -1.1204129 3.0716729
-1.5316616 -1.1314917 3.0854349
-1.49976 -1.14135 3.09095
1.4809126 -1.12269 3.0837374
2.06212 -1.1052901 3.06845
2.1621399 -1.125255 3.08759
2.2057099 -1.14244 3.0534401
2.2906952 -1.13105 3.0704899
2.3336926 -1.1228451 3.0692875
2.3574948 -1.11878 3.0573602
-1.7277 -1.05001 3.0515299
-1.6702037 -1.0686537 3.0637636
-1.6268582 -1.0756301 3.0827301
-1.5851201 -1.0918232 3.0920632
1.4913099 -1.08246 3.077208
1.5020299 -1.0757849 3.0682549
2.2989199 -1.08974 3.0952899
2.3626599 -1.0802726 3.0764
-1.7675126 -1.0078225 3.0598748
-1.7243663 -1.0230418 3.0742202
-1.6816938 -1.035704 3.0858378
1.34922 -1.00266 3.0867701
1.4213951 -1.046365 3.090405
1.4978234 -1.0318633 3.0713701
1.5154849 -1.02582 3.0583425
2.376018 -1.0313461 3.0791879
2.4118299 -1.0132625 3.0705073
-1.86166 -0.95888698 3.05124
-1.8185967 -0.96803802 3.0609982
-1.7770438 -0.9763034 3.0811324
-1.73953 -0.98997003 3.0905499
1.3224267 -0.97067809 3.0743849
1.3611 -0.977561 3.0543051
1.5179725 -0.981269 3.0546474
2.4324186 -0.97269905 3.0804744
-1.9114166 -0.91903996 3.0596569
-1.8729525 -0.92762399 3.0742314
-1.8326225 -0.94015497 3.0806625
1.28037 -0.91149998 3.0749526
1.3178929 -0.9273923 3.0740602
1.4775701 -0.93711501 3.0514901
2.4482 -0.93448001 3.08531
2.4586101 -0.93141729 3.0630567
-2.0142751 -0.85228205 3.0550351
-1.9719658 -0.86454731 3.0751457
-1.9291451 -0.88557118 3.0776198
-1.8897034 -0.89384907 3.0911267
1.278626 -0.86694622 3.0625901
1.3364249 -0.89169645 3.0606651
2.47594 -0.88256562 3.0762019
-2.0660441 -0.81287277 3.0622959
-2.0273957 -0.82441145 3.0744729
-1.9903535 -0.83254832 3.08797
1.289176 -0.82331085 3.0718019
2.4911101 -0.83261871 3.0748649
2.5097902 -0.81036025 3.0617034
-2.1507399 -0.759031 3.05234
-2.114336 -0.76864177 3.0668979
-2.0779059 -0.7797181 3.0805888
-2.032855 -0.7912305 3.0981801
1.2830299 -0.77401656 3.0758672
2.5209053 -0.77321833 3.0779734
-2.2093201 -0.71222353 3.058975
-2.1685567 -0.72754198 3.0672035
-2.1297333 -0.73285514 3.0854168
1.2915825 -0.73306376 3.0740075
1.30055 -0.70997101 3.07828
2.5379281 -0.73059422 3.080688
-2.2685075 -0.66905975 3.063355
-2.2258101 -0.68264639 3.0749612
-2.1857531 -0.69160503 3.0933836
1.3160579 -0.67824882 3.077914
2.5565233 -0.67968655 3.0814831
-2.3646419 -0.6119405 3.0654602
-2.3239775 -0.62198895 3.078305
-2.2781026 -0.63732332 3.0822542
-2.23965 -0.64891797 3.09635
1.3376484 -0.62986934 3.0729234
1.3542399 -0.61092502 3.0510299
2.580075 -0.62427562 3.0728486
-2.4569399 -0.56202447 3.05602
-2.4162931 -0.57429934 3.05896
-2.3694198 -0.57273132 3.0829201
1.2134149 -0.56831598 3.0838399
1.34622 -0.59866399 3.0767601
1.3651321 -0.57337779 3.0737579
1.7373149 -0.56532449 3.07054
1.7659034 -0.57658899 3.0765467
2.59341 -0.58985198 3.08898
2.6094923 -0.56524003 3.0679226
-2.5189939 -0.51774704 3.05831
-2.4858799 -0.537637 3.0620301
-2.1713901 -0.51598799 3.0711
-2.1363201 -0.51374698 3.0724699
1.221981 -0.5296542 3.0887861
1.2612133 -0.52044398 3.08533
1.335318 -0.51493508 3.080442
1.3710113 -0.52317184 3.0656564
1.68644 -0.53499746 3.056885
1.7353333 -0.53000563 3.07848
1.75067 -0.54229897 3.0794401
2.62075 -0.52516079 3.0786123
-2.6668701 -0.45749801 3.0533099
-2.62181 -0.460556 3.0678174
-2.578135 -0.47539082 3.0761135
-2.5190833 -0.47961435 3.0656633
-2.1752 -0.49766999 3.06177
-2.1285651 -0.496777 3.080735
1.2234828 -0.4804453 3.0767741
1.2744077 -0.48386732 3.059432
1.3312767 -0.48284999 3.0581901
2.6416299 -0.48028225 3.0831599
2.66032 -0.46101999 3.0636702
-2.7184501 -0.40611851 3.0676551
-2.6776838 -0.42516536 3.0738075
-2.641995 -0.43188 3.0952101
1.239098 -0.43020344 3.073468
1.2549599 -0.400462 3.05511
2.6693261 -0.42889699 3.0745502
-2.7692125 -0.36633226 3.06112
-2.7335861 -0.374621 3.0846701
-2.6977899 -0.38861701 3.0968101
1.2626834 -0.37189934 3.07704
2.6929817 -0.3671492 3.080626
-2.8277075 -0.31761599 3.062325
-2.7875526 -0.3266595 3.0851603
1.2729219 -0.32865399 3.080194
2.6954551 -0.33377701 3.0831599
2.70242 -0.31491101 3.07528
-2.8704419 -0.27068099 3.0681939
-2.8212335 -0.29358664 3.0853767
1.2890381 -0.28215122 3.0800142
2.7174032 -0.278317 3.0778501
-2.9212317 -0.22720115 3.0747559
-2.8859601 -0.24529301 3.0797601
1.3155717 -0.21937765 3.0738485
2.7404838 -0.22673342 3.0760741
2.75775 -0.204827 3.0757799
-2.9243901 -0.18977401 3.0897801
1.3324686 -0.17268372 3.0759845
2.7684925 -0.17685825 3.07178
-3.1215401 -0.115955 3.0561199
1.3394583 -0.124114 3.0851049
1.3556967 -0.12345033 3.0605135
2.7909539 -0.1266342 3.0672939
-3.1721978 -0.073670581 3.0589221
-3.1330669 -0.077285804 3.0683033
-3.0841401 -0.095929898 3.05356
1.3426566 -0.087760203 3.08658
1.3563025 -0.073246427 3.0734348
2.7901399 -0.093122996 3.0813601
2.8102698 -0.070601299 3.069062
-3.2660699 -0.0190532 3.0605199
-3.22736 -0.032150634 3.0692368
-3.17505 -0.038529199 3.0757999
-1.88308 -0.0239031 3.063875
1.364176 -0.03053222 3.0816259
2.83092 -0.027481126 3.0747125
-3.3761601 0.03107835 3.0593851
-3.3309631 0.020894421 3.0638101
-1.9006 0.00073829602 3.05757
-1.87491 0.00073893851 3.0680549
-1.65388 0.0490744 3.0938399
1.388 0.024257319 3.0941701
1.406386 0.035198361 3.0781441
2.8489001 0.00080478902 3.0768099
2.8566051 0.019746184 3.0676
-3.4596 0.082549699 3.0645299
-3.4125602 0.075323738 3.0687702
-3.3896501 0.061589599 3.07129
-2.6866801 0.0741513 3.06885
-1.8243233 0.093338601 3.0707233
-1.7823441 0.085542679 3.08442
-1.7188565 0.08694876 3.0780699
-1.6698951 0.079165511 3.0816612
-1.6229216 0.085987926 3.0779965
-1.5861601 0.091219664 3.0880032
1.386904 0.075583324 3.0668259
1.420455 0.063261494 3.064435
2.8678017 0.076754279 3.0788717
-3.5630467 0.13896334 3.0602667
-3.47597 0.1137535 3.07831
-3.433785 0.103122 3.093035
-2.67817 0.111239 3.0919299
-2.6491399 0.128242 3.0578499
-2.1256962 0.12147037 3.0599487
-1.85783 0.115206 3.0557401
-1.75547 0.11386 3.05845
-1.7210101 0.11871133 3.05706
-1.6721967 0.11259633 3.0531566
-1.61491 0.11194601 3.0560067
1.4264899 0.111251 3.09636
2.8954566 0.12156034 3.0780666
2.9065399 0.13417301 3.06601
-3.66571 0.19013201 3.0624001
-3.6200266 0.18222301 3.0719233
-3.5720966 0.17427666 3.0785301
-3.5417199 0.167192 3.0994899
-2.6552701 0.166177 3.09726
-2.2762599 0.19255599 3.0938001
-2.230015 0.178214 3.0905099
-2.1791599 0.17582759 3.08236
-2.1193335 0.17020766 3.0616217
-2.0838399 0.177792 3.06056
1.4133101 0.157153 3.0660999
1.4702067 0.18443935 3.0675733
2.9070466 0.17288317 3.0825016
-3.6656501 0.22563267 3.0725567
-3.62222 0.21045899 3.0784402
-2.6158938 0.22257021 3.0685019
-2.40448 0.231405 3.09149
-2.3818133 0.24211633 3.0840836
-2.322475 0.2364075 3.0685327
-2.277782 0.223057 3.0737398
-2.2313766 0.21372099 3.07639
-2.1847801 0.2187005 3.0591276
-2.1128399 0.2034615 3.050585
-1.0137399 0.23458824 3.07022
-0.98785245 0.2309605 3.0785575
1.4873101 0.22140799 3.06213
1.52027 0.22947499 3.051605
2.9322362 0.22672939 3.0676019
-3.7037899 0.2877425 3.0887201
-3.6751351 0.25461102 3.0849199
-2.6192782 0.27458858 3.08266
-2.41997 0.284372 3.0738699
-2.3884699 0.265111 3.06861
-2.29899 0.26093501 3.0525701
-1.90889 0.28390899 3.0954599
-1.8250151 0.281261 3.09816
-1.08912 0.25899601 3.0722301
-1.0248325 0.27085549 3.0706351
-0.97433501 0.27179134 3.07164
-0.94772601 0.28793201 3.0892601
1.5982701 0.27144301 3.0507801
2.9381652 0.27001801 3.0833499
2.9502299 0.28898501 3.0681701
-2.6088099 0.30984801 3.0676
-2.5841935 0.32720998 3.0706799
-2.52649 0.32514903 3.07985
-2.4677401 0.310294 3.0758867
-2.44434 0.320705 3.06815
-1.9539334 0.33306667 3.0584633
-1.9219301 0.31662878 3.0787013
-1.2225699 0.32295799 3.0624399
-1.05088 0.34756199 3.05058
-1.0272242 0.32283008 3.0760756
-0.97572988 0.30820617 3.0820854
1.59522 0.33787099 3.0773101
1.60077 0.33566001 3.0503299
2.946835 0.319538 3.0975451
2.9604278 0.328576 3.0756221
-2.96141 0.36514801 3.08269
-2.9124999 0.39941099 3.0617299
-1.956 0.3788673 3.0690901
-1.929656 0.35736462 3.0805361
-1.30715 0.38670301 3.0506401
-1.2756751 0.38111252 3.0812249
-1.20408 0.36803401 3.05511
-1.1030101 0.395298 3.0532
-1.0711033 0.38462499 3.0579281
-1.0350971 0.37629744 3.0778754
1.5888799 0.388412 3.09848
2.9660101 0.38226926 3.0764775
-3.3120501 0.44414699 3.0803499
-3.2544799 0.43908 3.06078
-2.9667399 0.40423 3.0845699
-2.90572 0.43636101 3.0506201
-2.8829601 0.41685399 3.06229
-2.0143967 0.43191662 3.0616333
-1.9776012 0.4163059 3.075942
-1.272295 0.434297 3.0674701
-1.2419751 0.41902 3.08061
-1.175995 0.42391747 3.0766201
-1.1226574 0.43002513 3.0633812
-1.0759023 0.42694956 3.0674958
-1.0399534 0.42779934 3.0837748
1.5756825 0.42519701 3.0683424
2.9381652 0.445227 3.0935001
2.9682441 0.4227224 3.081604
-3.25141 0.498382 3.0511899
-3.22771 0.487836 3.06407
-3.18261 0.49384099 3.0539
-2.062187 0.48568931 3.0584965
-2.0312839 0.47021437 3.0773039
-1.9857 0.45669499 3.0959101
-1.27214 0.45246899 3.08654
-1.1243585 0.47530958 3.0839171
-1.0727346 0.47412807 3.0838296
-1.03743 0.46822453 3.0966899
1.5792264 0.47894639 3.0737438
2.83829 0.49592799 3.0853748
2.8909101 0.490453 3.0904851
2.9239666 0.48149887 3.0738382
2.95769 0.47265249 3.0575199
-3.22294 0.51689202 3.0559599
-2.1200051 0.54756796 3.06113
-2.0786655 0.52749199 3.0778556
-1.08682 0.50816602 3.0896499
1.5779715 0.52246201 3.0716572
2.5943699 0.53628302 3.0984299
2.67904 0.542144 3.09251
2.7255402 0.53890932 3.0880234
2.7694118 0.52813989 3.0747232
2.8262982 0.52827239 3.0711441
2.8794568 0.52876431 3.0609334
2.90171 0.51773298 3.0629399
-2.15762 0.57645798 3.059835
-2.12357 0.57384622 3.0729899
1.5926567 0.56934398 3.0959034
1.6135668 0.58331531 3.0699532
2.3765476 0.58161801 3.0802324
2.4212024 0.57580054 3.0778649
2.4743135 0.58016998 3.0778351
2.5263231 0.57343429 3.0745828
2.5741024 0.56510574 3.078095
2.6247318 0.57371753 3.0762148
2.6737833 0.57627869 3.0633085
2.7249298 0.56743401 3.0593767
-2.1579399 0.60711902 3.09061
-2.12254 0.60197598 3.0741301
1.2321767 0.64559227 3.0975568
1.29242 0.64816499 3.091635
1.33981 0.63609898 3.0987699
1.384885 0.638542 3.09636
1.42788 0.62504065 3.0853751
1.4642234 0.63414329 3.0725
1.525758 0.63183981 3.079356
1.5865699 0.62047529 3.0887148
1.6129217 0.62350386 3.0621183
2.3067501 0.63729203 3.0653801
2.3708899 0.60470903 3.0511899
0.64019603 0.69679397 3.0982001
0.6789065 0.69767052 3.095695
0.72478676 0.69805026 3.08916
0.77978235 0.69214749 3.08776
0.82922542 0.68801039 3.0860038
0.87618256 0.68246162 3.088758
0.92193013 0.67916256 3.0863016
0.97528297 0.67774993 3.080806
1.0276732 0.67900598 3.0812221
1.0766234 0.68068236 3.0761278
1.12432 0.67299211 3.0750082
1.173449 0.67353714 3.0763109
1.2238467 0.67242092 3.0712001
1.2731673 0.67039913 3.0683656
1.3274686 0.66460675 3.06967
1.3729442 0.66064346 3.0678771
1.4176301 0.65513551 3.062535
1.4920501 0.65594298 3.06072
1.5306001 0.66644096 3.0727465
1.58496 0.65183502 3.0934801
1.60278 0.66057599 3.0879898
0.18371801 0.74773669 3.0955133
0.22829133 0.746921 3.0897067
0.27344716 0.74042147 3.092205
0.32823512 0.7378636 3.0881133
0.37569931 0.73675215 3.0822499
0.42349902 0.73390347 3.0841792
0.47649333 0.73163611 3.0786347
0.52676427 0.72574514 3.0779231
0.57291901 0.7256996 3.0726106
0.62308872 0.72272873 3.069802
0.67612064 0.72136557 3.0680063
0.72592217 0.71973556 3.0652401
0.77489024 0.71796483 3.0628197
0.82192326 0.71946216 3.0597467
0.86807162 0.70991665 3.0625443
0.92055887 0.70835716 3.0586684
0.97413325 0.70278323 3.0562975
1.0397201 0.70580304 3.0532351
-0.17516799 0.79411 3.0945101
-0.11511 0.78530002 3.0927749
-0.074464165 0.78539521 3.0895314
-0.025400633 0.78350431 3.0869534
0.027580107 0.78485054 3.0818603
0.080750585 0.77693319 3.0831449
0.12184671 0.77655494 3.075901
0.1734933 0.77511513 3.0709398
0.22703677 0.77234197 3.0665302
0.2697109 0.7704916 3.0641375
0.32386398 0.7657401 3.0641928
0.37308559 0.76462698 3.061542
0.42061135 0.75858068 3.0573101
0.47062501 0.75935298 3.0546434
-2.7195101 0.84793699 3.0851099
-2.6963501 0.84654701 3.0929501
-0.47546953 0.84371823 3.0939927
-0.42080903 0.84249365 3.0924239
-0.3718372 0.83784944 3.0917261
-0.32575253 0.83391333 3.0868733
-0.27486208 0.82384038 3.0878654
-0.22406361 0.82990557 3.0764487
-0.17408262 0.82440943 3.0685098
-0.12942261 0.82178479 3.0698681
-0.077922836 0.81610876 3.0668182
-0.027314156 0.81117809 3.06019
0.021694014 0.80724865 3.0578632
0.078463532 0.80032605 3.0602665
-2.774415 0.89425397 3.0871248
-2.7284431 0.86961573 3.09109
-0.74877298 0.892856 3.0998399
-0.651191 0.88556701 3.09042
-0.62328571 0.89174175 3.0837801
-0.57229131 0.88141149 3.0874398
-0.52481514 0.87816548 3.0821843
-0.47700846 0.87366402 3.0719919
-0.42934453 0.86862773 3.0718966
-0.37120011 0.86695796 3.0652955
-0.32389367 0.85911399 3.0632732
-0.27850136 0.85722017 3.0597484
-2.8795376 0.93234527 3.0582898
-2.8362167 0.92108458 3.0821984
-2.7999799 0.91856003 3.0940001
-0.910972 0.94791698 3.0861101
-0.87833381 0.93838763 3.0891953
-0.82934874 0.93553787 3.0897465
-0.7743144 0.92874461 3.0772851
-0.72617602 0.92596871 3.0690329
-0.68150455 0.91682005 3.0698092
-0.62504822 0.9180516 3.0593648
-0.57951516 0.91699302 3.0576074
-0.52193803 0.9035266 3.0587199
-0.490271 0.90061098 3.05264
-3.2378199 0.99643397 3.0905001
-2.95818 0.99399251 3.0611701
-2.9189398 0.98406768 3.07302
-2.8790534 0.96421129 3.0680599
-1.271785 0.99708247 3.09848
-1.2248667 0.99157065 3.0941365
-1.1697251 0.98940927 3.0886326
-1.1218443 0.98150027 3.0815642
-1.0749145 0.97978306 3.0778399
-1.0262026 0.97749215 3.0734875
-0.97689039 0.97149926 3.0734301
-0.92680943 0.9671275 3.0723491
-0.87657517 0.96254957 3.064472
-0.81978226 0.95593649 3.0627151
-0.78253698 0.95643598 3.05813
-3.2858701 1.02547 3.09637
-3.2262201 1.02324 3.072175
-3.0239632 1.03688 3.0577266
-2.9774776 1.02993 3.0738451
-2.9188051 1.013245 3.0836701
-1.5381601 1.0414701 3.096725
-1.4686151 1.0413375 3.0921597
-1.422612 1.035666 3.0835462
-1.3691627 1.0268829 3.0828488
-1.3276623 1.0285844 3.0756886
-1.27555 1.0221913 3.0721838
-1.2282356 1.0165143 3.0692246
-1.1819775 1.0101725 3.0683374
-1.1222174 1.0105525 3.0587475
-1.0852667 1.0079499 3.0558634
-3.10057 1.09841 3.0653801
-3.06516 1.0796367 3.0679867
-3.0247002 1.0691299 3.080405
-1.8222899 1.0950266 3.0989666
-1.76686 1.08717 3.096745
-1.7244775 1.09183 3.083885
-1.6747019 1.0859621 3.0824399
-1.6255063 1.0839713 3.0762577
-1.56944 1.0697399 3.0788434
-1.5252562 1.0677338 3.0770452
-1.465675 1.0660574 3.0567751
-1.42294 1.0603979 3.059808
-1.3876433 1.0608333 3.0585663
-3.2003801 1.1326801 3.0536499
-3.165225 1.130865 3.071625
-3.1180298 1.1405166 3.0852268
-3.0911601 1.112155 3.0878701
-2.1820302 1.14519 3.09567
-2.1332598 1.138175 3.0967851
-2.079865 1.1372275 3.0870848
-2.02562 1.1277479 3.088346
-1.9752241 1.1363461 3.0774298
-1.9214741 1.132632 3.0783021
-1.8710859 1.12851 3.0757117
-1.8267415 1.1269257 3.0694058
-1.7772083 1.1169749 3.0675449
-1.725675 1.1124901 3.0598876
-1.690505 1.1128249 3.0613899
-1.6143301 1.1089799 3.0509801
-3.2158051 1.1686599 3.06003
-3.17729 1.1656075 3.0750499
-2.4041901 1.19837 3.0908
-2.3672152 1.1935999 3.0954099
-2.3202751 1.1927249 3.0833499
-2.2736278 1.1781061 3.078516
-2.2240851 1.1754117 3.0757818
-2.1678276 1.16438 3.06744
-2.1195462 1.1635959 3.0707819
-2.0642433 1.1624101 3.0600603
-2.0255699 1.1527901 3.0691552
-1.928005 1.15353 3.0561051
-1.89726 1.1505001 3.0611801
-1.80635 1.15333 3.0518
-3.274503 1.22461 3.0563831
-3.2331824 1.2196651 3.0824549
-3.18594 1.20307 3.09235
-2.6730599 1.242385 3.087395
-2.6289101 1.2350301 3.0880599
-2.57692 1.234004 3.0865102
-2.5129976 1.2319225 3.0733473
-2.4729223 1.2212025 3.0774901
-2.432945 1.2174225 3.0693727
-2.374115 1.2153225 3.0608726
-2.3263333 1.2108365 3.0613899
-2.2848401 1.2108999 3.06251
-2.2499101 1.2018501 3.0502999
-3.3318949 1.2751349 3.0573423
-3.2777874 1.2700975 3.0775552
-3.2416449 1.2679751 3.0960951
-3.0048101 1.29965 3.08442
-2.9782801 1.2967401 3.0917699
-2.9263301 1.28695 3.0894499
-2.8752334 1.2875301 3.07147
-2.8260975 1.2781949 3.08283
-2.7681501 1.2647066 3.0834866
-2.7229698 1.2717479 3.0713561
-2.6740134 1.2668233 3.0747068
-2.6366749 1.2627449 3.0708299
-2.5662 1.25622 3.0538602
-2.5281899 1.25125 3.0599999
-3.40696 1.34446 3.0557201
-3.3790734 1.32496 3.0589199
-3.3257174 1.322335 3.0742073
-3.2694678 1.3216999 3.0869079
-3.2226765 1.3310734 3.0814466
-3.1729674 1.325515 3.08848
-3.1403651 1.3335099 3.078115
-3.078414 1.32684 3.0705421
-3.0256732 1.32007 3.06478
-2.968713 1.3161534 3.06195
-2.9276099 1.312815 3.06424
-2.8222001 1.30123 3.05216
-3.3699651 1.36314 3.0692151
-3.3235266 1.3749599 3.0613735
-3.274605 1.3763599 3.05989
-3.225105 1.35812 3.0692248
-3.1665599 1.36667 3.05901
-3.0912099 1.35142 3.0548201
0.38233051 -2.3599648 3.112385
0.42227682 -2.3733754 3.1182444
0.47785041 -2.3752587 3.1289814
0.51521665 -2.3551867 3.1187534
0.28127402 -2.309325 3.106065
0.32780874 -2.3264723 3.1252623
0.36904123 -2.3343601 3.1319826
0.41146898 -2.34745 3.14517
0.53223431 -2.3249502 3.1283
0.56776202 -2.3088651 3.1066151
0.182207 -2.2505801 3.1017399
0.22429518 -2.2667835 3.1158302
0.27021256 -2.2822499 3.1297443
0.57316548 -2.2748115 3.1235349
0.140734 -2.2113502 3.1067801
0.17520179 -2.2200902 3.1221421
0.20963 -2.2384226 3.1355174
0.59255099 -2.240375 3.131285
0.60821402 -2.2153449 3.12853
0.03316395 -2.1522851 3.1066749
0.079964481 -2.1663818 3.1121078
0.124756 -2.1800687 3.1268587
0.164639 -2.1991799 3.13502
0.62686968 -2.1780367 3.1126802
-0.015658492 -2.1137767 3.1089098
0.026641037 -2.121495 3.1272926
0.073089376 -2.139328 3.135998
0.63845003 -2.1457651 3.129065
0.65820032 -2.11397 3.1196735
-0.072584331 -2.0609751 3.1172714
-0.029332463 -2.0759125 3.1299324
0.012865684 -2.0889235 3.1420832
0.67273402 -2.0705602 3.1229966
-0.16213 -2.01053 3.1022
-0.12686238 -2.0186563 3.1203239
-0.089839965 -2.03813 3.1350935
0.687792 -2.023566 3.1243961
0.71125603 -2.00822 3.1026101
-0.22068325 -1.9620399 3.1118252
-0.17930579 -1.9790268 3.1229866
-0.13798749 -1.992815 3.1463451
0.69572848 -1.98744 3.127435
0.71226627 -1.9769334 3.1257334
-0.31957948 -1.9063799 3.1045651
-0.27514499 -1.9197221 3.1177258
-0.23675142 -1.9323643 3.1321969
-0.19657101 -1.94744 3.1433401
0.73092902 -1.9251541 3.1179881
-0.36622933 -1.8574699 3.1154401
-0.32848564 -1.8756078 3.1250277
-0.29038236 -1.8875467 3.1358736
0.74089998 -1.885365 3.1349499
0.75567031 -1.8711166 3.1262367
-0.46614802 -1.80673 3.1031351
-0.41911188 -1.8204213 3.1164641
-0.38513318 -1.8307943 3.1326072
-0.337612 -1.84569 3.146775
0.77302873 -1.8238399 3.1251025
-0.55544698 -1.75078 3.10359
-0.51764899 -1.7644066 3.1083286
-0.47548327 -1.7772067 3.12415
-0.43236947 -1.7848033 3.13642
0.78439403 -1.77447 3.13959
-0.60521299 -1.70154 3.1193199
-0.57042599 -1.7170386 3.1199665
-0.52702242 -1.72964 3.1337101
-0.485035 -1.748155 3.1459551
0.79673702 -1.7476 3.12602
0.800578 -1.73922 3.1489899
-0.65744799 -1.664675 3.1180899
-0.62139505 -1.6707331 3.1278372
-0.57823378 -1.68638 3.1429775
0.796731 -1.69741 3.1492801
0.81154436 -1.6706333 3.1202767
-0.71899515 -1.6140213 3.1160111
-0.67729253 -1.631835 3.1241913
-0.63950503 -1.6382999 3.14832
0.82455027 -1.6273501 3.1253748
1.184695 -1.6158851 3.1245863
1.2245015 -1.6234043 3.1227601
-0.81819963 -1.5606533 3.1050167
-0.77440017 -1.5735281 3.1217289
-0.73132861 -1.5894781 3.130368
0.83277845 -1.577935 3.12448
1.02854 -1.56144 3.103765
1.0814058 -1.5695727 3.118834
1.1280385 -1.5811615 3.1304786
1.170575 -1.5877626 3.1414051
1.317315 -1.5733149 3.10519
-0.87538922 -1.513262 3.1133301
-0.82884538 -1.5278521 3.1298842
-0.78424424 -1.542935 3.1400223
0.8456915 -1.5383949 3.1211052
0.86623973 -1.5147024 3.1072426
0.94514954 -1.506465 3.1127551
0.9740063 -1.5128324 3.1195199
1.0209287 -1.5345237 3.1280224
1.072165 -1.543185 3.138505
1.10175 -1.54934 3.1437299
1.3229463 -1.5303812 3.1256976
-0.96737552 -1.455435 3.108315
-0.92586386 -1.4719726 3.1180062
-0.88372242 -1.4808974 3.1370389
-0.84948999 -1.49651 3.1417699
0.87126762 -1.4675521 3.1254458
0.92754227 -1.4717624 3.1260149
0.97720146 -1.49299 3.139735
1.343526 -1.482174 3.130116
1.3609951 -1.46342 3.1115551
-1.05699 -1.40588 3.10219
-1.0234772 -1.41966 3.1118515
-0.97896236 -1.4275956 3.1292698
-0.93429202 -1.43941 3.1410739
0.88613397 -1.4369799 3.1365535
0.91052699 -1.4464 3.1379001
1.369735 -1.4214925 3.125535
-1.12543 -1.36048 3.10991
-1.0746937 -1.3754061 3.120604
-1.0315471 -1.3843286 3.1351986
-0.99750799 -1.3976901 3.1437199
1.382854 -1.372036 3.1327801
2.2142351 -1.37744 3.1056151
-1.2083499 -1.31231 3.1048701
-1.1717358 -1.3202714 3.1161716
-1.1300889 -1.327835 3.1301928
-1.0917667 -1.3441467 3.1414068
1.3950334 -1.3372799 3.1135333
1.40264 -1.31117 3.1257901
2.1796932 -1.3345801 3.1193533
2.21067 -1.32025 3.1207099
-1.31072 -1.25042 3.1041601
-1.2674439 -1.2630479 3.112788
-1.2293699 -1.2759731 3.1251168
-1.1834667 -1.287755 3.1377819
1.41986 -1.2779601 3.131928
2.20386 -1.29791 3.1175499
-1.37019 -1.2105967 3.10976
-1.3260112 -1.2177546 3.1222746
-1.2801051 -1.2339562 3.1329474
1.4398975 -1.2230926 3.1277599
1.45908 -1.20136 3.11057
-1.45322 -1.1603301 3.1115401
-1.4161999 -1.166476 3.121722
-1.3751913 -1.1819111 3.1293001
-1.3294866 -1.1859334 3.1412299
1.4575821 -1.1755641 3.1339021
-1.5154461 -1.111526 3.1176701
-1.47622 -1.1248045 3.1266785
-1.427544 -1.1403641 3.1385341
1.471518 -1.1272459 3.126214
2.21365 -1.1379 3.1061201
-1.61377 -1.0516599 3.10779
-1.5719719 -1.0687809 3.1219773
-1.534624 -1.0857121 3.1329882
1.483165 -1.08611 3.1110101
2.33074 -1.082095 3.1253223
2.3647451 -1.066635 3.12167
-1.6692021 -1.0135061 3.1158159
-1.6274765 -1.0270555 3.1290922
-1.5881 -1.03996 3.1412899
1.3393 -1.00739 3.1071501
2.3762939 -1.0227281 3.1276441
-1.7630301 -0.96003199 3.1033001
-1.7238832 -0.97318864 3.1180055
-1.6786015 -0.98149908 3.1348317
-1.64527 -0.99374098 3.14679
1.3116432 -0.97860003 3.1387966
2.3923199 -0.98815936 3.13185
2.4102576 -0.9652105 3.118865
-1.86256 -0.90004599 3.1055601
-1.8224722 -0.91768241 3.115041
-1.7745371 -0.92802203 3.128907
-1.7330467 -0.94256496 3.14346
1.24595 -0.90128702 3.1294401
1.26568 -0.92681599 3.1115134
2.43063 -0.93313378 3.1289899
2.4554532 -0.90888667 3.1139965
-1.92076 -0.85844421 3.1119075
-1.8719201 -0.87035251 3.1290081
-1.8314 -0.88140005 3.1442268
1.2479 -0.886576 3.1380999
1.2655615 -0.87131345 3.119827
2.4639199 -0.87087172 3.128355
-2.00226 -0.80650598 3.10077
-1.9685086 -0.81896919 3.1167789
-1.9306101 -0.82927102 3.132108
-1.89868 -0.84051001 3.1443999
1.243995 -0.811481 3.1442299
1.2710683 -0.82425243 3.1177235
2.48578 -0.82723486 3.1242518
-2.0604749 -0.76064503 3.1117649
-2.0227401 -0.77222288 3.1252573
-1.9808642 -0.78617942 3.1367319
1.24301 -0.786744 3.14674
1.2616113 -0.77484858 3.1302414
2.4947701 -0.7886793 3.1322167
2.5120432 -0.76362699 3.1232834
-2.1156499 -0.71711928 3.1150799
-2.0792243 -0.73452538 3.1280885
-2.032315 -0.74565649 3.1433849
1.2805713 -0.72460538 3.1224558
2.5247447 -0.72148418 3.1298449
-2.2011399 -0.66542 3.1088099
-2.1679261 -0.67777836 3.1147542
-2.1274226 -0.68318897 3.1347389
-2.0881901 -0.69777602 3.14902
1.2943534 -0.69160962 3.1263235
1.312928 -0.66573238 3.1168458
2.5417864 -0.67868733 3.1293867
2.5592799 -0.650675 3.1445301
-2.267266 -0.60689056 3.1142421
-2.2238789 -0.62864089 3.1213164
-2.1770086 -0.63453913 3.1397872
1.3314151 -0.62355518 3.1319618
2.567775 -0.623806 3.1144376
-2.3315058 -0.57169598 3.1105142
-2.2801199 -0.57898426 3.1207399
-2.21489 -0.59899199 3.1398499
1.1931651 -0.55781949 3.1247501
1.2472301 -0.56522202 3.10337
1.2692634 -0.56802166 3.1135767
1.3334087 -0.57640773 3.1312289
1.3555199 -0.57105333 3.10289
2.5837061 -0.57871282 3.1290138
2.6043801 -0.56454599 3.10637
-2.13289 -0.51705801 3.102
1.1941949 -0.52568966 3.1240432
1.26363 -0.549788 3.1021099
1.3247733 -0.5323047 3.10761
2.5996201 -0.53962702 3.1401899
2.6128726 -0.52081323 3.1321249
-2.56374 -0.45537201 3.1010001
1.2145675 -0.46656102 3.1235476
2.6292579 -0.4799192 3.12709
-2.6242235 -0.417092 3.1156666
-2.5797765 -0.42196366 3.1302516
1.2409101 -0.424308 3.1279202
2.6464067 -0.42933765 3.1396134
2.66168 -0.42335248 3.1139102
-2.7154033 -0.35921633 3.1085835
-2.67292 -0.37096927 3.1282942
-2.6315999 -0.38837451 3.1391048
1.2569883 -0.37715983 3.1286049
2.6788919 -0.37731159 3.1267962
-2.7688999 -0.30653101 3.1285965
-2.7279658 -0.32873678 3.1303501
1.27096 -0.3265695 3.134645
2.6924698 -0.32365701 3.1217601
-2.82638 -0.27183002 3.1222978
-2.7920699 -0.29161751 3.1273
1.2825899 -0.26883203 3.1200018
2.69362 -0.29011798 3.1376801
2.7073567 -0.28017667 3.1189365
-2.91275 -0.209356 3.1105299
-2.8750014 -0.22802557 3.1274886
-2.8468001 -0.246788 3.13972
1.29889 -0.235918 3.1327701
1.3038883 -0.22180434 3.1168334
2.7304699 -0.22944325 3.122525
-2.9086466 -0.17146033 3.1250584
-2.88111 -0.19066601 3.1460199
1.3206301 -0.169632 3.127938
2.74928 -0.188124 3.1375501
2.7591879 -0.16532819 3.1286299
-2.8989699 -0.133168 3.1332901
1.320035 -0.12524 3.1239216
2.779346 -0.1276226 3.1175079
1.3300151 -0.077984847 3.1203251
2.7917664 -0.087698102 3.1302366
2.8069 -0.056075998 3.1182699
-1.7159266 -0.015656332 3.1347768
1.3444999 -0.04681835 3.1405799
1.35526 -0.030674599 3.10255
2.8160951 -0.027717751 3.1287749
-1.76087 0.00074764597 3.14205
-1.7188674 0.01706971 3.1216049
-1.69997 0.00074441999 3.14272
-1.6282268 0.043947518 3.1262934
-1.570955 0.049250647 3.1413898
-1.526922 0.039358061 3.141772
-1.49571 0.048642501 3.1241701
-1.40986 0.0166307 3.1399701
-1.37985 0.016462499 3.1136601
1.3425499 0.021778569 3.1291535
1.3791956 0.027027808 3.1200953
2.8359113 0.017167423 3.12291
-1.7745185 0.061053019 3.1230268
-1.74186 0.066084199 3.1075699
-1.611455 0.065099902 3.106215
-1.569695 0.075599067 3.1128149
-1.5311725 0.072761349 3.11882
-1.4869649 0.06458015 3.12532
1.3810199 0.085415728 3.1327035
2.8489201 0.058362 3.1470399
2.8585064 0.077283107 3.1216333
-3.4640698 0.1345955 3.10199
-3.4272225 0.13436775 3.1210973
-3.39201 0.12370601 3.12992
-2.3060601 0.124423 3.1372299
-2.2573199 0.141242 3.1387
-2.2232299 0.140196 3.1255901
-1.52552 0.145794 3.14433
1.390995 0.1194785 3.119725
1.4712366 0.13982067 3.13799
2.8765426 0.12544525 3.1222925
-3.5629699 0.189115 3.1172199
-3.4697101 0.165728 3.1059699
-3.4382765 0.17274801 3.1356966
-2.422965 0.19815651 3.1343498
-2.3629501 0.19046199 3.1305532
-2.3257999 0.18393199 3.1385968
-2.278815 0.16787049 3.1327949
-2.2086999 0.15659399 3.1045001
-1.71855 0.19784699 3.13463
-1.6746234 0.19653966 3.1280167
-1.64246 0.19658899 3.1426001
-1.5381266 0.18898833 3.1421499
1.47733 0.160707 3.1233001
1.51738 0.17050549 3.1468101
2.8883324 0.16446376 3.1336377
2.9010601 0.193525 3.1282401
-3.63324 0.232795 3.10466
-3.5794361 0.22336622 3.1228299
-3.525815 0.20967799 3.136575
-2.6086001 0.229597 3.1069
-2.5856376 0.22998476 3.1305275
-2.5354249 0.22875676 3.1376948
-2.4794126 0.2269765 3.1363275
-2.42466 0.21545701 3.11848
-2.37918 0.21377549 3.1107602
-2.34321 0.212917 3.1145999
-1.8119725 0.23626974 3.1150301
-1.7724032 0.23368551 3.1127203
-1.7236844 0.23215556 3.1155257
-1.67342 0.22902043 3.1239746
-1.6363201 0.21825534 3.1423366
-1.5264601 0.21039499 3.1433799
-0.98529798 0.23039101 3.1265335
1.5104001 0.24343801 3.1484301
2.9115152 0.22249448 3.120115
-3.6805551 0.28842026 3.1236324
-3.6296999 0.26167133 3.1238499
-3.59272 0.264543 3.13937
-3.0959301 0.295827 3.1242099
-2.6075432 0.28206566 3.11356
-2.57762 0.271525 3.121516
-2.526099 0.271806 3.1361902
-2.4699049 0.271101 3.1214652
-2.44225 0.26910099 3.1034701
-1.8749167 0.27267686 3.1114018
-1.8283483 0.28216681 3.1099281
-1.7758383 0.27303997 3.1223335
-1.731665 0.26430202 3.13605
-1.0237499 0.292391 3.12217
-0.95870602 0.27597401 3.1261101
1.5230999 0.27515641 3.1325591
1.56855 0.27747899 3.1459301
2.9216783 0.27163818 3.1278667
-3.76632 0.33581352 3.13767
-3.7188749 0.333518 3.1347551
-3.69117 0.32220301 3.1486199
-2.6082001 0.311941 3.1006801
-2.5713248 0.31078547 3.10746
-2.0725901 0.34452301 3.1365199
-2.0250249 0.3323175 3.1173949
-1.87877 0.31949237 3.1097612
-1.826705 0.320178 3.1344368
-0.96155602 0.32026151 3.1054749
1.5178199 0.30801499 3.1392
1.6145101 0.32570899 3.1159501
2.9299581 0.3264778 3.1289101
-3.76159 0.36778399 3.1310401
-3.73423 0.36719799 3.1450701
-3.2188799 0.362064 3.13761
-3.1647232 0.38542965 3.12833
-3.1226599 0.38763952 3.1438198
-3.0704598 0.3736935 3.1264601
-1.9163885 0.38147065 3.1171398
-1.8721598 0.35930344 3.1255143
-1.0207783 0.37247849 3.1235952
1.5911967 0.376634 3.1433866
1.6056401 0.35986501 3.1343701
2.9308674 0.36947626 3.129575
2.9537799 0.368682 3.1004801
-3.06141 0.41182601 3.1135499
-1.95928 0.43954951 3.1091299
-1.93786 0.41729066 3.1246598
-1.25947 0.437895 3.10041
-1.234465 0.4322435 3.1267452
-1.0168756 0.42697215 3.1183658
1.5774065 0.43423435 3.1228034
2.77825 0.43992299 3.14996
2.8387699 0.44337499 3.1462801
2.8791881 0.42935675 3.135186
2.9173198 0.42638999 3.117955
-3.5409901 0.48468801 3.1461501
-2.0171669 0.48976967 3.1178234
-1.9779116 0.47698015 3.1269815
-1.94279 0.45849401 3.13411
-1.27937 0.45503402 3.1039901
-1.17134 0.487001 3.138
-1.14376 0.497511 3.1082301
-1.0237916 0.47757298 3.1268215
