ply
format ascii 1.0
comment PCL generated
element vertex 1556
property float x
property float y
property float z
element camera 0
property float view_px
property float view_py
property float view_pz
property float x_axisx
property float x_axisy
property float x_axisz
property float y_axisx
property float y_axisy
property float y_axisz
property float z_axisx
property float z_axisy
property float z_axisz
property float focal
property float scalex
property float scaley
property float centerx
property float centery
property int viewportx
property int viewporty
property float k1
property float k2
end_header
-2.3269613 -0.98848885 2.7312486
-2.2880599 -0.99794698 2.7431099
1.6173143 -0.97293663 2.7242899
1.7541699 -0.98893797 2.7321999
2.5334468 -0.97578233 2.7234068
-2.4650567 -0.91809797 2.7181368
-2.4267185 -0.92860276 2.7276084
-2.385885 -0.94051254 2.7383699
1.6392784 -0.93165416 2.7215784
1.6721101 -0.91539401 2.7150533
1.71557 -0.930076 2.7177601
2.5455825 -0.93228352 2.7249174
2.5589099 -0.90646851 2.7225299
-2.5665634 -0.86002272 2.7136269
-2.5284314 -0.87090164 2.7238626
-2.4845035 -0.88818121 2.7329903
1.64799 -0.89612198 2.7474699
1.6816726 -0.89401644 2.7381201
1.70285 -0.885683 2.7428501
2.5717518 -0.87334651 2.7293899
-2.6693101 -0.81185597 2.7025499
-2.6188087 -0.82312143 2.7163615
-2.5790958 -0.82788146 2.737484
-2.5451701 -0.839495 2.74681
2.592546 -0.82551801 2.718904
-2.7221026 -0.75762755 2.7158501
-2.6766737 -0.77626896 2.7260511
-2.63147 -0.78944135 2.7394168
2.5971951 -0.78930652 2.7458901
2.6128521 -0.7745502 2.7209039
-2.7719548 -0.71833664 2.7159367
-2.7339897 -0.73464727 2.7330952
-2.66956 -0.74753797 2.7479999
2.6308119 -0.72740561 2.7261631
-2.8557701 -0.65409303 2.70895
-2.8138952 -0.66358835 2.7223101
-2.7829399 -0.68011171 2.7345266
2.6416101 -0.67971164 2.7337141
2.6540899 -0.65592998 2.70666
-2.9187498 -0.61123723 2.7156324
-2.8791516 -0.62606001 2.7316234
-2.8296633 -0.63117999 2.7386901
2.6610434 -0.62370753 2.7255166
-3.0071499 -0.55972201 2.7141199
-2.9662275 -0.56607354 2.7214522
-2.9250267 -0.57879651 2.7320135
-2.8842199 -0.589086 2.74788
2.685627 -0.57256931 2.7230344
-3.07337 -0.51052028 2.7193468
-3.0257101 -0.52913082 2.7232578
-2.9820735 -0.53537202 2.7357399
2.6931 -0.53061903 2.7376599
2.7061639 -0.51408327 2.7217698
-3.1614699 -0.46067101 2.70983
-3.1236501 -0.46831852 2.7229023
-3.0804598 -0.48164168 2.7348416
2.7245119 -0.46953383 2.7204969
-3.2565501 -0.41037601 2.7013099
-3.2268102 -0.41593632 2.7184303
-3.17716 -0.42543516 2.7223399
-3.1366227 -0.43332401 2.7386427
2.7429862 -0.42206782 2.727478
2.7550001 -0.40133899 2.7230201
-3.2679341 -0.37135881 2.7280478
-3.2312801 -0.38611099 2.7362201
-3.1933 -0.39072701 2.74562
2.7654419 -0.37031278 2.724288
-3.3031499 -0.330948 2.74863
2.786695 -0.3281785 2.7227175
2.795635 -0.29011449 2.7429349
2.8122249 -0.27633703 2.7206373
1.48927 -0.201048 2.7439799
1.5253633 -0.20200133 2.7437932
1.58109 -0.20357268 2.7445633
1.628376 -0.21024239 2.7349861
1.6718817 -0.21528117 2.7315283
1.7349766 -0.21237999 2.7333233
1.7718681 -0.21744159 2.732038
1.8179412 -0.22230025 2.7186289
2.8255203 -0.22867133 2.7291882
1.4263386 -0.165857 2.727283
1.4704733 -0.17382255 2.7216256
1.5271584 -0.17881466 2.7157249
1.5726376 -0.17991275 2.7151499
1.6185766 -0.18824899 2.71346
1.677425 -0.1858905 2.7081525
1.7293067 -0.19082034 2.7047603
1.7712801 -0.192173 2.70784
2.839705 -0.1931515 2.7134151
2.855835 -0.16764876 2.7302074
-2.69207 -0.10221051 2.739455
1.4329933 -0.12720034 2.7250602
2.8746986 -0.12608315 2.7250044
-2.6800549 -0.067626871 2.7280016
1.4473734 -0.08025413 2.7371199
1.45865 -0.072515354 2.7207217
2.8870599 -0.088580497 2.74704
2.9058099 -0.067001 2.7206321
-2.6491399 -0.016223099 2.71205
1.4764633 -0.027863516 2.7208397
2.911525 -0.02603035 2.7233577
-2.62133 0.026105 2.728195
-1.171194 0.022523059 2.720974
-1.1219431 0.025051821 2.7109272
-1.0737462 0.02038308 2.7158275
-1.02836 0.028875543 2.7331924
-0.98485041 0.0087472005 2.7353661
1.49273 0.014993179 2.7316599
1.504854 0.023570104 2.71945
2.9332223 0.018673653 2.7276759
-2.6154201 0.051519301 2.7367699
-2.5893099 0.07662905 2.73893
-1.06714 0.05453435 2.7032151
-1.0369657 0.075012363 2.7221544
1.5195984 0.072444998 2.7225764
2.9493301 0.054811399 2.7423301
2.9548399 0.081491247 2.7149048
-2.5884099 0.12184961 2.7246978
-1.0395575 0.11247825 2.728025
1.5362692 0.1217555 2.7282009
2.97597 0.130577 2.719996
-2.5912983 0.16904567 2.7227933
1.5403401 0.16933568 2.7344484
1.5568033 0.183176 2.7142565
1.785485 0.1867695 2.714375
1.81594 0.196724 2.74459
2.9957569 0.17023201 2.7386
3.0104752 0.1819195 2.7138
-2.60163 0.21199501 2.73142
-2.5913649 0.22371724 2.7198377
1.54392 0.203849 2.7443099
1.5589024 0.22466174 2.720685
1.74316 0.238221 2.72351
1.786345 0.21847549 2.7449701
3.0241015 0.21918118 2.7239649
-2.6063099 0.25549999 2.74861
-2.5930948 0.270262 2.7184277
1.5793148 0.27671948 2.725445
1.6084501 0.2907525 2.70472
1.6775061 0.2831834 2.7218139
1.7227999 0.27569649 2.735575
1.7638301 0.260337 2.7437103
3.0416579 0.27150121 2.7329478
3.0622301 0.29294199 2.7041199
1.58176 0.307134 2.73785
1.6191639 0.3105022 2.7243202
1.6761899 0.31849349 2.7356026
3.0671322 0.32714361 2.7184861
-2.7820749 0.390993 2.7042899
3.0829139 0.37349719 2.7345822
-2.7782199 0.401602 2.7297101
1.94724 0.44728601 2.72492
2.0099833 0.43248868 2.74208
3.0924034 0.41344467 2.7298334
3.1107566 0.43804669 2.7100766
1.629995 0.48570102 2.7181401
1.936375 0.4677445 2.706435
1.99321 0.450688 2.7266901
2.0317249 0.46190947 2.731365
3.1219049 0.4740735 2.7208176
1.5903699 0.528889 2.7248499
1.60087 0.51283997 2.7126999
1.87874 0.53775001 2.73756
1.9173034 0.52175498 2.7123935
1.9591399 0.52746898 2.7298701
3.1288784 0.52164131 2.7201917
1.88618 0.57939899 2.7307932
1.9168761 0.57465339 2.7303979
1.9631701 0.559596 2.7302599
3.14465 0.56163049 2.728085
3.1527801 0.58182049 2.7320499
3.1586018 0.62044263 2.7305152
3.1695659 0.67493141 2.7266839
3.1787159 0.72303182 2.73208
3.14714 0.78418696 2.7386401
3.1729898 0.7707718 2.7163818
2.92238 0.84275001 2.74738
2.9587533 0.83998531 2.73931
3.02285 0.83430475 2.7298474
3.0766783 0.8218742 2.7272053
3.1238825 0.82176149 2.7168498
3.15786 0.810341 2.70737
1.880795 0.89439797 2.7446098
1.9268967 0.89474171 2.7432334
1.9785566 0.89085299 2.7443399
2.0381525 0.88575947 2.74177
2.0734851 0.89285254 2.732435
2.1295967 0.888273 2.7408199
2.1743722 0.89127922 2.7308121
2.2207632 0.8839643 2.7279651
2.2781975 0.88698149 2.7311051
2.3286221 0.89057744 2.7222059
2.3816803 0.8833937 2.7424366
2.4272819 0.88577604 2.733964
2.472955 0.87865728 2.728215
2.527986 0.88133985 2.7297401
2.5737131 0.88309646 2.7238047
2.6270425 0.88164872 2.7240326
2.6800833 0.88660067 2.7264767
2.7182217 0.87658119 2.7263882
2.7780998 0.8843317 2.722065
2.83113 0.87452394 2.7301376
2.8725762 0.86980075 2.7237782
2.91816 0.86616927 2.7204852
2.9721267 0.86905599 2.7115135
3.0257499 0.85103297 2.7115901
3.0520101 0.853154 2.7019999
1.48595 0.94243699 2.74964
1.5223266 0.94640535 2.7473867
1.5741416 0.94289082 2.7397919
1.629265 0.93721998 2.7372
1.6736766 0.93333721 2.73631
1.7233378 0.93560833 2.7297301
1.7764544 0.93082935 2.7255709
1.8266512 0.92016107 2.7269073
1.8692284 0.92001218 2.7189915
1.9224082 0.91896564 2.7181318
1.9723842 0.91535097 2.7185702
2.0245979 0.91686457 2.711544
2.0755675 0.91830826 2.711575
2.1217873 0.90828276 2.7132025
2.1768351 0.91033995 2.7056799
2.2346301 0.90096003 2.7032299
2.2756002 0.91402864 2.7092667
2.3129101 0.91236198 2.7028699
2.3699701 0.90485603 2.71103
2.4245167 0.91269368 2.7100704
2.4637051 0.90083599 2.7112451
2.5014601 0.90522301 2.7055099
2.6724 0.91129202 2.70052
1.025025 0.99912173 2.7430675
1.0787799 0.99536949 2.73878
1.1323149 0.99080253 2.7434649
1.1759 0.99049735 2.7398617
1.224283 0.98725224 2.7373111
1.2745467 0.98516232 2.7372501
1.323451 0.98161548 2.7325599
1.3727517 0.98101079 2.7297392
1.4285641 0.9746992 2.72999
1.475805 0.96956033 2.724633
1.5277758 0.97163546 2.7192173
1.57455 0.96861863 2.7148902
1.6213766 0.95906216 2.7161865
1.67642 0.96308196 2.7089279
1.71455 0.96133697 2.7069099
1.7827201 0.95392001 2.7044601
0.62193567 1.0448099 2.7490101
0.67672241 1.0406539 2.7441039
0.72422397 1.0413275 2.7403686
0.77683717 1.0386763 2.7375062
0.82243359 1.035503 2.731878
0.87533826 1.0298531 2.7289681
0.92660141 1.0280925 2.7302692
0.97285908 1.0249792 2.7245967
1.0251781 1.0220439 2.7224991
1.073917 1.019388 2.71788
1.1223862 1.0156138 2.7200472
1.1733987 1.0176563 2.7144561
1.2254467 1.0112051 2.7122333
1.2673625 1.0049651 2.7141376
1.3243225 1.005975 2.7074051
1.4279799 1.0026951 2.7051601
0.28293675 1.0969751 2.7387276
0.33535731 1.0895066 2.7443268
0.37931821 1.08901 2.738404
0.42619815 1.0841743 2.7373199
0.47609988 1.0799925 2.7377026
0.52438271 1.0762147 2.7319131
0.57580036 1.0746472 2.7276108
0.62424475 1.0723743 2.7246385
0.67713642 1.0680817 2.7175801
0.72560412 1.06687 2.7160242
0.77472562 1.0648772 2.7115002
0.83257979 1.0575379 2.7126901
0.87252748 1.057055 2.7053599
0.92504925 1.0540475 2.7043724
-0.10595 1.14739 2.7493401
-0.069054134 1.1462532 2.7473633
-0.022982771 1.1440099 2.7424567
0.025172012 1.13557 2.7407913
0.073299013 1.1350867 2.73878
0.12315135 1.1356413 2.7305224
0.17591351 1.1316164 2.726367
0.22483848 1.1282915 2.7226114
0.26865759 1.12354 2.7193024
0.32492384 1.1154143 2.7215209
0.37466973 1.1125612 2.7153535
0.42516324 1.1112365 2.7142546
0.47867376 1.1066787 2.7114263
0.52427596 1.105796 2.706218
0.56862265 1.1009567 2.7023432
-0.36783975 1.1950026 2.7417076
-0.32209739 1.1896675 2.7430038
-0.27014831 1.18686 2.7328644
-0.21909337 1.18466 2.7340736
-0.17444177 1.1783625 2.7269242
-0.12604395 1.1764487 2.7244
-0.070928469 1.1744994 2.7212729
-0.02282651 1.1703891 2.7172017
0.025087537 1.1637908 2.7149241
0.071239121 1.161235 2.712729
0.120611 1.161175 2.7064075
0.16829167 1.1602567 2.7020833
-0.75985646 1.244765 2.7471452
-0.72195864 1.24099 2.746423
-0.67615718 1.2424849 2.7400331
-0.62269968 1.2341266 2.73702
-0.57017541 1.2370788 2.7325637
-0.52400041 1.2292373 2.7307465
-0.47590575 1.2248919 2.7290761
-0.42486557 1.2178562 2.727525
-0.3765029 1.2206917 2.7169712
-0.32727167 1.2180356 2.7158999
-0.27790287 1.2102726 2.7116098
-0.22695935 1.2068933 2.7105865
-1.15037 1.29038 2.7469201
-1.00139 1.29961 2.73473
-0.97198749 1.299265 2.74242
-0.91998297 1.2890699 2.7430148
-0.8774153 1.2856799 2.7366943
-0.82466441 1.28764 2.7268741
-0.77608997 1.2766963 2.7269216
-0.72387654 1.2710177 2.7186484
-0.67214346 1.2705101 2.7109189
-0.62446654 1.2596844 2.716743
-0.58127296 1.2619549 2.7084315
-0.52515596 1.2561167 2.7045135
-0.47378722 1.2557961 2.70402
-1.4172601 1.34802 2.7439799
-1.3742324 1.3433601 2.7393925
-1.3242933 1.3388834 2.7376716
-1.272972 1.3340559 2.7414801
-1.2274486 1.3345643 2.7308426
-1.1731281 1.3309219 2.727129
-1.1238614 1.3224016 2.729495
-1.0769281 1.3277264 2.7225683
-1.0275967 1.3182945 2.7262065
-0.97275907 1.319217 2.7215238
-0.92160845 1.316268 2.713738
-0.87124741 1.3126229 2.7118783
-0.83156854 1.3097525 2.7074225
-1.7732134 1.3965966 2.7462866
-1.7167033 1.3907167 2.7439032
-1.67562 1.391395 2.73458
-1.6250483 1.3897284 2.7317982
-1.5744121 1.38569 2.7319961
-1.5269312 1.37963 2.7297599
-1.4742179 1.3722489 2.7301812
-1.4274256 1.3736767 2.7199156
-1.3753351 1.3673787 2.7164223
-1.3185627 1.3665285 2.712393
-1.2758325 1.35778 2.7173374
-1.2296 1.3593149 2.7073824
-1.15975 1.35833 2.7000101
-1.12676 1.3540499 2.70155
-2.120795 1.44032 2.7458601
-2.0197899 1.44733 2.74547
-1.971055 1.440045 2.7410402
-1.919686 1.4311979 2.7387099
-1.8671 1.4314801 2.7287261
-1.8218983 1.4274883 2.7282
-1.7769567 1.4253317 2.7222767
-1.7265434 1.4118533 2.7219133
-1.673892 1.4112899 2.7112079
-1.6282024 1.4171499 2.7071524
-1.5790266 1.4054567 2.7095234
-1.5106549 1.4027901 2.7051649
-2.3396499 1.49774 2.74313
-2.2639751 1.4908299 2.7439001
-2.2270765 1.48431 2.7397335
-2.1743424 1.4877925 2.7367551
-2.1199744 1.4762685 2.7270944
-2.0736868 1.4728518 2.7305868
-2.0229034 1.46851 2.7231719
-1.9719179 1.4656141 2.7095139
-1.9273801 1.4628199 2.7126451
-1.88829 1.4583868 2.714843
-1.84561 1.4515001 2.7044301
-1.78222 1.45525 2.7003901
-2.6270249 1.54239 2.73843
-2.5575252 1.5367701 2.73979
-2.5164251 1.53702 2.73873
-2.4773233 1.53756 2.7275302
-2.424098 1.5277821 2.7277038
-2.3728783 1.5198101 2.7273915
-2.3263733 1.5257999 2.7183235
-2.2753966 1.5205435 2.7182016
-2.2206233 1.5085434 2.7199233
-2.1823699 1.507225 2.704565
-2.07866 1.5039901 2.7070899
-2.8691399 1.58334 2.7495501
-2.81847 1.589455 2.7409749
-2.7705801 1.5873201 2.7381048
-2.7376101 1.5881799 2.7332599
-2.6754098 1.57691 2.7140498
-2.61185 1.5723374 2.7154474
-2.5859668 1.5702235 2.7274635
-2.5265236 1.5579801 2.7137401
-2.4733601 1.556895 2.7081251
-2.37643 1.55151 2.7012701
-3.0797999 1.63577 2.7434499
-3.02601 1.632055 2.742275
-2.8171549 1.611505 2.7116101
-2.7701766 1.6175966 2.7124465
-2.730365 1.61166 2.7142
-2.6594701 1.60022 2.7019899
-2.63676 1.61559 2.70228
-3.0808899 1.65588 2.73474
-0.41850948 -2.2028999 2.7589951
-0.37960982 -2.2186034 2.7677815
-0.33463055 -2.2225115 2.7839415
-0.285658 -2.2492001 2.79953
0.58174133 -2.2186868 2.7597034
0.6289345 -2.2134426 2.7814274
0.66529649 -2.2256851 2.7902999
0.71115649 -2.2487249 2.7947149
-0.468584 -2.1642501 2.7572999
-0.42663348 -2.1705256 2.7786512
-0.3902317 -2.1875868 2.7841632
0.58818263 -2.1905234 2.7855966
0.61103153 -2.191905 2.78859
-0.56547201 -2.1000299 2.7595301
-0.51696777 -2.1190913 2.7651973
-0.47508273 -2.1318576 2.780364
-0.443021 -2.1391599 2.79828
-0.61511201 -2.0610049 2.7608349
-0.57415879 -2.0737131 2.7738791
-0.5293659 -2.0920999 2.786092
0.73250502 -2.09338 2.7752299
0.75191498 -2.08655 2.79404
-0.71057403 -2.002965 2.7562151
-0.67055148 -2.0192072 2.7646201
-0.63352877 -2.0268049 2.7813401
-0.59177637 -2.0402267 2.7890701
0.74087101 -2.0322499 2.76806
0.75629801 -2.0175898 2.7706432
-0.76938963 -1.95645 2.76179
-0.72483164 -1.9714564 2.7749753
-0.67781323 -1.9908421 2.7906079
0.765755 -1.9795959 2.7739139
1.13929 -1.95511 2.7574899
1.1628799 -1.95146 2.7790999
-0.85516101 -1.91206 2.7508099
-0.823708 -1.9124116 2.7685914
-0.77851367 -1.9289291 2.7829974
-0.72795951 -1.943575 2.79533
0.78321272 -1.9297149 2.7706075
1.0344501 -1.909955 2.7546949
1.076764 -1.9136261 2.7609801
1.1238843 -1.9311928 2.7799358
1.1790411 -1.9296963 2.7782087
-0.91326076 -1.8674324 2.7576876
-0.87410009 -1.8787228 2.7729301
-0.83183122 -1.8857324 2.790745
0.79003298 -1.86318 2.7822001
0.80345702 -1.85796 2.7705801
0.97677618 -1.8672184 2.7668316
1.0272822 -1.8797667 2.7778044
1.07582 -1.89498 2.7874501
1.23676 -1.8751301 2.7700732
1.2642239 -1.8644979 2.7709398
-0.9691751 -1.8142223 2.7702947
-0.92720205 -1.8348964 2.7778909
-0.88937598 -1.83912 2.7948999
0.80990249 -1.823935 2.781595
0.88691372 -1.8138776 2.7622001
0.92619294 -1.8242457 2.775903
0.96579099 -1.8350315 2.7866237
1.2345266 -1.8235899 2.7922633
1.2901676 -1.8141475 2.7729626
-1.0609599 -1.7601299 2.7635434
-1.0247083 -1.7737809 2.7736952
-0.98640656 -1.7847066 2.78722
0.83144265 -1.7766539 2.7747035
0.87364167 -1.7874769 2.7790766
1.2972901 -1.780725 2.7853098
1.311156 -1.771644 2.7668178
-1.15756 -1.7031751 2.7623248
-1.1204691 -1.7224816 2.7667818
-1.07686 -1.7319756 2.7804177
-1.0443799 -1.74097 2.7945499
0.84267002 -1.74885 2.78496
1.3239433 -1.7270565 2.7768419
-1.2243874 -1.6607175 2.7614901
-1.1767718 -1.6753227 2.7745073
-1.1314768 -1.6859833 2.7884467
1.33929 -1.675424 2.7734661
1.35665 -1.65025 2.7637801
-1.30837 -1.61228 2.75981
-1.275552 -1.6221119 2.7725101
-1.2340599 -1.6324162 2.784045
-1.192245 -1.645205 2.790385
1.34393 -1.63832 2.7848799
1.3583175 -1.6158825 2.7732823
-1.40416 -1.55173 2.7555399
-1.3726425 -1.5674375 2.7662811
-1.3285918 -1.5789009 2.7771366
-1.29137 -1.5908166 2.78829
1.3723814 -1.5744871 2.7737329
-1.4610233 -1.5146967 2.7613201
-1.4249611 -1.5257833 2.773221
-1.385388 -1.5334699 2.7896819
-1.34724 -1.54246 2.7996399
1.387112 -1.530628 2.7770538
1.4018199 -1.5116251 2.7581801
-1.5612932 -1.4573532 2.7577467
-1.52211 -1.470212 2.7676442
-1.479681 -1.4808244 2.7809966
-1.4402066 -1.4939233 2.7943201
1.409398 -1.470782 2.777348
2.0629399 -1.4591 2.78407
2.2873399 -1.45955 2.7546899
-1.6216221 -1.41594 2.7614858
-1.5769677 -1.4250778 2.7775812
-1.5389967 -1.4346466 2.7879965
1.4207826 -1.4210675 2.7776675
2.1396799 -1.43092 2.7673099
2.1760201 -1.429455 2.7681451
2.2256999 -1.40797 2.75929
2.283735 -1.425315 2.7731352
2.3114567 -1.4137834 2.7595332
-1.7165633 -1.3573366 2.7568867
-1.6747081 -1.3689709 2.7717845
-1.6306975 -1.3831413 2.7805164
-1.5892999 -1.3972449 2.794805
1.4378315 -1.3769685 2.7774627
1.45392 -1.3530999 2.77549
2.0388999 -1.35838 2.7868099
2.05358 -1.37367 2.7667401
2.17661 -1.39862 2.76319
2.2310901 -1.3942 2.7730899
2.2976601 -1.39642 2.79619
2.3223732 -1.3745867 2.7727535
-1.77902 -1.316082 2.7584798
-1.7295172 -1.324367 2.7766109
-1.6826224 -1.3345175 2.7903552
1.4385099 -1.33775 2.7890501
1.4560499 -1.3246549 2.7707775
2.1261799 -1.30998 2.7585101
2.1528666 -1.3159699 2.7602866
2.2072201 -1.33865 2.7967899
2.3325601 -1.324084 2.779026
2.3650241 -1.317668 2.7613959
-1.8615867 -1.2580034 2.7597768
-1.8208873 -1.2732509 2.7716861
-1.7793835 -1.288635 2.7871134
-1.7400399 -1.29786 2.7990301
1.4793401 -1.27759 2.7744124
2.04443 -1.26761 2.7940199
2.072052 -1.2714159 2.7773178
2.1192915 -1.2773466 2.7788334
2.1645 -1.2891999 2.7883999
2.3856182 -1.278695 2.7767785
2.4026899 -1.25676 2.77807
-1.926506 -1.2167521 2.7594881
-1.8825537 -1.2278574 2.7779124
-1.8402066 -1.2347299 2.7919867
1.4952149 -1.233385 2.7693152
1.5047901 -1.2117751 2.77777
2.03459 -1.22834 2.79299
2.0713301 -1.2436199 2.7903099
2.4121523 -1.2221687 2.7764113
-2.0119724 -1.1657875 2.7577848
-1.974211 -1.1733922 2.7703032
-1.9260799 -1.1879375 2.7840066
-1.88519 -1.19648 2.7980101
1.5182462 -1.1744388 2.770015
2.4342101 -1.1713101 2.7789798
-2.1043701 -1.11295 2.75213
-2.0692317 -1.1197766 2.7658615
-2.0268016 -1.1310285 2.7812786
-1.99729 -1.14048 2.7869
1.5336072 -1.12435 2.7789426
1.55059 -1.10007 2.7556801
2.4447801 -1.1382633 2.7804165
2.4579 -1.1188333 2.7687099
-2.1604075 -1.0630875 2.7644801
-2.1223576 -1.0746255 2.77548
-2.079582 -1.092384 2.7833321
1.5460501 -1.08472 2.7899599
1.5576379 -1.0671121 2.7655301
2.475626 -1.082378 2.7704818
-2.25441 -1.01437 2.75931
-2.2169583 -1.022175 2.7667434
-2.1747186 -1.0293957 2.7781029
-2.1421299 -1.04141 2.7955401
1.5792962 -1.0242575 2.7758386
2.4897599 -1.030214 2.7766261
2.5066152 -1.0083899 2.7662249
-2.3163781 -0.96087599 2.76442
-2.2749662 -0.98036009 2.7717788
-2.2320399 -0.98889941 2.7915032
1.59984 -0.97989798 2.7781
1.608126 -0.97015399 2.774714
2.5195918 -0.97526073 2.7745326
-2.4084499 -0.91224802 2.75776
-2.3702316 -0.92252767 2.772043
-2.32687 -0.93018895 2.7852285
-2.29386 -0.94047499 2.7996399
1.6297545 -0.92233521 2.7741733
1.73507 -0.92523003 2.7530701
2.5388734 -0.92259574 2.7727349
-2.50263 -0.853769 2.7575901
-2.4647717 -0.87031609 2.7618315
-2.4283161 -0.87904865 2.7784786
-2.3873649 -0.89688098 2.7840352
1.648725 -0.8818785 2.78828
1.6680728 -0.87051898 2.7653859
1.7173051 -0.87394202 2.77126
2.5497999 -0.89261699 2.7993
2.564966 -0.86839306 2.7761359
-2.5616467 -0.81431532 2.7609398
-2.5206985 -0.82385057 2.7767003
-2.4720049 -0.83351076 2.7901149
1.6756101 -0.845456 2.7930598
1.70214 -0.84714401 2.78685
2.5803969 -0.82200688 2.7758615
-2.6214299 -0.77423686 2.763175
-2.57954 -0.77863884 2.7839651
-2.547965 -0.78555202 2.7941949
2.59884 -0.77767801 2.783515
2.6042299 -0.759184 2.7772002
-2.7530701 -0.703403 2.75142
-2.7178841 -0.71556753 2.7622221
-2.6717713 -0.72111213 2.7793887
-2.6324725 -0.74054378 2.7878425
2.6181641 -0.72898781 2.7696319
-2.7721186 -0.66615397 2.7729199
-2.7275941 -0.68022621 2.7855921
2.6335099 -0.68137759 2.7767198
-2.8594201 -0.60546798 2.75195
-2.8120098 -0.61920398 2.7734771
-2.784215 -0.63121545 2.7969451
2.6441002 -0.64685297 2.7787199
2.6567433 -0.6172213 2.7706966
-2.9193799 -0.55665302 2.75598
-2.8753715 -0.5678249 2.7736771
-2.835825 -0.58824098 2.7780299
2.6671021 -0.57611597 2.767262
-3.00914 -0.50883502 2.7544799
-2.9714799 -0.51519477 2.774442
-2.9291739 -0.53389466 2.7750401
-2.89622 -0.54100198 2.7983799
2.6855359 -0.52873343 2.7751479
-3.0601902 -0.464385 2.7656868
-3.0245435 -0.47530314 2.7784433
-2.992425 -0.49233449 2.7880499
2.7117274 -0.47126839 2.7750316
-3.1177225 -0.41997302 2.7627475
-3.0778279 -0.42325538 2.778264
-3.03704 -0.44006601 2.78917
2.7336533 -0.42229283 2.7788
-3.2202168 -0.36196765 2.7611763
-3.1738279 -0.36904937 2.7752781
-3.130275 -0.38511074 2.7856677
2.7478199 -0.37897751 2.782295
2.7606676 -0.36563376 2.7727075
-3.30847 -0.302995 2.7555201
-3.2731216 -0.32123649 2.7728016
-3.2255278 -0.32446948 2.787915
1.6910501 -0.30024001 2.7943599
2.7802417 -0.31781831 2.7731183
-3.3132274 -0.27569628 2.7779725
1.5941267 -0.266563 2.7959869
1.6224875 -0.26821238 2.7791464
1.6701186 -0.26538628 2.7715929
1.7196239 -0.2673642 2.7855659
1.7780184 -0.26728851 2.7813532
1.808265 -0.26545051 2.7754149
2.7906799 -0.283499 2.7866249
2.8044949 -0.2653535 2.7697501
-3.3528399 -0.249338 2.7967401
1.3827525 -0.215739 2.7927125
1.4240873 -0.20765328 2.7786345
1.4758033 -0.21867722 2.7735157
1.5269599 -0.23346312 2.7778997
1.5724671 -0.23428044 2.7695258
1.62082 -0.2351286 2.759156
1.68828 -0.23754799 2.7623501
1.719548 -0.23220041 2.7558818
1.77333 -0.23996499 2.7548099
1.80214 -0.240795 2.7520001
2.81529 -0.23416397 2.779458
1.3967201 -0.185849 2.7702799
1.4149318 -0.17222883 2.7783535
2.83529 -0.18636701 2.7731824
2.8508101 -0.160016 2.7736199
-2.7572501 -0.139387 2.7892001
-2.7220399 -0.1298005 2.7843726
-2.6683567 -0.10822833 2.7705033
1.4260077 -0.11929165 2.7736721
2.8617859 -0.1208712 2.7730081
-2.6703701 -0.068196833 2.7786617
1.4429621 -0.074421816 2.7760441
2.8839059 -0.07458318 2.7699561
2.90172 -0.053452998 2.7939601
-2.6789074 -0.025204375 2.7881176
1.4659812 -0.02648095 2.7774923
2.9099667 -0.029341066 2.7806101
-2.6705098 0.0093609747 2.79477
-1.13802 0.00064118498 2.7842
-1.00475 0.041539099 2.7571599
-0.98184061 0.03615902 2.768568
1.4875529 0.019342387 2.7754059
1.50219 0.0442569 2.7736499
2.9245503 0.022421371 2.7708678
-2.6175301 0.086575203 2.79917
-1.0174199 0.071331359 2.763855
-0.99788898 0.055551901 2.7795999
1.49614 0.066432446 2.79564
1.5088567 0.073316582 2.76876
2.9408426 0.064244099 2.7825651
2.9593201 0.091734603 2.78319
-2.5827224 0.12374075 2.7684174
-1.0366299 0.117819 2.7804251
1.518766 0.1260511 2.775373
2.98599 0.13760051 2.7741849
-2.5740225 0.17278542 2.7711568
1.5233986 0.17580901 2.7749629
2.9881301 0.165097 2.7750199
3.0028801 0.18426199 2.7878101
-2.60237 0.23970801 2.77598
-2.5874982 0.21885939 2.7796779
1.5359401 0.21025367 2.7735767
1.5538832 0.23440133 2.7600632
1.8193365 0.23299901 2.7578232
1.86017 0.230489 2.7776301
2.9999499 0.202415 2.7841001
3.0102761 0.22438522 2.772764
-2.6019549 0.26526648 2.773725
-2.5945349 0.27862197 2.787765
1.53936 0.273523 2.7976151
1.5702286 0.28458601 2.7759144
1.79404 0.273397 2.7686901
1.8151366 0.28522268 2.7790699
3.0274217 0.27684781 2.7772551
-2.616775 0.3172245 2.77002
-2.5918601 0.32109147 2.7812998
1.5794634 0.32044268 2.7763767
1.6293221 0.33608958 2.7717381
1.665885 0.34309351 2.764415
1.7251849 0.3399685 2.7815275
1.7698034 0.31401566 2.7803898
1.80554 0.30564401 2.7837801
3.0483301 0.32475448 2.7870898
3.0555301 0.32354149 2.7608349
1.633682 0.36810279 2.789046
1.6733987 0.37770203 2.7855413
1.7186533 0.36838832 2.7895935
1.76607 0.35113651 2.797755
1.92136 0.38985401 2.7899499
1.97348 0.39244801 2.7853999
2.0354099 0.38101199 2.7945099
2.05024 0.39664701 2.7813699
3.068222 0.36840081 2.7812903
1.642915 0.42024252 2.7906201
1.6630299 0.42056051 2.7834475
1.9182651 0.42633498 2.7648501
1.977855 0.41357499 2.7572598
2.028795 0.40975398 2.7658999
2.0787749 0.42296952 2.7853999
3.0919549 0.42937601 2.7746251
3.1034801 0.447631 2.7578399
1.6241399 0.46372166 2.7827435
1.90308 0.45923701 2.7860599
3.0998299 0.468539 2.7853
3.1083965 0.48041132 2.7692001
1.595835 0.51334453 2.7702851
3.1154051 0.52570802 2.7747633
1.84863 0.553298 2.7535999
1.8704799 0.55520999 2.7543399
1.96279 0.57960802 2.7583001
2.027025 0.58118802 2.7857499
3.1275048 0.57477498 2.7782674
1.8884932 0.62275904 2.7696431
1.92287 0.62270939 2.7692659
1.96533 0.63239902 2.7848499
3.1383317 0.62397265 2.7799118
-2.8547101 0.667624 2.7999899
1.81915 0.68232 2.7817349
1.9322701 0.66350502 2.79533
3.1399598 0.67354149 2.7895951
3.1555352 0.67278004 2.769645
-3.0520201 0.72505802 2.79231
-3.0187302 0.73075545 2.79143
1.8275001 0.70875049 2.78951
1.869805 0.72233629 2.7950625
1.9177901 0.71133 2.7966599
3.0892401 0.73686397 2.7982399
3.1302381 0.72418982 2.7843401
3.1600435 0.72109461 2.7641933
2.9296799 0.78703707 2.7900698
2.9810152 0.78935301 2.7844
3.019805 0.77595353 2.79146
3.0711153 0.77707118 2.7780249
3.120486 0.77098763 2.7653
3.1530499 0.75731403 2.7500999
1.93919 0.84693003 2.7978101
1.9661499 0.84019327 2.78982
2.0232134 0.83921736 2.7909935
2.0790777 0.83735549 2.7887275
2.1241767 0.84063834 2.7904568
2.1718931 0.83548594 2.7911065
2.2309134 0.84316665 2.7912166
2.27953 0.83872402 2.7955151
2.3219573 0.83347225 2.7850552
2.3748801 0.84021699 2.7838874
2.4364598 0.83453232 2.7894332
2.4767601 0.8384636 2.7818
2.52543 0.83543116 2.7793415
2.57163 0.82745665 2.7852232
2.6265099 0.82877523 2.7865236
2.67414 0.83394402 2.7802501
2.72434 0.825508 2.7789562
2.778372 0.82589161 2.7835221
2.8256173 0.83458447 2.7760701
2.8769968 0.82289678 2.7788782
2.9228249 0.81801349 2.770505
2.9781399 0.82307649 2.75683
3.0176172 0.8101753 2.7645626
1.53776 0.89540899 2.7922399
1.5786099 0.89536428 2.7889199
1.629985 0.88525379 2.7888451
1.6732984 0.88024682 2.7858236
1.7236888 0.88239908 2.7802913
1.7772071 0.88141835 2.77754
1.8247087 0.87532371 2.7748375
1.8725033 0.87037891 2.7739353
1.9227983 0.86994296 2.7718999
1.9722779 0.86829537 2.7680159
2.0194001 0.86551219 2.7688956
2.0764923 0.8653515 2.7608826
2.125042 0.86379135 2.7632661
2.1769149 0.86327171 2.7685223
2.2252066 0.86097127 2.7677631
2.2746899 0.85882449 2.7672801
2.3286099 0.86349821 2.7625642
2.3851349 0.86319399 2.757565
2.4198902 0.85720634 2.7633965
2.4693251 0.857813 2.7624099
2.5049901 0.86118197 2.7543299
2.5791001 0.85417855 2.759475
2.636385 0.86144102 2.7563
2.681325 0.85855103 2.75717
2.70644 0.85202003 2.7530501
2.7674201 0.85986 2.7502799
2.8186851 0.85825849 2.7546802
0.96758997 0.94885701 2.7983
1.04646 0.94074202 2.79968
1.0769967 0.94210297 2.7946799
1.1259433 0.94667673 2.7940998
1.1733283 0.94231719 2.7899551
1.226818 0.93428439 2.7922199
1.2728567 0.93639499 2.7880116
1.3231 0.93321812 2.7855055
1.3725623 0.9316327 2.7789679
1.4286441 0.92520297 2.7825389
1.4776409 0.92414731 2.7751498
1.5289401 0.92037749 2.7678957
1.57752 0.91799986 2.760602
1.6209015 0.91020596 2.765167
1.671616 0.90973938 2.7581439
1.723685 0.9092505 2.755415
1.7745233 0.90518767 2.75653
1.8126301 0.903548 2.7516201
0.55144501 0.99617499 2.79792
0.63040102 0.99899352 2.7925801
0.72754079 0.9870882 2.7915151
0.77339214 0.98563153 2.7892096
0.82487881 0.98394072 2.7872114
0.87429583 0.9822098 2.776767
0.92542285 0.98044354 2.774539
0.97743481 0.97485608 2.7758005
1.024825 0.97004098 2.7745132
1.0728631 0.97301382 2.7671175
1.1201925 0.9673633 2.767015
1.1746289 0.96655113 2.7649674
1.22352 0.96005851 2.7671885
1.2778486 0.96062553 2.7639601
1.33104 0.95786136 2.7569497
1.3926101 0.95732349 2.7574999
1.4190034 0.95266002 2.7580833
0.171407 1.04399 2.7994101
0.24136899 1.04567 2.7996399
0.27623701 1.0457625 2.7971976
0.32468349 1.0411899 2.7910399
0.37381524 1.03882 2.79004
0.4274784 1.0361676 2.7818227
0.47404757 1.0321864 2.7845092
0.52639097 1.0274408 2.7769694
0.57501984 1.0253253 2.7725325
0.62583441 1.0249733 2.7683761
0.67316514 1.0132076 2.7772493
0.72430789 1.0151457 2.7660887
0.77204621 1.0105478 2.7672021
0.82325619 1.0094849 2.7596066
0.87038219 1.0074799 2.7555959
0.91217101 1.00704 2.7525201
-0.027995432 1.0921932 2.7948933
0.030759655 1.0868033 2.7897077
0.073926948 1.0836934 2.7854156
0.12238392 1.0823625 2.7804391
0.17772426 1.0746318 2.7779734
0.22638385 1.0752751 2.7767284
0.27344754 1.0735047 2.7726359
0.32414338 1.0701908 2.7645929
0.37179494 1.064913 2.7649951
0.42659789 1.0633689 2.759872
0.47262228 1.0579975 2.7566125
0.51845866 1.0560633 2.75507
-0.41182798 1.1444299 2.797905
-0.37537566 1.1408967 2.7930634
-0.32397503 1.14284 2.7859459
-0.27506983 1.1404184 2.781235
-0.22525379 1.1294684 2.7830744
-0.17656019 1.1264911 2.780163
-0.12581588 1.1235663 2.776865
-0.072212555 1.1201165 2.773649
-0.023174586 1.1180382 2.7694361
0.022962268 1.1127344 2.7678254
0.073549971 1.1119701 2.7585618
0.11724267 1.1093451 2.7571251
0.17687199 1.1037126 2.7532651
0.21831051 1.1039951 2.7515001
-0.75979298 1.19859 2.7947299
-0.74487698 1.19778 2.7959299
-0.6619854 1.188612 2.7898221
-0.62255198 1.1861264 2.7859266
-0.57802194 1.1807079 2.7852068
-0.52253157 1.1816708 2.7765179
-0.47452712 1.1778141 2.7739182
-0.42410004 1.174708 2.772774
-0.37480542 1.1684936 2.7685497
-0.32417512 1.164039 2.76389
-0.27369651 1.1627432 2.7586014
-0.22759472 1.1598142 2.7574484
-0.17558368 1.1510934 2.7556236
-0.1409245 1.1509399 2.7567251
-1.01463 1.24268 2.7981999
-0.99806798 1.24045 2.79742
-0.92931277 1.2404716 2.7887535
-0.86766416 1.2398349 2.7827151
-0.81996816 1.2279181 2.7867689
-0.77549976 1.2232984 2.7778699
-0.72522533 1.2178521 2.7689312
-0.6803841 1.2144334 2.7697401
-0.6277377 1.2133685 2.7603016
-0.57498217 1.2099799 2.7585917
-0.54076904 1.2096167 2.7567966
-1.422585 1.298475 2.7964201
-1.37607 1.29098 2.7958667
-1.3221025 1.2870575 2.7956176
-1.2758218 1.2826582 2.7906635
-1.2294912 1.2852676 2.7867115
-1.1781422 1.2746633 2.7835467
-1.1232537 1.2743937 2.7741764
-1.0742472 1.2799263 2.7728891
-1.0254368 1.2747707 2.7696438
-0.97753555 1.2698425 2.771755
-0.92968684 1.2675924 2.7643847
-0.87375438 1.2612771 2.7647288
-0.82879573 1.264832 2.7548521
-0.79941201 1.25079 2.7523501
-1.80662 1.3452801 2.79054
-1.78958 1.34461 2.79757
-1.7162399 1.34759 2.7925849
-1.67837 1.34286 2.7985249
-1.6190475 1.3380224 2.7896647
-1.570084 1.3327081 2.784116
-1.5234555 1.3279732 2.7833743
-1.473089 1.3255011 2.7759461
-1.4254746 1.324931 2.7719421
-1.3738827 1.3159025 2.7758751
-1.33073 1.3148834 2.7701299
-1.2788242 1.3116214 2.7652314
-1.2224439 1.313318 2.7607341
-1.1862566 1.3077 2.7626734
-1.08792 1.30134 2.7525301
-2.0260301 1.390635 2.79721
-1.9808267 1.3915267 2.78969
-1.919205 1.384475 2.78685
-1.8742534 1.38379 2.7835767
-1.8165799 1.3791384 2.7763183
-1.7711601 1.3690184 2.7727463
-1.7253901 1.3673058 2.7773871
-1.6719371 1.3690771 2.7669628
-1.629072 1.362138 2.766964
-1.580022 1.358784 2.762568
-1.526185 1.35481 2.7585349
-2.31038 1.44876 2.79286
-2.274235 1.442335 2.7968249
-2.2218359 1.4378741 2.782176
-2.1691 1.4345725 2.7686825
-2.1268599 1.42468 2.7800162
-2.0730727 1.4314063 2.7696977
-2.0229621 1.4175 2.7776821
-1.973938 1.4172119 2.762748
-1.9282466 1.4160733 2.7647734
-1.8675151 1.4074125 2.7620375
-1.82082 1.40871 2.7531199
-2.5239301 1.4839799 2.7880349
-2.4828751 1.4844348 2.7864048
-2.4251328 1.4798601 2.7809074
-2.3672831 1.4746318 2.7738616
-2.3188503 1.4729849 2.7712536
-2.2803433 1.4718066 2.7637432
-2.2281234 1.4658632 2.7609999
-2.17694 1.463995 2.7505951
-2.8580501 1.54969 2.78685
-2.8222799 1.54039 2.78406
-2.7724502 1.5299631 2.7879136
-2.7158749 1.5286825 2.7756076
-2.66956 1.5271375 2.7719152
-2.6282532 1.5214767 2.7783401
-2.5818298 1.518348 2.7719259
-2.5269451 1.5164551 2.7611451
-2.4763801 1.5085334 2.7619534
-2.419955 1.5032949 2.7643299
-2.9164 1.57986 2.7700548
-2.8977301 1.5609699 2.7927999
-2.8280201 1.56238 2.7821
-2.7887802 1.560285 2.77162
-2.7428 1.5541101 2.75383
-3.18589 1.6114 2.7946601
-3.0944951 1.61414 2.770505
-3.0162802 1.612645 2.7593699
-0.302324 -2.2519701 2.80165
-0.2618545 -2.2546501 2.808135
-0.21902481 -2.2613218 2.8318439
-0.1777215 -2.2715576 2.8421152
-0.124391 -2.2804999 2.8475101
0.57192397 -2.27108 2.81828
0.75868398 -2.25055 2.8195
-0.36553699 -2.2061501 2.8002901
-0.3112556 -2.2123501 2.8133359
-0.27023667 -2.2227945 2.8299868
-0.23838049 -2.2388649 2.8369598
0.67982167 -2.2183101 2.8155632
0.72225785 -2.2247169 2.8261514
0.76931906 -2.23246 2.8427424
-0.37317076 -2.1681948 2.8170762
-0.32876766 -2.1819508 2.8319957
0.58628899 -2.1823568 2.8180835
0.63368469 -2.1828635 2.815408
0.67652297 -2.194875 2.8285999
-0.47060627 -2.1081026 2.8083675
-0.42482054 -2.1245389 2.8231757
-0.38147703 -2.1360145 2.8374557
0.72156048 -2.1245899 2.83795
-0.55158901 -2.0590999 2.8008499
-0.51724929 -2.0676301 2.8179986
-0.47729814 -2.0762951 2.8316953
-0.43931869 -2.0924399 2.8415899
0.73550564 -2.0799034 2.83249
0.75691402 -2.0520799 2.8431599
-0.61896235 -2.0103467 2.8061733
-0.57206357 -2.0198262 2.8261616
-0.52869922 -2.0369301 2.8375242
0.75139248 -2.0130801 2.8372099
-0.70675999 -1.9504 2.81007
-0.67342931 -1.9636928 2.8130329
-0.62777054 -1.9771971 2.8322721
-0.59984797 -1.9958 2.83183
0.76589656 -1.970325 2.8283427
-0.75810403 -1.9093933 2.8140533
-0.72301012 -1.9194913 2.8260047
-0.68110448 -1.936146 2.839994
0.78033453 -1.9206251 2.8244948
1.1395067 -1.9109634 2.8047667
1.1831566 -1.9093434 2.8111765
-0.85983598 -1.8589799 2.8005099
-0.82190531 -1.8648633 2.8135099
-0.77978778 -1.8803034 2.828088
-0.73994899 -1.89024 2.8441
0.79162425 -1.8700025 2.8267176
1.0311899 -1.8551499 2.8065603
1.0771457 -1.8690386 2.8206069
1.11783 -1.8768672 2.8257802
1.1679634 -1.8869051 2.83371
1.20228 -1.8811866 2.8304064
1.26469 -1.86022 2.80829
-0.91158366 -1.8153033 2.8072367
-0.87313777 -1.8241744 2.8203669
-0.83297926 -1.8350575 2.8323653
0.79739398 -1.83347 2.8346701
0.80976653 -1.81784 2.8231101
0.98351216 -1.8168265 2.8215249
1.024428 -1.8316438 2.8334141
1.0742533 -1.8421866 2.8432968
1.274047 -1.8221029 2.8180172
-1.00046 -1.7621599 2.80917
-0.96304703 -1.7703029 2.8186841
-0.92771178 -1.7806867 2.8299513
-0.88584477 -1.7924725 2.8394749
0.819561 -1.7658601 2.8199065
0.87655872 -1.75985 2.8066902
0.92056543 -1.7763551 2.8185627
0.96923077 -1.788675 2.8369598
1.238845 -1.789675 2.82411
1.2883775 -1.77624 2.8287449
1.30305 -1.7563701 2.81499
-1.06845 -1.7103651 2.804575
-1.0226191 -1.7251216 2.8227658
-0.97659969 -1.73729 2.8378704
0.84137249 -1.72359 2.8288863
0.87415963 -1.7343359 2.8288219
0.90517551 -1.74112 2.8432851
1.2274051 -1.7411849 2.8150501
1.3181701 -1.7208718 2.832835
-1.155795 -1.656875 2.8064351
-1.1221023 -1.6682256 2.8161566
-1.0790625 -1.6799208 2.8311141
-1.04176 -1.6942799 2.83834
1.3360679 -1.6731541 2.8261979
-1.2511801 -1.60337 2.8025
-1.2150267 -1.61449 2.8117402
-1.1741799 -1.6243241 2.8247359
-1.1312081 -1.6321461 2.838974
1.34734 -1.63808 2.843945
1.3566233 -1.6217766 2.8269632
-1.310035 -1.560715 2.81214
-1.2713046 -1.57338 2.8173032
-1.2265657 -1.5821501 2.8357527
-1.19548 -1.59703 2.8487401
1.37029 -1.5663875 2.828465
-1.3701301 -1.5146675 2.8181875
-1.327805 -1.5316529 2.8291759
-1.2779851 -1.5450026 2.8416123
1.3867486 -1.5177271 2.8235097
-1.4704 -1.4609066 2.8065434
-1.4230891 -1.472865 2.8214519
-1.3800241 -1.48754 2.8329639
1.4070101 -1.4708024 2.8238199
-1.55009 -1.41352 2.8071401
-1.5150813 -1.4202162 2.8163199
-1.4772221 -1.429451 2.8325348
-1.43092 -1.445065 2.8445749
1.4140841 -1.425548 2.8266881
2.1745834 -1.4274035 2.8109798
-1.615682 -1.360726 2.8117859
-1.5732665 -1.3783054 2.8223121
-1.531958 -1.3885021 2.8360362
1.4283983 -1.378915 2.8284385
2.1013 -1.37718 2.80446
2.2798951 -1.381485 2.8228252
2.3108051 -1.3667325 2.8179326
-1.7058001 -1.31217 2.8052299
-1.6674767 -1.3219849 2.8174999
-1.6278987 -1.3301225 2.8356776
-1.59524 -1.34525 2.84832
1.44371 -1.34155 2.8429899
1.4576762 -1.31525 2.8250556
2.0678599 -1.3158267 2.81303
2.23859 -1.34715 2.8032601
2.3228734 -1.3277633 2.8103502
-1.7736015 -1.2653199 2.8102617
-1.7264956 -1.276958 2.826407
-1.6815681 -1.29317 2.835278
1.4696459 -1.271224 2.8267059
2.04651 -1.25222 2.8031499
2.1471601 -1.2551399 2.8116601
2.1767249 -1.270915 2.8138351
2.3322625 -1.2832999 2.8344073
2.3622119 -1.2735001 2.8104882
-1.85982 -1.211905 2.80371
-1.8191301 -1.2196975 2.8216524
-1.7779443 -1.2333214 2.8333514
1.4868401 -1.2276512 2.8248086
2.07619 -1.23148 2.8394499
2.122335 -1.2360976 2.8265777
2.1593399 -1.2367151 2.8369951
2.3419499 -1.24437 2.84396
2.3845813 -1.2305486 2.8247085
-1.96527 -1.15707 2.8008001
-1.9242901 -1.160422 2.810998
-1.8770088 -1.17711 2.8269789
-1.84325 -1.192515 2.836705
1.49654 -1.19131 2.84883
1.5099751 -1.1755834 2.8221016
2.4151599 -1.1756343 2.8234344
-2.0146399 -1.1129301 2.80562
-1.9713999 -1.1279035 2.8202245
-1.9218321 -1.135408 2.8367679
1.525424 -1.122982 2.8287981
2.4364679 -1.128222 2.831744
2.4568801 -1.104395 2.8129251
-2.1039901 -1.05536 2.80375
-2.0682657 -1.0656629 2.8159444
-2.0276878 -1.0818489 2.8220911
-1.9894733 -1.09367 2.8364935
1.5417941 -1.0808899 2.8291719
1.553805 -1.059265 2.813935
2.4675641 -1.0736639 2.8187201
-2.16466 -1.01112 2.8029001
-2.1246135 -1.0232878 2.8207889
-2.0795197 -1.034766 2.8353119
1.54953 -1.04365 2.84899
1.569953 -1.0210685 2.8199
2.4840667 -1.0282416 2.8301151
-2.2636251 -0.95512247 2.8050101
-2.2200215 -0.96426868 2.8208799
-2.1786036 -0.98534167 2.8258111
-2.141995 -0.99100196 2.8440499
1.5888834 -0.98030353 2.8251817
1.604905 -0.95688999 2.8130951
2.4963865 -0.98805237 2.8225434
2.5130434 -0.96069598 2.8278034
-2.3144102 -0.91163248 2.81778
-2.2757072 -0.92499739 2.8221529
-2.2397068 -0.93552464 2.8390067
1.6134099 -0.92680115 2.8298912
2.5264366 -0.92798704 2.8244133
-2.41786 -0.85750896 2.8047035
-2.3738165 -0.86843121 2.8193433
-2.3317714 -0.88603687 2.8304355
-2.2934799 -0.896402 2.8438301
1.6357101 -0.87585515 2.8260787
1.65211 -0.86064303 2.8000801
1.73069 -0.85360003 2.80004
2.5432401 -0.87739229 2.8208427
2.5525701 -0.85853702 2.8112299
-2.5063901 -0.80916202 2.80458
-2.4685333 -0.81182534 2.8124702
-2.4285257 -0.82157356 2.8279426
-2.3926549 -0.83683503 2.8381
1.61024 -0.801341 2.8454499
1.6736389 -0.82452655 2.8274009
1.7272824 -0.82647455 2.8273799
2.5482101 -0.83660448 2.8453898
2.5650058 -0.82170027 2.8213181
-2.56024 -0.76328099 2.8132401
-2.5218198 -0.77543169 2.8209827
-2.4788139 -0.78604704 2.8349957
1.3897099 -0.76246649 2.83955
1.433805 -0.75848305 2.838825
1.473444 -0.76335514 2.8369298
1.5263901 -0.76713681 2.8381999
1.57161 -0.79230833 2.8470333
1.68792 -0.793365 2.8457401
1.7127733 -0.79004067 2.8431733
2.5870717 -0.77330488 2.8211367
-2.6635599 -0.70284402 2.8138299
-2.6185861 -0.72274601 2.8109601
-2.5765672 -0.73175043 2.8293302
-2.5257134 -0.74589801 2.8410366
1.392185 -0.73561752 2.8411202
1.422645 -0.72426283 2.8303521
1.4755249 -0.73796499 2.8355451
2.5915899 -0.7394315 2.833755
2.6107481 -0.71818423 2.8233099
-2.7202332 -0.65976971 2.8089902
-2.6726532 -0.66990799 2.8299391
-2.6235099 -0.69267601 2.8352551
-2.5890651 -0.69924551 2.8431902
1.41409 -0.68860102 2.8499899
2.6301601 -0.66974849 2.8249118
-2.7656801 -0.61682564 2.8169699
-2.727545 -0.63480973 2.8318701
2.6459067 -0.61842966 2.8353665
2.6523099 -0.62460554 2.8082449
-2.8261154 -0.56867588 2.8185401
-2.7794666 -0.58346635 2.8315268
2.6648319 -0.57823884 2.8168302
-2.9156101 -0.51324767 2.8108666
-2.8721235 -0.52341849 2.8242319
-2.8247726 -0.53032398 2.838695
2.6786416 -0.53003532 2.8252802
-2.9728134 -0.46868768 2.8143368
-2.9319339 -0.4848946 2.8349242
2.6944499 -0.48151198 2.8307681
2.7013199 -0.45960501 2.8213999
-3.05423 -0.405608 2.80902
-3.0235016 -0.42304727 2.81901
-2.9781568 -0.43418834 2.8394699
2.718622 -0.4287594 2.8240659
-3.15013 -0.35480899 2.80653
-3.1151867 -0.35985434 2.81686
-3.0836649 -0.38038525 2.8230476
-3.0492101 -0.38882899 2.8378699
2.7397051 -0.37770152 2.8308926
2.7523251 -0.3642675 2.8209751
-3.2148035 -0.30813533 2.81476
-3.172256 -0.32258981 2.8164001
-3.13061 -0.32758552 2.8391376
1.58626 -0.30038601 2.84672
1.64218 -0.317498 2.84251
1.6702648 -0.31963682 2.8236382
1.730865 -0.3122355 2.8263025
1.7694875 -0.31367099 2.8233428
2.76297 -0.31994566 2.8200216
-3.2728264 -0.27253067 2.8142197
-3.2286525 -0.27489424 2.8348475
1.34793 -0.276656 2.84182
1.373852 -0.2678242 2.8313501
1.4214975 -0.26717952 2.8319051
1.4774417 -0.27305481 2.8358533
1.5254982 -0.2759698 2.833138
1.5705689 -0.28315699 2.8272712
1.6263866 -0.29944035 2.8164966
1.65907 -0.29991099 2.8063099
1.73562 -0.28758201 2.80351
1.7671499 -0.2843453 2.8112133
2.779942 -0.2708196 2.825304
-3.3772199 -0.212392 2.8194399
-3.3225167 -0.22993301 2.8215983
-3.2731681 -0.2328448 2.840946
1.3783071 -0.22993028 2.8207202
1.4276266 -0.24006049 2.8108168
1.4710466 -0.248504 2.8079669
2.7963901 -0.249276 2.8111701
2.8122597 -0.22028799 2.81831
-3.4081199 -0.17522299 2.84723
-3.3636534 -0.18649633 2.8314764
-2.7786 -0.159119 2.8412199
-2.73264 -0.15748601 2.82515
1.394215 -0.17066701 2.8274074
1.40675 -0.174531 2.8259599
2.8285484 -0.17648244 2.8247273
-2.71539 -0.13115449 2.8394051
1.3970749 -0.13851151 2.843585
1.4161614 -0.12662186 2.8267155
2.8453598 -0.13709466 2.81229
2.8547268 -0.113738 2.8332767
-2.6605802 -0.064376429 2.8223202
1.4338032 -0.072578378 2.8307383
1.45144 -0.057767101 2.8132701
2.8740902 -0.071640469 2.8262901
-2.6608925 -0.025357498 2.8309326
1.4473075 -0.028669426 2.8316774
1.4527 -0.02855015 2.8160501
2.8896799 -0.035682298 2.8476701
2.9054832 -0.023470834 2.8195934
-2.66342 0.013766621 2.8258777
1.4757067 0.021854557 2.8220897
2.9152133 0.018990288 2.8236201
-2.66172 0.0527726 2.816
-2.62798 0.069682904 2.81071
-1.0123767 0.074910402 2.8196967
-0.9733882 0.063059695 2.8169734
1.4883271 0.076401457 2.8246243
2.931932 0.073774137 2.822674
1.4899529 0.12297399 2.8312345
1.50344 0.12548925 2.8075976
2.9451301 0.110782 2.83448
2.9591551 0.12936801 2.8309026
3.0051501 0.148591 2.82444
-2.59285 0.173058 2.8312099
1.5099567 0.17797785 2.8232317
2.9907598 0.17546201 2.80966
-2.57165 0.22367783 2.8206615
1.5289086 0.22763099 2.83709
1.56125 0.238868 2.8232851
2.9932668 0.210234 2.8321533
3.0024033 0.23510933 2.8282766
-2.5807784 0.27609265 2.8271151
1.5314034 0.258304 2.8295834
1.5702674 0.26144424 2.8209801
1.88131 0.28074449 2.8215699
1.91225 0.29086551 2.8349199
3.0217726 0.28370202 2.8236926
-2.5878952 0.32862416 2.8305931
1.83419 0.33021867 2.8151934
1.8636351 0.32701275 2.8229151
1.9242767 0.32860717 2.8384666
1.9664665 0.338752 2.8402064
3.0364852 0.32650352 2.8256602
-2.622395 0.37421298 2.8327301
-2.5810452 0.38501203 2.8331425
1.6263899 0.3809638 2.828614
1.72569 0.396346 2.8090301
1.7659985 0.3838135 2.8158848
1.8207722 0.37472361 2.8199458
1.8720232 0.35824904 2.8163135
1.9248266 0.38118502 2.8067133
1.9919866 0.36495003 2.8204734
2.02809 0.36344725 2.8262999
2.06989 0.36185598 2.8285699
2.1027 0.38754901 2.8224001
3.0442333 0.36192366 2.8351567
3.0658734 0.387164 2.8193634
1.6301901 0.42035779 2.823916
1.7248 0.42084199 2.8210602
1.798905 0.41020948 2.827265
1.820135 0.42404428 2.8345199
1.8879033 0.43322933 2.8208497
1.9064801 0.40724951 2.8141999
2.0977399 0.40271199 2.8138299
3.0725176 0.4219135 2.8160925
1.62485 0.47726199 2.8273699
1.83534 0.46183997 2.8454151
1.8785779 0.46088681 2.8269439
1.9013799 0.47045699 2.81446
3.0870621 0.46746498 2.8274522
3.10111 0.490437 2.81726
1.84286 0.518637 2.8491199
1.87842 0.51188898 2.839165
3.0928049 0.520486 2.839205
3.1090667 0.52947205 2.8191299
-2.7240334 0.58197832 2.8475034
3.09934 0.58784598 2.83514
3.1064224 0.56844401 2.827795
-2.8529401 0.63515699 2.8357699
-2.8297 0.64098299 2.8268299
-2.7820098 0.63460237 2.8366966
-2.7224767 0.61128634 2.8411398
-2.6740301 0.60110497 2.8434701
2.02372 0.63719696 2.81441
3.1139615 0.62674171 2.8252685
-3.0078001 0.68621898 2.82129
-2.9590549 0.6721375 2.8241649
-2.9272499 0.69436997 2.80458
-2.88849 0.65728003 2.8362899
-2.8210449 0.66601551 2.8134799
1.7417099 0.69791198 2.8204999
1.79154 0.69916099 2.8009
1.89946 0.69463903 2.8054299
1.94329 0.68315297 2.8080499
1.980854 0.67459202 2.8127522
2.0203066 0.68062037 2.8119233
2.0653934 0.68310469 2.8322766
3.0882649 0.6747815 2.8438449
3.1160202 0.67456681 2.8186302
-3.0970099 0.716892 2.8369601
-2.9925399 0.71040249 2.80197
1.67761 0.74350601 2.8387201
1.71861 0.73228145 2.8429551
1.8296933 0.73929733 2.8204601
1.8937 0.74589401 2.81917
1.90615 0.72872299 2.8085301
1.97217 0.71622866 2.8223832
2.013195 0.70962048 2.8233552
2.8965199 0.74053699 2.8454199
2.938405 0.74406052 2.8364549
2.9840233 0.73754263 2.84389
3.0324967 0.72914201 2.8365133
3.0701969 0.71557999 2.8243248
3.1110048 0.70189595 2.8086848
-3.1811099 0.76130801 2.809
1.73568 0.76403803 2.8305299
1.7751476 0.77491176 2.8430624
1.8155438 0.77546459 2.84442
1.8727825 0.79007924 2.8443799
1.94078 0.79027498 2.8485899
1.970745 0.79257101 2.8427649
2.0190558 0.79040879 2.8376622
2.0751598 0.78834063 2.8458633
2.1252766 0.78719735 2.8389266
2.17714 0.79024225 2.8375325
2.2312751 0.78927052 2.8441849
2.2827368 0.78883266 2.8398933
2.3193834 0.79168701 2.8310101
2.3761201 0.789832 2.84815
2.4231532 0.79393464 2.8387334
2.474335 0.79057801 2.8350949
2.51474 0.78145403 2.8409567
2.5815165 0.78930968 2.8393269
2.6263382 0.78525424 2.8334661
2.6779599 0.78851902 2.83725
2.72528 0.78751868 2.8336565
2.7752175 0.78925377 2.825685
2.8184998 0.77418333 2.8358567
2.8736169 0.77537936 2.8239615
2.9149501 0.76348597 2.8141401
2.9789169 0.77039433 2.8091166
3.0258601 0.75181305 2.8196201
3.0601699 0.75326502 2.8013101
1.528705 0.842372 2.8438301
1.579415 0.84307826 2.840795
1.6276249 0.84223056 2.831773
1.6735467 0.83038729 2.8288851
1.723814 0.8328374 2.8216279
1.773147 0.82658929 2.8273332
1.8240721 0.82237935 2.8264425
1.8791487 0.82543445 2.8201039
1.9257245 0.82214832 2.8210778
1.9744419 0.81202 2.81972
2.0290501 0.820696 2.8213849
2.0767 0.81466883 2.8191135
2.1316719 0.81274921 2.8125062
2.185365 0.82029247 2.8078799
2.224355 0.81540489 2.8173001
2.273335 0.81439996 2.8101175
2.312535 0.8108905 2.8119349
2.373044 0.81147736 2.8120561
2.4271266 0.81436235 2.8164234
2.47823 0.80827063 2.8131666
2.52227 0.80733067 2.8102665
2.5678201 0.80668998 2.80813
2.60063 0.811423 2.81145
2.6802549 0.80438805 2.8192451
2.7185099 0.80774599 2.81039
2.8264551 0.80250901 2.80972
1.0747533 0.89443702 2.8471601
1.12734 0.89466399 2.8453877
1.1713901 0.89363599 2.8413451
1.2237999 0.88406837 2.8402963
1.2701167 0.88589448 2.8362083
1.3213378 0.8827818 2.8351889
1.3764527 0.88532603 2.8287051
1.4263955 0.87716967 2.8330655
1.477555 0.8775444 2.8253789
1.5235528 0.87432313 2.8202491
1.574595 0.87094682 2.8151798
1.61917 0.86472672 2.8102527
1.6711519 0.85621321 2.807292
1.725315 0.85617548 2.807755
1.76299 0.85932899 2.8017249
1.82454 0.85052001 2.802815
0.61562699 0.93847501 2.84519
0.67516994 0.94217634 2.8459435
0.72488105 0.9418745 2.8350852
0.78066987 0.93619913 2.8403487
0.82730132 0.93626118 2.8330622
0.8755396 0.93116802 2.8285716
0.9243989 0.92727321 2.8287609
0.97504538 0.92194021 2.8290844
1.0228593 0.92241383 2.8220403
1.0740023 0.91886318 2.8231287
1.123479 0.92153609 2.81651
1.177049 0.91414589 2.8217647
1.22386 0.90939867 2.8157825
1.2785584 0.91101247 2.80861
1.33099 0.90905333 2.8102701
1.37134 0.91108 2.80162
1.42536 0.90195847 2.8050399
1.4689 0.90559697 2.8001101
0.27880448 0.99945551 2.8399348
0.33112803 0.99461001 2.839154
0.3775315 0.99299997 2.8342249
0.4270077 0.9863885 2.8317778
0.4781684 0.9816528 2.8293545
0.52665478 0.9812417 2.825778
0.57679302 0.97743791 2.8259509
0.623272 0.96796781 2.8228877
0.67632711 0.97262728 2.8157325
0.72341096 0.96065146 2.8156612
0.77362949 0.96166712 2.8139832
0.8240813 0.9625265 2.808434
0.87803 0.95963097 2.8069801
0.928653 0.95780033 2.8043966
0.95495403 0.95059901 2.8074701
-0.073081046 1.0444475 2.8467948
-0.020167807 1.0394375 2.8442674
0.025589369 1.0350187 2.8426161
0.074770048 1.0340251 2.8390682
0.1236425 1.0311475 2.829705
0.17491306 1.0303084 2.8251369
0.220597 1.0226152 2.8276231
0.27615252 1.0215145 2.8220162
0.32364911 1.0187966 2.8180454
0.37627351 1.0176699 2.8167062
0.42177039 1.0143 2.8063381
0.47415626 1.0098826 2.8044775
0.58215553 1.000715 2.806035
0.61019599 1.0004801 2.80053
-0.422488 1.0970933 2.8385401
