ply
format ascii 1.0
comment PCL generated
element vertex 1501
property float x
property float y
property float z
element camera 0
property float view_px
property float view_py
property float view_pz
property float x_axisx
property float x_axisy
property float x_axisz
property float y_axisx
property float y_axisy
property float y_axisz
property float z_axisx
property float z_axisy
property float z_axisz
property float focal
property float scalex
property float scaley
property float centerx
property float centery
property int viewportx
property int viewporty
property float k1
property float k2
end_header
-1.1481794 -0.10341033 1.9500647
1.5736095 -0.1225507 1.9821135
-1.2512997 -0.096152842 1.9869597
-1.2222382 -0.072136261 1.9646809
-1.1766343 -0.072767533 1.9545817
-1.1365718 -0.06964872 1.9534253
-1.0756998 -0.057778794 1.9511781
-1.0340327 -0.070924111 1.9501201
1.3520373 -0.07277032 1.9988788
1.5732248 -0.073742166 1.9847633
-1.2229704 -0.026126837 1.9651318
-1.1753939 -0.025791747 1.9533929
-1.1294987 -0.02559443 1.9531062
-1.0840297 -0.023683364 1.9515733
-1.0338393 -0.020126944 1.9504102
1.3475339 -0.026982259 1.9930631
1.5688267 -0.025517805 1.9786121
-1.2234453 0.021438034 1.9658914
-1.172987 0.022265799 1.9586117
-1.1268243 0.021652192 1.9532772
-1.0801871 0.021868117 1.9521133
-1.0319901 0.031993121 1.9525608
-0.98948067 0.027083218 1.9503425
1.3463211 0.022204284 1.9912491
1.5654131 0.0042634266 1.9723797
1.9976943 0.038289174 1.9527429
2.0137694 0.038819149 1.9920323
-1.2260536 0.074451394 1.9690622
-1.1727183 0.07340841 1.9589012
-1.1236891 0.073964879 1.9559996
-1.0791861 0.070984252 1.9549754
-1.0300823 0.071951605 1.9533077
-0.98245865 0.067222036 1.9519255
-0.91963094 0.083408117 1.9505252
-0.77159095 0.076083466 1.9534855
1.3487691 0.066019408 1.9941087
1.3528264 0.093658105 1.9992421
1.998914 0.088210113 1.9524442
2.0139072 0.067574494 1.9813269
-1.2254611 0.12590526 1.9676545
-1.1746346 0.12585866 1.9600706
-1.1256356 0.12247357 1.9562303
-1.0783637 0.12496255 1.9542067
-1.0309354 0.12126699 1.9537568
-0.98354441 0.12470377 1.9514958
-0.92252618 0.13017841 1.9507953
-0.77319843 0.13104744 1.955494
0.81802803 0.13605063 1.9980221
1.353223 0.11015462 1.9991685
2.0064712 0.12296695 1.9715579
-1.2307923 0.16262023 1.9694458
-1.171571 0.16547048 1.9571774
-1.1232232 0.16700931 1.9562432
-1.0730027 0.16382758 1.9562043
-1.0216935 0.16398638 1.9539794
-0.97721165 0.16517359 1.9525928
-0.9060607 0.1599247 1.9510561
-0.77603608 0.17752098 1.9601756
0.17194082 0.17467625 1.9743499
0.81612861 0.17088707 1.991444
2.0113225 0.17090309 1.9714696
-0.75945693 0.24013352 1.9691033
-0.32420191 0.2337431 1.9723983
-0.27448869 0.21696575 1.9743941
0.183267 0.24751391 1.9795053
0.81163865 0.22486775 1.9766107
1.9999223 0.21438773 1.9682249
2.0204911 0.21656248 1.9884348
-0.76575196 0.25455067 1.9842155
-0.73582673 0.27284834 1.9903861
-0.32589662 0.28545183 1.963217
0.1925512 0.27100971 1.9744332
0.21729435 0.27806333 1.9656968
0.80824816 0.27865472 1.9634384
1.3216155 0.26522744 1.9623865
-0.75417686 0.33865628 1.9738523
-0.73496443 0.31406736 1.9837356
-0.41515267 0.33999607 1.9885329
-0.36934611 0.32417101 1.957895
-0.33605924 0.307513 1.9638618
-0.23414843 0.34069061 1.9548258
0.21705252 0.31979021 1.9790219
0.80545491 0.31240764 1.9529858
1.3411523 0.31854704 1.9856554
1.3513361 0.34304646 1.9978667
-1.0628409 0.39333805 1.9526175
-0.75134254 0.37706709 1.9613432
0.24388644 0.38634917 1.9900347
0.25307557 0.37283945 1.9871417
0.81373417 0.39053547 1.9916328
-1.0546945 0.41488996 1.9576619
-0.75087398 0.42145133 1.9537262
-0.41203895 0.44349137 1.9594095
-0.17909606 0.43954247 1.9651502
0.22518158 0.41378865 1.9644284
0.28287703 0.42312557 1.9843688
0.81074333 0.42442378 1.9791342
1.320322 0.41787454 1.9617125
-0.76123059 0.49919012 1.9990469
-0.065099232 0.49263 1.983749
-0.026330315 0.49870396 1.9685831
0.80508542 0.45661515 1.9597596
1.3414557 0.45953447 1.9870112
-0.7562893 0.52626956 1.9804842
-0.41478741 0.54350066 1.9558232
-0.39619792 0.544622 1.9626116
-0.026585678 0.51322252 1.9860104
0.065369107 0.53776371 1.9785521
0.74410033 0.54869652 1.988534
0.76276153 0.54751486 1.9787546
0.80863351 0.54089946 1.9823666
1.3178803 0.5264855 1.9600154
-1.0336708 0.56461096 1.9672363
-0.97430801 0.56506991 1.9672098
-0.9234426 0.5693177 1.9732711
-0.88557065 0.56167603 1.9553679
-0.82421112 0.57178307 1.9722551
-0.76865292 0.56258583 1.9664745
-0.4220944 0.56295133 1.9883804
0.031108351 0.56410509 1.9503196
0.082717076 0.5733754 1.9737074
0.10947923 0.59349239 1.9789072
0.74426359 0.56805849 1.9726391
0.78132391 0.56725514 1.9698112
0.80276132 0.55414647 1.9940659
0.92484629 0.59789193 1.9566672
1.052851 0.59890437 1.9551108
1.2645886 0.59868479 1.9507962
1.3400383 0.56879377 1.9855803
0.083274521 0.62453783 1.966042
0.11525617 0.62758088 1.9880266
0.83157402 0.60778046 1.9832319
0.94950718 0.60375273 1.9703436
0.98153526 0.61071777 1.985407
1.0128133 0.61698151 1.9978561
1.0842772 0.60767698 1.9771369
1.1208487 0.61608869 1.9953735
1.1864816 0.60572839 1.9703231
1.22595 0.61469483 1.9890785
1.2888819 0.60498935 1.9656568
1.3101677 0.60978806 1.9754359
0.077586234 0.67295247 1.984655
0.10378969 0.66027284 1.9813098
0.082069121 0.71601319 1.9991404
0.082107417 0.77605951 1.9846851
0.07403902 0.82801843 1.9762284
-0.42941427 0.89509475 1.993937
-0.39307755 0.88278764 1.9710535
0.077384703 0.8632338 1.9661883
0.10323152 0.87605888 1.9816004
-0.43363413 0.9233374 1.9513092
0.10932621 0.92543054 1.9879882
2.6587033 0.95784634 1.9873974
2.6588061 1.0091633 1.9972233
-1.3274975 -0.50055456 2.0046964
-0.71598727 -0.50550497 2.0220904
-0.6785 -0.50343275 2.0327501
-0.63624382 -0.50071681 2.0380473
0.13595307 -0.50401103 2.0285339
0.17721786 -0.51425803 2.0203938
0.22556311 -0.51536345 2.0273864
0.26587707 -0.51669866 2.0294321
0.32213107 -0.50939131 2.036334
0.37690419 -0.50661117 2.0293417
0.41110286 -0.5030998 2.021275
0.47081318 -0.50693756 2.0228381
0.53082204 -0.50799382 2.022665
0.572887 -0.50932276 2.0277405
0.62252122 -0.50391889 2.0094059
-1.460608 -0.46439922 2.0264902
-1.4443579 -0.45899802 2.0387316
-1.3671656 -0.48023784 2.0433965
-1.3131652 -0.48888654 2.0240257
-1.2966652 -0.499419 2.0142422
-0.72105694 -0.49608761 2.045187
-0.67764121 -0.47158095 2.0409524
-0.61422229 -0.49943367 2.0371237
-0.57455528 -0.49060726 2.0411725
0.13146634 -0.49587572 2.0375426
0.6348477 -0.47814 2.0395963
0.67734629 -0.47897395 2.0363135
0.72363102 -0.48012757 2.032516
0.77489167 -0.47814843 2.0320883
0.82016885 -0.47190365 2.0285995
0.87347269 -0.46378434 2.0219281
0.93020397 -0.46410015 2.0270433
0.97170311 -0.46651006 2.0257611
1.0052204 -0.45594928 2.0276015
1.3885071 -0.4746435 2.0225556
1.4269919 -0.46726379 2.0271819
1.468478 -0.46510372 2.0192077
1.5173342 -0.46938443 2.0318389
1.5702639 -0.46565977 2.0213654
1.6349454 -0.46288061 2.0250344
-1.4729083 -0.42683005 2.0437198
-1.3303398 -0.4383904 2.0438929
-0.68134582 -0.42784104 2.0431743
0.63914466 -0.43447167 2.0487654
0.67389083 -0.42740715 2.048475
0.72539699 -0.42331964 2.0480595
0.77548796 -0.42626867 2.046721
0.82154733 -0.42557237 2.0398796
0.87789935 -0.4255313 2.0314379
0.92685413 -0.42511663 2.0346315
0.9729082 -0.42235991 2.039686
1.003444 -0.4286868 2.0281899
1.3840007 -0.42701182 2.0170472
1.4285345 -0.4272646 2.0325401
1.4591215 -0.42382437 2.0314679
-1.4720943 -0.38557589 2.0444942
-1.3535715 -0.36954683 2.0324945
-1.3278414 -0.37021068 2.0339351
-0.72693831 -0.36462334 2.0485759
-0.68297422 -0.35534793 2.0342031
0.68997258 -0.39998096 2.0496807
0.7197175 -0.38796562 2.0488839
0.77913004 -0.39068711 2.0496056
0.82837391 -0.37998679 2.0394912
0.87471598 -0.3723498 2.0274549
0.92431045 -0.37682909 2.0356221
0.97641069 -0.37347516 2.0369089
1.0028007 -0.39456588 2.0189867
1.3952732 -0.37016043 2.0152884
1.4301528 -0.37847295 2.0367513
1.4682699 -0.37309355 2.0408838
1.5897443 -0.3566547 2.0261083
-0.70380706 -0.34296644 2.0163698
-0.68636525 -0.32557482 2.0069356
-0.64716345 -0.31976131 2.0224388
0.78808618 -0.34091026 2.0493288
0.82380378 -0.32298964 2.0315282
0.87855488 -0.34190354 2.0302138
0.93503833 -0.34551939 2.0368402
0.97792888 -0.3477194 2.0374656
1.4328772 -0.32766649 2.0381117
1.4630414 -0.32596838 2.0398333
1.5833526 -0.32333145 2.0210543
-1.3188035 -0.25509053 2.03795
-0.70688504 -0.28366271 2.0316212
-0.67767513 -0.27842146 2.0244646
-0.58043748 -0.28133923 2.0407193
0.81456822 -0.27709302 2.033736
1.4382507 -0.28213847 2.0210586
1.4642797 -0.28843179 2.0403845
1.5885279 -0.27620617 2.0279226
-0.6882931 -0.23865178 2.0453219
0.78344625 -0.20877065 2.0492175
0.81752551 -0.22481965 2.0375175
1.5857985 -0.2303158 2.0289929
-1.4822241 -0.16585045 2.0478554
0.78231061 -0.16914743 2.0487576
0.81933135 -0.17312907 2.0345671
1.3762037 -0.16086276 2.0195956
1.4292918 -0.16597369 2.0373714
1.456935 -0.169967 2.0348189
1.5812681 -0.17134964 2.025598
-1.4884129 -0.14295597 2.0465534
0.81913978 -0.12371264 2.0274742
1.3785884 -0.12456049 2.0237503
1.4284836 -0.12406658 2.0416451
1.4603827 -0.12483098 2.0421493
1.577401 -0.1266468 2.0165319
-1.4864899 -0.06831675 2.046864
0.81984192 -0.069838263 2.0309503
1.3799235 -0.075672902 2.0250621
1.4256039 -0.07301233 2.0394289
1.4653356 -0.071171753 2.0414641
1.5746499 -0.074903935 2.0306177
-1.4836009 -0.024695883 2.0391593
-1.389931 -0.010861102 2.0445921
-1.304342 -0.02183081 2.0499418
0.81925851 -0.023278695 2.0266149
1.3893076 -0.027584791 2.0324259
1.4244124 -0.027810618 2.0385625
1.4593207 -0.029136157 2.0389225
1.5699017 -0.028419724 2.0253928
-1.484305 0.023288878 2.0445218
-1.3884037 0.00037045596 2.0423565
-0.75224251 0.030718843 2.0479791
-0.61218107 0.020078331 2.0353758
-0.56834167 0.020107897 2.0480165
-0.54551786 0.020002246 2.0412729
0.81887358 0.020474477 2.0242276
1.3889471 0.022726491 2.031878
1.4232266 0.022926765 2.0368326
1.4569918 0.021197187 2.0364363
1.5733232 0.0004882777 2.0299468
-1.4806254 0.074599117 2.0384436
0.81921518 0.072247036 2.0269156
1.3866723 0.072909996 2.0275998
1.4245631 0.073212333 2.0343466
1.4636354 0.07809335 2.0371273
2.0174236 0.077350982 2.0183635
-1.4861338 0.12644272 2.0439434
0.81865841 0.12046754 2.0325892
1.3774326 0.12680171 2.02016
1.4244467 0.12450875 2.0355973
1.4544146 0.12517482 2.033505
2.0108218 0.12156282 2.0097675
-1.4788427 0.168034 2.0389633
-1.3581581 0.17884995 2.0360489
-1.3486682 0.17906398 2.0442798
-0.28362316 0.19737722 2.049192
0.18472286 0.17272404 2.0005765
0.81750071 0.17440502 2.0366843
1.376357 0.17278388 2.0186958
1.4254135 0.17539406 2.0340197
1.4578809 0.17661059 2.0353272
2.0190361 0.17317706 2.014637
-0.75251442 0.24175127 2.0087671
-0.31893048 0.21348038 2.0334227
-0.28233927 0.21666893 2.0205774
0.18646623 0.21794815 2.0167913
0.21221523 0.22341605 2.0199358
0.78343397 0.23242816 2.0444098
0.8128348 0.22704104 2.0335927
1.3821621 0.22377965 2.0233347
1.4266653 0.2249241 2.0335507
1.4563395 0.22185083 2.0296097
2.0246952 0.21837948 2.016449
-0.7673009 0.25790164 2.0274963
-0.74066281 0.29028291 2.032485
-0.36434215 0.26417488 2.017729
0.24707121 0.29354894 2.0270238
0.25769615 0.29451168 2.0328634
0.78291565 0.28083691 2.0489759
0.81353617 0.27559891 2.0311894
1.3875712 0.27510598 2.0263798
1.4321767 0.27598408 2.0331302
1.4618028 0.27400574 2.0321896
-0.76233941 0.34164119 2.0354245
-0.73686147 0.31919974 2.0189528
-0.35015547 0.30372697 2.0185857
0.24167833 0.32155702 2.0285897
0.27644086 0.32737771 2.038527
0.31000736 0.32738122 2.0467365
0.81711388 0.3252207 2.029268
1.3875858 0.31663185 2.0254245
1.4280815 0.32420266 2.0320227
1.4620216 0.32927719 2.0304592
-0.76525259 0.3730382 2.0379746
0.27805686 0.37313679 2.0315757
0.30955818 0.37145603 2.0386527
0.81757641 0.37109858 2.0299196
1.3755852 0.37250504 2.0175989
1.4237217 0.3755345 2.0326872
1.4537666 0.37173447 2.0310717
-0.76446646 0.42632055 2.0329564
0.27940044 0.41930705 2.0322256
0.81806886 0.42693415 2.0393198
1.3816084 0.42249745 2.0202148
1.42723 0.42774454 2.0296309
1.4607961 0.42521611 2.0327353
-0.76523465 0.47428781 2.0298123
0.2395976 0.46436435 2.0266709
0.81801182 0.47533381 2.0315828
1.3829529 0.47582722 2.0201814
1.4293379 0.47721365 2.0317025
1.4593799 0.47057629 2.0365992
-0.76480466 0.53199965 2.0394132
-0.057107754 0.51689583 2.0399802
-0.041534111 0.51351279 2.0067408
0.09050554 0.54286897 2.0004992
0.77481914 0.54522735 2.018311
0.8128891 0.52062023 2.031687
1.3780451 0.52675498 2.0186558
1.42477 0.52219623 2.0316761
1.4557564 0.52513099 2.0299375
-1.0722573 0.5915277 2.0081916
-1.023326 0.59428483 2.0384779
-0.97915184 0.584041 2.0130942
-0.92139405 0.59501791 2.0322115
-0.87575334 0.58578348 2.0108402
-0.81494236 0.59765643 2.0324216
-0.76836234 0.57455397 2.035763
0.090656772 0.55847138 2.0011325
0.74332142 0.57109356 2.013566
0.81003201 0.55234307 2.0286183
1.3815436 0.57605499 2.019242
1.4293116 0.57280648 2.0311725
1.4701422 0.57109809 2.0411196
-1.0780737 0.61599267 2.0470088
-1.0084242 0.60587943 2.0448074
-0.96533841 0.60258633 2.0471098
-0.92997223 0.61129969 2.0488863
-0.87109005 0.60823905 2.0473793
-0.84403104 0.60348958 2.0460744
0.091858476 0.63039911 2.0147815
0.11531068 0.63244253 2.0276866
0.74616414 0.62818503 2.0491793
0.77473861 0.6230579 2.0386212
0.82042044 0.63003391 2.032552
0.87814879 0.63480496 2.0231726
0.92430425 0.63394994 2.0224767
0.97520584 0.63888592 2.027164
1.0231466 0.63671559 2.0210214
1.0769556 0.63505614 2.0204744
1.1278855 0.64189863 2.0227113
1.1731405 0.63222283 2.0139382
1.2243046 0.63887781 2.017252
1.2705775 0.63427764 2.012239
1.328437 0.63658965 2.0156791
1.3766812 0.62673378 2.0206122
1.4255896 0.62269104 2.0305934
1.4638102 0.62447536 2.0370152
-1.0880309 0.67795062 2.0457988
0.12038115 0.67805421 2.0198009
0.69680756 0.69432873 2.0499275
0.72779268 0.67662215 2.0488021
0.77656353 0.67581135 2.0469921
0.82593238 0.67256439 2.0400693
0.87591213 0.67646033 2.0346818
0.92709476 0.67484021 2.0320625
0.97679937 0.67265993 2.0313492
1.0248713 0.67607951 2.0294068
1.07456 0.67121446 2.0265806
1.1256647 0.6773892 2.0281241
1.1728458 0.67403263 2.025887
1.2248985 0.67510968 2.0241532
1.2779502 0.67353338 2.0253515
1.323023 0.67862391 2.0252643
1.3736823 0.67171913 2.0284259
1.420934 0.67643613 2.0300469
1.4562085 0.67106396 2.0342259
2.62957 0.69201595 2.0417731
-1.1521043 0.74041462 2.0498428
-1.0933222 0.70892668 2.0486469
0.084696256 0.73932523 2.0246975
0.1183371 0.72686434 2.0264583
0.16259964 0.7037034 2.0462525
0.67307705 0.73023361 2.0493071
0.73527771 0.72927374 2.0485168
0.77315152 0.72551215 2.0474901
0.82334405 0.72333139 2.0452559
0.87816542 0.72532129 2.0432396
0.92768902 0.72816825 2.0416813
0.97448856 0.72231627 2.0389609
1.0254411 0.72766912 2.0379167
1.07504 0.72294772 2.0366683
1.1271979 0.72555763 2.0342054
1.1745179 0.72412318 2.0312505
1.2253702 0.72760504 2.0312498
1.2739351 0.72486597 2.0316315
1.3229722 0.72592211 2.0322583
1.3730029 0.72175241 2.0321329
1.4239542 0.72852677 2.0346911
1.4525459 0.7194944 2.0249183
2.6343248 0.73084807 2.0354764
-1.2382933 0.7598331 2.0352316
0.093336441 0.78011495 2.0137551
0.12515229 0.77702683 2.0206273
0.1583517 0.78316921 2.0328331
0.69351393 0.79731596 2.0490704
0.72104865 0.77260071 2.0491877
0.77474225 0.77966756 2.0493338
0.82881838 0.77796042 2.0471711
0.87075466 0.7736755 2.0449054
0.92212218 0.77590632 2.0432742
0.97352397 0.77373958 2.0419073
1.0238929 0.77585626 2.0389493
1.0723267 0.7761032 2.0384479
1.1240528 0.77574354 2.0378673
1.176663 0.77355283 2.0362465
1.2237744 0.77721435 2.0335643
1.274901 0.772021 2.0345442
1.32507 0.77956021 2.0370877
1.3738751 0.77311903 2.0343883
1.4247158 0.77544916 2.0339019
1.452332 0.78414977 2.0300145
2.6406956 0.77788162 2.0278573
-1.3809782 0.82148391 2.0437484
0.090529889 0.82709473 2.0141773
0.12102509 0.82318687 2.0121193
0.15957339 0.82362396 2.0222728
0.68047345 0.84343159 2.0493102
0.7252751 0.82981682 2.0492554
0.77096736 0.82220477 2.0486069
0.82405281 0.82697791 2.0465703
0.87571561 0.82615882 2.0450773
0.92629927 0.82546926 2.04351
0.97560358 0.8247419 2.0415597
1.0270116 0.82523942 2.0416362
1.0750569 0.82166332 2.0387061
1.1227266 0.82497233 2.0376098
1.1745917 0.82487679 2.0376298
1.225404 0.82494336 2.0365992
1.2738526 0.82452029 2.0346131
1.3227235 0.82734048 2.0362444
1.374173 0.823075 2.0373359
1.4233073 0.82562429 2.0341828
1.4542665 0.82397377 2.0328326
2.639545 0.82433391 2.0224195
0.10521823 0.86211872 2.0291038
0.64125103 0.85162461 2.0488842
0.67741942 0.87307739 2.0491261
0.7272957 0.87546051 2.0479224
0.77594358 0.8714608 2.047318
0.82355738 0.87543392 2.0470099
0.87434983 0.87734389 2.0452185
0.92452258 0.87357008 2.0431921
0.97623175 0.87559915 2.0419974
1.0240477 0.87603062 2.0417645
1.0724804 0.87400877 2.0393872
1.1258951 0.87512803 2.038017
1.1759267 0.87256253 2.0381017
1.223801 0.87743199 2.0374267
1.2764775 0.87262154 2.0357161
1.3239976 0.87666744 2.0370166
1.3748907 0.87743938 2.037673
1.4273109 0.87393242 2.03475
1.4586291 0.87757015 2.0341785
2.6435061 0.87428546 2.0287917
2.667032 0.89227682 2.015986
0.64836556 0.93105006 2.0494015
0.68169993 0.91847074 2.0493846
0.72381085 0.92888516 2.0475523
0.77447969 0.92069203 2.0483673
0.82693547 0.92619556 2.0469508
0.87590361 0.92765486 2.0446703
0.92650378 0.92403471 2.0434463
0.97658318 0.92682844 2.0408647
1.0265188 0.92324805 2.04071
1.0741535 0.92509502 2.0400918
1.122542 0.92704028 2.0386956
1.1769348 0.9236598 2.036495
1.2238185 0.925089 2.0371728
1.2729858 0.92273331 2.0376832
1.3254424 0.92811203 2.0367439
1.3730891 0.92499208 2.0364549
1.4245842 0.92248333 2.0337965
1.4506295 0.93377924 2.0268259
2.6472006 0.92637527 2.0428984
2.661386 0.93105096 2.0122917
0.63082057 0.99111265 2.0486224
0.67996573 0.9764204 2.0483625
0.72762352 0.97585303 2.0469656
0.77441084 0.97355026 2.0467875
0.82274759 0.97435927 2.045778
0.87286234 0.97414631 2.0445735
0.92490774 0.97348416 2.0417483
0.97273034 0.97960687 2.0412254
1.0228361 0.97529429 2.0407715
1.0756925 0.97487837 2.0391791
1.1258061 0.97475141 2.0388014
1.1750869 0.97433209 2.0366762
1.2258064 0.97231185 2.0365822
1.2749156 0.97575432 2.0367815
1.3245971 0.97488731 2.0354784
1.3747655 0.97205061 2.0383844
1.4210572 0.97524929 2.0331929
1.4571255 0.97209173 2.0359914
2.6437132 0.99070591 2.0272167
2.6534705 0.97421539 2.0115428
0.63334882 1.0278554 2.048806
0.67544597 1.022414 2.0480587
0.72240633 1.0249057 2.0469813
0.77594173 1.026498 2.0454357
0.82754195 1.0246049 2.0447261
0.87513191 1.0266535 2.0440633
0.92493975 1.0261856 2.0428612
0.97648484 1.0239609 2.0408437
1.0241201 1.0273455 2.0394201
1.074136 1.0259917 2.0391083
1.124553 1.0243167 2.0384586
1.1762887 1.025735 2.0390952
1.2287126 1.0273792 2.0394115
1.2763464 1.0230093 2.0383999
1.3207122 1.0237116 2.0368731
1.3747307 1.0248662 2.038348
1.4242592 1.0275728 2.0332208
1.4552646 1.0172224 2.0280216
2.6429644 1.0271045 2.0182633
0.63559341 1.0732858 2.0487626
0.6759882 1.0731829 2.0474374
0.72580302 1.0770997 2.046289
0.77589017 1.0739372 2.0446148
0.82295108 1.0771178 2.043237
0.87261856 1.0777528 2.0429938
0.92151773 1.0770642 2.0422056
0.97489727 1.0746396 2.0412021
1.0250913 1.0771631 2.0410504
1.075124 1.0753496 2.0402875
1.1251372 1.0762992 2.0405395
1.1692834 1.0736189 2.0361857
1.2210693 1.0766686 2.0371981
1.2754858 1.0725125 2.0365231
1.3275583 1.0740787 2.0363441
1.3719355 1.0766966 2.0366464
1.425995 1.0734373 2.0327711
1.458557 1.0892359 2.0301609
2.6459391 1.0781995 2.0373504
2.6515694 1.0776248 2.0121968
0.63459384 1.1236649 2.0479646
0.67333728 1.1252792 2.0469358
0.72545075 1.1210984 2.0466249
0.77465069 1.1245358 2.0448475
0.82344335 1.126229 2.0430388
0.87772113 1.1271566 2.0428514
0.92978829 1.1235037 2.0414867
0.97502369 1.126684 2.0421681
1.0255431 1.1267896 2.0410056
1.0748554 1.1245466 2.0391643
1.1214628 1.1225337 2.0393081
1.1762179 1.1275235 2.0410814
1.2239807 1.1257108 2.0372126
1.273929 1.1223314 2.0374866
1.3251961 1.1270186 2.0388312
1.3728744 1.1239886 2.0343778
1.4297419 1.1224489 2.0320594
2.6385534 1.1191559 2.0219593
0.6294654 1.1757815 2.0471113
0.67325515 1.176811 2.0468669
0.72459269 1.1707298 2.0461123
0.77391237 1.1747522 2.0452738
0.82556576 1.1744004 2.0437737
0.87300968 1.1754943 2.0427179
0.92446989 1.1741904 2.0433502
0.97713739 1.1735468 2.041194
1.0237406 1.177582 2.0418613
1.0732141 1.1750214 2.0412078
1.1250981 1.1716503 2.0405381
1.1697422 1.1771657 2.0371544
1.2267913 1.1776153 2.041353
1.275375 1.1737112 2.0391154
1.3293884 1.1763915 2.0401788
1.377754 1.1712716 2.03582
1.4266313 1.1758519 2.0319517
2.6537349 1.1711785 2.0442765
0.62342173 1.2256848 2.0471342
0.67416579 1.2260668 2.0456412
0.71890628 1.2242326 2.0448568
0.7760973 1.2227443 2.0437038
0.82218599 1.2227367 2.041034
0.87658757 1.224854 2.0424201
0.92562628 1.2265784 2.0427673
0.97326893 1.2257063 2.0429907
1.0275404 1.2270931 2.0425112
1.0788651 1.2220223 2.0408626
1.1257106 1.2257203 2.041446
1.1746898 1.2280583 2.042294
1.2251185 1.2257152 2.0415599
1.2749207 1.2240649 2.0367134
1.3219708 1.2239673 2.0361445
1.3715355 1.222815 2.0347087
1.4239346 1.2267445 2.0340598
1.4582411 1.2247678 2.0374398
2.6409981 1.2036476 2.0478742
0.62901849 1.2753332 2.0470831
0.67609972 1.2768128 2.0462484
0.72942579 1.275756 2.0457599
0.77525932 1.2765166 2.0448849
0.8282488 1.2753724 2.0443203
0.87575054 1.2733787 2.0434492
0.92565769 1.2768468 2.0413086
0.98083955 1.2757015 2.0434825
1.0283422 1.2775166 2.044107
1.0715593 1.2707641 2.0420892
1.1252643 1.2784933 2.0443728
1.175329 1.2735924 2.0414789
1.2235786 1.2773839 2.03969
1.2736963 1.2733231 2.0379405
1.3267779 1.278814 2.0357139
1.3758606 1.2729663 2.0331962
1.4266065 1.274405 2.0293474
1.4575295 1.2608382 2.0325549
0.63162017 1.3220606 2.0456402
0.6734069 1.3252319 2.0476272
0.72186941 1.3233274 2.0460579
0.77351433 1.3289599 2.0445087
0.82056481 1.3241025 2.0458312
0.87511784 1.3220288 2.0456491
0.9246546 1.329594 2.0438302
0.97440696 1.3242517 2.0459831
1.0212523 1.3261882 2.0440302
1.075686 1.3249574 2.0450044
1.1281937 1.3261793 2.0443964
1.1736106 1.3268949 2.0430248
1.224191 1.328234 2.0416446
1.2732527 1.3237319 2.0354152
1.3239826 1.3277838 2.0355706
1.3754493 1.3230662 2.0361831
1.4214337 1.3235328 2.0302863
1.4520221 1.3110844 2.0260224
0.59971577 1.3662331 2.0484278
0.6288628 1.3778464 2.0462639
0.67795765 1.3713418 2.0469465
0.72052413 1.3684684 2.0456731
0.77355462 1.378276 2.0462353
0.82378507 1.3724484 2.0465181
0.86951607 1.3763945 2.0456948
0.92250925 1.3768562 2.0462034
0.97636002 1.3787872 2.0453951
1.0259855 1.3730212 2.0448291
1.0741849 1.3760669 2.0444117
1.1225013 1.3753504 2.0424998
1.1731042 1.3775783 2.0388677
1.2247188 1.3738186 2.0377755
1.2744374 1.3749998 2.0359297
1.3257849 1.3771517 2.0344505
1.373253 1.3746586 2.0317266
1.4267739 1.371467 2.0273554
0.67382544 1.4171351 2.0471547
0.72145808 1.4272225 2.0485702
0.77369219 1.4241605 2.0468016
0.82594877 1.421634 2.0466022
0.86816448 1.4292774 2.0471172
0.92465365 1.4249334 2.0461347
0.97412682 1.4253815 2.0441175
1.0278281 1.4263592 2.0456126
1.0762439 1.4216235 2.0433531
1.1276684 1.4257152 2.0407047
1.1760975 1.4220413 2.0378623
1.2240032 1.4240477 2.0382359
1.2766014 1.428701 2.0379128
1.3231246 1.4265544 2.0334842
1.3731089 1.427834 2.0300188
1.4255365 1.4253553 2.0239933
0.63377041 1.4661815 2.0484192
0.6850667 1.4587529 2.0484233
0.72643906 1.4663565 2.0484149
0.77746665 1.4634269 2.0474815
0.82148397 1.4669893 2.0489583
0.87496406 1.4730504 2.0469365
0.92192936 1.4705848 2.0444098
0.97337091 1.4737544 2.0458598
1.0227085 1.4778385 2.0437374
1.0760497 1.4711224 2.041894
1.1260344 1.4736373 2.0413771
1.1750822 1.4712957 2.0401387
1.2260344 1.4755036 2.0369389
1.2763057 1.4756398 2.0319843
1.3245289 1.4788584 2.0322714
1.3736193 1.4754339 2.0311987
1.4217753 1.4780898 2.0240886
-1.4006495 1.5217992 2.0470369
0.72869986 1.5276771 2.0480998
0.79163706 1.5297155 2.0486314
0.83777285 1.5192448 2.0475612
0.87709391 1.5214919 2.0458536
0.92764997 1.5265659 2.045676
0.9766494 1.5247796 2.0452487
1.0234259 1.5250425 2.0437033
1.0698366 1.5215966 2.0393021
1.1243531 1.5252441 2.0432053
1.173393 1.5239154 2.0396931
1.2232245 1.5252378 2.0356197
1.2738681 1.5256649 2.0307503
1.3239462 1.5282997 2.0300281
1.3720392 1.5243784 2.0296791
1.4213287 1.5244026 2.0229335
-1.4009329 1.5757673 2.0483446
0.77903825 1.5727798 2.0483353
0.83821714 1.5781561 2.0485427
0.87518662 1.5704799 2.0488288
0.92344838 1.591182 2.0488653
0.97491956 1.5731964 2.0453064
1.0239316 1.5772308 2.0441358
1.072204 1.5762237 2.0391235
1.1257747 1.572695 2.04
1.1750821 1.5750866 2.036442
1.2247847 1.5744336 2.0347648
1.2707441 1.5760958 2.0320864
1.3214154 1.5720938 2.0280221
1.3756713 1.5758076 2.0263717
1.4247147 1.5711341 2.0213251
0.66037434 1.6439188 2.0495055
0.74142933 1.6238005 2.0484033
0.7681101 1.6411805 2.0474079
0.83522034 1.6280173 2.0493164
0.88552493 1.6212244 2.0477154
0.92919153 1.6229093 2.0469637
0.97521007 1.6262829 2.0444591
1.0265783 1.6237816 2.0424824
1.0729039 1.6261326 2.0405467
1.1212544 1.622252 2.0386648
1.1776423 1.6269084 2.0346162
1.2274566 1.61893 2.0323744
1.2750609 1.625816 2.0312724
1.3245173 1.6216165 2.0297308
1.3717304 1.6240295 2.0268483
1.4226669 1.6225682 2.021174
0.70023519 1.6518235 2.0490704
0.76793855 1.6660641 2.0479565
0.82205725 1.683388 2.048624
0.86062962 1.6824241 2.0477214
0.93479997 1.6756477 2.0455267
0.97584629 1.6734247 2.0449796
1.0259051 1.674356 2.0423613
1.0779243 1.6702857 2.0411017
1.1252931 1.6775566 2.0394673
1.1715715 1.6752665 2.0362196
1.2224144 1.6740711 2.0342088
1.2734195 1.6722083 2.0303395
1.3242654 1.6737629 2.0289025
1.377244 1.6742247 2.0251293
1.4271191 1.6710572 2.0218456
0.68209982 1.7043577 2.0495455
0.76245946 1.7123451 2.048521
0.80536181 1.7305343 2.0458882
0.88106364 1.7212458 2.0482917
0.92505139 1.724233 2.0435772
0.97802705 1.7212899 2.0449276
1.0238173 1.7256445 2.0426202
1.0708508 1.7193795 2.0387356
1.127987 1.7276663 2.0355928
1.1739088 1.7244065 2.0334718
1.2187227 1.7250353 2.0347037
1.2686687 1.7227986 2.0327854
1.3283964 1.7329493 2.0352666
1.3771868 1.7276075 2.0303297
1.4256662 1.718672 2.0224042
0.88487458 1.7514997 2.0457039
0.91506612 1.7607862 2.0467892
0.97541153 1.767293 2.0429966
1.0269704 1.769027 2.0426383
1.077361 1.7706915 2.0389016
1.1226319 1.773279 2.0375888
1.1745182 1.7797805 2.0374956
1.2281166 1.7757382 2.0351748
1.278074 1.7734725 2.0324323
1.3246731 1.7784818 2.0358412
1.3693913 1.7731584 2.0277174
1.419968 1.7724823 2.0283914
1.0473198 1.8019199 2.0481477
1.07634 1.8068167 2.0417402
1.1298658 1.8127122 2.0390437
1.1794325 1.8261575 2.0385234
1.2257074 1.8246189 2.0372865
1.2717991 1.8221275 2.0340905
1.3235048 1.8211137 2.0331633
1.3762378 1.8234513 2.0351443
1.4235758 1.8261299 2.0367975
1.4595565 1.8456424 2.0459223
1.2302893 1.8616544 2.0435634
1.2791554 1.8672702 2.0407262
1.3255383 1.8740453 2.0403574
1.379939 1.8755807 2.0376484
1.4248326 1.8688349 2.0380578
1.4511319 1.8804637 2.0402668
1.3441511 1.9086171 2.0496655
1.3770558 1.9158939 2.0414493
1.4315778 1.9186445 2.0400474
1.4582847 1.9107587 2.0335903
0.14271182 -0.50052816 2.056216
0.16903773 -0.51432496 2.0685356
0.22729905 -0.52091604 2.091486
0.27516824 -0.51494235 2.063436
0.33233261 -0.51121187 2.0858994
0.36724654 -0.50765008 2.0820475
0.42533258 -0.50779068 2.075206
0.47451618 -0.50707579 2.0821187
0.52273893 -0.5070917 2.0703239
0.57505918 -0.50780988 2.0697412
0.60433024 -0.50388545 2.0584724
-1.4628967 -0.45146036 2.05548
-1.4142799 -0.49383339 2.0739768
-1.3353937 -0.46269932 2.0566795
-0.72331917 -0.47475925 2.0616288
-0.67273521 -0.47676638 2.0633667
-0.62417597 -0.47272912 2.0599167
-0.57623684 -0.46909285 2.0592668
-0.54598349 -0.47841635 2.0667346
0.13390607 -0.48987848 2.0777578
0.59467041 -0.49843255 2.083425
0.62366498 -0.48269919 2.0754626
0.66666985 -0.47602132 2.051749
0.72901452 -0.4717668 2.0511148
0.75568593 -0.47244805 2.051286
1.4970233 -0.45475355 2.0573051
1.5375843 -0.45778871 2.0728598
1.5869503 -0.46180227 2.069253
1.6066742 -0.45592999 2.0791845
-1.4619309 -0.42999482 2.0553567
-1.448409 -0.41422257 2.0522211
-0.7243278 -0.42565385 2.0656588
-0.66800374 -0.42187765 2.0668933
-0.62494332 -0.42491236 2.063014
-0.57403374 -0.42560649 2.0622158
-0.54908878 -0.42899346 2.0652344
0.63450027 -0.42266476 2.0521157
0.67641044 -0.41714653 2.0507219
0.71328783 -0.41526261 2.0508821
0.7631737 -0.40857926 2.0501058
1.4947156 -0.40744475 2.0618975
1.507761 -0.4403587 2.0751028
-1.4688537 -0.38025683 2.0684333
-1.3695465 -0.35598934 2.06671
-1.3343234 -0.35920751 2.050348
-0.72614461 -0.37873226 2.0686512
-0.67280805 -0.37884313 2.0678222
-0.62322479 -0.37751582 2.0636477
-0.57581115 -0.377621 2.0625899
-0.54905093 -0.37787646 2.0718102
0.6359936 -0.37789536 2.0550084
0.67245567 -0.37764919 2.0520632
0.72483426 -0.3709552 2.0521133
0.77176499 -0.36761665 2.0517652
0.8140502 -0.36554432 2.0513566
1.595639 -0.35604316 2.0685384
-1.5013486 -0.34037149 2.092463
-1.4922267 -0.34998247 2.0782261
-1.3729756 -0.32519791 2.0758464
-1.3319657 -0.33193153 2.0617487
-0.75238091 -0.32389084 2.0620382
-0.73263866 -0.32690442 2.0553026
-0.65252376 -0.32228157 2.0740666
-0.62576604 -0.33025908 2.0628438
-0.57468152 -0.33100817 2.0681832
-0.54856861 -0.34183365 2.0741842
0.63514644 -0.32638571 2.0582068
0.67548054 -0.32565513 2.0536797
0.72368854 -0.32910225 2.0532711
0.77245593 -0.32314113 2.0530374
0.81295598 -0.33186877 2.0525184
1.4997548 -0.33603981 2.056067
1.5189261 -0.34025621 2.0823321
1.583711 -0.32389697 2.0569549
-1.4038301 -0.28788185 2.0960059
-1.3747106 -0.26906019 2.0768442
-0.7557779 -0.27518037 2.0763569
-0.72656035 -0.27426279 2.0653334
-0.66739655 -0.26831967 2.0650659
-0.62421221 -0.27054429 2.0635223
-0.58261329 -0.27285987 2.0655515
0.63469863 -0.27518064 2.0618258
0.67576098 -0.27527934 2.0536361
0.72568858 -0.27680144 2.0543962
0.77602869 -0.27829474 2.053812
0.80836344 -0.26844174 2.0501409
1.584923 -0.27693218 2.0640576
-1.3714677 -0.22590862 2.0757651
-1.3363156 -0.22253038 2.0642774
-0.75141191 -0.23056738 2.0679395
-0.72527689 -0.22530361 2.0737228
-0.67260659 -0.22699063 2.0752683
-0.63033044 -0.22652616 2.0716102
0.63402379 -0.22397922 2.0637963
0.67471582 -0.22393472 2.0546732
0.72442019 -0.22514069 2.0550497
0.77256125 -0.22847518 2.0528555
0.807428 -0.22944656 2.0509794
1.5916604 -0.22410966 2.0694845
-1.4774389 -0.1602307 2.0528307
-1.4050748 -0.15987988 2.0851276
-1.3767118 -0.17565835 2.0760071
-1.3374834 -0.17697603 2.0579369
-0.75151598 -0.17032976 2.0721788
-0.72386324 -0.17648119 2.0696647
-0.67634296 -0.17540252 2.0714831
-0.64141154 -0.18243863 2.0691609
0.63324463 -0.17283288 2.0645263
0.67377883 -0.17278002 2.0551152
0.72327703 -0.17366809 2.0551534
0.77203202 -0.17492674 2.0535309
0.80669534 -0.17511806 2.0527794
1.5859938 -0.17518687 2.0743558
-1.4810258 -0.12359416 2.0632188
-1.4004431 -0.14794452 2.0788953
-1.3706604 -0.1271324 2.0705075
-1.3354912 -0.11803582 2.0656025
-0.75299126 -0.14479324 2.0776155
-0.74516869 -0.1452889 2.0872483
0.63394928 -0.12124702 2.0649076
0.67409348 -0.12225929 2.0557082
0.72518885 -0.12110147 2.0559559
0.7738995 -0.12433426 2.0531948
0.80710989 -0.11994374 2.0516853
1.5886238 -0.1211905 2.0763192
-1.4788288 -0.076375544 2.0659792
-1.3749741 -0.07320679 2.07303
-1.3247329 -0.074872762 2.064203
0.63287961 -0.071087249 2.067354
0.67280883 -0.070983879 2.0561519
0.72566515 -0.072684392 2.0557058
0.77481192 -0.070290938 2.0543816
0.80735141 -0.07536564 2.0537341
1.4833399 -0.091384999 2.053148
1.5834703 -0.080330014 2.0832226
-1.4748644 -0.028332535 2.065109
-1.4064472 -0.028037893 2.0687733
-1.3764704 -0.029586051 2.0760543
-1.3260939 -0.025725696 2.0635097
0.6319204 -0.025287194 2.064899
0.67272705 -0.025285119 2.0566154
0.72653371 -0.026226794 2.0567501
0.77569383 -0.02462317 2.0550394
0.80854958 -0.029020652 2.0527496
1.4913263 -0.022650331 2.0656464
1.575559 -0.031529956 2.0792358
-1.4761989 0.023427162 2.066958
-1.4047701 0.028750971 2.0662429
-1.3777131 0.022375934 2.076793
-1.3250724 0.023544816 2.0628352
-0.75445771 0.041039906 2.0538797
-0.72604132 0.036488041 2.0608733
-0.67659575 0.035139684 2.0593278
-0.62618893 0.03558309 2.0636561
-0.57220751 0.033745855 2.0651963
0.63236237 0.020405836 2.0663576
0.67248988 0.020402132 2.055877
0.72495037 0.020535562 2.0575247
0.77408075 0.020645315 2.0560842
0.80910194 0.020714065 2.0529718
1.5723505 0.00047539995 2.073565
-1.4766239 0.071616665 2.059895
-1.4057089 0.057173319 2.0671444
-1.3805509 0.074593976 2.0782514
-1.327238 0.072526336 2.0638678
-0.75920409 0.07220079 2.0661623
-0.72523087 0.071873583 2.0648668
-0.67605799 0.071542405 2.0662189
-0.62653649 0.07112132 2.0641096
-0.57349646 0.070833467 2.0658069
0.6319086 0.071141995 2.0640399
0.67293632 0.071203321 2.0564377
0.72614264 0.070291549 2.0570357
0.77552414 0.07340128 2.0560884
0.80873519 0.070740603 2.0538211
1.4807185 0.0577038 2.0503266
-1.4756591 0.12697807 2.0631292
-1.4006901 0.10224665 2.0583622
-1.3750205 0.12233801 2.073983
-1.3240858 0.12512486 2.0606284
-0.76082516 0.12394188 2.0688586
-0.7266562 0.12337732 2.0672193
-0.67572433 0.12273106 2.0675297
-0.62661082 0.12203597 2.0656908
-0.574386 0.12155087 2.0674417
0.63185781 0.12189525 2.06218
0.67416352 0.12220281 2.058527
0.72322476 0.1227746 2.0573022
0.77288979 0.12337337 2.0555537
0.80583143 0.12370925 2.0529408
-1.4727392 0.16524252 2.0606661
-1.3726898 0.16524112 2.0634027
-1.3283095 0.16811347 2.0591404
-0.76304036 0.17602628 2.0722718
-0.72804952 0.17506662 2.0686159
-0.67387086 0.17497845 2.0692499
-0.62423241 0.17205952 2.0660582
-0.57525259 0.17242491 2.0680845
-0.32207435 0.19981225 2.0710266
0.63216263 0.17272726 2.0606639
0.67448688 0.17317456 2.0570102
0.72426295 0.17413774 2.057698
0.77395302 0.17496751 2.055764
0.80739671 0.17554025 2.0542903
-0.75902104 0.22558138 2.0716677
-0.72542918 0.22790974 2.0697691
-0.67438608 0.225769 2.0702531
-0.62421191 0.2243263 2.0668626
-0.57601136 0.22340082 2.0674789
-0.32528225 0.21194321 2.0578601
-0.29441583 0.20789923 2.0540934
0.23917755 0.2416878 2.0924721
0.25456676 0.24196832 2.0937269
0.63294977 0.22378387 2.0598638
0.6757471 0.22449324 2.0574687
0.72542125 0.2256777 2.057544
0.76485306 0.22115524 2.0542324
0.80715579 0.20643097 2.0516968
-0.72833931 0.27744344 2.0673387
-0.67594689 0.27770141 2.0707521
-0.62592751 0.27604428 2.0682919
-0.57668871 0.27448717 2.0657489
0.2385582 0.25612614 2.0858092
0.26233649 0.27975011 2.0719261
0.63404214 0.27509859 2.059195
0.67440921 0.27468437 2.0583754
0.72393417 0.27900848 2.059191
0.7720964 0.27437299 2.0533409
-0.75264108 0.34155861 2.0603564
-0.72383249 0.3274757 2.0669873
-0.67348003 0.32605046 2.0702701
-0.62591064 0.32874382 2.067297
-0.57720387 0.32522047 2.0658419
0.27961731 0.33299735 2.0593433
0.31348425 0.33299676 2.0692031
0.63278842 0.32653111 2.0651546
0.67354882 0.3279174 2.0581071
0.72366798 0.32459781 2.0593255
0.77674931 0.32127315 2.0555573
0.80647701 0.32687521 2.0536916
-0.75814116 0.37729165 2.0595043
-0.72318184 0.37341094 2.0686724
-0.674505 0.37393081 2.0692539
-0.62332642 0.37463787 2.0671899
-0.57421458 0.37784603 2.0651779
0.33000994 0.37279758 2.072751
0.63259256 0.37433887 2.0637221
0.67546082 0.37507668 2.0585201
0.7261225 0.37221906 2.0608611
0.77553236 0.37363327 2.0568216
0.80742162 0.37461007 2.0541372
-0.7600975 0.42539412 2.0612128
-0.72545469 0.42659175 2.0681553
-0.67496872 0.42427689 2.067884
-0.62502497 0.42196515 2.0666847
-0.57582319 0.42497167 2.0648379
0.29115614 0.41955078 2.0690017
0.32056746 0.40387413 2.0742359
0.62995368 0.42201316 2.0623155
0.6734733 0.42317203 2.0601819
0.72306693 0.42514667 2.0612016
0.77351373 0.4272702 2.0595236
0.80771667 0.4261854 2.0540848
-0.75662112 0.47906145 2.0629928
-0.7253871 0.47371128 2.0682006
-0.67379868 0.47721332 2.0684657
-0.62507534 0.47346985 2.0656478
-0.57540792 0.47482753 2.0689845
0.24527971 0.48549154 2.0731659
0.25569266 0.48105103 2.0755639
0.63090986 0.47394267 2.0601907
0.67530823 0.47619352 2.0608451
0.72470862 0.47500071 2.0613618
0.77671665 0.47610459 2.0607862
0.8077209 0.47590211 2.0514326
2.6425478 0.48418996 2.0988059
-0.75606841 0.52152121 2.0613632
-0.72492707 0.52359945 2.0677361
-0.67619807 0.52406985 2.0686641
-0.6231702 0.52727062 2.0654035
-0.57660353 0.52601725 2.0685503
0.62942106 0.52591574 2.0651889
0.67474681 0.52295804 2.0590425
0.72732264 0.52523184 2.0631261
0.77540326 0.52400029 2.0610805
0.8009966 0.52540177 2.0557716
2.6462843 0.52263242 2.0944829
-0.75609148 0.57608396 2.0591257
-0.72497964 0.57713711 2.0646431
-0.67560524 0.5743559 2.0652745
-0.62733966 0.57569194 2.0644784
-0.57670337 0.57405561 2.0673928
0.11633778 0.5771333 2.0747998
0.63004303 0.57502896 2.0614831
0.67409211 0.5727151 2.0575943
0.72516549 0.57606447 2.0583744
0.75671989 0.55524641 2.055023
2.6481619 0.57593077 2.0849867
-1.0656409 0.62820601 2.0533712
-1.0298663 0.62959796 2.0570536
-0.97947973 0.62727451 2.0561357
-0.92545253 0.63466561 2.0556588
-0.87749219 0.63239664 2.0558774
-0.82218564 0.62865168 2.0546753
-0.77365524 0.62518489 2.0588768
-0.72619277 0.62656599 2.0650904
-0.67373854 0.62413394 2.0642581
-0.62286818 0.62567145 2.0645838
-0.57455987 0.62417477 2.0659041
0.13690659 0.63305032 2.0668344
0.16065839 0.64247817 2.0679431
0.62971944 0.62572557 2.0620582
0.67358494 0.62729704 2.0559199
0.71999168 0.62312722 2.0536745
1.4929289 0.62335533 2.0624464
2.6439068 0.63006318 2.0746624
-1.0699369 0.67724514 2.0586762
-1.0231925 0.67511678 2.0605822
-0.97185868 0.67543286 2.0592897
-0.92274547 0.67678308 2.0603149
-0.87429982 0.67280972 2.0619671
-0.82690513 0.67562884 2.0615559
-0.774598 0.67633694 2.0638366
-0.72300732 0.67290741 2.065798
-0.676148 0.67598957 2.0649548
-0.6267646 0.67468965 2.0642116
-0.57739007 0.67428195 2.0657575
0.14350465 0.68015915 2.063683
0.17040657 0.68420613 2.0746737
0.62571448 0.67507225 2.0639002
0.67415541 0.67481619 2.0541108
0.72332382 0.67065239 2.0509799
0.76666749 0.67740607 2.0507169
2.6394477 0.67353094 2.0768206
2.6500483 0.68227184 2.0615473
-1.1183331 0.74104834 2.0580797
-1.0746042 0.72865719 2.0593381
-1.0254788 0.72325921 2.0603499
-0.9769994 0.72786027 2.0620542
-0.92630315 0.72498536 2.0643129
-0.87329721 0.72307253 2.0640733
-0.82369894 0.72438782 2.06499
-0.77334237 0.72274435 2.065773
-0.72744781 0.72503209 2.0668504
-0.67574459 0.72631067 2.0656805
-0.62480938 0.7225678 2.0657024
-0.57683927 0.72701311 2.0688398
0.14228888 0.71730614 2.0572505
0.17489824 0.73154396 2.0729172
0.20734952 0.72526693 2.0928526
0.62819088 0.72559184 2.0569043
0.67648149 0.72199988 2.0523834
0.72351217 0.72315103 2.051471
0.79381961 0.74857658 2.0505252
2.633615 0.7252968 2.0797734
-1.351563 0.79449797 2.0548668
-1.3272901 0.79391748 2.0655472
-1.2770878 0.79033375 2.0569079
-1.2253066 0.77957451 2.0580707
-1.1774108 0.77533084 2.0579982
-1.1270895 0.77503359 2.0587456
-1.0752208 0.77674878 2.0611725
-1.022519 0.7734617 2.0614903
-0.97280216 0.77746397 2.0638437
-0.92249787 0.77224559 2.0650427
-0.87549061 0.77622473 2.0661211
-0.8247118 0.77360547 2.0638173
-0.77398378 0.77480775 2.0659883
-0.7229749 0.77526259 2.0657358
-0.67369908 0.77246726 2.0659223
-0.62618321 0.77615035 2.0659866
-0.5764643 0.77611697 2.0679827
0.17937982 0.77264279 2.0643134
0.20654599 0.78428376 2.0884008
0.6274454 0.77854419 2.0606616
0.67574435 0.7739774 2.0531423
0.72456694 0.76919472 2.0513144
0.77711165 0.77033204 2.050457
0.80742717 0.76739711 2.0505567
2.6417205 0.77726752 2.0703418
-1.3701227 0.82954568 2.0594282
-1.3265334 0.8244524 2.0611684
-1.2737519 0.82583743 2.0574367
-1.2250957 0.82181692 2.0581629
-1.1748923 0.8250618 2.0584903
-1.1218981 0.82735217 2.0602896
-1.0732253 0.82827222 2.063915
-1.0255649 0.82161033 2.0625055
-0.97763443 0.82547683 2.0641751
-0.92616659 0.82236636 2.0642428
-0.8762154 0.82722735 2.0649037
-0.82413381 0.82350773 2.0646706
-0.77498358 0.82468551 2.0655377
-0.72417974 0.82405818 2.0660753
-0.6730417 0.82500046 2.066586
-0.62265569 0.82564479 2.0651352
-0.57498467 0.82360065 2.067816
0.16791338 0.81110668 2.0561481
0.21256438 0.80825716 2.0904651
0.62307847 0.82453662 2.0584605
0.673307 0.82411224 2.0520711
0.72537762 0.8231048 2.0516298
0.77587479 0.82105529 2.0511749
2.6465588 0.83193046 2.0724597
2.6538477 0.82135463 2.0819688
-1.4029299 0.87626094 2.0620975
-1.3735157 0.87226546 2.0595167
-1.3232315 0.8739422 2.0613794
-1.2757766 0.87744331 2.0614088
-1.2260108 0.87216437 2.0603526
-1.1718643 0.87617707 2.0620399
-1.1277376 0.87320381 2.0632312
-1.076668 0.87641287 2.0622106
-1.0237796 0.87445229 2.0638771
-0.97297198 0.87574697 2.0647933
-0.92150563 0.87380117 2.0644083
-0.87253678 0.87561482 2.0647171
-0.82361901 0.87497586 2.0655575
-0.77608067 0.87712651 2.0650704
-0.72706556 0.87346441 2.0659382
-0.67579275 0.87493199 2.0649965
-0.62461984 0.87419313 2.0641971
-0.57717121 0.87305176 2.0679197
0.16927317 0.85413426 2.0625401
0.62313527 0.87743968 2.0576227
0.67350632 0.87247145 2.0517378
0.72274446 0.88195449 2.0511532
0.76909548 0.85296506 2.0515311
2.6466525 0.87087291 2.0792191
2.6548615 0.87792397 2.0795164
-1.3768328 0.92640585 2.0609746
-1.3236762 0.92136693 2.0634
-1.2747935 0.92627233 2.0640562
-1.2233075 0.92504686 2.0646527
-1.174927 0.92423028 2.0647974
-1.1251265 0.92227328 2.0632658
-1.0741639 0.92879635 2.0621531
-1.0269978 0.92340958 2.062134
-0.97869855 0.92573076 2.0651507
-0.92907393 0.92478174 2.0648761
-0.87857568 0.92602813 2.0644341
-0.82784075 0.92753625 2.0645642
-0.77557653 0.92661691 2.0656328
-0.72227067 0.921372 2.0654047
-0.67570925 0.92837745 2.0657206
-0.62567145 0.92423809 2.0641253
-0.57620263 0.92297429 2.0672145
0.62413293 0.92581582 2.0553293
0.67436117 0.92387044 2.0512831
0.71962011 0.91733909 2.0504217
0.76414943 0.92120504 2.0505292
0.81320727 0.93119842 2.0509086
2.645452 0.93108284 2.0679257
2.6528239 0.92870265 2.0896034
-1.4058053 0.96387821 2.0619266
-1.3733763 0.97670883 2.063055
-1.3249503 0.97495198 2.0654461
-1.2728709 0.97235417 2.0645058
-1.223008 0.97633666 2.06389
-1.1751043 0.97356874 2.0636613
-1.1236585 0.97629356 2.0637295
-1.0731725 0.97864598 2.0658293
-1.0261077 0.97251397 2.0650942
-0.97308177 0.97628528 2.0651615
-0.92241472 0.97416967 2.0630641
-0.87237269 0.97585386 2.0640426
-0.82313335 0.97590202 2.0642896
-0.77465522 0.97623026 2.0641844
-0.7268675 0.97404277 2.0647573
-0.67570162 0.97885847 2.0646884
-0.62296426 0.97074407 2.063307
-0.57555449 0.97851628 2.0644076
0.61762017 0.97250944 2.0580242
0.66637558 0.96089035 2.0507684
2.6456428 0.98175687 2.0602601
2.6536322 0.96596664 2.0824974
-1.4030824 1.024899 2.0606267
-1.3762103 1.02214 2.0626943
-1.3245734 1.0264692 2.0647807
-1.2739817 1.0276383 2.0684969
-1.2257663 1.021384 2.065057
-1.1783134 1.0276394 2.0645308
-1.1272346 1.0208536 2.0649667
-1.0765262 1.0248576 2.0652578
-1.0234611 1.0267663 2.0667219
-0.97287917 1.0244592 2.0650947
-0.92607498 1.0237224 2.0649564
-0.87595254 1.0258766 2.0629444
-0.8261317 1.0248721 2.0625455
-0.77345484 1.0259444 2.0637004
-0.72508997 1.0220863 2.0637496
-0.67273766 1.0272835 2.0619695
-0.62585467 1.022471 2.0625889
-0.57401681 1.0277319 2.0683119
0.61087537 1.0247395 2.0571275
0.65528059 1.0008166 2.0504246
0.72848475 1.0283742 2.0502565
2.6346684 1.0327774 2.0508759
2.6527193 1.0273496 2.0838726
-1.4005638 1.086916 2.0581818
-1.3732114 1.0730205 2.0656836
-1.32435 1.0745398 2.0679395
-1.2763851 1.0764972 2.0653198
-1.2235166 1.0727223 2.0673301
-1.1733117 1.0754058 2.0681286
-1.1266627 1.07156 2.0698185
-1.0717313 1.0742185 2.0658376
-1.0243964 1.0738477 2.0666492
-0.97731245 1.0722059 2.065105
-0.92466426 1.0758677 2.0650525
-0.87220281 1.0763499 2.0645661
-0.82428139 1.0746992 2.0632222
-0.77362406 1.0748373 2.0633912
-0.7254765 1.073297 2.0631533
-0.67459899 1.0768598 2.0620804
-0.62475628 1.0737182 2.0616171
-0.57428575 1.0721774 2.0627828
0.61345983 1.0764418 2.0593834
0.6792593 1.0811976 2.0505962
2.6554518 1.072801 2.0768571
-1.4034286 1.1013775 2.0569053
-1.3798496 1.1263511 2.0636408
-1.3247596 1.1229789 2.0656183
-1.2715807 1.1261249 2.0695136
-1.2279036 1.1236794 2.070559
-1.1774435 1.1224808 2.0696578
-1.1235807 1.1261315 2.0674396
-1.0751873 1.1224798 2.0679789
-1.0253248 1.1224992 2.0666842
-0.97399831 1.1274537 2.0674007
-0.92193413 1.1275188 2.0665386
-0.8773427 1.1240844 2.0658283
-0.82475156 1.1257161 2.0637546
-0.77868223 1.1239684 2.0640645
-0.72325099 1.12483 2.0631928
-0.67345279 1.123028 2.0623612
-0.62410748 1.1265389 2.0611482
-0.57482862 1.124396 2.0639665
0.59906292 1.1155604 2.0585749
0.61129487 1.1196371 2.0525358
0.71751851 1.1393955 2.0500672
2.6470664 1.134122 2.062305
2.6572807 1.1197962 2.0872796
-1.4076536 1.1639283 2.0653229
-1.3757547 1.1775607 2.0674348
-1.3257246 1.1763324 2.0696399
-1.2728202 1.1709583 2.0676711
-1.2236047 1.1745942 2.0717487
-1.1741201 1.1754889 2.0707123
-1.1263363 1.176303 2.07107
-1.073963 1.1726203 2.068506
-1.0232059 1.176998 2.0695693
-0.97484529 1.1771648 2.0686278
-0.92583287 1.1750603 2.0674067
-0.87232864 1.1741462 2.0660157
-0.82674986 1.1754067 2.0660653
-0.77521932 1.1760209 2.064888
-0.72630429 1.1722127 2.0620255
-0.67787439 1.1753023 2.0606737
-0.62463689 1.1791538 2.0617683
-0.57406723 1.1745753 2.0629807
0.60701662 1.1643374 2.0518954
0.68765825 1.190382 2.0501804
0.7425555 1.1918118 2.0511501
2.6403182 1.1877147 2.0537398
2.6506 1.1688161 2.0712476
-1.407382 1.2240188 2.0658159
-1.3778216 1.2282023 2.0689754
-1.3236662 1.2267023 2.0695074
-1.2748564 1.2210572 2.069737
-1.2262844 1.2222037 2.0692179
-1.1768985 1.226576 2.0703804
-1.1253564 1.2226861 2.0717382
-1.0786173 1.2286496 2.0733769
-1.028807 1.2231005 2.0681603
-0.9762001 1.2250937 2.0693059
-0.92187381 1.2254628 2.0679965
-0.87492251 1.2278786 2.0675871
-0.82344443 1.2255772 2.0658417
-0.77390468 1.2272415 2.0645258
-0.72181016 1.222891 2.0646572
-0.67037088 1.225177 2.0602624
-0.62623841 1.2247175 2.0611651
-0.57400334 1.225872 2.0648398
0.61019796 1.2263519 2.0723577
0.67715597 1.2028984 2.0501862
0.75131571 1.2137933 2.0502961
2.6563466 1.2258059 2.0769887
-1.4040276 1.2697136 2.0671618
-1.3733215 1.2770826 2.0664804
-1.3250993 1.2791635 2.0707021
-1.2760234 1.2729259 2.0729697
-1.2228166 1.2733549 2.0693445
-1.1734501 1.2779859 2.070724
-1.1256524 1.2751384 2.070435
-1.0743219 1.2751153 2.0702727
-1.0253886 1.2735581 2.0721064
-0.97336233 1.2743399 2.0678504
-0.92635059 1.2768326 2.070739
-0.87706989 1.2721763 2.067977
-0.82941687 1.2771199 2.0672915
-0.7738626 1.2743168 2.0649676
-0.72815895 1.2742244 2.0658405
-0.67675227 1.2740046 2.0623188
-0.62703556 1.2759323 2.0613942
-0.57827973 1.2753932 2.0644014
0.5973627 1.2979283 2.0724053
0.61448658 1.2735167 2.0539811
0.6738503 1.2740855 2.0504808
0.96631259 1.2810597 2.0500309
1.1154333 1.2684891 2.0508585
2.6539216 1.2697145 2.0842378
-1.4067496 1.3178132 2.0680656
-1.376834 1.3288544 2.0672174
-1.3270563 1.3259099 2.0693717
-1.2781148 1.3233863 2.0728629
-1.2261869 1.3275049 2.0690327
-1.1743324 1.3212321 2.0706801
-1.1255504 1.3296733 2.0735667
-1.0716354 1.3209015 2.0682988
-1.0239469 1.3229587 2.0695996
-0.97662687 1.3229123 2.0698836
-0.92744619 1.3250412 2.0689366
-0.87371236 1.3213743 2.0675907
-0.82298476 1.3242923 2.0693586
-0.77341467 1.3272393 2.0674851
-0.72065777 1.3255178 2.0657868
-0.67347264 1.3239071 2.0639081
-0.62187898 1.3262311 2.0641215
-0.57412153 1.3271446 2.0679674
0.59870994 1.3180742 2.0685844
0.6075049 1.3317641 2.0561171
0.68132347 1.3342838 2.0503581
0.96967435 1.33487 2.0502043
2.661196 1.3268974 2.0890694
-1.4026725 1.3749058 2.0551243
-1.3767996 1.3722944 2.0648453
-1.3242908 1.3748934 2.0697644
-1.2752341 1.3751773 2.0718856
-1.2244403 1.3788955 2.072571
-1.170712 1.3717303 2.0696177
-1.1263348 1.3755736 2.0734434
-1.0765969 1.3738577 2.0741663
-1.0228413 1.377854 2.0737152
-0.97236788 1.3723713 2.0689034
-0.92348748 1.3753324 2.0703735
-0.8762942 1.3774666 2.0704627
-0.82481027 1.3740709 2.0711067
-0.77571243 1.3755149 2.0693178
-0.72874451 1.3765763 2.0663519
-0.67849892 1.3749491 2.0676517
-0.62890536 1.3771549 2.0649841
-0.58019531 1.3745061 2.0659125
0.59948987 1.3542364 2.0536933
0.62037563 1.3690469 2.0528736
0.67660683 1.390388 2.051481
0.74444473 1.3842442 2.0520558
0.75981045 1.3628513 2.0505521
