ply
format ascii 1.0
comment PCL generated
element vertex 1455
property float x
property float y
property float z
element camera 0
property float view_px
property float view_py
property float view_pz
property float x_axisx
property float x_axisy
property float x_axisz
property float y_axisx
property float y_axisy
property float y_axisz
property float z_axisx
property float z_axisy
property float z_axisz
property float focal
property float scalex
property float scaley
property float centerx
property float centery
property int viewportx
property int viewporty
property float k1
property float k2
end_header
-0.7979784 -0.50199437 1.6030712
-0.73702824 -0.50109124 1.6209744
-0.60015416 -0.50174683 1.6312135
-0.57191217 -0.50970751 1.6263545
-0.52214974 -0.51830995 1.6308054
-0.48573375 -0.52074879 1.6320184
0.17806201 -0.50400704 1.6201783
0.2359723 -0.50330603 1.6208725
0.4462947 -0.50167692 1.6347557
0.47681141 -0.50987387 1.6269883
0.50608593 -0.51764208 1.6272392
0.61864382 -0.52347231 1.6398729
0.67533147 -0.52115905 1.622009
0.72048068 -0.51547933 1.6240917
0.77191842 -0.50480163 1.6183422
1.3839747 -0.50399935 1.6169465
1.4101163 -0.50144559 1.6112123
1.4810224 -0.50054121 1.6085134
1.5627731 -0.50223446 1.6120137
-0.91704142 -0.49710685 1.6453142
-0.87994897 -0.4985978 1.6290528
-0.82329249 -0.49714744 1.6294532
-0.77075475 -0.49409997 1.6287303
-0.72767979 -0.49508959 1.6184292
-0.69569612 -0.48746231 1.6167197
-0.61887729 -0.49627051 1.6129793
-0.31295905 -0.48527142 1.6343509
-0.29412422 -0.48049739 1.6301597
-0.21684664 -0.48429427 1.6221832
-0.17944111 -0.48293024 1.6103771
-0.12699367 -0.48426363 1.6101245
0.091254845 -0.48089916 1.6215105
0.12224662 -0.48877558 1.6294857
0.17228559 -0.49555218 1.6177074
0.22367044 -0.49761114 1.62339
0.27560619 -0.4932636 1.6231976
0.32094395 -0.4889873 1.6313025
0.37378308 -0.48907736 1.6126721
0.42114621 -0.49625444 1.6208034
0.79064238 -0.49957976 1.6311474
0.82261193 -0.48767892 1.6265259
0.88367426 -0.46949112 1.6242383
0.91835225 -0.45683539 1.61376
0.96105349 -0.45506322 1.6050253
1.0852509 -0.45943737 1.622044
1.1182721 -0.47316414 1.627115
1.1713387 -0.48116136 1.6244415
1.2237006 -0.48183608 1.62012
1.2799735 -0.48983425 1.6313158
1.3300734 -0.491263 1.6284835
1.3710086 -0.49484184 1.6320982
1.4277648 -0.49551389 1.6312381
1.4776322 -0.49661621 1.6286389
1.5191913 -0.49298406 1.6251453
1.5772268 -0.49391037 1.6303182
1.6281812 -0.49340469 1.625185
1.6802295 -0.48666888 1.6286738
1.7253637 -0.48159751 1.623619
1.7760537 -0.47672468 1.6240686
1.8242934 -0.46983185 1.6261661
1.8736777 -0.46946481 1.6261431
1.9025596 -0.46253136 1.6330376
0.92417133 -0.40973079 1.6114511
0.92764109 -0.37725148 1.6208423
0.96754724 -0.37370223 1.6034844
0.92138147 -0.32556134 1.6224231
0.92260158 -0.27414677 1.6212119
0.97835582 -0.25891122 1.6015207
1.8834406 -0.26527002 1.6211284
0.89103031 -0.2092254 1.6228558
0.91098922 -0.23224579 1.6186734
1.8855532 -0.22671126 1.6278623
0.8804853 -0.17584896 1.615733
1.8842566 -0.17903492 1.6305349
1.8825077 -0.1222962 1.6271988
1.8838905 -0.07474833 1.6219488
1.8778282 -0.026580215 1.6237305
-0.20361751 0.047482148 1.6492047
-0.17298341 0.038915429 1.6230359
-0.14013605 0.038426671 1.6056205
1.8829454 0.02474707 1.6339452
-0.17189582 0.072050527 1.6347113
-0.130657 0.077445485 1.6111058
-0.093949206 0.099750929 1.6041878
1.8759 0.078170776 1.6230278
-0.16145018 0.10439909 1.6437228
-0.12355313 0.11524893 1.6343483
-0.077913485 0.13031386 1.6201949
-0.041573003 0.14341481 1.6055193
1.8724542 0.12368197 1.6252142
-0.95367241 0.19485742 1.621734
-0.062371053 0.16408256 1.6389433
-0.025578747 0.17476138 1.6237774
0.004545588 0.19072759 1.6130434
1.8764586 0.17534141 1.6233951
-1.3129086 0.21012071 1.6459258
-0.95073116 0.2385157 1.621721
-0.94650775 0.22344138 1.6293844
-0.0084833018 0.20715265 1.6400257
0.023763726 0.22309421 1.6244217
0.058848578 0.24564122 1.6128055
1.8794087 0.21714984 1.6261954
-0.92405581 0.25674975 1.638966
-0.89348358 0.26978081 1.6497394
0.044105064 0.25795138 1.6412139
0.075258508 0.27676407 1.6229059
0.15701462 0.27911901 1.6040746
0.089185081 0.31549016 1.6397434
0.11060424 0.32842317 1.6204324
0.15826719 0.32437196 1.6114758
0.13013339 0.37401453 1.6207161
0.15585098 0.3738631 1.6242121
-1.2202532 0.42831105 1.6360803
0.13612826 0.41444153 1.6354774
0.15648951 0.41011223 1.635914
-0.1102601 0.6440686 1.6378117
-0.047288481 0.6461162 1.6412318
0.030789122 0.64261931 1.6364959
-0.11687355 0.6779682 1.636811
-0.073591024 0.67876709 1.6297915
-0.031935766 0.67723119 1.6228024
0.011686749 0.68085033 1.6311879
0.051615961 0.65213984 1.6448231
-0.11559529 0.72257119 1.6206493
-0.07297577 0.723526 1.6317945
-0.01513079 0.70889962 1.6176589
0.012590332 0.72830641 1.6274502
-0.12520273 0.77017516 1.618974
-0.067829728 0.77719909 1.6366868
-0.041112918 0.78087866 1.6167133
0.023207651 0.77153522 1.6204227
0.055719472 0.77715105 1.6331125
-0.14983489 0.81069183 1.6331525
-0.067851186 0.81212538 1.6266464
-0.016415091 0.81534445 1.6313976
0.0021431623 0.82629895 1.6360741
-1.3040491 -0.52412087 1.6935257
-1.26958 -0.51814491 1.6864029
-1.2325431 -0.5166918 1.6731989
-1.167642 -0.51351827 1.6683105
-1.124355 -0.51605451 1.6676977
-1.0748489 -0.50885022 1.6864105
-1.0303992 -0.50454777 1.6653515
-0.97823364 -0.50229388 1.6683642
-0.92862922 -0.5011906 1.6702217
-0.62297964 -0.50256675 1.6769367
-0.57657158 -0.51357424 1.6759884
-0.52332026 -0.52051544 1.6749903
-0.48880333 -0.52254248 1.6749469
0.18354923 -0.50296646 1.6732259
0.21928027 -0.50579584 1.6762316
0.2575596 -0.50242603 1.6947072
0.44473884 -0.5009678 1.6629633
0.47633436 -0.50682265 1.6704839
0.52794307 -0.52058142 1.6707453
0.58038723 -0.52666032 1.6763766
0.62889606 -0.52957022 1.6836147
0.67960531 -0.52424604 1.6716714
0.72629803 -0.51886809 1.6733497
0.77448148 -0.5087201 1.671792
0.80697 -0.50110412 1.6667939
-0.99582481 -0.49879417 1.6982832
-0.9257378 -0.4954285 1.6835262
-0.87457979 -0.49630636 1.6784391
-0.82205337 -0.49334547 1.6809978
-0.77302831 -0.49089035 1.6804575
-0.72544849 -0.48741212 1.6810994
-0.68213308 -0.48549479 1.6732184
-0.63946629 -0.4969129 1.6752847
-0.21908912 -0.48550713 1.677122
-0.17580549 -0.48679447 1.6666671
-0.13594656 -0.48700204 1.6516184
0.0062426454 -0.48750162 1.6867599
0.092511296 -0.4807657 1.6769543
0.12354095 -0.48904192 1.6700805
0.16954175 -0.49572164 1.6674747
0.23934892 -0.49900553 1.6551566
0.28397316 -0.49284554 1.6649615
0.32307729 -0.491781 1.68077
0.3749643 -0.49391237 1.6706785
0.41879144 -0.49685079 1.67188
0.45100662 -0.49956071 1.6881423
0.83522522 -0.48845476 1.6750187
0.87883949 -0.47147289 1.6745068
0.90547872 -0.46039182 1.6941762
1.141134 -0.47295725 1.6646466
1.1795009 -0.48568755 1.6812189
1.224272 -0.48731595 1.6880379
1.2708243 -0.48707071 1.6740252
1.3229573 -0.48950738 1.6742735
1.3786076 -0.49257854 1.6787926
1.4299707 -0.49548823 1.6770751
1.4829059 -0.49168372 1.6764137
1.5244101 -0.49044308 1.6790644
1.5734146 -0.48785704 1.6785997
1.6251024 -0.48330927 1.6759702
1.673172 -0.4800618 1.6734886
1.7201151 -0.47545734 1.681543
1.7801441 -0.47333145 1.6755393
1.8142926 -0.46870196 1.6764144
1.8761206 -0.4644618 1.6725249
1.9180506 -0.46334028 1.6686771
0.91280764 -0.32186452 1.656343
0.90401506 -0.27121106 1.659832
1.8941046 -0.26757082 1.6700814
0.89385766 -0.22344065 1.6592231
1.8893992 -0.22406717 1.6697968
1.9013963 -0.22604921 1.6892371
1.8931003 -0.17191288 1.6783823
1.8938698 -0.1260414 1.6792805
1.8927994 -0.076638974 1.671322
1.8907926 -0.029884959 1.6686248
1.9017504 -0.021631377 1.6862615
-0.21808183 0.044058934 1.6677494
1.8914402 0.02119628 1.6749287
-0.21448231 0.076243654 1.6705812
-0.19162464 0.090501145 1.6546539
1.8890344 0.073817424 1.6665305
-0.21061662 0.12293093 1.6880023
-0.17697756 0.12600408 1.6681269
-0.13308924 0.13729934 1.6585228
1.8946075 0.13590543 1.6697625
1.9017227 0.10835773 1.6830988
-1.3685725 0.19072603 1.6712704
-1.3162402 0.18811512 1.670758
-0.96254086 0.18829794 1.6660663
-0.94622785 0.19203366 1.6797289
-0.16814582 0.16211043 1.6936812
-0.11982626 0.16938972 1.6785867
-0.07852973 0.17965734 1.6653751
-0.039279275 0.19535406 1.656489
1.8913254 0.17556667 1.6758429
-1.4119412 0.20966323 1.6942955
-1.3651878 0.2219767 1.673244
-1.3264076 0.21376152 1.6667806
-1.2957321 0.20588692 1.6759504
-0.95234746 0.23554984 1.6727835
-0.94373584 0.2189685 1.6819788
-0.10373348 0.20349982 1.6959254
-0.072503649 0.20976619 1.685837
-0.028094009 0.22677632 1.6755655
0.0088545522 0.241805 1.6617309
1.8876392 0.21878617 1.6750875
-0.92485625 0.25564882 1.6756556
-0.89460474 0.26619118 1.672354
-0.012566769 0.25503647 1.6895878
0.023271201 0.27466041 1.676035
0.053990956 0.29183406 1.6583278
0.038178056 0.3098745 1.6900694
0.069714822 0.32811609 1.670908
0.084317029 0.37181213 1.6827739
0.1096554 0.37940848 1.6609762
-1.2192382 0.43433705 1.6698214
-1.1946727 0.42713785 1.6874564
0.090110272 0.4140245 1.6949924
0.11364558 0.42428699 1.6739396
0.16130383 0.41847333 1.6576732
-1.2144295 0.47235563 1.6720279
-1.1962597 0.45108706 1.693264
-1.2208842 0.51054859 1.6863309
-1.2180882 0.55477428 1.6909891
-0.32235041 0.57012898 1.691451
-0.25487098 0.590406 1.6962838
-0.23086238 0.58933401 1.6919649
-0.18155496 0.5834893 1.6913834
-0.084827103 0.58375317 1.6850853
0.027401321 0.58113277 1.6999731
-0.30563262 0.62427092 1.699066
-0.26664844 0.63016731 1.6952941
-0.22352616 0.62662119 1.6911032
-0.16788775 0.62274474 1.6850196
-0.11658325 0.63959825 1.6694498
-0.076665752 0.63669902 1.6825558
-0.024848297 0.63150579 1.6829394
0.018194949 0.63341284 1.6766686
0.0564496 0.64314127 1.6689043
-0.30963013 0.68268049 1.6923648
-0.27427557 0.67526597 1.6816227
-0.23264465 0.67469466 1.6910177
-0.16825886 0.65623337 1.6975583
-0.13493092 0.66293448 1.668787
-0.082854047 0.6645202 1.6684504
-0.020062324 0.66864896 1.6646954
0.016703166 0.67406535 1.6705135
0.061631635 0.65433317 1.6976299
-0.30020136 0.70860136 1.6965603
-0.27479792 0.71593016 1.6821153
-0.23652785 0.71844983 1.687957
-0.13287765 0.72865993 1.6604818
-0.080007896 0.737091 1.6643206
-0.23953597 0.75121933 1.6888548
-0.10670606 0.79015398 1.6649523
-0.085144386 0.77397466 1.66088
0.033227604 0.76896554 1.6603789
-0.11665603 0.82486826 1.6878268
-0.081569359 0.82223046 1.6651168
-0.023783129 0.84483039 1.6659338
0.0021815395 0.83531427 1.6673627
-1.3196995 -0.51751637 1.7333965
-1.2754198 -0.51427037 1.724054
-1.2228963 -0.51470703 1.7256535
-1.177093 -0.51448774 1.7287107
-1.1239904 -0.51138163 1.7272606
-1.0725852 -0.50064474 1.728663
-1.0295914 -0.50398123 1.7052593
-0.61671722 -0.50918853 1.7333685
-0.56770438 -0.51849496 1.7220647
-0.52590621 -0.52315211 1.7280612
-0.48300338 -0.52273256 1.7263399
0.14676024 -0.50177121 1.731995
0.19060506 -0.50416315 1.7250849
0.22832775 -0.50632441 1.7108234
0.27485925 -0.50333905 1.7388439
0.34715554 -0.50010794 1.7387207
0.44534862 -0.5032928 1.7185276
0.48463574 -0.50650424 1.7194684
0.52779257 -0.51916969 1.7286794
0.57164377 -0.528247 1.7267567
0.62601149 -0.53232604 1.7335005
0.67185169 -0.52945924 1.7313092
0.72236049 -0.51999861 1.7268292
0.77076107 -0.51344723 1.7269897
0.80994666 -0.50391471 1.7212503
-1.068087 -0.49125713 1.7273359
-1.0263259 -0.49289107 1.7228849
-0.97553724 -0.49094436 1.7153473
-0.92789632 -0.49009123 1.7157946
-0.87483823 -0.48603845 1.7142471
-0.82417589 -0.48337606 1.7084246
-0.77102697 -0.47975072 1.7051188
-0.73029464 -0.47641101 1.7044959
-0.65976346 -0.49746084 1.7343936
-0.64182675 -0.49830315 1.7246972
-0.22830324 -0.48323774 1.7131571
-0.19063562 -0.48602876 1.7051469
-0.016220707 -0.48534498 1.7308488
0.0063475044 -0.48429686 1.7218773
0.096121103 -0.48676822 1.7448008
0.12944128 -0.49445173 1.7297584
0.16275817 -0.49650127 1.7205806
0.32311308 -0.49416396 1.720611
0.37851697 -0.49602222 1.7196064
0.42368776 -0.49880037 1.7223642
0.45910567 -0.4999122 1.7201968
0.83068085 -0.4967871 1.7256467
0.87293756 -0.48033085 1.7272351
0.90409839 -0.45985588 1.73508
1.185587 -0.47804368 1.7222325
1.2283107 -0.48992458 1.7236413
1.2775329 -0.48577121 1.7258672
1.3221924 -0.48621503 1.7281601
1.3735396 -0.4907721 1.7232026
1.4249119 -0.49061739 1.7122912
1.4689996 -0.48965865 1.7276142
1.5208794 -0.48617139 1.7202712
1.5664595 -0.48147002 1.7321699
1.623269 -0.47769678 1.7239662
1.6752014 -0.47198689 1.7233392
1.728482 -0.47062913 1.7342603
1.7762223 -0.46698245 1.7193127
1.8303581 -0.4616034 1.7156556
1.8609114 -0.46210837 1.7129154
1.7806106 -0.31322077 1.7483475
1.8216902 -0.31983 1.747035
1.8573475 -0.31962442 1.7480631
1.7863524 -0.27402076 1.7491596
1.818746 -0.27416462 1.7457118
1.8572264 -0.26942217 1.7479433
1.911013 -0.26422045 1.7309462
-0.047775783 -0.24941991 1.7310799
1.7949526 -0.22072291 1.7483019
1.8226118 -0.22768681 1.7427701
1.8608962 -0.21569513 1.7435986
1.9062887 -0.22332078 1.7314661
-1.5031005 -0.1583216 1.7436084
1.7886794 -0.16908929 1.7460215
1.822932 -0.17382941 1.7431506
1.8755952 -0.17008968 1.7348241
1.9033653 -0.18853213 1.7323335
-1.5596838 -0.11999318 1.7387362
-1.5168169 -0.11887109 1.7345891
-1.498971 -0.12373657 1.747613
0.077996947 -0.11006324 1.7387135
1.7808344 -0.12655416 1.7461463
1.8225566 -0.1218291 1.737731
1.881916 -0.12761636 1.7335343
1.9029738 -0.12136965 1.7334355
-1.5689822 -0.078265123 1.7411426
-1.5279044 -0.077787831 1.7394716
0.078459159 -0.092825949 1.735404
1.7283291 -0.076201133 1.7495401
1.7793095 -0.074858025 1.7444637
1.8204929 -0.074875943 1.7362167
1.8786285 -0.069613695 1.7297533
1.9017137 -0.076160438 1.7220129
-1.5419961 -0.03778252 1.7480812
1.7465329 -0.021319259 1.7484868
1.7806305 -0.026500402 1.742545
1.8228686 -0.02781859 1.7326961
1.8801916 -0.026327722 1.7215278
1.745351 0.0062715826 1.7473867
1.7811337 0.0063547171 1.7412809
1.8302253 0.0053461017 1.7300279
1.8849334 0.010657186 1.7193273
1.9132673 0.038288135 1.733376
-0.23624003 0.078153007 1.7108742
1.9184978 0.075726755 1.7315925
-0.2284915 0.12976378 1.7191114
1.9104276 0.12438212 1.7205633
-1.419171 0.19071658 1.704975
-1.3233966 0.17888367 1.7145278
-1.293677 0.18866414 1.7288802
-0.93177223 0.19334371 1.7218215
-0.21125197 0.16944166 1.7261906
-0.17726858 0.18549533 1.7169322
-0.13711093 0.19186024 1.7054986
1.9100105 0.17465237 1.7220625
-1.4166778 0.2361754 1.7066786
-1.3557398 0.23838441 1.7163125
-1.3178927 0.22681434 1.7228721
-1.2913473 0.20829424 1.7255055
-0.93659508 0.22531247 1.7252661
-0.1735311 0.21390994 1.7387702
-0.12611514 0.22358161 1.7272078
-0.077169023 0.23473167 1.7126653
1.8986189 0.21795006 1.7134839
1.9123896 0.20802993 1.7272148
-1.4075325 0.25049785 1.7033718
-1.3992119 0.25078905 1.71225
-0.91910559 0.25607648 1.7231032
-0.89086682 0.26581037 1.7272342
-0.11342734 0.25427386 1.7471623
-0.074327417 0.26831898 1.7372918
-0.028020764 0.27757683 1.7158874
0.0048276731 0.29337728 1.7074289
-0.020839745 0.31962141 1.7384905
0.019922443 0.32865566 1.717912
0.05146648 0.34566358 1.7014357
0.028840067 0.37282562 1.7347577
0.061449274 0.38232848 1.7102444
-1.1787593 0.42968613 1.7238748
0.041383393 0.42101642 1.7444036
0.068825893 0.42535371 1.7230864
-1.2058091 0.46919888 1.7036026
-1.180421 0.47528648 1.7228442
-0.30745932 0.49895746 1.7382973
-0.074619226 0.45225474 1.7491219
0.065997027 0.45122463 1.745368
0.10347418 0.4560402 1.7286106
-1.2296062 0.53170472 1.7041026
-1.1874309 0.51456201 1.721783
-0.3189528 0.53118199 1.7360379
-0.27891907 0.53161979 1.7423023
-0.22917664 0.53791702 1.745415
-0.19172418 0.54229748 1.7360061
-1.2125903 0.57855725 1.7069904
-1.1894335 0.57313776 1.7192115
-0.31625944 0.58420509 1.7164648
-0.27831697 0.5811981 1.7258947
-0.22362427 0.57070398 1.7188206
-0.1862902 0.57254213 1.7197033
-0.12648961 0.57954919 1.7403486
-0.074240029 0.58252919 1.7270286
-0.026854074 0.57882065 1.7342522
0.019633133 0.57805955 1.7192347
-0.32705674 0.62485099 1.7242348
-0.28590897 0.62178791 1.705819
-0.22269936 0.62007481 1.706966
-0.17696944 0.62731701 1.7159394
-0.12449536 0.62511623 1.7273962
-0.077293493 0.61526102 1.7103701
-0.028862992 0.60922039 1.7140017
0.020962067 0.61626667 1.7163576
0.053631447 0.64755458 1.7170649
-0.32094795 0.67465657 1.7179651
-0.29846591 0.65295249 1.7012817
-0.21415356 0.67183971 1.7097031
-0.18254364 0.66808969 1.716864
-0.14398423 0.65786088 1.7156661
0.053752024 0.66192883 1.7175372
-0.35655078 0.70886284 1.7465467
-0.32827821 0.718413 1.7100418
-0.294613 0.74221414 1.7074794
-0.2122696 0.73398149 1.734522
-0.19058923 0.7012611 1.7374938
-0.14756176 0.71386409 1.7473711
0.035394285 0.72143471 1.7316307
-0.2615402 0.77079302 1.7388496
-0.21224055 0.7596119 1.7333524
-0.11210118 0.83118409 1.7081311
0.028808769 0.84137774 1.7209533
-0.058763079 0.88574821 1.7333597
-0.030890275 0.885719 1.7224778
0.02017571 0.88322234 1.7310005
0.064407855 0.85261667 1.7219496
-0.064361505 0.92004102 1.7457689
-0.024109609 0.92314035 1.7368878
0.0083226152 0.91769296 1.7387837
-0.2006994 0.99694538 1.7390101
-0.17744468 0.99160141 1.7414823
-0.11956698 0.98355132 1.747716
-0.087195955 0.9845705 1.7469755
-0.032863293 0.96497238 1.7335823
0.025199059 0.96069658 1.743395
-0.16653453 1.0246928 1.7416089
-0.12008984 1.0170157 1.7471683
-0.092951335 1.0179703 1.7450074
-0.16539532 1.0533634 1.7384522
-1.3312715 -0.51256049 1.7758076
-1.2765495 -0.51491755 1.775905
-1.2109308 -0.50686383 1.7652435
-1.1768075 -0.51191825 1.7792265
-1.1416811 -0.50269645 1.7815851
-0.62278455 -0.51159877 1.7737328
-0.57694101 -0.52356863 1.7761155
-0.52776164 -0.52450377 1.7685001
-0.47442374 -0.52022594 1.7864246
0.18520097 -0.50526077 1.7735672
0.21548994 -0.50929022 1.7693975
0.2667076 -0.50290239 1.758212
0.34153432 -0.50224584 1.7802384
0.42713213 -0.50145739 1.7762064
0.47490168 -0.50680363 1.7760937
0.52174509 -0.5137915 1.7711147
0.5770281 -0.52728951 1.7739124
0.62411153 -0.52923715 1.7721925
0.67584419 -0.52571756 1.7697486
0.72691464 -0.51730466 1.7718605
0.77487987 -0.50535566 1.7722635
0.82265025 -0.50384265 1.7786944
-1.1096221 -0.49500066 1.7614784
-0.6992687 -0.45854697 1.7555288
-0.064917579 -0.46984032 1.7834491
-0.028118692 -0.47242442 1.7767167
0.011598349 -0.47170928 1.7798802
0.091770142 -0.48245946 1.7732277
0.1235436 -0.49168834 1.7694951
0.1644417 -0.49805498 1.7711471
0.2905992 -0.49804041 1.7711021
0.33082074 -0.49792558 1.7862746
0.37513489 -0.49768466 1.7725766
0.41601825 -0.49779192 1.7787449
0.84520501 -0.49994567 1.7629238
0.88253611 -0.48545289 1.7704885
0.91009456 -0.47568524 1.7894613
1.2266282 -0.48191604 1.7707866
1.2724715 -0.49092811 1.7767456
1.3244239 -0.4843553 1.7726282
1.3901867 -0.48972231 1.7777507
1.4301856 -0.48748878 1.7660887
1.480203 -0.48309964 1.7770288
1.5352266 -0.47801191 1.7751148
1.5758468 -0.47127703 1.7793109
1.621811 -0.46791729 1.7796037
1.6728038 -0.46735173 1.7674226
1.7363044 -0.46072254 1.7709122
1.7739985 -0.4631688 1.7559583
1.816299 -0.4639256 1.7668308
-0.010632658 -0.4014309 1.7611219
0.02372811 -0.40383241 1.7715387
0.062120326 -0.40242451 1.7647883
-1.3664781 -0.38041687 1.7897944
-1.2102424 -0.36248845 1.7919577
-1.1955947 -0.36604178 1.7893372
-0.16552882 -0.37411898 1.7882581
-0.12160683 -0.37245923 1.7897326
-0.075360514 -0.37471306 1.779377
-0.027960466 -0.37489274 1.7810124
0.023721986 -0.37468737 1.7801785
0.059471678 -0.36869776 1.7837313
1.6383452 -0.35060799 1.7912854
1.6745992 -0.35241893 1.7785776
1.7329988 -0.35759899 1.7771571
1.7504436 -0.35770512 1.7634394
1.8245746 -0.35208288 1.7537574
-1.204457 -0.34591079 1.7856828
-1.1855137 -0.34329692 1.7772956
-0.2065323 -0.31307343 1.7979765
-0.17362903 -0.32329425 1.7909635
-0.12295649 -0.3251828 1.7849867
-0.075184844 -0.32660684 1.7814082
-0.029155644 -0.3284077 1.7775879
0.023599572 -0.32558623 1.7769107
0.06696488 -0.32373747 1.7844107
1.599503 -0.3035326 1.7960333
1.6243054 -0.32422137 1.7899483
1.6769686 -0.32424143 1.7752618
1.7253989 -0.32480383 1.7621901
1.7741084 -0.32387593 1.7564765
1.8240986 -0.34060615 1.7551618
1.8634429 -0.32068664 1.7537644
-1.4983068 -0.25844663 1.7945257
-0.17241053 -0.29314041 1.7866967
-0.13483407 -0.29680547 1.7757139
-0.023197059 -0.25354105 1.7599926
0.028378535 -0.27288851 1.7719264
0.069703348 -0.27564925 1.7787713
1.5984869 -0.27621514 1.7985404
1.6252723 -0.27705583 1.7874207
1.6723784 -0.27156809 1.7728853
1.7190408 -0.2768425 1.7624301
1.7666552 -0.27307206 1.7548215
1.8736392 -0.27890846 1.7551883
1.9091126 -0.2663922 1.7615204
-1.4869651 -0.22206509 1.7913904
-0.024410654 -0.22665051 1.7694708
0.023378685 -0.22492653 1.7699411
0.074085504 -0.22579829 1.7769152
1.5931288 -0.22662604 1.7982
1.6248958 -0.22571462 1.7881925
1.6751951 -0.22538412 1.7715206
1.7283198 -0.22601777 1.7591203
1.7736424 -0.22024338 1.7546841
1.8719718 -0.23990016 1.7514334
1.9045746 -0.22519043 1.7621663
-1.5046494 -0.17741118 1.770239
-1.4930458 -0.1702375 1.7808069
-0.017817317 -0.18658485 1.7643863
0.026129013 -0.18003988 1.7642624
0.074096784 -0.17342167 1.7668873
0.10525285 -0.17601769 1.7928679
1.5880945 -0.16658519 1.7979536
1.6233095 -0.17282359 1.7859313
1.6751903 -0.17422889 1.7705461
1.7242256 -0.17582838 1.7597916
1.7660981 -0.17413579 1.7519268
1.8908992 -0.17753522 1.7540237
-1.6004181 -0.11695129 1.7643319
-1.5037199 -0.12413216 1.7530458
-1.4927267 -0.12641479 1.7780139
0.085818134 -0.12996449 1.7615869
0.107223 -0.11930762 1.7808751
1.5913247 -0.1232747 1.7943419
1.6260939 -0.12384037 1.7823082
1.6722981 -0.12482216 1.7710075
1.7199665 -0.1258682 1.7590823
1.7587277 -0.12799564 1.7527269
-1.5693944 -0.052168366 1.7523528
-1.5128285 -0.064095885 1.7603829
-1.4941452 -0.075819701 1.7814684
0.10280628 -0.092257015 1.7551003
1.5886806 -0.074693434 1.7935364
1.623163 -0.075013861 1.7813281
1.6721958 -0.076244622 1.7683376
1.719226 -0.075364575 1.7590038
1.7575308 -0.078750335 1.7546601
-1.5721 -0.024191065 1.7690496
-1.5173645 -0.024540229 1.7645019
-1.4975212 -0.025709644 1.7885951
1.5823518 -0.024449235 1.7908508
1.6249864 -0.025268586 1.776318
1.6788521 -0.027817097 1.7640783
1.7251804 -0.026148522 1.7543015
1.7519145 -0.043526124 1.7535826
-1.5949779 0.00059328234 1.7815175
-1.5165062 0.0068346439 1.7754742
1.5744344 0.0059188339 1.7886734
1.6239475 0.0060103163 1.7732881
1.673265 0.0061185006 1.7654905
1.7167722 0.0062153959 1.7595555
1.9142327 0.035814062 1.7720842
1.9256042 0.076818973 1.7777596
1.9228786 0.12725849 1.7726244
-1.4673738 0.18882373 1.7934213
-1.3240696 0.17255127 1.7974001
-1.272651 0.18787973 1.7702757
-1.2335961 0.18073907 1.7934097
-1.0016509 0.18966872 1.7959036
-0.91772783 0.18719591 1.7605839
-0.87540454 0.18542798 1.7807868
-0.82772344 0.1881824 1.7909648
-0.77930045 0.19211972 1.7992101
-0.21952483 0.18762411 1.7719544
1.9270858 0.17602976 1.7691296
-1.3065518 0.23023862 1.7681719
-1.2910348 0.21744204 1.7788776
-0.92469215 0.2288166 1.7739425
-0.87013882 0.24680541 1.7890016
-0.82946479 0.21994995 1.7949023
-0.77499205 0.20455115 1.7932848
-0.20510955 0.21302527 1.7694273
-0.17596808 0.23664173 1.7614298
-0.14535072 0.24445713 1.7515819
1.9284136 0.21875596 1.775663
-0.91558993 0.25054502 1.7775408
-0.87683523 0.25979444 1.7754761
-0.83960688 0.25781262 1.7875402
-0.15862608 0.26647604 1.7771909
-0.12631027 0.27636182 1.7671767
-0.085928909 0.2888549 1.7583132
-0.81691164 0.31313869 1.7894958
-0.11338709 0.31952953 1.7885712
-0.074992798 0.32575244 1.7756578
-0.038790528 0.33299151 1.7601738
-0.10217369 0.35669756 1.7983431
-0.069884725 0.36862671 1.7919616
-0.028491117 0.37525889 1.775175
0.0074720462 0.38173226 1.7556183
-1.1595385 0.42855468 1.7668777
-1.142306 0.43579793 1.7911093
-0.20713639 0.41004464 1.7899272
-0.053051248 0.4043906 1.7989798
-0.020273907 0.41940063 1.7854618
0.016959373 0.42412493 1.7638236
-1.1564825 0.474085 1.7658588
-1.1433405 0.47251198 1.7867693
-0.27229914 0.4806149 1.7796997
-0.22840087 0.49167979 1.7889767
-0.1554966 0.49952838 1.7866011
-0.1187515 0.48931572 1.7756797
-0.073507249 0.48432478 1.77782
-0.024792628 0.48470348 1.7741251
0.015277309 0.45323932 1.7891778
0.054239895 0.4597103 1.7784919
-1.1615169 0.5216288 1.7823305
-1.1353763 0.52706146 1.7967396
-0.30935174 0.52600735 1.7593147
-0.27242342 0.52149159 1.7656615
-0.22413762 0.51972872 1.7627761
-0.1780847 0.53223032 1.78014
-0.1231745 0.52778536 1.7769083
-0.073261812 0.5261451 1.778375
-0.028723817 0.5282405 1.7759365
0.0092324791 0.50422466 1.7817926
-1.1610696 0.59220642 1.7911984
-0.31577751 0.55665225 1.7762998
-0.2703729 0.56142902 1.753785
-0.17125669 0.5708648 1.7809417
-0.12117784 0.57070792 1.7696369
-0.074945748 0.563375 1.7686031
-0.030213065 0.55974042 1.7530618
0.017856807 0.5655691 1.7768906
-0.35079035 0.61792058 1.7558268
-0.16267388 0.62641239 1.7824322
-0.14214787 0.61796486 1.770395
0.040244341 0.61948842 1.7657919
-0.33550245 0.67024469 1.7796208
-0.20948337 0.68821645 1.7523905
-0.17134656 0.69151133 1.7553525
-0.3606537 0.72148561 1.7822418
-0.34739831 0.70393527 1.764938
-0.20839672 0.7214883 1.7689122
-0.177485 0.72339863 1.78114
-0.1478937 0.70663679 1.7538037
-0.32570228 0.78374457 1.7769021
-0.27961597 0.78225923 1.7790477
-0.21706288 0.7870602 1.7725754
-0.18254408 0.7731719 1.7805251
-0.21202531 0.80738616 1.7837663
-0.16672426 0.89563942 1.7605034
-0.11783393 0.88572019 1.7681599
-0.097869404 0.88355362 1.7616923
0.041046117 0.88288337 1.7646122
0.07043042 0.88164127 1.7847641
-0.17450964 0.94046468 1.7904928
-0.12409551 0.92582273 1.780036
-0.074455135 0.93206954 1.766571
-0.026470659 0.93318957 1.7600144
0.030383229 0.92740059 1.7638899
0.071320847 0.92640084 1.7853028
-0.21152018 0.98405284 1.7862651
-0.1755202 0.97854018 1.7798957
-0.13161865 0.96628219 1.7654493
-0.077209748 0.97317058 1.7656614
-0.02446625 0.97400582 1.7633394
0.017783752 0.96086842 1.7711037
0.081843406 0.95382714 1.7917362
0.10560216 0.95738703 1.7975358
-0.22694008 1.017151 1.7894884
-0.17546821 1.0253146 1.7664289
-0.12768477 1.0268127 1.7589717
-0.067371726 1.0249389 1.7627025
-0.038278159 1.0265021 1.7717506
-0.17649789 1.0720118 1.7719492
-0.10064708 1.0584999 1.7507006
-0.086665809 1.0730064 1.7711961
-0.044684928 1.0545197 1.765698
-1.4079713 -0.51247406 1.8413674
-1.3813453 -0.51383495 1.8359544
-1.3201731 -0.50992596 1.8237709
-1.279494 -0.51553422 1.8208494
-1.2145249 -0.51102394 1.8339524
-1.1790774 -0.50963378 1.8201969
-0.61120045 -0.5191859 1.8221941
-0.57525837 -0.52111882 1.8246861
-0.5263868 -0.52605349 1.820911
-0.47452399 -0.51454306 1.8161393
0.14569473 -0.50188822 1.8307632
0.18445462 -0.50541973 1.8208189
0.22844969 -0.51365191 1.8190433
0.27197063 -0.50877577 1.8187878
0.32385969 -0.50173736 1.8266138
0.36798888 -0.50106019 1.8243351
0.43442926 -0.50024867 1.8291422
0.47548008 -0.50547296 1.8162225
0.53205484 -0.51289684 1.8109684
0.57228297 -0.52251834 1.8196338
0.62336665 -0.52520978 1.8268886
0.67653775 -0.52428907 1.8180424
0.72852468 -0.51511997 1.8215706
0.77105588 -0.50437474 1.8253598
0.82185924 -0.50284934 1.8175783
0.86399114 -0.50236142 1.8284332
-1.4702069 -0.47347322 1.8420963
-1.3016375 -0.46170557 1.8070904
0.095254585 -0.48272443 1.8139021
0.11827894 -0.49082348 1.8259306
0.32951453 -0.4980278 1.8238057
0.37481996 -0.49665391 1.8244555
0.42122778 -0.49680835 1.8254074
0.84000629 -0.49757141 1.8372915
0.88497138 -0.49484003 1.8209968
0.9131735 -0.47910985 1.8185291
1.2802153 -0.49217197 1.8112401
1.3294808 -0.49061427 1.8312235
1.3801652 -0.48258367 1.828511
1.4245713 -0.48493418 1.8168699
1.4767078 -0.48059949 1.8268251
1.5327477 -0.47308719 1.8219333
1.5690758 -0.45943651 1.8163681
1.6366249 -0.45815003 1.833012
1.6663703 -0.45705783 1.8026572
1.7161821 -0.46292436 1.8029764
-1.4730109 -0.41957718 1.8413653
-1.411072 -0.41883975 1.8345177
-1.3702521 -0.43636119 1.8052473
-1.2729877 -0.40941459 1.8269829
-1.2405913 -0.40724999 1.8311008
0.05926403 -0.40812027 1.8096616
1.5786012 -0.4361383 1.8043176
-1.4681661 -0.36423811 1.8316203
-1.4403507 -0.36859524 1.8415861
-1.2301258 -0.37786818 1.8267318
-1.1884024 -0.36501652 1.8197417
-0.20846836 -0.35111454 1.8105931
-0.18311022 -0.3732596 1.8103313
-0.14210714 -0.3935774 1.802305
0.074667707 -0.3750838 1.813589
1.5882922 -0.35724491 1.8374813
1.6199833 -0.35875145 1.8110336
-1.467275 -0.3231369 1.8238307
-1.424752 -0.32967508 1.8368185
-1.2134987 -0.3385421 1.8005644
-0.20798445 -0.3327843 1.8085684
-0.1959157 -0.3437686 1.8043388
0.089532189 -0.31868207 1.8107747
1.5798321 -0.32552791 1.8201658
-1.4843522 -0.27534693 1.8261626
-1.4180696 -0.29212567 1.8361695
0.097943865 -0.26977685 1.8096657
1.5736328 -0.27665076 1.8212664
-1.4843284 -0.2234855 1.8232661
0.097395025 -0.23362349 1.8026654
0.10825616 -0.23404829 1.840224
1.5689428 -0.22707614 1.8214424
-1.4858083 -0.17685422 1.8261693
0.10945339 -0.17093103 1.8152041
0.95645636 -0.16279994 1.8429749
1.0822835 -0.17238547 1.8236595
1.1280364 -0.17014568 1.834777
1.1683378 -0.15913346 1.8414457
1.5661306 -0.17344366 1.820573
-1.4865601 -0.12415005 1.8281124
0.11598311 -0.13997544 1.828504
1.1959832 -0.14009847 1.8448205
1.5499251 -0.12929735 1.837669
1.5619828 -0.12310579 1.8195273
-1.4861544 -0.07377167 1.8270879
1.1946946 -0.059806138 1.846072
1.5482526 -0.078730859 1.8379583
1.5604707 -0.07414192 1.8165525
-1.4890177 -0.027536111 1.8239613
1.1947602 -0.04979096 1.8463907
1.5456983 -0.022801409 1.8293723
1.5596441 -0.030447371 1.8096052
-1.5143375 0.021804877 1.8186667
-1.4918597 0.0080936151 1.8246993
-0.70968229 0.0093610557 1.8495671
1.1955273 0.04040334 1.847667
1.5422021 0.005912628 1.8321228
1.5535433 0.0058958838 1.8049595
1.9223453 0.033363014 1.8179562
-1.5089605 0.088512614 1.8256221
-1.4947639 0.075173013 1.8366147
1.939665 0.078025214 1.8201189
-1.5156872 0.12586716 1.8403581
-1.4981858 0.11842597 1.84656
1.9457798 0.12364656 1.8161789
1.9537047 0.12061726 1.8386869
-1.5204899 0.18284832 1.8285998
-1.4923919 0.18514775 1.8280392
-1.3055155 0.17276073 1.8114859
-1.2781112 0.1711154 1.8028364
-1.2160237 0.17843859 1.8186758
-1.1685467 0.18739419 1.8215996
-1.1262645 0.18757741 1.8331958
-1.0772965 0.18495117 1.8338023
-1.0337604 0.18775944 1.8282864
-0.92181611 0.17846194 1.8070537
-0.86818069 0.17802793 1.8211015
-0.82730711 0.18237641 1.8205773
-0.78186792 0.18663429 1.8055574
1.9435563 0.16712964 1.8147037
1.9532455 0.18003011 1.8264064
-1.2724559 0.21405928 1.8232247
-1.226772 0.20267734 1.8459789
-0.91640323 0.22629392 1.8220056
-0.87402582 0.22670583 1.8226539
-0.82423049 0.23084123 1.829416
-0.78123242 0.2250296 1.8341371
1.9448991 0.21538003 1.8226072
-0.82944757 0.26915768 1.8186235
-0.76691854 0.28109726 1.8447777
-0.73008263 0.27217773 1.8404828
-0.17229556 0.27501529 1.810312
-0.81997108 0.31110069 1.8206092
-0.79867995 0.30644488 1.8457737
-0.1333501 0.3258065 1.8106883
-0.31122974 0.39478627 1.8464329
-0.11223718 0.36545649 1.8192874
-0.08742705 0.38495737 1.8099946
-1.1541973 0.42911002 1.8161291
-1.1343315 0.42998275 1.8257912
-0.31749892 0.42344841 1.8426743
-0.29580525 0.42464048 1.8460705
-0.2165404 0.42418671 1.8446746
-0.17895965 0.43442833 1.8308368
-0.065910079 0.41771355 1.8160908
-0.031158596 0.43923083 1.8059919
-1.1509128 0.45772579 1.8052628
-1.1354277 0.47621265 1.827755
-0.32079059 0.47516796 1.8375204
-0.26355934 0.46202412 1.8185991
-0.22038327 0.4744564 1.8174416
-0.17468394 0.47976595 1.8312302
-0.13308984 0.4845883 1.8319062
-0.066865295 0.47470731 1.8273211
-0.019077405 0.47873873 1.8165909
0.012218642 0.48764771 1.8109832
-1.1342705 0.5113551 1.8280841
-0.32215402 0.52007836 1.8398905
-0.20144174 0.50930548 1.8019133
-0.17742082 0.51780164 1.8104827
-0.12728316 0.51948321 1.815714
-0.077865057 0.51644731 1.8170823
-0.010158305 0.52533787 1.8097508
0.014853239 0.52138114 1.8222535
-1.1320833 0.55259097 1.8180566
-0.35393223 0.5938614 1.8292221
-0.32810479 0.59362668 1.8420515
-0.16107874 0.57407039 1.8210983
-0.14458013 0.55631709 1.8056502
-0.0066272793 0.55090529 1.8073186
0.024627009 0.56485593 1.8178898
-0.35583374 0.60623759 1.8369735
-0.34685001 0.60658622 1.8392431
-0.16559443 0.61736214 1.8215278
-0.18233377 0.74097508 1.8308575
-0.17965706 0.77435309 1.8177891
-0.36740908 0.8441208 1.8361665
-0.3490482 0.84557134 1.8419962
-0.27514657 0.81954253 1.8312342
-0.20897706 0.8344959 1.8277321
-0.17732386 0.81296736 1.8301709
0.068045683 0.83924073 1.8387662
-0.37761879 0.85524499 1.8351411
-0.31044626 0.88083398 1.8367957
-0.28338376 0.87973166 1.8445511
-0.20645106 0.86407882 1.8499918
-0.18948627 0.88047254 1.8377584
0.089988567 0.88757241 1.809556
-0.3639414 0.92258072 1.8459551
-0.31610897 0.92278087 1.8284863
-0.28132963 0.93047917 1.8399512
-0.21919133 0.93155444 1.8235563
-0.18011844 0.92278433 1.8110203
-0.12390909 0.92651832 1.8019478
0.089063048 0.92209458 1.8143346
0.11188471 0.92748398 1.8265663
-0.39121372 0.96254271 1.8453128
-0.32554162 0.96992749 1.8186073
-0.27446222 0.97405279 1.826905
-0.23313902 0.97023219 1.8197488
0.092026621 0.96725833 1.8059412
-0.34208095 1.0096724 1.8304689
-0.27050927 1.0166141 1.8122954
-0.24019964 1.0121826 1.8109962
-0.20897287 1.0572679 1.8023666
-1.432027 -0.50626993 1.8760774
-1.3717583 -0.50691563 1.8693117
-1.3343037 -0.51025122 1.8818865
-1.2711247 -0.51191986 1.8795069
-1.2310802 -0.51194823 1.8824209
-0.57243007 -0.52414781 1.8822309
-0.52478015 -0.52178991 1.8702594
-0.47342145 -0.51115507 1.8578329
0.14290893 -0.50115252 1.8753147
0.17611545 -0.50958669 1.8928202
0.2228473 -0.51444781 1.8717104
0.27486026 -0.50910562 1.875124
0.317828 -0.50352919 1.872262
0.37085241 -0.50357234 1.8880281
0.4269318 -0.50378931 1.8808658
0.47983608 -0.50668037 1.872614
0.5254851 -0.51150596 1.8726798
0.57569069 -0.51580006 1.8716642
0.6267823 -0.51694208 1.8796582
0.6736896 -0.51875067 1.8700082
0.72531277 -0.51427382 1.8731208
0.77676225 -0.50442171 1.8690939
0.82230675 -0.50298244 1.8745925
0.86055923 -0.50279635 1.8965214
-1.4579302 -0.47912252 1.868413
-1.4375166 -0.47960871 1.8893368
-1.3933284 -0.49196368 1.8904724
-1.3347542 -0.47571397 1.8960594
0.1168592 -0.48992559 1.8761698
0.32178462 -0.49989742 1.8800199
0.38031894 -0.49776047 1.8643752
0.42290127 -0.49781308 1.8709968
0.46407136 -0.49926224 1.8955528
0.82682562 -0.49833766 1.8879906
0.87757057 -0.49846154 1.8720045
0.92310357 -0.48715788 1.8801191
1.2924162 -0.49043494 1.8513199
1.332046 -0.49405304 1.8774126
1.3694085 -0.48535076 1.8684813
1.420503 -0.47871086 1.8734354
1.4771267 -0.47811618 1.8782496
1.523628 -0.47247201 1.8731029
1.5606539 -0.46845347 1.8798745
-1.4630945 -0.43128911 1.8606738
-1.4357581 -0.41434205 1.8672292
-1.2529275 -0.40893391 1.8782554
-1.2415802 -0.40065351 1.8548204
-1.4662282 -0.39913595 1.8573998
-1.4333493 -0.37996766 1.8593473
-1.2665056 -0.39170748 1.8519911
-1.2245793 -0.36731318 1.8870693
-1.1930931 -0.38800779 1.8659083
1.5719855 -0.35430667 1.8715274
-1.45602 -0.32129326 1.8563322
1.5634987 -0.32427227 1.8743492
-1.4703647 -0.27560642 1.8719378
-1.4345602 -0.28698409 1.8535489
0.93569738 -0.26785979 1.8865688
1.559389 -0.2777243 1.8741335
-1.4696443 -0.22604597 1.8748767
-1.4489684 -0.23788401 1.8989995
0.10880006 -0.21305013 1.851211
0.91704309 -0.23330918 1.8844241
1.5556939 -0.22533989 1.871649
-1.4708452 -0.17216115 1.8793409
0.93193817 -0.15826368 1.869215
0.97685641 -0.16009191 1.8744451
1.0378846 -0.16490197 1.8853607
1.0734383 -0.16247784 1.867829
1.1243401 -0.15592648 1.8639098
1.1702262 -0.15470058 1.8758415
1.2559091 -0.15503575 1.8942678
1.5542578 -0.17490913 1.8707876
-1.4780306 -0.12457044 1.8828331
-0.78599644 -0.10435168 1.8822106
0.93226433 -0.14149998 1.8800695
0.97298312 -0.13051875 1.8983765
1.0278354 -0.13383417 1.8961284
1.0741196 -0.13878873 1.8914905
1.1155663 -0.13316581 1.8931367
1.1775548 -0.14274785 1.8990325
1.2082325 -0.12457339 1.8802762
1.5457878 -0.11357114 1.8540856
1.5539194 -0.12932841 1.876876
-1.4755366 -0.07506948 1.8817394
-1.4251031 -0.056678604 1.8923048
0.96121067 -0.088149585 1.8972059
1.0271215 -0.090615533 1.8991934
1.0738844 -0.093199879 1.8984493
1.110212 -0.060164232 1.8975595
1.1896192 -0.091804951 1.8995974
1.2092237 -0.07451003 1.8843689
1.5467621 -0.064899206 1.8653777
1.5508597 -0.087063223 1.8737615
-1.477747 -0.025246982 1.8776801
-1.4144773 -0.028016662 1.8855362
1.1998509 -0.019819388 1.8546629
1.2193592 -0.02343078 1.8846998
1.5446899 -0.024935083 1.8691504
-1.479014 0.013595148 1.8813441
-1.4079922 0.019817019 1.8734471
-0.71095806 0.035393335 1.8579416
1.2145429 0.020855183 1.8981949
1.538033 0.00051394966 1.8680531
1.5548347 0.01152717 1.8884178
1.9348066 0.024874734 1.8689548
1.9729565 0.043489259 1.8826708
-1.4779217 0.076454952 1.8788953
-1.4132235 0.074986994 1.8827145
-0.71310449 0.075009018 1.8707317
1.9690051 0.07974454 1.8777647
-1.4810508 0.12457716 1.8760803
-1.4183135 0.11260045 1.8880104
-0.71687293 0.12449146 1.8879284
1.9770578 0.12749444 1.8785645
-1.5195236 0.16100883 1.8564156
-1.4797699 0.15681188 1.8724232
-1.2345477 0.17413722 1.8705781
-1.0613008 0.18289775 1.8657894
-1.0219032 0.18442827 1.8708806
-0.782776 0.19879997 1.8689145
-0.28138128 0.15764323 1.8696152
1.9640278 0.17643619 1.8670624
-1.2668291 0.22294319 1.8695399
-0.91417027 0.22210789 1.8674011
-0.89606917 0.22239327 1.8765702
-0.7867918 0.23596905 1.8829534
-0.72448289 0.20916417 1.8936727
-0.35692734 0.24561971 1.8737562
-0.30788633 0.24182457 1.8859451
-0.27620488 0.23662165 1.8797112
-0.22441366 0.23574638 1.8821768
1.966067 0.21900757 1.8650265
-0.80760062 0.28725499 1.8639113
-0.77608114 0.27910554 1.8555801
-0.71831048 0.27275121 1.8671629
-0.35011584 0.25307029 1.8614217
-0.32055393 0.26044264 1.885564
-0.27388397 0.26129702 1.8821638
-0.21503876 0.27818409 1.8904248
-0.19144857 0.27485353 1.8691208
0.19412602 0.28318211 1.8941853
0.20289533 0.28267545 1.8901635
-0.82455105 0.3335433 1.8775755
-0.78764313 0.31236213 1.878304
-0.73339683 0.30199793 1.8671843
-0.35528535 0.34391773 1.879607
-0.32143712 0.33338341 1.8786204
-0.27581874 0.33146909 1.8805008
-0.21723205 0.32489482 1.8912835
-0.17964873 0.32650593 1.8872532
-0.14144623 0.34140676 1.8589665
0.21635182 0.33637139 1.8950838
-0.35370591 0.36846673 1.8850628
-0.32516655 0.37170598 1.8767426
-0.27568966 0.37490374 1.8658731
-0.22576565 0.379563 1.881996
-0.18612289 0.37683982 1.8828971
-0.13327211 0.37966818 1.8660229
-1.1183261 0.43376613 1.8780494
-1.0957127 0.42741221 1.8916643
-0.37056297 0.4415645 1.8865051
-0.3426505 0.4320147 1.8665313
-0.27242437 0.42427638 1.8813871
-0.22766407 0.42142421 1.8694141
-0.16381708 0.42872575 1.877672
-0.12856714 0.42016658 1.8851477
-0.083593458 0.42942432 1.8611556
0.2159823 0.41819081 1.8846954
-1.1218433 0.47415936 1.8704059
-0.35593474 0.49153578 1.8608696
-0.32700902 0.46718249 1.8681755
-0.27656081 0.46122369 1.8781191
-0.22897922 0.46268427 1.873717
-0.17079335 0.4604131 1.8665431
-0.12121979 0.46980175 1.8721999
-0.080140837 0.47720459 1.8763046
-0.043360807 0.49344057 1.8722777
0.029530326 0.4810203 1.8613553
-1.1120449 0.52028805 1.8727313
-1.0980436 0.53015417 1.8914089
-0.36116207 0.52287787 1.8642091
-0.34040049 0.51834524 1.8582611
-0.1343195 0.50106257 1.862087
0.020424401 0.50351512 1.8747387
-0.35974526 0.55718255 1.8692075
-0.33932856 0.57872576 1.856156
-0.17102033 0.56571329 1.8505546
0.030396955 0.57864535 1.8979201
-0.39284676 0.64944059 1.8717425
-0.33995876 0.61006802 1.8716897
0.049052689 0.6069445 1.8929033
-0.38876292 0.65846097 1.8991159
-0.38697109 0.79791886 1.8513772
-0.19478536 0.76063681 1.8593751
0.059626348 0.76288635 1.8974487
-0.36949253 0.82695431 1.8859339
-0.32738122 0.83576792 1.8581818
-0.27891973 0.84405869 1.8593111
-0.23931843 0.84302431 1.8650123
-0.18257341 0.84451014 1.8567142
0.040893383 0.8365494 1.8937266
0.075296529 0.84270948 1.8661445
0.1068647 0.84530711 1.8626902
-0.36583185 0.87847853 1.8726565
-0.32935992 0.87418866 1.8766757
-0.27582136 0.8753292 1.8589361
-0.23069613 0.88278675 1.8772334
-0.17681968 0.86309314 1.8578997
0.089374334 0.85008889 1.8983086
-0.40693691 0.93372029 1.8784209
-0.37787694 0.91431713 1.8781954
-0.34129703 0.92174911 1.8589798
-0.26889732 0.91654301 1.8591018
-0.23640652 0.91998529 1.8711942
0.098925881 0.90223545 1.8784568
0.12679334 0.92360514 1.8649844
0.158049 0.93369889 1.8818886
-0.4026581 0.968606 1.8789438
-0.37286738 0.97129005 1.8717412
-0.33675659 0.9500035 1.8512731
0.14938898 0.95999509 1.8888687
-0.40855521 1.0179517 1.8928299
-1.370862 -0.5050596 1.9440143
-1.3258079 -0.51291424 1.9305873
-1.2745565 -0.50568527 1.9253728
-1.235254 -0.50533032 1.9016945
-0.57239175 -0.5267632 1.9047868
-0.52141422 -0.52371186 1.9032534
0.14510538 -0.50409353 1.9484391
0.17497057 -0.50979787 1.9244142
0.22769459 -0.51425242 1.9252574
0.27656886 -0.51227587 1.924655
0.32538891 -0.5034219 1.9311934
0.36039597 -0.50586784 1.9366233
0.42828795 -0.50362927 1.9250187
0.48165876 -0.50393444 1.9270138
0.51739788 -0.50681967 1.9227468
0.57617164 -0.50897384 1.9312044
0.62306136 -0.51125175 1.9303695
0.67276746 -0.51178914 1.9255899
0.72250444 -0.51146883 1.9256219
0.77770662 -0.50632894 1.9206033
0.81876749 -0.50083786 1.9311686
0.8931368 -0.50012517 1.9194449
-1.4382412 -0.48534811 1.9057304
-1.3541793 -0.49201334 1.9442203
-1.3362224 -0.47856939 1.9422005
-1.2327491 -0.49591395 1.9108045
0.12453639 -0.49323791 1.9264342
0.37924457 -0.49924412 1.9082047
0.45012474 -0.49523309 1.9211996
0.82761383 -0.49687749 1.9260961
0.87120098 -0.49185684 1.9260943
0.92161578 -0.49004763 1.9304693
0.95683974 -0.48194799 1.9259173
1.3377682 -0.49483803 1.9078388
1.376966 -0.48737577 1.9268427
1.4236776 -0.47809628 1.9330682
1.4631559 -0.47644052 1.9219694
1.5279343 -0.47218388 1.9250414
1.5740383 -0.46623626 1.9305636
1.6059884 -0.45743707 1.9282172
1.5870878 -0.35714895 1.9331677
0.82438624 -0.30834165 1.9252516
0.86755967 -0.30845711 1.9205869
0.91782677 -0.30655143 1.9145117
0.96344805 -0.32790089 1.9302381
1.5765463 -0.32730636 1.9308068
-1.456798 -0.27182993 1.9057422
0.82112586 -0.27274182 1.9154588
0.8749975 -0.27432302 1.911361
0.92060149 -0.27648607 1.9084959
0.95159078 -0.29950052 1.9253416
1.5692145 -0.27119076 1.925941
-1.4552788 -0.22531721 1.9085352
0.81993574 -0.22367933 1.9170879
0.87188059 -0.22553635 1.9110289
0.91346049 -0.22804509 1.9198977
1.5662353 -0.22522433 1.9261496
-1.457212 -0.18170345 1.9095604
-1.4358915 -0.15215339 1.9306642
0.82086819 -0.17368621 1.9171288
0.87234652 -0.1760249 1.9114087
0.91881043 -0.17451996 1.927393
1.0233598 -0.15913047 1.9034638
1.2840469 -0.15720586 1.9154664
1.5627998 -0.17584537 1.9221979
-1.4610265 -0.12990856 1.9074467
-1.4275213 -0.12073306 1.9168501
-1.1592516 -0.10346774 1.9466709
-1.1267271 -0.10287511 1.9464729
-1.0734355 -0.10175729 1.9419763
-1.021522 -0.10067938 1.9369501
-0.99121088 -0.10017803 1.9365712
0.82312638 -0.12611218 1.9178751
0.87547129 -0.12515573 1.9116695
0.92394984 -0.12656912 1.9166669
0.97612596 -0.12198123 1.9030952
1.0233483 -0.12714653 1.9028335
1.077686 -0.11418235 1.9022144
1.1225096 -0.12058403 1.9027858
1.1731778 -0.12017445 1.9048765
1.2169501 -0.12572186 1.9036494
1.2694056 -0.12372866 1.9148248
1.5629028 -0.12503053 1.9279166
-1.4621795 -0.075527437 1.9059845
-1.426685 -0.079261564 1.9137205
-1.1600777 -0.093160644 1.9484401
-1.1186742 -0.078284308 1.9471978
-1.0722034 -0.075080901 1.9462103
-1.0241208 -0.070585944 1.9427652
-0.97463024 -0.076126732 1.9390914
-0.92502201 -0.079170048 1.9337155
-0.87622279 -0.07618276 1.9309574
-0.82653731 -0.079947479 1.9286658
-0.77712113 -0.077356145 1.9266876
0.82203704 -0.077450328 1.9171132
0.87753779 -0.078196019 1.9092958
0.92552012 -0.077697627 1.9043651
0.97522849 -0.07694573 1.9024918
1.0210007 -0.074604854 1.9018589
1.0754476 -0.07052689 1.9019251
1.125324 -0.071919657 1.9053116
1.1709683 -0.070124358 1.9036419
1.2197311 -0.073621824 1.9051658
1.2682458 -0.071995869 1.9133155
1.5607321 -0.075959526 1.9215287
-1.4634025 -0.025566673 1.9044327
-1.425777 -0.026575439 1.916238
-1.1148241 -0.030636746 1.9499507
-1.0822849 -0.014094511 1.9485054
-1.0259043 -0.025117744 1.9469253
-0.9740932 -0.027652899 1.9421018
-0.92727005 -0.029650697 1.9393686
-0.8761338 -0.028105333 1.9356046
-0.82496601 -0.030486144 1.93187
-0.77710593 -0.028893644 1.9274952
0.82247323 -0.028971905 1.9190295
0.87427819 -0.029060703 1.9110775
0.92380595 -0.029224347 1.9081657
0.97495317 -0.029417941 1.9062536
1.0220259 -0.029619003 1.9054066
1.06912 -0.028764581 1.9042009
1.1215286 -0.02505634 1.9064652
1.1730173 -0.025268627 1.9060915
1.2182428 -0.026008464 1.9038596
1.2687317 -0.027483586 1.911122
1.5571878 -0.029749248 1.9242175
-1.462236 0.00044794602 1.9072298
-1.4322608 0.0085678035 1.9197867
-1.1207432 0.00025115252 1.9492987
-1.0829422 0.0079320688 1.9496053
-1.0187055 0.0086517017 1.9488016
-0.97863603 0.018082045 1.9459447
-0.92432213 0.023681588 1.9443148
-0.8727271 0.0233157 1.9400716
-0.82491153 0.024639582 1.937631
-0.77908486 0.023494726 1.9373089
-0.7494089 0.0097606247 1.9254133
0.79866159 0.019547531 1.927314
0.82507193 0.025152156 1.9147276
0.87474537 0.024530532 1.9120947
0.92557806 0.024734298 1.9118062
0.97636479 0.024922958 1.9090012
1.0234092 0.020143922 1.9080445
1.0717494 0.020317553 1.9071796
1.1223749 0.020530824 1.907903
1.1736845 0.020748686 1.9071639
1.2247162 0.018654682 1.9068273
1.2713221 0.02313865 1.914385
1.5598056 0.0061001303 1.9260943
1.9672922 0.031549934 1.9231229
-1.4615296 0.072744824 1.9050374
-1.0583236 0.051230058 1.9498402
-1.0154203 0.0660519 1.9494445
-0.97600502 0.068943791 1.9484463
-0.92452818 0.074581243 1.9467945
-0.87283403 0.079292968 1.9441026
-0.82669812 0.078652136 1.9407994
-0.78615886 0.07875663 1.9389013
0.82307523 0.077842884 1.9193753
0.87556708 0.078196049 1.9128449
0.92536116 0.079607576 1.9122415
0.97733295 0.078536943 1.9125578
1.024464 0.072783083 1.9110698
1.074331 0.070690587 1.9108429
1.124166 0.071320429 1.9099972
1.1766107 0.072063267 1.9109228
1.2182404 0.07599213 1.906301
1.2675108 0.071975552 1.913782
1.9927416 0.062725298 1.9240791
2.0053153 0.07551375 1.9358112
-1.468357 0.12578979 1.911708
-1.4393766 0.13595155 1.9148904
-0.97146195 0.1179364 1.9483162
-0.9219504 0.12262251 1.9478728
-0.87368619 0.12886795 1.9440826
-0.82761985 0.12785514 1.9411064
-0.78790891 0.12699045 1.9380432
-0.7343238 0.10537029 1.9117353
0.82376438 0.12650709 1.9191269
0.87684375 0.1271694 1.9137285
0.92229301 0.12806478 1.9139179
0.97372049 0.12904087 1.9122068
1.0276288 0.12387405 1.912387
1.0758896 0.12118479 1.911718
1.1270658 0.12238298 1.9129448
1.1776713 0.12298745 1.912362
1.2243233 0.12393981 1.9103272
1.2701567 0.12745653 1.9155058
1.9935181 0.13712172 1.9271512
2.000483 0.10636344 1.9298466
-1.4755461 0.15376461 1.9194573
-1.4351079 0.15719518 1.9078566
-1.2110842 0.17741288 1.9291399
-1.1917119 0.17761864 1.9413048
-1.0207508 0.18080585 1.9196298
-0.9713065 0.1688043 1.9441738
-0.92307532 0.16821875 1.9464413
-0.87447673 0.16862136 1.943718
-0.82325083 0.17140727 1.9398314
-0.78408778 0.16429205 1.9401197
-0.72730327 0.15855518 1.9184318
-0.26901674 0.17020781 1.910879
0.17355415 0.18511525 1.9288778
0.81970263 0.17527498 1.9197628
0.87278467 0.17618567 1.9143054
0.92402869 0.17758879 1.9146786
0.9718743 0.1773899 1.9120709
1.0263741 0.17411803 1.9138893
1.0772331 0.17178927 1.9112108
1.1282185 0.17344016 1.9119327
1.1759971 0.17378837 1.9130117
1.2206016 0.17751057 1.9101853
1.2688559 0.17602609 1.9153022
1.3003978 0.1918157 1.9372324
1.9888575 0.19826269 1.9120733
2.0029945 0.17482834 1.9277916
-1.2684964 0.2238387 1.9112297
-0.76875192 0.23371746 1.9180193
-0.73958474 0.22419326 1.9182568
-0.30896536 0.22771485 1.9229233
-0.25761485 0.22907776 1.9263411
-0.24259378 0.23576237 1.9180233
0.18844262 0.23004718 1.9228743
0.82059377 0.22417021 1.9182402
0.87553209 0.22579567 1.9166458
0.92573535 0.22729969 1.9144341
0.97252959 0.22902763 1.9147072
1.0235933 0.22037956 1.9146687
1.0744767 0.22367814 1.9134016
1.125213 0.22425982 1.9137756
1.1736975 0.22809632 1.9148121
1.2215381 0.22644305 1.9117236
1.2667712 0.2258925 1.915504
1.3052561 0.21390319 1.9427034
1.9958663 0.23610091 1.9150677
2.0009949 0.21809149 1.9219366
-0.77623749 0.26399109 1.9081827
-0.71730536 0.28089765 1.9182918
-0.3277429 0.27430189 1.922935
-0.2773954 0.29064575 1.9270498
-0.23264088 0.27502659 1.914591
-0.19511816 0.28934073 1.904175
0.1982628 0.26744258 1.936595
0.21120119 0.26737946 1.9321171
