ply
format ascii 1.0
comment PCL generated
element vertex 1557
property float x
property float y
property float z
element camera 0
property float view_px
property float view_py
property float view_pz
property float x_axisx
property float x_axisy
property float x_axisz
property float y_axisx
property float y_axisy
property float y_axisz
property float z_axisx
property float z_axisy
property float z_axisz
property float focal
property float scalex
property float scaley
property float centerx
property float centery
property int viewportx
property int viewporty
property float k1
property float k2
end_header
0.64895493 1.2520229 2.5006731
0.68029279 1.2745401 2.5088546
0.72403556 1.2725849 2.5175951
0.77430606 1.2730278 2.531883
0.82438678 1.2715337 2.541554
0.63960946 1.3361309 2.505137
0.67406881 1.3216566 2.5125504
0.72617209 1.3247306 2.5240355
0.77672261 1.3264618 2.5376406
0.80679011 1.3211532 2.544656
0.64128107 1.3698111 2.5049541
0.67557347 1.3715873 2.5119898
0.72135139 1.3729711 2.5263176
0.77415842 1.3712413 2.5380497
0.81166273 1.3565139 2.5491986
0.63022214 1.4292841 2.5054121
0.67981035 1.4278095 2.5206561
0.73007321 1.4245267 2.5345058
0.76658887 1.4166353 2.5473256
0.62296349 1.4771929 2.5112123
0.6740613 1.47843 2.5247452
0.72711778 1.4752386 2.5388217
0.76194 1.4785877 2.5434067
0.58520859 1.5366513 2.5028367
0.62680095 1.5207046 2.5141401
0.67073679 1.5278389 2.5255051
0.72451884 1.5186969 2.539736
0.75219798 1.5116973 2.5366845
0.57615578 1.5772383 2.5078118
0.62523228 1.5754756 2.5211596
0.67595112 1.5729804 2.5331872
0.722022 1.5660442 2.5458944
0.76156187 1.5726564 2.5484531
0.53731406 1.638764 2.5030563
0.57659662 1.6242132 2.512722
0.62945127 1.6306621 2.5258138
0.66762954 1.6229258 2.5376377
0.53517026 1.6823988 2.5041883
0.5761891 1.6765344 2.5169454
0.61902696 1.674503 2.5266647
0.67044777 1.6737301 2.5449631
0.52615255 1.7221885 2.5052695
0.576276 1.7264113 2.5193701
0.62808889 1.7249631 2.5383537
0.66908932 1.7284341 2.5452116
0.52993679 1.7774881 2.5114577
0.57431656 1.7694126 2.5249877
0.6208725 1.7647203 2.535078
0.69322354 1.767668 2.5458262
0.70791525 1.768485 2.5438309
0.37998846 1.8262672 2.5014422
0.42876783 1.828872 2.5081458
0.4746612 1.8300242 2.5268521
0.51933831 1.8269361 2.5345218
0.55822128 1.8300102 2.5468256
0.38933396 1.8864046 2.5083272
0.42910069 1.8759676 2.5134118
0.47957367 1.8715076 2.5237546
0.52150643 1.8739328 2.536819
0.56889808 1.8667109 2.5463998
0.38200721 1.9309417 2.5032582
0.42381445 1.9283693 2.5143342
0.47494057 1.9236989 2.5290792
0.52845633 1.9224857 2.5415864
0.38902813 1.9856828 2.512955
0.42862207 1.9740441 2.5179987
0.47199273 1.9763319 2.5317636
0.52209914 1.9693315 2.5432508
0.56382471 1.9684474 2.549355
0.3870106 2.0121937 2.5118573
0.42918196 2.0180066 2.5206797
0.47558856 2.0208838 2.5318272
0.51856714 2.0186055 2.5392578
0.55379277 2.0225155 2.5499172
0.48745909 2.0546508 2.5444369
0.52538276 2.0573566 2.5415914
2.6471257 2.3941822 2.5468743
2.6670856 2.366966 2.5297873
2.7225306 2.3528013 2.5358319
2.6454451 2.4305224 2.5421929
2.6566217 2.4231002 2.5203238
1.9913602 2.494566 2.5364447
2.3401008 2.4972405 2.5256319
2.4940679 2.4918146 2.5462019
2.5219996 2.4941514 2.5305383
2.5753765 2.4865165 2.5260434
2.6297278 2.4726126 2.5335245
2.077913 2.5131953 2.5232821
2.1328664 2.5111241 2.5232389
2.1754775 2.5148392 2.5332355
2.2225366 2.5170929 2.5271859
2.2773917 2.5110228 2.5168908
2.317831 2.5021055 2.5042846
2.3815722 2.5113621 2.5203657
2.422353 2.5150018 2.5283976
2.4739397 2.5098701 2.5218129
2.5358357 2.5049052 2.5159383
2.7694838 -0.45668161 2.5773723
2.7871544 -0.42414066 2.5829298
2.8028915 -0.40566078 2.552264
2.7915549 -0.37735918 2.5852938
2.8051746 -0.37204465 2.5587311
2.7982662 -0.32233247 2.5899849
2.8096602 -0.32164928 2.5687227
2.7974617 -0.27114323 2.5942459
2.8171346 -0.27053866 2.5647113
2.6909077 -0.23236214 2.5908463
2.7991652 -0.2287187 2.5993435
2.8145459 -0.21936561 2.5664852
2.823004 -0.16890831 2.5774746
1.7317227 -0.12322518 2.580461
1.7731642 -0.1212495 2.5636611
1.8351246 -0.11439928 2.5819864
1.8756799 -0.10789277 2.5822401
1.9330012 -0.12153992 2.5985048
0.83550882 -0.075535849 2.5537577
0.87299687 -0.064325437 2.5609069
0.92485553 -0.063845821 2.5743933
0.96945947 -0.066350706 2.5920126
1.011862 -0.077916875 2.5987978
1.7422601 -0.065614916 2.5812349
1.7569904 -0.098512404 2.5691817
1.8299012 -0.07740429 2.5709741
1.8672569 -0.07134138 2.5687687
1.9180915 -0.072238728 2.5845361
0.84146732 -0.037692599 2.5518863
0.87894678 -0.037941638 2.5619924
0.92698866 -0.03834499 2.5806644
0.96529114 -0.038585775 2.5893593
1.7213507 -0.033443384 2.5797343
1.7714834 -0.037142683 2.5538967
1.8246042 -0.037517872 2.5642226
1.8760989 -0.030083522 2.5737653
1.9128358 -0.014013643 2.5923395
1.6999167 0.014459781 2.5703044
1.7029264 0.021488093 2.5677185
1.7841136 0.014652677 2.560534
1.8249843 0.01476917 2.5554271
1.8715081 0.022038957 2.5640156
1.9130927 0.029711751 2.5925357
2.5828605 0.04978944 2.5549805
1.6943126 0.063324898 2.5612063
1.7024077 0.08468318 2.5729649
0.98467565 0.2690303 2.5841815
0.83726311 0.38409883 2.5567338
0.8586688 0.37221688 2.5544653
0.83849877 0.42626539 2.5531104
0.85608351 0.42658728 2.5511301
0.83299065 0.47812724 2.5537007
0.86006629 0.49251989 2.555058
0.8326351 0.52666891 2.5545728
0.87671655 0.52940238 2.5637064
0.84039491 0.57036704 2.553818
0.86975193 0.56921649 2.5607636
1.0284662 0.57190335 2.5792818
1.0369418 0.62965715 2.5917859
1.0566047 0.621526 2.5963402
1.0319005 0.6734063 2.5834718
1.0629238 0.6813938 2.5985782
0.98560768 0.73367614 2.5516067
1.0250627 0.7233721 2.5815198
1.0639255 0.7195406 2.5970206
0.88995612 0.7956 2.5501659
0.98761809 0.77288234 2.5728476
1.0246121 0.77447927 2.5893779
1.0584598 0.77980804 2.5993514
0.8921442 0.82371396 2.5505047
0.90752387 0.82584202 2.5537088
0.98771763 0.8249836 2.5777538
1.0233105 0.8264237 2.5906827
1.0527189 0.82762843 2.5932493
0.88869458 0.87029606 2.5579998
0.90791631 0.88070637 2.5562212
0.99422318 0.87061197 2.5852149
1.0244126 0.87325603 2.5913544
1.0606241 0.86159021 2.596209
0.8794387 0.9291479 2.5587013
0.91045266 0.92724395 2.5594604
0.99123716 0.9164744 2.5790017
1.0174621 0.92811602 2.5942659
0.88268745 0.97920245 2.5616927
0.91597384 0.97949731 2.5624061
0.98492968 0.97513855 2.5735042
1.0223396 0.97391349 2.5956395
0.83720797 1.019424 2.5506549
0.87768555 1.0247368 2.5586746
0.92294776 1.026687 2.5537198
0.99381655 1.0246215 2.5852056
1.0145874 1.0216665 2.5920453
0.87407011 1.0715141 2.5569272
0.91181403 1.0769444 2.5663159
0.99974447 1.0580254 2.5925469
1.0091672 1.0928867 2.5946724
0.84722972 1.1254436 2.5524232
0.87812757 1.1239879 2.5598772
0.91500551 1.1212538 2.5625143
0.98387963 1.1237667 2.5692616
1.0154841 1.1293907 2.5941017
0.83837688 1.1787095 2.5539412
0.87526512 1.1728786 2.5582931
0.91773558 1.1742027 2.5595422
0.99358797 1.169252 2.5831866
1.0143154 1.1704172 2.5994313
0.8447659 1.2419891 2.5543122
0.87517005 1.2255154 2.5582952
0.92107511 1.2233442 2.5658128
0.96834821 1.2408878 2.5728562
1.0083334 1.2277328 2.5957193
0.83521754 1.2957412 2.5522795
0.8815701 1.2763537 2.5680289
0.92872214 1.2754225 2.5771894
0.97358125 1.275892 2.5822561
1.0097601 1.2651703 2.5980787
0.77926946 1.3206267 2.5501029
0.83053845 1.3258799 2.5555077
0.87224698 1.3242021 2.5688109
0.92341489 1.3246304 2.5794466
0.96825391 1.3325199 2.5957048
0.83361679 1.3747275 2.5614846
0.87573028 1.3720222 2.5687709
0.9302417 1.3784398 2.592478
0.78719413 1.426298 2.5529766
0.82182872 1.4220504 2.5609539
0.86924392 1.4246448 2.5705512
0.91465729 1.4203602 2.5885975
0.78767365 1.4714261 2.5560563
0.82873738 1.4764374 2.5705032
0.87474889 1.4752291 2.576812
0.92266625 1.475426 2.5929151
0.96065044 1.4860342 2.5979457
0.70093626 1.5487015 2.5512865
0.77867061 1.532024 2.5563972
0.82307053 1.5249008 2.5712581
0.87496912 1.5214107 2.5840418
0.9104532 1.5290544 2.5861955
0.73361778 1.5729184 2.5551593
0.77338237 1.573984 2.5603697
0.8241905 1.5800265 2.5776124
0.87755501 1.5763903 2.5896041
0.90723002 1.5638853 2.5918162
0.6952405 1.6308796 2.5541654
0.72240925 1.6236411 2.5552812
0.77521855 1.6274784 2.5728683
0.81872332 1.6306627 2.5806272
0.8620646 1.6272396 2.5943687
0.69781208 1.6581675 2.5528996
0.72591639 1.6805954 2.5618212
0.7763086 1.6750215 2.5713935
0.82548362 1.6760302 2.5896146
0.87623024 1.6700636 2.5981979
0.90676463 1.6756448 2.5929754
0.68562913 1.7270502 2.5547006
0.72241181 1.7279965 2.5632083
0.77142352 1.7239102 2.572319
0.82014585 1.7207537 2.5874856
0.85722375 1.7271849 2.5962429
0.67028272 1.7840277 2.5575843
0.7328341 1.7703546 2.5661392
0.77537411 1.7696153 2.5754073
0.82238692 1.7670928 2.5804021
0.8648901 1.7670908 2.5954504
0.59085715 1.8346511 2.5623708
0.62708467 1.8249496 2.5608766
0.67717212 1.8379723 2.5798833
0.72569972 1.8350434 2.5952516
0.57244354 1.8866978 2.5570252
0.62555993 1.873476 2.5674443
0.6725778 1.8749377 2.574858
0.72559547 1.8761708 2.5931125
0.57652026 1.9271722 2.5590189
0.62279528 1.9192935 2.5687213
0.67104441 1.9209727 2.5811143
0.71514893 1.9218527 2.592099
0.5810256 1.9723638 2.5602124
0.6256088 1.9754064 2.5714869
0.67473811 1.9708732 2.5835736
0.72139567 1.9729182 2.5977278
0.53887606 2.0223663 2.5522075
0.57338947 2.019701 2.5601554
0.6196413 2.0310397 2.5731947
0.6727308 2.0247533 2.5887396
0.72027385 2.0286498 2.5956128
0.57517952 2.0681858 2.5611854
0.62334341 2.0734558 2.5684938
0.6755752 2.0746622 2.5855331
0.71163225 2.0731795 2.5943575
0.64446437 2.1056986 2.5809724
0.67847806 2.1166027 2.5877116
0.71731114 2.1205657 2.5942099
0.76355898 2.1402836 2.5985143
2.6846642 2.3437717 2.5719855
2.7203608 2.3421888 2.5759103
2.7756653 2.3426232 2.5776932
2.6467905 2.3832316 2.5760233
2.6625605 2.3606944 2.5710611
2.6395729 2.4235005 2.5826077
2.6524675 2.4360857 2.5719624
1.9199111 2.4954815 2.5829117
2.0219219 2.493278 2.5714705
2.4995675 2.4971981 2.5989966
2.5139279 2.4923077 2.5801358
2.5857403 2.4958181 2.582746
2.625468 2.467586 2.5678346
1.9426719 2.5015523 2.5779018
1.9827294 2.5087891 2.5848775
2.0732088 2.5119188 2.5745115
2.1227138 2.5080109 2.5721469
2.1795833 2.5117075 2.5693967
2.2234902 2.5112278 2.5835891
2.2753201 2.5174234 2.5735209
2.3191319 2.5150504 2.5697088
2.3792677 2.5101354 2.5809243
2.4200475 2.5132506 2.573102
2.4688833 2.5049398 2.5711567
2.5411558 2.5001543 2.574439
2.7388942 -0.42332733 2.6168771
2.7655087 -0.42477509 2.610369
2.7344551 -0.37180921 2.6192882
2.7722087 -0.37022752 2.6110857
2.7193909 -0.31917575 2.6106069
2.7734854 -0.32247093 2.6145256
2.774894 -0.27148351 2.6208398
2.780251 -0.21803795 2.6233296
2.7737963 -0.16914392 2.6271093
2.8035336 -0.16933458 2.6072578
1.7325995 -0.11050076 2.6254077
1.9159905 -0.13183132 2.6226437
0.99169695 -0.05836428 2.6026349
1.0236695 -0.061390277 2.6055229
1.0721388 -0.065789729 2.622401
1.1238558 -0.066499114 2.6393967
1.1574363 -0.060181279 2.6473541
1.7334872 -0.078170657 2.6202774
1.9449109 -0.058246911 2.6067483
1.9717305 -0.058595028 2.6139884
0.99141389 -0.038845919 2.6021342
1.0224644 -0.039030161 2.6079843
1.0726088 -0.039420303 2.6238539
1.1235988 -0.039812226 2.6391568
1.1582725 -0.040081691 2.6495245
1.7235913 -0.020924129 2.6205711
1.9472864 -0.028851176 2.61026
1.9813918 -0.044012945 2.6270139
1.7311869 0.0076482976 2.6466322
1.9195677 0.00056204462 2.6014769
1.9585798 0.030154312 2.6253247
1.2788994 0.095227294 2.6407378
1.0400894 0.24296817 2.6081543
1.0778717 0.23895924 2.6292193
1.1270219 0.23762858 2.6397548
0.99517 0.28076476 2.6015301
1.0298008 0.27772874 2.611834
1.0790876 0.27244639 2.6299133
1.1257635 0.27478933 2.6413193
0.99691027 0.30086437 2.6045561
1.0272776 0.32194158 2.6121535
1.076252 0.32382262 2.6310258
1.117776 0.33060721 2.6432383
1.0335674 0.37437984 2.6143053
1.0743529 0.37684125 2.6301455
1.1178536 0.3761667 2.6423826
1.1508638 0.36470109 2.6499038
1.0387691 0.42535821 2.6131198
1.0757504 0.42470065 2.6237237
1.1200264 0.42130437 2.642772
1.034621 0.46956998 2.6097198
1.069302 0.47321725 2.6223421
1.1193272 0.47865993 2.6414289
1.1601915 0.47920093 2.6467373
1.04497 0.54771167 2.625762
1.0721438 0.52669048 2.6256902
1.1270258 0.52483469 2.642766
1.1579242 0.51637208 2.6484303
1.0416803 0.55930126 2.6155055
1.0763085 0.5768708 2.6252213
1.1257999 0.5790534 2.642782
1.0829757 0.62420505 2.6128387
1.1240439 0.62689364 2.6266603
1.1758804 0.62664276 2.6411078
1.2127688 0.64614946 2.6468287
1.0780205 0.67447829 2.6045351
1.1277293 0.6740123 2.6201439
1.1764246 0.67424613 2.6331625
1.2123799 0.65968269 2.6435175
1.0900121 0.73093992 2.6096396
1.127652 0.72386211 2.6174607
1.1818746 0.72498477 2.6328628
1.215446 0.72361815 2.6455045
1.083316 0.7730611 2.6068296
1.1238469 0.77831334 2.6202793
1.1702095 0.77478182 2.6352034
1.2146822 0.77635306 2.6474283
1.0775477 0.82472754 2.6082439
1.1221236 0.82470375 2.6200552
1.1786253 0.82604921 2.6368089
1.2166078 0.82062471 2.64765
1.0466597 0.89448112 2.6009934
1.0804691 0.87603462 2.6071134
1.1253012 0.87638009 2.6251862
1.1679834 0.87756687 2.635906
1.205689 0.87842369 2.645715
1.0442362 0.9189043 2.6017628
1.0740606 0.92747104 2.6102235
1.1175352 0.92568195 2.6230843
1.1692318 0.92105711 2.6376276
1.2180769 0.91736174 2.6463251
1.0425894 0.99842256 2.6033912
1.0726418 0.97351527 2.6093102
1.1267217 0.9779309 2.6287799
1.1735928 0.97869998 2.6392903
1.0408926 1.0295267 2.6065376
1.0777773 1.0235798 2.6131222
1.130196 1.0260305 2.6292114
1.173461 1.0277723 2.6420538
1.0280825 1.0730647 2.6044669
1.0697079 1.0757842 2.6133008
1.1224329 1.0772719 2.6293633
1.1717781 1.0698736 2.6424353
1.040949 1.1208148 2.6045544
1.0770067 1.1253583 2.6135719
1.1255198 1.1223316 2.6233869
1.1721537 1.1217556 2.6418116
1.2015076 1.1412642 2.6487584
1.0371548 1.1753818 2.6049364
1.0775684 1.174422 2.6156197
1.1188921 1.1756411 2.6250203
1.1661131 1.1747775 2.6433012
1.0331614 1.2233576 2.6065447
1.0737246 1.2254328 2.6184409
1.1210343 1.2223047 2.6253719
1.1746461 1.2172612 2.6453509
1.0329043 1.2806407 2.607856
1.0738655 1.2687203 2.6181507
1.123782 1.2778695 2.636492
1.1597285 1.2764612 2.647402
0.98672765 1.3206753 2.6007102
1.0202045 1.3282048 2.6118264
1.0738058 1.3226781 2.6279466
1.120834 1.3209687 2.6396849
0.94847715 1.3825347 2.601022
0.98140955 1.3743349 2.6052935
1.0310549 1.3717048 2.6151137
1.0760275 1.3720325 2.6306193
1.1063131 1.3727995 2.6411347
0.94230175 1.4369522 2.6093266
0.97192031 1.4236356 2.6043503
1.0219475 1.425094 2.6204813
1.0733569 1.4243265 2.6328428
1.1160324 1.4302504 2.6424327
0.94389737 1.4679229 2.6014278
0.97709638 1.4678129 2.6089087
1.0327009 1.4788167 2.6315601
1.0814942 1.4715689 2.6372795
1.1224153 1.4786804 2.6474113
0.94224375 1.523405 2.6067951
0.97358644 1.5285114 2.6159911
1.0205423 1.5247523 2.6303933
1.070455 1.5283517 2.6417601
1.1076287 1.516569 2.6473622
0.9341799 1.5832746 2.6128728
0.98082894 1.5780793 2.6245754
1.0326122 1.5723274 2.6338103
1.0735031 1.5713434 2.6373012
0.87806648 1.633386 2.6035578
0.92545396 1.6256334 2.6127264
0.97125942 1.6277883 2.6223946
1.0201923 1.6220945 2.6353574
1.059401 1.609908 2.6307862
0.84862435 1.6904453 2.6014743
0.87837958 1.6770593 2.6031346
0.93134242 1.6715547 2.6114337
0.98199761 1.6760495 2.6280932
1.0301802 1.6764919 2.6429889
1.0501384 1.6897383 2.6407101
0.83992225 1.7463751 2.6003699
0.88160992 1.7233303 2.6073191
0.92123228 1.7229648 2.6159079
0.97448927 1.7285794 2.630331
1.0233053 1.7322384 2.6383519
0.88491124 1.762958 2.604531
0.92688507 1.7724136 2.6188037
0.97784787 1.7688967 2.6307757
1.0254633 1.7697079 2.6373439
1.0640029 1.7651138 2.6475563
0.71078062 1.8271809 2.6020496
0.77822143 1.8344148 2.6097865
0.82504213 1.8372116 2.6212647
0.87398601 1.8285257 2.6319249
0.92231447 1.8346331 2.6421685
0.95639515 1.8226781 2.6425989
0.745206 1.8542874 2.6043699
0.77683485 1.8747534 2.6052911
0.83009952 1.8786232 2.6200783
0.88048667 1.8749281 2.632786
0.93146557 1.873695 2.6434453
0.73839355 1.9346615 2.6008914
0.77069491 1.9279628 2.6091406
0.82010156 1.928003 2.6176174
0.8657285 1.918741 2.6266041
0.91955352 1.9278321 2.646059
0.73386186 1.9844643 2.6008756
0.77948362 1.9766945 2.6112216
0.82705277 1.9748558 2.6210814
0.88042116 1.9685186 2.6360288
0.91479504 1.9769409 2.6479685
0.74823284 2.0136847 2.6022496
0.77101505 2.030232 2.6102605
0.82261854 2.0245731 2.6231866
0.87154239 2.0244243 2.6324604
0.91500914 2.0251019 2.6468043
0.73457283 2.075371 2.6021776
0.77448225 2.0788119 2.6125734
0.82506078 2.0769219 2.6231058
0.87888557 2.0787013 2.6427901
0.91531885 2.0906737 2.6490972
0.7405799 2.1232765 2.6025016
0.78341973 2.1219292 2.612947
0.82953835 2.1293809 2.6297572
0.87530559 2.1208484 2.6421163
0.91482282 2.127929 2.6466961
0.78540188 2.1577067 2.6157365
0.82663131 2.1696243 2.6284328
0.8759262 2.1728139 2.6430442
0.90973043 2.1699035 2.6456187
0.88970339 2.203141 2.6470571
2.6790311 2.3398871 2.6328974
2.724509 2.3308251 2.619065
2.7810202 2.3340683 2.6350601
2.8121474 2.3354042 2.613817
2.6327164 2.377264 2.6255748
2.6623194 2.3581688 2.617166
2.6290646 2.4183161 2.6224928
1.7701145 2.4753165 2.6428006
1.810219 2.4812369 2.6281188
1.8716397 2.4892256 2.6172092
1.924222 2.4946623 2.6212258
1.955056 2.4992304 2.6089888
2.023628 2.4981956 2.6067858
2.4709692 2.4975524 2.6200476
2.5137718 2.4919207 2.6276617
2.5738366 2.4891734 2.6282334
2.6199439 2.4686096 2.6163611
1.8556277 2.5061674 2.6383107
1.9040504 2.5011642 2.6224532
1.9808859 2.5043399 2.6292694
2.0168784 2.5126216 2.6336613
2.0775056 2.5117128 2.6369829
2.1212666 2.5096321 2.6197767
2.1806631 2.5110085 2.6234238
2.2267594 2.5172741 2.6365781
2.2755289 2.5196302 2.6225224
2.3275495 2.5158949 2.6266575
2.3711782 2.5123992 2.6214232
2.4324274 2.5071843 2.6324265
2.4505839 2.5059557 2.6015496
1.7351353 -0.1294149 2.6503966
1.1808684 -0.069156274 2.6556885
1.2299305 -0.067902476 2.6710532
1.2744774 -0.068458341 2.6818848
1.3120795 -0.059855592 2.6989787
1.7369354 -0.086218655 2.6544542
1.1846123 -0.040285334 2.6571531
1.2300432 -0.040658996 2.671685
1.2746325 -0.040985793 2.6826191
1.3053005 -0.041296396 2.6963847
1.560028 -0.02106281 2.6978171
1.7363675 -0.035657689 2.6544187
1.2985376 0.041580077 2.6823435
1.3223023 0.024548288 2.6980433
1.7337272 0.036486834 2.6503043
2.0232368 0.01568619 2.6535411
1.2974824 0.082844712 2.6794484
1.3234839 0.093286507 2.6745915
1.3545951 0.087865077 2.6745768
1.5550632 0.078641869 2.6883538
2.6780324 0.077309027 2.6800423
2.7147012 0.086425915 2.684577
2.62923 0.12650207 2.660697
2.6747351 0.11540166 2.6833858
2.7199543 0.12074509 2.6885383
2.5290661 0.17018007 2.6790371
2.5746953 0.17834042 2.6748435
2.621352 0.16510406 2.6695049
2.6802471 0.17506003 2.6860545
2.7221882 0.17214619 2.6882277
1.146467 0.22881873 2.6504688
1.1812526 0.23713119 2.6594236
1.2252166 0.23911765 2.670742
1.2698998 0.24114996 2.6816852
1.3221557 0.23500194 2.6737947
2.5453572 0.22524351 2.6928301
2.5739741 0.22213878 2.6785529
2.6324487 0.22015172 2.6900234
2.6754501 0.22163294 2.6860676
2.7299118 0.22407575 2.6924696
1.1485603 0.27639508 2.6521125
1.1768792 0.27552903 2.6585321
1.2180445 0.27771106 2.6694613
1.2751921 0.27670702 2.6904423
1.3106884 0.27143407 2.6977267
2.5676723 0.27002114 2.6859343
2.6297278 0.27082884 2.6910114
2.6768916 0.27268437 2.6833546
2.7248352 0.27498505 2.6832218
1.1689787 0.32547951 2.6598582
1.2227353 0.32371542 2.6729581
1.275962 0.32527921 2.6881371
1.3115739 0.32962918 2.6948617
2.5717561 0.31786025 2.6811833
2.6286175 0.32078123 2.6771133
2.6693077 0.31894222 2.6791468
2.7261589 0.33070627 2.6918254
1.1714727 0.37393764 2.6578407
1.2250084 0.37767088 2.6760647
1.2698349 0.37394342 2.6876967
2.5710537 0.3708398 2.6834741
2.6262994 0.36851844 2.6819339
2.673445 0.37522742 2.6849759
2.7239456 0.37871626 2.6872184
1.1410737 0.44715559 2.6538343
1.1721334 0.42830178 2.6567652
1.2258644 0.42602363 2.6727691
1.2737162 0.42366788 2.6907067
1.3006837 0.42567751 2.6963422
2.5739431 0.41962469 2.6870687
2.6319151 0.42359617 2.6838217
2.6818187 0.4275327 2.6866438
2.7213588 0.42620474 2.6865048
1.1411477 0.46073061 2.6523569
1.1807421 0.47526169 2.6590252
1.2296323 0.47555527 2.675132
1.2746661 0.47693148 2.6887703
1.3117011 0.46898171 2.6971936
2.5809207 0.47111666 2.687032
2.6233261 0.474282 2.6834857
2.6741688 0.47888747 2.6872599
2.7333136 0.46660611 2.6899071
1.1813329 0.52769077 2.6580727
1.2240185 0.5243504 2.6737328
1.2712054 0.52496886 2.6897116
1.3083243 0.52640927 2.6996331
2.5819745 0.51867521 2.6836917
2.6219831 0.52976972 2.6809554
2.6710835 0.52944607 2.6756952
2.7266026 0.51810175 2.6857338
1.1469879 0.56520796 2.6518302
1.1765165 0.577007 2.6570909
1.2224641 0.57382029 2.6735756
1.2689983 0.57724559 2.6841388
1.3113102 0.59089661 2.6962495
2.576051 0.57779247 2.6876683
2.6229444 0.57744139 2.6814296
2.652616 0.56991971 2.6654711
2.7434187 0.56469172 2.6946187
2.7510962 0.59236336 2.6972358
1.1890626 0.60333407 2.6536541
1.2294075 0.62789053 2.6562905
1.2788142 0.62514067 2.6731427
1.3199658 0.63272083 2.6843235
2.5799339 0.62606812 2.690511
2.6295447 0.62989932 2.6780577
2.6862717 0.6201573 2.6908588
2.7227981 0.6246084 2.6949093
1.2283255 0.68044817 2.6543334
1.271834 0.67502517 2.6698041
1.3272321 0.67183554 2.685473
1.3579277 0.67395604 2.6928763
2.5811021 0.67705494 2.6809561
2.6069784 0.6687541 2.6619613
2.6752474 0.67971087 2.6830342
2.7241948 0.67691439 2.6852143
1.238162 0.72168392 2.6542561
1.2785008 0.72525883 2.6680219
1.3240119 0.7251547 2.6840918
1.3560704 0.72643012 2.6963854
2.5727057 0.73305035 2.6883552
2.6168454 0.7245298 2.6761951
2.6762245 0.71994871 2.6781578
2.7155941 0.72814059 2.6755297
1.2414401 0.77542055 2.6577976
1.2732147 0.77194566 2.6683118
1.3242581 0.77769768 2.6853464
1.3611766 0.77203113 2.6976967
2.5823796 0.77657038 2.6751595
2.6338036 0.76959276 2.6670458
2.6773045 0.77733415 2.6786439
2.7148864 0.78318834 2.6835916
1.2319396 0.82394588 2.6546879
1.272001 0.82589781 2.6684749
1.3256969 0.82421219 2.6862628
1.3662336 0.8179543 2.6982493
2.5850809 0.82282525 2.6860383
2.6160071 0.82061434 2.6675594
2.6691577 0.82624805 2.6771092
2.7170072 0.82733321 2.6741982
1.2297894 0.87155223 2.6570404
1.2728612 0.87418371 2.6669228
1.3191723 0.87401408 2.6816998
1.3631951 0.87436306 2.6964381
2.579644 0.87104219 2.6799738
2.6260457 0.88089144 2.6701918
2.6641307 0.87352252 2.6720562
2.7143536 0.86977369 2.6850958
1.1969894 0.94104898 2.6567802
1.2336831 0.92999458 2.657753
1.2724247 0.92184514 2.6679461
1.3224944 0.92499286 2.6866839
1.3672683 0.90946221 2.6964812
2.5776827 0.92459375 2.6789207
2.6270089 0.92712563 2.6693883
2.6809635 0.92253262 2.6760752
2.7180755 0.92928338 2.6802223
1.1918335 0.95938587 2.6522598
1.2253221 0.97492903 2.6578448
1.2716677 0.97632754 2.6705434
1.3270671 0.97449154 2.6883416
1.3652778 0.96367431 2.6963325
2.5846992 0.9758867 2.6795659
2.6158743 0.98383576 2.6698165
2.6644893 0.97507405 2.6758695
2.7290144 0.98014271 2.6937268
1.2215261 1.0240605 2.6581693
1.2769289 1.0239189 2.6747983
1.3241576 1.0295311 2.688556
1.354866 1.0101815 2.6979084
2.5865471 1.0307208 2.6838882
2.6283684 1.0260022 2.6666894
2.6806791 1.0246724 2.6778386
2.712183 1.0211899 2.6792181
1.1893835 1.0867362 2.6558123
1.2282259 1.0731298 2.6559381
1.2767781 1.0743706 2.6706011
1.3240523 1.0741137 2.6859148
2.5805552 1.0732744 2.6853957
2.623229 1.0784417 2.6723087
2.676234 1.0712706 2.6801634
2.720562 1.0808003 2.6857662
1.1695176 1.1378773 2.6505265
1.2220335 1.1206657 2.6601024
1.272644 1.1249851 2.6722903
1.3223463 1.1147196 2.6953862
1.3722867 1.1482878 2.6942425
2.5833254 1.1282866 2.6776912
2.6219296 1.1291364 2.6646926
2.6770325 1.1267418 2.6729805
2.7160323 1.1179491 2.6851876
1.1953907 1.1849957 2.6598799
1.226599 1.1706136 2.6609061
1.2757832 1.1780618 2.6774302
1.3196439 1.1701742 2.6840868
1.3649882 1.1761332 2.6918998
2.5868354 1.1707571 2.6783316
2.6308479 1.1833122 2.6689887
2.6658618 1.1759702 2.6682117
2.7098646 1.1939933 2.6855428
1.1775426 1.239128 2.6579936
1.2252895 1.2269034 2.6658275
1.2767979 1.2278966 2.6778646
1.3203131 1.2228177 2.6916299
2.5891435 1.2239767 2.6746597
2.6293795 1.2264322 2.6501324
2.6889596 1.2152978 2.6709208
2.7127151 1.2309147 2.6742742
1.1808369 1.2701715 2.6597216
1.2232026 1.2718782 2.6642454
1.272005 1.2810497 2.6867015
1.3219157 1.2643269 2.696872
2.5885978 1.2759122 2.689117
2.6216576 1.2703841 2.6771979
2.6829209 1.2739645 2.6763794
2.7011921 1.2873811 2.6742113
1.1467901 1.3317027 2.6501422
1.1786276 1.3207024 2.657788
1.2243938 1.3300169 2.6698833
1.2767837 1.3277978 2.6879587
1.3192337 1.3219306 2.693758
2.5870059 1.3257506 2.675138
2.6258039 1.3077226 2.6664834
2.6775551 1.3335476 2.6816063
2.7251163 1.3258884 2.6863837
1.1345485 1.3788586 2.6577876
1.1721722 1.3737444 2.6639903
1.2300522 1.3763831 2.6725659
1.2708843 1.371591 2.6845901
2.5834904 1.3704715 2.6788323
2.6245973 1.3917687 2.6838839
2.6802011 1.3843001 2.6812699
2.7039301 1.3692967 2.6793458
1.1402347 1.418208 2.6609063
1.1781508 1.427495 2.6657929
1.2186406 1.4207245 2.6751075
1.2788771 1.4254134 2.6920152
1.3244302 1.4152291 2.696836
2.5930915 1.4264359 2.6907558
2.670398 1.4153854 2.6801069
1.1211869 1.4855816 2.6528728
1.1697748 1.4749327 2.661763
1.2253562 1.4693744 2.6789196
1.2673739 1.4747759 2.6914201
2.5864484 1.4616585 2.6782908
2.6112924 1.4936953 2.695385
2.6551728 1.4892154 2.6771526
1.0950811 1.526957 2.6540875
1.1333344 1.5280629 2.6616118
1.1777785 1.5270693 2.6736488
1.2249327 1.5248202 2.6863856
1.2746314 1.5225241 2.6959107
2.5973697 1.5320487 2.6970856
2.613764 1.5311378 2.6802979
2.6526661 1.514855 2.661474
1.0877136 1.5893843 2.6529255
1.1239102 1.5765318 2.6588547
1.1743714 1.5749196 2.6776633
1.2268255 1.5681736 2.6904023
1.2521563 1.5838364 2.6937637
2.5981648 1.5595636 2.6843808
2.691242 1.555182 2.6911268
1.0831807 1.6327777 2.6565266
1.1289251 1.6207687 2.6629944
1.1768944 1.6211326 2.6757512
1.222386 1.6151167 2.6917927
1.2629981 1.6359748 2.6986063
2.6159012 1.6250998 2.6823499
1.0816543 1.669952 2.6570003
1.1232986 1.6797773 2.6679323
1.1754066 1.6730251 2.6831267
1.2203155 1.6775827 2.6921787
2.5949104 1.6890204 2.6918335
1.0424855 1.7167047 2.656306
1.0783151 1.7258593 2.6606686
1.1285222 1.7257532 2.6713777
1.1751024 1.7242533 2.6830561
1.2240007 1.722665 2.692374
1.2609004 1.7232257 2.6978464
2.5991204 1.7192067 2.6812298
2.6320624 1.7472779 2.6707544
1.0836961 1.7725621 2.6537097
1.12261 1.7706732 2.6717608
1.1725342 1.764406 2.6819906
1.2224995 1.7625906 2.6927116
2.5942597 1.764886 2.6898942
2.6083291 1.7774487 2.6821313
0.98490638 1.8259096 2.6557827
1.0249914 1.8258307 2.6633146
1.0720822 1.8344955 2.6827955
1.1107386 1.8367958 2.6898248
0.98210365 1.8743862 2.6612401
1.024163 1.8747909 2.6688967
1.0756228 1.8774806 2.682498
1.1136537 1.8841255 2.6920133
2.6048052 1.8590525 2.6926382
0.9314059 1.9171003 2.6507595
0.97362143 1.9246981 2.6591611
1.0267189 1.9220676 2.6718268
1.080802 1.9228287 2.6863258
1.1063888 1.9378738 2.694772
2.6056397 1.9291846 2.6947002
0.93155074 1.9681048 2.6543121
0.97122306 1.9789423 2.6602654
1.0233154 1.9792811 2.6789229
1.0763043 1.9745989 2.6881659
2.6382389 1.9582728 2.6822588
0.94009662 2.0213714 2.6568034
0.97696096 2.0278549 2.6660898
1.0260442 2.0213013 2.6797729
1.0691468 2.0277824 2.6922739
1.1015939 2.0050972 2.698154
2.6212101 2.0306718 2.6991544
0.89622551 2.0671391 2.6539354
0.93024713 2.0678923 2.6559682
0.97513175 2.0747528 2.6630244
1.0309743 2.0813744 2.6882064
1.0742767 2.0740302 2.6947691
2.6257915 2.0772736 2.6914794
0.93884248 2.1241229 2.6559489
0.97077751 2.1219769 2.6630306
1.0281421 2.1261427 2.6839669
1.0682424 2.1252427 2.6913562
2.5978177 2.1184072 2.6962593
2.610986 2.1483428 2.6975183
0.93747038 2.182497 2.6597958
0.97598499 2.1776898 2.6689394
1.023025 2.1762354 2.6853046
1.0687156 2.170825 2.6965079
0.93025911 2.2238095 2.6624546
0.97162259 2.2239957 2.6698368
1.0238568 2.2280824 2.6888011
1.0579141 2.2287309 2.6952922
2.6365519 2.2178779 2.6922741
2.6690354 2.2191141 2.6967998
1.0214591 2.2653265 2.6890323
1.0793767 2.2837248 2.6941659
2.6263428 2.2923517 2.6954265
2.6745102 2.2802451 2.6955898
2.7304173 2.2933521 2.6976547
2.6286786 2.3259075 2.6720335
2.6728413 2.3180513 2.6679666
2.7230401 2.3167531 2.6710103
2.7638645 2.312547 2.6756012
2.6150417 2.372546 2.6811268
2.6095033 2.4301038 2.6677871
1.6467006 2.4648404 2.6962705
1.6744499 2.4662936 2.6833687
1.7310352 2.4834688 2.6771262
1.7743465 2.4757533 2.6823118
1.833146 2.4841669 2.6746566
1.8742033 2.4924839 2.6769092
1.9262351 2.4924796 2.6737797
1.9841011 2.4992831 2.6772439
2.0111992 2.4985139 2.6588485
2.0863752 2.4961572 2.6956055
2.4275107 2.4929924 2.6914525
2.4780428 2.4949687 2.6833115
2.5342133 2.492342 2.6791954
2.5786142 2.4696646 2.6786571
2.6006703 2.4605618 2.655581
1.9596061 2.5008368 2.6732883
2.043865 2.5087469 2.6984813
2.0634086 2.5084579 2.6705704
2.1157637 2.5070682 2.6715136
2.1612258 2.5069709 2.6637983
2.2232213 2.5156865 2.6823978
2.2673385 2.5128639 2.6708951
2.3208063 2.5100782 2.6683547
2.3787205 2.5115194 2.677913
2.4146369 2.5089688 2.6640933
2.4845364 2.5015345 2.6657979
1.4790634 -0.12144729 2.7397935
1.5365146 -0.12981057 2.7482581
1.5645795 -0.11529596 2.7351551
1.3310775 -0.074003905 2.7042654
1.3816448 -0.075062998 2.7143424
1.4321679 -0.074875012 2.7359622
1.4672203 -0.079877272 2.7446656
1.578301 -0.071910389 2.7288101
1.3329022 -0.041500747 2.7029629
1.3708543 -0.037195507 2.7185459
1.4265378 -0.036620609 2.7331166
1.4778283 -0.036978386 2.7456622
1.5579969 -0.035592515 2.7253499
1.3304538 0.018818753 2.7035799
1.3569764 0.021202205 2.7019956
1.4436406 0.043071259 2.7396829
1.4723434 0.028953541 2.7451329
1.5721195 0.021948943 2.7186575
1.3479624 0.084290467 2.7160459
1.445336 0.057396524 2.7426991
1.4685813 0.067130513 2.7430155
1.5270953 0.086972624 2.748292
1.5657419 0.06515377 2.7226467
2.4929478 0.16579172 2.7023942
2.5257711 0.18408027 2.7214522
1.4294409 0.24269097 2.7374656
1.4704225 0.24477933 2.749855
1.6107032 0.23412251 2.7463295
2.5375228 0.21519408 2.7352493
2.5529523 0.21833634 2.7170758
1.3369342 0.2683439 2.7071207
1.3731101 0.27782857 2.7170539
1.4259577 0.27533907 2.7349768
1.4691019 0.27328306 2.745307
2.5426776 0.26909387 2.7335007
1.3300761 0.32227618 2.7084494
1.3725675 0.32489336 2.7188077
1.4234624 0.32850865 2.7358112
1.4580054 0.31935748 2.7468915
2.5405593 0.31910691 2.7265015
1.2995212 0.36258525 2.7005916
1.3220857 0.37654594 2.7046442
1.3756319 0.37513849 2.7202244
1.4242592 0.37588665 2.7352242
1.4591479 0.37409574 2.7423329
2.5410113 0.366308 2.7249954
2.5518095 0.38653311 2.7152753
1.3317159 0.42193547 2.7103555
1.3752046 0.4232733 2.7184258
1.4258558 0.42594686 2.7376914
1.4590822 0.41822448 2.7458241
2.5431929 0.41298136 2.7343102
2.5522091 0.42504025 2.7186363
1.3335066 0.4750894 2.7100446
1.3748447 0.47635347 2.7240381
1.4258257 0.47438112 2.7413282
1.4652559 0.49236056 2.7485819
2.5456982 0.47232524 2.7286704
2.5543935 0.47084311 2.7064114
1.2945647 0.54756278 2.702049
1.3276503 0.52146584 2.7063611
1.3729832 0.5285607 2.7204976
1.4263546 0.52537954 2.7388728
1.4604994 0.52132249 2.7466145
2.5570872 0.52344537 2.7169838
1.2968788 0.57666212 2.7026248
1.3272201 0.57262117 2.7095258
1.3738141 0.57122231 2.725616
1.4251479 0.57839793 2.7349746
1.4526337 0.56544185 2.7474203
1.5093609 0.59971541 2.7496541
2.5466208 0.57731849 2.7444656
2.5607522 0.57183659 2.7157261
2.7264285 0.58208323 2.7070575
1.3313231 0.60768336 2.7010276
1.3785313 0.62042934 2.7175479
1.4225973 0.62866026 2.7216375
1.478936 0.62904257 2.734791
1.5229849 0.62595582 2.7331159
1.5694075 0.63610733 2.7413485
1.6205558 0.63081717 2.7481852
1.6593666 0.64180797 2.7486465
2.5475321 0.61145246 2.7390795
2.554842 0.63113403 2.7237506
1.3848608 0.67490435 2.7048879
1.4198369 0.67607921 2.7150438
1.4692802 0.67093855 2.7251842
1.5256364 0.67355162 2.7337265
1.5615543 0.67857933 2.7437038
2.5610673 0.68065554 2.7235663
2.7034001 0.65872002 2.7008252
1.3871015 0.72182971 2.711663
1.4214952 0.72911352 2.7167463
1.4768941 0.72513002 2.7367377
1.5231181 0.72331816 2.7435505
2.5433815 0.72532946 2.7430902
2.558666 0.72043484 2.7174308
1.3829846 0.77624732 2.7070305
1.4243997 0.77592903 2.7215664
1.4786578 0.77823359 2.7422373
1.5080045 0.76873797 2.7425296
1.6774915 0.79963964 2.7481589
2.5499566 0.75284296 2.7441745
2.5584521 0.77285302 2.7289829
1.3776776 0.82708234 2.7059352
1.4225397 0.82508659 2.7221315
1.4673687 0.82525271 2.7385919
1.5202602 0.82681048 2.746439
1.6710266 0.81908131 2.7323861
2.5618656 0.8223179 2.7235763
1.3802726 0.87092078 2.7083194
1.4215206 0.87692767 2.7180154
1.4726207 0.87318826 2.7292428
1.5230917 0.87498301 2.7370136
1.5568107 0.88150591 2.7478321
2.5634942 0.87717706 2.7274275
1.3792982 0.93199253 2.7054536
1.4218372 0.92729056 2.716239
1.479127 0.92411488 2.7322857
1.5252337 0.92599922 2.7415283
1.5610465 0.92135298 2.7458472
2.5622082 0.92725688 2.7250361
1.3791151 0.98244745 2.7062466
1.422748 0.97383004 2.713119
1.4756328 0.97731274 2.7370794
1.5178602 0.97502059 2.738811
2.5659065 0.97128803 2.7228229
2.6905296 0.98450816 2.7021067
1.3830073 1.0265235 2.7064834
1.4294739 1.0198908 2.7254019
1.475619 1.0257287 2.7320557
1.5311058 1.0257089 2.7446456
2.570966 1.0233035 2.7202265
1.3798698 1.0703489 2.7082572
1.4288788 1.0762855 2.7219424
1.4780484 1.0781218 2.7354324
1.523906 1.0685062 2.7440314
2.5665483 1.0695591 2.7227063
1.343514 1.1414781 2.7093685
1.3795938 1.1251172 2.7131603
1.4245949 1.1217594 2.7153914
1.4770209 1.1279503 2.7364616
1.5240934 1.1123624 2.7448101
2.5751245 1.1186309 2.724623
1.3312361 1.1509537 2.7175305
1.3980986 1.1723326 2.7050536
1.4303261 1.1788882 2.7236979
1.4780489 1.1799036 2.7406714
1.507767 1.1778492 2.746475
2.5738466 1.1764123 2.728574
1.3354747 1.2286364 2.7011578
1.3756599 1.2256316 2.7091594
1.4225142 1.2298559 2.7236676
1.4686266 1.2228776 2.7380373
1.5136303 1.2129526 2.7467291
2.5769074 1.221745 2.7148433
1.3314662 1.2895054 2.7022233
1.3715597 1.2711262 2.7092607
1.4226315 1.2759463 2.7231779
1.4746737 1.2760682 2.7425752
2.5797737 1.2757453 2.7333081
1.3494118 1.3162532 2.7019196
1.3760673 1.3251381 2.7131224
1.4271837 1.3265712 2.7306619
1.4580674 1.324661 2.7440138
2.5817652 1.3210633 2.7169249
1.2927386 1.3943989 2.7019253
1.3267435 1.3760873 2.7077079
1.3720872 1.3748631 2.7161644
1.4266852 1.377493 2.7342038
1.4713148 1.3705044 2.7420743
2.5888398 1.373799 2.7217283
1.3352737 1.4228637 2.7097297
1.3791806 1.4216294 2.7225518
1.4215927 1.4275172 2.7356038
1.4731451 1.4295352 2.7441258
2.5836852 1.4139488 2.7255156
1.29003 1.4834954 2.7017553
1.3304007 1.4793677 2.7117715
1.3760271 1.4724094 2.7236674
1.4215128 1.473398 2.7366879
2.5872009 1.4747605 2.7210467
1.3262235 1.5315747 2.7195773
1.3728691 1.5237944 2.7241409
1.4300841 1.5201406 2.7387025
1.4634089 1.5174545 2.7461975
2.5938997 1.5198892 2.7277358
1.2288716 1.583231 2.7011285
1.283753 1.5805809 2.7055235
1.3229893 1.5755188 2.7185848
1.3743726 1.5813003 2.7375238
1.4303985 1.5681695 2.747015
2.5916653 1.5763278 2.7223141
1.2389364 1.6422623 2.7011862
1.2742583 1.6193453 2.7055671
1.3219692 1.6262202 2.7197845
1.3781091 1.6228542 2.733923
1.4281054 1.6057682 2.7462976
2.595675 1.6255803 2.7264931
1.2373087 1.6734741 2.7058434
1.2746619 1.6769147 2.7106526
1.3214688 1.6690542 2.7213247
1.3759295 1.6749111 2.7429781
1.4131534 1.6790507 2.7422369
2.5920913 1.668615 2.7292676
1.2741809 1.726837 2.708528
1.3271459 1.7202667 2.7349436
1.3705006 1.7326677 2.7474201
2.5937078 1.7358981 2.7327397
2.6031635 1.7248082 2.7247038
1.2753539 1.7743437 2.7119908
1.3260721 1.7661272 2.7329025
1.3764883 1.7695264 2.7440283
2.5924299 1.7669189 2.7275269
1.1470557 1.848479 2.7085843
1.1709841 1.8334985 2.7100797
1.2185928 1.8357764 2.7205641
1.2729017 1.8344419 2.7371976
2.597801 1.8299677 2.7415798
2.6100912 1.8255414 2.7196915
1.1318023 1.8726623 2.7016475
1.1696072 1.8725847 2.7115819
1.226593 1.8760113 2.7335637
1.2653636 1.8874403 2.7432747
2.6033838 1.8713371 2.7257226
1.1360739 1.9226813 2.7063587
1.1702125 1.9206455 2.7143216
1.2191817 1.9194313 2.7300022
1.2614291 1.9190847 2.7497749
2.6071768 1.9219189 2.7336407
1.1270792 1.9765241 2.7070377
1.1726743 1.972484 2.7206776
1.227314 1.9749583 2.737076
1.2612505 1.9717458 2.74615
2.5994391 1.9715312 2.7465379
2.6048889 1.9787797 2.721179
1.1275117 2.031081 2.7116892
1.1715484 2.0237517 2.7254879
1.2179909 2.0186017 2.7387583
1.2576836 2.0033295 2.7443938
2.5961969 2.0407388 2.7430975
2.6054451 2.0155871 2.7139158
1.0936536 2.051883 2.7031991
1.1243253 2.0744066 2.714838
1.1789248 2.0736227 2.7307417
1.2264977 2.076437 2.7453704
2.6071906 2.07057 2.7190609
1.1272641 2.119668 2.7173157
1.1716197 2.129252 2.7283473
1.2181602 2.1213515 2.7394457
1.264817 2.1241305 2.749773
2.5944548 2.1216655 2.7339652
2.6021445 2.1028042 2.7130394
1.0898051 2.1724033 2.708539
1.1237711 2.1778004 2.7183223
1.1776571 2.1743374 2.7324429
1.2144654 2.1645789 2.7398901
2.5999243 2.1550169 2.7210436
2.6057203 2.1872158 2.7321901
2.7344503 2.1741595 2.7126043
1.0824351 2.231602 2.7081289
1.1207566 2.2258935 2.721338
1.172271 2.2240224 2.7316804
1.2123228 2.2249417 2.7392855
2.6141348 2.2234175 2.7217653
2.699832 2.2089608 2.7055435
2.7274981 2.233438 2.7093101
1.086714 2.2569911 2.7070675
1.1235768 2.2814524 2.7159071
1.1729929 2.2682278 2.7300315
1.2213079 2.2886019 2.7427046
1.261232 2.2941895 2.746995
2.6149185 2.2728257 2.7226682
2.6941471 2.2596605 2.7093277
2.7292237 2.2725685 2.7093623
1.1467563 2.3197403 2.7187567
1.1798246 2.3267968 2.7337389
1.2226194 2.3244662 2.7441044
1.252117 2.3429248 2.7460718
2.5944428 2.32689 2.7371716
2.6019678 2.3161635 2.7096806
1.2252011 2.3575563 2.7404928
1.265457 2.3689573 2.7401347
1.3416467 2.3979084 2.7484066
2.5912647 2.3713708 2.7492399
2.6017108 2.3728328 2.7178769
1.4450169 2.425739 2.7411876
1.4657767 2.4310486 2.7389696
1.5108964 2.4471278 2.7401564
1.5718392 2.4415045 2.7413852
2.5936127 2.4325142 2.7270098
2.6076648 2.407896 2.7037172
1.5349764 2.4573224 2.7428799
1.5756185 2.4537759 2.7273829
1.6252187 2.4638903 2.7263889
1.6777899 2.4618959 2.7259202
1.725529 2.4673188 2.7221823
1.7780168 2.4661789 2.7285037
1.827742 2.4833012 2.718811
1.8717182 2.4849544 2.7238421
1.9182131 2.4884059 2.7228942
1.9756112 2.4933574 2.7171259
2.0160136 2.4995999 2.7239897
2.0829487 2.4956994 2.7425025
2.1029367 2.49703 2.7316887
2.2529659 2.4999709 2.7294679
2.3187628 2.4999526 2.7318542
2.4347842 2.4908674 2.7316926
2.473985 2.4908984 2.7202542
2.5306408 2.4884176 2.7247651
2.5674193 2.4657309 2.7235153
1.9816146 2.5009272 2.7254279
2.0372438 2.5048325 2.7413013
2.065084 2.5043998 2.7227669
2.1312637 2.5081525 2.7314229
2.1759138 2.5111318 2.7182987
2.227546 2.50737 2.7239542
2.289438 2.5084035 2.7188163
2.3194013 2.5095909 2.7000995
2.3755798 2.5091898 2.7244298
2.4106088 2.5057054 2.7260351
1.4844261 -0.10032144 2.7504203
1.5230789 -0.11129157 2.7565002
1.560616 -0.10878712 2.7599945
1.6746347 -0.13387245 2.7968297
1.4839051 -0.064358398 2.7502012
1.5233287 -0.07203576 2.7578816
1.5585746 -0.07232368 2.7572193
1.5298877 -0.034473948 2.763808
1.5554416 -0.043164566 2.7521183
1.4839879 0.021870989 2.7507682
1.5240787 0.02203829 2.7597342
1.5587331 0.02214855 2.7580349
1.6551108 0.030135641 2.7977834
1.4870371 0.057921443 2.7560174
1.5186272 0.068425916 2.7538841
1.558298 0.065710679 2.7567451
2.5156989 0.18514182 2.7573984
1.49261 0.24607298 2.7586391
1.5230404 0.24022457 2.7662866
1.5681188 0.24271117 2.7827494
1.6116871 0.24265987 2.7632532
2.4989545 0.23692328 2.7985675
2.5147114 0.21928124 2.7698526
1.4897343 0.28017494 2.7617178
1.5257024 0.27708688 2.7685816
1.57379 0.27762833 2.7782311
1.616135 0.27306053 2.7910795
2.5182812 0.26801291 2.7768781
1.4885347 0.32914689 2.758585
1.5282339 0.32130671 2.7696698
1.5659794 0.32308316 2.7728035
1.6033058 0.32619587 2.7902319
1.7108164 0.33131602 2.796598
2.5262973 0.32150996 2.7740796
1.4867135 0.37229657 2.7589552
1.5252787 0.3756249 2.7689235
1.5711317 0.37277579 2.7796991
1.6034722 0.37809831 2.7856166
1.7188878 0.36902958 2.7904673
2.5230048 0.36976489 2.7720292
1.447714 0.44798356 2.7538378
1.4773471 0.42256281 2.7563422
1.5283216 0.42679137 2.7714591
1.5790972 0.42483211 2.7837212
1.6143945 0.4241192 2.7889745
1.7195362 0.41431567 2.7866716
2.5296135 0.42391515 2.7726977
1.4811713 0.47266507 2.7592132
1.5233542 0.47760656 2.7712958
1.5737334 0.47193345 2.783011
1.6218046 0.46838066 2.7967007
1.7102784 0.48368713 2.7948306
2.5375395 0.47549054 2.7674065
1.4333458 0.52021736 2.75015
1.4915295 0.53042102 2.7684064
1.5268286 0.52485639 2.7698133
1.5759473 0.52381939 2.7883482
1.6224408 0.52916151 2.7950823
1.6687758 0.52657425 2.7914758
2.5364692 0.52786779 2.7741938
1.4847732 0.57848614 2.7623384
1.5312543 0.57596469 2.7777014
1.5749503 0.57656056 2.7888799
1.6208729 0.57890058 2.7903275
2.5329788 0.5799883 2.7775345
1.4692254 0.61281812 2.7551684
1.541678 0.60668778 2.7755022
1.5729829 0.61230266 2.7652309
1.6205715 0.62373674 2.7636013
2.5367484 0.62820292 2.7694383
1.5853806 0.68250561 2.7531092
1.6242532 0.67253226 2.7637532
1.6702472 0.67563754 2.7705491
1.7193731 0.68483531 2.7735496
2.5385454 0.67381972 2.7765195
1.5795496 0.72388148 2.7567179
1.6314307 0.72620785 2.7733073
1.678762 0.72369975 2.7706776
1.7193326 0.71401626 2.7719207
2.5344899 0.71805221 2.7772453
1.5343736 0.77065539 2.7535932
1.5744243 0.77922755 2.765542
1.627033 0.77163732 2.7698884
1.6683275 0.77236718 2.7620142
2.5375931 0.77396226 2.774976
1.4914728 0.82309681 2.7517955
1.5352199 0.82563126 2.7546668
1.5770876 0.82366353 2.7693226
1.6245049 0.82872832 2.7696564
1.6619354 0.81820148 2.7670307
2.5398827 0.82523608 2.7760775
2.5500045 0.84395254 2.7547848
1.5749582 0.8686558 2.7643661
1.6235678 0.87759262 2.7735586
1.669986 0.87387955 2.7754836
2.5433607 0.87337506 2.7730365
2.5546474 0.87135482 2.7527547
1.580675 0.91502434 2.7583985
1.621538 0.92706847 2.7704813
1.6674521 0.92599702 2.7762785
2.5434055 0.91686076 2.7814796
2.5509448 0.93663502 2.7640178
1.575075 0.9749341 2.7583354
1.6303768 0.97796339 2.7733209
1.6724629 0.97708428 2.7804999
2.5367119 0.96308297 2.7852221
2.5537529 0.97839367 2.7633955
1.5742455 1.0302397 2.7628028
1.6183839 1.0258698 2.7729788
1.6762923 1.0225427 2.7924273
1.7110224 1.0310817 2.7909019
2.5442128 1.0346048 2.7954686
2.5575554 1.0207324 2.7633276
1.5811168 1.0765566 2.7647631
1.6299095 1.0773642 2.7832918
1.6779116 1.0706764 2.7915194
1.7205458 1.0763918 2.7915528
2.5482023 1.0713305 2.7882452
2.5582323 1.0682167 2.7660639
1.532413 1.1412375 2.7524886
1.5781935 1.118138 2.7646244
1.6306751 1.1270913 2.7839091
1.6730083 1.1267918 2.7909195
1.7149543 1.1150941 2.7995574
2.5474455 1.1491001 2.7962337
2.5587292 1.1248003 2.7648602
1.527743 1.1678259 2.7530224
1.5743858 1.1750448 2.764931
1.627192 1.1811548 2.7780807
1.6698351 1.1737713 2.7880599
1.7075568 1.1809272 2.7918043
2.547164 1.1666428 2.7895103
2.5564978 1.1773435 2.7730987
1.5264579 1.2316712 2.7573037
1.5786126 1.2281117 2.7753518
1.6220906 1.2278838 2.7898598
1.6705309 1.2164583 2.7935722
1.7219684 1.2119203 2.7988348
2.5617385 1.2224141 2.7686255
1.488923 1.2712717 2.7515352
1.5219913 1.2797743 2.7598829
1.5701889 1.271829 2.7704449
1.626191 1.2772795 2.7885287
2.5494914 1.2826957 2.7846048
2.5570045 1.2686836 2.7751186
1.485819 1.3235698 2.7518866
1.5224041 1.3305293 2.7615449
1.5741174 1.3268039 2.7767844
1.625864 1.3316536 2.7944171
1.6503956 1.3145931 2.7953691
2.5694382 1.3240596 2.7746611
1.4805286 1.3689818 2.7563493
1.5278672 1.3713802 2.7641938
1.5727565 1.369368 2.7733386
1.6245209 1.3796601 2.7967582
2.5756173 1.3767283 2.7715888
1.4908227 1.4174258 2.7598758
1.5263194 1.419607 2.767195
1.5712395 1.4254627 2.7881877
2.5756488 1.4268135 2.7762012
1.4725327 1.4822196 2.7541335
1.5248603 1.4742492 2.7701855
1.567348 1.4750322 2.7837751
1.6235399 1.4678349 2.7989929
2.5757122 1.4774274 2.7803109
1.4869301 1.5150102 2.7515662
1.5198114 1.5165031 2.7616761
1.5789907 1.5197215 2.785532
2.5829053 1.5273502 2.774178
1.4403404 1.5948783 2.7588298
1.4750988 1.5746291 2.7623119
1.5254155 1.5763947 2.7818062
2.5756624 1.5752529 2.7846184
1.4369352 1.631546 2.7556882
1.4753813 1.6217178 2.7675216
1.5212885 1.6223629 2.7817516
2.5831871 1.6257837 2.7696328
1.4359754 1.6775756 2.7693794
1.474937 1.6805753 2.7789288
1.5214207 1.6701205 2.7903857
2.5856872 1.6822717 2.774317
1.3881011 1.7189046 2.7525611
1.4230273 1.7154444 2.7605848
1.4736346 1.7206274 2.7789631
1.5235182 1.7155422 2.7942383
1.5554955 1.7154729 2.7933857
2.5786877 1.7315528 2.7793
1.4250913 1.7679915 2.7627747
1.4707419 1.7803032 2.7883954
2.583513 1.7798671 2.7702482
1.3222458 1.8494606 2.7537453
2.5862799 1.8256738 2.7696867
1.2913878 1.8754703 2.7555766
1.3289437 1.8749583 2.7585053
1.3776151 1.8668953 2.7851098
1.4149818 1.8710303 2.7924302
1.4583588 1.8846875 2.7986891
2.5913725 1.8735405 2.7710595
1.2832353 1.9316905 2.7533545
1.3271213 1.9266294 2.7664104
1.3757474 1.9227643 2.7851677
1.4174566 1.9265575 2.7935572
2.589993 1.9186293 2.7786472
1.2351171 1.9688647 2.7513654
1.288826 1.9892733 2.764205
1.3218533 1.973325 2.7616196
1.3691413 1.9637673 2.7825611
1.401983 1.9810864 2.7984462
1.4535738 1.9500471 2.7999451
2.589093 1.9685438 2.7766361
2.6000946 1.9530555 2.758734
1.2312344 2.0460596 2.7502203
1.2827666 2.0368128 2.7640979
1.3179973 2.0160918 2.7632527
1.3791819 2.0258691 2.7879548
1.4105006 2.026639 2.795141
2.5935955 2.0174997 2.7758865
1.271513 2.07021 2.7581475
1.3318477 2.0800579 2.7828708
1.3706601 2.0715325 2.7907519
1.4012272 2.0711842 2.7963147
2.5909169 2.0730832 2.7775204
1.247808 2.1234019 2.755286
1.2792591 2.1186385 2.7598722
1.3178566 2.1178288 2.7738473
1.3709215 2.1184788 2.7903807
2.590297 2.124361 2.7712412
1.2405084 2.1728523 2.7602525
1.2690957 2.170548 2.7637744
1.3206277 2.1696291 2.7785621
1.3692781 2.178196 2.7902369
2.5872242 2.1668744 2.7850196
2.6001582 2.1712246 2.7567022
1.2380316 2.208384 2.7594562
1.2709574 2.2275717 2.7625086
1.3235679 2.2225218 2.7829738
1.3623538 2.2206843 2.7953348
2.5938919 2.2202797 2.7764492
2.6040444 2.2494805 2.7579501
1.2401363 2.2696469 2.7567286
1.2781758 2.2685881 2.7583508
1.3275001 2.277225 2.7765768
1.3758974 2.2697496 2.794039
2.5905788 2.2735522 2.7827339
1.2485404 2.3191636 2.7507994
1.2824951 2.3235316 2.7555082
1.3214079 2.3253794 2.7667594
1.3656563 2.3248806 2.7848425
1.4153844 2.3392169 2.7968361
2.5926721 2.3237345 2.7722147
1.2868979 2.3596737 2.7552955
1.3257279 2.3803222 2.7605109
1.3762007 2.3782852 2.7736676
1.4121937 2.3728247 2.783098
2.5863638 2.3750734 2.7868719
1.3785331 2.4168813 2.75876
1.422994 2.4159541 2.7681806
1.4770908 2.4230974 2.7805412
1.5297791 2.4364393 2.7746923
1.5687701 2.4432611 2.7720807
2.5851998 2.4230747 2.7761016
2.6098163 2.4082732 2.7551739
1.5023783 2.4621961 2.7656102
1.6226072 2.4601519 2.7829552
1.6621908 2.4652624 2.769897
1.7268347 2.4637787 2.784806
1.7623081 2.4641066 2.7763755
1.823845 2.4784172 2.7704661
1.8763059 2.486763 2.7817376
1.9241253 2.4908218 2.7778676
1.9736344 2.4863153 2.773818
2.0226963 2.4911952 2.7735929
2.0778484 2.4932854 2.787673
2.1723671 2.495549 2.776329
2.2157946 2.4928555 2.7901871
2.3747416 2.4997261 2.7902241
2.4198759 2.495882 2.7763379
2.4792356 2.4962687 2.7849622
2.5299857 2.4873593 2.7742758
2.5730553 2.4702418 2.7795582
2.0692568 2.5019579 2.761574
2.1352386 2.5048943 2.7697101
2.1645975 2.5057678 2.7517939
2.2205107 2.5066473 2.7629185
2.2789402 2.5093136 2.7755995
2.3219147 2.5047879 2.7867513
2.3665841 2.5107677 2.7660787
2.4243147 2.5002406 2.7560027
2.4887769 2.505904 2.7702336
1.6747404 -0.11930609 2.8079584
1.7187437 -0.11733238 2.8197627
1.764428 -0.12151295 2.8336813
1.8193787 -0.12262353 2.8417392
1.6736041 -0.074492238 2.8125179
1.7208605 -0.075250022 2.8274364
1.7743721 -0.077881023 2.8388193
1.8232105 -0.074258156 2.8399675
1.6736608 -0.02955161 2.8131678
1.7186699 -0.029821262 2.8244336
1.7751775 -0.030109895 2.8367586
1.8320538 -0.030372214 2.8444016
1.672598 0.021737067 2.809113
1.715668 0.023056645 2.8194811
1.7732967 0.023327285 2.8337557
1.8243953 0.023500592 2.835639
1.6689452 0.075056136 2.804534
1.7226694 0.075981669 2.8234241
1.7686274 0.076751254 2.8382294
1.8202046 0.077421665 2.8440483
