ply
format ascii 1.0
comment PCL generated
element vertex 1559
property float x
property float y
property float z
element camera 0
property float view_px
property float view_py
property float view_pz
property float x_axisx
property float x_axisy
property float x_axisz
property float y_axisx
property float y_axisy
property float y_axisz
property float z_axisx
property float z_axisy
property float z_axisz
property float focal
property float scalex
property float scaley
property float centerx
property float centery
property int viewportx
property int viewporty
property float k1
property float k2
end_header
0.57505715 1.5778859 2.508538
0.62675071 1.5766677 2.5191674
0.67727047 1.5759914 2.5380411
0.7198565 1.5729077 2.5427628
0.54126489 1.620712 2.507442
0.57632095 1.6234944 2.5116048
0.62641752 1.6263049 2.5240998
0.67006075 1.6191571 2.5369897
0.54818314 1.6833464 2.5179701
0.57628733 1.6768943 2.5174613
0.6234681 1.6740907 2.5299203
0.67544681 1.6691344 2.5417938
0.53141075 1.7222967 2.5045381
0.57888043 1.7246957 2.5178823
0.62692875 1.7217503 2.5336237
0.65869999 1.7166306 2.5490255
0.49523598 1.7706337 2.5000405
0.52195758 1.7670813 2.5075603
0.57425642 1.769264 2.5247955
0.62456 1.7671032 2.5368586
0.6943028 1.7704201 2.5497899
0.38486186 1.8222941 2.5046656
0.42934254 1.8289984 2.5129359
0.47732815 1.8341407 2.5288389
0.52409697 1.8263427 2.5390391
0.56424123 1.8190311 2.5444314
0.38180089 1.8916447 2.5023003
0.42915663 1.8762454 2.5137749
0.47792032 1.8761662 2.5243714
0.52134478 1.873373 2.536061
0.55494827 1.8721277 2.5492592
0.38193312 1.9305438 2.5027502
0.4216651 1.9249181 2.5135648
0.46873865 1.9205046 2.5257368
0.52524912 1.9282807 2.5416138
0.56729662 1.9256468 2.5488381
0.37502831 1.9956632 2.5134141
0.42562279 1.9720989 2.5187213
0.47127652 1.9708754 2.5294583
0.52551997 1.9739228 2.5415459
0.383504 2.0166204 2.5108736
0.42925057 2.0183229 2.5210803
0.47820577 2.0260601 2.5344379
0.51953614 2.0224185 2.5440485
0.52588773 2.0594316 2.5441852
2.7300026 2.3413017 2.5328636
2.7642865 2.3346121 2.5445137
2.6499002 2.3966916 2.5495439
2.6756701 2.374558 2.5379205
2.7053983 2.3560276 2.5298438
2.6624863 2.4281762 2.5335014
2.4976346 2.4953783 2.5498433
2.5250525 2.4941163 2.5281768
2.5723989 2.493185 2.5241392
2.6340363 2.476666 2.5376766
1.9996115 2.5049026 2.5469546
2.0795326 2.5066733 2.54058
2.1217368 2.5036247 2.5224688
2.1712837 2.5099936 2.5283554
2.2218988 2.5167289 2.5343692
2.2696884 2.5189729 2.5203447
2.3346047 2.5154772 2.5258837
2.3797829 2.5097611 2.5340691
2.4118428 2.5137939 2.5261714
2.468591 2.5109375 2.5349905
2.5034308 2.5012815 2.5094123
2.7327809 -0.45343673 2.5745921
2.7721581 -0.45570886 2.5640602
2.778549 -0.42581749 2.5813618
2.8012929 -0.40542939 2.5508084
2.7893004 -0.37224728 2.5758102
2.8009734 -0.37996516 2.5538521
2.7959125 -0.32205096 2.5878077
2.8036413 -0.32094881 2.563221
2.7005908 -0.26671997 2.5974407
2.7978091 -0.26267058 2.595336
2.8060648 -0.27498746 2.577987
2.8209035 -0.21984875 2.5722859
2.8185537 -0.16866411 2.5734012
1.7333447 -0.12662718 2.5757408
1.7970048 -0.11337073 2.5702469
1.8331746 -0.10934141 2.5747309
1.8722212 -0.10007345 2.5637193
0.83418649 -0.069933124 2.5544136
0.87499756 -0.060428441 2.5590434
0.9253881 -0.063893721 2.5758367
0.97274137 -0.064465381 2.5899785
1.0044893 -0.077851921 2.5983171
1.7383478 -0.074697316 2.5674007
1.7773447 -0.091382951 2.5566535
1.8244996 -0.074385636 2.5645781
1.8714061 -0.07447809 2.5631318
1.936564 -0.079960629 2.5951109
0.83096993 -0.037791476 2.5611858
0.87174672 -0.03790639 2.5609708
0.92615026 -0.038310278 2.5783279
0.96665192 -0.038640626 2.5930429
1.7164849 -0.027631665 2.5668485
1.786054 -0.020722166 2.5563593
1.823796 -0.0309017 2.5650251
1.8672209 -0.028240874 2.5721455
1.917685 -0.014049169 2.5989113
1.6992147 0.028464988 2.5691102
1.702213 0.014467537 2.5737472
1.8196372 0.019491496 2.5572588
1.8673359 0.017289644 2.5676527
1.9151509 0.044335332 2.595144
2.5718994 0.049721114 2.5591965
1.6909221 0.0562202 2.5562205
1.7011485 0.077605173 2.5712309
1.0322008 0.24113706 2.588372
0.98638278 0.26709634 2.5982456
1.0041494 0.26013276 2.5889881
0.83656216 0.37777591 2.5564041
0.85525352 0.38165736 2.5535352
0.83720493 0.42531252 2.5532298
0.85716778 0.4271329 2.5543604
0.83417875 0.47806969 2.5531373
0.85967684 0.47952276 2.5555611
0.83024758 0.53019696 2.5529811
0.87719744 0.52967834 2.5650704
0.79359686 0.56105673 2.5511503
0.82642961 0.57169843 2.5527925
0.87039202 0.57122409 2.5597544
1.0331815 0.57454801 2.5911038
1.0384932 0.63060105 2.5956635
1.0693977 0.62652105 2.599781
1.0366538 0.67489851 2.5905128
1.0581264 0.68783307 2.5978553
0.98057461 0.74791855 2.5545819
1.0254871 0.72364843 2.5826082
0.89014429 0.79576826 2.5507052
0.90518153 0.79753023 2.553081
0.98545855 0.78331095 2.5807626
1.0254159 0.77509576 2.5914314
1.0584719 0.78651774 2.5979559
0.88617069 0.82423097 2.5537136
0.90767938 0.82596087 2.5541608
0.98824352 0.82544655 2.5791206
1.0185112 0.82387054 2.5899124
1.0711281 0.83822447 2.5997484
0.88860565 0.86677206 2.5543005
0.91199106 0.87601936 2.5552716
0.99218267 0.86883593 2.5799062
1.0241604 0.87657827 2.5964105
1.0724406 0.85616899 2.5988803
0.8766073 0.9341768 2.5543993
0.9111228 0.92790318 2.5613465
0.97640747 0.93332314 2.5603185
1.0160271 0.92440277 2.5950034
0.84239006 0.97386962 2.5523193
0.87968868 0.97527504 2.5572431
0.91422874 0.97098666 2.559376
0.98580676 0.96927166 2.5776703
1.0170261 0.97318375 2.5929277
0.8396998 1.049018 2.5504344
0.87521809 1.0218295 2.5577908
0.91683424 1.0292 2.5621397
0.99324989 1.0240338 2.5836995
1.0096091 1.0268855 2.5870237
0.87226629 1.0723403 2.556643
0.91026539 1.0751201 2.5619576
0.99838346 1.0634009 2.5869668
1.0113144 1.0835969 2.5965137
0.84380567 1.1219748 2.5540526
0.87920552 1.1276013 2.5622811
0.92043179 1.1233957 2.5616615
0.9883768 1.1220758 2.5832019
1.0125605 1.1334149 2.59531
0.837915 1.1847861 2.5502412
0.87947696 1.1762545 2.5591135
0.91863972 1.1715158 2.5608792
0.98996729 1.1649828 2.5737762
1.0168952 1.1657519 2.5936422
0.83660752 1.2118219 2.5531919
0.87448704 1.2252388 2.5622759
0.91803312 1.2294929 2.5651119
0.98059976 1.2260317 2.5810905
0.83419359 1.2839334 2.5529752
0.87503058 1.2777927 2.5633163
0.92833394 1.2715435 2.5703976
0.97687173 1.272655 2.5877631
0.824552 1.3278074 2.5541968
0.87491542 1.3273798 2.5704863
0.92521203 1.3204135 2.5816038
0.97268879 1.3229146 2.5915587
0.79462117 1.3723589 2.5519133
0.82652229 1.3766906 2.5602784
0.8748945 1.3761438 2.5773995
0.92547131 1.3701952 2.5860367
0.95679832 1.3810264 2.5954554
0.78113759 1.425434 2.5562079
0.82022732 1.4275048 2.5595851
0.8714416 1.4235734 2.5790586
0.91797006 1.4203646 2.592582
0.95196879 1.4159503 2.5989127
0.78386647 1.4684954 2.555722
0.8245427 1.4746684 2.5651457
0.87603736 1.4786079 2.5844526
0.92005664 1.4833142 2.5972447
0.77291465 1.5228586 2.557112
0.82248712 1.5238253 2.5694399
0.87231147 1.5247812 2.5857198
0.92204893 1.5210596 2.5954881
0.73043203 1.5806396 2.5537629
0.77959812 1.5744596 2.5681295
0.82868481 1.5723621 2.5789528
0.87581116 1.5747517 2.5911896
0.90824074 1.5656277 2.5947037
0.68781829 1.6370494 2.5507627
0.72452444 1.6238579 2.556428
0.77322823 1.6252592 2.5734787
0.82351792 1.6240962 2.5868311
0.86600292 1.6213856 2.5944889
0.72976857 1.6748128 2.5627186
0.77972519 1.6748519 2.5769322
0.82553768 1.673191 2.5875309
0.86731756 1.6754996 2.5969331
0.90469313 1.6572731 2.5944817
0.67891884 1.7288802 2.5549376
0.72533387 1.7276535 2.5670683
0.77510422 1.7223144 2.5738475
0.82641488 1.7261299 2.5867472
0.85808957 1.7240629 2.5908675
0.67922395 1.7614151 2.5542178
0.72412187 1.7667698 2.5626438
0.77627915 1.7716306 2.5783279
0.82962143 1.7736015 2.5914292
0.85682309 1.7656596 2.5953259
0.5911082 1.8354199 2.5634494
0.62730348 1.8325919 2.5721078
0.67733699 1.8311619 2.584753
0.72400051 1.8306776 2.5890584
0.75328904 1.815787 2.5903869
0.57667196 1.8738152 2.5536118
0.62286806 1.872776 2.5669379
0.68001521 1.8783723 2.5819955
0.7266475 1.8760121 2.5917788
0.57948506 1.9223675 2.5567257
0.62467951 1.9299703 2.5733976
0.66962403 1.9278244 2.5797966
0.71840483 1.9138112 2.590775
0.58167362 1.974023 2.5633478
0.62461865 1.9759537 2.5710378
0.67762756 1.9772615 2.5832434
0.71632457 1.9777166 2.5955009
0.54164398 2.0476682 2.5555441
0.56999892 2.0197239 2.5578985
0.6190483 2.0240526 2.573946
0.67185497 2.0221572 2.5854161
0.71630174 2.0219994 2.5956011
0.52810061 2.067997 2.5547235
0.57511228 2.0679526 2.5608969
0.62335473 2.0684152 2.5719121
0.67584306 2.0754693 2.5865445
0.71131206 2.0722454 2.5932114
0.63643527 2.1043239 2.5808616
0.67852449 2.1167002 2.5878274
0.70996273 2.111423 2.5891414
2.6868482 2.3456893 2.5740993
2.7269995 2.3441896 2.5919354
2.7669647 2.3347538 2.5771549
2.8130987 2.3396223 2.569011
2.649709 2.3945649 2.5954916
2.6614909 2.3690443 2.5712221
2.7229693 2.3518682 2.5589211
2.6268151 2.4303136 2.580133
2.6523147 2.4261947 2.5783715
1.9541982 2.4931788 2.5579352
2.0966134 2.4978113 2.5586352
2.1462643 2.4945374 2.5641723
2.4776213 2.4944634 2.5782299
2.5226398 2.4913936 2.5722959
2.5678418 2.488101 2.5659344
2.6223896 2.4699624 2.5720615
1.9146641 2.5004129 2.593616
1.9804264 2.5035453 2.5571086
2.0073152 2.507679 2.5888624
2.0738664 2.5035248 2.582551
2.1216452 2.5057361 2.5546205
2.1873856 2.5099902 2.5614138
2.2201531 2.5074389 2.579679
2.2654202 2.5068455 2.5704026
2.3255146 2.5122616 2.5758464
2.3752394 2.5059097 2.5765858
2.4338338 2.5081227 2.5857551
2.4522021 2.5072691 2.5557551
2.7344189 -0.42265704 2.6125982
2.7559667 -0.41483194 2.6025591
2.7323411 -0.37152386 2.6172626
2.7741511 -0.37048364 2.6129181
2.7198591 -0.31922391 2.6110575
2.7812746 -0.32337478 2.6218841
2.7073762 -0.28417715 2.6024423
2.7778482 -0.27178267 2.6236289
2.7802622 -0.21803749 2.6233408
2.8024313 -0.22898471 2.6023765
2.7780836 -0.16940071 2.6311762
2.803421 -0.16933489 2.6071529
1.7310346 -0.11966828 2.6211896
1.0248735 -0.063586019 2.6092153
1.0710586 -0.065727979 2.6197641
1.1225893 -0.066416889 2.6364274
1.1565605 -0.06684085 2.6452336
1.7340457 -0.074629262 2.621207
1.9435668 -0.058206663 2.6049469
0.99066001 -0.038816381 2.6001556
1.0228633 -0.039045814 2.6090333
1.0722834 -0.039409425 2.6231377
1.1234312 -0.039806772 2.6387992
1.1574168 -0.040052079 2.647567
1.7312737 -0.030980835 2.6234848
1.9473481 -0.014146982 2.6104569
1.7267369 0.014822483 2.639786
1.9219418 0.015210424 2.6046219
1.967288 0.022844493 2.6226592
1.3349878 0.095864132 2.6409378
2.6021757 0.067296989 2.6352575
1.0820458 0.23582433 2.630585
1.1274136 0.23436952 2.6408906
0.98894358 0.27760214 2.6042712
1.0281317 0.27727824 2.6075931
1.0789624 0.27240613 2.6295998
1.1285051 0.273251 2.6440351
0.99889404 0.3014631 2.6097391
1.0281969 0.3222287 2.614506
1.0794816 0.32422635 2.6300571
1.1219091 0.3312875 2.644331
1.0307052 0.37388986 2.6179585
1.0691662 0.38007799 2.6285908
1.1209313 0.37359327 2.6427417
1.0360407 0.42539153 2.611119
1.0743968 0.42246056 2.6263261
1.1212182 0.42581609 2.6418185
1.0348778 0.46968782 2.6103671
1.0707215 0.47383401 2.6258011
1.120358 0.47663298 2.6402144
1.0414374 0.54585999 2.6168849
1.0719575 0.52659106 2.6252077
1.1258396 0.5261175 2.6433964
1.0378021 0.55721891 2.6057675
1.0765172 0.57699698 2.6257694
1.1221881 0.57765913 2.6391699
1.1610428 0.59947866 2.6432352
1.0768914 0.62468123 2.610523
1.1217732 0.62562293 2.6213629
1.1746931 0.6306259 2.633641
1.2165102 0.63197798 2.6458771
1.0769172 0.67175603 2.6064463
1.1278166 0.67406219 2.6203265
1.1779213 0.67510605 2.6365008
1.2156245 0.67522961 2.6480453
1.0487127 0.73733145 2.6023126
1.0818503 0.72458655 2.6092339
1.1299828 0.72534996 2.62286
1.1793145 0.72342217 2.6376719
1.2077173 0.71730822 2.6459558
1.0760313 0.76761919 2.608587
1.1247772 0.77504522 2.6214406
1.1723326 0.77493298 2.6368835
1.2091675 0.77637482 2.6493659
1.0408945 0.82890898 2.6012311
1.0735695 0.82089341 2.6056297
1.1212453 0.82403988 2.617996
1.1787578 0.82398218 2.6379607
1.2132308 0.82071126 2.6490407
1.0453049 0.87980765 2.600949
1.0787684 0.87959689 2.6096718
1.1293414 0.87444711 2.622869
1.1706952 0.87669146 2.63657
1.2091645 0.88476533 2.6492653
1.0491369 0.91697598 2.6019716
1.0747238 0.92567253 2.6141002
1.1193396 0.92328918 2.6243854
1.1739806 0.92692697 2.6429553
1.2082963 0.92493767 2.6497056
1.0413108 0.98354715 2.6039934
1.0754896 0.97610706 2.616226
1.1247894 0.97544461 2.6280947
1.1771992 0.97810012 2.6420653
1.0406795 1.0306767 2.6098752
1.0782102 1.0239704 2.6141639
1.1319519 1.0242641 2.629159
1.1784662 1.0207996 2.6414573
1.2168589 1.0090966 2.6473947
1.0356759 1.0738283 2.6042945
1.0703044 1.0763741 2.614747
1.1242961 1.0748899 2.6308334
1.1637418 1.0815016 2.6451786
1.2102768 1.0864139 2.6477175
1.0329555 1.1196251 2.6038435
1.0784736 1.1268781 2.6171162
1.1274159 1.1242232 2.6278367
1.1755484 1.1237736 2.641073
1.0376761 1.1806201 2.6046698
1.0752884 1.1771852 2.6175978
1.1209583 1.1742476 2.631041
1.1736895 1.182358 2.6464827
1.026581 1.2274909 2.6068923
1.0725682 1.2240932 2.6155767
1.1279858 1.2244067 2.6381176
1.1669943 1.221014 2.6409678
1.0276153 1.2710899 2.6083746
1.0717882 1.2794037 2.6254506
1.1197071 1.2735116 2.632709
0.99106485 1.3405949 2.6066468
1.0253305 1.3337994 2.6134758
1.0735571 1.327585 2.6311555
1.1233135 1.3216212 2.6425653
0.99004477 1.3781 2.6080329
1.0233088 1.3758632 2.6125407
1.0760818 1.3746901 2.6316984
1.1212343 1.3787379 2.6429574
0.97695428 1.4278973 2.6109293
1.0208678 1.4260259 2.6167653
1.0732088 1.4240942 2.6324458
1.1145136 1.4225107 2.6413414
0.9367339 1.4606884 2.6063845
0.97559536 1.4799682 2.6159461
1.0305713 1.4757831 2.6261325
1.0788273 1.4712342 2.6374638
0.93915164 1.5404991 2.6062484
0.97535878 1.5303371 2.6172309
1.0203476 1.52642 2.6280546
1.0656252 1.5158677 2.6381302
1.1154069 1.5303315 2.6480494
0.93169522 1.5770091 2.6087768
0.97818607 1.5713947 2.6186333
1.0286926 1.5697155 2.6287346
1.0583006 1.5787158 2.6421838
0.88882846 1.6402657 2.6018581
0.91792977 1.6272905 2.6077845
0.96873754 1.6228826 2.6238911
1.0194492 1.6209189 2.6334395
1.0651175 1.6111767 2.6485929
0.88788033 1.6669221 2.6047618
0.93339539 1.680446 2.6196539
0.97978514 1.6717148 2.6306932
1.0252531 1.6719207 2.6364238
1.0505896 1.6904644 2.6418447
0.88681638 1.7263556 2.6108809
0.92156923 1.7310026 2.6129844
0.96839368 1.7235296 2.6277757
1.0192077 1.722119 2.6390579
0.87939912 1.7726787 2.6067662
0.91949999 1.7691498 2.6075344
0.97816139 1.7720255 2.6303012
1.0175269 1.7671169 2.6377738
0.78449345 1.8372006 2.6156344
0.82524908 1.8251972 2.6151767
0.87323666 1.8295084 2.6283407
0.92425483 1.8289293 2.6401551
0.95864749 1.8345311 2.6445856
0.74811935 1.8764379 2.6059129
0.77749544 1.8763355 2.6075211
0.82965326 1.8700632 2.6230006
0.87855649 1.8761708 2.6352379
0.9242692 1.8770374 2.6452866
0.95169264 1.8963754 2.6456196
0.73872471 1.9355292 2.6020579
0.76976037 1.9255881 2.6059465
0.81948346 1.9190142 2.620245
0.87129211 1.9257768 2.6323812
0.91324604 1.9266723 2.6444678
0.73042709 1.9695046 2.6030691
0.77608448 1.9717425 2.6087506
0.82903427 1.9711369 2.6219563
0.87995583 1.9757161 2.6398375
0.92310077 1.9675627 2.6424818
0.73328245 2.0220706 2.6018536
0.77856678 2.0215056 2.6122987
0.82707787 2.0241356 2.6281791
0.87032223 2.0275939 2.6372702
0.91585094 2.0266919 2.6445689
0.73623383 2.0713458 2.6066325
0.77378386 2.0717893 2.6135952
0.82359874 2.074367 2.629015
0.88010883 2.080878 2.6362445
0.73584002 2.1244879 2.6052332
0.77199215 2.1214879 2.6130919
0.82143939 2.1338432 2.6315293
0.86469173 2.1275699 2.6368537
0.91844612 2.1136026 2.6475906
0.77906883 2.1617785 2.6226387
0.82951856 2.1773086 2.6377406
0.87226903 2.1774766 2.6422558
0.91145951 2.1819727 2.6451094
0.89940363 2.2073894 2.6498709
2.6785703 2.3395007 2.6324716
2.7300732 2.3355844 2.6244113
2.7834089 2.3267307 2.6359508
2.8012507 2.3263547 2.6036887
2.6379218 2.3775675 2.6222737
2.6570811 2.3535347 2.6120276
2.6344662 2.4232726 2.6278915
1.7779727 2.4737937 2.6359916
1.8248185 2.4888613 2.6308117
1.8762116 2.4891918 2.6283963
1.9220637 2.4918852 2.6183181
2.4424982 2.4980357 2.6412029
2.4801769 2.4970744 2.6287081
2.5316679 2.490237 2.6280277
2.5765729 2.4861326 2.6207764
2.6228826 2.4634368 2.6278629
1.976203 2.5053329 2.6265512
2.029182 2.5064173 2.6306517
2.0778608 2.5111701 2.6248639
2.1352043 2.5156617 2.6276581
2.1725683 2.5164499 2.6151652
2.2240334 2.5141909 2.633348
2.2614517 2.5047121 2.6226561
2.3206658 2.5087194 2.6270719
2.3632989 2.5040462 2.6127045
2.426528 2.5109024 2.6271367
1.7344339 -0.10051727 2.6502566
1.1838289 -0.067233585 2.6550305
1.2286056 -0.06782379 2.6681457
1.2756866 -0.0723745 2.6819789
1.3115028 -0.07436499 2.688736
1.3521101 -0.097052194 2.691237
1.7346005 -0.086102761 2.6508861
1.1838768 -0.04026008 2.6554852
1.2302003 -0.040664133 2.6720219
1.2771003 -0.04106516 2.6878142
1.3021439 -0.041196533 2.6898642
1.5592245 -0.02819298 2.6963737
1.738205 -0.04291882 2.6571603
1.3160117 0.030772436 2.6984415
1.2834034 0.095562659 2.6500378
1.3096534 0.089591488 2.6712964
1.3724511 0.084086135 2.6990252
1.5575479 0.085890211 2.6924891
2.639287 0.085041478 2.6723964
2.6603808 0.076820835 2.6624303
2.7060213 0.077663474 2.6762214
2.6356761 0.11841492 2.6675494
2.6759019 0.11107282 2.6768756
2.7240827 0.11648186 2.684767
2.5295489 0.17196126 2.6897888
2.5646794 0.17507839 2.6697462
2.6270511 0.16548219 2.675339
2.6690023 0.17433774 2.6747897
2.7191465 0.17196529 2.6852229
1.1797988 0.23873842 2.6630359
1.2292061 0.23835257 2.6721437
1.2802247 0.24179508 2.6866603
1.3277217 0.23599052 2.6850414
2.5486848 0.21723114 2.6969318
2.5737736 0.21727626 2.6764982
2.6293743 0.21988147 2.686883
2.6715944 0.22131209 2.6821978
2.7289691 0.22398391 2.6915724
1.1750907 0.27788135 2.6600921
1.2201363 0.27496052 2.6699777
1.2745489 0.27657148 2.6890874
1.3092922 0.26420119 2.6953676
2.5471077 0.25864443 2.6920581
2.5706937 0.26959419 2.6757638
2.6286705 0.27029571 2.6820843
2.6739399 0.26913828 2.683857
2.7204707 0.27926171 2.6865046
1.1679738 0.32520866 2.6575918
1.2210518 0.32173946 2.672559
1.274863 0.32499298 2.6858387
1.3130515 0.33461028 2.6975007
2.5717916 0.31785268 2.6811969
2.6270266 0.32060334 2.6754913
2.6629159 0.32293144 2.6802406
2.7200792 0.32674184 2.6893826
1.1726501 0.37555331 2.6603904
1.2226979 0.3769767 2.6710043
1.2789178 0.3745546 2.6898112
2.5722032 0.36823863 2.679913
2.6278317 0.37173998 2.6783872
2.6707268 0.37486172 2.6822436
2.7178814 0.37470302 2.6849055
2.7502065 0.39845702 2.6948352
1.1704465 0.42626798 2.6563318
1.2241306 0.4254221 2.6689725
1.2749522 0.42099535 2.6878958
1.3066334 0.42378703 2.6976583
2.5722201 0.41933128 2.6852725
2.6264987 0.42273977 2.6782837
2.6795824 0.42720976 2.6843987
2.7301116 0.43490568 2.6891923
1.177255 0.4746632 2.6593859
1.2285079 0.47623187 2.6757216
1.2730254 0.47310492 2.6906826
1.3042856 0.4618322 2.6996744
2.5792863 0.47082353 2.6853275
2.6317587 0.47121096 2.6799121
2.6781726 0.48311335 2.6826365
2.7258673 0.47492892 2.6920419
1.143237 0.51585817 2.6500871
1.1774377 0.52447569 2.6599658
1.2260501 0.52196211 2.6710134
1.2715869 0.52628696 2.6903543
2.5736549 0.52114695 2.6817949
2.6211562 0.52958965 2.6801205
2.6768632 0.53435659 2.6840823
2.721858 0.51806891 2.689075
1.1470699 0.5720647 2.6509621
1.173637 0.57508254 2.6584818
1.2199053 0.57390797 2.6748793
1.2707833 0.5741716 2.6893034
1.3102759 0.56232399 2.6985068
2.571635 0.57651937 2.6879478
2.6231186 0.57749069 2.6815732
2.668354 0.57332516 2.6812811
2.7284179 0.57511222 2.6904655
1.1817993 0.60312635 2.6549573
1.2288406 0.61870933 2.6580822
1.281119 0.62392139 2.678355
1.3204559 0.6353094 2.6849258
1.362624 0.63030493 2.6931539
2.577071 0.62534976 2.6875439
2.6246767 0.62546527 2.6819561
2.6712193 0.62193966 2.6828957
2.7243025 0.61962157 2.6891308
1.2357668 0.671812 2.6583877
1.2714999 0.67485499 2.6691382
1.3257318 0.67812681 2.6810682
1.3621479 0.68199062 2.6943409
2.5832837 0.67763501 2.6832244
2.6267078 0.66954345 2.6720393
2.6770012 0.67114621 2.6834502
2.7231045 0.67667753 2.6841323
1.2273206 0.7310136 2.6535625
1.2769337 0.72328901 2.6685448
1.3203872 0.72428608 2.6815555
1.3614918 0.72191268 2.6910014
2.5788598 0.72814292 2.6737463
2.6271698 0.71655828 2.6728313
2.6756957 0.72826296 2.6806273
2.7193611 0.72125471 2.6867115
1.233374 0.77615249 2.6547484
1.2721509 0.77130342 2.6660659
1.3237634 0.77516693 2.685164
1.3653393 0.77648717 2.6936395
2.5780129 0.77913487 2.6790955
2.6320713 0.77072501 2.6759386
2.6727846 0.78156787 2.6810918
2.7054746 0.78047961 2.6742866
1.2333171 0.82203311 2.6582761
1.2738414 0.82573724 2.6718957
1.326088 0.82445657 2.6870461
1.3650948 0.82012999 2.6953382
1.6508366 0.81661975 2.6976371
2.5818782 0.82636809 2.6781564
2.6219521 0.82245797 2.6736271
2.6737573 0.82769668 2.68171
2.725256 0.82982153 2.6823232
1.2239558 0.86920351 2.6520092
1.2715081 0.8745479 2.6697273
1.3164866 0.87242293 2.6927154
1.3727809 0.87592137 2.6983993
2.5799739 0.86547709 2.6685054
2.6201658 0.87894881 2.664216
2.6786652 0.8734917 2.676585
2.7157314 0.86829758 2.6841145
1.2325445 0.92356247 2.6585095
1.272293 0.92802632 2.6741068
1.3190299 0.9215458 2.6832621
1.3568317 0.91451436 2.6910157
2.5823021 0.92622799 2.6837234
2.6191287 0.91861588 2.6597438
2.6931496 0.92672151 2.6882408
2.7150688 0.91950727 2.6799312
1.1980224 0.96997529 2.6515577
1.2255592 0.9751066 2.6583023
1.2744602 0.97804558 2.6722994
1.3287686 0.97503304 2.68732
1.362761 0.96189213 2.6913633
2.5882506 0.9771148 2.6781318
2.6260242 0.97579944 2.6666939
2.6733208 0.96629894 2.671196
2.7315178 0.97116846 2.6935022
1.1920326 1.0473412 2.6542778
1.2265944 1.031732 2.6577251
1.2776819 1.0307335 2.6739125
1.3276664 1.02598 2.6931703
1.3528563 1.0086784 2.6939077
2.578357 1.0301902 2.676764
2.6240878 1.0215358 2.6667728
2.6738746 1.0330461 2.6789572
2.7209504 1.0245336 2.6878645
1.188536 1.0747758 2.6533217
1.2331493 1.0691135 2.6577792
1.2728263 1.0743351 2.6680288
1.3254045 1.075233 2.6886535
1.3632544 1.0676157 2.6996253
2.5864677 1.0763309 2.6772981
2.625241 1.0774798 2.6662469
2.6807876 1.074728 2.67469
2.7426224 1.0682653 2.6971886
1.2220392 1.1248099 2.6588883
1.2778231 1.1255993 2.6754997
1.324155 1.1239194 2.6900663
1.3539083 1.130527 2.6974607
2.5906744 1.1209207 2.6803613
2.6177647 1.1197211 2.6656704
2.6715012 1.1306508 2.6740251
2.7100754 1.1243862 2.6760662
1.1735257 1.1631749 2.6525288
1.2280419 1.174382 2.6632116
1.274466 1.1768335 2.6746721
1.3184874 1.1744072 2.6849387
1.3535855 1.1595987 2.6872535
2.5872016 1.1705871 2.6931655
2.6173961 1.1737671 2.6804283
2.6777647 1.1732426 2.6802082
2.7164102 1.1840928 2.678823
1.1933931 1.2238008 2.6553056
1.2296504 1.2285372 2.6663668
1.2699476 1.2253497 2.6740139
1.3207641 1.2290547 2.6932182
2.5832117 1.2279049 2.6802361
2.6179233 1.2116838 2.6783886
2.6554294 1.2385827 2.6763875
2.7153275 1.21425 2.6839597
1.182917 1.2811829 2.6640997
1.2269222 1.2765493 2.6713364
1.2726004 1.2752235 2.6804979
1.3065692 1.2737269 2.6977875
2.5850406 1.275978 2.6700203
2.6609755 1.276621 2.6673851
2.7101128 1.2737274 2.6904573
1.1404016 1.339927 2.6516778
1.1763812 1.3205378 2.6588821
1.2238598 1.3230777 2.6673496
1.2769493 1.3243736 2.6836357
1.3108838 1.3076339 2.6956725
2.5880823 1.3329952 2.6826656
2.6005058 1.3436388 2.6750264
2.6880245 1.3164877 2.6831112
2.7234578 1.3250582 2.6847589
1.1399447 1.3843892 2.6555274
1.1719602 1.3731639 2.6579466
1.2305783 1.3751552 2.6808288
1.274278 1.3777261 2.6907005
1.3062441 1.3778468 2.699255
2.5920725 1.37502 2.6877329
2.6766596 1.3645195 2.6857305
2.7104442 1.3635702 2.6898146
1.1499484 1.4259453 2.6667626
1.1736841 1.4280504 2.6630497
1.2247796 1.4242166 2.6750381
1.2749045 1.4211861 2.6891053
1.300029 1.447506 2.6983898
2.5914574 1.4196192 2.6917841
2.6128008 1.4242617 2.6665289
2.6965418 1.4469978 2.6727359
1.1280775 1.4783503 2.6601288
1.1716347 1.4773071 2.6660383
1.2254239 1.4659638 2.6816571
1.2698786 1.4776608 2.696696
1.3036522 1.466664 2.6994374
2.5841324 1.4815449 2.6784365
2.6413164 1.4814537 2.6631765
2.6883893 1.4795815 2.6854508
1.089319 1.5365986 2.6570468
1.1305559 1.5147669 2.6577349
1.1731533 1.5307101 2.6714971
1.2245219 1.5221952 2.6872435
1.2652999 1.5193993 2.6966114
2.5904121 1.5369468 2.6853776
2.6795876 1.5173187 2.6689072
1.0814331 1.5745177 2.6530509
1.1200145 1.5768872 2.663938
1.1824262 1.5771011 2.6833444
1.2249923 1.5699539 2.6884453
1.2659559 1.551632 2.6992285
2.5993237 1.5692806 2.6810253
2.6061232 1.5914732 2.678793
2.7214096 1.5620437 2.6871099
1.0823541 1.631902 2.6569521
1.1273856 1.6222042 2.6661417
1.1750288 1.6242765 2.6844552
1.2215456 1.6301001 2.6902845
1.2621462 1.6348677 2.6967883
2.6101542 1.6415123 2.6979399
2.6622417 1.6329362 2.6926625
2.717783 1.6074769 2.6990469
1.0789046 1.6771479 2.6604764
1.120113 1.6760066 2.6664903
1.1732271 1.6752284 2.6828351
1.2220973 1.6795605 2.69223
2.5960383 1.6897607 2.6930003
2.6984687 1.6623507 2.6852536
2.7141895 1.690618 2.6910443
1.048821 1.7422947 2.6645112
1.0817848 1.7204949 2.6639419
1.129665 1.7223214 2.6661093
1.1782198 1.7276237 2.682076
1.2065165 1.7198281 2.6936369
1.2570091 1.7024252 2.6975415
2.6073935 1.724679 2.6897643
1.0489409 1.7652392 2.6526651
1.0780302 1.7681059 2.6650627
1.1216803 1.7692152 2.6695766
1.1725669 1.7644546 2.6820753
1.2139221 1.7536502 2.6979721
2.6037097 1.7713147 2.6996925
0.98223096 1.8354973 2.6587989
1.0283872 1.8228936 2.6652422
1.0803214 1.8342413 2.6842337
1.1057758 1.8397313 2.6906371
2.593894 1.8327436 2.6921556
2.6514187 1.8471247 2.6824317
0.97210723 1.8788847 2.6581619
1.0274472 1.8808019 2.6774487
1.0774351 1.8754491 2.6899986
2.6092162 1.8715333 2.6917052
0.94347978 1.9338484 2.6563616
0.98025978 1.9256198 2.6623588
1.0254751 1.9245439 2.6776979
1.0663996 1.9225843 2.6838691
1.1358877 1.9030142 2.6977949
2.605607 1.9291604 2.6946664
0.94832736 1.967006 2.655947
0.97025758 1.9707315 2.6614182
1.0223314 1.9774827 2.6764593
1.0778105 1.9773492 2.6919127
2.5941129 1.9720906 2.6945066
2.6110439 1.9519653 2.6889236
0.92679393 2.0217834 2.6531372
0.97912872 2.0276561 2.6664598
1.0298529 2.0209315 2.6780403
1.0749317 2.0260375 2.6933966
0.92759103 2.077455 2.6528199
0.97252399 2.0834937 2.6675496
1.0266273 2.0747254 2.6844544
1.0773543 2.0726757 2.6940691
0.92276984 2.1341059 2.6528349
0.97823745 2.1329198 2.6726329
1.0270039 2.1205285 2.6830626
1.0629077 2.1347198 2.6983061
0.89193636 2.15731 2.650099
0.93342072 2.1667528 2.6588349
0.97215325 2.172477 2.6685383
1.0221484 2.1744161 2.6831098
1.0673518 2.1762495 2.6988761
2.6254582 2.1988609 2.6873047
2.6585934 2.191025 2.6988695
0.88350153 2.2075987 2.6547089
0.93179959 2.2157004 2.6621978
0.97835439 2.2248566 2.672648
1.0281397 2.2218766 2.6890574
1.051995 2.2277017 2.6959786
2.6242733 2.2253067 2.6907682
2.6670666 2.2174771 2.6948104
1.0324101 2.2713909 2.693552
1.0626906 2.2606776 2.6917095
2.6316209 2.2690337 2.6964173
2.6775489 2.2833509 2.6907005
2.5975289 2.341511 2.6851492
2.6308315 2.3256254 2.6803348
2.6730597 2.3182614 2.6681941
2.7403622 2.3291996 2.6743507
2.7679501 2.3159761 2.6795571
2.6298509 2.3825021 2.6635127
1.6350814 2.4474483 2.6772454
2.6159532 2.4283535 2.674962
1.6830587 2.4658744 2.6780183
1.7352026 2.4766288 2.6647341
1.7753569 2.4771698 2.6838486
1.8210005 2.4778683 2.6583028
1.8665714 2.4889233 2.6795793
1.9267342 2.4927399 2.670202
1.9717975 2.4954121 2.6788847
2.0176458 2.4971681 2.6746583
2.470526 2.4972253 2.6681862
2.5299044 2.4880972 2.6746433
2.5819135 2.4728191 2.6820734
2.6058531 2.4654655 2.6608732
2.0268838 2.5064943 2.6614354
2.0807879 2.5082045 2.6737206
2.1214504 2.5069771 2.6751528
2.1749825 2.5087318 2.6758046
2.2271121 2.5093591 2.6691973
2.2748861 2.5116601 2.6870465
2.3246529 2.5044973 2.6758094
2.3697228 2.5017452 2.651382
2.4270477 2.5120044 2.6766739
1.4899067 -0.12892269 2.7435808
1.5781523 -0.10075729 2.7279205
1.3342807 -0.069336936 2.702044
1.378124 -0.074618444 2.7140427
1.4254714 -0.075452566 2.7334006
1.4702886 -0.073725499 2.7461932
1.5189395 -0.086259283 2.749727
1.5723959 -0.071647204 2.7186
1.3341029 -0.041538261 2.7054076
1.3764646 -0.038344152 2.7158809
1.4366957 -0.037660249 2.7374179
1.4852474 -0.037007254 2.7465162
1.334404 0.016500419 2.7060955
1.3605636 0.014245492 2.7091916
1.4735107 0.036147222 2.7472847
1.5362328 0.00033478535 2.7498932
1.5660559 0.022028057 2.7289457
1.3435051 0.084011748 2.7070649
1.3640817 0.084426992 2.7152438
1.4659193 0.057650898 2.7490411
1.5499768 0.071936674 2.7105622
1.5646961 0.068660468 2.7207532
2.4957042 0.16597503 2.7053823
2.5310211 0.1844625 2.7270987
1.3800581 0.23906486 2.7072136
1.4298487 0.24275984 2.7382419
1.4668669 0.24418743 2.7432058
2.5378158 0.21839853 2.7321994
2.7446642 0.22525796 2.707006
1.33461 0.27277172 2.7048399
1.3758523 0.27758315 2.7181156
1.4240378 0.27582845 2.7356524
1.4553257 0.2725102 2.7411778
2.5410893 0.26912168 2.734936
2.551151 0.26911902 2.7269185
1.3323292 0.31997475 2.7047925
1.3791207 0.32749465 2.7221794
1.4237938 0.32857406 2.7364035
1.4585571 0.32723522 2.7455986
1.6785086 0.3236239 2.7284422
2.5371625 0.31867212 2.7228553
1.3301668 0.37500709 2.7097232
1.376464 0.37536108 2.7219017
1.4245156 0.36910155 2.7373741
1.4762068 0.37568575 2.7498546
2.5424423 0.36604777 2.7313566
2.5524888 0.37825304 2.7170169
1.3281636 0.42619416 2.7081449
1.3723639 0.4228434 2.7181962
1.4233414 0.42843407 2.7383108
1.4576676 0.42501605 2.7423387
2.5478623 0.41239089 2.7235837
2.5506299 0.43805605 2.723124
1.3286602 0.47433358 2.7078991
1.3738374 0.47600189 2.7220235
1.420433 0.47137675 2.7353358
2.5421147 0.47625732 2.7369568
2.5580771 0.47150841 2.7103164
1.295657 0.5269537 2.7073622
1.3244773 0.5261516 2.7067306
1.3733976 0.52464879 2.7218754
1.4213859 0.51961529 2.7392468
2.5433011 0.50716913 2.7366738
2.5559297 0.52322149 2.7157602
1.2977283 0.59110945 2.7021811
1.3272432 0.57734656 2.7088425
1.3713503 0.57364547 2.7236681
1.4239116 0.57709026 2.7400627
1.4536035 0.58757126 2.7458618
2.5495384 0.577986 2.7476406
2.5583637 0.57620209 2.7252572
1.3340245 0.6089164 2.7065082
1.375556 0.62744737 2.7114701
1.4260877 0.63355082 2.7236664
1.480109 0.62642837 2.7343254
1.5249777 0.63108182 2.733496
1.5778567 0.63542503 2.7368858
1.6327578 0.63420874 2.7472649
1.6627676 0.64024884 2.7384958
2.5490189 0.63726735 2.7356086
2.5575485 0.62351769 2.723392
1.3844615 0.66931123 2.7102451
1.4266359 0.67580068 2.7213223
1.4721783 0.6765241 2.7295222
1.5210203 0.67049634 2.7298193
1.5693879 0.67879122 2.7413054
1.6093637 0.65749282 2.7455676
2.5447755 0.68086576 2.7380846
2.5602441 0.68340683 2.718756
1.385878 0.72592741 2.7093339
1.4270821 0.72292328 2.7205601
1.4771932 0.72985923 2.7320871
1.5212721 0.72354668 2.7351596
1.5537462 0.7163806 2.7444024
2.5602949 0.7271803 2.7121611
1.3841444 0.7768836 2.7092435
1.423381 0.77225393 2.7242234
1.4752721 0.77528948 2.7419612
1.5135274 0.78108335 2.7401822
2.5496686 0.76984823 2.7397249
2.5553207 0.76848733 2.7264795
1.3939579 0.83310008 2.7172794
1.4220314 0.82959229 2.7226207
1.4709843 0.82581484 2.7374389
1.5241312 0.82511657 2.7433336
1.5507547 0.83343834 2.7478096
1.6659954 0.80913877 2.7259037
2.5609365 0.82201248 2.7226036
1.3400872 0.87698531 2.7006125
1.3800662 0.87664211 2.7084939
1.4254028 0.87528998 2.718724
1.4758604 0.87633163 2.7317712
1.5238878 0.87545729 2.7384479
1.5549096 0.86551005 2.7481136
2.5468893 0.86010927 2.7467723
2.5647397 0.87836772 2.7188115
1.3820491 0.92898607 2.7048054
1.4287196 0.92531794 2.7207444
1.4720713 0.93014026 2.7284517
1.5173396 0.92517841 2.7408142
2.5626736 0.92742711 2.7255416
1.3851768 0.98095435 2.7068188
1.4154898 0.97089833 2.7122378
1.4667845 0.97518271 2.7282162
1.5222557 0.96869707 2.7389605
1.5607461 0.97827137 2.7477517
2.5672326 0.97178906 2.724221
1.305971 1.0133038 2.701076
1.3848766 1.0279415 2.7101653
1.4311081 1.0230006 2.7199779
1.4803922 1.0256644 2.7291307
1.5153865 1.0032204 2.741595
1.5589234 1.027173 2.7483547
2.5687628 1.0235778 2.7233155
1.3465465 1.051353 2.7053661
1.3793821 1.068235 2.7033031
1.4302247 1.0771809 2.7233465
1.4775782 1.0777783 2.7345726
1.5154134 1.0684109 2.7408164
2.5701559 1.0797645 2.7234824
1.3804339 1.1241735 2.7091444
1.4255538 1.1244993 2.7229891
1.4722248 1.1238519 2.7324226
1.5007808 1.1496972 2.7412865
2.5729501 1.1285474 2.7201738
1.3487046 1.1976445 2.7026284
1.3800657 1.1764743 2.7121062
1.4214497 1.1726006 2.7230411
1.4703878 1.1778253 2.7379301
1.5110098 1.1879946 2.7498257
2.5677133 1.1778375 2.7281868
1.375136 1.2229788 2.7095771
1.4241405 1.2254614 2.7248716
1.4742901 1.2243024 2.7415466
2.5673103 1.2230911 2.720525
2.7201247 1.2293746 2.7017643
1.334718 1.2778467 2.7060421
1.375873 1.2700369 2.7109699
1.422863 1.2689296 2.7183452
1.4700667 1.2812662 2.7398903
2.5865767 1.2835507 2.732542
1.3324612 1.3262178 2.7073941
1.3698946 1.3304402 2.7200427
1.420362 1.3258414 2.7348402
1.4766494 1.3275898 2.74353
1.509876 1.3068005 2.7438219
2.5861955 1.3188819 2.7271702
1.3239878 1.3707356 2.703109
1.3697995 1.3791485 2.718837
1.4209207 1.373955 2.734242
1.4733588 1.3623315 2.7430816
2.5823171 1.3777153 2.7267337
1.3283321 1.424868 2.709028
1.3720398 1.4272283 2.725858
1.4189777 1.4284925 2.7375491
1.4566294 1.4224596 2.7430258
2.5893157 1.4281787 2.7231655
1.2827386 1.4838028 2.7051611
1.3350868 1.4687524 2.7116554
1.3771988 1.475086 2.7210224
1.4211434 1.4730184 2.7359812
1.4592279 1.4714938 2.7494698
2.5941095 1.4761052 2.7198303
2.6019542 1.4805827 2.7281098
1.2899052 1.5226002 2.706816
1.3268241 1.5206791 2.7221456
1.3717436 1.5223875 2.7185481
1.428978 1.5283805 2.7352269
2.5915945 1.5211644 2.7337716
1.2791443 1.5819432 2.7049854
1.3272123 1.5705029 2.7192016
1.3809994 1.5800104 2.7321129
1.4081743 1.568734 2.7372756
2.592144 1.5722705 2.7290087
1.2342514 1.6131243 2.7021098
1.2808309 1.6198838 2.7072887
1.3245726 1.6288819 2.7175922
1.3732489 1.6198535 2.7317419
1.4115231 1.6206076 2.7437549
2.5936406 1.6060514 2.7338037
2.6029766 1.6165222 2.7145481
1.2758049 1.6783847 2.7130229
1.3286722 1.675333 2.7230439
1.3669771 1.6746089 2.7292576
1.4009376 1.699266 2.7480443
2.5924711 1.6688552 2.7296543
2.6094294 1.6525588 2.7313962
1.2345825 1.7277604 2.7038586
1.2796127 1.729737 2.7173967
1.3221179 1.7278436 2.7272322
1.3517185 1.7448364 2.7398288
2.5957112 1.7270182 2.7267091
1.2316393 1.7746334 2.7047768
1.2774138 1.7665875 2.7118821
1.3291968 1.7693917 2.7314441
1.3619666 1.7820648 2.7478743
2.5973437 1.7610037 2.7378738
2.6068637 1.7776808 2.714402
1.1360043 1.8432274 2.7035787
1.1690603 1.8304682 2.7055969
1.2148989 1.8348327 2.7232757
1.2655774 1.834785 2.7375405
2.5929704 1.8107491 2.7244959
2.6059942 1.8040799 2.7260814
1.1277961 1.8772907 2.7048485
1.1691738 1.8718468 2.7105558
1.2215211 1.8787491 2.7328715
1.2696279 1.8778276 2.7434213
2.6072104 1.8741034 2.7297199
1.0907273 1.9380207 2.7003002
1.1215304 1.9264715 2.7058423
1.1782204 1.925126 2.7187045
1.2265718 1.9247471 2.7360861
1.26123 1.9268634 2.7446103
1.317356 1.9302014 2.7466285
2.5992818 1.9007014 2.7452977
2.606077 1.9262384 2.7258282
1.1252183 1.9728642 2.7088976
1.1715078 1.9796607 2.7242999
1.2322016 1.9696394 2.7416289
1.2653438 1.9574115 2.7392163
2.603518 1.9769958 2.7275095
1.1268038 2.0244398 2.7132847
1.1802323 2.0235705 2.7267239
1.2264454 2.033947 2.741909
2.6073489 2.0251665 2.7256353
1.0801691 2.0728223 2.7045689
1.1274499 2.0778928 2.7131579
1.167847 2.0739548 2.7218676
1.2197548 2.0669069 2.7391479
2.6084757 2.071595 2.7203817
2.7040322 2.0843589 2.7016375
1.0839363 2.1281917 2.7045338
1.1222656 2.1192737 2.7156463
1.1765078 2.1244533 2.7299745
1.2145073 2.1087413 2.7456563
2.610775 2.1271794 2.7334743
2.7298098 2.1334996 2.7090712
1.0890744 2.1708441 2.7067268
1.1252006 2.1746747 2.7167861
1.1783818 2.1701965 2.7378953
1.220588 2.174551 2.7415099
2.597137 2.1880813 2.740813
2.6074085 2.1717188 2.710613
2.7163482 2.1772578 2.7059085
1.0816844 2.230108 2.7062223
1.1233433 2.2283037 2.7180526
1.1694971 2.2289417 2.7314384
1.2119522 2.2319579 2.7496212
2.5947495 2.2054322 2.725539
2.6015401 2.2306187 2.719811
2.7233067 2.2300098 2.7051492
1.0907742 2.2821229 2.7052441
1.1288842 2.2754016 2.7173531
1.1811651 2.2744248 2.7285378
1.2278831 2.27109 2.7453985
1.2557905 2.2673562 2.7473118
2.6097946 2.2753954 2.7266068
2.6945939 2.2600353 2.7097771
2.7270799 2.2707834 2.7072341
1.1255573 2.3106215 2.7140872
1.1754943 2.318305 2.7237935
1.2234855 2.3261092 2.7460473
1.2616992 2.3448381 2.7448854
2.597554 2.3296742 2.740458
2.6061735 2.3198934 2.7140698
2.7395411 2.3010154 2.7066689
1.2270541 2.3611293 2.7446475
1.2774951 2.3754301 2.7441218
1.3181269 2.386754 2.7429519
2.6143005 2.3816323 2.7169828
1.3725215 2.4063671 2.7467647
1.4488384 2.4321542 2.7484369
1.475305 2.4322085 2.7360892
1.5173032 2.4431963 2.7314367
1.56059 2.4417453 2.7078369
2.5902176 2.4483516 2.742552
2.6044672 2.4186425 2.7268896
1.5758526 2.4566324 2.7412643
1.6215304 2.4582412 2.7201333
1.6781832 2.462451 2.7265267
1.7333602 2.4725556 2.7215405
1.7852883 2.475107 2.7308743
1.8286703 2.4856296 2.7289059
1.8722587 2.485744 2.72474
1.9177579 2.4886971 2.7308977
1.9758501 2.4936543 2.7174661
2.0286119 2.4942124 2.7296383
2.0851998 2.4983969 2.7454665
2.3064899 2.497129 2.735491
2.4385591 2.4947293 2.7359278
2.4685893 2.4953971 2.7155619
2.5271111 2.4914341 2.732866
2.5717781 2.4698992 2.7281501
1.9486718 2.501241 2.7024212
2.0202928 2.5026915 2.703867
2.0842395 2.504842 2.7110889
2.1287735 2.5052197 2.7281959
2.1827471 2.5046952 2.7378943
2.2248719 2.509186 2.7170231
2.2799149 2.5085366 2.7255938
2.3417933 2.5143034 2.7407677
2.3758745 2.5095456 2.724808
2.4168024 2.5119059 2.7162495
2.5149236 2.5023811 2.7197797
1.4815992 -0.11004864 2.7556727
1.5250587 -0.11364018 2.7559843
1.5589166 -0.11591461 2.7567666
1.6758202 -0.13396722 2.7988098
1.4865327 -0.086067259 2.7546663
1.5221751 -0.070173264 2.7557774
1.5631056 -0.072547905 2.7652347
1.6566273 -0.074070491 2.7998304
1.4662412 -0.028372724 2.7500489
1.5334566 -0.03591156 2.7606864
1.5583953 -0.043246534 2.7573445
1.4742121 0.024236852 2.7540538
1.5214177 0.024006313 2.757864
1.5605924 0.022146348 2.761297
1.4752712 0.062636338 2.7555552
1.5258757 0.072829157 2.7623301
1.5595665 0.06577687 2.7589891
2.5197909 0.18544295 2.7618835
1.4909043 0.24579179 2.755487
1.5292759 0.24198112 2.7677848
1.5742369 0.23886526 2.7777376
1.6157162 0.23592073 2.7706704
2.5202615 0.21975751 2.775964
1.4872665 0.27794242 2.759449
1.5246181 0.27686325 2.7666013
1.5730654 0.27557945 2.7823105
1.6105554 0.26966947 2.7881298
2.5247509 0.27073523 2.7770493
1.4837177 0.32381713 2.7564254
1.5276729 0.32119033 2.76863
1.5713731 0.3242003 2.782346
1.6147327 0.32703444 2.7939701
1.6969451 0.34203276 2.7570343
1.7019025 0.31599411 2.7991579
2.5293658 0.3218981 2.7774427
1.4471532 0.39006272 2.7592318
1.4763744 0.37417603 2.7549293
1.5274988 0.3751916 2.7686796
1.5746078 0.37650201 2.7832091
1.6148399 0.36721286 2.7958145
1.723683 0.37760401 2.7974682
2.5309141 0.37280914 2.7736337
1.4446819 0.40380862 2.7529933
1.4756383 0.42338139 2.756825
1.5247929 0.42451224 2.7693295
1.5811781 0.42992267 2.7892418
1.6133252 0.41767889 2.7987537
1.7135522 0.41286162 2.7769754
2.5337868 0.42401013 2.7704613
1.4489878 0.49174413 2.750802
1.4797474 0.47576663 2.7592709
1.525813 0.47398472 2.7718768
1.5741578 0.47371021 2.7821977
1.611246 0.48811027 2.7974131
1.69462 0.4986186 2.7988572
1.7019976 0.48134524 2.7812986
2.5340071 0.47137725 2.7721374
1.4355249 0.54993963 2.7501767
1.4742664 0.52567267 2.7570019
1.5280546 0.52527022 2.7720201
1.5759225 0.52378529 2.7882679
1.6193631 0.52996194 2.7950475
1.6700439 0.5269953 2.7936268
2.5347958 0.53007627 2.776
1.4794039 0.57344925 2.7572632
1.5294181 0.57527173 2.7743378
1.5718884 0.5800795 2.7851412
1.6201603 0.57457 2.7897291
2.5340602 0.58024907 2.7787046
2.5501246 0.56114119 2.7513304
1.4152908 0.60841703 2.7522438
1.4579962 0.61116701 2.7506337
1.5347525 0.61130625 2.7617762
1.5766542 0.61355698 2.7650633
1.6233253 0.61238438 2.772815
2.5400558 0.62900925 2.773066
1.5919154 0.69803351 2.7508976
1.6291461 0.67516607 2.7553284
1.6770757 0.67880744 2.7723432
1.7176772 0.68344367 2.7656734
2.5387001 0.66779631 2.7752135
2.5512333 0.68481851 2.7611072
1.5794353 0.72878599 2.755563
1.6256211 0.72605604 2.7683353
1.6773955 0.72605652 2.773237
1.7041777 0.71086335 2.763298
2.5464811 0.72129571 2.7725298
2.5546029 0.73709148 2.7532201
1.4758629 0.79535413 2.7505634
1.5469373 0.77202016 2.7542212
1.5749711 0.7748912 2.7547281
1.6290108 0.77543914 2.768394
1.6760349 0.77227432 2.7683537
2.5418239 0.77524394 2.7796109
1.5758642 0.82012612 2.7577741
1.6221826 0.83228481 2.7676749
1.6660742 0.81647938 2.7674847
2.545013 0.82847404 2.7733507
2.5536382 0.82792205 2.7632656
1.5728807 0.87048894 2.7599757
1.6253922 0.87944859 2.7721179
1.673913 0.8698979 2.7761259
2.5410366 0.8755399 2.7868059
2.5573416 0.88089788 2.7532735
1.5456764 0.92111206 2.7516294
1.5748788 0.92249316 2.7567842
1.6184568 0.92530555 2.7651994
1.6686052 0.92661822 2.7781806
2.5416381 0.91906148 2.77526
1.5836141 0.97500581 2.7604713
1.6309513 0.97830266 2.7743061
1.6748378 0.97846788 2.7844265
2.5442603 0.97536975 2.7789991
2.5531638 0.97215241 2.7558959
1.535517 1.028674 2.7525578
1.5752299 1.022818 2.7595954
1.6208553 1.0274466 2.7772026
1.6721328 1.0216042 2.791029
1.7226796 1.0294976 2.7945609
1.755348 1.0326666 2.789727
2.544415 1.0259361 2.7984912
2.5560708 1.0260751 2.7632978
1.5427492 1.0770359 2.75633
1.5771255 1.0769565 2.7638581
1.6303537 1.0776354 2.7840495
1.6730297 1.0728952 2.7931499
1.7125279 1.0684357 2.7974446
2.5470867 1.0620961 2.7899792
2.5548193 1.0809273 2.769454
1.5356741 1.1284379 2.7632182
1.5762026 1.1223273 2.7680411
1.6277153 1.124312 2.7790644
1.67786 1.1282372 2.7904065
1.7199672 1.1498538 2.7975793
2.5581875 1.1218379 2.7688835
1.5265286 1.1759331 2.7573624
1.5722934 1.1691502 2.7674305
1.6210884 1.1804539 2.7788706
1.6761781 1.1736199 2.7921546
1.7051175 1.1819633 2.7962317
2.5497074 1.1501204 2.7987165
2.5544803 1.1748102 2.7775626
1.5262859 1.2294196 2.7562909
1.5723578 1.2213563 2.7688007
1.6263263 1.2228436 2.7885482
1.6633632 1.2195764 2.7975791
2.5493109 1.2029964 2.7786703
2.5627658 1.2361304 2.7707233
1.520182 1.2782714 2.7566082
1.57382 1.2751215 2.7718463
1.6298064 1.2730092 2.7890837
2.5639944 1.2722149 2.7702999
1.5377688 1.3323468 2.7671273
1.5738796 1.3266137 2.7763615
1.619174 1.3243371 2.7875433
2.5691223 1.3238859 2.7743123
1.4809893 1.3923417 2.7583482
1.5324725 1.3731899 2.766659
1.5874974 1.3737288 2.7892647
1.6232359 1.377785 2.7949009
2.573041 1.375486 2.7764044
1.4818479 1.4318724 2.7545903
1.5213829 1.429221 2.7675104
1.5745161 1.4283683 2.7939487
2.572098 1.4248427 2.7723913
1.4848424 1.4815477 2.7543688
1.5234646 1.470347 2.7616997
1.5701084 1.4793074 2.7837698
1.6002816 1.4532657 2.7974863
2.5868688 1.4783604 2.7674859
1.4734435 1.5171882 2.7552407
1.5153403 1.5278398 2.7607143
1.5766762 1.5200357 2.7873843
2.5797298 1.5254753 2.7707686
1.4357402 1.5819294 2.7536809
1.477469 1.5771586 2.7667503
1.5232043 1.5837955 2.7820401
2.5786388 1.5796268 2.7825823
1.4319109 1.6348562 2.764663
1.4693023 1.6226135 2.770633
1.5242261 1.6254537 2.7870841
2.5838733 1.6262395 2.7703896
1.3997573 1.6819613 2.7537241
1.4267969 1.6699224 2.7578974
1.4801217 1.6723585 2.7802613
1.5309836 1.673543 2.793169
2.5827723 1.6803637 2.7712045
1.3879534 1.7359649 2.7594841
1.4323016 1.7218779 2.7692106
1.4721411 1.7274883 2.7811382
2.5902946 1.7284513 2.7768424
1.3838952 1.7737118 2.7617121
1.4255489 1.7749077 2.7724857
1.4791093 1.7772745 2.7869802
1.5272619 1.7532187 2.7995901
2.5834341 1.7797945 2.770155
1.3257625 1.8462138 2.7653785
1.3785089 1.8468294 2.7832632
1.4410529 1.8296359 2.7836487
2.584846 1.8321635 2.7780607
2.6058462 1.8356349 2.7500701
1.327341 1.8740666 2.7650564
1.3773798 1.8796616 2.7773795
1.4229228 1.8542405 2.7975888
2.58969 1.8723263 2.7692449
1.2885773 1.927585 2.7535274
1.3268588 1.9218084 2.7657323
1.373703 1.9291826 2.7845402
1.4061949 1.9142095 2.7959573
2.5867887 1.9217498 2.779242
1.2838271 1.9815848 2.7535043
1.3228014 1.9747341 2.7635899
1.373665 1.9723809 2.7877381
1.4023051 1.9815415 2.7990892
2.5914819 1.979895 2.7733791
2.6018167 1.9638453 2.7548034
1.2441907 2.0160005 2.7517443
1.274085 2.0246005 2.7540045
1.3224862 2.0229537 2.7726383
1.3792583 2.01913 2.7830467
1.4067428 2.0128865 2.7927928
2.5921786 2.0220518 2.7783518
1.2419013 2.0968282 2.7530024
1.272005 2.0790284 2.762099
1.3265412 2.0812497 2.7831907
1.3696396 2.0699778 2.7886367
2.5864282 2.0652714 2.7799492
2.6012719 2.0983362 2.759676
1.2312284 2.1344445 2.7542903
1.2742894 2.1310318 2.7638307
1.3200788 2.1214008 2.7785187
1.3603698 2.1336117 2.7873366
2.585614 2.1307025 2.7780738
1.270779 2.1714144 2.7583754
1.3229944 2.1791511 2.7796926
1.3724265 2.1679723 2.7919807
2.5978925 2.1855731 2.7901413
2.6016634 2.1724815 2.7582979
1.237307 2.2261569 2.7554884
1.2750661 2.2283101 2.7631688
1.3227227 2.2296345 2.7753623
1.3741853 2.2185264 2.7933805
2.585108 2.2303853 2.7866888
2.6025808 2.2286494 2.7693818
1.2809564 2.2778151 2.761312
1.3269563 2.2782385 2.7708464
1.377283 2.2720571 2.7968705
2.5919631 2.2657721 2.7743859
1.2485147 2.3191159 2.7507429
1.2815061 2.3217394 2.7533853
1.3227091 2.3276792 2.7694712
1.3754396 2.3238506 2.7854402
1.4170771 2.3207653 2.79462
2.5927627 2.3141243 2.7749293
1.2988784 2.3658545 2.7590039
1.3336407 2.370712 2.76371
1.3748913 2.3755593 2.7779408
1.4161714 2.3794889 2.7909172
1.4641175 2.3897839 2.7970357
2.5916929 2.3899298 2.7857382
2.6056662 2.3746023 2.7713566
1.3458492 2.4054193 2.7570155
1.3901193 2.4043043 2.774034
1.4231073 2.4161713 2.7684064
1.4758763 2.4210985 2.7782345
1.5293503 2.4357522 2.7739239
1.5709214 2.4449754 2.7668223
2.585444 2.4233031 2.7763724
1.6240559 2.462333 2.7854171
1.6628094 2.4571157 2.7780366
1.722155 2.462924 2.775651
1.7742395 2.4680037 2.7755952
1.8200262 2.4712632 2.7759008
1.8746834 2.4801209 2.7751815
1.9277 2.4847877 2.7771599
1.982482 2.4927113 2.7712076
2.022284 2.4907007 2.7730496
2.0733542 2.4926195 2.7779977
2.130512 2.4913976 2.7969577
2.1541774 2.4966609 2.7902875
2.2257369 2.4931788 2.7840116
2.2888572 2.4930363 2.7728348
2.3835769 2.4986982 2.7821646
2.4320755 2.4983225 2.7720799
2.4605327 2.4973643 2.7750342
2.5225694 2.4899108 2.7800941
2.5690713 2.4664237 2.7752659
2.1326962 2.5019286 2.7664406
2.1831882 2.5070207 2.7728291
2.2299063 2.5063848 2.756104
2.2724714 2.5021939 2.7677557
2.3426592 2.5166025 2.793097
2.3645785 2.5055556 2.7747624
2.4084761 2.5041852 2.7743464
2.4890544 2.5061834 2.7705426
1.6727234 -0.11646231 2.8131819
1.720875 -0.12255061 2.8194356
1.7767141 -0.11964661 2.8375304
1.8224304 -0.12253881 2.8375342
1.6762136 -0.074518964 2.8136916
1.718936 -0.075155124 2.8242958
1.775226 -0.075918466 2.8362446
1.8245922 -0.076360732 2.8353567
1.6723146 -0.029544272 2.8109035
1.7206715 -0.02761996 2.8209167
1.772566 -0.030079095 2.8378897
1.8212029 -0.032237753 2.842443
1.6725268 0.022835596 2.8112235
1.7206715 0.020540576 2.8223891
1.7755493 0.027939811 2.8373165
1.8231062 0.020963864 2.838877
1.7190408 0.075971328 2.82429
1.7736377 0.078716703 2.8374655
2.4893627 0.23759669 2.8194797
2.5076754 0.2377501 2.8083341
1.6339937 0.28017443 2.807085
1.6558958 0.28988403 2.8091118
2.4911842 0.26830912 2.8351512
2.5089424 0.27643621 2.8146796
1.6475855 0.32914975 2.8023388
1.6803979 0.32371703 2.8103967
1.705559 0.33927375 2.8031511
2.5111592 0.32388094 2.8208447
1.6265377 0.37870726 2.8043137
1.6756006 0.37694311 2.8132896
1.7115861 0.37824765 2.8093662
2.5146909 0.3753942 2.8193665
1.6273456 0.42435887 2.8062229
1.6782923 0.4228026 2.8129511
1.7139355 0.42418596 2.8082769
2.5128081 0.42936122 2.8227477
1.6351917 0.47124162 2.8045316
1.6782802 0.473937 2.8097134
1.7159388 0.46255505 2.8070073
2.5158479 0.48111677 2.8190494
1.6411487 0.51865733 2.8021107
1.66958 0.51296723 2.80302
2.5153744 0.52854383 2.8283656
1.5878727 0.55333143 2.8016756
2.5148678 0.57031769 2.8273771
2.520756 0.6193822 2.822032
2.520843 0.66947591 2.8193862
2.5256426 0.72635353 2.8224516
2.5211172 0.77943516 2.8217487
2.52812 0.82961428 2.8143067
2.5251107 0.871795 2.8288708
2.528115 0.92963374 2.8217585
2.535008 0.97767341 2.8160424
1.7032006 1.037274 2.801723
2.5320058 1.0255576 2.8328917
