ply
format ascii 1.0
comment PCL generated
element vertex 1437
property float x
property float y
property float z
element camera 0
property float view_px
property float view_py
property float view_pz
property float x_axisx
property float x_axisy
property float x_axisz
property float y_axisx
property float y_axisy
property float y_axisz
property float z_axisx
property float z_axisy
property float z_axisz
property float focal
property float scalex
property float scaley
property float centerx
property float centery
property int viewportx
property int viewporty
property float k1
property float k2
end_header
-0.69348031 0.013397258 0.79071742
-0.75691265 0.084070064 0.75866991
-0.73246288 0.071656428 0.77977598
-0.76942229 0.12798314 0.77201879
-0.74349266 0.11180736 0.79053646
-0.8156637 0.17682013 0.76605332
-0.78616697 0.1646924 0.78054792
-0.41389009 -0.4761022 0.82167596
-0.37558091 -0.48026425 0.82459986
-0.32503241 -0.48044977 0.82597983
-0.27465943 -0.48026234 0.82446945
-0.22427003 -0.47994998 0.82399386
-0.17230514 -0.46482676 0.82066512
-0.12755901 -0.4750036 0.82314104
-0.074267678 -0.4786773 0.8258068
-0.025484877 -0.47960982 0.82508636
0.02508078 -0.48010838 0.82367241
0.075314261 -0.4801183 0.82652009
0.12406466 -0.48057839 0.82375461
0.1749389 -0.47975236 0.82500923
0.22473811 -0.47847423 0.82443273
0.27480796 -0.47643584 0.82393146
0.32398537 -0.47420883 0.82421494
0.37475282 -0.47114456 0.82352215
0.42444628 -0.46944168 0.82572246
0.47389221 -0.46774912 0.82431793
0.52524793 -0.4668197 0.82267213
0.5741365 -0.46641546 0.8255465
0.62514508 -0.46618059 0.82408875
0.67525488 -0.46816278 0.82449836
0.7264235 -0.46949103 0.82506698
0.77429247 -0.47020322 0.82238322
0.82151669 -0.46978924 0.82788813
0.87621385 -0.47026616 0.82577962
0.92525846 -0.46897858 0.8261652
0.97616386 -0.4702231 0.82303512
1.025965 -0.46885413 0.82693207
1.0696658 -0.46725249 0.83629024
1.1077528 -0.46673602 0.84638393
-0.17876288 -0.43914965 0.8410247
-0.14923187 -0.4420929 0.84270889
-0.16833942 -0.31740993 0.829494
-0.14226812 -0.30995801 0.83716327
-0.16314504 -0.27503294 0.81631696
-0.13379656 -0.27482784 0.83518815
-0.1634513 -0.22415119 0.81513911
-0.13396677 -0.22492038 0.83433884
-0.16201741 -0.17453441 0.81435043
-0.13254516 -0.17518975 0.83356851
-0.16282688 -0.12544422 0.81386358
-0.12986004 -0.12389205 0.83283049
-0.65036917 -0.055629212 0.80149436
-0.6232971 -0.070774369 0.82412428
-0.59390354 -0.086858407 0.84663212
-0.16522066 -0.094488747 0.82780588
-0.12739211 -0.092740022 0.83286548
-0.65982962 -0.020966349 0.81024176
-0.63640916 -0.028947951 0.83308089
-0.70209765 0.045709133 0.80090451
-0.67218506 0.025901023 0.82311159
-0.64466709 0.008429056 0.84275138
-0.71049643 0.082072869 0.8128233
-0.68548054 0.071073659 0.83352721
-0.75215971 0.14157727 0.80106103
-0.72364134 0.12480764 0.82359987
-0.69644356 0.10910883 0.84452927
-0.7656399 0.17183766 0.81663221
-0.73724157 0.16273512 0.83543903
-0.40316197 -0.47596931 0.85417932
-0.37617359 -0.47742885 0.87492728
-0.32537529 -0.47971243 0.87409854
-0.27492085 -0.47975448 0.8755253
-0.2273939 -0.47882122 0.87170631
-0.17126884 -0.45114103 0.85381979
-0.12579949 -0.47458419 0.87436122
-0.075114317 -0.47705236 0.87512875
-0.025438966 -0.47747326 0.87445295
0.023370836 -0.47820723 0.87574518
0.074789211 -0.47834119 0.87732786
0.12495468 -0.47862238 0.87423819
0.17414983 -0.47852287 0.8761785
0.22580427 -0.47770855 0.87307459
0.2744109 -0.47726151 0.87367654
0.32464197 -0.47507334 0.87413597
0.3737241 -0.4714542 0.87363696
0.42439491 -0.46876067 0.87547696
0.47426635 -0.46719459 0.87433618
0.52524865 -0.46575433 0.87414825
0.57675868 -0.46413559 0.87393218
0.62428182 -0.46383232 0.87664187
0.67468196 -0.46559799 0.87438977
0.72334796 -0.4667334 0.87478453
0.7728824 -0.46700212 0.87112701
0.82565898 -0.46768719 0.87525284
0.87339711 -0.46811989 0.87525004
0.92674327 -0.46817917 0.8762157
0.97774792 -0.46738908 0.87556779
1.0296462 -0.46829376 0.87498569
1.073284 -0.46540114 0.87922627
1.1211737 -0.46460611 0.87684011
1.1695919 -0.46626252 0.89108646
-0.20097135 -0.41162768 0.86604339
-0.17569742 -0.42231673 0.87016654
-0.21135108 -0.3767696 0.88159508
-0.18042964 -0.38361794 0.88991243
-0.17218751 -0.33564475 0.8537603
-0.12480362 -0.31383973 0.86143267
-0.085443221 -0.3060827 0.88639241
-0.10901295 -0.27401426 0.85745937
-0.081314616 -0.2745752 0.88286835
-0.1078488 -0.22488816 0.85793191
-0.080485493 -0.22482681 0.8826496
-0.10876945 -0.17456186 0.85517299
-0.081107333 -0.17469822 0.88067168
-0.10577584 -0.12956022 0.85514158
-0.079518862 -0.12477513 0.87941653
-0.60290146 -0.056836855 0.85543197
-0.57807648 -0.072294816 0.87550503
-0.5426361 -0.090909347 0.89344102
-0.2112273 -0.090967491 0.88904566
-0.17709975 -0.089435577 0.86463362
-0.10686745 -0.086523429 0.86319935
-0.077391788 -0.090268217 0.87936008
-0.61345488 -0.022504246 0.86448359
-0.58814394 -0.031487163 0.88665831
-0.65279043 0.043968182 0.85515505
-0.62617445 0.023577824 0.8758291
-0.59731877 0.00015558527 0.89819026
-0.663288 0.079436243 0.86592221
-0.63976115 0.069427505 0.88870984
-0.70525891 0.14017838 0.85396296
-0.67748278 0.12365896 0.87706673
-0.64790034 0.10335675 0.8975122
-0.7168662 0.17239298 0.86895037
-0.69140428 0.16297196 0.88826609
-0.3639566 -0.47466394 0.92370707
-0.32550409 -0.47892645 0.92500365
-0.27457893 -0.47864714 0.92332858
-0.23555332 -0.47721153 0.9220376
-0.15196639 -0.46592847 0.93007225
-0.12422699 -0.476477 0.92600018
-0.074789204 -0.4760702 0.92606628
-0.025598692 -0.47596368 0.9263311
0.025294203 -0.47605976 0.92477286
0.075453646 -0.47634655 0.92675674
0.124691 -0.47719398 0.92526275
0.17663394 -0.47675762 0.92672729
0.22495319 -0.47689804 0.92304283
0.27536184 -0.47691309 0.92385918
0.32390502 -0.47597313 0.92460263
0.37456962 -0.47264606 0.92509925
0.42524061 -0.46827742 0.92402667
0.47467867 -0.46625584 0.92480946
0.52426654 -0.46507686 0.92752147
0.57412314 -0.4636091 0.92588371
0.62547553 -0.4623172 0.92734563
0.67355651 -0.46258101 0.9229663
0.72552609 -0.46444836 0.92495537
0.77509439 -0.46502763 0.92430556
0.8236239 -0.4655489 0.92422956
0.87508374 -0.46646658 0.9258213
0.92251587 -0.4659296 0.92643827
0.97422618 -0.46596581 0.92610896
1.0217364 -0.46562198 0.92706424
1.0711683 -0.46546248 0.92233282
1.1214935 -0.46385828 0.92490852
1.1782842 -0.46479478 0.92685127
1.2240601 -0.46456069 0.93079507
-0.18361427 -0.41738158 0.9216125
-0.17948687 -0.38424093 0.91592598
-0.061130576 -0.30879229 0.91119957
-0.035273474 -0.30687547 0.93226445
-0.0567003 -0.27363676 0.90471578
-0.028862732 -0.27482682 0.93034339
-0.056045838 -0.22554575 0.90484333
-0.028361805 -0.22459778 0.93060851
-0.054785561 -0.17613716 0.90497166
-0.02775847 -0.17473574 0.92994386
-0.053933781 -0.12693928 0.90412301
-0.027554378 -0.12491036 0.92851943
-0.5559665 -0.06451045 0.90715492
-0.53475595 -0.073394127 0.92821205
-0.20774168 -0.087366141 0.91366243
-0.15563832 -0.082704335 0.90155244
-0.10062707 -0.07961496 0.92161006
-0.059969757 -0.084850691 0.91105676
-0.026578067 -0.089886121 0.92759943
0.0011523744 -0.090587527 0.94676304
-0.56566364 -0.02317746 0.92039019
-0.54313052 -0.03834109 0.93941629
-0.60732758 0.03704292 0.90730315
-0.58259857 0.020038065 0.9274925
-0.61695385 0.076912902 0.92081332
-0.59249163 0.060405008 0.94106758
-0.65736443 0.13567744 0.90856719
-0.63288987 0.12051997 0.92954576
-0.70514691 0.18837738 0.91146696
-0.67094761 0.17128579 0.92322218
-0.64411604 0.15776519 0.94088495
-1.1725259 0.25428361 0.91685396
-0.35100001 -0.47213748 0.95140421
-0.32557738 -0.47533461 0.97310466
-0.27389786 -0.47797304 0.97238046
-0.24189071 -0.47685775 0.97163534
-0.15327573 -0.47111711 0.97450608
-0.12603827 -0.47637153 0.97533751
-0.0759601 -0.47599509 0.97738916
-0.025949195 -0.47505045 0.97670943
0.024007505 -0.47453332 0.972848
0.074021943 -0.47455034 0.97458994
0.12534252 -0.47490942 0.97447479
0.17381999 -0.4748548 0.96989655
0.22502239 -0.47530779 0.97330695
0.27394786 -0.47580844 0.97605908
0.3246001 -0.47607628 0.97382939
0.37566614 -0.47439811 0.97514218
0.42453983 -0.46968445 0.97494322
0.4760986 -0.4671846 0.9768182
0.52601916 -0.46532601 0.97612792
0.57386976 -0.46287668 0.97435981
0.62400353 -0.46200091 0.97615266
0.67666042 -0.46107766 0.97311991
0.72626275 -0.46263796 0.97557831
0.77561945 -0.46306515 0.97745049
0.82280689 -0.46328408 0.96949244
0.87358588 -0.46342272 0.97590935
0.92581964 -0.46395257 0.97819567
0.97505301 -0.46393773 0.97485071
1.0208306 -0.46279785 0.97359663
1.072629 -0.46399745 0.97252607
1.1271538 -0.46334392 0.97529787
1.1804934 -0.46456832 0.97407311
1.2270194 -0.46412987 0.97404653
1.2799875 -0.46301082 0.97762698
1.3152641 -0.45682603 0.99096894
-0.18968654 -0.40379351 0.95867801
-0.19738093 -0.38745075 0.95074785
-0.011183326 -0.30903924 0.95679092
0.020449109 -0.30754891 0.98417884
-0.0042565386 -0.27405879 0.95225173
0.022771707 -0.27506179 0.97660625
0.050148897 -0.27874386 0.9992162
-0.0038696579 -0.22535567 0.95221668
0.024124091 -0.22537309 0.97781217
-0.003427434 -0.17512038 0.95304251
0.023011001 -0.17457978 0.97596532
-0.0034056325 -0.13017188 0.95167923
0.024387838 -0.12484007 0.97502875
0.053842705 -0.10843321 0.99813741
-0.52209336 -0.068893731 0.96152133
-0.058535907 -0.078059562 0.95953411
-0.0079470724 -0.082049608 0.9534111
0.026884172 -0.089805208 0.97497398
0.054793064 -0.090475067 0.99478567
-0.53869528 -0.024152597 0.96295995
-0.56121325 0.027284993 0.96471339
-0.54678833 0.0021601231 0.96421874
-0.60175496 0.092933625 0.95281535
-0.58185828 0.075288564 0.969069
-0.6114583 0.13132173 0.96625513
-0.59318477 0.1157237 0.98070455
-0.6612035 0.18683934 0.95552886
-0.62917352 0.16783413 0.97416693
-1.278965 0.28464839 0.99848616
-1.2212739 0.28619146 0.9886955
-1.1758106 0.28285721 0.97406852
-1.1211617 0.2796047 0.96132052
-1.0929608 0.27544427 0.98207557
-1.2516019 0.32596052 0.9984327
-1.2164382 0.32569182 0.98993015
-1.1668444 0.32462341 0.97179198
-1.1166193 0.32597899 0.96521968
-1.0947725 0.3225438 0.98674899
-1.3058245 0.39472458 0.99267811
-1.2801727 0.36228618 0.99331623
-1.2224742 0.37417001 0.99152261
-1.1694388 0.37408003 0.97319436
-1.1135384 0.37722403 0.96723157
-1.0956976 0.37306619 0.99112564
-1.3083304 0.42840099 0.99136764
-1.2839248 0.42016411 0.99279404
-1.221813 0.42456871 0.99069494
-1.1709778 0.42883843 0.97342712
-1.1151659 0.42407876 0.96618134
-1.0978471 0.42491576 0.99096298
-1.3105676 0.4741593 0.9907285
-1.2236857 0.47520581 0.99139053
-1.1732502 0.47755602 0.97361147
-1.1154033 0.47462142 0.96925235
-1.098148 0.47602433 0.99275184
-1.3055279 0.52513295 0.99334127
-1.2206404 0.52374142 0.98955381
-1.1746613 0.52777761 0.97352642
-1.115777 0.52500969 0.9685756
-1.0988886 0.52894777 0.99513197
-1.2981081 0.56981379 0.99832201
-1.2314138 0.58257431 0.99265581
-1.1719646 0.57511896 0.97318143
-1.1123844 0.57572699 0.97125834
-1.0981194 0.56238097 0.99342173
-1.2565577 0.60382295 0.99582362
-1.2225604 0.62993443 0.99088192
-1.1720741 0.62268376 0.97175878
-1.1146075 0.62464279 0.96958435
-1.0980324 0.62366939 0.99512655
-1.2503879 0.68062401 0.9981057
-1.2221895 0.67585796 0.989048
-1.1722118 0.67528719 0.97160465
-1.1145015 0.67489469 0.97300231
-1.0999928 0.66330582 0.99950218
-1.2087927 0.70408976 0.98584151
-1.1716969 0.71615428 0.97097927
-1.1163881 0.72460419 0.97371519
-1.1124883 0.7720412 0.97513044
-1.0998805 0.77727401 0.99782592
-1.1077427 0.82484174 0.98424858
-1.1079774 0.86847049 0.99439496
-0.31177032 -0.47184443 1.0180987
-0.27723709 -0.47459215 1.0241621
-0.2465595 -0.47122133 1.00617
-0.15724581 -0.47417128 1.025561
-0.1249992 -0.47621179 1.0251297
-0.075279437 -0.47545668 1.0250943
-0.024934866 -0.47504276 1.0291262
0.02375458 -0.47406232 1.0246094
0.075841822 -0.4730069 1.0222631
0.1232827 -0.47313368 1.0245168
0.17437403 -0.47474793 1.0216749
0.22495934 -0.47493371 1.0254847
0.27536848 -0.47509456 1.0262914
0.32347977 -0.47568473 1.0243446
0.37423661 -0.47525075 1.0240533
0.42471236 -0.47103474 1.0247512
0.47196704 -0.46725315 1.0233996
0.52386576 -0.46565399 1.0250604
0.57491404 -0.46406341 1.0248647
0.62450588 -0.46160203 1.0241196
0.67450917 -0.46157855 1.0236713
0.72201443 -0.46107793 1.0225281
0.77796978 -0.46262422 1.0240659
0.82430422 -0.4620693 1.0224079
0.87147468 -0.46238109 1.0236167
0.92375928 -0.46137428 1.0268466
0.97695422 -0.46253628 1.0259489
1.0251758 -0.46131176 1.0238515
1.0773369 -0.46280146 1.0242689
1.1262538 -0.46459737 1.0208979
1.1779451 -0.46518913 1.0298966
1.2153844 -0.46364224 1.0239183
1.2695377 -0.46154407 1.0239993
1.3231663 -0.46129975 1.027873
1.366888 -0.45745993 1.0399925
-0.16723414 -0.41999468 1.0221519
0.029503256 -0.3206071 1.0115983
0.072230086 -0.30702007 1.028631
0.075526409 -0.27469561 1.0230806
0.1037168 -0.27140781 1.0473489
0.049747199 -0.21831834 1.0007106
0.075626612 -0.22498883 1.023707
0.10310747 -0.22652623 1.0479808
0.049521055 -0.18212475 1.0008361
0.075112909 -0.17455186 1.0223893
0.10299508 -0.17761073 1.0476805
0.075155333 -0.12552388 1.0207185
0.10415237 -0.12029091 1.0457574
0.036168877 -0.080898114 1.0103216
0.076629587 -0.089332126 1.0195884
0.10695528 -0.091054671 1.0440736
-0.55051196 -0.010393239 1.0027213
-0.57910365 0.074685529 1.0051132
-0.60287267 0.13574266 1.0142115
-0.59539807 0.11870389 1.0097684
-0.62341064 0.17507169 1.0129226
-1.3019695 0.29718107 1.0147809
-1.2678028 0.29323786 1.00375
-1.0793921 0.28027177 1.0271389
-1.3013937 0.32854256 1.0067642
-1.2762972 0.32866031 1.0052179
-1.0837076 0.32505444 1.024599
-1.3084803 0.38117141 1.0021195
-1.2799624 0.37785006 1.0051689
-1.2488315 0.37892774 1.0016427
-1.0850254 0.37468106 1.0257013
-1.3090949 0.42479339 1.0032179
-1.2795129 0.42488492 1.0056556
-1.2489518 0.42508861 1.0009412
-1.0870944 0.4250446 1.025465
-1.3043318 0.47071445 1.0035595
-1.2812988 0.47570437 1.0058781
-1.2498314 0.46472311 1.001994
-1.0895462 0.47485283 1.0240468
-1.3012214 0.52374858 1.0003629
-1.2788414 0.52648038 1.0049372
-1.0896906 0.52532279 1.024565
-1.280582 0.57344049 1.0046059
-1.2438842 0.56038618 1.0015717
-1.0897796 0.57542837 1.0240328
-1.2778004 0.62724882 1.0067766
-1.2384148 0.61734033 1.0001855
-1.0904418 0.62580681 1.0255077
-1.259573 0.66042346 1.0024854
-1.1007594 0.68991727 1.0014318
-1.0911669 0.67481333 1.0254468
-1.1013248 0.73260039 1.0095627
-1.0927844 0.72404498 1.024839
-1.1018071 0.79136062 1.0080761
-1.0925287 0.77288729 1.027675
-1.1029449 0.82527018 1.005601
-1.0933644 0.82386136 1.0269786
-1.1040589 0.87878639 1.0089947
-1.0940806 0.87336022 1.0352975
-1.1026516 0.92385089 1.0149895
-1.0941892 0.92295718 1.0334249
-1.0928103 0.97122461 1.0368724
-1.0890602 1.0044948 1.0434282
-0.28421435 -0.47116172 1.0539519
-0.16080372 -0.47403359 1.0767903
-0.1248611 -0.47593632 1.0756415
-0.075628892 -0.47568473 1.0745592
-0.025915865 -0.47484249 1.0760545
0.025834214 -0.47418731 1.075057
0.075131029 -0.472875 1.0763067
0.1249733 -0.4726527 1.0753872
0.17465134 -0.47303587 1.072109
0.226972 -0.47377217 1.0773242
0.2755546 -0.47443432 1.074856
0.32589293 -0.47428361 1.0756533
0.37428027 -0.47471851 1.0723841
0.42509121 -0.47297528 1.0762509
0.4752076 -0.46834317 1.0752902
0.52376944 -0.46556666 1.0736865
0.57550126 -0.46483058 1.0749633
0.62569284 -0.46313629 1.0696707
0.67716861 -0.46332905 1.073616
0.72881657 -0.46277568 1.0733997
0.77678972 -0.46498865 1.0769997
0.82585609 -0.46327707 1.0730233
0.8773126 -0.46222267 1.0752161
0.92687243 -0.45950106 1.074156
0.97798771 -0.45862585 1.0716611
1.0275363 -0.45930079 1.0701218
1.0717515 -0.46111786 1.0728008
1.1245427 -0.46594596 1.0683126
1.1707482 -0.46446827 1.0754043
1.2279035 -0.46212953 1.0720181
1.2737608 -0.45905444 1.0765415
1.3225847 -0.4600749 1.0723073
1.372707 -0.45936355 1.0770713
1.4136686 -0.45468956 1.0873455
-0.16929956 -0.42391038 1.0922939
1.431685 -0.44829339 1.0937431
0.08564923 -0.31973574 1.0594897
0.12023151 -0.31038618 1.0784581
0.15269618 -0.30259842 1.0990673
0.12612729 -0.27524704 1.0694842
0.15467665 -0.27314144 1.0949678
0.12633038 -0.22471173 1.070062
0.15415668 -0.22174789 1.0957456
0.12835252 -0.17437024 1.0714951
0.15584917 -0.17413948 1.096813
-0.41026193 -0.10149829 1.0659502
0.12835701 -0.12564237 1.0685375
0.1568294 -0.12488308 1.0941278
-0.41859007 -0.07616064 1.0905726
-0.39274243 -0.092462145 1.0925972
0.13282476 -0.090530813 1.0697056
0.15807538 -0.091198817 1.0934434
-0.42580292 -0.041162089 1.0983123
-0.90768701 0.24714608 1.0975972
-1.0630499 0.2821669 1.0764501
-1.0174598 0.25861442 1.0974501
-1.0675371 0.32498479 1.0744528
-1.0690578 0.37494388 1.075488
-1.0709319 0.4235884 1.074396
-1.073716 0.47520557 1.0745624
-0.9799794 0.49546948 1.0850036
-1.0726681 0.52619547 1.0761696
-1.0190758 0.52458632 1.0836238
-0.97562921 0.51523781 1.0781705
-1.0710986 0.57480431 1.0746267
-1.0731459 0.62389821 1.0744303
-1.0755936 0.67479509 1.0749052
-1.0763048 0.7253629 1.0744371
-1.0786157 0.77639574 1.0736632
-1.0798612 0.82460338 1.0753964
-1.0801648 0.87416214 1.0767267
-1.0810792 0.92511702 1.0751694
-1.0814589 0.97424507 1.0737339
-1.082149 1.025317 1.0773789
-1.0777224 1.0706166 1.0858555
-1.0746166 1.1110899 1.0935873
-0.16372417 -0.47418055 1.1273744
-0.12540099 -0.47522283 1.1234648
-0.074447386 -0.47470966 1.1246909
-0.025835663 -0.473703 1.1224654
0.022703895 -0.47416556 1.1271813
0.074283965 -0.47273582 1.125936
0.12504631 -0.47268385 1.1232603
0.17402136 -0.47195259 1.12438
0.22413684 -0.4729349 1.1276766
0.27728656 -0.47310394 1.1268611
0.32374403 -0.472857 1.1252391
0.37612733 -0.47311434 1.1249871
0.42387542 -0.47257313 1.1257774
0.47356397 -0.47000998 1.1269089
0.52611423 -0.46707764 1.1228305
0.57404548 -0.46551999 1.1232582
0.62527621 -0.4650639 1.1227005
0.67631286 -0.46534672 1.1224873
0.72678059 -0.46591434 1.1261834
0.7769022 -0.46656469 1.1274756
0.82544369 -0.46592602 1.1248416
0.87268525 -0.46480194 1.1268499
0.92153782 -0.46115586 1.1195978
0.97260088 -0.4590542 1.121282
1.0275322 -0.45992413 1.1268026
1.0766021 -0.46172553 1.1241429
1.1313533 -0.46597636 1.1245867
1.167397 -0.46034595 1.1270753
1.2183169 -0.4609189 1.1223965
1.273464 -0.46084923 1.1307906
1.3258204 -0.45777571 1.1244702
1.3738405 -0.45438021 1.1222273
1.4213061 -0.45198753 1.1235329
1.4556621 -0.45140505 1.1360946
1.3798063 -0.44883692 1.1455426
1.416822 -0.44880843 1.1104289
1.4740874 -0.4473398 1.1455735
0.14567259 -0.3130177 1.1064759
0.17275809 -0.30864939 1.1258507
0.17953607 -0.27552718 1.1194805
0.20574597 -0.27315634 1.143453
0.17847878 -0.22746308 1.1190447
0.20555876 -0.22320043 1.1437203
0.17812675 -0.17532824 1.1177703
0.20548823 -0.17366809 1.1429994
-0.46646744 -0.10198803 1.1224205
0.18050174 -0.12463007 1.1178573
0.20910016 -0.12549984 1.1449618
-0.46870136 -0.073572136 1.1279362
-0.43773201 -0.072058156 1.1044396
-0.38098407 -0.07187885 1.1249447
-0.34553164 -0.089485243 1.136606
0.041056473 -0.07673578 1.1075966
0.065307997 -0.077235296 1.1142055
0.14995983 -0.084897451 1.103886
0.18152937 -0.088538758 1.119796
0.20857692 -0.090012774 1.1434066
-0.46678689 -0.025849851 1.1304426
-0.41843089 -0.022714434 1.1137105
-0.39165324 -0.032776125 1.1354506
-0.46644121 0.022944149 1.1330981
-0.4269146 0.020693127 1.1274621
-0.46375406 0.075156778 1.1387643
-0.44024688 0.068312719 1.1377035
-0.4634262 0.10923525 1.1458862
-0.91217637 0.24836309 1.1029544
-0.89557958 0.24827585 1.1137776
-1.0529217 0.28496149 1.1048756
-1.0306839 0.28169394 1.1333121
-0.97254544 0.27590972 1.1280208
-0.91553497 0.27700752 1.1208081
-0.89553064 0.26239219 1.1434612
-1.0548375 0.32381836 1.1121006
-1.0358602 0.32480472 1.1389052
-0.97892553 0.3257052 1.1343088
-0.91755986 0.32487854 1.1249388
-0.89861947 0.32058987 1.1486475
-1.0552984 0.37474209 1.1155841
-1.0313817 0.37530896 1.1415397
-0.97101533 0.37170777 1.1323392
-0.91574568 0.37538457 1.1260096
-1.0575699 0.425248 1.1187786
-1.0296309 0.42626819 1.1454064
-0.97125125 0.42281392 1.1327208
-0.9164502 0.42561197 1.1280549
-1.0589617 0.47497439 1.1231074
-1.0233432 0.47317889 1.1442389
-0.97604018 0.47868994 1.1282157
-0.91891056 0.47567639 1.1278197
-1.0582805 0.51585752 1.1142879
-1.0392283 0.51020145 1.1222767
-0.9614262 0.51778209 1.1144176
-0.92323619 0.51979464 1.1256508
-1.0556684 0.58193916 1.1146502
-1.0402825 0.57661086 1.1303209
-1.0592182 0.62466753 1.1198194
-1.0489948 0.62753624 1.1439416
-1.0584308 0.67489141 1.1229968
-1.0485917 0.66708159 1.1451957
-1.0592688 0.72377485 1.1239294
-1.0618795 0.77373314 1.1238604
-1.062171 0.82570016 1.1251789
-1.0642203 0.87602729 1.1235225
-1.0649272 0.92548168 1.1243227
-1.0652066 0.97440749 1.1243958
-1.0661478 1.0234568 1.125682
-1.0659026 1.0755993 1.1245831
-1.0640038 1.1253971 1.1259675
-1.0620819 1.1692455 1.1295781
-0.16610667 -0.47172648 1.1731753
-0.12449688 -0.47464874 1.1758127
-0.074138731 -0.47379115 1.1722713
-0.026609669 -0.47343135 1.1756701
0.025995862 -0.47356811 1.1756284
0.075527199 -0.4717049 1.1706567
0.12546186 -0.47219634 1.1731777
0.17447622 -0.47163379 1.1790441
0.22413436 -0.47094175 1.1734163
0.27258268 -0.47061959 1.1762713
0.32464176 -0.47093588 1.1753505
0.37522271 -0.47139806 1.1747364
0.42615306 -0.47172832 1.1745366
0.47444153 -0.47167745 1.1773461
0.52412033 -0.469515 1.1722019
0.57482731 -0.46892828 1.17734
0.62531388 -0.46934238 1.1800861
0.67141753 -0.46804821 1.1716093
0.72274834 -0.46915081 1.1733302
0.77612501 -0.46980226 1.1753477
0.82274252 -0.46797377 1.1762941
0.88002694 -0.46586388 1.170433
0.92986107 -0.46470937 1.1663654
0.97592795 -0.46263066 1.181071
1.0246991 -0.45914117 1.1808573
1.0778571 -0.45780751 1.1759187
1.1275742 -0.4595882 1.1674591
1.179716 -0.45725197 1.1721084
1.2284364 -0.45680544 1.1776662
1.2706439 -0.45512804 1.1753095
1.3292236 -0.45511904 1.1742367
1.3690319 -0.45345467 1.1809485
1.4272352 -0.45208636 1.1739069
1.4523313 -0.45118594 1.1879946
1.0496936 -0.44966549 1.1916937
1.4741246 -0.4469814 1.169031
1.5077454 -0.44457901 1.1755027
0.19092293 -0.31453276 1.1536738
0.2208962 -0.30923465 1.1733743
0.25603282 -0.30182567 1.198463
0.22994292 -0.27449942 1.1661997
0.25863549 -0.27324754 1.1920549
0.22998606 -0.22523522 1.1670244
0.25541133 -0.22407301 1.1896629
0.23117538 -0.17605479 1.1681654
0.25760666 -0.17148145 1.1941371
-0.52385896 -0.1055764 1.1872904
-0.49436873 -0.10491375 1.1504002
0.23285159 -0.12495872 1.1678014
0.25848129 -0.12244828 1.1914843
-0.51827455 -0.075041436 1.1839592
-0.49770513 -0.076265283 1.159686
-0.35890496 -0.06504219 1.1633065
-0.3407332 -0.074566402 1.1849055
0.23377025 -0.090288721 1.1659173
0.25930625 -0.092219241 1.1880358
-0.5188536 -0.026983447 1.1867183
-0.4937681 -0.025575945 1.1579151
-0.37137341 -0.025451981 1.1746991
-0.34755522 -0.043948747 1.1963557
-0.51347679 0.025258405 1.1814137
-0.49140456 0.01978343 1.1591241
-0.40712366 0.034382399 1.1611022
-0.3877272 0.017982751 1.1805347
-0.51261991 0.07334663 1.1821665
-0.48899421 0.078265883 1.1578227
-0.41982481 0.075154975 1.1723033
-0.39438683 0.054717559 1.1953849
-0.51426804 0.12182195 1.1865957
-0.4718447 0.13038252 1.1584002
-0.43577915 0.12139552 1.1808773
-0.51295894 0.16699244 1.1900893
-0.47225803 0.16926794 1.1764544
-0.44627169 0.16161115 1.1922082
-1.024393 0.29561034 1.1512538
-0.88938111 0.27650294 1.1746718
-1.0309922 0.32879168 1.1529822
-0.89169878 0.3252126 1.1763802
-1.0330443 0.37367779 1.1543757
-0.9014535 0.37953189 1.1552246
-0.89228499 0.37525862 1.1792524
-1.0359889 0.42314115 1.1546959
-0.90226245 0.42419305 1.1565108
-0.89357871 0.42392159 1.1811746
-1.0348977 0.47535142 1.1548641
-0.90244222 0.47756809 1.1602129
-0.89486504 0.47190925 1.181457
-1.0345547 0.5023129 1.1520064
-0.90531433 0.52424043 1.165267
-0.89436686 0.51612544 1.1867422
-1.027651 0.58466876 1.1726749
-0.99477738 0.56061494 1.159507
-1.0376807 0.62368548 1.1752597
-1.0409727 0.67425489 1.1740922
-1.0529661 0.74369848 1.1533146
-1.041725 0.72298521 1.1767555
-1.0519459 0.76395136 1.1579789
-1.043431 0.77798802 1.1774189
-1.0513741 0.82145494 1.1532502
-1.0442239 0.8274529 1.1778224
-1.0522865 0.87386781 1.1586574
-1.0431985 0.87794489 1.1839976
-1.0531706 0.92451042 1.162581
-1.0447123 0.92536193 1.1884533
-1.0532255 0.97498536 1.1630305
-1.04413 0.97367537 1.1873955
-1.0544232 1.0262873 1.161531
-1.0447694 1.0242187 1.1854429
-1.0536354 1.0745665 1.1570927
-1.0440332 1.0717745 1.1825205
-1.0531406 1.1266581 1.1613895
-1.044122 1.1270905 1.1850798
-1.0535669 1.1777632 1.1586313
-1.0446126 1.1768774 1.1843818
-1.0530862 1.2045964 1.16474
-1.0435548 1.211601 1.1869628
-0.16102311 -0.47021198 1.2167939
-0.12588945 -0.47163221 1.2282678
-0.077303737 -0.47332552 1.2213935
-0.024512373 -0.47274879 1.2259237
0.022543494 -0.47280663 1.2256211
0.074719034 -0.47199833 1.2254133
0.12501132 -0.47209305 1.2252659
0.17492674 -0.47035789 1.2273293
0.22601843 -0.47002313 1.2237921
0.27746603 -0.46953571 1.2262865
0.32641864 -0.46904311 1.2236859
0.37544182 -0.47043243 1.2220491
0.42501134 -0.47099125 1.2277706
0.4747918 -0.47300503 1.2249919
0.52340096 -0.47191608 1.2242203
0.57558763 -0.47233489 1.226568
0.62445736 -0.47349644 1.2279303
0.67779231 -0.47302464 1.2237755
0.72634667 -0.47262725 1.2258205
0.77101219 -0.47001672 1.2224153
0.82362139 -0.46961626 1.2233356
0.87329876 -0.46996132 1.2222606
0.92262107 -0.4712359 1.2243094
0.96511894 -0.46925208 1.2247437
1.0261031 -0.4617615 1.2298901
1.0782666 -0.45566431 1.2278934
1.1357182 -0.45826632 1.2212918
1.1746478 -0.45713988 1.2206491
1.2197026 -0.45542473 1.2303021
1.2693483 -0.45554358 1.226223
1.3186257 -0.4537721 1.2162982
1.3829224 -0.45246211 1.2107809
1.4279791 -0.45164391 1.2137384
1.3377776 -0.44726035 1.224154
1.3808717 -0.4475171 1.2347529
1.4274789 -0.44842213 1.2346475
1.4584125 -0.44716612 1.2109052
0.24678929 -0.3169972 1.2108171
0.27369791 -0.31164995 1.2267928
0.30308616 -0.3014594 1.2422163
0.28411475 -0.27430457 1.2168609
0.31124115 -0.27459776 1.2410794
0.28197587 -0.22533658 1.2150805
0.31019542 -0.2234652 1.2414635
0.28169972 -0.17571771 1.2158124
0.3102684 -0.17375606 1.2407606
0.28119093 -0.12573132 1.2137088
0.30897421 -0.12189957 1.2396265
-0.55589873 -0.068619162 1.2269844
-0.53690076 -0.076380655 1.2027533
-0.32231289 -0.06907104 1.2212614
-0.29767859 -0.084590197 1.2421486
0.24560665 -0.081343181 1.2003852
0.27887309 -0.088733204 1.2121694
0.31020316 -0.089184046 1.2385268
-0.55608118 -0.031203754 1.2275558
-0.53965294 -0.027181055 1.2086295
-0.35562259 -0.01183375 1.211684
-0.33591264 -0.029377088 1.2289464
-0.56040436 0.022133557 1.2354544
-0.53938305 0.025972027 1.2112991
-0.36613306 0.027416956 1.2217932
-0.34433067 0.0061184522 1.2408892
-0.55655456 0.072249301 1.2308913
-0.53868711 0.079791173 1.2125204
-0.40440214 0.091830455 1.2079803
-0.38400531 0.074005611 1.2267928
-0.56170261 0.12615006 1.2409948
-0.53809816 0.1262873 1.2124466
-0.41293308 0.12726144 1.2204775
-0.39453247 0.11704788 1.2403941
-0.55777752 0.16755462 1.239887
-0.53249669 0.17718939 1.2155166
-0.46428916 0.19550043 1.2168033
-0.42949414 0.16947335 1.2253941
-0.47125068 0.20538478 1.2340115
-0.87371272 0.28052992 1.2232387
-0.87555814 0.3240597 1.2250293
-0.87702894 0.37497482 1.2238542
-0.87885767 0.42595497 1.2241802
-0.88086057 0.47522563 1.22448
-0.88290787 0.51948583 1.225574
-1.0028036 0.59724915 1.2197241
-0.99881142 0.59043258 1.2004288
-1.019652 0.62696153 1.2219818
-1.0236175 0.67426163 1.2242255
-1.0256747 0.72486734 1.2247308
-1.0276111 0.77493668 1.224746
-1.0303335 0.82617587 1.2236596
-1.0294014 0.87476194 1.2248622
-1.0303115 0.92179251 1.223667
-1.0314004 0.97261363 1.2261844
-1.0328903 1.0227336 1.2228755
-1.0307599 1.0748192 1.2278413
-1.0315381 1.1245788 1.2240179
-1.0297149 1.1721129 1.2256182
-1.0301059 1.2186282 1.2277589
-0.11417326 -0.46771944 1.262361
-0.076174691 -0.47010392 1.2782452
-0.028230708 -0.47185603 1.2737699
0.023936843 -0.47171089 1.2800294
0.075950623 -0.47249994 1.2788862
0.12596712 -0.47101802 1.2721734
0.17587748 -0.47120148 1.2746851
0.22569138 -0.47047746 1.2797498
0.27200121 -0.46964294 1.2757758
0.32590213 -0.46857876 1.2749107
0.37628117 -0.46895725 1.2733341
0.42725974 -0.46920753 1.2785189
0.47542462 -0.47134554 1.2777003
0.5239594 -0.47436076 1.2757075
0.57484746 -0.47612497 1.2758927
0.62502992 -0.47740939 1.2790245
0.67071694 -0.47514379 1.2661246
0.72645074 -0.47508493 1.2756275
0.78100407 -0.47509629 1.2776426
0.82475775 -0.47363836 1.2726285
0.87664002 -0.47486138 1.2707093
0.92387784 -0.47421327 1.2717713
0.97892565 -0.47494698 1.2740682
1.0183133 -0.46672174 1.2684937
1.0720322 -0.45775288 1.2737614
1.1245124 -0.45654589 1.2725205
1.1719968 -0.45571768 1.2723355
1.221511 -0.45466891 1.2739152
1.2721871 -0.45307252 1.2747949
1.3216019 -0.45269698 1.2686812
1.3737354 -0.45358261 1.275425
1.4945018 -0.45209858 1.2594199
1.2680779 -0.44884133 1.2716892
1.3802567 -0.44854432 1.2921443
1.4131215 -0.44566625 1.2715266
1.462229 -0.4463464 1.2560048
0.32597816 -0.30837709 1.2716813
0.35530108 -0.30536741 1.2928364
0.33486471 -0.27433369 1.2638456
0.36305436 -0.27275857 1.2895132
0.33553472 -0.22552855 1.2647655
0.36307639 -0.2245837 1.2894672
0.33470896 -0.17474362 1.2647265
0.36407033 -0.17564318 1.2907066
0.333873 -0.12829058 1.2637588
0.36012664 -0.12165894 1.2880601
-0.30585837 -0.064542003 1.2578999
-0.28667343 -0.070130549 1.2770959
0.33402571 -0.089802213 1.2652512
0.36034659 -0.087445103 1.2874234
-0.31373683 -0.024932843 1.2708936
-0.29498157 -0.039370228 1.2892612
-0.5735659 0.022494484 1.253739
-0.35316902 0.046327204 1.2604598
-0.33156887 0.022065641 1.2756722
-0.57716131 0.083707027 1.2597955
-0.36209744 0.080292828 1.2662777
-0.34163809 0.066525057 1.2896084
-0.58073282 0.12200967 1.2653385
-0.40202403 0.14908598 1.2537103
-0.37638536 0.12432973 1.2759709
-0.57411271 0.18690369 1.2647665
-0.54839444 0.19836965 1.2517164
-0.41278353 0.18118131 1.2663355
-0.39078584 0.16734141 1.2852998
-0.57176799 0.20652258 1.2790529
-0.54034466 0.20791876 1.2601017
-0.45100933 0.20123832 1.2541378
-0.8578071 0.28249988 1.2732857
-0.8412866 0.26549235 1.2914214
-0.85957825 0.32489601 1.2747287
-0.86116248 0.37543502 1.2739334
-0.8626048 0.42544425 1.2744316
-0.86422729 0.47494256 1.2757207
-0.86886841 0.52082825 1.2743963
-0.98226148 0.59402192 1.265103
-1.0067141 0.63059688 1.2657626
-0.99502397 0.62145853 1.2897149
-1.0082624 0.67703456 1.2707701
-0.99863946 0.66891164 1.2935779
-1.0093366 0.72510505 1.2737371
-0.99945033 0.72154629 1.2977605
-1.0116869 0.77425665 1.2742807
-1.0120677 0.82204527 1.2750987
-1.0124226 0.87355512 1.2746882
-1.0120864 0.92476606 1.2743473
-1.0140924 0.97635812 1.2757041
-1.0141544 1.0248011 1.2739285
-1.0127065 1.0759608 1.2752901
-1.0128553 1.1264803 1.2758065
-1.0144643 1.1754857 1.2744802
-1.0153745 1.2257665 1.2732906
-1.0096045 1.2576231 1.2833328
-0.056931414 -0.46865952 1.3095632
-0.023843793 -0.46835175 1.3254896
0.024776291 -0.47177812 1.3289584
0.071491443 -0.47135004 1.3233553
0.12375299 -0.47151443 1.3230851
0.17539711 -0.4707312 1.3254701
0.22316009 -0.46940315 1.326653
0.27593732 -0.46849814 1.323718
0.32585669 -0.46855211 1.3258995
0.3746931 -0.46899784 1.3243705
0.42425641 -0.47004107 1.328878
0.47434452 -0.46900287 1.3291761
0.52503628 -0.47324216 1.3212918
0.57622439 -0.47818905 1.3248901
0.62186742 -0.47873485 1.3189526
0.67503119 -0.48066935 1.3237737
0.7255761 -0.48036405 1.3270912
0.77955163 -0.47969934 1.3283784
0.82532382 -0.4776094 1.3147545
0.87847656 -0.48099145 1.3293923
0.94640017 -0.48145944 1.3248713
0.97356993 -0.48211053 1.3300699
1.0224689 -0.48010308 1.3263921
1.0738589 -0.46913621 1.3268381
1.1221446 -0.45905864 1.3236121
1.1739725 -0.45616293 1.3243438
1.2149947 -0.45366925 1.3089728
1.2766896 -0.45670545 1.3285524
1.3217477 -0.45498908 1.3292713
1.3572553 -0.45388484 1.3224037
1.2201707 -0.44998413 1.3394339
1.305361 -0.4478758 1.3049047
1.4067731 -0.44978124 1.3278018
0.37898746 -0.3048856 1.319556
0.40299895 -0.30424559 1.3402325
0.38743949 -0.27399203 1.3120517
0.41398802 -0.2700921 1.3369712
0.38620436 -0.22692111 1.3116283
0.41384122 -0.22386843 1.3355799
0.38462195 -0.17487027 1.310585
0.41352767 -0.17487709 1.335785
0.38648537 -0.12672114 1.311124
0.41694009 -0.12328851 1.3394043
-0.26293579 -0.065255918 1.3212773
-0.2418738 -0.077534884 1.3396907
0.38634408 -0.08650253 1.3157588
0.41680968 -0.089920089 1.3390441
-0.30127764 -0.0062710908 1.3000069
-0.27916199 -0.025446629 1.3251199
-0.30975261 0.028607987 1.3155951
-0.29114434 0.016508467 1.335192
-0.32324776 0.074888699 1.3259104
-0.29930729 0.052381806 1.3492337
-0.35706627 0.13528419 1.3132539
-0.33904079 0.11891627 1.3311179
-0.37072557 0.17480496 1.3235302
-0.34535721 0.15630671 1.3441387
-0.60531354 0.20246369 1.3121848
-0.83929914 0.27970919 1.3281933
-0.85117453 0.34000659 1.3036814
-0.84253854 0.32297495 1.3269665
-0.85194427 0.37525788 1.306151
-0.84388334 0.37334156 1.3294992
-0.8525849 0.42417777 1.3092755
-0.84403616 0.42408293 1.3338262
-0.8531456 0.48102799 1.3122696
-0.8451708 0.47212017 1.3325026
-0.8565011 0.5215416 1.3152452
-0.84685498 0.51711285 1.3401332
-0.95985776 0.5937106 1.3297204
-0.88533503 0.55391288 1.3179708
-0.98552543 0.62787676 1.3242893
-0.98893327 0.67578942 1.3257331
-0.991081 0.72350067 1.3236024
-1.0014919 0.77253425 1.3040209
-0.9920882 0.77308947 1.3292038
-1.00088 0.8382079 1.3104001
-0.99265015 0.82280236 1.3288749
-1.0016139 0.87450248 1.3058538
-0.99243069 0.87569481 1.329484
-1.0036385 0.9337734 1.3074809
-0.99351996 0.92556757 1.3309833
-1.0007031 0.97285968 1.3075421
-0.99287391 0.97566193 1.3319401
-1.0022894 1.0224826 1.3080933
-0.99386209 1.0252068 1.3306924
-1.0030119 1.0626416 1.3049853
-0.99237841 1.0784968 1.3308849
-1.0020074 1.1234142 1.3093998
-0.99202019 1.1232971 1.3330147
-1.0024512 1.1718798 1.3095788
-0.99347186 1.1742135 1.3307894
-1.0039142 1.2258539 1.3061477
-0.99441075 1.2244986 1.3326828
-1.0058186 1.2709594 1.3191438
-0.99354666 1.2730211 1.3330973
-0.010054789 -0.4673551 1.3577142
0.025332313 -0.46793026 1.3749515
0.076391518 -0.47064179 1.3766686
0.12632708 -0.47054693 1.3727031
0.17486115 -0.47018459 1.3755379
0.22722769 -0.46915415 1.3778871
0.27527401 -0.46903977 1.3777975
0.32356635 -0.46831247 1.3749791
0.37400582 -0.46749344 1.37077
0.42329744 -0.46843028 1.3769718
0.47533923 -0.46915534 1.3759677
0.52969664 -0.47328094 1.3725365
0.57272685 -0.47703618 1.3793422
0.62359774 -0.48204347 1.3732259
0.66971976 -0.48282436 1.3717752
0.71904033 -0.48472202 1.374415
0.77030075 -0.48351964 1.3727294
0.82337707 -0.4869321 1.3869917
0.87008315 -0.48571929 1.3768431
0.91987628 -0.4869146 1.3699056
0.97070849 -0.48796153 1.3773047
1.024763 -0.48369893 1.3653812
1.0732565 -0.48614737 1.3872727
1.134052 -0.47138238 1.3785217
1.1782387 -0.46326837 1.3782725
1.2143456 -0.45565432 1.3725324
1.2752908 -0.45607954 1.367069
1.3214153 -0.45513129 1.3716515
1.3516806 -0.45501027 1.353788
1.4205135 -0.45792553 1.380699
1.3710463 -0.44971541 1.3591663
0.42810827 -0.3034457 1.364298
0.45760414 -0.30846786 1.3992654
0.4386276 -0.27397606 1.362657
0.46391982 -0.27073234 1.3853297
0.43808901 -0.22459336 1.3583156
0.46470043 -0.22479419 1.3836783
0.43946043 -0.17294097 1.3582507
0.46438432 -0.17780665 1.3815777
0.44125968 -0.12718056 1.3613356
0.46468046 -0.12495172 1.3846753
-0.22730288 -0.068618312 1.3717108
0.43326274 -0.073196188 1.3806266
0.46346959 -0.072958104 1.3930838
-0.25766698 -0.021186486 1.361447
-0.23855759 -0.030981647 1.3843207
0.46259281 -0.046012387 1.398748
-0.27006489 0.024098044 1.3730361
-0.24523729 0.0050731963 1.3945546
-0.30623412 0.083650969 1.3589121
-0.28589448 0.071498126 1.3817502
-0.31586006 0.12676528 1.37384
-0.29419872 0.10950918 1.3931175
-0.79965675 0.16346101 1.3996942
-0.35726017 0.19110966 1.3693925
-0.33352128 0.17058158 1.3786782
-0.8163746 0.23227878 1.3891089
-0.82633084 0.2780042 1.3763237
-0.82867688 0.32708338 1.3762969
-0.83031321 0.37403765 1.3738586
-0.83133072 0.42418081 1.3756202
-0.83448184 0.47371164 1.3742898
-0.85397011 0.54287827 1.3533571
-0.83600622 0.52059323 1.3776343
-0.94129544 0.59192705 1.3821665
-0.96820718 0.62601113 1.3737589
-0.97233385 0.67369169 1.3748577
-0.97389489 0.72338146 1.3747998
-0.97561681 0.77603626 1.3727996
-0.97710818 0.82672548 1.3732636
-0.97681415 0.87492895 1.3753152
-0.97759122 0.92275226 1.3757817
-0.97737294 0.97319174 1.3771938
-0.97732669 1.0242963 1.3752915
-0.97800678 1.0724462 1.3760364
-0.97783208 1.1224288 1.3761953
-0.97990197 1.174844 1.3758756
-0.98115879 1.2225465 1.3730996
-0.98239136 1.276262 1.3763775
-0.98156452 1.3122387 1.3795631
0.039951749 -0.46506721 1.4050777
0.075840771 -0.46568549 1.4234219
0.12230441 -0.4695406 1.4222279
0.17514455 -0.46910569 1.4280902
0.22148558 -0.46820334 1.4248644
0.27513176 -0.46801373 1.4296473
0.32539529 -0.46837705 1.4243711
0.37509868 -0.46770856 1.428445
0.42848125 -0.46869066 1.4257512
0.47329915 -0.46865699 1.4231075
0.52376294 -0.47003001 1.4200013
0.57584441 -0.47629434 1.4301419
0.62704533 -0.48507479 1.4302604
0.68299973 -0.48917842 1.4272023
0.7245549 -0.48942789 1.4224913
0.7774263 -0.49063078 1.4246633
0.81323421 -0.49122739 1.4285538
0.87580591 -0.49189287 1.4247054
0.92588961 -0.49126193 1.4205703
0.97766858 -0.49150127 1.417823
1.0151708 -0.49067625 1.4233361
1.0811195 -0.49118051 1.42272
1.1280429 -0.48266348 1.4138278
1.1739513 -0.4739939 1.4324802
1.219895 -0.46571422 1.4337803
1.268772 -0.4605327 1.4180058
1.3122827 -0.46601674 1.445628
0.085183643 -0.44483009 1.4101264
0.48595041 -0.30494863 1.4260166
0.51089907 -0.30533203 1.444646
0.48818097 -0.27465072 1.4105798
0.51375902 -0.27266809 1.4331131
0.4918744 -0.2260011 1.4096584
0.52025443 -0.22404559 1.4354162
0.48984382 -0.17469542 1.4077338
0.51722682 -0.17673518 1.4337015
0.48709744 -0.12627579 1.4072931
0.51752943 -0.12476339 1.433287
-0.2069589 -0.064823948 1.4079604
-0.18407322 -0.070123762 1.4321321
0.33553356 -0.070219606 1.4465249
0.37539244 -0.062792443 1.4311833
0.41543654 -0.059863549 1.4087009
0.48795199 -0.076869868 1.4099878
0.51799697 -0.072762601 1.4355742
-0.21587929 -0.024241554 1.419233
-0.19513923 -0.035175141 1.4416974
0.38481826 -0.033072956 1.4405688
0.4239631 -0.027392808 1.4200295
0.4725554 -0.026339689 1.4086694
0.51504934 -0.026184734 1.4348223
-0.78139144 0.015229165 1.4399468
-0.25579503 0.040710017 1.4050488
-0.23140664 0.022760393 1.4274681
0.43070585 0.020095568 1.4389316
0.4733949 0.024758045 1.4240133
0.51517493 0.023979656 1.4349738
-0.79364622 0.07657855 1.4377551
-0.26319236 0.078086197 1.4195679
-0.24409191 0.067932151 1.4371693
0.43951619 0.057000354 1.4477434
0.47720951 0.072162278 1.4375553
0.51454371 0.075470231 1.4401793
-0.80351877 0.13225581 1.4373169
-0.79650229 0.11631911 1.4221854
-0.30531988 0.14333594 1.4038897
-0.2792621 0.12344365 1.425065
0.48870295 0.10828447 1.4463918
0.51313394 0.11993088 1.4458083
-0.80622405 0.17793109 1.4309479
-0.31458917 0.17953898 1.4164456
-0.29132769 0.16429137 1.4353671
-0.8107754 0.22673032 1.4253789
-0.81336045 0.2759237 1.4248145
-0.81412083 0.32393584 1.4256507
-0.81571066 0.37642157 1.4245403
-0.8171193 0.42612547 1.4239168
-0.81746274 0.47489017 1.4248869
-0.81942147 0.51829743 1.4263052
-0.92781591 0.59059715 1.4140208
-0.95567757 0.63090807 1.4176271
-0.94403183 0.62020713 1.4358613
-0.95739222 0.67500967 1.4210346
-0.94806528 0.67476207 1.4445782
-0.958646 0.7270053 1.4231254
-0.94802046 0.72007257 1.4462601
-0.95880097 0.77374184 1.4235092
-0.95983332 0.82461774 1.4241366
-0.95955217 0.87540436 1.4251558
-0.95974469 0.9237324 1.4272799
-0.94848412 0.92479128 1.4495116
-0.96061975 0.97177494 1.4259901
-0.96056348 1.0226978 1.4249457
-0.9611066 1.0738238 1.4244354
-0.96182317 1.1238142 1.4260091
-0.96270883 1.1738179 1.4250376
-0.96525168 1.2260935 1.4228565
-0.96638972 1.2766908 1.4259177
-0.96851581 1.3254476 1.4269378
1.1164329 -0.50057441 1.4801356
1.1635007 -0.50102627 1.4932173
0.12891313 -0.46424529 1.4721087
0.17513318 -0.46699771 1.4771491
0.22962569 -0.46840817 1.4728324
0.27461091 -0.46794122 1.4805954
0.32642621 -0.4668673 1.4747392
0.37603754 -0.46668079 1.4800872
0.42463365 -0.4698109 1.4802843
0.47579128 -0.47032407 1.4782214
0.52298158 -0.47062752 1.4714767
0.57469332 -0.47113368 1.4730165
0.62303746 -0.48370656 1.4720862
0.67133594 -0.49230766 1.4736941
0.72584361 -0.49316359 1.4741222
0.77584648 -0.49417096 1.4738529
0.82645953 -0.49403024 1.4719039
0.86983359 -0.49418378 1.4693505
0.91988444 -0.49436107 1.4714313
0.9708668 -0.4939639 1.4681937
1.0176221 -0.49416876 1.4664685
1.0824748 -0.49719852 1.4669416
1.1267139 -0.49695146 1.478134
1.1752889 -0.49160233 1.485198
1.2307622 -0.47190684 1.4757249
1.2807159 -0.4638575 1.468202
1.3272789 -0.463857 1.4731638
0.53071952 -0.30679369 1.4669975
0.53824049 -0.27646321 1.4584564
0.56556112 -0.27531675 1.482421
0.54497153 -0.22744279 1.46074
0.56765962 -0.22753842 1.4820249
0.53982157 -0.17198057 1.4546293
0.56508017 -0.17636232 1.4783312
-0.77230656 -0.11209811 1.489292
0.54141968 -0.12724483 1.4558172
0.56736034 -0.12601255 1.4805272
-0.77691323 -0.073184632 1.4850326
-0.16065173 -0.067823358 1.461877
-0.13958147 -0.07084059 1.481365
0.28235149 -0.063476332 1.4895791
0.32088038 -0.060436267 1.4685115
0.53873146 -0.083356671 1.45432
0.56715482 -0.073093079 1.4819251
-0.78312683 -0.026841447 1.4803818
-0.20014165 -0.0069353995 1.4505023
-0.17290854 -0.027211297 1.4740038
-0.14698373 -0.040027637 1.4946349
0.29586577 -0.040931668 1.4962748
0.32768595 -0.02797894 1.4796131
0.36340788 -0.022029569 1.4578754
0.54046744 -0.025316499 1.4550433
0.56703305 -0.024139293 1.480925
-0.79042202 0.024504181 1.4782809
-0.20903404 0.030192597 1.4632535
-0.18673013 0.017576795 1.4838696
0.33614668 0.016145328 1.4914606
0.37530112 0.021195434 1.4701141
0.41227219 0.034391161 1.4564869
0.5404827 0.021941496 1.4604677
0.56432897 0.021921694 1.4789829
-0.79430974 0.075766481 1.4761771
-0.25014284 0.09800408 1.4506609
-0.22529693 0.07645674 1.4719658
-0.19667089 0.058635484 1.4947451
0.38006151 0.067611262 1.4866911
0.42281702 0.074978717 1.4673905
0.45656082 0.083332978 1.4528236
0.5378772 0.074284598 1.4586103
0.56339926 0.074482128 1.4795592
-0.80169171 0.13053516 1.4592899
-0.79556656 0.12320857 1.4772625
-0.25903514 0.13237874 1.4614966
-0.23772702 0.12001533 1.4834926
0.3906219 0.10529001 1.4962046
0.42759958 0.1220353 1.4822143
0.47182637 0.12745211 1.4595568
0.53505963 0.12718605 1.4577259
0.56636798 0.12531842 1.4838001
-0.80287129 0.17498809 1.45885
-0.79478556 0.1743425 1.4817867
-0.30439985 0.19944026 1.4631792
-0.27229562 0.17433351 1.4727457
-0.24694636 0.15147682 1.4932988
0.43773699 0.16717514 1.4914639
0.47470102 0.17597249 1.4751904
0.52304864 0.17577498 1.4615741
0.56841606 0.17475526 1.4857391
-0.80204785 0.22280222 1.4596797
-0.79457241 0.22436731 1.4840318
0.47663406 0.20618863 1.483663
0.52453381 0.20620961 1.4726065
0.56413698 0.20488125 1.4815941
-0.8040098 0.27481818 1.459057
-0.79523033 0.27403799 1.4836817
-0.8035078 0.32288897 1.4613787
-0.79559398 0.32731009 1.4851652
-0.80440789 0.37406957 1.4658031
-0.79487747 0.37392366 1.490889
-0.80460149 0.42343923 1.4656063
-0.79658955 0.42823178 1.4905188
-0.80461276 0.47346523 1.4658693
-0.7970984 0.481341 1.4895351
-0.80759519 0.52323753 1.4739569
-0.7974475 0.51708573 1.4942271
-0.91516179 0.59434795 1.4716641
-0.93465269 0.62630445 1.4773424
-0.93922269 0.67517257 1.4749939
-0.94064784 0.72532916 1.4758631
-0.95080167 0.79886132 1.4513679
-0.94127929 0.77590597 1.4751446
-0.94179237 0.82483184 1.4754932
-0.95011348 0.88289392 1.4523932
-0.94234443 0.8761723 1.476395
-0.95251673 0.93757039 1.4507957
-0.94143593 0.9234848 1.4758679
-0.94318092 0.97244823 1.4748406
-0.95275307 1.0280032 1.4562726
-0.94169819 1.0222026 1.4793029
-0.95222414 1.0739267 1.4540551
-0.94302666 1.0762117 1.4811555
-0.95219505 1.1316296 1.4606925
-0.94256622 1.1237576 1.4830981
-0.95425844 1.1768509 1.4654843
-0.94406867 1.173669 1.482262
-0.95398068 1.2267951 1.4621261
-0.94547045 1.2211467 1.485108
-0.95483047 1.2753663 1.4655793
-0.94581383 1.2740065 1.4880849
-0.95479786 1.3284299 1.466236
-0.94642526 1.3233827 1.4907342
-0.95918131 1.3690647 1.4728184
-0.94573152 1.3661401 1.4873049
0.72973204 -0.50108874 1.5271678
0.78299922 -0.50121433 1.539661
0.98408002 -0.50495225 1.5341209
1.0184121 -0.50346977 1.5327895
1.0786908 -0.50401467 1.5271648
1.1183327 -0.50463963 1.5289212
1.1661242 -0.50151998 1.5149307
1.2161649 -0.50151926 1.5481364
0.18102759 -0.46354744 1.5199953
0.22278155 -0.46729031 1.5250866
0.27616805 -0.46767065 1.5309104
0.32562804 -0.46743527 1.5258046
0.37050298 -0.46707681 1.5300199
0.42000645 -0.46837664 1.5287813
0.47860423 -0.47198772 1.5332297
0.52453101 -0.47142136 1.526569
0.57622164 -0.47003323 1.5214994
0.62219101 -0.47565269 1.5268058
0.67262948 -0.49097937 1.5227963
0.72567475 -0.49605078 1.5283552
0.76963025 -0.49866912 1.5263368
0.82210732 -0.49766484 1.524133
0.87794018 -0.49661431 1.5202757
0.9163332 -0.49457538 1.525588
1.0629342 -0.49983028 1.5086364
1.1730576 -0.49627531 1.5079241
1.2309921 -0.48628655 1.5207475
1.2702106 -0.46983549 1.5090835
0.56411606 -0.30377513 1.5036676
0.6002934 -0.30292776 1.5327966
0.59211004 -0.27167708 1.505596
0.61165571 -0.27325013 1.5279282
0.59087068 -0.22151396 1.5046847
0.61385363 -0.22123578 1.5303478
0.59187931 -0.17322168 1.5057173
0.61665803 -0.17221208 1.5346302
-0.77426118 -0.12260825 1.5290774
0.59187472 -0.12281685 1.5064509
0.61383986 -0.12476236 1.5288885
-0.77660674 -0.074141346 1.5279188
-0.11526392 -0.06383922 1.5166764
-0.082217239 -0.068967946 1.5414106
-0.036954861 -0.081348695 1.5489603
0.016659798 -0.081267022 1.5476552
0.18433997 -0.070355855 1.5450289
0.22490793 -0.062711067 1.5275428
0.26368806 -0.05682423 1.5090916
0.58997953 -0.080976315 1.5034974
0.61140507 -0.074802771 1.5266564
-0.77889168 -0.026748208 1.5274919
-0.15674669 -0.0071840258 1.5056725
-0.12449609 -0.025156254 1.5259954
-0.091593303 -0.041790247 1.5447065
0.22884007 -0.027989373 1.5403579
0.27301794 -0.024751743 1.5155897
0.30223182 -0.016921084 1.5036306
0.59157741 -0.033938579 1.5088321
0.61138904 -0.026740946 1.5268865
-0.78011417 0.024088871 1.5254737
-0.1633141 0.025226656 1.5150641
-0.13667609 0.016596753 1.5369017
0.23979054 0.012252199 1.5463002
0.27524647 0.021751955 1.5302254
0.31379113 0.02667575 1.5094788
0.59044999 0.024016267 1.5060034
0.61188489 0.023116725 1.5281116
-0.78103083 0.074568562 1.5248017
-0.2059 0.089422159 1.5082453
-0.17826697 0.070117876 1.5282661
0.28575158 0.064872533 1.5384831
0.32526183 0.074607953 1.5225923
0.36088639 0.082992695 1.5041025
0.58939534 0.074806817 1.5068449
0.61345309 0.075267322 1.531672
-0.78250903 0.1252286 1.5235491
-0.21665838 0.12792224 1.521911
-0.19403426 0.11447401 1.5423003
0.32821786 0.11951043 1.5360317
0.37352923 0.12805577 1.5156895
0.40510577 0.13840535 1.5027075
0.59386319 0.12536126 1.5111984
0.61460805 0.12346119 1.532496
-0.78139186 0.17495166 1.5251895
-0.26005009 0.18878524 1.5122378
-0.23426867 0.17141087 1.5310875
0.34154525 0.1601067 1.5450692
0.37648067 0.17545864 1.5314864
0.4152025 0.17728423 1.5083884
0.59401172 0.17375904 1.5117713
0.60799628 0.17054383 1.5261344
-0.78200948 0.22605616 1.5274367
0.34011972 0.2081846 1.5241199
0.37840688 0.20647787 1.5316495
0.42686346 0.20511425 1.5145737
0.45466655 0.20790777 1.5016234
0.58424962 0.20429829 1.5019857
0.61339068 0.2026163 1.5443935
-0.78316426 0.27567357 1.5245382
-0.78310633 0.32419783 1.5264176
-0.78496593 0.37504959 1.5271392
-0.78624308 0.42287728 1.5230968
-0.78736311 0.47322848 1.5242587
-0.8026002 0.54776561 1.5371989
-0.78854132 0.51956683 1.5260051
-0.89362931 0.591838 1.5236515
-0.91828275 0.62633961 1.5260108
-0.92136872 0.67441207 1.5255915
-0.92345929 0.72494251 1.5245367
-0.92404759 0.77687198 1.5233752
-0.92386967 0.82540673 1.5261688
-0.9248898 0.8740707 1.5226933
-0.92525959 0.92405182 1.5239844
-0.92498136 0.97394079 1.526479
-0.92645311 1.0251222 1.5255072
-0.92762411 1.0750005 1.52571
-0.92959446 1.1253196 1.522173
-0.93016779 1.1752549 1.5251116
-0.93294144 1.2265099 1.5233024
-0.93345332 1.2765539 1.5242801
-0.93686795 1.3296763 1.5296596
-0.93765908 1.3734525 1.5252312
-0.93843079 1.4123063 1.547415
0.73609984 -0.50025207 1.5852501
