ply
format ascii 1.0
comment PCL generated
element vertex 1508
property float x
property float y
property float z
element camera 0
property float view_px
property float view_py
property float view_pz
property float x_axisx
property float x_axisy
property float x_axisz
property float y_axisx
property float y_axisy
property float y_axisz
property float z_axisx
property float z_axisy
property float z_axisz
property float focal
property float scalex
property float scaley
property float centerx
property float centery
property int viewportx
property int viewporty
property float k1
property float k2
end_header
0.62201613 0.72521049 2.8762817
0.67774159 0.72397119 2.8626187
0.71189368 0.71554047 2.8526716
0.5469445 0.75791395 2.8985009
0.58037305 0.76755196 2.8926764
0.62465638 0.77112657 2.8808792
0.67680091 0.77311188 2.8660059
0.71193993 0.78149146 2.8564959
0.58650124 0.81558502 2.8952577
0.62769622 0.82509017 2.8853126
0.67458206 0.8270694 2.868856
0.71623409 0.82888782 2.8575537
0.59572327 0.88103157 2.8993075
0.62406182 0.88029903 2.8926229
0.67234939 0.87742758 2.8753703
0.72372627 0.87378228 2.8595166
0.63249815 0.92168808 2.8958538
0.67579174 0.92531371 2.8807418
0.72321004 0.92125964 2.8596144
0.75191373 0.93553454 2.8508682
0.52185446 0.99329191 2.8735187
0.63556612 0.966169 2.8935566
0.67776424 0.97153443 2.8792617
0.72711682 0.97314513 2.8583283
0.75301963 0.95132536 2.8517241
0.48598215 1.0270264 2.855154
0.58750939 1.0092514 2.8657937
0.64136869 1.0175465 2.8974979
0.67530322 1.0149323 2.8921473
0.7165494 1.010347 2.8638203
0.49788043 1.1048744 2.879694
0.53676122 1.1759174 2.8706505
0.73964286 1.1924508 2.8593371
0.75347888 1.1910596 2.8532455
0.63787854 1.2317133 2.8715396
0.67681295 1.2355103 2.8743839
0.72647983 1.2245336 2.8591871
0.75532246 1.2160895 2.8535159
0.62713516 1.2786618 2.8901522
0.67485291 1.2756946 2.8744588
0.72549456 1.2778691 2.8630984
0.75838679 1.2654369 2.8511491
0.62880164 1.3230687 2.8975618
0.6752317 1.3301326 2.8830833
0.73007643 1.3280352 2.8672929
0.7640447 1.334533 2.8526506
0.6497032 1.3521854 2.8933177
0.67614239 1.3751458 2.88834
0.72270662 1.3716215 2.8742301
0.7684595 1.3754823 2.8576164
-0.55355889 1.431414 2.8900335
-0.51620042 1.4323003 2.8967979
0.68287235 1.4208809 2.8894477
0.7256645 1.4214389 2.8744836
0.76369321 1.4206127 2.8617711
0.67549467 1.4749435 2.8916481
0.72570342 1.474524 2.877147
0.77714044 1.471198 2.8603673
0.68668532 1.5282959 2.8899543
0.72277963 1.5300169 2.8795195
0.76987648 1.5248398 2.8637652
0.80241805 1.5360503 2.8757346
0.68163615 1.5737449 2.8947854
0.72678542 1.5769593 2.8799706
0.76991814 1.5741231 2.858397
0.67489588 1.6263078 2.8935165
0.72461098 1.6245332 2.8779311
0.76567292 1.6226938 2.8626342
0.67845702 1.6711463 2.8930416
0.72928858 1.6748775 2.8740387
0.77495986 1.6777126 2.8580048
0.68270254 1.7181988 2.8949149
0.72188735 1.7239516 2.8818483
0.77733952 1.7269987 2.8630986
0.81710464 1.7362806 2.853513
0.69336653 1.7792252 2.8950529
0.72901481 1.7737279 2.884634
0.77407908 1.7686347 2.8668239
0.82031834 1.7807618 2.8559382
0.68148392 1.8265748 2.8968284
0.72347116 1.8230541 2.8861344
0.7778936 1.8259141 2.8732779
0.82373697 1.8268025 2.854533
0.69024378 1.8676823 2.8946478
0.72800475 1.884167 2.8936172
0.77131301 1.8788414 2.8795898
0.81813002 1.876228 2.8651333
0.85014212 1.8843973 2.8539484
0.72841597 1.9241734 2.8928394
0.77557832 1.9213605 2.8787053
0.82244891 1.9182826 2.8634641
0.85967857 1.9204398 2.8524964
0.73160243 1.9568199 2.8926296
0.77746147 1.9726105 2.8820944
0.82344151 1.9732745 2.8686161
0.86636937 1.9802886 2.8565302
0.73731351 2.0047195 2.8975241
0.77136993 2.0221949 2.8886261
0.82587689 2.0255861 2.8716488
0.86895198 2.0322814 2.8587551
0.90386713 2.045584 2.8530285
0.74453491 2.0737903 2.8979771
0.77546978 2.0760684 2.8905241
0.82631129 2.0808275 2.8734319
0.87504935 2.0794291 2.8595753
0.7409001 2.119823 2.8984282
0.78007227 2.1294847 2.8904018
0.82652515 2.127578 2.8712521
0.87139118 2.1234074 2.8567719
0.77593023 2.1823306 2.8919873
0.823713 2.1696022 2.8689091
0.87357008 2.1759996 2.859942
-0.73387843 2.2444422 2.880506
0.7433542 2.2265596 2.8962595
0.77808571 2.2298243 2.893158
0.82704329 2.2258034 2.876332
0.87223768 2.2195225 2.8599281
-1.1274661 2.2816346 2.8505354
-0.715909 2.2561858 2.8694229
-0.67320579 2.267844 2.8757238
-0.62886876 2.271868 2.8761284
-0.57624125 2.2760878 2.8812621
0.73975366 2.2749639 2.8952134
0.77812862 2.2717884 2.8859527
0.82718229 2.2742279 2.8719916
0.87081784 2.2741804 2.8578866
-1.2284727 2.3099654 2.8699813
-1.1794289 2.3163426 2.8818963
-0.56826156 2.3244734 2.8757846
0.33853433 2.3076203 2.8843999
0.72325075 2.3279812 2.8930221
0.76833445 2.3185408 2.8793066
0.81846565 2.3162782 2.864712
0.85723656 2.3112948 2.8542376
0.68679899 2.3555086 2.8941338
0.72929597 2.3549943 2.8847246
0.77222538 2.3558772 2.8764353
0.8229143 2.3544147 2.8626473
0.85623568 2.3523061 2.8516445
0.55500835 0.39597532 2.9116774
0.37837449 0.42938384 2.9467933
0.42173102 0.4253172 2.931267
0.46863338 0.4228712 2.9093623
0.5863502 0.40518022 2.9229689
0.67593575 0.41492036 2.9282837
0.38014811 0.47023949 2.9457967
0.42257544 0.47588071 2.9319959
0.47401875 0.4755865 2.9120352
0.38080445 0.53156781 2.9473381
0.42326382 0.52646941 2.9311397
0.4785147 0.52465945 2.9152582
0.51255447 0.53733498 2.901463
0.38460019 0.5758307 2.9489317
0.42659488 0.57497734 2.9340878
0.47676378 0.57381403 2.9174025
0.51198959 0.58142775 2.9044671
0.38327581 0.60894644 2.9454882
0.42358401 0.62547731 2.9351401
0.47362036 0.62678701 2.9163284
0.50655603 0.62241769 2.905745
0.39236957 0.67674923 2.9499707
0.42718956 0.67495197 2.9386768
0.47497123 0.67145026 2.9183064
0.51653326 0.6738323 2.9054112
0.4370811 0.72305745 2.9378793
0.47695723 0.72446752 2.9223633
0.51667762 0.72602946 2.9072597
0.39444381 0.79613125 2.9461117
0.42433718 0.77884686 2.9415975
0.47004196 0.77562928 2.9269888
0.52576119 0.77679825 2.9108856
0.56808466 0.78461927 2.9022951
0.39040783 0.81708074 2.9489038
0.42386502 0.82605958 2.9413574
0.47311068 0.82348996 2.92698
0.52176952 0.82051051 2.9105697
0.56057513 0.82218069 2.9038613
0.39657265 0.88047743 2.9465773
0.42518824 0.87222171 2.9419215
0.47499719 0.8702901 2.9300833
0.52575898 0.8733986 2.9156458
0.57483041 0.87294483 2.9080713
0.42901546 0.92014223 2.9464881
0.47786719 0.92051274 2.9347281
0.52346665 0.92998487 2.9220476
0.57364196 0.92590636 2.9104233
0.61711681 0.9392339 2.9047265
0.42873994 0.9703905 2.9470623
0.4708249 0.975676 2.9377649
0.52344513 0.98106474 2.9306056
0.57251114 0.9773944 2.9130375
0.6205917 0.97877967 2.9055998
0.44151288 1.0302528 2.9448619
0.47416246 1.0293019 2.9385002
0.50064933 1.0086768 2.9216182
0.57303852 1.0074486 2.9087324
0.61785197 1.0128026 2.9065185
0.44775569 1.0879958 2.9485452
0.4746713 1.078748 2.9423137
0.44151726 1.1279888 2.947381
0.47641009 1.1253499 2.9419727
0.47742018 1.175416 2.9428885
0.51564884 1.1787384 2.9341817
0.47453055 1.2257134 2.9399614
0.52539015 1.2223029 2.9255457
0.56264192 1.2297533 2.9184225
0.43996051 1.27861 2.949228
0.47745752 1.2751675 2.940541
0.52819467 1.2738559 2.9276216
0.56972057 1.2703644 2.9138937
0.61553764 1.2685659 2.9029896
0.48363227 1.3339198 2.943306
0.52316022 1.3250203 2.9281304
0.57364404 1.3199668 2.9098454
0.61821181 1.3190423 2.9011986
0.47600135 1.3788549 2.9424872
0.52411717 1.3767365 2.9306343
0.57546306 1.3780504 2.9192491
0.62289745 1.3743836 2.908078
-0.52596688 1.4382967 2.9080105
0.47990552 1.4223206 2.947227
0.52381694 1.4274905 2.933449
0.57474202 1.4313856 2.9239719
0.62664092 1.4282001 2.9094794
0.65737361 1.4289926 2.9062271
-0.55881506 1.467845 2.9091332
-0.52997828 1.4764236 2.9076574
0.48869547 1.4762641 2.946475
0.52260548 1.4723145 2.9369144
0.57788444 1.4775245 2.9261811
0.62954235 1.472948 2.9090326
-0.5126003 1.5218045 2.9264996
0.49613157 1.5078094 2.9432423
0.53027189 1.5221738 2.9413028
0.57268965 1.5223372 2.9253757
0.62437606 1.5208279 2.9179094
0.66034114 1.5244789 2.9068868
-0.55122703 1.5809667 2.916415
-0.52310932 1.5707246 2.9219911
0.54259545 1.5801119 2.945771
0.5777005 1.5821602 2.9327371
0.62237871 1.5774943 2.9170144
0.65680295 1.5766098 2.9097497
-0.6116333 1.633266 2.9405401
-0.56948882 1.6294683 2.926311
-0.52318728 1.6282821 2.9205217
0.48844415 1.6414018 2.9492064
0.52552199 1.6196836 2.9395049
0.57875842 1.6239344 2.9223378
0.62409854 1.6284022 2.905961
0.6535064 1.6089251 2.9002693
-0.62267601 1.678785 2.9419332
-0.57689714 1.6764418 2.9262927
-0.52527142 1.6736445 2.9156382
-0.17401706 1.6849248 2.938427
-0.12068424 1.6906471 2.9447994
0.4893502 1.6601135 2.948154
0.53049409 1.6809666 2.9403856
0.57694036 1.6753999 2.9256301
0.627958 1.677492 2.9072733
0.67006308 1.6813608 2.901314
-0.61675745 1.7204156 2.9417653
-0.57885152 1.7252312 2.930053
-0.52884901 1.7242527 2.9182751
-0.17748876 1.7295963 2.9286797
-0.11884719 1.724183 2.9425476
-0.089940667 1.7219322 2.949007
0.52767766 1.7260923 2.9423642
0.57506305 1.7227545 2.9288049
0.62888086 1.7276394 2.9091594
0.66948253 1.7402226 2.9012039
-0.61070812 1.7888 2.948411
-0.57348526 1.773735 2.9332945
-0.52979434 1.7755228 2.9241326
-0.20032528 1.7841215 2.9327316
-0.16625126 1.7763933 2.928601
-0.1216414 1.7748319 2.9371173
-0.090309441 1.7682401 2.9437113
0.53140998 1.7690605 2.9437346
0.57486206 1.776494 2.9329631
0.61943829 1.7789053 2.9203193
0.66444761 1.776474 2.9047265
-0.61903596 1.8256545 2.9444313
-0.57265294 1.8239727 2.9348261
-0.52893007 1.8220507 2.9306884
-0.20221987 1.8327456 2.9456823
-0.16999911 1.8274107 2.9386246
-0.13829553 1.8265452 2.9385064
0.54116368 1.8261034 2.9458892
0.58173364 1.8261814 2.9332924
0.62573034 1.8257766 2.9222481
0.66325802 1.8194108 2.905302
-0.60602355 1.8628566 2.9352279
-0.57125163 1.873089 2.932888
-0.53306168 1.8764395 2.9341738
-0.2028936 1.8627112 2.9441168
-0.17869216 1.8592935 2.9398851
0.57810503 1.8742841 2.9387059
0.63005948 1.8785872 2.9227853
0.67474216 1.8776033 2.9085524
0.708987 1.8750516 2.9030516
-0.57836527 1.9231464 2.9400275
-0.53776628 1.933448 2.9397879
0.57720703 1.9137187 2.9366715
0.61996853 1.9270028 2.9254384
0.67777687 1.9317626 2.9120362
-0.57887083 1.9757864 2.9446006
-0.53827411 1.9749202 2.9423573
0.58255786 1.972227 2.942816
0.62221581 1.9769368 2.9268787
0.67096156 1.9768008 2.9181662
0.71483082 1.9784451 2.9039862
-0.60317671 2.0113177 2.9486856
-0.57007957 2.0250747 2.944315
-0.53095859 2.02633 2.9431047
0.59604448 2.031147 2.9461193
0.62643582 2.0231473 2.9290764
0.67462182 2.0202959 2.9162948
0.72014809 2.0212047 2.9055958
-0.56519866 2.0717072 2.9438529
-0.53123879 2.0681272 2.9436774
0.59064984 2.0657101 2.9479647
0.62643284 2.0726409 2.9329941
0.67918938 2.0669208 2.9175987
0.7215566 2.0706334 2.9047577
-0.5689705 2.1188571 2.9447367
-0.53760016 2.131279 2.943831
0.62322092 2.124028 2.940084
0.67262977 2.1151633 2.9242761
0.71797991 2.1287951 2.9091468
0.75385094 2.14973 2.9048171
-0.60049623 2.1844375 2.9488218
-0.56423444 2.1741765 2.9402406
-0.53873396 2.1808271 2.9367521
0.57337129 2.1683805 2.9474556
0.62447506 2.1668754 2.9297626
0.67552739 2.1699252 2.9248445
0.72048533 2.1782465 2.9085331
0.75539452 2.1708419 2.9006195
-0.71480376 2.2425594 2.9239962
-0.67482758 2.2417536 2.9475696
-0.61478251 2.2319753 2.9393027
-0.57774484 2.2243495 2.9339552
-0.54289752 2.2294936 2.9264362
0.5859136 2.2262688 2.9419544
0.62631261 2.2296166 2.935523
0.67630148 2.2276287 2.9237051
0.71908158 2.2294357 2.9052289
-0.67177707 2.2570269 2.9183352
-0.6233834 2.2542238 2.915051
-0.56728321 2.2587783 2.9111557
-0.53479993 2.2664299 2.920804
0.54906631 2.2990608 2.9452889
0.57809842 2.2833331 2.9449131
0.62753308 2.2853506 2.9284542
0.67894197 2.2791417 2.916476
0.71102184 2.2850692 2.9090784
-1.2521406 2.3017552 2.9469101
-1.1793475 2.3200376 2.9334402
-1.1321812 2.3090525 2.924299
-0.555709 2.3255551 2.9121997
-0.54035276 2.3154824 2.9347289
0.18121788 2.3270741 2.9205058
0.22307976 2.3235636 2.9136887
0.27497026 2.3269856 2.9306033
0.32217389 2.3241208 2.9262922
0.3660526 2.335273 2.9275017
0.53434479 2.3261254 2.949578
0.5802114 2.3215542 2.9363835
0.61904758 2.3317251 2.9263198
0.66927028 2.3283067 2.9126587
0.71055818 2.3153813 2.9044518
-0.56014389 2.3612306 2.924031
-0.54689032 2.3779719 2.947464
0.39764041 2.3608091 2.9455459
0.52524799 2.3649571 2.9452913
0.56719297 2.3621006 2.9374192
0.6207037 2.3637178 2.9170723
0.66318762 2.3625529 2.9077759
0.70743155 2.3674617 2.9053657
0.33896071 0.39961225 2.9608111
0.37457606 0.39956045 2.9575737
0.2338789 0.42389342 2.990515
0.27626315 0.42335546 2.9796104
0.32302624 0.42459542 2.9633524
0.36471084 0.4229342 2.9532573
0.42065582 0.40265512 2.9766467
0.45975608 0.4054656 2.9938946
0.23617791 0.47594684 2.9918191
0.27667364 0.47427049 2.9789827
0.32566991 0.47241879 2.9639301
0.36528984 0.48070678 2.9521463
0.22971918 0.51921731 2.9951668
0.27711689 0.52543074 2.9782131
0.32648826 0.52382523 2.9657388
0.3683219 0.51732892 2.953182
0.23310272 0.55793279 2.9973419
0.27534741 0.57814538 2.9842978
0.32733619 0.57556695 2.9673436
0.36553741 0.56980938 2.9536102
-0.29303002 0.61523163 2.9831014
0.28563815 0.60740411 2.9816198
0.32954559 0.62595302 2.9676199
0.37374356 0.63249046 2.9528549
-0.2875711 0.6991542 2.9902418
0.32668227 0.67227328 2.9885507
0.37240082 0.67835337 2.9652176
-0.28788272 0.71449322 2.9911757
0.33153805 0.72133696 2.9851639
0.37180164 0.72298419 2.9670854
0.41218019 0.72314119 2.9544632
0.2916384 0.7711615 2.9945805
0.3249355 0.77400589 2.9834924
0.37407035 0.77410376 2.9631369
0.40990537 0.76177871 2.9583588
0.29767957 0.82316804 2.9971526
0.32564759 0.81966335 2.9822779
0.36796856 0.8306874 2.9631104
0.29831955 0.85440218 2.9980369
0.3327862 0.87432402 2.9926696
0.37224847 0.87621319 2.9657595
0.28232777 0.93263042 2.9876568
0.32544127 0.92269278 2.9740064
0.37679353 0.92190045 2.9570487
0.41290161 0.92082936 2.9503653
-0.28910151 0.95181161 2.959527
0.24108648 0.97910196 2.9980934
0.27725223 0.97598624 2.9863234
0.32810384 0.97328568 2.9744873
0.37611529 0.96789455 2.9583814
0.40043378 0.98457587 2.9546716
-0.46026215 1.0480647 2.9945905
0.23646592 1.0151025 2.9946239
0.27127773 1.0256464 2.9920948
0.32222524 1.0222617 2.978689
0.37389311 1.0206889 2.9605689
0.41649821 1.0240507 2.9545324
-0.4771733 1.0662185 2.9673607
0.27210957 1.0735402 2.9905515
0.32346576 1.0707742 2.9792244
0.3727054 1.0699451 2.9673047
0.42358032 1.0785966 2.9572802
0.24367127 1.1170642 2.9997387
0.27500141 1.1224843 2.9902647
0.32477298 1.1199151 2.97995
0.37615755 1.1248109 2.9669294
0.4116233 1.1260515 2.9576614
0.49567005 1.1479557 2.950866
0.2794213 1.1677488 2.9932449
0.32639334 1.1705621 2.9829004
0.37776592 1.1745383 2.9676335
0.4219355 1.1800104 2.9562502
0.45197135 1.1879058 2.9521952
0.29104486 1.2095146 2.9995272
0.32778108 1.2106903 2.9857798
0.37605175 1.2222949 2.972379
0.42385465 1.2304115 2.9568789
0.37785652 1.2689304 2.9859571
0.41883492 1.2756615 2.9643707
0.47192845 1.2988583 2.953104
0.43014276 1.3249587 2.9778676
0.46472222 1.331362 2.9572976
0.42627078 1.3746935 2.9759085
0.42632747 1.4252197 2.9762325
0.46236235 1.4292691 2.9526937
-0.5036031 1.4766906 2.9528711
0.42655283 1.4749024 2.9765418
0.46255305 1.4763283 2.9569941
0.42603886 1.5230707 2.9814625
0.4721956 1.5245084 2.9583776
0.43593588 1.5780523 2.9859328
0.4716799 1.5750922 2.9690297
0.51500869 1.5685908 2.9557154
-0.71112823 1.6293352 2.982965
-0.67472309 1.6261427 2.9648504
-0.62914926 1.614573 2.9564743
-0.59260613 1.6174316 2.9615314
0.43596596 1.6184087 2.9834809
0.47090963 1.6240489 2.95889
-0.86940521 1.6827514 2.9971089
-0.7128635 1.6732026 2.9736109
-0.67488229 1.6768439 2.9554749
-0.63719648 1.6611862 2.9524364
-0.50455064 1.685045 2.9913929
-0.21672502 1.6951394 2.9828312
-0.1781051 1.6697778 2.956933
-0.1236131 1.6724463 2.9736347
-0.074360326 1.6852646 2.9705384
0.43895856 1.6770144 2.9845598
0.47213346 1.675113 2.9563088
0.511684 1.6701139 2.9517269
-0.83941036 1.7199394 2.9985509
-0.71387154 1.7074682 2.9641213
-0.68297535 1.7247802 2.9548247
-0.64268184 1.7285322 2.9549339
-0.21693823 1.728404 2.9722538
-0.071992807 1.7275001 2.9646184
0.4411408 1.7251467 2.982574
0.47832441 1.7238834 2.9586143
0.51047564 1.7414391 2.9506953
-0.84578657 1.7902405 2.9956222
-0.70599592 1.7837458 2.9760599
-0.66694462 1.7752808 2.9606605
-0.63077444 1.7731644 2.953063
-0.51125497 1.7879881 2.9960403
-0.21782145 1.7671297 2.9704111
-0.067229666 1.773976 2.9705033
0.43547207 1.7622126 2.986901
0.4740389 1.7770717 2.9647477
0.52045393 1.7722013 2.9505725
-0.85873133 1.8249018 2.9990582
-0.70713037 1.8189509 2.9657984
-0.67678124 1.8289443 2.9661884
-0.51414156 1.846689 2.9905221
-0.21943556 1.8201557 2.9742546
-0.11517671 1.8360994 2.954648
-0.077372387 1.8212748 2.9605851
0.43967044 1.8235412 2.9954016
0.46927413 1.8212738 2.971153
0.51307905 1.8157791 2.9598954
0.56681275 1.849534 2.9536288
-0.71396548 1.8773599 2.9748166
-0.67987424 1.8814598 2.9703343
-0.63162017 1.8793215 2.9578171
-0.51412493 1.8790528 2.9748726
-0.22048649 1.868978 2.9696321
-0.15564466 1.8687251 2.9558434
-0.12368102 1.8684508 2.956538
-0.084317535 1.8807136 2.9770308
0.4426313 1.876426 2.9965436
0.47443786 1.8718715 2.9725986
0.5180459 1.8729968 2.9603391
0.55121017 1.8672339 2.9507287
-0.71084297 1.931879 2.9771395
-0.67484039 1.9229552 2.9693129
-0.62804741 1.9214331 2.9576957
-0.51659155 1.9287466 2.9690604
0.4442749 1.9160197 2.9918449
0.4731234 1.9230602 2.9729397
0.52295727 1.9219607 2.9575148
0.55510604 1.9209893 2.9514623
-0.7059412 1.9740281 2.9757185
-0.66867304 1.9720117 2.9718611
-0.62885898 1.981787 2.9670465
-0.51876211 1.969559 2.9648318
0.44774085 1.9720993 2.9945297
0.47907749 1.9741292 2.9770973
0.52868795 1.9706336 2.9579101
0.55921531 1.9760741 2.9522781
-0.70914054 2.0244818 2.967129
-0.67775792 2.0257316 2.9705231
-0.63140458 2.0228682 2.9615357
-0.57257468 2.0438802 2.9519711
-0.52033436 2.0083065 2.9565852
0.470815 2.0205662 2.9838922
0.52591366 2.0291348 2.9665914
0.5720644 2.0335562 2.9534612
-0.71460533 2.0818906 2.9669852
-0.68065977 2.0803318 2.9709899
-0.62513024 2.0737987 2.9637382
-0.57971895 2.0794435 2.9529505
-0.5327183 2.0737665 2.9516869
0.46970689 2.0705326 2.9888771
0.52282131 2.0752063 2.9671631
0.56778204 2.085144 2.9548266
-0.86745566 2.1373816 2.999882
-0.84777105 2.1308637 2.9946818
-0.71360546 2.1318283 2.9664364
-0.68028796 2.1213562 2.9665952
-0.63144296 2.1251471 2.9603512
-0.59679824 2.1292355 2.955225
-0.52679121 2.1079419 2.9521
0.43862599 2.1141906 2.9892111
0.47476503 2.1193187 2.9849336
0.51904309 2.1243823 2.9672096
0.57183599 2.1293271 2.9593728
0.60344827 2.1146798 2.9501355
-0.86310816 2.1744237 2.9920197
-0.70681244 2.176276 2.9690542
-0.66803181 2.1717575 2.9625375
-0.62755668 2.182482 2.9582877
-0.58826756 2.1694229 2.9521077
0.44361278 2.1805208 2.9990978
0.47380012 2.1758277 2.98454
0.52507383 2.1764681 2.9660206
0.57495785 2.1745908 2.9559367
-0.86922961 2.215528 2.9797945
-0.70942217 2.2183089 2.9595211
-0.6776706 2.2161884 2.9591942
-0.63009816 2.2167168 2.9549987
-0.52256274 2.2270489 2.9861259
0.44124401 2.2280304 2.9896967
0.47849259 2.2278254 2.9764869
0.52881199 2.2258484 2.9668663
0.56150794 2.2213004 2.9557991
-0.52386963 2.2752323 2.9674406
0.44334385 2.2872336 2.9885581
0.48170531 2.2769449 2.9755726
0.53103548 2.2692165 2.9583912
0.56381655 2.2558794 2.9522915
-1.1659678 2.3181741 2.9756401
-1.1480898 2.3237507 2.97718
-0.53160322 2.3347719 2.9948418
0.19301909 2.3423119 2.9881749
0.22692084 2.3379941 2.9807074
0.27819279 2.3290956 2.9821675
0.33201411 2.3152554 2.9729791
0.38041815 2.3207567 2.9715884
0.4234415 2.3230681 2.9869196
0.46722743 2.3239365 2.9726906
0.51417679 2.3174901 2.9612358
0.55276132 2.331691 2.9540339
-0.53038251 2.3798323 2.9803364
-0.49074137 2.3982291 2.981401
0.16815972 2.3721781 2.9943316
0.3992973 2.3534508 2.9690926
0.42522079 2.3629818 2.9616776
0.46855757 2.3648674 2.9586427
0.51454693 2.3626978 2.955116
-0.46603814 2.4051919 2.993535
-0.43125087 2.4055071 2.9982042
0.076703042 0.39424169 3.0428782
0.12733275 0.39282691 3.0308206
0.17846815 0.39324543 3.0323715
0.20792946 0.39391059 3.0362952
0.047621366 0.42441764 3.0476995
0.078446612 0.42485639 3.0370505
0.12896363 0.42403638 3.0270908
0.1773086 0.42692843 3.0098112
0.21169958 0.42768782 3.0033097
0.047702495 0.48378778 3.0471439
0.076880567 0.47564712 3.0422542
0.1260291 0.47490418 3.0269835
0.17762657 0.47844627 3.0102973
0.20973666 0.47725958 3.0014575
0.084340312 0.5277645 3.0417912
0.12774967 0.52553034 3.027848
0.17806776 0.52324206 3.0129938
0.20669238 0.53658688 3.0034857
0.091619886 0.55673844 3.0363529
0.12799306 0.5606274 3.029433
0.17357482 0.57087135 3.0219431
0.22197452 0.58010036 3.0082784
0.25085378 0.59616828 3.0019577
-0.2827493 0.61713517 3.0300794
0.13644929 0.6046024 3.0494416
0.18658361 0.61348528 3.0465727
0.22289066 0.62968409 3.0352378
0.27116376 0.63150823 3.0124123
0.19602899 0.66564441 3.0485117
0.2255968 0.680435 3.0449352
0.27536961 0.67562622 3.0205772
0.31055754 0.67954361 3.0020146
0.19661129 0.71954429 3.0497274
0.22595996 0.72596997 3.0429819
0.27810585 0.72552335 3.0198576
0.31149387 0.72557831 3.0041609
0.22849649 0.77460527 3.0444164
0.27047282 0.7753191 3.0160127
0.19738787 0.80430967 3.0480967
0.23037113 0.82047176 3.0420403
0.27401611 0.82708758 3.0224698
0.088465124 0.88668102 3.0467312
0.12338568 0.88955539 3.0467594
0.17049278 0.89088136 3.0407684
0.22756267 0.87733144 3.038666
0.27638376 0.87746614 3.020505
0.313981 0.87911856 3.0016167
0.093507648 0.92714244 3.040592
0.12346227 0.927477 3.0410078
0.17519319 0.9244867 3.0294425
0.22748445 0.92467457 3.0089021
0.27044669 0.91240042 3.0071771
-0.30931571 0.98419732 3.0094898
-0.29430082 0.98383629 3.0094535
0.12576327 0.97396272 3.0426402
0.17734896 0.97388494 3.0267079
0.21837404 0.97756344 3.0085125
-0.46009457 1.0177481 3.0006161
-0.36489141 1.0310773 3.0251203
-0.32198012 1.0297834 3.0126789
-0.2956222 1.0182271 3.0161355
0.089285158 1.0206006 3.0483675
0.12441382 1.0251729 3.0449903
0.17450684 1.0231159 3.0327775
0.22293884 1.0361699 3.0099332
-0.45841834 1.091449 3.0252609
-0.41881937 1.0773941 3.0361066
-0.37515646 1.0765404 3.0375772
-0.32812151 1.0714269 3.0267475
-0.2969842 1.068025 3.019331
0.12665516 1.071632 3.0435586
0.17719601 1.070641 3.0331612
0.22840603 1.0783749 3.0065713
-0.46978307 1.1147521 3.0273621
-0.43338671 1.1007636 3.007807
-0.37188283 1.1122139 3.0268631
-0.32719058 1.12374 3.0183175
-0.29843453 1.1185933 3.0227602
0.1176428 1.1077554 3.0469708
0.17350391 1.119887 3.0374503
0.21973895 1.1301188 3.0138917
0.25912592 1.1265715 3.0023155
-0.3170763 1.1719185 3.0129533
-0.29900405 1.1661698 3.0166068
0.1860352 1.1540064 3.0348639
0.22404765 1.1662441 3.015167
0.26640311 1.1918192 3.0129681
0.2471474 1.2014443 3.0243108
0.27886641 1.2300903 3.0304163
0.32298878 1.241243 3.0059278
0.28274095 1.2791485 3.0399051
0.32322258 1.2754648 3.021616
0.36326036 1.2848611 3.0115836
0.28988066 1.3296182 3.0403728
0.32843611 1.331248 3.0362949
0.37023783 1.321854 3.0112965
0.4026008 1.3267549 3.0046411
0.28301239 1.3750979 3.037323
0.32867822 1.3766973 3.0244703
0.3737537 1.3718314 3.0099502
0.4033758 1.3523523 3.0031431
0.27881986 1.4254035 3.0416467
0.33255342 1.4294934 3.0272434
0.37590829 1.4262663 3.011884
-0.49833265 1.4837148 3.0244021
-0.32930845 1.4864249 3.0371623
0.27547628 1.4674782 3.0428622
0.3209568 1.4714297 3.0276299
0.37953424 1.477391 3.0096064
0.40813628 1.4771842 3.0018606
-0.49357668 1.5245703 3.0215285
-0.35973552 1.5343604 3.0474145
-0.32145405 1.5225844 3.039237
0.27390528 1.527221 3.0442071
0.32596347 1.523965 3.0292604
0.37780398 1.524833 3.0160279
0.41114154 1.5350668 3.0069003
-0.50008821 1.5677152 3.006005
-0.48870683 1.5739504 3.0380299
-0.32545841 1.5653337 3.0445442
0.27826914 1.5667862 3.0433846
0.31979591 1.5714558 3.0311601
0.37735313 1.5726991 3.0226076
0.41320226 1.5742798 3.0100758
-0.50390536 1.6193985 3.0134609
-0.49228278 1.6254773 3.0448289
-0.3151505 1.6282279 3.0490143
0.29071009 1.616899 3.0475438
0.32221085 1.6231608 3.038835
0.37239361 1.6200268 3.0287325
0.41571295 1.6313787 3.0098231
-0.86329949 1.670441 3.0126512
-0.50702989 1.6693761 3.016036
-0.49258897 1.6665574 3.0306604
-0.21111615 1.6895766 3.025476
-0.16661291 1.6791461 3.0176096
-0.075344793 1.6833035 3.0189497
0.29239324 1.6663207 3.0494082
0.32631612 1.6757805 3.0385492
0.37124288 1.6768111 3.026366
0.409475 1.6699357 3.0101833
-0.86653882 1.7255255 3.0029075
-0.84227985 1.7421032 3.0016253
-0.51028812 1.7283635 3.0151343
-0.49675262 1.7210643 3.0395169
0.32400945 1.7249193 3.041507
0.37304911 1.7250344 3.0243073
0.41191146 1.7279077 3.0079734
-0.87313843 1.7796752 3.0074375
-0.84471565 1.763473 3.0030017
-0.50622582 1.774559 3.0261567
-0.49986246 1.7562079 3.048146
0.32783452 1.7729748 3.0418098
0.377343 1.7739722 3.026046
0.41253603 1.784771 3.0136302
-0.87551773 1.8091654 3.0042591
-0.50919533 1.8256605 3.0255234
0.33959165 1.8211193 3.0426893
0.3762171 1.8284429 3.0348575
0.42240945 1.8262037 3.015645
-0.8669278 1.875566 3.0117626
-0.84413326 1.8885136 3.0207663
-0.060691804 1.8711827 3.0123723
0.34057182 1.8794506 3.0458963
0.38146427 1.8789188 3.0413485
0.41958579 1.8742491 3.012593
-0.8733449 1.9312325 3.013381
-0.84724677 1.928888 3.0153961
-0.061084479 1.907706 3.0202186
0.37504369 1.9258735 3.0385883
0.42572466 1.9277214 3.0182133
-0.87643564 1.9847161 3.0245755
-0.84721994 1.9538819 3.0026116
0.33534348 1.95435 3.0462372
0.36586627 1.9748236 3.0413184
0.42144623 1.9692268 3.0227902
-0.86788499 2.0243857 3.0217762
0.38233095 2.0283322 3.0469904
0.42035979 2.0232749 3.025219
-0.87369198 2.0720232 3.0234947
-0.84481698 2.0724652 3.0128841
0.38614142 2.084178 3.0465004
0.42285535 2.0771496 3.0209692
-0.87807751 2.1177378 3.0103757
-0.84785318 2.1140161 3.0047102
-0.51942718 2.1207151 3.0221095
0.37674633 2.1254141 3.0456131
0.4156608 2.1284993 3.0223699
-0.8920511 2.1727638 3.0111947
-0.52282393 2.1686203 3.022655
0.33311102 2.1805699 3.0383899
0.37803322 2.1751938 3.0322084
0.42449135 2.1764364 3.0156391
-0.89704657 2.2022781 3.017797
-0.52431703 2.2003965 3.0164857
0.32862669 2.2197928 3.0318131
0.38028708 2.2309034 3.0254977
0.42167705 2.2239728 3.0115771
0.29286471 2.2744617 3.0421379
0.3292709 2.2752361 3.0359609
0.38211223 2.276037 3.0194795
0.42171386 2.2763984 3.0101383
-1.2108845 2.3065679 3.0065176
-1.1754316 2.3248806 3.032665
-1.139975 2.3256152 3.0199494
-0.52051759 2.3454208 3.0445721
0.23314904 2.3276355 3.0248823
0.28040233 2.3214064 3.0218191
0.32743442 2.3140397 3.0166407
0.38228941 2.3029659 3.0051441
-0.50967962 2.3753636 3.0239046
-0.4682841 2.3905857 3.0253305
-0.43522432 2.3924863 3.0488801
-0.34606105 2.383986 3.0472491
0.17902167 2.3756289 3.0482576
-0.42746612 2.4053347 3.020997
-0.38075402 2.408066 3.0239694
-0.32875219 2.4119132 3.0338421
-0.27590066 2.4186144 3.0298171
-0.24183536 2.4282413 3.0443861
-0.18890205 2.426152 3.0448339
-0.018428516 0.39921695 3.0818915
0.025746861 0.39662343 3.0618138
0.23136187 0.39655542 3.0556293
-0.066763066 0.42879903 3.0923409
-0.025825856 0.42878786 3.0792398
0.023726517 0.42575714 3.0574586
0.06228032 0.40995309 3.0501077
-0.10050937 0.47685865 3.098115
-0.070511103 0.47539917 3.0891712
-0.025835143 0.47315252 3.0749729
0.021361023 0.4690569 3.0580554
-0.0705835 0.52038264 3.0868437
-0.025877301 0.51863086 3.0769231
0.02440686 0.52553093 3.0641241
0.06266091 0.53033108 3.0568123
-0.026068153 0.55255198 3.0975888
0.03184066 0.57653964 3.0805507
0.075938754 0.57935482 3.0669034
0.11834779 0.58787012 3.0611384
-0.2750136 0.62744695 3.0811803
0.042637635 0.6307134 3.0900812
0.078035146 0.6238004 3.0707269
0.12071698 0.62568641 3.0697019
0.1647083 0.62693691 3.0624461
-0.28205642 0.67718244 3.0971146
0.043801472 0.66992879 3.0957396
0.078210652 0.66999149 3.0719028
0.12297893 0.67058551 3.0736902
0.16932243 0.67721927 3.0594215
-0.28528175 0.73280436 3.0685065
0.042886805 0.71842301 3.0952561
0.079813413 0.72244078 3.074501
0.12326393 0.72440642 3.0728457
0.17051874 0.73113596 3.0605643
-0.28131637 0.75044972 3.077388
0.039009061 0.76913947 3.0980999
0.078739256 0.77810693 3.077769
0.12352683 0.77827007 3.0705938
0.17542428 0.77634001 3.0612752
0.21199214 0.75859171 3.0509467
-0.069897734 0.83385909 3.0963051
-0.026340524 0.82670039 3.0892959
0.030207904 0.82756829 3.0857179
0.078930229 0.82667327 3.0768087
0.12378015 0.82476664 3.0686641
0.17427211 0.82666743 3.0688074
0.21294601 0.83671784 3.0515864
-0.07191103 0.86368543 3.0963333
-0.02640496 0.87685335 3.0868635
0.028056106 0.87420094 3.0689998
0.075340129 0.871907 3.0566492
0.12366924 0.86146593 3.0590146
0.17936662 0.86744106 3.061532
0.21324848 0.85287005 3.0531363
-0.056944497 0.91983116 3.0967345
-0.02650789 0.92568874 3.0896115
0.024339937 0.92060506 3.0678062
0.071466416 0.93220496 3.0575964
-0.05721793 0.99298131 3.0971944
-0.026603619 0.97447562 3.090457
0.028243374 0.97011888 3.0687292
0.079175703 0.97982585 3.0557535
0.10928021 0.99442637 3.050426
-0.28675348 1.0326917 3.0844946
-0.057325769 1.0101556 3.099659
-0.024761576 1.0210848 3.0894287
0.026600426 1.0211916 3.0712383
0.074408337 1.0310001 3.0553019
-0.2876353 1.0742652 3.0849807
0.030629355 1.0690875 3.0851743
0.081768528 1.0778067 3.0621424
0.11004334 1.092427 3.0505054
-0.28883538 1.1249592 3.08652
-0.057782084 1.1261648 3.0988209
0.080759265 1.1225442 3.0884137
0.13217655 1.1308591 3.0641682
-0.29036179 1.1773952 3.0908515
0.096771546 1.1684737 3.0982285
0.1307046 1.1751806 3.0925095
0.16979048 1.1769316 3.0691206
0.2111699 1.1978242 3.0600677
-0.29121464 1.2119025 3.0916209
0.13986224 1.2234752 3.0955019
0.17430532 1.2239691 3.0846262
0.22397706 1.2261791 3.0633223
0.25804374 1.2478321 3.0544102
0.13913974 1.2688351 3.097084
0.17520992 1.2770282 3.0874147
0.2209498 1.2714505 3.0718489
0.25595537 1.2707597 3.0543499
0.13719086 1.3245323 3.0974302
0.17621167 1.3312721 3.0910916
0.22244674 1.3269291 3.0788579
0.25840634 1.3223009 3.0579402
0.32959852 1.3184135 3.0523024
0.13184339 1.3713063 3.0976663
0.17871408 1.380528 3.0865426
0.22275461 1.3756272 3.0685
0.25317636 1.3710054 3.0565159
0.13262816 1.4174067 3.0963666
0.17728096 1.426041 3.0825436
0.22370696 1.4286554 3.0664339
0.25389707 1.4139836 3.0526085
0.13651423 1.484252 3.0973651
0.17601798 1.4733588 3.0811801
0.22708742 1.4786446 3.0672133
0.26104429 1.4901732 3.0528638
-0.47536606 1.5424044 3.0711937
-0.37672809 1.5231997 3.0610042
-0.34437707 1.5363957 3.0527809
-0.29905868 1.5397396 3.0818033
0.13155565 1.5146105 3.0962658
0.18131219 1.5232661 3.0848362
0.22369312 1.5223606 3.0654483
-0.46803838 1.5767013 3.0646574
-0.42867264 1.570991 3.0763543
-0.37661242 1.5753031 3.0630202
-0.33075723 1.5868216 3.0602007
-0.29945812 1.5657678 3.0771849
0.18047588 1.5743245 3.0953434
0.22749645 1.5727129 3.0765994
0.26677275 1.5848371 3.0609138
-0.47043595 1.6250108 3.0649397
-0.43093896 1.6256235 3.0749865
-0.38333037 1.624143 3.0675271
-0.32323065 1.6245071 3.0615478
0.14268272 1.631411 3.0936692
0.18083842 1.6234188 3.084378
0.22856103 1.6200516 3.0756559
0.27126634 1.6333888 3.0565987
-0.46593061 1.6780472 3.0733502
-0.41999221 1.6758727 3.0820391
-0.36704168 1.6784564 3.065762
-0.3196649 1.6747044 3.0627236
-0.17299432 1.6823962 3.0675762
-0.12691884 1.6793134 3.0771313
-0.084334448 1.6880662 3.0627422
0.13680759 1.6739624 3.0931458
0.18363447 1.6768833 3.0794761
0.22951841 1.6751205 3.0694187
0.27391991 1.6805961 3.0552514
-0.47138742 1.7254642 3.0788934
-0.42064929 1.723889 3.0893295
-0.36960861 1.7253996 3.0727546
-0.31967685 1.7245498 3.0634193
-0.207498 1.7096008 3.097574
0.085740671 1.7468336 3.0967195
0.12356684 1.7271696 3.0964386
0.17164162 1.7279203 3.0889034
0.23097797 1.7263421 3.072552
0.28121707 1.7256186 3.0605028
-0.47879368 1.777921 3.0817788
-0.42121449 1.7738427 3.0925899
-0.37487373 1.7737533 3.0821216
-0.32196021 1.777652 3.0679617
0.085947499 1.7756298 3.0938654
0.11193112 1.7773945 3.0856626
0.17130926 1.7803085 3.0958176
0.22715823 1.774024 3.0797839
0.27832106 1.7737124 3.0598905
-0.47991687 1.8251898 3.0903275
-0.41748118 1.8276411 3.0924046
-0.37280071 1.8275112 3.0831094
-0.32451859 1.8329681 3.0743904
0.11110045 1.8263688 3.0921192
0.18544883 1.8214729 3.0988226
0.22363918 1.818047 3.0822346
0.27777553 1.8272094 3.0656476
0.31421697 1.8201811 3.0536656
-0.50862193 1.878037 3.0606196
-0.48919353 1.8687707 3.0889237
-0.42424089 1.8763893 3.094147
-0.37972802 1.8796933 3.0851002
-0.32671255 1.878387 3.0800288
0.11157118 1.8591459 3.0946479
0.18666971 1.8832786 3.0969274
0.21741152 1.8740239 3.0931945
0.2724182 1.8690516 3.071074
0.32065001 1.8769811 3.0563927
-0.51063359 1.9186605 3.0569792
-0.49348527 1.9202818 3.0881095
-0.42200756 1.9144228 3.0954552
-0.38015899 1.9307437 3.0910075
-0.32890832 1.9242514 3.0849879
0.18223661 1.9309088 3.0991895
0.22040783 1.9215335 3.087971
0.26961353 1.920128 3.0752699
0.31855702 1.9282155 3.0575876
-0.50982875 1.9811013 3.0873115
-0.37076488 1.9706515 3.0918291
-0.33286062 1.9748938 3.0829303
0.22996151 1.9653141 3.0880756
0.27429608 1.9746304 3.0826619
0.31832305 1.982034 3.0703952
-0.51306963 2.0260212 3.0768867
-0.36397719 2.0241933 3.0904737
-0.32452118 2.023726 3.0862322
0.17304473 2.0258939 3.0990622
0.23206934 2.025527 3.0955241
0.27112198 2.024955 3.0823195
0.32559913 2.0271571 3.0669174
0.3552157 2.0145898 3.0525165
-0.51440209 2.0754282 3.0758681
-0.36723581 2.079385 3.0924511
-0.3252171 2.0761199 3.090028
0.23524833 2.0758846 3.0960469
0.27516487 2.0746744 3.0814326
0.3251982 2.0782306 3.0658529
0.3622129 2.0725591 3.0541606
-0.5132091 2.1221886 3.0765667
-0.37261704 2.1307976 3.0936203
-0.32865003 2.1264091 3.0854383
0.23090872 2.134135 3.0951195
0.27846992 2.1239514 3.0729158
0.32428855 2.1267228 3.0594883
-0.51127589 2.1662037 3.0722036
-0.49770606 2.1820605 3.0969396
-0.40891501 2.1530066 3.0996327
-0.3701019 2.1741586 3.0909939
-0.33106461 2.1764526 3.089241
0.23101237 2.1748495 3.0907362
0.27778512 2.1715131 3.0693421
0.31931806 2.1632037 3.0543785
-0.51219797 2.2233028 3.0846739
-0.49846131 2.2027197 3.0918753
-0.41335279 2.2373362 3.0990472
-0.37761733 2.2317841 3.0948651
-0.33278826 2.2223454 3.0857494
0.22866584 2.2181077 3.0873411
0.27749875 2.2226939 3.0693493
-0.51150143 2.2829967 3.0817771
-0.42790005 2.2908409 3.0970371
-0.37618697 2.2805531 3.0905812
-0.33411685 2.265964 3.0779002
0.19569218 2.2702715 3.0933523
0.23222192 2.2669168 3.0794394
0.26966536 2.2732241 3.0646534
-1.1637881 2.3194432 3.079278
-0.51204365 2.3204718 3.0638161
-0.47045544 2.3224089 3.089009
-0.42638579 2.3306446 3.0881298
-0.38155183 2.3252571 3.0856121
-0.33481893 2.3228574 3.0765064
0.18831632 2.3213906 3.0948384
0.22612599 2.3203404 3.0744102
0.27311957 2.3068089 3.0533781
-0.504646 2.3529997 3.0568209
-0.47076258 2.3679955 3.0638647
-0.42084751 2.373487 3.0655792
-0.37980431 2.371932 3.0621881
-0.32941082 2.3759582 3.0665369
0.14534953 2.3609853 3.0982375
0.18362859 2.3661964 3.0830059
-0.27851224 2.4186723 3.0732214
-0.22327299 2.4216199 3.0752225
-0.17256847 2.4260273 3.079242
-0.1194711 2.4348681 3.0755901
-0.075219288 2.4358206 3.0779574
-0.030995829 2.4370623 3.0801227
0.022158852 2.4368839 3.0799615
0.075345986 2.4376049 3.0801675
0.12839879 2.4266534 3.0817938
0.16320002 2.4085777 3.0743909
-0.12436737 0.39221963 3.1439517
-0.071457244 0.39151987 3.1394622
-0.0262099 0.38976374 3.1258428
0.02641096 0.39037502 3.1307321
-0.16121453 0.42015359 3.1235473
-0.12189186 0.4249447 3.1153553
-0.07813593 0.41336462 3.1032298
-0.040837318 0.40164205 3.1004775
-0.16595979 0.46689498 3.1140442
-0.12726994 0.47685346 3.113919
-0.17697692 0.54245806 3.1239808
-0.12132806 0.52371049 3.1055219
-0.21889998 0.57753438 3.1334701
-0.17752899 0.57438475 3.1300859
-0.1231655 0.57249987 3.1086671
-0.071151383 0.56984907 3.1080823
-0.026160436 0.57682192 3.1048954
0.011305462 0.59198368 3.1040835
-0.2588594 0.61916369 3.1176331
-0.2244247 0.62407345 3.144352
-0.17816436 0.62197232 3.1356673
-0.12251823 0.62359452 3.1155448
-0.071317419 0.6237331 3.1084883
-0.02628047 0.62469161 3.1137114
0.013184464 0.62459487 3.1037138
-0.26258796 0.67166221 3.1242738
-0.22489078 0.67114758 3.1447034
-0.17714739 0.67237377 3.1377761
-0.12698862 0.67699581 3.1234746
-0.071820877 0.68093109 3.1221299
-0.026347796 0.67890233 3.1133647
0.020524064 0.67852265 3.1037881
-0.26118562 0.7257877 3.125746
-0.2239411 0.72388238 3.1433661
-0.1805037 0.72648036 3.1378202
-0.12499177 0.72764951 3.1199839
-0.072089046 0.72915626 3.1275654
-0.026428914 0.72648692 3.1165407
0.014605431 0.72641879 3.1067605
-0.26743144 0.77145582 3.1255546
-0.22745898 0.77842808 3.1430163
-0.17945766 0.77928543 3.1357062
-0.12524363 0.77460843 3.1186295
-0.072085679 0.77475029 3.1204157
-0.026490182 0.77393246 3.1175284
0.022292754 0.77073282 3.1046062
0.064326286 0.77125895 3.1064429
-0.22468622 0.83184648 3.143786
-0.17992622 0.82727706 3.1360033
-0.12318516 0.82510346 3.1123512
-0.075603165 0.80592948 3.1029453
-0.026432689 0.80300903 3.1074805
0.015185181 0.80629987 3.1049435
-0.25695625 0.88243794 3.1280491
-0.22700855 0.87768364 3.141499
-0.18045491 0.87577033 3.1366909
-0.12576854 0.87684202 3.1135418
-0.072142012 0.88933021 3.1021519
-0.25848857 0.93401968 3.1376257
-0.22771901 0.92673326 3.1422317
-0.18094911 0.92438507 3.136328
-0.12613745 0.92535597 3.1139221
-0.076758303 0.93282288 3.1051173
-0.22665913 0.97676671 3.1446943
-0.17584103 0.9747467 3.1356025
-0.12191623 0.97430879 3.1143694
-0.07453493 0.97739035 3.105664
-0.266922 1.037323 3.1246378
-0.2176754 1.022764 3.1463108
-0.17411746 1.0218573 3.1325684
-0.11923504 1.0262437 3.1140141
-0.074836068 1.031372 3.1075449
-0.042132888 1.0434889 3.1010096
-0.26747224 1.0704281 3.1236818
-0.23027489 1.0776957 3.1469975
-0.17495985 1.0734757 3.1370552
-0.1219063 1.0706352 3.116518
-0.073110685 1.0782943 3.1052058
-0.028861843 1.0788313 3.1132956
0.011639296 1.0889603 3.1125093
-0.26867434 1.1219643 3.1263599
-0.23142427 1.1379331 3.1492271
-0.1756258 1.1243873 3.1376612
-0.12029595 1.1182446 3.1223514
-0.075462349 1.1307932 3.1112199
-0.025472935 1.1278893 3.113121
0.016005706 1.1282734 3.1204536
0.059621401 1.1357625 3.1065426
-0.26989463 1.1740141 3.1286857
-0.22414033 1.180194 3.1476479
-0.16841599 1.1754751 3.1374698
-0.12073626 1.1690581 3.1218271
-0.071752548 1.1781597 3.1073561
-0.029396189 1.1795634 3.1188099
0.021747995 1.1722401 3.1188493
0.071334265 1.1823275 3.1127329
0.11768624 1.184258 3.1019032
-0.27427748 1.2278607 3.1271951
-0.21442015 1.2265655 3.1484158
-0.16913892 1.2277803 3.1385169
-0.12137534 1.2221767 3.125701
-0.076202869 1.22026 3.1092052
-0.025381381 1.224614 3.1279991
0.019649403 1.223917 3.1317375
0.071594074 1.2230783 3.1143582
0.11925707 1.2342932 3.103827
-0.2744951 1.2789271 3.1385078
-0.22057872 1.2764485 3.1484787
-0.16978996 1.2799137 3.1374345
-0.12183224 1.2740207 3.1245139
-0.074404359 1.269931 3.1155214
-0.027467063 1.2749814 3.1284556
0.019745285 1.2762053 3.1315107
0.074666835 1.272895 3.1227696
0.12529595 1.2839171 3.1058235
-0.26807612 1.3268214 3.1357708
-0.21069658 1.3204309 3.147872
-0.16825175 1.3284804 3.1384833
-0.12249178 1.328301 3.1274846
-0.074676543 1.3218697 3.1133795
-0.027585804 1.3276674 3.1275792
0.019808376 1.3278264 3.1280131
0.074853525 1.3233706 3.1169193
0.12433058 1.3189439 3.105407
-0.26671067 1.3699243 3.13465
-0.20333309 1.3561821 3.147954
-0.17328608 1.3729525 3.1409655
-0.12100535 1.3794438 3.1265957
-0.075141318 1.3775679 3.1182218
-0.027731031 1.3744155 3.1321342
0.022155818 1.3766881 3.1285179
0.075107001 1.3754488 3.1134322
0.11416337 1.3537757 3.1041241
-0.20507535 1.4482622 3.1496041
-0.17001458 1.4227486 3.1404974
-0.12587342 1.4246514 3.129544
-0.075511239 1.4240311 3.1207798
-0.027857453 1.420415 3.1334429
0.017994225 1.4219519 3.1318638
0.077566169 1.4269032 3.1106679
0.12295233 1.4433398 3.1021452
-0.16230847 1.4709734 3.146965
-0.12454788 1.4772731 3.1400547
-0.075876571 1.4706864 3.1222517
-0.027982613 1.4757185 3.133508
0.02007371 1.4749581 3.1319058
0.073126227 1.4727405 3.1135817
0.12058096 1.4678354 3.1022015
-0.30064565 1.5158293 3.1095669
-0.28730077 1.5301728 3.1400752
-0.16928028 1.5236503 3.1466422
-0.12497717 1.5212682 3.1376748
-0.076316565 1.5276159 3.1241279
-0.030117096 1.5279497 3.1302214
0.020192249 1.5236193 3.1359291
0.073502213 1.5196729 3.1164391
0.12151307 1.5327011 3.1079319
-0.28819004 1.5755533 3.1352799
-0.15850252 1.5777702 3.1464303
-0.12546825 1.5711247 3.1342182
-0.076667435 1.5750375 3.1241524
-0.028220745 1.5766844 3.1280012
0.020324213 1.5737255 3.1411533
0.066543087 1.5752017 3.1327534
0.12829198 1.5781152 3.1176097
0.16483824 1.5758189 3.1043885
-0.28986686 1.6255318 3.1384435
-0.12396438 1.6242952 3.1298378
-0.076901741 1.6203518 3.1186354
-0.026341422 1.627687 3.1286507
0.020368444 1.6266176 3.131336
0.068853825 1.6193233 3.1168392
0.11261833 1.6167662 3.1110179
-0.2914257 1.6753662 3.1395249
-0.17314477 1.6803468 3.1305821
-0.12634347 1.6636045 3.1255269
-0.079763278 1.6755804 3.1226518
-0.028610045 1.6798774 3.1392288
0.020466708 1.6762413 3.1325061
0.071216382 1.6740483 3.1140382
0.10796092 1.6718419 3.1045365
-0.21698332 1.7120948 3.1198258
-0.066644147 1.704383 3.1168582
-0.02863846 1.7220751 3.125186
0.020510834 1.7198119 3.1211348
0.067498244 1.7256192 3.1130197
0.11186328 1.7273678 3.1043742
-0.45764491 1.773483 3.1017184
-0.028763345 1.771163 3.1225328
0.022660891 1.7741448 3.1143041
0.059948049 1.7760128 3.1056104
0.13544883 1.7729225 3.1055696
0.15163618 1.7702681 3.1004641
-0.46651563 1.8334876 3.103056
-0.44373098 1.8253535 3.1036026
-0.031300403 1.8181381 3.1249526
0.020747632 1.8237454 3.1185281
0.070254438 1.8262721 3.1105089
0.13631988 1.8256221 3.1078234
0.16092485 1.8237419 3.1037133
-0.46930885 1.8834714 3.1040633
-0.4372448 1.8662213 3.1024446
-0.02683012 1.8743883 3.1390717
0.018497258 1.8738325 3.1280839
0.070561297 1.8674625 3.1093686
0.12059106 1.8826414 3.1088259
0.16659392 1.8632774 3.1031651
-0.47243699 1.9296948 3.1090457
-0.43620551 1.9216174 3.1057465
-0.029471602 1.9327631 3.1434157
0.021021379 1.9228797 3.1309049
0.071101852 1.9233475 3.113549
0.12126119 1.9257766 3.1105678
0.1613014 1.9189717 3.1109254
-0.46916547 1.9703846 3.1103954
-0.41962656 1.9765825 3.1036699
-0.38396317 1.9922949 3.101557
-0.088507414 1.9915869 3.1176422
-0.029597975 1.9733043 3.1418669
0.023582343 1.9727066 3.1334035
0.071581416 1.9790306 3.1155548
0.12440961 1.9731222 3.1123841
0.17243718 1.9768416 3.1090984
0.20578843 1.973965 3.1030197
-0.46972772 2.0220883 3.108448
-0.41997275 2.028465 3.1020451
-0.38591585 2.0363715 3.1003308
-0.072385222 2.0195549 3.1441922
-0.018410861 2.0164449 3.145792
0.021305094 2.0245099 3.1350219
0.071918428 2.0219445 3.1131999
0.12290738 2.0252264 3.1170158
0.17336419 2.0197275 3.110163
0.2193625 2.0124085 3.1018319
-0.4782773 2.0767167 3.1113615
-0.42283273 2.0764577 3.1056192
-0.38704109 2.0593309 3.1006596
0.038423307 2.0644724 3.1269128
0.076216847 2.0783231 3.1334069
0.12387904 2.0761433 3.1255124
0.17461713 2.0699825 3.1143601
0.21367033 2.0605373 3.1039569
-0.47880057 2.1279867 3.1144044
-0.42540511 2.1234107 3.10624
-0.39040288 2.1287277 3.1004553
0.038984336 2.1466894 3.145757
0.073344328 2.1310115 3.1394529
0.12454399 2.1216404 3.1243763
0.17780992 2.1232162 3.111768
0.2151026 2.1141446 3.103802
-0.47798854 2.1766026 3.112289
-0.43193144 2.1751451 3.1085403
0.033401903 2.1883461 3.1486619
0.07375066 2.1779058 3.1388018
0.12517394 2.1669376 3.1217289
0.17673916 2.1755292 3.1092596
0.21069506 2.167335 3.1016333
-0.47575024 2.2268271 3.1117125
-0.43410492 2.2173905 3.1065907
-0.38532311 2.2002306 3.1011326
0.033550475 2.2267666 3.1459351
0.074171782 2.2251122 3.1372995
0.12857485 2.2211866 3.1230016
0.17560162 2.2290809 3.1127398
-0.50315619 2.2584906 3.100847
-0.47307092 2.2757709 3.1078751
-0.43266368 2.2618544 3.1024609
-0.39837146 2.2773027 3.1045949
-0.31319538 2.2859635 3.1415958
0.039627954 2.2792363 3.1445162
0.07463526 2.2742403 3.1371117
0.12680526 2.2739091 3.118154
0.17025343 2.2790062 3.1064649
-1.319922 2.3004844 3.1156151
-1.190315 2.3172214 3.1451392
-0.31449372 2.3309035 3.1337323
-0.10217436 2.3471172 3.1496921
-0.084328823 2.3451812 3.1475158
-0.013286206 2.3456144 3.1489851
0.02573288 2.3339124 3.1468995
0.075031631 2.3217173 3.1332271
0.12757091 2.3256814 3.1143768
0.16235578 2.3258305 3.101965
-0.31411883 2.3635123 3.1085312
-0.2810086 2.3920109 3.1315038
-0.24613401 2.3997684 3.144124
-0.17418689 2.3949106 3.1416004
-0.12018933 2.3783534 3.1390431
-0.075679339 2.3793263 3.1414523
-0.02673885 2.3871295 3.1437626
0.022264371 2.37623 3.1380208
0.07537666 2.3767486 3.1208506
0.12242955 2.3777645 3.1095936
0.16342171 2.3676264 3.1062431
-0.28035566 2.4042237 3.1130676
-0.22413155 2.4051299 3.1317539
-0.16932678 2.4119897 3.1210799
-0.12020131 2.4142926 3.1173313
-0.075709142 2.4157262 3.1203501
-0.031185724 2.4177392 3.1235592
0.022284267 2.4138672 3.1186087
0.075501777 2.41571 3.1032524
-0.12502232 0.39430547 3.1607194
-0.24251507 0.81641126 3.1531947
-0.26065806 0.98076677 3.1559381
-0.24468629 0.97914004 3.1515496
-0.24007902 1.0357062 3.1620142
-0.2313607 1.1276077 3.1510465
-0.22440808 1.1816182 3.1514997
-0.23835237 1.2278223 3.1504993
-0.2502166 1.2873541 3.1520488
-0.23360586 1.2556739 3.1509914
-0.25077325 1.3141146 3.1521552
-0.23500651 1.3229889 3.1527932
-0.25236228 1.3785721 3.1552722
-0.22217214 1.3796599 3.1541724
-0.25426549 1.4373933 3.1638303
-0.22134715 1.4251758 3.158932
-0.1890042 1.4483968 3.1506121
-0.2545065 1.4711075 3.1562169
-0.22426775 1.4735708 3.1580997
-0.18424743 1.4801025 3.1523354
-0.2678307 1.5397406 3.1676524
-0.22123863 1.5243319 3.1625974
-0.19026802 1.5147872 3.1526628
-0.26431668 1.5751193 3.1669383
-0.22705248 1.5736903 3.1690173
-0.18332712 1.5732586 3.1556759
-0.26868898 1.6244481 3.1643188
-0.22407524 1.6263114 3.1737545
-0.17838828 1.6266702 3.160851
-0.27370286 1.6745214 3.1692924
-0.22987376 1.6760256 3.1774671
-0.18554199 1.6747854 3.1631305
-0.2766622 1.7264243 3.1771107
-0.23206766 1.7205194 3.1752038
-0.28896543 1.7765758 3.1773009
-0.24641758 1.7716113 3.1710253
-0.29280409 1.8164924 3.1741874
-0.24722673 1.8277521 3.1602113
-0.30154932 1.8780077 3.1886227
-0.24831213 1.8694645 3.1593943
-0.30295897 1.9209681 3.18823
-0.25102666 1.9239877 3.1785622
-0.029474961 1.9152741 3.1537499
-0.30534714 1.9705088 3.1975186
-0.25252056 1.9782261 3.1776233
-0.3066375 2.0220437 3.1904526
-0.25264522 2.0049064 3.1669199
-0.16776232 2.048641 3.1691339
-0.081590541 2.044807 3.1657603
-0.041409705 2.0363371 3.1649008
-0.30764878 2.0720751 3.1796186
-0.21754833 2.0708041 3.1869159
-0.16868809 2.0698459 3.1806297
-0.12522654 2.0740173 3.1744392
-0.081886113 2.0783253 3.1646321
-0.030178607 2.0805004 3.1686318
0.010093019 2.0767834 3.1572635
-0.31083143 2.1285341 3.194675
-0.20541219 2.1250839 3.1960354
-0.16981323 2.1171131 3.185606
-0.11755607 2.1347604 3.1787782
-0.0788645 2.123539 3.1664538
-0.030311199 2.1243656 3.1648433
0.021655375 2.1208732 3.159709
0.056111824 2.1052485 3.1534882
-0.31139064 2.167474 3.1820173
-0.21979725 2.1682689 3.1979475
-0.1688626 2.1743028 3.1871936
-0.12054096 2.1744866 3.1748168
-0.074000083 2.1696699 3.1614759
-0.030500086 2.1734717 3.167568
0.013079851 2.1665335 3.1575649
-0.31190124 2.2149596 3.163414
-0.21996117 2.2270281 3.198494
-0.17479959 2.2324164 3.1866672
-0.11873408 2.2261796 3.1723289
-0.074536741 2.2201614 3.1648211
-0.030634129 2.2179632 3.1622336
0.0088092173 2.2311149 3.1550188
-1.334599 2.2888334 3.1729724
-0.3130846 2.258673 3.1557052
-0.298199 2.2708225 3.1915143
-0.21815333 2.2716103 3.197686
-0.17326464 2.2844431 3.1828482
-0.11938092 2.2736113 3.1696749
-0.074922957 2.2669444 3.1614656
-0.02861641 2.2733068 3.1579063
0.013247991 2.2733157 3.1537793
-1.2697179 2.3078353 3.1844978
-1.2018696 2.3211386 3.1869559
-0.28922048 2.329298 3.1857896
-0.22585919 2.3244116 3.1874952
-0.17392062 2.3289022 3.1744521
-0.12001809 2.3214409 3.1662543
-0.075349025 2.3155098 3.1592832
-0.035463959 2.3213172 3.1591041
0.010359894 2.3077714 3.1551778
-0.27997798 2.3686078 3.1655295
-0.23116997 2.372896 3.1688464
-0.17433119 2.3700964 3.1605895
-0.12926458 2.3548 3.1592026
