ply
format ascii 1.0
comment PCL generated
element vertex 1514
property float x
property float y
property float z
element camera 0
property float view_px
property float view_py
property float view_pz
property float x_axisx
property float x_axisy
property float x_axisz
property float y_axisx
property float y_axisy
property float y_axisz
property float z_axisx
property float z_axisy
property float z_axisz
property float focal
property float scalex
property float scaley
property float centerx
property float centery
property int viewportx
property int viewporty
property float k1
property float k2
end_header
-2.4681504 2.3920767 3.1354043
-2.4189982 2.3948479 3.1376081
-2.3570652 2.3841248 3.1037014
-2.3355572 2.3933334 3.1359277
-2.2692738 2.3770497 3.1296177
-2.2169027 2.3742366 3.1225226
-2.1556389 2.3821487 3.1239865
-2.1287825 2.3844423 3.1192708
-2.0608401 2.3735995 3.1146469
-2.0165606 2.3679605 3.1298065
-1.9702598 2.3688662 3.1250916
-1.9161166 2.3708136 3.1184146
-1.8661232 2.3666394 3.1142406
-1.8248609 2.3633101 3.129812
-1.7817851 2.3661668 3.125809
-1.726889 2.3738651 3.1056025
-1.659555 2.3597112 3.1139362
-1.6212691 2.3688264 3.1244471
-1.5770597 2.359561 3.1288645
-1.5364093 2.3742414 3.1270976
-1.4506513 2.351948 3.1060929
-1.419459 2.3621461 3.1341765
-1.369025 2.3585346 3.1069264
-1.3231471 2.3594918 3.1251459
-1.2716258 2.3546405 3.1258278
-1.2307653 2.3564727 3.1225836
-1.1709002 2.3565195 3.1224005
-1.1306348 2.358326 3.1181645
-1.0736259 2.3583093 3.1253178
-1.0241587 2.3587201 3.1208355
-0.98647571 2.3648493 3.1208866
-0.93093216 2.3623352 3.1313937
-0.86399895 2.3531427 3.134155
-0.8383615 2.3573756 3.1458302
-0.77064973 2.3624153 3.1306376
-0.7347607 2.362942 3.1384227
-0.67695272 2.358881 3.1255078
-0.62494832 2.3532321 3.1176953
-0.56606841 2.3543117 3.1194782
-0.52494437 2.3541751 3.1163416
-0.47616181 2.3594899 3.1211455
-0.42658767 2.3592789 3.1301763
-0.32135734 2.3703694 3.1228092
-0.27570987 2.3710315 3.1300683
-0.22662452 2.3721507 3.1295714
-0.16921064 2.3687124 3.1211071
-0.11987597 2.3723767 3.1311989
-0.075490221 2.3822322 3.128135
-0.048699565 2.3754358 3.1196494
0.087404884 2.3882208 3.1243441
0.12877361 2.3829072 3.1219227
0.17769891 2.3950522 3.1158893
0.21835506 2.3981576 3.1264603
0.28863612 2.3894787 3.1104333
0.33507097 2.3952308 3.1315007
0.3789247 2.38989 3.1203682
0.53436565 2.3895276 3.1364427
1.372565 2.3854771 3.1226583
0.022268245 2.414181 3.1190612
0.18361261 2.4006739 3.1487989
0.26516175 2.4274778 3.1445041
0.325376 2.4017534 3.1178534
0.38708314 2.4031117 3.1023488
0.42220858 2.4053714 3.1247656
0.47103742 2.4140027 3.1245985
0.52888393 2.4234886 3.1472003
0.58258408 2.4214208 3.1366837
0.62524694 2.4117126 3.117003
0.67294025 2.4214621 3.1218631
0.72862893 2.4264069 3.1181858
0.77252966 2.4273596 3.1288576
0.81854188 2.4245362 3.1189773
0.87648314 2.4396968 3.1290655
0.92711961 2.4379025 3.136035
0.97681588 2.4406292 3.1178415
1.0212326 2.4407315 3.1437924
1.0762337 2.4397261 3.1269705
1.1245548 2.4351385 3.1253595
1.1730236 2.4304497 3.1229706
1.2313954 2.4311938 3.114841
1.2799258 2.4242351 3.1336353
1.3306957 2.4190032 3.1252625
-2.9540272 -0.50492269 3.155062
-2.9395487 -0.50580722 3.1760564
0.74338084 -0.53691971 3.1775899
-2.9522624 -0.4884153 3.1923928
-2.9416928 -0.4059085 3.1537993
1.368861 -0.40591711 3.1979082
-2.9642863 -0.36017126 3.183022
-2.9461839 -0.38711691 3.1606853
0.5608592 -0.37120175 3.1971493
1.3828391 -0.36256611 3.1701303
-2.9706004 -0.32183078 3.1933427
0.56057322 -0.33235514 3.198308
1.3786103 -0.32440469 3.1722908
-2.9565053 -0.28134096 3.1813025
-2.9492362 -0.25149286 3.1755509
0.44744697 -0.27521303 3.1781447
0.47763595 -0.27419564 3.1856987
0.55897665 -0.26974899 3.1929832
1.3817497 -0.27365851 3.1738091
-2.9600558 -0.23291135 3.1884482
0.43451056 -0.22480324 3.1706991
0.47410524 -0.22839858 3.1642931
0.52480572 -0.2144264 3.178972
0.5589875 -0.24661855 3.194267
1.3814907 -0.22528391 3.1758146
-2.9511244 -0.15442562 3.1827745
0.33614349 -0.15099256 3.1523528
0.38363525 -0.16703376 3.1662099
0.42843667 -0.17628124 3.1728859
0.4736425 -0.18706188 3.1756091
1.3854162 -0.17474616 3.1780822
-2.9586663 -0.13532442 3.1916416
0.33219478 -0.11694533 3.151845
0.37576875 -0.12137497 3.1659863
0.43053859 -0.12184465 3.1737232
0.46170127 -0.12203619 3.1757107
1.3885574 -0.13098378 3.1678102
-2.9622552 -0.076931491 3.1970487
-2.9496593 -0.07660193 3.1835053
0.32109144 -0.075480193 3.1554201
0.37592018 -0.075874262 3.1681535
0.43185318 -0.076352268 3.1842999
0.46228302 -0.076329976 3.1806183
1.3895879 -0.07817205 3.173126
-2.9582057 -0.037836716 3.1932747
0.29024467 -0.015025973 3.1511695
0.32134205 -0.030183129 3.1583574
0.37159976 -0.031851955 3.1708658
0.42630586 -0.029124366 3.1853201
0.46740097 -0.034411609 3.1895015
1.3881878 -0.02921463 3.1687276
1.4001172 -0.047890034 3.1610832
-2.9612415 0.010905235 3.1966476
0.29040325 0.022679262 3.1527851
0.32147023 0.022738665 3.1595142
0.37159675 0.02114583 3.1769617
0.42536291 0.024498599 3.1825509
0.46270972 0.022987867 3.1840215
1.3919603 0.023185095 3.1663845
-2.9598956 0.069165558 3.1762877
0.29051504 0.067946844 3.153594
0.32175896 0.07574293 3.1618555
0.36969367 0.07626608 3.1802809
0.42419949 0.076478548 3.1848629
0.46385098 0.076732822 3.1913059
1.3909445 0.082792148 3.1760111
-2.9582338 0.12435957 3.1790504
0.28044513 0.12577941 3.1527736
0.32239783 0.12139472 3.1670787
0.37049785 0.12226304 3.1863151
0.42526028 0.12264857 3.1918745
0.4628326 0.12244695 3.1833324
1.3931105 0.12565574 3.1684396
0.28128663 0.16992439 3.1537163
0.32274118 0.17467929 3.1688883
0.37068093 0.17581002 3.186218
0.42555228 0.1763833 3.1923325
0.46360159 0.18394919 3.1866539
1.3919175 0.18128583 3.1699977
-2.9600184 0.22821605 3.1758568
0.28367582 0.22693439 3.1568708
0.32330644 0.22820407 3.172097
0.37139267 0.22974981 3.1901467
0.42551371 0.23004155 3.1897519
0.46484694 0.23053372 3.1932237
1.3942817 0.2255158 3.1671474
-2.9679184 0.2749916 3.1933343
0.23820058 0.28731933 3.1547842
0.27640122 0.27259928 3.1581464
0.32384586 0.27429855 3.1749835
0.37184885 0.27601403 3.1915693
0.42202768 0.27523297 3.196332
0.46053454 0.27199304 3.1971905
1.3894341 0.27490294 3.1804786
1.4012573 0.27326068 3.1553302
-2.9733024 0.31467527 3.1959984
-0.08676859 0.34739199 3.1521945
0.23372337 0.31158909 3.1543043
0.27685899 0.31095386 3.1610279
0.32464311 0.31315434 3.1804836
0.37188804 0.3067098 3.19012
0.41118979 0.30744871 3.1947021
0.46548212 0.30778444 3.1933036
1.3936424 0.32339332 3.1763456
1.4020121 0.32162714 3.1538184
-2.9669399 0.37261048 3.1836092
-0.10712108 0.38847435 3.1552274
-0.074176744 0.38383788 3.1654248
-0.026521722 0.38794219 3.1726646
0.02356921 0.38901275 3.1905539
0.11761026 0.36396271 3.1631899
0.30890831 0.35084549 3.1744568
1.3887028 0.37273517 3.1823034
1.4023358 0.35384801 3.1520917
-0.20835955 0.4396517 3.1528044
-0.18042116 0.42918921 3.1521671
-0.11954504 0.42957178 3.1694717
-0.072498977 0.42788255 3.1832151
-0.035882436 0.42534599 3.1877387
1.3954382 0.42089739 3.1723397
1.4061838 0.4192895 3.1551065
-3.9555807 0.49756524 3.1555083
-2.9843471 0.49287274 3.188338
-0.21760392 0.46423167 3.1522667
-0.17846438 0.47112152 3.1587377
-0.12595309 0.47375914 3.1780698
-0.080560781 0.4761903 3.1954219
1.3934886 0.47424334 3.1795349
-3.9749355 0.53398734 3.1664071
-2.9722991 0.53006577 3.1699669
-0.25488824 0.54803663 3.1526604
-0.21830454 0.52659929 3.1559598
-0.17916182 0.51873583 3.1664331
-0.12658668 0.52216697 3.1890309
-0.088444859 0.51574814 3.1986158
1.3925594 0.52263081 3.1762459
1.4005779 0.53613305 3.1718199
-3.9797871 0.59122086 3.1621177
-2.9663074 0.57184416 3.1944771
-0.37102449 0.58923995 3.1574192
-0.32327008 0.58342797 3.1639826
-0.27210078 0.57513458 3.1725461
-0.22680545 0.56918859 3.1853583
-0.18041807 0.55685031 3.1842093
-0.13441767 0.55344725 3.188767
1.3923696 0.57189661 3.1912222
-0.37229374 0.62966144 3.1632996
-0.32862562 0.62885886 3.1697342
-0.27538121 0.62045079 3.1873283
-0.23959346 0.6147061 3.1964731
1.3972341 0.6266818 3.1780138
1.4008253 0.63368702 3.1594923
-3.9518709 0.65824389 3.1697342
-3.941031 0.67900062 3.1571617
-0.36276764 0.66873467 3.1696777
-0.31835669 0.66899955 3.1828074
-0.2671805 0.65078676 3.1968701
1.3888031 0.67425436 3.1794076
1.4006612 0.67421675 3.1530738
1.3886871 0.71883816 3.1875293
1.3904295 0.7704829 3.1741698
1.3909725 0.82095784 3.1707573
1.3957468 0.87094557 3.1770203
1.3919935 0.92555028 3.1746881
1.4016849 0.93751448 3.1505148
1.3925588 0.97686565 3.1831443
1.4071898 0.97423398 3.1555302
1.3901011 1.0173442 3.1770759
1.4017553 1.0485351 3.1704834
1.3950757 1.0747524 3.1707699
1.3874205 1.1257122 3.1809192
1.4017447 1.1150966 3.1536684
1.3909308 1.1769956 3.1807964
1.4066105 1.1690692 3.1511562
1.3906677 1.2261908 3.1903677
1.4026194 1.2387331 3.1687686
1.3957487 1.2623566 3.1766598
1.4028479 1.2918844 3.1696484
-4.0251846 1.3347697 3.1717744
-3.9807417 1.3315361 3.1978662
1.3942201 1.3141111 3.1732256
1.4006656 1.3457359 3.1798623
-4.055388 1.3879271 3.1599665
-4.012939 1.3579417 3.1749835
-3.9874377 1.3688539 3.1917653
1.3967797 1.3872752 3.1729498
1.4063761 1.3600878 3.1652887
-4.0211353 1.4234157 3.1824234
1.3959471 1.4263846 3.174432
1.4010091 1.4312673 3.1523454
-4.0403595 1.4774785 3.1814866
1.3917691 1.4738395 3.1765685
1.4050503 1.4610428 3.1524529
-4.0556917 1.5468112 3.1930823
1.3910091 1.525401 3.1818745
1.4005365 1.5173652 3.1713145
-4.0634336 1.585505 3.1862109
1.3990096 1.5869137 3.1935968
1.4053322 1.5744821 3.1626346
1.3943967 1.6232382 3.1847298
1.4049586 1.6360544 3.163924
-4.0497165 1.6729817 3.1850083
1.3920641 1.6780612 3.1924415
1.4017957 1.6774673 3.1651201
1.394194 1.7246147 3.1789672
1.404896 1.7162 3.1574423
-4.0488176 1.7545184 3.1970603
1.3902467 1.7716308 3.1895692
1.4061 1.7725942 3.1639142
-3.9906957 1.8457859 3.1932914
1.3951933 1.8281679 3.1928277
1.4018379 1.813714 3.1613944
1.3983167 1.8590868 3.1876976
1.4032335 1.8815995 3.1721523
1.3926212 1.9273506 3.1778014
1.4029653 1.9370316 3.1640048
1.3941799 1.9768934 3.1778157
1.406006 1.968207 3.1574113
1.3957933 2.0271907 3.1774523
1.4100202 2.0008698 3.1526675
1.3947747 2.0768876 3.189574
1.4078126 2.0782959 3.1662712
1.3931699 2.1234589 3.1806743
1.3911186 2.172982 3.1897092
1.4015199 2.1605139 3.1647744
1.3894193 2.2239385 3.1716208
1.2843802 2.2822192 3.1798463
1.384172 2.2752519 3.1746666
-1.1602042 2.3490827 3.1633537
-0.51484352 2.3467886 3.1516409
1.2903209 2.3113117 3.1832595
1.3183063 2.3278377 3.1996319
1.3798814 2.3200023 3.1791337
-3.178236 2.3732862 3.1957951
-3.129554 2.3760388 3.1738203
-2.7663693 2.3869066 3.1621644
-2.7386758 2.3814752 3.1710835
-2.6932118 2.3791237 3.1997001
-2.6427789 2.3744676 3.1665993
-2.5559709 2.3739905 3.1693487
-2.529736 2.3794975 3.1706123
-2.478925 2.3814199 3.1811516
-2.4366331 2.3915036 3.1743326
-2.3706937 2.3980966 3.1763201
-2.3479161 2.395911 3.1868885
-2.1771748 2.3968177 3.189467
-2.1226542 2.3908384 3.1766565
-1.9856834 2.3900986 3.1866527
-1.9424505 2.3737531 3.1807938
-1.8883603 2.3751955 3.1642375
-1.8243148 2.3557863 3.1631615
-1.7793006 2.3671267 3.158916
-1.7270772 2.3734539 3.1831813
-1.6699253 2.3688538 3.1682491
-1.6052176 2.3586078 3.1799967
-1.55861 2.3652132 3.167285
-1.5435867 2.3714128 3.1835434
-1.4798274 2.3637125 3.168678
-1.4274331 2.356549 3.1637342
-1.3735652 2.3658979 3.1737018
-1.3172274 2.363605 3.1739073
-1.2647965 2.3532095 3.1758544
-1.2166952 2.3691039 3.1757398
-1.1876937 2.3670259 3.1817801
-1.1247846 2.3615143 3.1730194
-1.0768254 2.3671043 3.1756344
-1.0202584 2.3584795 3.1688855
-0.96703178 2.3566577 3.1705158
-0.92952299 2.3590708 3.1737802
-0.8722074 2.3572371 3.175107
-0.8344419 2.3537352 3.1784301
-0.76540297 2.3713763 3.1684635
-0.71158206 2.3576581 3.1716237
-0.67509711 2.3569317 3.1770792
-0.62960362 2.3621042 3.1798313
-0.57050425 2.3625035 3.1798005
-0.52638078 2.3659444 3.1882534
-0.47295463 2.3611107 3.1765378
-0.43688464 2.361074 3.1806483
-0.35634306 2.3735623 3.1880746
-0.32815912 2.3655758 3.1796932
-0.28203312 2.3648026 3.1646538
-0.22873469 2.3692532 3.174098
-0.17948841 2.3753061 3.1760638
-0.1217446 2.3821099 3.196111
-0.076215804 2.3778133 3.1740887
-0.049259782 2.3848674 3.1665339
0.02248822 2.3895609 3.1730158
0.07281328 2.3834717 3.1782248
0.13658278 2.3896108 3.1823695
0.17552586 2.385653 3.181406
0.20232584 2.3922369 3.1714556
0.32875291 2.3964679 3.1685288
0.42133328 2.3971391 3.1870954
0.53155023 2.3993914 3.1857007
1.3356869 2.3800819 3.1847959
1.3658727 2.3660448 3.1687262
-0.013479074 2.4153993 3.1724241
0.010523452 2.4062803 3.1720257
0.23013608 2.4101524 3.1762366
0.27234727 2.4145057 3.1827946
0.37515819 2.4050543 3.1758461
0.41992968 2.4026985 3.1681256
0.47756806 2.4202216 3.1849973
0.51375312 2.4102132 3.1848671
0.58138984 2.4172378 3.1788893
0.62345099 2.4125044 3.171982
0.67645586 2.4216733 3.1719255
0.72241795 2.4252286 3.175756
0.77473778 2.4258051 3.1718974
0.83071029 2.4193709 3.1697881
0.87544936 2.4250302 3.1807349
0.92527866 2.4299364 3.1759436
0.97611314 2.4341123 3.1653991
1.028021 2.438278 3.1765966
1.077759 2.436234 3.1792445
1.1283137 2.4354446 3.1828263
1.1819624 2.4367895 3.1815999
1.2212737 2.4302976 3.17014
1.2661293 2.4155064 3.179388
1.3141136 2.4125156 3.1685357
-2.9570589 -0.51224387 3.2319131
0.73108935 -0.51357448 3.2333608
0.78661853 -0.51276135 3.2370112
0.81844115 -0.50594401 3.2220168
-2.9683676 -0.46156591 3.2135141
-2.9875631 -0.4249095 3.2389169
0.57690465 -0.4108904 3.2129073
0.62614179 -0.40940785 3.2458167
0.65836775 -0.4098599 3.2452991
1.3406117 -0.40970969 3.2397683
1.3594097 -0.40796167 3.2188463
-2.975071 -0.37382019 3.2305052
0.59104908 -0.37562862 3.2325661
0.6252616 -0.37738231 3.2437146
0.65602309 -0.38900542 3.2487361
0.92908692 -0.38263068 3.2421367
0.96375096 -0.36773205 3.246448
1.3683853 -0.37552908 3.2211525
-2.9758904 -0.32454437 3.2359185
0.58475667 -0.32806522 3.2304115
0.61667526 -0.32981372 3.2442737
1.3680301 -0.32357326 3.2285779
-2.9787099 -0.29523087 3.2413847
0.5864895 -0.27354151 3.2359908
0.61661476 -0.27481309 3.2473173
1.367877 -0.27740389 3.2268016
-2.9746573 -0.22198081 3.2294796
0.5252111 -0.20219952 3.2298622
0.57490081 -0.22009574 3.2296474
0.62092686 -0.22995932 3.244096
1.3681979 -0.22847386 3.2302115
-2.9775648 -0.18524671 3.2099774
0.48444283 -0.16269954 3.2229576
0.53288877 -0.15938368 3.229969
0.56171668 -0.16671847 3.2436478
1.3686566 -0.18257308 3.2289453
-2.9791439 -0.11663007 3.2143664
0.48709902 -0.1274796 3.2154503
0.52220577 -0.12083965 3.2301457
0.56408221 -0.13019018 3.2430294
1.3718604 -0.13004045 3.2209814
0.48298025 -0.077229157 3.2152054
0.52358931 -0.079215534 3.2365553
0.56646651 -0.074923888 3.2425742
1.3785294 -0.085387893 3.2267985
-2.9658766 -0.028293055 3.2199764
0.4834646 -0.023122266 3.2189579
0.5185073 -0.031112365 3.2414021
0.55467314 -0.035087086 3.2439079
1.3790543 -0.032344975 3.2222381
-2.9695058 0.025711428 3.2330601
0.48344651 0.023230877 3.2187829
0.51862246 0.023462983 3.2420299
0.5512712 0.0078923646 3.2474508
1.3752015 0.024666857 3.2218463
-2.975982 0.099532686 3.2295916
0.48494068 0.077647924 3.2281549
0.51895833 0.078102984 3.2435572
1.3770133 0.077672124 3.2232752
0.48764947 0.12488306 3.2451994
0.5102827 0.12508485 3.2480016
1.3773386 0.13057451 3.2212965
-2.9780829 0.17780678 3.2103691
0.48184159 0.16715956 3.2312789
0.5116325 0.17188853 3.2450476
1.3803312 0.17940615 3.217371
0.4860504 0.22559889 3.2308927
0.52010012 0.20338696 3.2470748
1.3782597 0.22614875 3.2196815
0.4763113 0.28589672 3.225383
0.50502467 0.29756913 3.2476256
1.3789555 0.28068689 3.2234261
-2.980304 0.33505881 3.201782
0.37525871 0.3249236 3.217643
0.43066534 0.3188366 3.2039318
0.46636733 0.31869107 3.2255943
0.50541216 0.31346798 3.2491388
1.3790052 0.3250719 3.222399
-2.9871836 0.36776447 3.2433863
0.073190272 0.3887448 3.2107368
0.11156804 0.38454172 3.2073696
1.3755533 0.37801147 3.2373807
-0.015309503 0.43446663 3.2038488
0.019324215 0.43147179 3.2103653
0.073612235 0.42189077 3.2259359
0.11258058 0.41909811 3.2339172
1.3815116 0.42659986 3.225378
-2.9797728 0.47558507 3.2230158
-0.057622701 0.47697052 3.2010405
-0.026910268 0.47824016 3.2098095
0.01942244 0.47983932 3.2206104
0.074032597 0.47485757 3.2396049
0.11319334 0.45256403 3.2487812
1.3799859 0.47623506 3.2240973
-2.9671857 0.51295054 3.2041347
-0.068749502 0.52635336 3.2021358
-0.026992789 0.52617943 3.2151113
0.017527008 0.52595514 3.2258639
0.089927107 0.5079692 3.2489686
1.3780514 0.52679789 3.2286031
-2.9784555 0.57673621 3.2323143
-0.21258128 0.58775985 3.2018249
-0.17325391 0.58274031 3.2130063
-0.12031151 0.57680357 3.220773
-0.073957846 0.57679546 3.2327273
-0.029207096 0.575876 3.2393034
0.0039686053 0.56185919 3.2391615
1.3795472 0.57680601 3.2261202
-0.21925835 0.62320298 3.2044964
-0.17518252 0.62328494 3.2230856
-0.12096798 0.62481308 3.2327323
-0.082224689 0.62712944 3.2455513
1.3779795 0.62710744 3.2252045
-0.27660027 0.67813665 3.2126169
-0.23787786 0.67111206 3.2192585
-0.10593356 0.65964365 3.2467482
1.3781878 0.67248541 3.2140172
1.377357 0.73043627 3.2322509
1.3783756 0.77726221 3.2231414
1.3773552 0.82820284 3.2221637
1.3802239 0.87202036 3.2300873
1.3825783 0.92321098 3.217612
1.3776875 0.97183567 3.2217348
1.3790629 1.0247086 3.2322381
1.3788328 1.0713493 3.2253838
1.3799247 1.1178719 3.2286541
1.3830277 1.1748613 3.2337959
1.3784562 1.2245275 3.2281697
-3.9032366 1.2978122 3.2248225
-3.8702636 1.2791686 3.2219138
-3.8302679 1.2887102 3.2468252
1.3816148 1.275056 3.2268069
-3.9529099 1.3299531 3.2166126
-3.9299212 1.3144524 3.2222674
-3.8832467 1.333565 3.2383461
1.3848746 1.3260432 3.2250257
-3.960423 1.3675231 3.2111697
-3.9283152 1.3644162 3.2263498
-3.8789837 1.3824806 3.239893
1.3858039 1.3716345 3.2131279
-3.9746554 1.4259897 3.2193215
-3.9240699 1.429522 3.2444489
-3.8800998 1.4335754 3.2454367
1.3834335 1.4265201 3.2241168
-4.0095458 1.4908639 3.2144663
-3.9799049 1.4699478 3.2237041
-3.9329414 1.4679528 3.239327
-3.8961613 1.4745812 3.2463224
1.3816841 1.4820507 3.2246716
-4.0204325 1.5304859 3.2104762
-3.9864452 1.5264705 3.2244868
-3.9299481 1.5182351 3.2406073
1.3754835 1.5168281 3.2264488
-4.0336204 1.5711763 3.2080474
-3.9709444 1.5722679 3.2151756
-3.9241729 1.5676408 3.2391262
1.3860638 1.5795832 3.228065
1.4014225 1.5721791 3.2057436
-4.0283589 1.6309146 3.2105551
-3.96873 1.6234263 3.2161064
-3.927799 1.6233946 3.2363517
1.3822812 1.6209536 3.2208772
-4.058424 1.652643 3.2009819
-4.0086064 1.6995308 3.2251573
-3.9712157 1.6818074 3.2410319
-3.9227557 1.659379 3.2475755
1.3785849 1.676111 3.2385929
-4.0167251 1.7269456 3.2221866
-3.9831843 1.7346892 3.2316799
-3.9238009 1.7242132 3.2453184
1.3833539 1.72065 3.2283883
-4.027245 1.7795417 3.2112868
-3.9309816 1.7750348 3.2316089
1.3849142 1.7843646 3.2402067
-4.0037975 1.8278041 3.213855
-3.9718206 1.8240788 3.2292776
-3.9365447 1.8187863 3.2418816
1.3795078 1.8279846 3.228662
-4.0342298 1.8901463 3.2178814
-3.9354534 1.8837769 3.2359357
1.3828276 1.8703493 3.2152517
-4.0083942 1.9135187 3.2280099
-3.9026046 1.9451821 3.2444282
1.3867842 1.9222041 3.2276635
-3.981195 1.9784825 3.2413847
-3.9219959 1.9789776 3.2496188
1.391439 1.9806302 3.2285929
-3.9788685 2.0198123 3.243809
1.3853731 2.0187974 3.2283242
-4.0183654 2.0519753 3.2233841
1.3775387 2.0767086 3.2249045
-4.0592623 2.1222095 3.2336578
-3.9794078 2.1181393 3.2462287
1.3787397 2.1204951 3.2227337
-4.0110087 2.1776843 3.2280278
-3.9827724 2.1566839 3.2316337
1.3732828 2.1727529 3.2249806
1.3737009 2.2249217 3.2205408
-3.9928749 2.2743475 3.2335119
1.2841992 2.2796962 3.2165327
1.3616102 2.2733645 3.221103
-3.8890479 2.3059373 3.2474403
-3.8287416 2.3282735 3.2399077
1.2809428 2.3281217 3.2126815
1.3461038 2.3246424 3.2260849
1.3630347 2.3307729 3.2091756
-3.1586483 2.3754928 3.2172434
-3.1368883 2.3760877 3.2364466
-2.7165265 2.3780894 3.2413263
-2.6036961 2.377408 3.2010739
-2.5551898 2.3717046 3.2232056
-2.5213938 2.380476 3.2263377
-2.4593124 2.371768 3.2313166
-2.4376514 2.3920705 3.2307563
-2.3851976 2.384984 3.2323864
-2.3236518 2.3922963 3.2134886
-2.2727103 2.3927221 3.228323
-2.2407079 2.3915267 3.2456453
-2.1662798 2.3868308 3.2287641
-2.1116304 2.3915148 3.2180753
-2.0678239 2.3876867 3.2358227
-2.021117 2.3885419 3.2134087
-1.9671102 2.3838015 3.2340069
-1.9135227 2.3869641 3.2193179
-1.8521215 2.3719187 3.22402
-1.8235611 2.3755753 3.2288191
-1.7818756 2.3721156 3.2235136
-1.7182218 2.3704159 3.2387755
-1.6786776 2.3644674 3.2165086
-1.6203617 2.3734093 3.2307935
-1.5654786 2.3709643 3.2169743
-1.5136325 2.374783 3.2226365
-1.4734563 2.3719821 3.2337844
-1.4176044 2.368422 3.2279897
-1.3742746 2.3713539 3.2344294
-1.32328 2.3724983 3.226366
-1.2760776 2.3735161 3.2234306
-1.2205195 2.376035 3.2249308
-1.1645374 2.3580344 3.2148838
-1.1179464 2.3631544 3.2263668
-1.0762497 2.3677332 3.2154901
-1.0245924 2.3621511 3.2308164
-0.98163646 2.3704703 3.2314298
-0.91548622 2.3563099 3.2013814
-0.88978815 2.3613374 3.2145567
-0.82519817 2.3674316 3.2248046
-0.77881414 2.3632123 3.2158048
-0.73447299 2.364856 3.223417
-0.67658031 2.3551574 3.2199349
-0.62227315 2.3621194 3.2172692
-0.58593404 2.3629944 3.2239695
-0.52541184 2.3706083 3.2308521
-0.46936592 2.3704731 3.2255757
-0.42051819 2.3751688 3.2255309
-0.38050124 2.3691478 3.218827
-0.3191103 2.375875 3.2387714
-0.27558744 2.3683105 3.2049794
-0.22603644 2.3655043 3.2130806
-0.17685343 2.3774185 3.2229168
-0.11776335 2.3704066 3.2243738
-0.07674434 2.3669095 3.2118182
0.022762168 2.3875742 3.2405102
0.081831843 2.3866639 3.2296913
0.1226209 2.3888719 3.222856
0.16856106 2.387044 3.2363739
0.24181986 2.391151 3.2382772
0.25989708 2.3895862 3.2350283
0.3262617 2.3979623 3.2178743
0.36884314 2.3959932 3.2173913
0.42508122 2.3955815 3.2291443
1.3142366 2.3561354 3.2043188
-2.2527299 2.4030204 3.2074094
-0.022810249 2.4190679 3.2298608
0.0045916168 2.404947 3.2286611
0.22750121 2.4073143 3.2165298
0.26829499 2.401448 3.2150049
0.36989439 2.4022026 3.2257788
0.47243375 2.4221823 3.2240851
0.52030891 2.4195793 3.2386534
0.57046586 2.4146245 3.2226844
0.62905693 2.4066448 3.2173977
0.67749506 2.4155924 3.2217827
0.72517806 2.4164031 3.2236915
0.77487326 2.4226913 3.2323277
0.81867629 2.4241633 3.2292924
0.87255251 2.4270639 3.2368879
0.9218626 2.416806 3.2262733
0.9697324 2.4204352 3.2141554
1.02104 2.4272757 3.2243321
1.0717574 2.431015 3.2219119
1.1307682 2.4290361 3.2251852
1.1729394 2.4279504 3.2215972
1.227824 2.4185634 3.226656
1.2629073 2.4218574 3.240494
0.76853251 -0.5095309 3.253963
-2.9741912 -0.48132151 3.2644799
0.83337468 -0.47832173 3.2510974
0.86735386 -0.46348178 3.2548485
-2.9871664 -0.42769212 3.2757933
0.68788373 -0.41338053 3.269938
0.72117859 -0.41421935 3.2720249
0.7778607 -0.41282177 3.2851222
0.82588845 -0.40270939 3.2946384
0.87265164 -0.42605725 3.2783511
0.9019506 -0.40870926 3.263495
1.3323762 -0.41481096 3.2871761
-2.970721 -0.37578502 3.2628756
0.67424482 -0.37459025 3.2595041
0.72289222 -0.37668791 3.2759843
0.77165073 -0.37419215 3.2858269
0.81318855 -0.37423477 3.2963841
0.88719893 -0.38218483 3.2943809
0.92114598 -0.36563548 3.2685957
0.96729505 -0.35303196 3.2595761
1.3453701 -0.38591653 3.2874026
1.3590788 -0.3797878 3.2648022
-2.9946911 -0.33881304 3.2929099
0.63398731 -0.32277387 3.2510879
0.66901088 -0.32446292 3.2639596
0.71964395 -0.32180524 3.2792935
0.76956505 -0.32303435 3.2943828
0.89242828 -0.30674616 3.2980711
0.92646021 -0.32070962 3.2672079
0.96901083 -0.32146585 3.2675619
1.3472556 -0.33138415 3.2847445
1.357437 -0.32982403 3.2645795
-2.9872847 -0.26636428 3.2528615
0.63401222 -0.2834231 3.2536018
0.66847557 -0.26885462 3.2646673
0.72054601 -0.27056909 3.2789662
0.76626039 -0.2726647 3.2985365
0.89171571 -0.27423692 3.2973015
0.92001927 -0.27302238 3.2771993
0.95406389 -0.28164217 3.2771211
1.3481494 -0.28182656 3.290139
1.354635 -0.28109679 3.2789376
-2.9911647 -0.21858075 3.297518
0.64133769 -0.22809926 3.2525916
0.67093092 -0.2274735 3.2628543
0.71826667 -0.23263876 3.2855449
0.77438116 -0.24061124 3.2993488
0.89022237 -0.24154574 3.2934635
0.90633327 -0.24154265 3.290519
1.3608918 -0.23139147 3.278753
-2.9899206 -0.18264514 3.2698793
0.44324645 -0.18818887 3.2655504
0.51344305 -0.17235683 3.2567129
0.57529914 -0.17729191 3.2679174
0.621943 -0.1690761 3.2678065
0.67155898 -0.17476565 3.283972
0.71832931 -0.17334092 3.2946954
1.358227 -0.17676532 3.2635303
-2.992065 -0.12784734 3.2650661
0.58439577 -0.11757061 3.2528656
0.61798054 -0.12585068 3.2603848
0.67027688 -0.12680075 3.2790587
0.72253317 -0.1276309 3.2936931
1.3492911 -0.13261865 3.2993202
1.3604677 -0.12756814 3.2704887
-3.0020354 -0.078504696 3.2772331
-2.9921327 -0.07829044 3.2663698
0.58447981 -0.078367025 3.254065
0.61925906 -0.078783408 3.268038
0.67124307 -0.079332039 3.2847478
0.71262664 -0.082893722 3.2945716
1.3478972 -0.082718521 3.2970116
1.363288 -0.082148857 3.2671592
-3.0022066 -0.018764582 3.2780952
0.57791209 -0.028153915 3.2536361
0.61951166 -0.031482592 3.2698839
0.67131019 -0.03168796 3.2855558
1.363902 -0.032720834 3.2692506
0.57208735 0.026756871 3.2567997
0.61992043 0.023774475 3.272042
0.67065185 0.02177942 3.2896621
1.3633833 0.025009364 3.2753708
-2.9821045 0.067207836 3.2678797
0.56957036 0.078627676 3.260077
0.62050724 0.079118259 3.2745628
0.66780585 0.079654418 3.2906919
1.3656446 0.082755692 3.2727213
-2.9851334 0.12019295 3.2697799
0.53266203 0.12539145 3.2536247
0.57032824 0.1259166 3.2634306
0.62142569 0.12673041 3.278409
0.67107153 0.12951447 3.2927332
1.3647522 0.13233799 3.2738137
-2.9890823 0.16971469 3.2597642
0.53699434 0.17251258 3.2543089
0.57087779 0.17328715 3.2651379
0.62255067 0.17452781 3.282851
0.66534215 0.17537236 3.2934067
1.3672372 0.18197311 3.2736418
-3.0045848 0.21044837 3.2746325
-2.9956987 0.23962536 3.2631638
0.52152604 0.22747634 3.2549813
0.57152063 0.2207741 3.2668657
0.62305248 0.22229359 3.283561
0.65810567 0.22343558 3.296221
1.3646251 0.23466656 3.269455
-3.0081749 0.28052601 3.2739449
0.52362442 0.27274621 3.2567124
0.57103121 0.27173057 3.2707753
0.62344569 0.27008295 3.283282
0.65905797 0.27966702 3.2981486
1.3624501 0.27852705 3.2722282
-3.0103292 0.33064562 3.2722478
0.49040353 0.33742756 3.2535329
0.52458185 0.33207271 3.2555864
0.57494462 0.32651064 3.2722099
0.62324464 0.32161191 3.2877018
0.65952337 0.31983429 3.2980394
1.3643504 0.33863699 3.2802551
-3.0022001 0.39078042 3.2764311
0.49524808 0.38040945 3.2827752
0.52320814 0.37768677 3.2561853
0.57361639 0.37981477 3.2692251
0.62691987 0.37670404 3.2868407
0.65960741 0.35984737 3.2957177
1.3599364 0.37750748 3.2778046
-3.0040729 0.4339321 3.2674644
-2.9973996 0.42150769 3.2866991
0.49718562 0.42962435 3.2917178
0.5239554 0.42549229 3.2569907
0.57557213 0.42872986 3.2764058
0.62697828 0.43134776 3.2905278
1.3616747 0.4294382 3.2843163
-3.003782 0.46253017 3.289022
-2.999908 0.48197058 3.2822833
0.11364403 0.47786957 3.2595015
0.49550399 0.47568619 3.2762349
0.52519709 0.47389004 3.2603197
0.57640648 0.47705591 3.2767949
0.6260373 0.47806716 3.2921021
1.3658906 0.47185898 3.2723527
-3.0192823 0.54558325 3.2952876
0.03535023 0.5489096 3.2565653
0.073408432 0.52623165 3.2568352
0.11404528 0.51886964 3.26705
0.49715292 0.51707399 3.2831445
0.52622753 0.52228248 3.261898
0.57754499 0.52579427 3.2783849
0.62896323 0.52885634 3.2916234
0.66382426 0.54721141 3.2997756
1.3625022 0.52523667 3.2810676
-3.0154586 0.56503356 3.2881658
-0.011743259 0.59849769 3.2650642
0.013449168 0.58569753 3.2653632
0.49594387 0.57134122 3.2690089
0.5279789 0.57167816 3.2674317
0.57898653 0.57501733 3.2811868
0.62581962 0.57597035 3.2946553
1.3637253 0.56624323 3.2716229
-3.0053389 0.62336016 3.2676566
-0.058839098 0.6284309 3.2525909
-0.027483502 0.63032371 3.2625971
0.010352589 0.62959069 3.2757821
0.49684653 0.62011242 3.2691581
0.52898192 0.6204583 3.2677715
0.58001202 0.62404168 3.2811289
0.6287244 0.61830753 3.2975183
1.3643068 0.61517322 3.279047
-3.0062733 0.68379718 3.2581873
-0.21706074 0.67123008 3.2600989
-0.12247746 0.67198777 3.2671497
-0.075181983 0.67365152 3.2761047
-0.031708822 0.67181826 3.2876134
0.49887791 0.67052841 3.2762158
0.52956617 0.66895425 3.2652006
0.57972771 0.67201102 3.2849677
0.61658627 0.6803115 3.2950401
1.3649589 0.66812092 3.2686558
0.52379006 0.71975517 3.272969
0.57480639 0.72356009 3.2848759
0.6016686 0.72690779 3.2971451
1.3638759 0.72064281 3.2735155
0.52002156 0.76765239 3.2728703
0.57017922 0.77570343 3.285908
0.60939419 0.7737295 3.2962146
1.3603009 0.77077454 3.2776313
0.51755112 0.81848526 3.2696788
0.56958747 0.82409894 3.286684
0.60405159 0.81897318 3.2961006
1.3638376 0.82330447 3.2773569
0.51996464 0.87065852 3.2764294
0.56956625 0.87564719 3.2899756
1.364816 0.87471324 3.2756248
0.49054998 0.90815222 3.2929866
0.52198178 0.92262119 3.2801967
0.5735445 0.9274717 3.2919254
1.3464919 0.93475527 3.294138
1.365015 0.93004417 3.2699611
0.49250194 0.97690201 3.2934134
0.52391416 0.97476697 3.2827539
0.57024449 0.98539066 3.2941196
1.3698255 0.97959453 3.2668471
0.49418566 1.0292619 3.2944956
0.52589089 1.0273657 3.2849143
0.56898457 1.0274945 3.2946763
1.3642572 1.0192313 3.2851019
0.49487463 1.0797641 3.2883275
0.52736902 1.0792772 3.2832797
0.56835175 1.0737729 3.2979996
1.3614869 1.0758837 3.2772458
0.49612293 1.1235232 3.2871876
0.52935779 1.1243926 3.2862377
0.56388307 1.103143 3.2983501
1.3683205 1.1292579 3.2694576
0.52693903 1.1705186 3.2911065
1.3685427 1.1758248 3.2704303
0.49897408 1.2206888 3.2836945
0.52348644 1.2207216 3.2909591
1.3649504 1.2314216 3.283896
-3.7773559 1.273471 3.2595453
-3.7139506 1.2875694 3.2883053
-3.6981919 1.2746441 3.2990019
0.52390635 1.2766016 3.2966332
1.3638885 1.2769245 3.2759991
-3.8533976 1.3427482 3.2511008
-3.8288505 1.3241272 3.2632482
-3.7754889 1.3264818 3.2845001
-3.7302938 1.3160849 3.2951009
0.51291686 1.3178034 3.2971995
1.3646301 1.3225342 3.2749119
-3.8320713 1.3780463 3.2629201
-3.779938 1.3740557 3.272578
-3.724659 1.3753812 3.2914107
1.3672303 1.3757507 3.2715869
-3.8569527 1.4451989 3.2636015
-3.8278039 1.4269791 3.263886
-3.7765915 1.4140171 3.2700975
-3.742312 1.4164314 3.2946975
1.364295 1.4304134 3.2788637
-3.8632822 1.4825842 3.2562423
-3.8224325 1.4825959 3.2759492
-3.768652 1.465909 3.2883098
1.3654057 1.4702058 3.2722538
-3.8702264 1.5365713 3.2656164
-3.8246679 1.5253299 3.2773199
-3.7820847 1.5245101 3.2951884
1.3683016 1.5232428 3.2809453
-3.8762016 1.574178 3.2572265
-3.8283081 1.5805805 3.2749867
-3.7934585 1.5757673 3.2870345
1.3720987 1.569627 3.2666988
-3.903409 1.6040447 3.2500591
-3.8741629 1.6369483 3.2534657
-3.8150747 1.6322592 3.2715156
-3.7751973 1.6245513 3.2947156
1.3665775 1.6297194 3.2788742
-3.8574574 1.6751479 3.2670326
-3.8230734 1.6821375 3.2748768
-3.772846 1.6775475 3.2859437
-3.7474823 1.6575918 3.2983358
1.3690529 1.6690611 3.2803106
-3.9067631 1.7100621 3.2569423
-3.8690639 1.7274963 3.2573991
-3.8192334 1.7327025 3.2729485
-3.7609043 1.7220856 3.2855713
1.3673606 1.7220578 3.2732666
-3.8748538 1.7731591 3.2595813
-3.816824 1.7723719 3.2768362
-3.7628863 1.7753522 3.2881327
-3.7382748 1.7575166 3.2927606
1.3714309 1.7791162 3.2713232
-3.8745501 1.835852 3.2634077
-3.834847 1.8163716 3.2768478
-3.7676787 1.830394 3.2926135
1.3650274 1.823627 3.2826433
-3.8757677 1.8779359 3.2696137
-3.8285398 1.8644522 3.2802324
-3.7882161 1.8996999 3.2837451
1.3754967 1.8750485 3.2710419
-3.9160268 1.9277796 3.2664142
-3.8748159 1.9312358 3.2683003
-3.8286748 1.9081044 3.276516
-3.761126 1.9216591 3.2913733
1.3702047 1.9191072 3.27982
-3.9617746 1.9626806 3.2517121
-3.8270497 1.96103 3.2741632
-3.7840519 1.969188 3.2946646
1.3739862 1.9737599 3.2780442
-3.9524374 2.0429749 3.2525544
-3.8822849 2.0073681 3.2889929
-3.8168542 2.0261357 3.2881682
-3.768826 2.0334268 3.2951293
1.3677098 2.0341938 3.2798667
-3.9080467 2.0815659 3.2821617
-3.8580854 2.0556464 3.2877679
-3.8228683 2.0737653 3.2881505
-3.7502282 2.0841551 3.2976527
1.3570904 2.0756896 3.2641375
-3.9498241 2.1275418 3.2577314
-3.8768988 2.1452513 3.2896051
-3.8457129 2.1104157 3.2960052
1.3628464 2.136364 3.2842734
-3.9251757 2.1640382 3.2613597
-3.8762937 2.1814623 3.271086
-3.8305807 2.167556 3.2831872
1.3430501 2.1873245 3.2939448
1.3613333 2.163914 3.2758563
-3.9744887 2.2337992 3.2573051
-3.9236629 2.2171605 3.2659085
-3.8756421 2.2368407 3.2671654
-3.8189309 2.2233529 3.290786
1.3452942 2.2193313 3.2839556
1.3593639 2.2209275 3.2607632
-3.9821634 2.2628527 3.2514849
-3.9316092 2.2796912 3.2599509
-3.8686361 2.2887874 3.2572889
-3.8228676 2.2743752 3.2692211
-3.7887034 2.2773633 3.2936559
1.343001 2.2793133 3.2706017
-3.6326346 2.3367224 3.2721305
-3.5180943 2.3440683 3.2733705
-3.3341017 2.3449492 3.2808156
1.3238597 2.3069201 3.2676101
-3.4264302 2.3533731 3.2997701
-3.3653409 2.3506172 3.2692711
-3.1880937 2.3747919 3.2611761
-3.119159 2.3797672 3.2597902
-2.8366158 2.3813348 3.2848654
-2.7652135 2.3798003 3.2713134
-2.6528885 2.3790479 3.2893393
-2.6144934 2.3745654 3.2766199
-2.5181651 2.3762028 3.2775631
-2.4684625 2.3695996 3.2778044
-2.4366026 2.39059 3.2849007
-2.362354 2.390049 3.2756157
-2.3212144 2.3800497 3.2815175
-2.2854991 2.3854189 3.2598677
-2.1763539 2.3886771 3.278393
-2.125407 2.3866863 3.2521963
-2.0825212 2.3959594 3.2935519
-2.0284867 2.3889067 3.2596893
-1.9740607 2.3842945 3.2802143
-1.9247117 2.3933151 3.2729502
-1.8828224 2.3911331 3.2901282
-1.8343081 2.3802726 3.2945905
-1.7627715 2.3822677 3.2691844
-1.7437699 2.3857715 3.2992864
-1.6758747 2.3796778 3.2732491
-1.6211491 2.3715894 3.2830408
-1.5850861 2.3811417 3.2694025
-1.5227716 2.3751552 3.2845464
-1.470203 2.3817918 3.2865169
-1.4130981 2.3738866 3.2805886
-1.3647455 2.3688333 3.2756484
-1.3244556 2.371871 3.280205
-1.2700908 2.3739827 3.2771974
-1.223719 2.3721597 3.2788019
-1.1699084 2.3691766 3.2701361
-1.1213021 2.3665411 3.280134
-1.0817633 2.3684816 3.267518
-1.0227584 2.3628109 3.2744942
-0.97354895 2.3711901 3.2861488
-0.92861366 2.3734837 3.2768912
-0.89048123 2.3692808 3.2639661
-0.81433678 2.3647735 3.2734921
-0.77192879 2.3741417 3.2827377
-0.72446668 2.3704848 3.2836647
-0.67233241 2.3656039 3.2818284
-0.62490076 2.3708751 3.2782326
-0.5726608 2.3701534 3.2756355
-0.5212819 2.3719742 3.2759085
-0.47388718 2.3656516 3.2727718
-0.41888583 2.3670495 3.2806923
-0.38198587 2.37587 3.2783957
-0.32608929 2.3705237 3.2757576
-0.2707642 2.3782427 3.2724628
-0.22816408 2.3779051 3.280618
-0.17916596 2.3809531 3.2812269
-0.12744056 2.3742423 3.2774925
-0.087172933 2.3783779 3.2806604
-0.013669246 2.3769758 3.2617025
0.03214008 2.3757875 3.2778943
0.073494762 2.3832569 3.2786429
0.12689735 2.3786852 3.2740643
0.16639106 2.3825333 3.2803302
0.28098723 2.3956912 3.2778072
0.35521004 2.3992693 3.2770309
0.41792035 2.3886948 3.256494
0.50116599 2.3914351 3.2508686
1.2903371 2.3992629 3.2790549
1.3011943 2.3840122 3.2519147
-2.2126544 2.4057891 3.2897611
-0.050644483 2.4151075 3.277668
-0.019918637 2.4181347 3.2701061
0.22570993 2.4045062 3.2753279
0.29818219 2.4042149 3.2523081
0.32431933 2.404237 3.2743852
0.38315856 2.4009662 3.276844
0.47324324 2.4223721 3.2787004
0.52792352 2.408571 3.2712035
0.57903218 2.4046633 3.2680266
0.62224996 2.4077673 3.2789357
0.6754396 2.4135125 3.2747376
0.72663212 2.413451 3.2657585
0.77588046 2.4077687 3.2824204
0.82899672 2.4127278 3.2732551
0.87226516 2.4118679 3.2762024
0.92073262 2.4105694 3.2692683
0.97570622 2.4149776 3.2800281
1.022455 2.4145195 3.2755008
1.0742723 2.4252639 3.2855601
1.1180296 2.4271529 3.2723346
1.1757443 2.4239445 3.2808862
1.2231103 2.4135573 3.2711172
1.2770525 2.4111271 3.2741346
-2.9877751 -0.52284515 3.3220136
-2.9914417 -0.47144026 3.3134942
-3.0019858 -0.40248206 3.3330133
-2.9976187 -0.43211538 3.3249621
1.3200885 -0.41044423 3.3267035
-3.003788 -0.38253328 3.3370121
-2.9974599 -0.3615793 3.3318703
0.83859301 -0.36860174 3.3077576
0.8725543 -0.36665902 3.3041742
1.334536 -0.36789283 3.3196201
-3.0057821 -0.31101075 3.3264737
-2.9957864 -0.34124044 3.3317916
0.79266822 -0.31370777 3.3022017
0.82779479 -0.32288119 3.3080611
0.87662423 -0.32579896 3.3090966
1.3365694 -0.31819731 3.3282726
-3.0094728 -0.27016526 3.3145895
0.77778733 -0.27310258 3.3020298
0.8283897 -0.27464613 3.3133183
0.8701064 -0.27505985 3.3115237
0.97526777 -0.27739522 3.3205862
1.3344249 -0.26748267 3.3259447
-3.0057402 -0.24053361 3.3313153
-2.9987974 -0.22063637 3.3436387
0.59377754 -0.20712048 3.3023016
0.61930931 -0.2076619 3.3080792
0.74545056 -0.22552845 3.3191175
0.76786935 -0.22739248 3.3441393
0.82894045 -0.24246955 3.3171127
0.87609202 -0.22772692 3.3321478
0.91673547 -0.22798331 3.329195
0.9604677 -0.24506609 3.3308859
1.3367449 -0.21739003 3.329591
1.3523955 -0.23278368 3.3031569
-3.0013883 -0.17924555 3.310792
-2.9952128 -0.15887657 3.3048241
0.54870939 -0.19214988 3.3249829
0.59363973 -0.19113821 3.3021567
0.61851358 -0.1914341 3.3044219
0.74167776 -0.18430692 3.3039289
0.77693552 -0.1770176 3.3128171
0.82645684 -0.17825662 3.3292603
0.8705405 -0.17927089 3.3418107
1.3405689 -0.16681498 3.3225307
1.3513613 -0.18272166 3.3027732
-3.0002344 -0.119075 3.3117449
-2.9917936 -0.13919552 3.3205729
0.77610958 -0.12856169 3.3106821
0.82673258 -0.1296487 3.331857
0.8510077 -0.1301724 3.3418646
1.3396815 -0.11277153 3.3334429
1.3500701 -0.13269559 3.301254
-3.0055494 -0.079148859 3.3185456
0.73707962 -0.076020941 3.3045788
0.77714962 -0.080416359 3.3161314
0.82305259 -0.080964431 3.3325996
0.86009836 -0.081403464 3.3451233
1.3364215 -0.075179949 3.3376689
-3.0035293 -0.018923076 3.3170252
-2.9979501 -0.039050408 3.329577
0.72505212 -0.031946987 3.3066685
0.77844292 -0.032152615 3.3221464
0.82829535 -0.030067652 3.3396962
0.85132915 -0.040615153 3.3446107
1.33876 -0.029941846 3.3392818
1.3548039 -0.033136453 3.3144772
-3.0103238 0.021213012 3.3244293
0.69139439 0.04804172 3.3034282
0.72553849 0.024142327 3.3088713
0.77885556 0.024331568 3.3238776
0.82495493 0.02450243 3.340826
0.8577199 0.024581403 3.3474438
1.3438524 0.016979907 3.333411
1.3515137 0.016852899 3.3064764
-3.0264392 0.081984334 3.3413796
0.69115061 0.079980507 3.3018084
0.72651565 0.080365002 3.312705
0.780146 0.080938965 3.3287876
0.82599276 0.081486426 3.3444097
0.85242975 0.065365553 3.3486099
1.3431487 0.075250216 3.3195724
1.3508848 0.066730581 3.3044634
-3.0146861 0.13202502 3.3269444
0.69098264 0.11191376 3.3003979
0.72676516 0.1285767 3.3127768
0.78000045 0.12941544 3.3271511
0.82258552 0.12632865 3.3468304
1.3392557 0.11426683 3.3391464
1.3516113 0.13329698 3.3047941
-3.0001853 0.18264784 3.3465979
-2.9930334 0.17103088 3.3014369
0.69180506 0.17602538 3.3024247
0.72756839 0.17694257 3.3149607
0.77635425 0.17582689 3.330621
0.81140602 0.18239935 3.3443408
1.3392786 0.171306 3.3374729
1.3525229 0.18332855 3.3053243
-3.008672 0.22218257 3.3160508
0.68465346 0.22428948 3.3055925
0.72858185 0.22549772 3.317585
0.77400565 0.2270183 3.3339424
0.80841035 0.23128688 3.3439109
1.3429879 0.21777177 3.32621
1.3525701 0.22496074 3.3036332
-3.0062418 0.26299456 3.3297324
-2.9987342 0.28149951 3.3011487
0.68172783 0.27023679 3.3061912
0.72966421 0.27420697 3.3200777
0.77483726 0.27594021 3.3350592
0.80582178 0.27684611 3.3413806
1.341746 0.27279529 3.3319063
1.3544532 0.25860569 3.3065124
-3.0165155 0.32345301 3.3174884
0.6857788 0.32089624 3.3056977
0.73106456 0.32318407 3.323554
0.77579165 0.32502463 3.3362195
0.80355948 0.31009054 3.3476555
1.3405129 0.31958956 3.3375776
1.3540338 0.31686035 3.3018961
-3.0243888 0.36470404 3.3225484
0.47796914 0.37760267 3.3310895
0.68358231 0.37197518 3.3085792
0.72329992 0.37183818 3.3228264
0.76856226 0.37419039 3.3378546
0.80471694 0.39223334 3.3467088
1.3428631 0.36684093 3.3353474
1.3602706 0.38528854 3.3121181
-2.9979448 0.43447393 3.3238869
0.48700893 0.41861948 3.3338587
0.67826098 0.42164937 3.3097713
0.72536153 0.42151543 3.3284109
0.77034497 0.42397103 3.3417091
0.8116523 0.4218449 3.3448417
1.3426421 0.41689754 3.3353643
1.3556095 0.41156399 3.3215356
-3.0122466 0.47708794 3.3349478
0.48728061 0.45910639 3.3322139
0.6464473 0.49794003 3.300456
0.68134409 0.47308281 3.3121355
0.72621125 0.47068563 3.3279305
0.76540035 0.47036937 3.3369849
1.3432422 0.47187173 3.3317387
1.3566279 0.48086557 3.3097417
-3.0245025 0.52437335 3.327189
0.48981714 0.5019803 3.3456984
0.50131762 0.54545504 3.3080752
0.67958224 0.52110827 3.3103471
0.72096634 0.5219903 3.3275318
0.76426822 0.52322 3.3427207
1.3434136 0.5197593 3.3318877
1.3512518 0.53904945 3.3210917
-3.008575 0.57761598 3.3170228
-0.48241821 0.58394688 3.3434818
0.036074311 0.58419371 3.3205462
0.64871252 0.58832711 3.3022461
0.67491716 0.58202827 3.3098633
0.72029567 0.56978714 3.3289385
0.76658791 0.57930899 3.3391945
0.81657928 0.5827741 3.3420272
1.3416934 0.57585126 3.3399837
1.357867 0.57603973 3.3144772
-3.0179267 0.62002242 3.3209939
-0.43441328 0.64979339 3.344929
0.036385473 0.62958097 3.3443506
0.49200565 0.60180879 3.3499486
0.62531102 0.64552665 3.3023171
0.66835785 0.63194418 3.312475
0.72246385 0.62049204 3.3331406
0.77340555 0.62167603 3.3436553
0.81570607 0.61427468 3.346441
1.3434458 0.62745541 3.3378799
1.3510026 0.62313813 3.3100317
-3.0142808 0.67104411 3.3179693
-0.4504371 0.68195236 3.3375583
-0.43997321 0.66215622 3.3226008
-0.028191745 0.69448924 3.3376639
0.012159678 0.66877556 3.3336151
0.49151552 0.69870007 3.3339472
0.63448024 0.67900169 3.302691
0.67034793 0.67716366 3.316572
0.72487074 0.67169625 3.3377509
0.76122296 0.67491049 3.3488107
1.3449668 0.67908597 3.3346078
1.3552641 0.67579412 3.3134291
-0.38220373 0.72441036 3.3075614
-0.32094297 0.7315219 3.3446233
-0.22138189 0.70873541 3.32164
0.48956612 0.71211332 3.3184278
0.62744278 0.72869295 3.3022258
0.67190498 0.72489566 3.3177295
0.72664684 0.72259086 3.3389225
0.76360083 0.74305189 3.349829
1.3428108 0.73115498 3.3334031
1.3579328 0.71940565 3.3136473
0.49242049 0.77324617 3.3292325
0.63364804 0.78399503 3.3048446
0.67747474 0.7716707 3.328249
0.72619301 0.77152407 3.3394964
1.3445176 0.77887726 3.3301034
0.49435988 0.83346629 3.3330586
0.62575966 0.83078772 3.3070354
0.67614675 0.81962365 3.3244283
0.72513026 0.82474941 3.338819
1.3408366 0.81924248 3.3340759
1.3500483 0.81795615 3.3254592
0.49500692 0.88364691 3.3288834
0.59022915 0.87929374 3.3015671
0.62507188 0.87432307 3.3109488
0.67890996 0.87235677 3.3294468
0.71990049 0.873074 3.3434665
1.3408177 0.88270342 3.3389134
1.355113 0.87235337 3.3285954
0.4933024 0.93773013 3.3068147
0.62688041 0.92327857 3.3118951
0.67701787 0.92320883 3.3353634
0.71520406 0.93247795 3.3442924
1.3440895 0.93641222 3.3370008
1.3568425 0.90958697 3.3096058
0.58831924 0.97193927 3.3053372
0.62935579 0.97082978 3.3164952
0.67077327 0.98480821 3.3393824
0.70281965 0.98153806 3.3440208
1.3467706 0.98132783 3.3347518
1.3544465 0.97448176 3.3064506
0.58499628 1.030304 3.3067238
0.62445307 1.0256622 3.3250759
0.66736037 1.0269657 3.3405192
0.70505589 1.0264015 3.3460643
1.3400666 1.025157 3.3413198
1.3578078 1.0383835 3.3178136
0.58933187 1.0757203 3.3061035
0.61994809 1.0715076 3.3216467
0.66833985 1.0647331 3.3428655
1.3437072 1.0718275 3.3319056
0.48702085 1.1322627 3.3408415
0.57743645 1.1300882 3.3135788
0.62079722 1.1249766 3.3305707
0.66500169 1.1209918 3.3398888
1.3442221 1.140069 3.3426094
1.3568909 1.1238778 3.3161812
0.50384068 1.1909328 3.3262691
0.5689674 1.1771339 3.3126464
0.62511349 1.1729546 3.3318145
0.65800178 1.1568501 3.3401113
1.3465655 1.1769494 3.339623
1.355863 1.1785789 3.3123293
-3.536103 1.2493036 3.3174176
-3.3612177 1.247813 3.3472855
0.49124497 1.2260706 3.3493917
0.53626543 1.2472135 3.3023348
0.57385081 1.2228575 3.3168006
0.62352175 1.2240131 3.3346424
1.3441061 1.2222559 3.3341827
1.3599303 1.2255867 3.3107114
-3.6710687 1.2957822 3.3090074
-3.6264825 1.2766819 3.3141348
-3.5797694 1.2681115 3.3128572
-3.5314524 1.2739067 3.3263719
-3.4499903 1.2865648 3.3448071
-3.3911359 1.2508222 3.3358912
0.49124193 1.2764386 3.3362534
0.51572967 1.2789553 3.3077834
0.57466453 1.2752074 3.3235254
0.61788428 1.2780087 3.3355134
1.3458033 1.2718409 3.3296664
1.3527213 1.2961705 3.3238974
-3.6771631 1.332067 3.3029013
-3.6365674 1.332023 3.3206911
-3.5798922 1.3146808 3.326869
-3.5382338 1.3140657 3.3422792
0.49084327 1.3257974 3.319793
0.52612835 1.3258296 3.3081796
0.57377183 1.3242815 3.3202188
0.61841148 1.3186669 3.3345382
1.3443941 1.3227311 3.3468602
1.3542064 1.3239121 3.3198638
-3.6764023 1.379125 3.3155692
-3.6321077 1.3776426 3.3300409
-3.5802677 1.3655668 3.3393881
0.49262899 1.3727295 3.3198838
0.525554 1.3791907 3.3090277
0.58275074 1.3753952 3.3336315
0.62373006 1.3752236 3.3433337
1.3451433 1.3763942 3.3328955
1.356355 1.3611099 3.3145967
-3.7112598 1.4133127 3.3092518
-3.6736524 1.4372889 3.3218791
-3.6274879 1.4234463 3.338788
0.49386367 1.4183731 3.3156788
0.52795762 1.4276785 3.3114088
0.57412446 1.4290253 3.3318269
0.60812688 1.4243265 3.3470089
1.3416736 1.4225394 3.3307083
1.3589804 1.416551 3.3044953
-3.7246711 1.4645176 3.3043141
-3.6744089 1.4788288 3.3223674
-3.6294672 1.4653293 3.3405833
0.48991767 1.4741831 3.3209615
0.52472901 1.4710575 3.3158829
0.56910914 1.4848976 3.3387825
0.60538763 1.4943092 3.3446648
1.3439305 1.4778821 3.3386345
1.3538026 1.4918224 3.320065
-3.7243145 1.5229695 3.3091292
-3.668793 1.5364753 3.3248062
-3.640496 1.5156853 3.3332098
0.48827532 1.5275927 3.3138072
0.52687538 1.5235114 3.3228123
0.56539494 1.5231376 3.340802
1.346693 1.5305542 3.3427844
1.3540813 1.5188003 3.3116183
-3.7673857 1.5745618 3.3064954
-3.7311802 1.5806792 3.3122489
-3.6722593 1.5796391 3.3268225
-3.634676 1.580472 3.3474836
0.48909083 1.5800976 3.3155406
0.52898246 1.5741678 3.3339918
0.55739439 1.5816226 3.3467491
1.346554 1.5662117 3.3298979
1.359753 1.5697536 3.3097343
-3.7521574 1.6129303 3.3215206
-3.7230189 1.6225487 3.3175581
-3.6785517 1.6359022 3.3262463
-3.6358483 1.6343786 3.3422453
0.48784629 1.6320604 3.3336725
0.52244681 1.62357 3.3331628
0.56644642 1.6275141 3.3447385
1.3448317 1.6377046 3.3277488
1.3553486 1.6083668 3.3210247
-3.7172391 1.6661053 3.3089609
-3.6660137 1.6797301 3.3253384
-3.6294143 1.6809125 3.3468616
0.48842621 1.6686165 3.3252218
0.52469438 1.6739397 3.3320131
0.56712908 1.6711477 3.3421199
1.3425336 1.6730042 3.3368034
1.355426 1.6756415 3.3150091
-3.723542 1.7230622 3.3072588
-3.6742954 1.7259158 3.3304317
-3.6323946 1.7361965 3.3420553
0.49241585 1.725839 3.33619
0.52457291 1.720143 3.3330996
0.56393892 1.7226405 3.3422024
1.3496091 1.7090899 3.3438377
1.3575776 1.7349682 3.3274832
-3.6734066 1.768066 3.3267279
-3.623704 1.7821493 3.3435738
0.49464673 1.7774346 3.3345144
0.53318512 1.7752993 3.3411608
0.56764412 1.7867787 3.3438194
1.3402683 1.7936492 3.3421466
1.3563547 1.7706627 3.3192875
-3.7124071 1.8205296 3.3072686
-3.6769302 1.8125648 3.3266823
-3.6235521 1.8344994 3.3435621
1.3401766 1.8209817 3.3303792
1.3546 1.824934 3.3112164
-3.756628 1.8838303 3.3038211
-3.720315 1.8773993 3.3140855
-3.6677275 1.8685389 3.3305726
-3.635205 1.8638501 3.3434937
1.3491131 1.8699906 3.3366969
1.3603926 1.878567 3.3053455
-3.7307615 1.9380413 3.3136292
-3.6763012 1.926163 3.3376036
1.3484678 1.9151404 3.3145854
1.353111 1.9217181 3.3259425
-3.7528346 1.9771584 3.3040247
-3.7223051 1.9854283 3.3137143
-3.669661 1.9761627 3.3302376
-3.6294491 1.9653245 3.3452036
1.3432307 1.9712936 3.3361597
1.3569331 1.9735332 3.3139081
-3.7669792 2.0085201 3.3050447
-3.7332108 2.0270028 3.3061225
-3.6788349 2.0267732 3.3243997
-3.6378908 2.025471 3.3420963
1.3443455 2.0320117 3.332742
1.3597467 2.0054586 3.3075159
-3.7261214 2.0534682 3.3093219
-3.6677613 2.0712104 3.3301783
-3.6204741 2.0764108 3.3450208
1.3430504 2.0708215 3.3317235
1.3551586 2.082654 3.32037
-3.776861 2.1230836 3.3090777
-3.7278337 2.1294682 3.3143499
-3.6801147 2.1123309 3.3324177
-3.6205783 2.1308341 3.3421159
1.3370876 2.1294887 3.3321071
1.3576126 2.1146281 3.3120275
-3.8044052 2.1871755 3.3087821
-3.7572739 2.1738887 3.3099568
-3.7250199 2.1690958 3.3239021
-3.6714103 2.1707191 3.3334513
1.3378934 2.174257 3.329972
-3.781812 2.2245579 3.3128762
-3.7279973 2.2141314 3.3291306
-3.6707771 2.23441 3.3411779
1.3302177 2.2204881 3.3261995
-3.750643 2.2568297 3.3090031
-3.7192264 2.2645352 3.3172259
-3.6704116 2.2808802 3.3243098
