ply
format ascii 1.0
comment PCL generated
element vertex 1511
property float x
property float y
property float z
element camera 0
property float view_px
property float view_py
property float view_pz
property float x_axisx
property float x_axisy
property float x_axisz
property float y_axisx
property float y_axisy
property float y_axisz
property float z_axisx
property float z_axisy
property float z_axisz
property float focal
property float scalex
property float scaley
property float centerx
property float centery
property int viewportx
property int viewporty
property float k1
property float k2
end_header
-1.6422204 -0.5251196 1.6349341
-1.5756025 -0.52182961 1.6205755
-1.5284033 -0.52939647 1.6235685
-1.4771134 -0.52848786 1.6291581
-0.90139073 -0.50471663 1.6447734
-0.87664229 -0.50776839 1.63001
-0.82665658 -0.50315058 1.6315867
-0.77583331 -0.501185 1.6423788
-0.68690276 -0.50173301 1.6391851
-1.9022636 -0.46241248 1.6322383
-1.8966733 -0.47658452 1.6272565
-0.83001775 -0.49649125 1.6402445
-0.77572441 -0.49560523 1.6210338
-0.72418213 -0.49560344 1.6196836
-0.66825509 -0.49390018 1.6213684
-0.62657183 -0.48972315 1.6256214
-0.57692778 -0.4850606 1.6087677
-0.51189935 -0.48750249 1.6267128
-0.4715068 -0.48163792 1.625627
-0.41798997 -0.48109522 1.6286019
-0.37861913 -0.48184446 1.6228719
-0.32730073 -0.47983238 1.6234444
-0.27400908 -0.47669828 1.6229568
-0.23044087 -0.47872418 1.6235415
-0.17245598 -0.47807494 1.6237966
-0.12767988 -0.47831914 1.6225721
-0.070598461 -0.47727475 1.6270974
-0.028451007 -0.47626284 1.6292247
0.02771966 -0.47348288 1.6247627
0.076721966 -0.47197208 1.6202484
0.12503597 -0.47435665 1.6264843
0.17331742 -0.47401145 1.6194162
0.2249393 -0.47634581 1.6245395
0.27326486 -0.4740437 1.6278419
0.32571104 -0.4732599 1.6305542
0.37659252 -0.47248876 1.6214044
0.42715377 -0.47190461 1.6206883
0.4762699 -0.4728581 1.6235774
0.52399933 -0.47157839 1.6272264
0.5799374 -0.46987587 1.627254
0.62517709 -0.47023997 1.6306888
0.67627501 -0.46372774 1.6281104
0.72342467 -0.4624342 1.6271688
0.76678354 -0.46365452 1.6252449
0.82643729 -0.46887317 1.6245428
0.87093943 -0.47151226 1.6208327
0.92697543 -0.47088173 1.6239709
0.96920407 -0.46638983 1.6189531
1.0361234 -0.46867552 1.6238942
1.0849787 -0.47121814 1.6254063
1.1269562 -0.4633061 1.6277047
1.1687458 -0.46191502 1.6141415
1.2250298 -0.46156073 1.6079835
1.2664342 -0.46646491 1.6070449
-1.9036342 -0.42394766 1.6220435
-1.8981457 -0.44615489 1.6004632
1.1233895 -0.4206562 1.6292397
-1.9068711 -0.37270164 1.6263477
-1.8977652 -0.37461168 1.6256733
1.1306832 -0.38464406 1.631503
1.1643623 -0.38182679 1.638276
-1.9036053 -0.33233878 1.6254567
-1.898137 -0.30893037 1.6340772
1.1293695 -0.32998404 1.6229486
1.1651872 -0.33189112 1.6418786
-1.9033146 -0.27512375 1.6247536
-1.8893299 -0.27833447 1.6387314
-1.9044695 -0.24286909 1.6004959
-1.8913609 -0.22356133 1.6310043
-1.9027553 -0.17284493 1.6133195
-1.8885791 -0.17995243 1.6285684
-1.839148 -0.16796482 1.612987
-1.9040638 -0.12683377 1.6214252
-1.8976331 -0.12756214 1.6468449
-1.9025249 -0.076737039 1.6226528
-1.8942897 -0.077101275 1.6464996
-1.9033642 -0.024388386 1.6261482
-1.8943968 -0.030147484 1.6395893
-1.9025803 0.024484981 1.6227446
-1.895311 0.018862884 1.6445287
-1.902038 0.076875262 1.6185426
-1.8958985 0.070106506 1.6396319
-1.8383861 0.088108748 1.6172913
-1.9031471 0.13459417 1.6247803
-1.8935293 0.11190719 1.623129
-1.9002013 0.15683973 1.6257485
-1.8894672 0.17488226 1.614746
1.8221561 1.3844738 1.6271868
1.8118321 1.4255584 1.6325512
1.8075345 1.4740748 1.6415509
-1.9052992 -0.50318116 1.6684073
-1.8819742 -0.51573718 1.6684564
-1.821077 -0.51102573 1.668403
-1.7788234 -0.5151763 1.6716502
-1.7158802 -0.51036477 1.6614205
-1.6725122 -0.51628727 1.6665078
-1.6271553 -0.51934141 1.678998
-1.5689936 -0.52433848 1.670592
-1.5315958 -0.52799588 1.6603217
-0.87025231 -0.50296992 1.675354
-0.81068116 -0.50049657 1.6752633
-0.72299653 -0.50068784 1.6812224
-1.9131039 -0.47650838 1.6822435
-1.8939888 -0.48164594 1.6522232
-0.86370826 -0.49971053 1.6772712
-0.82404196 -0.49906999 1.6710079
-0.77758372 -0.49654484 1.6752763
-0.72969741 -0.49858749 1.6740363
-0.681283 -0.49569741 1.6690457
-0.63914722 -0.49511191 1.6730891
-0.55319399 -0.48788351 1.6568749
-0.51778221 -0.49022102 1.6733437
-0.48162141 -0.48354304 1.6646785
-0.42742223 -0.48272389 1.6638168
-0.3747113 -0.48372272 1.671613
-0.3257423 -0.4791683 1.677249
-0.27142957 -0.48223448 1.6781051
-0.2240527 -0.48090696 1.6689831
-0.1768702 -0.47920612 1.6744003
-0.12350304 -0.47926658 1.6732597
-0.076354384 -0.47754145 1.6785285
-0.026701992 -0.47535571 1.6807067
0.022604564 -0.47611809 1.677215
0.072260968 -0.47288248 1.6751157
0.12108517 -0.47173306 1.6742964
0.17343566 -0.47468382 1.68049
0.2276002 -0.47378603 1.6690114
0.27698973 -0.47260466 1.6691196
0.3308543 -0.46952036 1.6733309
0.37153384 -0.46716788 1.6729152
0.42586878 -0.46741059 1.6725345
0.47455257 -0.46891403 1.6757854
0.52462351 -0.4680737 1.6704087
0.57302642 -0.46796715 1.6749179
0.62481582 -0.46605396 1.6766814
0.66915303 -0.46165681 1.6753811
0.72728145 -0.45960891 1.6791171
0.77920902 -0.46349192 1.6790655
0.82695341 -0.46549484 1.670279
0.87581795 -0.46871933 1.6705859
0.92360801 -0.47388026 1.6751012
0.97535038 -0.46863046 1.6753644
1.0231991 -0.46955594 1.6776813
1.0740633 -0.47119838 1.6864367
1.1336565 -0.46768552 1.6788476
1.2260507 -0.46799794 1.6655706
1.279498 -0.46926692 1.6923004
-1.9086288 -0.42916113 1.6655775
1.1187592 -0.43691951 1.6669035
-1.9038882 -0.38483086 1.6611156
-1.8987572 -0.36116689 1.6609479
-1.9059563 -0.31521252 1.6540493
-1.889158 -0.33122414 1.6574683
-1.8906884 -0.24547566 1.6504399
-1.8988724 0.034560479 1.6515775
-1.9022802 0.068243429 1.6535802
-1.9101348 0.13643923 1.6671381
-1.8817477 0.11249163 1.6542187
-1.8920215 0.15796037 1.660014
1.7765157 0.20887709 1.6840605
1.7991259 1.3797288 1.6881813
1.8110492 1.3792964 1.6668476
1.7942964 1.427394 1.6834052
1.8025668 1.4175056 1.6628857
1.7937299 1.4787751 1.678843
1.8044181 1.4720751 1.6566821
1.7956829 1.5290486 1.6844918
1.8050667 1.5124992 1.6598773
1.795779 1.5695022 1.6900541
1.7919227 1.6155128 1.6977317
-1.6737517 -0.51508069 1.7267106
-1.6315068 -0.5187487 1.7157754
-1.5668902 -0.52484709 1.7167168
-1.5382245 -0.52703977 1.7099001
-1.1211833 -0.5130381 1.7452528
-1.0313799 -0.50236565 1.7405673
-0.91375649 -0.50147867 1.7237623
-0.8722434 -0.50407773 1.7237688
-0.83669996 -0.50311625 1.7201278
-0.76092464 -0.50262052 1.7247146
-0.73496753 -0.50024247 1.7235432
-0.6907444 -0.50177741 1.7245553
-0.55515003 -0.50058085 1.7198043
-0.54472774 -0.50272787 1.7469727
-0.91841215 -0.49695328 1.7230828
-0.82690132 -0.49820733 1.7228715
-0.75711071 -0.49704194 1.7413357
-0.72150135 -0.49562544 1.7280617
-0.48831272 -0.49473238 1.7289996
-0.40697592 -0.4908933 1.7293487
-0.3745133 -0.48455015 1.716745
-0.30029911 -0.47876865 1.7001452
-0.27158096 -0.48328835 1.7233908
-0.22079496 -0.48388267 1.7268498
-0.17558224 -0.48079085 1.7244906
-0.12598805 -0.47705311 1.7214365
-0.083431117 -0.47695562 1.7206568
-0.028300529 -0.47509617 1.7301124
0.023169821 -0.47500527 1.7201854
0.073333129 -0.47475582 1.7236761
0.12703231 -0.47198769 1.730346
0.17429319 -0.47133017 1.7301397
0.22388512 -0.47484067 1.7232215
0.27413216 -0.47167549 1.7260914
0.32321084 -0.46942505 1.7258509
0.38637754 -0.46518382 1.7207607
0.41967314 -0.46667585 1.7254779
0.4730517 -0.46811533 1.7277428
0.52776122 -0.46741295 1.7301201
0.57210106 -0.46589851 1.726877
0.62480754 -0.46493816 1.7196485
0.67021292 -0.46296415 1.7428974
0.71874917 -0.45760614 1.7234081
0.77393061 -0.46098468 1.7207259
0.82463896 -0.46451926 1.7246687
0.87687594 -0.46825582 1.7220609
0.92937261 -0.47309798 1.7230566
0.96848655 -0.46890381 1.7174569
1.0253955 -0.46684489 1.7163917
1.0758554 -0.47120401 1.7251492
1.1308619 -0.47019768 1.7234801
1.1558974 -0.46490568 1.7397652
1.7898196 0.13482589 1.7451161
1.7845304 0.17619891 1.7366049
1.7423942 0.24149866 1.7087135
1.7848663 0.21523477 1.7292145
1.7823709 1.3420993 1.7432147
1.7858859 1.3736144 1.7262963
1.8022224 1.363326 1.7026005
1.7823677 1.4243641 1.7234952
1.7815721 1.4732342 1.7230744
1.781094 1.5230554 1.7236186
1.7792403 1.5746442 1.7260005
1.7819948 1.6304041 1.7245836
1.78274 1.6673101 1.7286953
1.7915733 1.7103555 1.7393221
-1.124791 -0.51918095 1.7710249
-1.0869476 -0.51004702 1.7943296
-1.0219994 -0.50470066 1.7771413
-0.91734767 -0.50684768 1.7788228
-0.87546247 -0.50250548 1.7693998
-0.82010198 -0.50376272 1.7738062
-0.78358746 -0.50240666 1.754303
-0.71995711 -0.50478584 1.7830812
-0.69434893 -0.50523943 1.7735279
-0.54677016 -0.503923 1.7861047
-0.96826905 -0.49919763 1.7540774
-0.91118187 -0.4989273 1.7755349
-0.76690257 -0.4972707 1.7776941
-0.54946369 -0.49820197 1.7639222
-0.41507742 -0.49185038 1.7653421
-0.38545901 -0.4898316 1.7762861
-0.3260414 -0.49035892 1.7822902
-0.27228987 -0.48544645 1.7604089
-0.21971847 -0.48355326 1.7772275
-0.17885403 -0.4822678 1.7712555
-0.12316956 -0.47999868 1.7756137
-0.073263414 -0.479837 1.7720652
-0.027469995 -0.4732599 1.7725002
0.024439223 -0.47553641 1.7826784
0.077395894 -0.47175068 1.7698028
0.12367972 -0.47211149 1.7747282
0.17302212 -0.47254094 1.783926
0.22519019 -0.47489464 1.7786021
0.27920458 -0.47029918 1.7763252
0.32521123 -0.46737179 1.7759421
0.37477881 -0.46617746 1.7718939
0.42755067 -0.46370944 1.7777966
0.47884169 -0.46407503 1.775676
0.52101117 -0.46506253 1.779067
0.57883996 -0.46345267 1.7791464
0.62757111 -0.46331373 1.7727776
0.66309553 -0.46137199 1.7642459
0.76615709 -0.46358883 1.7573483
0.82556981 -0.4641549 1.7703432
0.87438893 -0.46523288 1.7703257
0.91998988 -0.47266644 1.7781544
0.97478187 -0.47639006 1.7822962
1.0312071 -0.47671396 1.7832711
1.0730296 -0.47231323 1.7672789
1.1286922 -0.4717932 1.7877734
1.1564823 -0.46582833 1.7611227
1.6739563 -0.48565316 1.7873962
1.7147434 -0.49478596 1.7831147
1.5838079 -0.40006104 1.7825776
1.6107956 -0.40410152 1.7922866
1.0795135 -0.3939867 1.7718924
1.5882783 -0.3903335 1.7896436
1.6102128 -0.38755244 1.7947057
1.7813897 -0.16916008 1.7979517
1.7891666 0.042143557 1.783728
1.8015431 0.034728095 1.7820969
1.7854257 0.073864259 1.7755114
1.7793436 0.12406888 1.7669075
1.8398943 0.11564004 1.7954183
1.7782898 0.17459489 1.7655808
1.7801621 0.21980081 1.7647203
1.7714385 0.90912098 1.799722
1.7766744 1.2968556 1.7908423
1.7719501 1.3288101 1.7749757
1.767144 1.3790144 1.7767745
1.8136692 1.356163 1.7511392
1.8569814 1.3918517 1.7622021
1.7667007 1.4270869 1.7734629
1.7624288 1.478242 1.7723958
1.7678899 1.5296435 1.7734355
1.7642424 1.574198 1.7765933
1.7686418 1.6259053 1.7752922
1.7732536 1.6786518 1.7742004
1.7747669 1.7256875 1.7693532
1.7765858 1.7717191 1.7750794
1.7766644 1.8207841 1.7925307
-1.1040894 -0.51344848 1.8016728
-1.0882463 -0.51531535 1.817436
-1.0229412 -0.50998664 1.8223823
-0.9753651 -0.50948018 1.8205125
-0.93487263 -0.50799304 1.8224665
-0.87842715 -0.5033586 1.8233147
-0.80388486 -0.5025512 1.8279253
-0.77361262 -0.50462425 1.8053253
-0.73288375 -0.51118243 1.8338903
1.7599069 -0.50448704 1.8084722
-0.88055974 -0.49886242 1.8289144
-0.84085947 -0.49913973 1.8016281
-0.31820419 -0.49305618 1.8181309
-0.2706818 -0.49017912 1.8267386
-0.17068155 -0.48492137 1.8220303
-0.12820916 -0.48205402 1.8216791
-0.075227618 -0.48138484 1.8219478
-0.018486908 -0.47703815 1.8233442
0.028926773 -0.47490844 1.8209952
0.080720611 -0.47356942 1.8207178
0.12255338 -0.47098491 1.8271174
0.17679468 -0.47132161 1.8246067
0.22490969 -0.47293574 1.8332154
0.27371961 -0.47022003 1.8233999
0.32780603 -0.46420136 1.82026
0.37083852 -0.46361265 1.8059959
0.41267863 -0.46385184 1.8008606
0.49959147 -0.46102175 1.8125789
0.52410841 -0.46269035 1.814733
0.57378376 -0.46174067 1.8163936
0.6381368 -0.46141997 1.8108597
0.66700548 -0.46069121 1.8245988
0.88444215 -0.47210899 1.842452
0.92379326 -0.47005913 1.8188002
0.98100168 -0.47255564 1.8177309
1.0253552 -0.47405729 1.8161623
1.0756977 -0.47276235 1.8244677
1.1271755 -0.47212982 1.8244721
1.1648067 -0.47058284 1.815802
1.6184046 -0.46315908 1.8190234
1.7355248 -0.48604301 1.8378326
1.7755398 -0.47424451 1.8325853
1.7297853 -0.42719457 1.8439356
1.7704258 -0.42397332 1.8323071
1.8028619 -0.42885131 1.8269827
1.5998956 -0.38225231 1.8047234
1.6343176 -0.37930492 1.8455232
1.7722664 -0.37265274 1.8270936
1.7689091 -0.3238391 1.8252703
1.766045 -0.27734327 1.8260745
1.7484461 -0.2160583 1.8449825
1.7620306 -0.22728951 1.8202122
1.7493824 -0.19334726 1.8481202
1.7640675 -0.17681481 1.8201884
1.800814 -0.19390292 1.8156126
1.3915341 -0.10400761 1.8428915
1.3925 -0.093630292 1.8446084
1.8177841 -0.068060853 1.8188984
1.784883 0.040479042 1.8076937
1.8491875 0.024034372 1.8294107
1.7845999 0.057502277 1.8069873
1.8068519 0.081205152 1.8287011
1.7950761 0.14346214 1.8133287
1.8055527 0.10410871 1.8263596
1.7950587 0.18342833 1.8100988
1.8122454 0.21401173 1.8246543
1.7582828 0.8875761 1.8302244
1.7480837 0.90957838 1.845737
1.7602756 0.92321295 1.8235991
1.8129083 0.94264424 1.8364128
1.7668666 0.96600795 1.844704
1.8004148 0.95472211 1.8410841
1.7591469 1.2410653 1.8410918
1.7457186 1.2765542 1.8437527
1.7646992 1.2801899 1.8176289
1.7463487 1.3181584 1.8372717
1.7553455 1.3296821 1.8115937
1.7454916 1.365505 1.8363812
1.7554371 1.3776727 1.8113046
1.746451 1.434659 1.8361789
1.7544447 1.4207748 1.8172241
1.7426431 1.4654713 1.833099
1.7535671 1.4758822 1.8104095
1.7448199 1.5138092 1.8435555
1.7536697 1.5233145 1.8203105
1.7477007 1.574088 1.8393255
1.754863 1.5716484 1.8147243
1.7570421 1.6259906 1.8285855
1.7482109 1.6591923 1.8463123
1.7592382 1.67716 1.8198899
1.7583771 1.7274631 1.8214179
1.7654719 1.7775263 1.8204503
1.7672507 1.8266623 1.8229668
1.7662445 1.8729807 1.8268683
1.7724583 1.9183282 1.8399229
1.771588 1.9539261 1.8476245
-1.0685477 -0.51504803 1.8722149
-1.0331187 -0.5125258 1.8757359
-0.96365798 -0.50511503 1.8701956
-0.93417722 -0.50761545 1.8740633
-0.86348188 -0.51109797 1.8782969
-0.83135146 -0.51262516 1.8864613
-0.79331529 -0.51415473 1.8791229
-0.73672593 -0.51339459 1.8717817
-0.43068638 -0.50768238 1.8828157
-0.36816803 -0.50429428 1.8911376
-0.31064877 -0.49702609 1.8702391
-0.26704118 -0.494425 1.8796532
-0.23412843 -0.49340773 1.8731582
-0.19114058 -0.49298036 1.8840137
-0.11964514 -0.48429599 1.8654711
-0.071544029 -0.4793995 1.8607274
-0.036082156 -0.4806059 1.875775
0.024094837 -0.47957316 1.8801389
0.07151515 -0.47764206 1.8751585
0.1272818 -0.47124562 1.87543
0.17580481 -0.47280067 1.8697132
0.22751792 -0.47157001 1.8661337
0.28116015 -0.47175542 1.8748364
0.32246262 -0.46746874 1.8756258
0.66271794 -0.46208617 1.8634238
0.8385312 -0.47070941 1.8515667
0.88065606 -0.46813616 1.8719349
0.91405302 -0.4702777 1.8701844
0.97218066 -0.47277927 1.860355
1.0266008 -0.47542402 1.8763952
1.0710295 -0.47350702 1.8736643
1.1271994 -0.47292545 1.8722341
1.1515679 -0.47457826 1.8693185
1.7313993 -0.4790391 1.8607819
1.7713264 -0.46845269 1.8677977
1.7425646 -0.42492056 1.8645138
1.7507826 -0.404401 1.8643124
1.6705287 -0.3837468 1.854274
1.7379683 -0.37657228 1.8808194
1.7552645 -0.37791258 1.8562641
1.0388863 -0.32956043 1.8793948
1.0719736 -0.32028273 1.8824639
1.1091807 -0.32460308 1.8979055
1.4873575 -0.30292919 1.8681359
1.5207084 -0.30747125 1.8889656
1.7365329 -0.32902214 1.8811561
1.7526307 -0.32734489 1.8572183
1.8322252 -0.3392491 1.8516856
1.4346628 -0.28540266 1.8642714
1.4693164 -0.27715465 1.86892
1.5204775 -0.25152618 1.8848016
1.7402692 -0.27309176 1.876369
1.751075 -0.29256111 1.8605161
1.43297 -0.23893757 1.8852035
1.4734573 -0.23141663 1.8855925
1.5057386 -0.24086002 1.8989388
1.7390293 -0.22351539 1.877236
1.7527188 -0.20515122 1.8505992
1.7364353 -0.17893173 1.8804131
1.7610772 -0.16900688 1.8679719
1.8128227 -0.15006098 1.853058
1.3808196 -0.11951341 1.8735605
1.4283735 -0.12582199 1.8654592
1.460909 -0.11457466 1.8667004
1.5067569 -0.10849956 1.8890904
1.7406161 -0.14942673 1.8960053
1.3813413 -0.094314843 1.8703098
1.4250702 -0.088135131 1.8707658
1.4731547 -0.087897018 1.8804321
1.5123638 -0.092148386 1.8863893
1.8373187 -0.081542321 1.8817946
1.4969207 -0.043151136 1.8995391
1.8388662 0.024167934 1.862671
1.7349993 0.88137323 1.8763189
1.755466 0.86800933 1.8852345
1.7346897 0.9268468 1.8740735
1.8225397 0.91073668 1.8623366
1.7389454 0.97436088 1.8776611
1.7741082 0.98763609 1.857229
1.73913 1.0217441 1.8826965
1.766736 1.0270805 1.8773546
1.7424656 1.0719903 1.8942997
1.7408695 1.1199436 1.8953056
1.7541994 1.1016936 1.8957878
1.7389179 1.1887033 1.8910162
1.7363064 1.2296356 1.8750708
1.7547936 1.2172012 1.8626785
1.8035218 1.2485436 1.8866301
1.7349074 1.278448 1.8750072
1.8175749 1.2880477 1.8549895
1.7339439 1.3288733 1.875501
1.7360721 1.3791394 1.8780258
1.7381318 1.424611 1.8717307
1.7377836 1.4801135 1.8780849
1.7382603 1.525268 1.8727134
1.7429934 1.5744824 1.8797021
1.7400144 1.6241727 1.8731785
1.7505035 1.6019565 1.8572221
1.7436905 1.6769193 1.872641
1.7488624 1.7197014 1.8887815
1.7533529 1.7311274 1.8715537
1.7462069 1.7720279 1.8867172
1.7568938 1.7758266 1.8628844
1.7447246 1.8053997 1.8889804
1.7560356 1.8265766 1.8697649
1.7592776 1.8779203 1.8754998
1.7612216 1.9263397 1.8700377
1.7629048 1.9657673 1.8827072
-1.058593 -0.5098961 1.9013034
-0.95474195 -0.508977 1.9373915
-0.92267931 -0.51176071 1.9236164
-0.871638 -0.51222265 1.9335806
-0.82721645 -0.51423579 1.9265133
-0.78513485 -0.51178002 1.9141347
-0.42121077 -0.50755292 1.9271104
-0.37541175 -0.50607193 1.9257067
-0.31366438 -0.49995315 1.9189432
-0.28037265 -0.49639586 1.9214636
-0.21532042 -0.49542409 1.9180832
-0.17872761 -0.49231029 1.9226705
-0.11049322 -0.48888704 1.9290203
-0.077730365 -0.49010834 1.9348991
-0.0069862567 -0.48702401 1.9237638
0.030292025 -0.47703791 1.9096488
0.07905262 -0.47446328 1.9113365
0.17611329 -0.47529233 1.9252967
0.22111782 -0.47506422 1.9285185
0.27107051 -0.47271889 1.9209851
0.31398895 -0.47198752 1.9251057
0.88866174 -0.47039109 1.9277161
0.92269778 -0.46987262 1.9136691
0.96972775 -0.47576305 1.9166034
1.0279917 -0.4722884 1.9226463
1.0691142 -0.47028211 1.9286523
1.113261 -0.47496694 1.9155433
1.0405996 -0.42331809 1.9252058
1.05659 -0.42030004 1.9215468
1.0494723 -0.38976064 1.9402775
1.0671571 -0.3886835 1.9267853
1.1980399 -0.36668834 1.9321117
1.2061081 -0.36072999 1.9240048
1.7221801 -0.37358987 1.9265916
1.0725324 -0.30742693 1.9102563
1.1088492 -0.32596117 1.9082279
1.6913064 -0.34049913 1.9182717
1.7178382 -0.32119977 1.9206327
1.0755028 -0.28696686 1.9354585
1.1109948 -0.2884627 1.9389682
1.3939674 -0.28108054 1.9255655
1.6979172 -0.27219683 1.9350643
1.7203394 -0.27257785 1.9228474
1.4317397 -0.23200072 1.9142053
1.4625695 -0.20924674 1.9092505
1.5210723 -0.22632392 1.9145502
1.7172344 -0.22680026 1.9214554
1.4768758 -0.17367993 1.9250287
1.5184072 -0.17132412 1.9149545
1.5669179 -0.17528585 1.9435055
1.6928089 -0.17879201 1.9382236
1.7158945 -0.17820176 1.9255307
1.3980738 -0.14021188 1.932683
1.4996487 -0.1197099 1.9004221
1.5190687 -0.14391899 1.9343146
1.725247 -0.13070276 1.9218122
1.7925088 -0.14151581 1.9421879
1.3827688 -0.095886752 1.9135551
1.4112296 -0.085932732 1.9215789
1.4760388 -0.066146992 1.9197006
1.5174792 -0.062865198 1.9146084
1.4818802 -0.03702426 1.9161936
1.5257417 -0.038131174 1.9150679
1.4809912 0.016885892 1.921187
1.5216527 0.017043462 1.9205483
1.7162154 0.1346605 1.945727
1.7196739 0.17583609 1.9467821
1.7127786 0.21071564 1.9469686
1.7269304 0.4198606 1.9455547
1.7136375 0.72959149 1.9447303
1.7155808 0.78362972 1.9395059
1.7198541 0.82890356 1.930361
1.7214091 0.86987436 1.9254169
1.718161 0.92461473 1.9285538
1.7189405 0.9757846 1.9232241
1.7229674 1.0231912 1.9232038
1.7226475 1.0732661 1.9230301
1.7707089 1.0791119 1.9025393
1.7228562 1.1269344 1.9241834
1.722736 1.1726985 1.9232306
1.7718482 1.158962 1.919071
1.7186043 1.2240288 1.9263941
1.8025875 1.2309103 1.9243015
1.7192453 1.2715055 1.9240564
1.7179394 1.3246291 1.9269081
1.7170733 1.3771421 1.9219955
1.7223322 1.4286057 1.9217147
1.7207038 1.4742851 1.9254136
1.7241135 1.5272316 1.9246271
1.7270612 1.5753949 1.9248953
1.7327491 1.6244646 1.9202061
1.7310982 1.6678163 1.9226111
1.7348205 1.7237971 1.9241469
1.7379341 1.7754685 1.9219013
1.7423322 1.833367 1.9319828
1.7436641 1.8688765 1.9179672
1.7535843 1.8788506 1.9050802
1.7471997 1.9286749 1.9367983
1.7549353 1.9240947 1.9105896
1.7447367 1.980948 1.9322288
1.7555797 1.9764946 1.9097471
-0.9893828 -0.51654607 1.975163
-0.92777419 -0.5109567 1.9557009
-0.88523728 -0.5100534 1.9658805
-0.83221841 -0.51329124 1.9620165
-0.41888341 -0.50897998 1.9709671
-0.38396788 -0.5022772 1.959023
-0.32991734 -0.50651741 1.9690593
-0.25856036 -0.50262135 1.9741449
-0.24878232 -0.50239861 1.974099
-0.28444359 -0.49716735 1.95007
-0.23635928 -0.49660057 1.952104
-0.16927853 -0.49595994 1.9542035
-0.10275368 -0.48760593 1.963639
-0.079291001 -0.49003261 1.9741123
-0.023845982 -0.48740572 1.9644855
0.021833152 -0.48464188 1.9736614
0.069167167 -0.4862107 1.958994
0.19550128 -0.47289979 1.9806813
0.21515758 -0.47373036 1.9828229
0.28201249 -0.47232163 1.9712858
0.31193262 -0.47388577 1.9749068
0.90596718 -0.47200772 1.9798809
0.97392642 -0.47507381 1.9713748
1.0239134 -0.4738422 1.9736259
1.052114 -0.46443346 1.9694806
1.0400105 -0.42812431 1.9519227
1.1720079 -0.30520859 1.9638003
1.2285317 -0.3079364 1.9901222
1.2519282 -0.30120605 1.9837581
1.1789646 -0.27650473 1.9711975
1.2257305 -0.27460176 1.9785058
1.2500347 -0.28999925 1.9819705
1.3885305 -0.25458145 1.9969231
1.4059116 -0.27363604 1.9540031
1.4354086 -0.24201447 1.9550654
1.4681391 -0.21684331 1.9695499
1.5739928 -0.21527536 1.9591848
1.7088207 -0.22137386 1.9530512
1.4646568 -0.1735348 1.9645699
1.5620176 -0.19156031 1.9534373
1.7090793 -0.15129673 1.9589082
1.3988452 -0.10867236 1.9566349
1.7175114 -0.11981861 1.9608976
1.7778621 -0.10653723 1.9725552
1.4756323 -0.063585564 1.9720018
1.7302828 -0.089637041 1.9715319
1.7533208 -0.093963489 1.9679376
1.475925 -0.040283892 1.9639221
1.4814229 0.022647083 1.9570109
1.7280326 0.08893472 1.9724824
1.716148 0.11962118 1.9611193
1.7086685 0.17588949 1.9562199
1.6968292 0.38560796 1.9841859
1.7189051 0.39117956 1.9639511
1.6972604 0.43613172 1.9988537
1.7129334 0.42138734 1.9678185
1.6976194 0.47203088 1.992317
1.7141763 0.46875274 1.9688308
1.7566772 0.47691613 1.9809368
1.6970255 0.51547253 1.9941362
1.7144814 0.5226298 1.9766369
1.6969622 0.56531572 1.9943662
1.7102034 0.57337493 1.9803677
1.6947191 0.63506979 1.9975631
1.7148117 0.62154949 1.9783382
1.698115 0.67267197 1.9913127
1.7147617 0.6723389 1.9711704
1.7570038 0.68149853 1.9898158
1.6974415 0.7241534 1.9847395
1.7034857 0.72297633 1.9633362
1.7601643 0.72568923 1.9801079
1.6965214 0.77424431 1.9905013
1.7055693 0.7730065 1.9694073
1.7652212 0.77710515 1.9695005
1.6964003 0.82697767 1.9888487
1.7050825 0.82430714 1.9696248
1.7815474 0.84654617 1.9652907
1.6967113 0.87350285 1.9875383
1.7058252 0.87917948 1.9614353
1.6962912 0.92285383 1.9779699
1.7073979 0.92915076 1.9643353
1.706146 0.97535694 1.9763435
1.6957061 1.0279621 1.9912049
1.7076352 1.021817 1.966532
1.6972574 1.0754976 1.9937406
1.7089963 1.0773115 1.9681287
1.6977036 1.1264026 1.9909838
1.705597 1.1274658 1.9666371
1.6954628 1.1749948 1.9918286
1.7057396 1.1791931 1.9641031
1.6968927 1.2262083 1.986043
1.7054272 1.2168809 1.9629116
1.6986718 1.2628734 1.9866447
1.7051905 1.2786222 1.9679393
1.6996945 1.3125107 1.9906037
1.7070137 1.3343583 1.9711281
1.6968344 1.3723874 1.9895871
1.7063665 1.3767493 1.9633143
1.6955111 1.40246 1.9929519
1.7085177 1.4262466 1.9733343
1.6981878 1.4557824 1.9966233
1.7070762 1.4727381 1.9729325
1.699432 1.508808 1.9977756
1.7084167 1.5258427 1.9735899
1.7136405 1.5758256 1.9781879
1.7174541 1.6264514 1.97605
1.7197561 1.6802711 1.9763719
1.721113 1.7218783 1.9735721
1.723134 1.77737 1.9830574
1.7286199 1.8208538 1.9677187
1.7332529 1.8741075 1.9743682
1.7371364 1.925243 1.9815916
1.7371074 1.9781969 1.9753344
1.7338325 2.021616 1.9858997
-1.0144323 -0.51367784 2.0369098
-0.97663265 -0.51861435 2.0305011
-0.8691994 -0.51665884 2.0240569
-0.83708763 -0.51496243 2.0023999
-0.2630097 -0.50143874 2.0097704
-0.18593007 -0.50576961 2.0329995
-0.13537101 -0.50218642 2.0211871
0.037124082 -0.48906052 2.0332952
0.051337395 -0.48847374 2.0094538
0.17063725 -0.48452386 2.031162
0.23561406 -0.47613084 2.0202281
0.2762036 -0.4780058 2.0248003
0.31715146 -0.47190157 2.0091722
0.92639226 -0.47469798 2.0123274
0.99854434 -0.47650629 2.0231755
1.0183628 -0.47586763 2.0127535
1.4863831 -0.17573123 2.0196009
1.7614596 -0.071131319 2.0002701
1.4966459 0.01180076 2.0172563
1.5061628 0.00044100068 2.0412135
1.6229585 0.035738502 2.0370846
1.6870407 0.3887848 2.0176849
1.6883608 0.42449138 2.0248241
1.686604 0.47564706 2.0247109
1.6877741 0.52698421 2.0245502
1.6871514 0.5761621 2.0270958
1.7022617 0.55502522 2.003479
1.760157 0.56201047 2.0015495
1.6892086 0.62652725 2.0258763
1.6891774 0.67669201 2.0254281
1.687564 0.72560567 2.0244546
1.685551 0.7748518 2.024636
1.6854762 0.8233797 2.0266652
1.6857758 0.87545514 2.0248291
1.6859696 0.92399383 2.0232837
1.6872662 0.97247559 2.0225096
1.6857189 1.0230205 2.0285625
1.6870204 1.076793 2.0248585
1.6868873 1.1252764 2.0270228
1.6857493 1.1735632 2.0214458
1.6864563 1.2236322 2.0262442
1.688429 1.2735879 2.0285432
1.7000223 1.293162 2.0022194
1.6907012 1.3266301 2.022155
1.6837306 1.3705425 2.0243917
1.692991 1.4297746 2.0285268
1.6915864 1.4741306 2.0230808
1.6926056 1.5204661 2.0372701
1.7009089 1.5289556 2.0209537
1.6983286 1.5728096 2.0331728
1.7030923 1.5713036 2.0138879
1.6965389 1.6205629 2.0444424
1.7044551 1.6251328 2.018106
1.6963916 1.6663797 2.0424216
1.7059894 1.6760722 2.017525
1.7129759 1.7333893 2.0226352
1.7191794 1.7824745 2.0287602
1.7176914 1.8300804 2.0272644
1.7124549 1.8686181 2.0264578
1.7205534 1.9264489 2.0316486
1.7219946 1.968663 2.0221226
1.7206311 2.0241725 2.0300817
1.7197361 2.0609829 2.0473728
-1.0420635 -0.51396799 2.0814528
-0.96976185 -0.52006131 2.065006
-0.91725224 -0.52164435 2.0809069
-0.87481821 -0.52102441 2.0659842
-0.83065188 -0.53590858 2.071496
-0.23920661 -0.51367724 2.0613091
0.22044078 -0.48630726 2.0797889
0.27573273 -0.48554567 2.0721583
1.0194212 -0.47921872 2.0666175
1.0783033 -0.48262778 2.0814304
1.6689725 -0.067224763 2.0637541
1.7085948 -0.060347602 2.0975835
1.6611416 -0.011388885 2.062516
1.7006145 -0.011564881 2.0884137
1.6749984 0.030594038 2.0755374
1.6666143 0.078635946 2.0793879
1.6678578 0.12892935 2.0826495
1.6716733 0.17524616 2.0807657
1.6730587 0.22654264 2.0853164
1.6745313 0.27308616 2.0871568
1.6780596 0.31007501 2.0873127
1.6734499 0.38992372 2.0703297
1.6727856 0.42740682 2.0718839
1.6731833 0.47399378 2.0790868
1.673826 0.51966804 2.0756145
1.6723877 0.57138348 2.0817814
1.6754003 0.62161309 2.0736597
1.6727448 0.67593384 2.0783968
1.6698705 0.72436035 2.0721457
1.6688168 0.77644652 2.0732744
1.6678412 0.82447803 2.0764785
1.6699458 0.87357497 2.0752358
1.6695225 0.92482156 2.0726187
1.6675068 0.97650641 2.0766129
1.6694728 1.024704 2.0718524
1.6706078 1.0734701 2.0735886
1.6703618 1.1234765 2.0761669
1.6723911 1.1759797 2.0695064
1.673525 1.2281032 2.0762568
1.668435 1.2747133 2.0710952
1.6751776 1.3225271 2.0734658
1.6714196 1.3732737 2.0742052
1.6766624 1.4276077 2.075726
1.679846 1.4803283 2.0740857
1.6851444 1.5318594 2.0766709
1.6880578 1.5714061 2.0736523
1.686941 1.6230059 2.0777118
1.6941047 1.6777592 2.0849326
1.7024888 1.6721789 2.0681045
1.6917752 1.7143247 2.0826614
1.7102656 1.7293525 2.061096
1.6925189 1.7762442 2.0871596
1.7061931 1.7753787 2.0638969
1.695753 1.823383 2.0849578
1.7051319 1.8276364 2.0617452
1.6960034 1.8682292 2.084938
1.704391 1.8839788 2.070359
1.6966839 1.9294642 2.0868149
1.7072467 1.9199429 2.075635
1.7070783 1.9782978 2.0711849
1.7060108 2.0162077 2.0738423
1.687639 2.0764835 2.0920486
1.7068304 2.0649416 2.0793519
-1.0652299 -0.51691836 2.1429696
-1.021136 -0.52002037 2.1178236
-0.97837663 -0.51964849 2.1125546
-0.92801178 -0.52541679 2.1204329
-0.85841435 -0.52305889 2.1304545
-0.84433955 -0.53196156 2.1236575
0.98750305 -0.48659539 2.1339214
1.0276208 -0.48462698 2.1102097
1.0592653 -0.47793427 2.1233654
1.5453726 0.00044119812 2.140583
1.5526481 0.0084231114 2.1350536
1.629282 0.048804943 2.1207817
1.6568289 0.048810959 2.1023271
1.647288 0.073386155 2.1265817
1.6561667 0.083642974 2.1137681
1.71569 0.080096945 2.105556
1.6488357 0.1285152 2.1357613
1.6557727 0.1260065 2.1188869
1.7319481 0.13027836 2.1234281
1.6587934 0.17706563 2.1223333
1.7389215 0.17416196 2.1294067
1.6584244 0.22361891 2.12292
1.6485804 0.25839382 2.1494374
1.6585401 0.27544615 2.1251192
1.6626554 0.32662967 2.1253567
1.6488988 0.37514415 2.1357059
1.6612365 0.37460968 2.1232679
1.6600356 0.4226371 2.1212647
1.6497164 0.48958635 2.1420789
1.6567869 0.47251797 2.1254091
1.6603566 0.52621818 2.124655
1.6570975 0.58049631 2.1283133
1.6496964 0.62428743 2.1379778
1.6584705 0.62929255 2.1213455
1.6477927 0.69110215 2.1437423
1.6578948 0.67215729 2.1191032
1.6488657 0.70411992 2.141726
1.6597129 0.72347742 2.1234477
1.6477324 0.78299445 2.134536
1.6564149 0.77434462 2.1171203
1.6590999 0.82723123 2.1221004
1.6556736 0.87525254 2.1246622
1.6463999 0.93139672 2.1454334
1.6556437 0.92582971 2.1199536
1.6482799 0.97618997 2.1382811
1.6555798 0.97168148 2.116199
1.64984 1.0120152 2.1477854
1.6572404 1.0250505 2.1222143
1.6474723 1.0838518 2.1429093
1.6562579 1.0737435 2.1195035
1.6499559 1.1116354 2.1346214
1.6547848 1.1253359 2.1183841
1.6597528 1.1735325 2.1215999
1.6470554 1.2137516 2.1422544
1.6575013 1.2245442 2.1189768
1.6487399 1.2716916 2.1471841
1.6569551 1.2752451 2.1197882
1.6483063 1.3492212 2.1372082
1.6584818 1.3270594 2.1264522
1.6478992 1.387206 2.148232
1.6594467 1.3755999 2.1185343
1.6608112 1.4288981 2.1232796
1.6671327 1.4780928 2.1226268
1.6716433 1.5256906 2.1256361
1.6705081 1.572709 2.1212623
1.6721625 1.6206218 2.1308017
1.682151 1.6727778 2.1209862
1.6829537 1.7235392 2.1249413
1.6812158 1.7725396 2.1251671
1.6795658 1.8196348 2.1308608
1.6908766 1.8742762 2.1232293
1.6886096 1.930833 2.1336656
1.7019371 1.9212499 2.117672
1.6911447 1.9782097 2.1257834
1.6903321 2.0260394 2.1235049
1.6933904 2.0701263 2.1315064
1.6956284 2.1050386 2.1306241
-0.8231886 -0.55426425 2.1770329
-1.087202 -0.51341259 2.1756647
-1.0472584 -0.51341689 2.1898484
-0.96487153 -0.52172124 2.1666903
-0.93327338 -0.52672088 2.178103
-0.86122555 -0.53152519 2.1680644
-0.84622103 -0.54366028 2.1749754
1.1195283 -0.48322698 2.1913991
1.5418386 -0.31097221 2.1899219
1.5523705 -0.31672251 2.1800611
1.5473902 0.0064758635 2.1668935
1.637303 0.043815225 2.1944456
1.6390752 0.080456398 2.1720769
1.6419324 0.12989207 2.1739192
1.6427892 0.17708661 2.1771047
1.653434 0.19141436 2.1615453
1.6416677 0.22928606 2.178786
1.6545838 0.2285161 2.160078
1.6435318 0.27906978 2.1765735
1.6527466 0.283672 2.1523104
1.6455342 0.3318271 2.1749651
1.6537796 0.3158052 2.1620665
1.6422306 0.37496072 2.1819091
1.6502707 0.39064968 2.1594534
1.6426063 0.42805064 2.1759341
1.6510712 0.43421802 2.1536877
1.6435617 0.47459343 2.1734755
1.6436665 0.52885956 2.1730478
1.650784 0.50607896 2.165122
1.6430414 0.57092756 2.1746302
1.6512488 0.57491529 2.1515629
1.643923 0.62691998 2.1750715
1.6410592 0.67599905 2.1769035
1.6512454 0.67367631 2.1532147
1.6431259 0.73046345 2.1731188
1.6406158 0.77470344 2.1771379
1.652833 0.76835346 2.1551094
1.640228 0.82558155 2.1724908
1.652179 0.84431285 2.1570528
1.639612 0.87960851 2.1750154
1.6513199 0.85665643 2.1516802
1.6399741 0.92386979 2.1755171
1.6396881 0.97477615 2.1750906
1.6392612 1.0264922 2.177166
1.6399952 1.0727432 2.1761544
1.6395764 1.1224353 2.1726296
1.6531599 1.1490897 2.1525774
1.6403593 1.1767819 2.17343
1.6413258 1.224306 2.1740451
1.6434546 1.2717918 2.1744103
1.6427451 1.3254863 2.1838038
1.6547167 1.3205925 2.1638632
1.6433996 1.3657591 2.1720879
1.6450815 1.4133253 2.1844232
1.6526155 1.4247754 2.1689358
1.647543 1.4737457 2.1885393
1.6582806 1.4757993 2.1664908
1.65646 1.5262841 2.1752167
1.6558808 1.5761162 2.1711178
1.6642591 1.6333876 2.1810162
1.6657777 1.677721 2.1795976
1.6670796 1.729633 2.1723325
1.6678959 1.7745647 2.1750767
1.6677606 1.8238767 2.183459
1.6745616 1.8740562 2.1705968
1.6720635 1.9273001 2.1739228
1.6817732 1.9805008 2.1757603
1.6764534 2.0196395 2.1812427
1.6781301 2.0761693 2.1759341
1.6765215 2.1171205 2.1755931
-0.80993617 -0.56823432 2.2407537
-0.71458668 -0.56034118 2.2295346
-1.1256499 -0.50003785 2.2150776
-1.0911039 -0.51185405 2.2266152
-1.0248661 -0.52811521 2.2405171
-0.95675421 -0.52531052 2.2197003
-0.91775876 -0.52863246 2.2283099
1.0220488 -0.48071969 2.2122257
1.0639622 -0.47779956 2.2464108
1.1134233 -0.47901806 2.2357442
1.1573427 -0.47780514 2.2127581
1.5100799 -0.33946666 2.2221119
1.5925817 -0.28172994 2.2245886
1.6010048 -0.26168117 2.2301886
1.6232251 -0.22957876 2.230124
1.5845566 -0.1670009 2.2263348
1.5814848 -0.13626282 2.2358754
1.6223297 -0.071974337 2.2316923
1.6239932 -0.029195402 2.2309737
1.5969052 0.025165975 2.2118251
1.621325 0.034724161 2.2212076
1.6283284 0.070902422 2.2278326
1.6300231 0.12169271 2.228673
1.6294059 0.17350526 2.2269444
1.6303248 0.22137317 2.2270117
1.6308618 0.26969877 2.2212145
1.6315053 0.32174796 2.2203069
1.6305702 0.37336102 2.2285445
1.6286502 0.42263815 2.2237616
1.6317841 0.47396567 2.2197821
1.6319236 0.52446145 2.2235131
1.6306027 0.57689834 2.2215345
1.6315981 0.62335128 2.2255304
1.6266937 0.67042774 2.2253096
1.6261616 0.72549105 2.2212286
1.62874 0.77662522 2.2216239
1.6249835 0.82296956 2.2280333
1.6254321 0.87234813 2.2204535
1.6251835 0.92671216 2.226778
1.6255718 0.97242785 2.2181842
1.6255314 1.0248727 2.2298899
1.6272184 1.0805686 2.2190425
1.6236308 1.125441 2.224422
1.6251364 1.1726061 2.2254734
1.6304622 1.2287158 2.2243545
1.6300384 1.2764293 2.2264209
1.6298454 1.3219594 2.2270472
1.6340728 1.3768927 2.2259891
1.6342582 1.4271268 2.227035
1.6366394 1.470188 2.2270231
1.642094 1.5159051 2.2145016
1.6500473 1.5481361 2.2319553
1.6457621 1.5721425 2.2272527
1.6448011 1.6193364 2.2367802
1.6560965 1.6321825 2.2094846
1.6440377 1.6777102 2.2318664
1.6552544 1.6962229 2.2229135
1.6460739 1.7462004 2.2491093
1.6564598 1.7267983 2.2242782
1.6549517 1.7772746 2.2261608
1.64833 1.8236455 2.2406065
1.6605505 1.8361667 2.2303085
1.6587703 1.8707346 2.2208886
1.6617632 1.9144644 2.2246246
1.6620049 1.9700762 2.2263713
1.6595639 2.023484 2.223918
1.6637014 2.080986 2.229049
1.6648612 2.1332624 2.2293491
1.6472455 2.1613913 2.2467983
1.6584903 2.1556892 2.2312148
-2.1759439 2.319242 2.240983
-2.1273415 2.3378739 2.2309065
-2.0869427 2.3300192 2.2326775
-2.0310357 2.323246 2.246377
-0.83227348 -0.56821966 2.2869775
-1.0710407 -0.52485526 2.2996328
-1.0256826 -0.52579004 2.2582881
-0.97741699 -0.52498329 2.2695353
-0.9198103 -0.52871037 2.2659962
1.1380765 -0.47516516 2.2729087
1.1565198 -0.47540486 2.2675133
1.5696965 -0.35045001 2.2505689
1.531841 -0.33788827 2.2718229
1.5858417 -0.33684233 2.2807784
1.5898415 -0.27768731 2.2751141
1.6099758 -0.26134992 2.2719975
1.614421 -0.22156401 2.277415
1.6094984 -0.17720301 2.2841573
1.6113801 -0.11038113 2.2793593
1.6134542 -0.066343658 2.2728689
1.6172752 -0.026630433 2.2717633
1.5992479 0.013012923 2.2640967
1.614176 0.025776099 2.2751241
1.6163471 0.06877958 2.2749846
1.6179544 0.12078585 2.2754931
1.6152049 0.17111793 2.2792513
1.6151084 0.22067799 2.2757292
1.6178145 0.27381733 2.2772613
1.6161743 0.32285759 2.2720833
1.6181914 0.37494734 2.2713318
1.61537 0.42845735 2.2750785
1.615643 0.47611746 2.2730055
1.6121037 0.52441162 2.2775629
1.6162604 0.57364815 2.2754569
1.6141986 0.62430185 2.2706528
1.6140672 0.67562628 2.2728388
1.612689 0.7220701 2.2747912
1.6102571 0.77668095 2.2728848
1.6076335 0.82240474 2.2771487
1.6108456 0.87440085 2.2758863
1.6103247 0.92399406 2.277499
1.6138376 0.977332 2.2718091
1.6105427 1.0264636 2.2765579
1.6149884 1.0751196 2.272717
1.6144514 1.1261598 2.268496
1.613606 1.1761085 2.2747176
1.6165564 1.2242994 2.2742693
1.6152982 1.2710298 2.2773428
1.6166714 1.3194264 2.2759154
1.6201731 1.3736507 2.2741203
1.6223215 1.4255153 2.2735937
1.6216618 1.4777123 2.2729466
1.6283139 1.5300471 2.2738383
1.6330655 1.5759737 2.2704766
1.6351625 1.630177 2.2765226
1.6335473 1.6746984 2.2771292
1.6392945 1.7274808 2.2808893
1.6405182 1.7741324 2.2749248
1.6432902 1.8249068 2.2773631
1.6392139 1.8806607 2.2808235
1.6510031 1.8656522 2.2580409
1.6386907 1.9282882 2.2817421
1.6534786 1.9310136 2.2584486
1.6418499 1.9761561 2.2864459
1.6515858 1.9771569 2.2634549
1.6433291 2.0263624 2.2818947
1.650355 2.0326238 2.2630775
1.6455137 2.0964541 2.2943439
1.6541532 2.0708122 2.2728508
1.6458921 2.1350598 2.2805097
1.6550454 2.1214693 2.2660663
1.6441773 2.1701307 2.2801402
-2.2620394 2.3209753 2.2862577
-2.227711 2.3209956 2.2825999
-2.167932 2.3258617 2.2772579
-2.1301057 2.3336978 2.2752502
-2.066546 2.3317456 2.265269
-2.0256805 2.3279309 2.276792
-1.9911727 2.3257504 2.2766221
-0.93001431 -0.55006015 2.3452728
-0.81359655 -0.57550478 2.3237681
-0.76004481 -0.57985979 2.319844
-0.71697146 -0.56882548 2.3165014
-0.55419195 -0.5570237 2.3478086
-1.0633901 -0.52491111 2.3235834
-1.0300752 -0.52830249 2.3302889
-0.97290313 -0.52347314 2.3235483
-0.93393129 -0.53350061 2.3238316
-0.57412535 -0.54231548 2.3325217
-0.53547484 -0.54972643 2.3188572
-0.48584896 -0.545461 2.3076251
1.2080513 -0.47923508 2.3416803
1.548561 -0.25501317 2.3310258
1.5841644 -0.27112535 2.3209007
1.6025808 -0.2618407 2.3077385
1.5890657 -0.22918002 2.3375919
1.6030495 -0.22518548 2.3165104
1.5981516 -0.17485996 2.3246355
1.6034415 -0.1716446 2.3257241
1.599041 -0.13469711 2.3365312
1.6048021 -0.11761232 2.3172398
1.5995517 -0.057501569 2.3396649
1.6065981 -0.072566792 2.3189814
1.5980567 -0.018861378 2.3379288
1.607605 -0.02702051 2.3189662
1.5980064 0.026153764 2.337745
1.6080353 0.017501431 2.3183794
1.5996661 0.071238719 2.3393574
1.6064788 0.070215158 2.3209863
1.5998547 0.11631489 2.338248
1.606544 0.12278998 2.3198349
1.1879073 0.18764368 2.3313913
1.5974402 0.16756478 2.332212
1.6045078 0.17632122 2.3200853
1.192166 0.2125929 2.3382282
1.5942048 0.2397216 2.3483677
1.6059318 0.22756158 2.3234918
1.5978222 0.2844578 2.336791
1.6054686 0.27422002 2.3212733
1.5994298 0.32486808 2.3480971
1.6066937 0.33003172 2.3235009
1.5988078 0.36697686 2.3335354
1.6046312 0.37745786 2.3169317
1.5967662 0.43211702 2.3370318
1.6046308 0.41586795 2.3182089
1.5967641 0.47528276 2.3370039
1.6030983 0.47266281 2.3160551
1.5962155 0.52453077 2.3358712
1.6041853 0.52465665 2.3158407
1.5952209 0.57914555 2.3403537
1.6044557 0.57495129 2.3120213
1.5957155 0.62960511 2.3334632
1.6035885 0.61975139 2.31358
1.5961379 0.67845631 2.3369107
1.6062557 0.67576844 2.3138344
1.5941304 0.72459573 2.3394432
1.6038078 0.73114997 2.3138528
1.5938128 0.77374905 2.3281052
1.6031418 0.76971394 2.3157313
1.5973074 0.82679492 2.3285038
1.6022478 0.82865697 2.3071656
1.5958091 0.87110955 2.3294113
1.6015466 0.89290875 2.3153505
1.5932971 0.92636967 2.3351879
1.6017262 0.91966778 2.3070161
1.594229 0.97163111 2.3237343
1.6035044 0.97814649 2.3048897
1.5926694 1.0232744 2.3360705
1.6023246 1.0247409 2.3112831
1.5965353 1.0820616 2.3388309
1.6041702 1.0732819 2.3102803
1.5943736 1.1194714 2.3361735
1.6066757 1.1332085 2.3125107
1.596169 1.1745784 2.3375444
1.6071309 1.1794953 2.3097172
1.598238 1.2210516 2.3407907
1.6055168 1.2194998 2.3152194
1.5980415 1.2819232 2.3295178
1.6044216 1.2659625 2.3185034
1.6067086 1.3277804 2.3260481
1.6096727 1.3755133 2.3226471
1.5957172 1.4081504 2.349854
1.6107693 1.4239877 2.3171122
1.6123911 1.4754262 2.3248761
1.6137027 1.5248272 2.3219161
1.618192 1.5750165 2.3165927
1.622311 1.6238356 2.3295846
1.6221113 1.6753967 2.3252373
1.6237332 1.72179 2.3229187
1.630215 1.7803701 2.3309591
1.6291965 1.8180488 2.3177671
1.6263623 1.874 2.325875
1.6286734 1.928151 2.3251722
1.6277667 1.9715298 2.3247783
1.6365392 2.0179658 2.3219686
1.6342219 2.072602 2.3251512
1.6357605 2.1220508 2.3219638
1.6425228 2.1827233 2.3309882
1.6447535 2.2106018 2.3223519
-2.3214898 2.3370736 2.3349056
-2.2545576 2.3226998 2.3362627
-2.2204568 2.3321276 2.3336763
-2.1678491 2.3307221 2.3260708
-2.1184764 2.3362947 2.3175988
-2.0722854 2.3274169 2.3245265
-2.0311239 2.3272951 2.318429
-1.9766794 2.3321998 2.3197775
-1.9044489 2.3327684 2.3442097
-0.91990262 -0.57059711 2.3856974
-0.86786091 -0.57240182 2.3733244
-0.83018744 -0.5813725 2.3723893
-0.78380495 -0.58399642 2.3677657
-0.71947181 -0.56883293 2.3585715
-0.5741924 -0.562334 2.3813157
-0.45133302 -0.55902797 2.3712895
-1.1395105 -0.52138996 2.388833
-1.0750089 -0.52958357 2.386405
-1.0339195 -0.5258956 2.3805637
-0.97538358 -0.52757025 2.385107
-0.50873542 -0.54647028 2.3612485
-0.36565164 -0.54126114 2.3558705
-0.32887509 -0.53555667 2.387403
1.0895603 -0.4812535 2.394665
1.124166 -0.47758967 2.3621731
1.5779284 -0.32178646 2.3641324
1.5135881 -0.26839939 2.3543701
1.5807158 -0.28638262 2.3771322
1.225831 -0.22205375 2.375442
1.2838848 -0.22009028 2.3820455
1.3058606 -0.22517829 2.3849161
1.5866573 -0.2261405 2.3752227
1.5917088 -0.17534776 2.375597
1.5896506 -0.12124263 2.3726876
1.5900501 -0.069287024 2.3748419
1.5903217 -0.027199382 2.3749659
1.590454 0.024975715 2.375509
1.6001672 0.00042434444 2.3668888
1.5929832 0.069364086 2.3762097
1.2300942 0.14897394 2.3875592
1.5918703 0.12411866 2.3780324
1.2030294 0.19197729 2.3898609
1.59245 0.17463626 2.3787985
1.6002532 0.19518538 2.3605871
1.1939358 0.22734872 2.3694062
1.2060105 0.23961294 2.3636565
1.5907272 0.22591409 2.3756857
1.1895728 0.257112 2.3584914
1.2225485 0.26155511 2.39464
1.5928704 0.27694201 2.3694012
1.5918531 0.32075754 2.3767643
1.6004128 0.31208107 2.3509252
1.5886418 0.37385294 2.3791752
1.588745 0.424844 2.3750784
1.5902364 0.47741508 2.3700395
1.5857743 0.52306587 2.376729
1.5859735 0.57252705 2.3766255
1.5883591 0.62426388 2.3714342
1.5847102 0.67391437 2.378453
1.5860097 0.72517198 2.3754077
1.5834525 0.77718991 2.3773279
1.5846615 0.82069129 2.3675158
1.5835671 0.87610888 2.3758762
1.584565 0.92323029 2.3739262
1.5827661 0.97816211 2.3757463
1.582675 1.0260922 2.374469
1.584422 1.0735265 2.3720987
1.5844759 1.1255239 2.3761687
1.5829535 1.1719199 2.3716187
1.5876878 1.2281933 2.3765581
1.5891457 1.2748722 2.3727043
1.6035112 1.2919608 2.3517947
1.5940903 1.3246394 2.3760808
1.604991 1.3471068 2.3627203
1.5944368 1.377628 2.3804476
1.6059643 1.376308 2.3501892
1.5938097 1.4399307 2.3838892
1.6019875 1.422109 2.3786936
1.5962977 1.4776703 2.3873174
1.6058127 1.4711519 2.3604753
1.5986828 1.5373417 2.3974226
1.6030917 1.5241709 2.366348
1.6041459 1.576329 2.370142
1.6043469 1.6281952 2.3803489
1.6114165 1.6740955 2.3754351
1.6124679 1.722013 2.3761311
1.6133465 1.7722597 2.3783207
1.6151377 1.8249489 2.3705509
1.6145322 1.8714335 2.3663008
1.615535 1.9241159 2.3714001
1.6140286 1.9719856 2.3788629
1.6229988 2.0243878 2.370826
1.6211933 2.0734653 2.376852
1.6234996 2.1315176 2.3815155
1.6288092 2.1786337 2.3727067
1.6274066 2.2225609 2.369204
-2.4036353 2.338063 2.387301
-2.3650122 2.3268538 2.3733096
-2.3184261 2.3251114 2.3813968
-2.2714288 2.3313801 2.3819396
-2.223551 2.3361728 2.3806269
-2.1714032 2.3313737 2.377007
-2.126951 2.3307619 2.3681328
-2.0755446 2.324475 2.3790305
-2.023994 2.3332191 2.3703661
-1.963766 2.3281868 2.364634
-1.9307655 2.3283651 2.3732116
-1.812287 2.322757 2.3878479
-1.9053503 2.3547292 2.3772867
-1.8934035 2.3610656 2.3946662
-0.95388943 -0.55550885 2.4248724
-0.92647791 -0.57095498 2.4328315
-0.8893832 -0.5722363 2.4307857
-0.8273083 -0.58595926 2.4217069
-0.77648515 -0.57841843 2.4277167
-0.73621392 -0.57669729 2.4379942
-0.66006541 -0.59064746 2.4221947
-0.56692278 -0.55184376 2.4318085
-0.5254873 -0.55639631 2.4400396
-1.1643933 -0.5144735 2.412266
-1.1222985 -0.52091527 2.4335141
-1.0819294 -0.52662706 2.4355509
-1.0282407 -0.5247314 2.4087255
-0.9647373 -0.54231465 2.4196243
-0.54539353 -0.54831034 2.4190061
-0.30669478 -0.54788733 2.4450128
1.0859859 -0.4851765 2.4181855
1.1396531 -0.47694907 2.427146
1.1608014 -0.47789016 2.4255342
1.1279142 -0.41217309 2.4256909
1.1511436 -0.44127348 2.441138
1.1233149 -0.38042259 2.4271665
1.5651684 -0.26538703 2.4220719
1.2403717 -0.21219158 2.4044302
1.2788677 -0.2175995 2.4203551
1.3140544 -0.21398772 2.4007175
1.5790074 -0.22605154 2.4253213
1.5767729 -0.17646845 2.4272616
1.5797906 -0.12694655 2.4216571
1.5794482 -0.074238628 2.4227774
1.5794456 -0.024049524 2.4222472
1.5795289 0.017505171 2.4200661
1.5789169 0.075829856 2.4226191
1.5793064 0.12569165 2.4252143
1.5783228 0.1793201 2.4255657
1.577891 0.22481947 2.4232593
1.578258 0.27333209 2.4252319
1.5784115 0.32470408 2.4230134
1.5761874 0.37870514 2.4271152
1.5748825 0.42749783 2.4246924
1.5742046 0.47303781 2.4249508
1.5754995 0.52499509 2.421747
1.5752945 0.57222944 2.4259951
1.5722275 0.6240021 2.4232278
1.5718743 0.67706215 2.423723
1.5703088 0.72723085 2.4263296
1.5713975 0.77097553 2.4258468
1.5677909 0.82351732 2.4272711
1.5708759 0.87212211 2.4227734
1.5700763 0.92317975 2.422677
1.569474 0.973957 2.427619
1.571231 1.0266759 2.423825
1.5741861 1.0726783 2.4219687
1.5729009 1.1282052 2.4268939
1.5737276 1.1706882 2.4220514
1.5736834 1.2237133 2.4235332
1.5774839 1.27586 2.4260862
1.5800484 1.3302538 2.4240155
1.5823115 1.3806915 2.4234059
1.5852364 1.4269484 2.4283965
1.5878509 1.4755163 2.4274442
1.588593 1.5214986 2.4283943
1.5902086 1.5696579 2.4237256
1.6010728 1.5982629 2.4066803
1.590384 1.6248193 2.4283206
1.5937042 1.6758028 2.4188564
1.590328 1.7194557 2.4226277
1.6020892 1.7350135 2.4074497
1.5918777 1.7685795 2.4311187
1.603415 1.7986888 2.4118755
1.5926045 1.8229221 2.4322095
1.6058418 1.8166879 2.4054937
1.5942783 1.861707 2.4368324
1.6090319 1.8764333 2.4164917
1.5941956 1.9266257 2.4375782
1.6044232 1.919518 2.4096594
1.5959853 1.9697535 2.4348092
1.6050563 1.9869131 2.4208493
1.5989747 2.0068231 2.4389396
1.6077027 2.0316513 2.4183302
1.6064034 2.0759659 2.4222944
1.5985085 2.1272836 2.4459867
1.6116188 2.1181114 2.4238033
1.6132277 2.1766615 2.4202044
1.6108644 2.228158 2.4247477
1.5998865 2.2717466 2.4396305
1.6201861 2.2656636 2.4189644
-2.4869506 2.3277986 2.4449821
-2.4354115 2.3326292 2.4223161
-2.3777254 2.3300326 2.4216356
-2.2758238 2.3271327 2.4151506
-2.2351515 2.3308914 2.4284782
-2.1806819 2.3288078 2.4268711
-2.1256056 2.3299842 2.4276028
-2.0749876 2.3258691 2.4235747
-2.0243518 2.3346105 2.4197617
-1.9735208 2.3250511 2.4279633
-1.8074694 2.3212967 2.4280272
-1.7772586 2.3179026 2.421977
-1.7368155 2.322974 2.434844
-1.9143944 2.3893652 2.4446573
-0.96287584 -0.5617252 2.4841235
-0.91432112 -0.56696445 2.4700098
-0.87690169 -0.57402319 2.472101
-0.82657528 -0.58963889 2.4844778
-0.76468259 -0.56955689 2.476835
-0.71944267 -0.5862878 2.480721
-0.66994524 -0.58724409 2.4604058
-0.5868088 -0.55294281 2.491698
-0.52109885 -0.56058198 2.4786348
-0.49314791 -0.57580388 2.4939384
-0.43065387 -0.5680331 2.4951346
-0.38147506 -0.55266953 2.4596374
-1.1627039 -0.51224911 2.4726129
-1.1231557 -0.51810396 2.4818745
-1.0877811 -0.52294672 2.4834757
-1.0099211 -0.52838314 2.4664779
-0.99248081 -0.54174411 2.473489
-0.54534823 -0.54833388 2.4765308
-0.38735494 -0.54898834 2.4993517
-0.30045602 -0.54629403 2.494848
1.4706265 -0.25080648 2.4768319
1.5475261 -0.28036726 2.4753118
1.5646141 -0.26091725 2.4764421
-1.2243673 -0.21788917 2.4866834
1.5665081 -0.22043259 2.4741025
1.5644522 -0.17658162 2.4714022
1.566578 -0.12655 2.4735954
1.5661448 -0.073084511 2.4744928
1.5647656 -0.026307208 2.4730101
1.5675101 0.020450944 2.4773295
1.5661225 0.073307402 2.47684
1.5665787 0.12539513 2.4708979
1.5675607 0.17271623 2.4762385
1.5671605 0.22050549 2.4717
1.5660645 0.27277207 2.4726508
1.5661343 0.32773238 2.4757731
1.5624337 0.37212858 2.4780905
1.5628296 0.42241013 2.4725294
1.5614843 0.47613302 2.4723437
1.5611085 0.52587962 2.473155
1.5650796 0.57528406 2.4757376
1.5638134 0.62382215 2.4838414
1.5602726 0.67779243 2.4768655
1.5591632 0.72363788 2.4760725
1.5467799 0.76522976 2.496839
1.560413 0.7774505 2.4768124
1.5545461 0.82430488 2.4823558
