ply
format ascii 1.0
comment PCL generated
element vertex 1489
property float x
property float y
property float z
element camera 0
property float view_px
property float view_py
property float view_pz
property float x_axisx
property float x_axisy
property float x_axisz
property float y_axisx
property float y_axisy
property float y_axisz
property float z_axisx
property float z_axisy
property float z_axisz
property float focal
property float scalex
property float scaley
property float centerx
property float centery
property int viewportx
property int viewporty
property float k1
property float k2
end_header
0.6175195 2.4238133 4.418951
0.84811199 2.4101825 4.4182553
-2.4501433 2.4576178 4.4119511
-2.4227793 2.4555364 4.4195981
-2.2026458 0.06944368 4.4667697
-2.1772444 0.069358423 4.4699063
-1.5259736 0.28879842 4.4772768
-1.4937981 0.28687692 4.4526443
-1.5008465 0.31038556 4.4726291
-1.4667655 0.32416058 4.4647598
-1.4230018 0.32424694 4.4757037
-1.3697827 0.3302893 4.4679585
-2.1202044 0.37962726 4.4791365
-1.4721817 0.35578942 4.491745
-1.4215106 0.36255062 4.4939022
-1.375693 0.36488217 4.4854565
-1.3310577 0.37479636 4.4793282
-1.2908401 0.38474846 4.4737787
-2.128278 0.42492485 4.4650435
-1.2786115 0.42580906 4.4825196
-1.2292264 0.43726546 4.456491
-2.1270597 0.47057503 4.4591651
-1.2321447 0.46020734 4.4655361
-2.1276431 0.51659262 4.4567223
-2.133188 0.57545036 4.4632359
-1.3844109 0.58429116 4.4852853
-2.2597861 0.62790519 4.4678054
-2.2265847 0.62835211 4.4837365
-2.1756439 0.62373263 4.4631305
-1.3623496 0.61800653 4.4612002
-2.3302786 0.66468173 4.4844837
-2.3212407 0.7174741 4.4974151
-2.3204536 0.76423824 4.4901981
-2.5299504 1.3774432 4.4505644
-2.5197456 1.4129645 4.4602304
-2.4771142 1.4179676 4.4813004
-2.4225166 1.4143658 4.4899778
-2.5268314 1.4736 4.4586468
-2.4774611 1.4666452 4.4699855
-2.426966 1.4653964 4.4864197
-2.3880649 1.4637953 4.4963131
-2.5127864 1.5218525 4.4669247
-2.471612 1.5189748 4.4740777
-2.4340146 1.518232 4.487134
-2.3938136 1.5036869 4.4980435
-2.5164459 1.5728403 4.4603844
-2.4666462 1.5721457 4.4793363
-2.4179223 1.5654246 4.4914708
-2.3982449 1.5793526 4.4873166
-2.5671325 1.642843 4.4517169
-2.5243402 1.6266828 4.4607859
-2.4736743 1.6254958 4.4786735
-2.4289286 1.6295801 4.4963975
-2.5722015 1.6706516 4.4533758
-2.5312774 1.6802031 4.4589181
-2.4797826 1.6785204 4.4757733
-2.4342334 1.6821207 4.4923368
-2.5654945 1.7235093 4.4538827
-2.5188496 1.7388687 4.4662619
-2.4769366 1.7341037 4.4835687
-2.4288571 1.7249192 4.4889417
-2.3919246 1.7136865 4.4968748
-2.5695531 1.7619604 4.459867
-2.524581 1.7785702 4.4753833
-2.4841974 1.7761675 4.4854894
-2.4164963 1.7840022 4.4964256
-2.5696292 1.8213309 4.461112
-2.5294318 1.8191164 4.4722986
-2.4763045 1.8164167 4.4872451
-2.4395466 1.8289732 4.4996586
-2.5752349 1.8749795 4.4546013
-2.5345237 1.8723842 4.4652214
-2.4792638 1.8680693 4.4767027
-2.4397283 1.8661872 4.4881163
-2.6143022 1.9352033 4.4505539
-2.5733137 1.9325048 4.4616151
-2.5171337 1.9266876 4.4834371
-2.4731352 1.9329621 4.4941068
-2.432436 1.9072177 4.4905143
-2.6222577 1.9786483 4.4509501
-2.5734539 1.9815245 4.4550476
-2.5360892 1.9681396 4.4872003
-2.469583 1.9782486 4.4921479
-2.4323897 1.9791807 4.4976115
-2.5823767 2.0143704 4.4509315
-2.533884 2.0155787 4.476397
-2.4967635 2.0158944 4.4937792
-2.5520306 2.0702205 4.4623919
-2.5165999 2.0720072 4.4832101
-2.4769363 2.0703125 4.4961524
-2.5756459 2.1295829 4.4568353
-2.5232625 2.1278682 4.4762688
-2.470468 2.1257153 4.4940553
-2.5703697 2.1861954 4.4557772
-2.528065 2.1817877 4.4763422
-2.4792016 2.1837227 4.490684
-2.439733 2.1948667 4.4993143
-2.5501275 2.2284765 4.4611206
-2.5352998 2.2139232 4.4681396
-2.4826517 2.2246749 4.4820585
-2.4430354 2.2231011 4.4955239
-2.5552025 2.2709818 4.4544601
-2.5210774 2.2749119 4.4676719
-2.4813211 2.2610047 4.4755816
-2.4457297 2.2634919 4.485323
-2.5621152 2.3152857 4.4505992
-2.527842 2.3315678 4.4696441
-2.472805 2.3276703 4.4851098
-2.4343712 2.3400903 4.4960628
-2.5323062 2.3739643 4.4611816
-2.478888 2.3716512 4.4800138
-2.433244 2.3896968 4.495338
-2.3846836 2.3921053 4.4985981
-2.5216732 2.4015138 4.4597225
-2.4823687 2.4132895 4.4696889
-2.4304266 2.4293988 4.4716802
-2.3677912 2.4174335 4.4716649
-2.0160632 2.4476914 4.4986277
-0.44117317 2.4479895 4.4790034
-0.3932077 2.4424019 4.4720016
0.83434778 2.4383214 4.4731627
0.8576054 2.4134922 4.4772248
-2.2821815 2.453928 4.4761562
-2.2323492 2.4585044 4.484148
-2.1552744 2.4641809 4.4827518
-2.1237812 2.4568145 4.4788632
-0.51246423 2.4513016 4.4795189
-2.1051264 0.13957751 4.5424895
-2.1075611 0.17457077 4.546854
-2.1075573 0.33716571 4.5402327
-2.1401801 0.39697331 4.5491347
-1.4772058 0.37930316 4.505815
-1.4405704 0.37846121 4.5032558
-1.3700264 0.39959094 4.5035672
-1.3465179 0.39919496 4.5036707
-1.46135 0.41459122 4.5287495
-1.4240386 0.42468914 4.5234351
-1.3777956 0.42725959 4.5118456
-1.324616 0.43251753 4.5068154
-1.4074377 0.4712615 4.5437236
-1.3667924 0.46885014 4.5274591
-1.3143592 0.4660731 4.5096188
-1.2775313 0.4647803 4.5036168
-2.1409321 0.52545536 4.5413456
-1.3800089 0.53103554 4.5274491
-2.1297696 0.56913257 4.5136261
3.8404784 0.5643602 4.5325298
-2.1663625 0.63110524 4.5281506
-2.1370754 0.61772907 4.5246954
-1.35053 0.60049117 4.5019317
-2.3220754 0.68245685 4.5030704
-2.2838597 0.66982687 4.5116253
-2.2282619 0.67167675 4.5276427
-2.197114 0.65668434 4.5329261
-2.3502772 0.70739567 4.5004759
-2.2774079 0.71847028 4.5211649
-2.2181907 0.71833241 4.5414991
-2.17892 0.70525134 4.546895
-2.2794926 0.76625997 4.5196743
-2.2373919 0.7679525 4.5468721
-2.3058112 0.82615972 4.508688
-2.2678123 0.82133371 4.5227213
-2.2281578 0.81861925 4.5403862
-2.2764654 0.87948209 4.5210357
-2.2263138 0.86270869 4.540206
-2.2789059 0.93580723 4.5234447
-2.2351079 0.92443722 4.54392
-2.2662523 0.99019915 4.5368552
-2.2307572 0.98058081 4.5417438
-2.2616208 1.0312777 4.539814
-2.2280886 1.0462729 4.54494
-2.2665184 1.0732287 4.5428529
-2.2308555 1.0832798 4.5444336
-2.2621109 1.1346258 4.542244
-2.2352843 1.1331325 4.5449076
-2.2615497 1.1820986 4.5321145
-2.2391732 1.1828802 4.543848
-2.2438278 1.2332143 4.5438957
-2.2711368 1.2949978 4.5294795
-2.234884 1.2828314 4.5445609
-2.3027802 1.3474506 4.5251341
-2.2645576 1.3341591 4.5369635
-2.3537879 1.3732244 4.5067377
-2.3148232 1.3819462 4.5226955
-2.2720454 1.3867828 4.5411978
-2.2336268 1.3853728 4.5499172
-2.3750088 1.4148266 4.5109606
-2.3243434 1.4254813 4.5224819
-2.2698469 1.4321412 4.5360866
-2.2379088 1.4363014 4.5474925
-2.3654134 1.4647326 4.5088687
-2.3341992 1.4694182 4.5225492
-2.2851498 1.4689999 4.5398011
-2.2428675 1.4757583 4.5489149
-2.4016209 1.5329193 4.5064726
-2.3735266 1.5183402 4.5121651
-2.3347819 1.5168082 4.5219774
-2.2857559 1.5164492 4.5395565
-2.3682024 1.5728151 4.5069747
-2.3234355 1.5667197 4.5276675
-2.2792516 1.568844 4.5429478
-2.4105687 1.6118877 4.5037489
-2.3738639 1.6240253 4.514997
-2.3249824 1.6239603 4.5341053
-2.2760019 1.6249822 4.5416942
-2.4163401 1.6647029 4.5008769
-2.377984 1.6757709 4.5091681
-2.3298438 1.6762924 4.5300336
-2.2771082 1.6734699 4.5412507
-2.371381 1.7348238 4.5212049
-2.3222284 1.7286682 4.5298181
-2.2820046 1.7260321 4.5371051
-2.462158 1.7780457 4.500793
-2.4019346 1.7700216 4.5010362
-2.3732207 1.7812439 4.5195479
-2.3175147 1.7834982 4.5348091
-2.4262526 1.8159051 4.5069275
-2.3723652 1.8197085 4.5267978
-2.3232224 1.8248689 4.5347128
-2.4184275 1.8688042 4.5048218
-2.3846531 1.8714123 4.5264015
-2.330436 1.8676506 4.5371628
-2.2932384 1.8799056 4.5475545
-2.4096692 1.9286124 4.5085373
-2.3744087 1.9227055 4.5194311
-2.3359888 1.9216831 4.5319967
-2.2982967 1.9212441 4.5456133
-2.4066167 1.9784346 4.506391
-2.3716714 1.9810923 4.5152621
-2.323087 1.9725864 4.5319033
-2.2796719 1.9885691 4.5469575
-2.4719546 2.0285726 4.5006499
-2.4294884 2.0244489 4.5075278
-2.3776119 2.0228024 4.524683
-2.3216901 2.0295103 4.5399928
-2.4517975 2.0827897 4.5023317
-2.4232717 2.0673201 4.5111437
-2.3818233 2.0633795 4.53058
-2.3370619 2.069011 4.5386519
-2.2910988 2.0734825 4.5437989
-2.4205039 2.1259823 4.5162573
-2.3711834 2.1268284 4.5390267
-2.3244832 2.1060994 4.5414109
-2.297296 2.1041417 4.5471301
-2.4222674 2.1774476 4.5117192
-2.3758121 2.1814268 4.5290394
-2.3215308 2.1777616 4.5419593
-2.4158251 2.221287 4.5027084
-2.3835442 2.2264585 4.529171
-2.3294287 2.2230663 4.5430059
-2.4175014 2.2728512 4.5083752
-2.3817461 2.2624979 4.522253
-2.3353071 2.2666817 4.5396347
-2.415107 2.3209093 4.5060649
-2.3672836 2.3238821 4.5215645
-2.3148065 2.3221428 4.539041
-2.4113972 2.3679214 4.5009241
-2.3672218 2.3746223 4.5119486
-2.3161592 2.3742929 4.5207729
-2.2708271 2.379766 4.5401211
-2.3169317 2.413187 4.5061579
-2.2657366 2.4254076 4.5204382
-2.2207248 2.4313135 4.5400801
-2.1675735 2.4402623 4.5247307
-2.1391003 2.4492817 4.5220799
-1.9674859 2.4493611 4.5190229
-1.9401661 2.4464068 4.5220113
-2.1942358 2.4545112 4.512475
-2.1118803 2.4595666 4.5217795
-2.0843964 2.4568763 4.526082
-2.0477083 2.4557102 4.5044613
-1.9949971 2.4524772 4.51617
-1.9691252 -0.39464915 4.5835972
-2.023195 -0.34038711 4.5697007
-1.9973283 -0.33739203 4.5911674
-2.1205492 0.09386348 4.576653
-2.0794878 0.093580931 4.5747948
-2.1162853 0.11699601 4.5670514
-2.0780001 0.12844512 4.5708714
-2.0916512 0.17519276 4.5704012
-2.1118965 0.22147731 4.554738
-2.0931015 0.22195303 4.5721035
-2.0902996 0.33811939 4.5608425
-2.1212463 0.3861236 4.5670509
-2.079998 0.37837735 4.5711713
-2.1257126 0.4351564 4.5618906
-2.0713978 0.43084064 4.5843987
-2.1330154 0.47963211 4.556963
-2.0763845 0.48002139 4.5800662
-2.0249665 0.49059248 4.5835404
-2.1143672 0.53049219 4.5612016
-2.0726173 0.52472597 4.5801082
-2.0241094 0.51372039 4.5797791
-2.1148818 0.57457703 4.5683098
-2.0713215 0.57546771 4.5908155
-2.0084634 0.58596265 4.5986443
-2.1193707 0.62275952 4.5735855
-2.0709124 0.62228483 4.5855284
-2.033885 0.60999542 4.5937119
-1.9825519 0.60861683 4.597878
-2.1691148 0.67060488 4.5588369
-2.1218383 0.67052293 4.5741167
-2.0785172 0.66651344 4.5881062
-2.169142 0.72287512 4.5628276
-2.1244133 0.71840626 4.5744939
-2.0756793 0.71782237 4.586247
-2.0414822 0.72995645 4.5986309
-2.2133584 0.76780289 4.5543518
-2.1759772 0.7670936 4.5624981
-2.1281474 0.76684284 4.5770268
-2.092875 0.76687431 4.5889072
-2.2135808 0.80329835 4.5503807
-2.1790605 0.81542844 4.5630236
-2.13218 0.81555569 4.5798082
-2.0895369 0.81973457 4.5950589
-2.1803272 0.87501383 4.5577178
-2.1328008 0.87488681 4.5732503
-2.0806749 0.8783322 4.5904846
-2.0498466 0.87474805 4.5997677
-2.2215419 0.92469174 4.5503635
-2.1782203 0.93861401 4.5617275
-2.1202388 0.93336236 4.5792933
-2.0787935 0.93624055 4.595561
-2.2005348 0.99700522 4.5533347
-2.1716409 0.98257053 4.56457
-2.1191311 0.98588121 4.5871062
-2.0835366 0.98587465 4.5988903
-2.2123501 1.0304698 4.5534101
-2.1682601 1.0341766 4.5668774
-2.1229458 1.0352347 4.5877843
-2.0843816 1.0219067 4.5951495
-2.2083077 1.0838826 4.5554848
-2.1731548 1.0841494 4.5691309
-2.1265488 1.0846564 4.5875735
-2.0905533 1.0845089 4.5988708
-2.2106686 1.1327214 4.551847
-2.1762619 1.133407 4.5672121
-2.1291995 1.1337295 4.5848885
-2.0930574 1.1335243 4.5960355
-2.2155948 1.1830359 4.5530586
-2.1797051 1.1829941 4.5655613
-2.1308899 1.1823906 4.5797234
-2.0950847 1.1704401 4.593977
-2.219821 1.2331668 4.5523858
-2.1788876 1.2367698 4.5716219
-2.1339324 1.2302332 4.5877795
-2.2001798 1.2715443 4.5625515
-2.1708839 1.28562 4.5685678
-2.1224058 1.2888221 4.5915575
-2.2171071 1.3344907 4.5557294
-2.1682429 1.3339934 4.571063
-2.1208813 1.3343983 4.5890336
-2.2075846 1.3841347 4.5545678
-2.1722846 1.3846254 4.569015
-2.1295967 1.3815255 4.5882211
-2.0873618 1.3721037 4.5989132
-2.2141631 1.4365382 4.5570402
-2.1765404 1.4235175 4.569747
-2.130909 1.4373177 4.5892677
-2.2203968 1.476887 4.5612459
-2.1841292 1.4648051 4.5771585
-2.1285837 1.4827747 4.5838909
-2.0975142 1.4755204 4.5992751
-2.2360415 1.5156093 4.5551209
-2.17465 1.5150312 4.5752077
-2.1250544 1.5263152 4.5866599
-2.09869 1.5126436 4.5931349
-2.2577024 1.5707494 4.5576215
-2.2176328 1.5682236 4.5636592
-2.1697557 1.5687356 4.582613
-2.1198993 1.567795 4.5967484
-2.0776334 1.5512799 4.5992484
-2.259032 1.6082137 4.5507236
-2.2228012 1.6206068 4.5615587
-2.176023 1.6220421 4.5831628
-2.1261821 1.6211836 4.5978255
-2.2277143 1.6730392 4.5583529
-2.1807437 1.6744399 4.5799298
-2.1363525 1.6788057 4.5954285
-2.2276301 1.7299469 4.5614195
-2.181222 1.722854 4.5784535
-2.1323473 1.7237053 4.5845819
-2.2690237 1.7840234 4.5550852
-2.2192478 1.7835343 4.572226
-2.1704693 1.7838365 4.590826
-2.1291423 1.7801204 4.5942574
-2.2751708 1.8258519 4.5562677
-2.2240062 1.8243257 4.5709763
-2.1746206 1.824222 4.588666
-2.1219702 1.8336197 4.5949969
-2.2750733 1.8620416 4.5556855
-2.2301884 1.8664987 4.5722666
-2.1802845 1.8660544 4.5893087
-2.1270156 1.8749859 4.5946932
-2.2727284 1.9205701 4.5535851
-2.2296281 1.9243186 4.5726509
-2.1734035 1.9203172 4.5898199
-2.1453857 1.9050223 4.5956316
-2.2607319 1.9699249 4.5540614
-2.2153859 1.9741888 4.5701265
-2.1657872 1.9741852 4.5883098
-2.115289 1.9736786 4.5923066
-2.097132 1.9556105 4.5997944
-2.2759275 2.033603 4.5563321
-2.2223692 2.0302386 4.5677519
-2.1717286 2.0294352 4.5842881
-2.1191278 2.0267172 4.5959377
-2.2705803 2.0775461 4.5624413
-2.2240331 2.0813439 4.5653882
-2.1798725 2.0745258 4.5886455
-2.1406441 2.072813 4.5983973
-2.3201928 2.1387465 4.5533657
-2.2767825 2.120882 4.5614204
-2.2322199 2.1265492 4.5746489
-2.1810014 2.1129739 4.5895696
-2.1442034 2.1137824 4.5929079
-2.2687254 2.1753724 4.5568361
-2.2170548 2.1739793 4.5731754
-2.169359 2.1765144 4.5852451
-2.1385336 2.1707768 4.5941172
-2.272361 2.2291622 4.5567255
-2.2215083 2.2287211 4.5634446
-2.170831 2.2283659 4.5815554
-2.1236868 2.2314904 4.594533
-2.2882566 2.2702389 4.5552878
-2.229908 2.2750418 4.5660439
-2.1761415 2.2843053 4.5733886
-2.1240368 2.2698746 4.5930829
-2.0826068 2.2659481 4.598557
3.8636923 2.2813921 4.5827556
-2.2680743 2.326134 4.555407
-2.2292914 2.312506 4.5617542
-2.1850262 2.3316441 4.5770826
-2.1449656 2.3167391 4.5916843
-2.2542694 2.3632061 4.5545654
-2.2162149 2.375953 4.5641322
-2.1651654 2.3756542 4.5827184
-2.1258993 2.3870289 4.5890212
-2.2064562 2.4172835 4.5592842
-2.1658092 2.4144752 4.5683851
-2.1319706 2.4266348 4.5632977
-2.0831363 2.4196513 4.5767074
-2.0370033 2.4301381 4.5829716
-1.9796462 2.439348 4.5575442
-1.9259238 2.4349744 4.5661168
-1.8543638 2.4398448 4.5993705
-2.0661697 2.4525626 4.5558538
-2.0152283 2.4520652 4.5726585
-2.1071732 0.070822857 4.6064129
-2.080168 0.070694864 4.6061316
-2.0169604 0.53149432 4.6024909
-2.0278981 0.57143611 4.6038327
-1.98527 0.57431233 4.6073761
-2.0223351 0.62689549 4.6063523
-1.9945345 0.63583314 4.6234126
-2.0685942 0.68407434 4.6043029
-2.0211265 0.67217231 4.6196208
-2.0168736 0.7171272 4.6173577
-1.9803799 0.72162533 4.6439476
-2.0691602 0.77369046 4.6158042
-2.0245357 0.76184225 4.6175733
-1.9894242 0.77967 4.6271238
-2.0756907 0.80471349 4.6064057
-2.0283661 0.81699407 4.6073189
-1.9867176 0.81167096 4.6273246
-2.0198607 0.87153178 4.6106467
-1.9822627 0.87618303 4.6294856
-2.0546045 0.93600726 4.6020651
-2.0161922 0.93465507 4.6066728
-1.9854456 0.9368788 4.6286535
-2.0598805 0.98590446 4.6067543
-2.0206237 0.98412943 4.6097097
-1.9959294 0.97757328 4.6478333
-2.0698531 1.038399 4.6005821
-2.0264039 1.0344908 4.615448
-1.9945078 1.0245082 4.6371403
-2.0653872 1.0838001 4.6036301
-2.0293765 1.0836307 4.6143451
-1.9985693 1.0862725 4.6368604
-2.0681415 1.1329353 4.6014624
-2.0221829 1.1338996 4.6206422
-1.979651 1.1488096 4.6454735
-2.1002378 1.1972589 4.6007929
-2.0667889 1.1883935 4.6093054
-2.0224729 1.1821955 4.6255021
-1.9811683 1.1736374 4.6447301
-2.1042237 1.2355158 4.6025829
-2.0645337 1.2332718 4.6060572
-2.0178683 1.2340071 4.6241655
-1.9812946 1.2455589 4.6315246
-2.1067965 1.273043 4.6010594
-2.0706792 1.284982 4.6102362
-2.0228395 1.2850764 4.6260662
-1.9882298 1.2859802 4.6406097
-2.0738924 1.3350737 4.6074238
-2.0259438 1.3351585 4.6232691
-1.9949447 1.3264828 4.6489339
-2.0654871 1.3856008 4.6090617
-2.0294743 1.3856702 4.6209903
-1.9950469 1.3627247 4.6415648
-2.1186712 1.400973 4.6012797
-2.0882905 1.4249787 4.605444
-2.0283241 1.4312857 4.6246767
-1.9973843 1.4005373 4.6391788
-2.0731578 1.4633034 4.6097393
-2.0201821 1.465857 4.6268873
-1.9807355 1.4785529 4.6479063
-2.0633717 1.5133463 4.6073508
-2.0154705 1.5137193 4.6242032
-1.983689 1.5171776 4.6462545
-2.0664601 1.5712231 4.6115937
-2.0215518 1.5668807 4.626287
-1.9900932 1.5707731 4.6494141
-2.1281877 1.6227231 4.602118
-2.0791287 1.622494 4.6180568
-2.0307398 1.6228001 4.6349063
-1.9934207 1.6099808 4.6480169
-2.1192746 1.6618896 4.6037807
-2.0770836 1.6779979 4.6186299
-2.0320511 1.6719466 4.636755
-2.1015112 1.7407169 4.6065116
-2.0702047 1.724416 4.6162558
-2.0165324 1.7291238 4.6401329
-2.1046596 1.7801573 4.6028528
-2.0675478 1.7798946 4.6146173
-2.0188851 1.7802483 4.6317368
-2.0775282 1.8300916 4.6131444
-2.0244977 1.8344491 4.6302657
-2.0751557 1.8681616 4.6190076
-2.0311751 1.8775399 4.6344509
-1.9914621 1.8503436 4.6476197
-2.1214228 1.9180877 4.6020546
-2.0833106 1.9171467 4.6126032
-2.0355186 1.9186921 4.6329322
-1.9987285 1.919006 4.6458044
-2.0705698 1.9782799 4.6200871
-2.0268207 1.9718034 4.6297827
-1.9897782 1.9719415 4.6422415
-2.0713687 2.0286136 4.6175022
-2.0239565 2.0309672 4.6395226
-2.1188066 2.0758665 4.6140223
-2.0758588 2.0704226 4.6148844
-2.0428679 2.0748887 4.6375508
-2.1207278 2.115304 4.605114
-2.0828121 2.1149025 4.6173224
-2.0316405 2.1137071 4.6316957
-1.997963 2.1302807 4.6486473
-2.1119983 2.1693792 4.6119809
-2.0666995 2.1743302 4.6280689
-2.0144045 2.1721075 4.6402669
-2.1072116 2.2150073 4.6074295
-2.0695329 2.227649 4.6160121
-2.0194492 2.2279034 4.6336026
-1.9807829 2.2142642 4.6485233
-2.0596337 2.2683551 4.6122012
-2.0266061 2.2736974 4.6359515
-2.1207433 2.3179135 4.603179
-2.0817924 2.3168285 4.614449
-2.0329092 2.318789 4.6358128
-1.9961573 2.3328898 4.6465554
-2.1094108 2.370579 4.6028752
-2.0749693 2.3741241 4.6118469
-2.0364552 2.3735926 4.6239853
-1.9905105 2.3785088 4.6393027
-2.0226469 2.4103408 4.6104598
-1.9827164 2.4206901 4.6136866
-1.933727 2.4227986 4.6343484
-1.8817637 2.4338679 4.6422501
-1.8246042 2.4364259 4.6225591
-1.7623096 2.4342661 4.615387
-1.8875471 2.4502888 4.6111221
-1.9826612 0.6869418 4.6531281
-1.9884737 1.2140274 4.655179
-1.9834672 1.4320531 4.6653619
-1.9973806 1.6376196 4.6509714
-2.0028248 1.6788502 4.6539764
-1.9827092 1.7316828 4.6587458
-1.9854467 1.7832699 4.6514263
-1.9896324 1.8239951 4.6506014
-2.0006454 1.8836609 4.6616359
-1.9816841 1.926471 4.671875
-1.9840275 1.9660929 4.6657653
-1.9842538 2.0160987 4.6503124
-2.0091226 2.0747006 4.6724925
-1.9956229 2.1027513 4.651845
-1.9794888 2.1750903 4.6590214
-1.9876533 2.2737029 4.6716995
-1.9777769 2.3142483 4.6550879
-1.9241689 2.3378296 4.6809735
-1.9732285 2.3611367 4.6507173
-1.9252467 2.377254 4.6687655
-1.8743988 2.3772037 4.6845589
-1.8344148 2.3747804 4.6912756
-1.7944146 2.3722522 4.6974926
-1.8874993 2.415879 4.6666622
-1.8267528 2.4167843 4.6655293
-1.7789116 2.4191446 4.673986
-1.7300315 2.4342732 4.6881824
-1.688966 2.4299042 4.6903253
-1.6027795 2.4395576 4.6706161
-1.5762844 2.4374595 4.6730771
-1.5302119 2.4441059 4.6984439
-1.6358835 2.4514954 4.6868329
1.5031477 -0.35068288 4.7405252
1.4778733 -0.30351618 4.7416129
1.5026778 -0.31549042 4.7406769
-1.351226 0.74900818 4.740541
-1.351594 0.81943756 4.7338991
-1.8764042 2.3415687 4.7042494
-1.8342451 2.3364515 4.705389
-1.7799554 2.331846 4.7108841
-1.7373118 2.3284714 4.737453
-1.6948706 2.336787 4.7455506
-1.7707248 2.3744826 4.7092428
-1.7339625 2.3762922 4.7235394
-1.6842917 2.377892 4.7406101
-1.7235123 2.417592 4.7186012
-1.6711822 2.4281502 4.7233686
-1.6381911 2.4337225 4.7332721
-1.5794834 2.4366398 4.7333155
-1.4047214 2.4448736 4.7294064
-1.3768704 2.4401658 4.7258363
-1.3298283 2.4461465 4.7481766
-1.2763612 2.4403155 4.7471395
-1.4582736 2.4501882 4.7282205
1.5097284 -0.42270294 4.7574425
1.4840269 -0.37518573 4.7579789
1.5077099 -0.39867437 4.7524381
1.4813657 -0.32765168 4.7517819
-1.3364004 0.73028719 4.7781472
-1.9801463 0.7705788 4.79005
-1.3577294 0.79964256 4.7581272
-1.3377584 0.77818316 4.7779331
-2.0171299 0.80484313 4.7875915
-1.3340665 0.82004064 4.7899175
-1.6617414 2.3310413 4.7745938
-1.6353092 2.3423934 4.7736483
-1.5861001 2.3448768 4.7915516
-1.5470423 2.3436015 4.7982759
-1.6352088 2.3804517 4.7591238
-1.5811782 2.3778341 4.7779799
-1.533156 2.3800311 4.7836542
-1.6090533 2.4154432 4.765955
-1.5724926 2.4200144 4.7635202
-1.5327888 2.4303584 4.763298
-1.4836864 2.4332447 4.7810593
-1.4334625 2.4314909 4.7783036
-1.3795531 2.4420261 4.7911882
-1.3257246 2.4365644 4.7911377
-1.3575748 2.4507284 4.751739
-1.2570095 2.4516218 4.7741303
-0.51546949 2.4602542 4.7733197
-0.44239581 2.4684176 4.7946019
-1.3317128 0.76970875 4.8021331
-1.3205985 0.80566931 4.8030381
-1.6057116 2.3293602 4.8182921
-1.5664848 2.3281057 4.8250866
-1.512769 2.336926 4.8244276
-1.4834427 2.3436871 4.8133693
-1.4396693 2.3399298 4.836699
-1.397736 2.3494415 4.8449445
-1.4803941 2.3808959 4.814013
-1.4240472 2.3762901 4.8328691
-1.3883461 2.3819809 4.8313394
-1.3468269 2.3752401 4.8469586
-1.4629066 2.4027505 4.8167486
-1.423914 2.4143956 4.8182707
-1.3804201 2.4170344 4.8226485
-1.3378353 2.416903 4.8313117
-1.2808712 2.4478021 4.823494
-1.2284088 2.4448791 4.8275399
-1.1903456 2.4451051 4.8350606
-1.1055881 2.4520092 4.8025694
-0.64606458 2.4596462 4.8191552
-0.59829342 2.4696105 4.8433995
-0.52123731 2.4626515 4.8360825
-0.48282987 2.4712417 4.82658
-0.44564384 2.4614224 4.839128
-0.65199143 -0.16440099 4.8959398
-1.4812733 2.3348656 4.8600793
-1.4138815 2.329494 4.8629618
-1.3734398 2.3387585 4.8592167
-1.3391796 2.334163 4.8670135
-1.2864935 2.3304987 4.8911085
-1.3230236 2.3655715 4.863061
-1.2851324 2.3664005 4.8723478
-1.2338967 2.3662219 4.8816824
-1.1954668 2.3788769 4.8838706
-1.3136275 2.4229617 4.859561
-1.2819282 2.4153187 4.8602433
-1.2346187 2.4187932 4.8660541
-1.1834438 2.4188275 4.8754663
-1.137843 2.4429553 4.8815341
-1.0967053 2.4378743 4.8987198
-0.9876768 2.4476507 4.8737178
-1.1209811 2.4605143 4.8790107
-1.0942172 2.4579504 4.8781986
-1.0299971 2.4574142 4.8873353
-0.87043571 2.4658713 4.8659334
-0.81817305 2.4616961 4.8641281
-0.76598054 2.4570537 4.8609676
-0.67862391 2.4870105 4.8702459
-0.57499027 2.4777603 4.8616037
-0.52695614 2.4642646 4.8984613
-0.42529285 2.4892848 4.8955517
-0.66921914 -0.26051706 4.9325218
-0.62049961 -0.25997955 4.9263163
-0.58718008 -0.26092604 4.9470501
-0.65524316 -0.22426048 4.9188585
-0.61939555 -0.22410727 4.9184809
-0.58355987 -0.22395584 4.9176521
-0.6550504 -0.1887809 4.9183702
-0.62383604 -0.18098326 4.9233284
-0.65500081 -0.12974963 4.9191995
-0.62400818 -0.12591469 4.9257627
-0.6541518 -0.082431316 4.9134569
-0.61943519 -0.082520403 4.9216242
-0.57552981 -0.078497738 4.9196124
-0.52614456 -0.082723893 4.939414
-0.49143848 -0.094676755 4.9492555
-0.65509796 -0.035319597 4.9209042
-0.61955225 -0.035317071 4.9228792
-0.57287663 -0.03535302 4.9312038
-0.53765571 -0.035359144 4.9358482
-0.65635532 0.02374742 4.9303412
-0.62020117 0.023714826 4.9280152
-0.57374865 0.023755154 4.9387202
-0.53243524 0.029658413 4.9426041
-0.65584207 0.082812823 4.9260464
-0.61974537 0.082738817 4.9239826
-0.57357085 0.082899645 4.9366732
-0.53889269 0.083009273 4.9467583
-0.6552422 0.12997998 4.9208441
-0.61995625 0.13000372 4.9249687
-0.57446891 0.13039972 4.9437923
-0.53850532 0.13028972 4.9425058
-0.65494597 0.17713594 4.9176254
-0.61964977 0.17716688 4.9215736
-0.57442987 0.17777616 4.9424806
-0.52677363 0.17768107 4.943327
-0.65622675 0.22480258 4.9259491
-0.61998606 0.22449352 4.9228578
-0.57488108 0.22533926 4.9450684
-0.5391438 0.22527063 4.9460831
-0.65503979 0.27158904 4.915452
-0.62045509 0.27196482 4.925169
-0.57452661 0.27260259 4.9404192
-0.65609419 0.31933826 4.9214749
-0.62216753 0.32012302 4.9367304
-0.57442188 0.31992176 4.9376421
-0.53956008 0.32032913 4.9464273
-0.65658212 0.36689496 4.922945
-0.62129903 0.36701608 4.9276342
-0.57436144 0.36729097 4.9349813
-0.53974783 0.3678984 4.945962
-0.65751082 0.41482049 4.9274139
-0.62181115 0.41471377 4.9291945
-0.5753479 0.41537836 4.9409685
-0.65886945 0.47500929 4.9340329
-0.62309521 0.47491348 4.9358444
-0.58207411 0.46941352 4.9440284
-0.51666254 0.49904209 4.9462376
-0.65961301 0.53499597 4.935586
-0.62323958 0.53440553 4.9330492
-0.58904886 0.53569734 4.947854
-0.66933507 0.58809179 4.9441833
-0.62336969 0.58202779 4.9305401
-0.58927256 0.57162166 4.9470973
-0.66017246 0.61875117 4.9333305
-0.63606328 0.6184426 4.9329391
-1.2652886 2.32569 4.9173803
-1.2266338 2.3383808 4.9196982
-1.1870632 2.3363581 4.9223208
-1.1499163 2.3390868 4.9347382
-1.1744339 2.3688762 4.9142213
-1.1202585 2.3827558 4.9307861
-1.0736284 2.392287 4.9331245
-1.0402915 2.3859086 4.9460111
-1.1369992 2.416069 4.9094319
-1.0817531 2.4255829 4.9174523
-1.0348015 2.4302683 4.9241414
-0.99824727 2.4351795 4.939909
-0.88034958 2.4425349 4.9401226
-0.97145492 2.4583235 4.9291182
-0.92904031 2.4611444 4.90975
-0.87639821 2.4572799 4.908906
-0.8295179 2.4700804 4.9409666
-0.77596176 2.4634633 4.9337978
-0.73916429 2.4689751 4.9491386
-0.67047119 2.478354 4.9140277
-0.62408829 2.4715493 4.925077
-0.55423796 2.4726641 4.9131236
-0.50572014 2.4847195 4.9410677
-0.4793396 2.4807324 4.9349833
-0.24841973 2.4728041 4.931427
-0.12044754 2.4619019 4.9131131
-0.86127496 -0.42153746 4.9910946
-0.82329977 -0.42059749 4.9840565
-0.77838272 -0.42414436 4.9830894
-0.86896443 -0.37720969 4.9904203
-0.82854682 -0.37709501 4.9933686
-0.87326616 -0.32513255 4.9939871
-0.8276369 -0.3205643 4.9904227
-0.66591537 -0.3119117 4.9960704
-0.641343 -0.31163603 4.9936743
-0.8725003 -0.27670956 4.9915452
-0.82413894 -0.27664128 4.995636
-0.67462587 -0.28649956 4.9714394
-0.62562525 -0.2859413 4.9657612
-0.59120458 -0.28660482 4.9801116
-0.86892891 -0.23269601 4.9959755
-0.82346392 -0.22832844 4.9930897
-0.6840902 -0.22597532 4.9546499
-0.8681891 -0.18437874 4.992969
-0.82318497 -0.18017265 4.9926624
-0.68792903 -0.17936099 4.9836998
-0.85912943 -0.1320827 4.9889855
-0.82698947 -0.12806076 4.9920545
-0.6893838 -0.11981677 4.9953847
-0.87174171 -0.084066741 4.9916725
-0.82665801 -0.087974824 4.9905882
-0.68774676 -0.083650887 4.9839687
-0.52785707 -0.082967699 4.9553137
-0.47631368 -0.078992806 4.9573536
-0.43336672 -0.083051331 4.9661818
-0.37488544 -0.083256595 4.9813938
-0.32711792 -0.083209813 4.9811392
-0.86810619 -0.039990276 4.9945736
-0.83558774 -0.035972431 4.9956098
-0.68740189 -0.03577356 4.9818134
-0.51633573 -0.035525478 4.959754
-0.48087001 -0.035551399 4.963645
-0.43459463 -0.03564794 4.9806776
-0.37567845 -0.035716105 4.9922409
-0.32784715 -0.035696696 4.9925818
-0.86613631 0.018155061 4.9950194
-0.8296141 0.018140703 4.9965124
-0.68532085 0.023908751 4.9667239
-0.51583064 0.011929099 4.9549456
-0.48095858 0.023854055 4.9646459
-0.43417612 0.023865042 4.9758692
-0.38375008 0.023943944 4.9933486
-0.32819957 6.9797039e-05 4.9980192
-0.85990459 0.084312826 4.9940281
-0.8196097 0.088289775 4.9971728
-0.68630743 0.083675891 4.9734287
-0.51614857 0.08314696 4.957509
-0.48136604 0.083295465 4.9682889
-0.43452761 0.083426245 4.9794121
-0.37602508 0.083657891 4.9962935
-0.8279376 0.13644733 4.9974461
-0.51592028 0.13056844 4.9546204
-0.48152655 0.13089363 4.9693184
-0.42780542 0.13358709 4.9841456
-0.3758674 0.12539841 4.9935846
-0.86056608 0.19271031 4.9958367
-0.83600402 0.18056959 4.995903
-0.68715149 0.16742662 4.9781222
-0.48135829 0.17840439 4.9666591
-0.43528661 0.17900753 4.9864464
-0.39965132 0.16713725 4.990469
-0.86122924 0.24104664 4.9982824
-0.83637828 0.21675369 4.9971838
-0.51609576 0.22555038 4.954021
-0.48177609 0.22615251 4.9696569
-0.43517303 0.22666533 4.9838195
-0.39975819 0.23880106 4.9898624
-0.52819359 0.27314219 4.9538093
-0.48164374 0.27366984 4.9666705
-0.42835107 0.27697924 4.9865332
-0.86142421 0.3374995 4.9956832
-0.8375442 0.33758503 4.9996824
-0.51626289 0.32059121 4.9521494
-0.48123384 0.32097745 4.9605427
-0.4236508 0.32002315 4.9862905
-0.86107987 0.36145467 4.9925618
-0.51659727 0.36831737 4.9531689
-0.48263636 0.36961135 4.972795
-0.42904907 0.37307152 4.9905615
-0.3647882 0.37096319 4.9978704
-0.53029215 0.41726667 4.9669728
-0.48278922 0.41739529 4.971786
-0.42389658 0.41813186 4.9841342
-0.37703279 0.43109855 4.9978142
-1.2597276 0.48707187 4.9837174
-0.56582808 0.47667179 4.958817
-0.53073674 0.46532878 4.9682379
-0.48317388 0.46547264 4.97297
-0.42436376 0.46641883 4.9865823
-0.37718102 0.45522389 4.9983773
-0.86252409 0.50684547 4.9925508
-0.56608492 0.52458888 4.9578581
-0.5329482 0.52957666 4.9621124
-0.48559564 0.52040929 4.9698153
-0.42518935 0.51763833 4.9929681
-0.37734953 0.52732742 4.9959493
-0.69088501 0.57694012 4.9849229
-0.57500547 0.5891524 4.9610004
-0.53148043 0.58544219 4.9667978
-0.47655693 0.57851326 4.9800162
-0.42553273 0.55161268 4.9945588
-0.86446494 0.6168232 4.9956231
-0.84038627 0.60480064 4.9999681
-0.72373706 0.60965538 4.9848027
-0.6890763 0.62337613 4.9680386
-0.61579633 0.62199098 4.9632468
-0.58023548 0.62234676 4.9689388
-0.53324169 0.62334776 4.9804792
-0.48613453 0.62440693 4.9921851
-1.369269 0.66340643 4.9976115
-1.3426865 0.6869334 4.9923406
-0.86436194 0.67720377 4.9898181
-1.2946332 0.76109606 4.9976845
-0.86748165 0.77672923 4.998404
-0.87012833 0.9251672 4.9970298
-0.85492003 2.0017443 4.9996934
-1.615572 2.1983964 4.995255
-1.673669 2.2060122 4.9998698
-1.1148889 2.3464799 4.9567609
-1.0639739 2.3478956 4.9679723
-1.0237703 2.3444388 4.9665537
-0.99884629 2.3463929 4.9744883
-1.0753422 2.370338 4.9500356
-1.0230516 2.3685408 4.9542041
-0.98374844 2.3782349 4.9679375
-0.936369 2.3771977 4.9852142
-0.89830852 2.3789935 4.9941454
-0.96252722 2.4296937 4.9651947
-0.93271631 2.4133427 4.9772716
-0.88619733 2.4200196 4.9869237
-0.83581519 2.4369559 4.997016
-0.93543178 2.4522171 4.9528151
-0.83360851 2.4563985 4.9746599
-0.78109396 2.4537945 4.9754643
-0.72474986 2.460988 4.9756951
-0.66269368 2.4714611 4.9620399
-0.6093241 2.4638081 4.9514418
-0.575037 2.4819303 4.991188
-0.52066612 2.4694166 4.9701128
-0.48272443 2.4724929 4.9791255
-0.25123987 2.4750955 4.9966698
-0.14795007 2.4720685 4.9935207
-0.070621185 2.4688585 4.9882531
-1.3845484 -0.41827276 5.024806
-1.3367769 -0.41873977 5.0392361
-0.88733846 -0.41039288 5.0000758
-0.7662276 -0.4102079 5.0107698
-0.72982216 -0.42214906 5.0122752
-0.6819998 -0.42242569 5.0200224
-0.63399804 -0.42261961 5.0262628
-0.5994935 -0.41174868 5.0445051
-1.3836715 -0.38111222 5.0235491
-1.3285463 -0.38400903 5.0392065
-1.2999538 -0.3695029 5.0487914
-0.88728374 -0.36207691 5.0021911
-0.81356251 -0.36151564 5.0024109
-0.7787528 -0.37422568 5.0143509
-0.73151398 -0.37477463 5.0263777
-0.68246424 -0.37440675 5.0258551
-0.63503969 -0.37494105 5.0371728
-1.3777361 -0.33556578 5.0197635
-1.3346403 -0.33196312 5.0354185
-1.2988498 -0.33225477 5.0461826
-0.81343222 -0.33735406 5.0027003
-0.77766347 -0.32547551 5.0094953
-0.73091555 -0.32614136 5.0244846
-0.68631744 -0.33002242 5.0261703
-0.63047266 -0.33031252 5.0351758
-0.59855497 -0.31435549 5.0410972
0.12652813 -0.31297344 5.040565
0.17474873 -0.31306586 5.041111
-1.2989073 -0.29533148 5.0479231
-0.77737284 -0.2771329 5.0095119
-0.73088223 -0.27779368 5.0261402
-0.21095304 -0.26526135 5.0490265
0.12658778 -0.26493913 5.0446987
0.17440635 -0.27639297 5.0324521
0.22292665 -0.26490426 5.0419116
-0.88603753 -0.21689774 5.0005784
-0.77750593 -0.22896707 5.0119901
-0.73105103 -0.22952089 5.0288234
-0.23491392 -0.22892974 5.0460105
0.12658539 -0.22880203 5.0457158
0.17429464 -0.22817533 5.031086
0.23085654 -0.23269071 5.0404525
-0.8887248 -0.16918519 5.0169387
-0.7769233 -0.18060075 5.0094662
-0.73046052 -0.18103257 5.0260119
0.12652642 -0.18053558 5.0446005
0.1745895 -0.18043186 5.0409021
0.23085183 -0.17649662 5.0418324
-1.2978455 -0.12285541 5.0484376
-0.88573146 -0.13245998 5.0007229
-0.81310785 -0.14446433 5.0066695
-0.77712512 -0.13245344 5.0117192
-0.73124599 -0.13287409 5.0323944
-0.69087732 -0.14411011 5.0058088
-0.23369168 -0.11982873 5.0221252
0.11435907 -0.13223556 5.0404062
0.17441843 -0.13217579 5.0368013
0.23483668 -0.13233948 5.0417819
0.27134928 -0.13254285 5.0482383
-1.2967305 -0.085872114 5.0445738
-0.81189841 -0.072072461 5.0001993
-0.77677226 -0.084206618 5.0100565
-0.73030216 -0.084419556 5.0265636
-0.26934499 -0.0837631 5.0156822
-0.23463258 -0.084185839 5.0427895
0.11832333 -0.080076993 5.0391006
0.17423566 -0.084003024 5.0324755
0.23440637 -0.084042951 5.0331588
0.28284812 -0.084152773 5.0383511
-1.2976556 -0.036730368 5.0485382
-0.88872123 -0.024071988 5.0186601
-0.81254375 -0.036016319 5.0043969
-0.77718461 -0.036052227 5.013072
-0.72922599 -0.036068916 5.019434
-0.26973423 -0.035903446 5.0233297
-0.23466033 -0.036058493 5.0437284
0.12130877 -0.033552483 5.0307541
0.17895664 -0.038347501 5.0300474
0.23426589 -0.035962138 5.0304451
0.27888665 -0.032019243 5.0396557
-0.88822848 0.036376417 5.0157804
-0.81286335 0.036238451 5.0063181
-0.77791071 0.024233894 5.0177541
-0.73025161 0.024247259 5.0265098
-0.36049831 0.023972651 5.0028844
-0.32871455 0.035949819 5.0057459
-0.27001509 0.024082331 5.0283771
-0.22254165 0.024147673 5.0425019
0.12609516 6.4372725e-05 5.0300307
0.18621343 6.5559463e-05 5.0312958
0.2340223 6.6761713e-05 5.0256071
0.28204131 6.8316542e-05 5.024374
-1.2977545 0.098588124 5.0482903
-0.8862977 0.084540099 5.0044632
-0.83676827 0.072356164 5.0023484
-0.77744496 0.084486976 5.0143285
-0.73052251 0.084635198 5.0279279
-0.32857528 0.083730459 5.0032234
-0.27009827 0.084132373 5.0297203
-0.22272532 0.084383398 5.0460644
-1.2975059 0.13547224 5.0467186
-0.87458849 0.13282274 5.0070333
-0.81229728 0.12046195 5.0019217
-0.77819341 0.13284191 5.0184555
-0.73145521 0.13311768 5.0336289
-0.69104749 0.13233225 5.0070677
-0.35272905 0.14359823 5.004797
-0.31690699 0.13167238 5.0077286
-0.27011198 0.13218413 5.0291462
-0.23474088 0.13254666 5.0443058
-1.2966139 0.18453202 5.0421767
-0.87953424 0.1772517 5.0109253
-0.81227982 0.18063773 5.0005779
-0.77844703 0.18116856 5.0190716
-0.73172915 0.18154049 5.0344934
-0.6914081 0.19251692 5.0083766
-0.40121344 0.19175042 5.0094008
-0.3652353 0.17974791 5.0108471
-0.31742147 0.17980614 5.0147071
-0.27039754 0.18041736 5.0335293
-0.22282317 0.16877425 5.0468473
-1.282536 0.23337723 5.0358992
-1.2473899 0.24597871 5.0484171
-0.87847143 0.22529085 5.0036087
-0.82129008 0.23307325 5.0042844
-0.77895659 0.22959974 5.0210066
-0.73164016 0.22990434 5.0325384
-0.69065475 0.22834873 5.0018969
-0.40057305 0.21536605 5.0007563
-0.36546674 0.22782493 5.0129895
-0.31746262 0.22776726 5.0140109
-0.27040127 0.22851416 5.0324326
-0.22301491 0.24128251 5.0491638
-1.2797875 0.2696248 5.0238361
-1.2324193 0.28222501 5.0381794
-0.87507755 0.27775937 5.0058594
-0.82616615 0.27754945 5.0075822
-0.77914977 0.27798757 5.0206108
-0.73162782 0.27827626 5.0308042
-0.69236231 0.27709034 5.012641
-0.40074402 0.263322 5.0013695
-0.3652766 0.27560937 5.0086651
-0.31773287 0.27593407 5.0166965
-0.27097362 0.27717969 5.0411658
-0.22283354 0.27724603 5.0438962
-1.224699 0.32921553 5.0045648
-0.87979227 0.32227823 5.0075645
-0.82225305 0.32182503 5.0069151
-0.78006995 0.32669309 5.0245471
-0.73178869 0.32673755 5.0299869
-0.69395369 0.32601714 5.0222321
-0.42513627 0.3354834 5.0026598
-0.36501843 0.3233037 5.0031943
-0.317738 0.32392725 5.0150056
-0.27034867 0.32461917 5.0276699
-0.22294492 0.32561675 5.0445132
-0.88284153 0.37994537 5.0221581
-0.82709998 0.37447968 5.0090542
-0.78023219 0.37516302 5.023385
-0.73234254 0.37540776 5.0315723
-0.69568175 0.37522781 5.0324965
-0.40102497 0.35930249 5.0009303
-0.36535019 0.37152666 5.0053482
-0.31804988 0.37226772 5.0176582
-0.27087915 0.3734726 5.0356336
-0.87781024 0.42394292 5.0146542
-0.82844126 0.42346829 5.0145946
-0.78062046 0.42376387 5.0232744
-0.73287648 0.4241519 5.0326986
-0.69650173 0.42412901 5.0358753
-0.36213902 0.41637143 5.014359
-0.31852102 0.42092395 5.0225835
-0.2711235 0.42200139 5.0373907
-0.23514277 0.43438467 5.0417347
-1.2312584 0.49026567 5.0225582
-0.87808943 0.47251943 5.0133452
-0.82812703 0.47166955 5.0098348
-0.78081459 0.47230303 5.021666
-0.73294985 0.47266153 5.0303431
-0.69462919 0.47136748 5.0194798
-0.36172494 0.4718689 5.0052733
-0.31876183 0.46937722 5.0236483
-0.27097851 0.46997613 5.0319152
-1.2719364 0.52868533 5.0294805
-1.2490354 0.5170657 5.0412459
-0.88297528 0.52550691 5.0142331
-0.82806927 0.52000654 5.0063138
-0.78167349 0.52131116 5.0240436
-0.73429173 0.52208364 5.0363417
-0.69374979 0.51899862 5.0099688
-0.42619926 0.50445068 5.0058565
-0.36225745 0.51262325 5.0101695
-0.31905806 0.51798046 5.0250573
-0.27163962 0.51942593 5.0410109
-0.23554224 0.50763345 5.0458393
-1.2774602 0.58034718 5.0476551
-0.87893087 0.5699833 5.0114317
-0.82898384 0.56899703 5.0083132
-0.7813521 0.56955755 5.0184355
-0.73204571 0.56886822 5.0174127
-0.69397366 0.55537581 5.0090218
-0.41452408 0.57697356 5.0054288
-0.36654502 0.56510919 5.0101013
-0.31932944 0.56666052 5.0260572
-0.27198023 0.56845438 5.0437975
-0.23548415 0.56791371 5.0403423
-1.3699071 0.63913929 5.0021133
-1.3264517 0.6418944 5.0326419
-1.2787228 0.61798316 5.0496826
-0.89411843 0.63278693 5.0225463
-0.82619905 0.62238294 5.0121379
-0.78174174 0.61833322 5.0171118
-0.74492329 0.63006568 5.0167341
-0.45141643 0.61418951 5.0098214
-0.41974244 0.61079025 5.0170856
-0.36771029 0.60306311 5.0231218
-0.31973326 0.60355473 5.0293937
-0.28438556 0.60539258 5.0461531
-1.3217242 0.67655212 5.0312324
-1.2796425 0.69262195 5.0468073
-0.86714095 0.65512067 5.0080156
-0.82988346 0.66655743 5.0057755
-0.78287649 0.66780007 5.0203323
-0.72889584 0.67193925 5.0384841
-0.67474669 0.66282356 5.0396166
-1.3011779 0.7402724 5.0254526
-1.2898917 0.71619743 5.0342059
-0.87016737 0.71826363 5.0199294
-0.83191371 0.7167725 5.0135484
-0.78474623 0.71807182 5.0278187
-0.72508949 0.71924716 5.0421529
-1.2708 0.77470255 5.0377326
-0.86854881 0.75338453 5.0070338
-0.83187807 0.76533067 5.0085745
-0.78578764 0.76776069 5.0297189
-0.72516513 0.76806474 5.0377784
-0.8686173 0.8142029 5.0010648
-0.83237362 0.81440711 5.0064559
-0.77413863 0.8170746 5.029345
-0.71314538 0.81703264 5.035068
-0.67799091 0.81873953 5.0489864
-0.87062871 0.86482215 5.0071821
-0.83367157 0.86437297 5.0088143
-0.7747128 0.86650133 5.0276661
-0.71500146 0.86806154 5.0427389
-0.87091416 0.90163577 5.0045214
-0.83503973 0.9145484 5.0111647
-0.77535939 0.9160676 5.0260396
-0.71588129 0.91809493 5.0431938
-0.87439537 0.9664011 5.0168791
-0.8293519 0.96766949 5.0154195
-0.77152377 0.96381396 5.0276499
-0.72941434 0.96876514 5.0448246
-0.86279875 1.016085 5.015501
-0.81469131 1.0171499 5.0262251
-0.76638168 1.0180669 5.0359411
-0.73021472 1.0189323 5.0438957
-0.86281842 1.0650616 5.0087657
-0.81480658 1.0663042 5.0201402
-0.76754659 1.0687555 5.0368214
-0.73153007 1.0576555 5.047914
-0.86427331 1.1158963 5.0099697
-0.81498313 1.1155819 5.014061
-0.76791811 1.1184385 5.0321198
-0.7332477 1.1340998 5.0490055
-0.85275847 1.1659839 5.0083084
-0.81711745 1.1676662 5.0196543
-0.7697556 1.170397 5.0366235
-0.85435367 1.2173443 5.0097828
-0.81868863 1.2191703 5.0214252
-0.77111304 1.2218127 5.0375814
-0.72664195 1.2189835 5.0480905
-0.8591162 1.2735829 5.0294142
-0.82081711 1.2717156 5.0261712
-0.77310884 1.2744807 5.0423875
-0.8577143 1.3208874 5.0125637
-0.82127148 1.3218441 5.0203867
-0.7735036 1.3246329 5.0363002
-0.73751676 1.3266871 5.0478716
-0.86070955 1.3750594 5.0210285
-0.82259119 1.3734508 5.0193653
-0.77414382 1.3753073 5.0314965
-0.73942447 1.3922712 5.049613
-0.86037517 1.4240468 5.0096741
-0.82422435 1.4257826 5.0200129
-0.77628273 1.4287887 5.0359597
-0.73974508 1.4301872 5.0447149
-0.86196756 1.4763143 5.0091472
-0.82575834 1.4781241 5.0195465
-0.7781896 1.4821293 5.0385289
-0.73283333 1.4785608 5.0460773
3.5972481 1.4802872 5.0341983
-0.86453557 1.5304978 5.0138588
-0.82760495 1.5312314 5.0205798
-0.78013676 1.5357782 5.040976
3.6066442 1.5273626 5.036881
-0.86581379 1.5825908 5.010664
-0.83007628 1.5857399 5.0249476
-0.78064883 1.5742524 5.0363398
-0.74424082 1.5765103 5.0474558
-0.86796612 1.624002 5.0148964
-0.83196276 1.6268973 5.0281963
-0.78223729 1.6150075 5.0383825
-0.74387991 1.6007583 5.0396194
-0.86992514 1.665234 5.0177226
-0.83385509 1.6682153 5.0310893
-0.78487515 1.6707357 5.0442195
-0.83607388 1.7229829 5.0328197
-0.79989964 1.7136772 5.0497103
-0.74936378 1.7385443 5.0481286
-0.8253656 1.7773004 5.0335574
-0.77677262 1.7940617 5.0477324
-0.85023767 1.8269738 5.0160542
-0.81405967 1.8306425 5.0304222
-0.76505631 1.8341758 5.0456676
-0.85409856 1.8732425 5.0291119
-0.8163566 1.8864146 5.0315514
-0.77888501 1.8749555 5.0422888
-0.85597885 1.9154332 5.0301676
-0.81700861 1.9259254 5.0255117
-0.77962732 1.9147909 5.0371227
-0.85718834 1.9689436 5.0235415
-0.82046038 1.9722748 5.0364037
-0.76921755 1.9586357 5.0432329
-0.86068749 2.0407596 5.0261869
-0.82337356 2.0303428 5.0400834
-0.78585476 2.0451267 5.0457606
-0.86458188 2.0756204 5.0415459
-0.82480741 2.0722425 5.0378637
-0.8663637 2.1184206 5.0406017
-0.82682568 2.1158037 5.0389299
-1.617391 2.174669 5.0092654
-1.5739423 2.1836729 5.0172639
-0.86699486 2.1713648 5.0287533
-0.82911849 2.1731102 5.0373955
-0.79213482 2.1903217 5.0479236
-1.6460955 2.2042401 5.0022526
-1.5906885 2.2001617 5.0054159
-0.87045068 2.2316248 5.0327287
-0.83037162 2.227896 5.0289683
-0.78017122 2.2316279 5.0432644
-0.87310117 2.27723 5.0356569
-0.83253539 2.2724333 5.0297289
-0.7948215 2.2753246 5.0406175
-1.0057899 2.3367372 5.0178585
-0.96653324 2.3359628 5.021698
-0.91055661 2.3279307 5.0334916
-0.87480706 2.320569 5.0327568
-0.83421338 2.3158441 5.0271955
-0.78399849 2.320354 5.0429454
-0.9508661 2.3552475 5.0005713
-0.92480302 2.3547685 5.0030546
-0.88218671 2.3647461 5.0085626
-0.83671474 2.3747153 5.0249085
-0.78626704 2.3790684 5.0401635
-0.74785209 2.3939009 5.0438924
-0.83679539 2.4138644 5.0119905
-0.78501523 2.4271922 5.0142546
-0.73442274 2.4315648 5.0289717
-0.63179958 2.4498782 5.0455213
-0.57906371 2.4472654 5.0446377
-0.68659049 2.4612691 5.0219169
-0.62924099 2.4657958 5.0156975
-0.57742155 2.4663353 5.0213027
-0.52574658 2.4672987 5.0273705
-0.47427857 2.4699359 5.0364671
-0.27774549 2.4816046 5.0088267
-0.20072688 2.4620888 5.0335774
-1.3010339 -0.4191395 5.050447
-1.2638364 -0.419083 5.0559473
-1.2164363 -0.41975284 5.0719924
-1.1687822 -0.42039406 5.0873737
-1.2635314 -0.38200021 5.0566206
-1.2160262 -0.38257617 5.0722046
-1.1683208 -0.38313618 5.0872602
-0.60161221 -0.37673515 5.0641599
-0.57719278 -0.37666658 5.0650659
-1.2630994 -0.33257204 5.0571938
-1.2166662 -0.3333602 5.0771646
-1.1687934 -0.33381474 5.0915823
-0.60002643 -0.33937502 5.0524802
0.1032449 -0.3154088 5.0801387
0.22339119 -0.31373242 5.0506535
0.33400387 -0.31558686 5.0766568
-1.3016649 -0.27128139 5.0595469
-1.2641426 -0.28351396 5.063343
-1.2294331 -0.28405279 5.0788536
-0.23523547 -0.26544267 5.0517974
0.079254277 -0.29216334 5.099165
0.11104541 -0.28235295 5.0687833
0.24000229 -0.28215805 5.0621071
0.33385769 -0.27906156 5.0761509
0.37885973 -0.28348076 5.0805168
-1.3000246 -0.24629346 5.0539966
-1.2713256 -0.23167577 5.0629635
-1.2296133 -0.23465466 5.0812435
-0.21147057 -0.2296443 5.0625353
0.10272199 -0.229312 5.0572834
0.24749377 -0.21714744 5.052413
0.27299386 -0.2304059 5.0766411
0.34607065 -0.23056236 5.0782709
0.38250199 -0.23057322 5.076714
-1.275403 -0.18468808 5.0599656
-1.2272044 -0.18486671 5.0726109
-0.21191767 -0.18164992 5.0744863
0.1029927 -0.18150347 5.0718503
0.24741597 -0.19295205 5.051445
0.2797848 -0.17698884 5.0542307
0.34647262 -0.18222505 5.0854216
0.38193694 -0.1817604 5.0705562
-1.2693517 -0.13773724 5.0573015
-1.2266166 -0.13545027 5.0711827
-0.21152151 -0.13299313 5.0659437
0.079145409 -0.14584957 5.0961185
0.29583544 -0.13271272 5.0537796
0.32101646 -0.12102665 5.069448
0.38559964 -0.13716149 5.066185
-1.2626375 -0.086070076 5.0619617
-1.2272346 -0.086193353 5.0744209
-0.21092057 -0.084339961 5.0521946
0.078797281 -0.072572134 5.0746632
0.10288317 -0.096665159 5.067914
-1.2624764 -0.036788072 5.0616779
-1.2260625 -0.036811195 5.0699387
-0.21097091 -0.036121592 5.0537434
0.078732297 -0.036213178 5.0706968
0.29587489 -0.048219346 5.0553904
0.32901943 -0.032207843 5.0686364
-1.2813016 0.02127753 5.0563354
-1.2348673 0.029712936 5.0639906
0.078857049 6.4347238e-05 5.0788012
0.33322287 7.0836599e-05 5.0711575
-1.2819784 0.082221575 5.0537395
-1.2374727 0.086362951 5.063735
-1.2736294 0.13554455 5.0537586
-1.2374239 0.13561115 5.0627761
-0.21121126 0.13290153 5.0583448
-1.2621933 0.18489182 5.0582376
-1.2239593 0.18468922 5.0589447
-0.22308281 0.19310051 5.0521564
-1.2317663 0.2297243 5.0547295
-0.22331445 0.21746224 5.0569048
-0.22356693 0.37489685 5.0564322
-0.18866046 0.38979015 5.0935321
-0.21982442 0.41979495 5.0610681
-0.22408313 0.4727205 5.0628619
-0.18909526 0.48834601 5.0997272
-1.2550267 0.54427916 5.0636754
-1.2287408 0.53123498 5.0622005
-0.2203889 0.52606541 5.0676522
-0.18899262 0.51248217 5.0953817
-1.254298 0.58104563 5.0579433
-1.233187 0.58273339 5.0768471
-0.2130796 0.57264525 5.0829921
-1.2637628 0.63522476 5.0571351
-1.2254821 0.63675982 5.0761886
-1.1870897 0.64661014 5.0946393
-1.1361078 0.64588857 5.0965652
-0.40666819 0.6315093 5.0539689
-0.36988306 0.63089871 5.0509176
-0.32302207 0.63414586 5.079114
-0.26065794 0.60651892 5.0564046
-0.22483152 0.60815275 5.0711694
-1.2654343 0.67735726 5.0602202
-1.2224779 0.68284869 5.0775409
-1.1743407 0.68371582 5.0918794
-1.1362133 0.68320215 5.0937643
-0.65223151 0.68293947 5.0541205
-0.61611283 0.67126727 5.0620809
-0.56877291 0.67299879 5.0788827
-0.52065527 0.67404991 5.0903397
-1.256451 0.73060644 5.053618
-1.2327468 0.71884024 5.0632472
-0.66537875 0.72056377 5.0569668
-0.61800861 0.72228324 5.0731597
-0.57006991 0.72357357 5.0860238
-0.53382069 0.71201611 5.0948858
-1.2575598 0.79321432 5.0517726
-0.66581243 0.76991796 5.0555162
-0.61856121 0.771936 5.0728998
-0.57089537 0.77375627 5.0886579
-0.65513313 0.82072031 5.0633106
-0.61969 0.82244951 5.0770507
-0.5760169 0.82024616 5.0927234
-0.66787505 0.87036318 5.0606146
-0.62048888 0.87266934 5.078197
-0.57274789 0.87481469 5.0945187
-0.66818058 0.91981673 5.0571404
-0.62129903 0.92304653 5.079021
-0.5770101 0.92024499 5.0902996
-0.70575339 0.96994519 5.0533018
-0.66932923 0.97053844 5.0597043
-0.62194037 0.97325754 5.0781279
-0.57815295 0.97145694 5.0942931
-0.70634538 1.0199091 5.0510774
-0.67077541 1.0218778 5.0641704
-0.6220969 1.0227977 5.0729055
-0.574817 1.0263671 5.0945234
-0.53740561 1.0133848 5.0958023
-0.71629149 1.0757931 5.0553026
-0.67188591 1.072897 5.0657444
-0.62362498 1.0747237 5.0785699
-0.5755226 1.0771585 5.0940008
-0.71789092 1.1193832 5.0607038
-0.67299217 1.1240648 5.0668631
-0.62477624 1.1262012 5.0807757
-0.57624739 1.1280946 5.0932188
-0.72226763 1.173272 5.0539484
-0.67414629 1.1754857 5.0680747
-0.62547135 1.177012 5.078866
-0.57684743 1.1789129 5.0910177
-0.71089828 1.2367162 5.0521636
-0.67459702 1.2258165 5.0636206
-0.62666982 1.2289239 5.0807428
-0.57819211 1.2314068 5.0949593
-0.72461325 1.2762043 5.0541735
-0.67607594 1.2781314 5.0664344
-0.62798822 1.2812645 5.0831661
-0.59152877 1.2831031 5.0934763
-0.71381259 1.3287196 5.0579901
-0.67754632 1.3306497 5.0687914
-0.62813461 1.3313329 5.0757337
-0.58435971 1.3397022 5.0946999
-0.72389287 1.3777143 5.0616593
-0.67967057 1.3847163 5.0756397
-0.63477039 1.3823695 5.0871186
-0.59393376 1.3758696 5.0988131
3.535897 1.3781666 5.0840554
-0.71625483 1.4329474 5.0568719
-0.68034959 1.4360521 5.0713487
-0.626872 1.4166344 5.0850468
-0.58568507 1.4094414 5.0941024
3.5341597 1.4205236 5.0720134
3.5794361 1.4271249 5.0794735
3.6049442 1.4402689 5.0551267
-0.71758848 1.4980265 5.0540051
-0.68495178 1.4827889 5.0652633
-0.6313085 1.4631063 5.0780916
-0.58670455 1.462031 5.0934129
3.5447783 1.482331 5.0739985
3.5738955 1.4825022 5.0582576
-0.73166198 1.526324 5.0587273
-0.677387 1.5178179 5.0649958
-0.63252306 1.5160623 5.0779324
-0.59652472 1.5200691 5.0944681
3.5784054 1.5337427 5.0828938
