ply
format ascii 1.0
comment PCL generated
element vertex 1534
property float x
property float y
property float z
element camera 0
property float view_px
property float view_py
property float view_pz
property float x_axisx
property float x_axisy
property float x_axisz
property float y_axisx
property float y_axisy
property float y_axisz
property float z_axisx
property float z_axisy
property float z_axisz
property float focal
property float scalex
property float scaley
property float centerx
property float centery
property int viewportx
property int viewporty
property float k1
property float k2
end_header
0.27005431 2.4060757 3.576905
0.31939074 2.4080749 3.576704
0.38553342 2.4086614 3.5791595
0.43794888 2.4017255 3.5773172
0.47735 2.4019563 3.5737104
0.52710831 2.4044952 3.572109
0.57568604 2.4015756 3.5617955
0.62503123 2.4022002 3.5562601
0.67961901 2.4014649 3.5878878
0.77909386 2.402354 3.5734012
0.88619131 2.403826 3.5976648
0.9051258 2.4009371 3.5894063
1.0262746 2.4036415 3.5677402
1.1780442 2.4073446 3.579237
1.4212368 2.4020278 3.5886281
1.5983146 2.4009473 3.5722139
4.1859789 1.6950532 3.6202633
4.184607 1.7201577 3.60918
4.1978335 1.7879655 3.6467454
4.2019396 2.048187 3.644227
4.1993055 2.0731416 3.630156
4.179636 2.3421412 3.6400356
4.204967 2.3282163 3.6220329
-1.4181635 2.3937516 3.6213529
-1.3527789 2.387552 3.6310191
-1.2652129 2.3981323 3.6288261
-0.56357872 2.3948007 3.63413
-0.5379681 2.3977723 3.6145105
-0.47288176 2.3901932 3.6370547
-0.43801489 2.3943727 3.6197994
-0.37592545 2.3933046 3.6262174
-0.33144358 2.3953068 3.6164882
-0.054383133 2.3957386 3.6285501
0.42997125 2.3923612 3.6039968
0.47417468 2.3961568 3.6461663
0.58330274 2.3934891 3.6297662
0.61272413 2.3915114 3.6229243
0.66382372 2.3962493 3.6232715
0.76432413 2.3984208 3.6111467
0.8301959 2.3956406 3.637269
0.89144373 2.3979132 3.6295266
0.92998016 2.3883829 3.6173599
1.0248766 2.3981359 3.6306999
1.0760944 2.3852718 3.6125
1.1373085 2.3938684 3.6262276
1.1720318 2.3956423 3.6202972
1.2219677 2.3935323 3.633215
1.2733793 2.3940492 3.6198666
1.3473225 2.3959906 3.6470983
1.3755269 2.3912091 3.630497
1.4265617 2.3904407 3.6132066
1.4746826 2.3861265 3.6250546
1.5308986 2.387985 3.6210299
1.5763782 2.3923507 3.6285954
1.6218382 2.3909304 3.6256981
1.6684258 2.3858476 3.615407
1.7169987 2.3860729 3.6298344
1.7630614 2.379746 3.6165681
1.829178 2.3833294 3.629411
1.8818352 2.389276 3.6350975
1.9101124 2.3819919 3.6263363
1.9685112 2.369657 3.6115286
-1.8775527 2.4189088 3.6401429
-1.7659035 2.4192035 3.6366687
-1.713722 2.4160728 3.62708
-1.694023 2.4135664 3.6058187
-1.623446 2.4177978 3.6398988
-1.5125291 2.4022474 3.6282816
-1.4875455 2.4059012 3.6194611
-1.2631109 2.4146171 3.611872
-1.0694249 2.4032221 3.6213515
-1.0273781 2.414922 3.6172872
-0.98669112 2.4093885 3.6282027
-0.77208024 2.41926 3.6283314
-0.72893637 2.4160602 3.6165497
-0.65668082 2.4070103 3.6408937
-0.6259253 2.4143105 3.6357539
-0.59226167 2.4097307 3.6125858
-0.51057833 2.4001091 3.6076
-0.49204424 2.4064462 3.6192701
-0.41154417 2.4007831 3.6184437
-0.31330988 2.408042 3.637085
-0.27329418 2.4060004 3.6364524
-0.23356117 2.4063394 3.6391342
-0.16872013 2.4077973 3.6340714
-0.13374092 2.4088397 3.6267877
-0.078163423 2.4074502 3.6218982
-0.028006554 2.4052742 3.6299019
0.14318427 2.4092326 3.6070814
0.17410152 2.4076319 3.6436772
0.22331709 2.4069221 3.6305003
0.2734949 2.4071782 3.6382799
0.32818383 2.4121168 3.6322062
0.36981592 2.4148147 3.6298237
0.40269467 2.4065683 3.6280708
0.47203165 2.4052935 3.6196318
0.51139677 2.4034328 3.6126366
0.56142956 2.4051616 3.6095078
0.64555293 2.4025431 3.6356006
0.68567955 2.4028859 3.630403
0.72610432 2.4042716 3.6263845
0.82965535 2.4074059 3.6278441
0.87054646 2.4058874 3.6249776
0.9782688 2.4133487 3.636445
1.2071955 2.404916 3.6114936
1.2776082 2.4020188 3.6319768
1.3705486 2.4030998 3.6063659
4.1716933 1.7877871 3.6706836
4.1905131 1.8739011 3.6552968
4.2009478 2.0214553 3.6550426
4.190187 2.081562 3.6689868
4.1775517 2.1411977 3.6806996
-1.0816126 2.3998747 3.6786611
-0.6791724 2.3955531 3.6614597
-0.61940521 2.3978992 3.6733575
-0.57781267 2.3923626 3.6699216
-0.52816713 2.3952279 3.6801968
-0.47760206 2.3939357 3.6834836
-0.42331359 2.3967803 3.6793311
-0.39758232 2.3965013 3.6948397
-0.074584506 2.3889935 3.6582794
0.30672902 2.3936942 3.6971734
0.50869977 2.397831 3.6864505
0.64988554 2.3985019 3.6702931
0.69030523 2.3989272 3.6652241
0.72353816 2.3986311 3.6808891
0.76939088 2.3945365 3.6713543
0.89612538 2.3902407 3.6590276
0.97974706 2.3966746 3.6525104
1.0285088 2.3953538 3.6834176
1.090876 2.3974988 3.6727479
1.1198812 2.3938167 3.6597724
1.1613765 2.3956788 3.6972616
1.2213538 2.3919022 3.6755402
1.2788815 2.3896837 3.6714346
1.3161229 2.3949249 3.6697206
1.3757786 2.3888977 3.6725976
1.4033104 2.3795943 3.6949589
1.4832758 2.3908324 3.6893241
1.5229917 2.3873358 3.6700821
1.5728154 2.380991 3.665817
1.6231334 2.3906126 3.689435
1.6752335 2.3895543 3.668421
1.7365477 2.3800404 3.6775641
1.7583597 2.3701892 3.6761575
1.840176 2.3855145 3.6799762
1.8816899 2.3812389 3.6717489
1.9485222 2.3759344 3.6851501
1.9740627 2.3807137 3.6829603
-1.8710123 2.4166734 3.6903138
-1.809947 2.4143178 3.6601884
-1.7727519 2.4218342 3.6888816
-1.7490914 2.4187293 3.6925774
-1.6869489 2.4124467 3.6555078
-1.6243969 2.4137366 3.680927
-1.4988281 2.4032452 3.6581409
-1.4135998 2.4107914 3.6750638
-1.3888341 2.4040315 3.6711597
-1.3012632 2.4271626 3.6668975
-1.2500681 2.4084239 3.6500971
-1.0604743 2.4189429 3.6705518
-1.0277398 2.4142518 3.6703258
-0.99752206 2.4153621 3.678705
-0.66088277 2.4022219 3.6745186
-0.62897116 2.4059281 3.6638045
-0.59723938 2.4098966 3.6533215
-0.51534945 2.4025123 3.6515958
-0.47651374 2.4017899 3.6683152
-0.35531956 2.4031405 3.6672904
-0.32545525 2.404346 3.6712699
-0.27537057 2.4043589 3.6744301
-0.22190571 2.410161 3.6725512
-0.17579819 2.4126551 3.6918533
-0.1214964 2.4048178 3.6680117
-0.075083941 2.40412 3.6814003
0.13515043 2.4123511 3.6723812
0.17526188 2.4036713 3.6781411
0.22561033 2.4067895 3.6807985
0.27618617 2.410634 3.684067
0.32528752 2.4023316 3.6682091
0.37591708 2.4060736 3.6702507
0.43208283 2.4069755 3.6771569
0.46915191 2.4016182 3.6963935
0.52776819 2.4079006 3.6689558
0.56983811 2.4058645 3.6816592
0.62188828 2.4071579 3.6875958
0.67073876 2.4010239 3.6713359
0.73158145 2.4021192 3.6640081
0.79298526 2.4047518 3.6581779
0.82965624 2.4029813 3.6916015
0.87197655 2.4074459 3.691117
0.9207471 2.4016485 3.6725397
0.97656333 2.403563 3.6860371
1.0028142 2.4033015 3.658258
1.0648574 2.4081097 3.6961184
1.1948514 2.4006512 3.6521759
1.4468913 2.4035666 3.6758022
4.1747351 1.9426521 3.7135203
4.1625805 1.9755073 3.7388659
4.1677523 2.0043285 3.7319233
4.1685615 2.150111 3.7201173
-1.005843 2.3942199 3.7304509
-0.64456588 2.396395 3.709693
-0.54294193 2.3959014 3.7214544
-0.33746126 2.3984826 3.7025161
-0.23669063 2.3982768 3.7081945
0.24685393 2.3981037 3.7074482
0.2671417 2.3993702 3.7083356
0.327232 2.3965757 3.7003
0.58109188 2.3925135 3.7257969
0.61364692 2.3941727 3.7103052
0.72200722 2.3969324 3.7423453
0.83337569 2.3932552 3.7184074
0.8758586 2.3976536 3.7179117
0.90535504 2.3943844 3.7071095
0.96452343 2.3938892 3.7385478
1.0793186 2.396817 3.7187216
1.152095 2.3986709 3.7498021
1.2350817 2.3978872 3.7275364
1.2686298 2.3886631 3.7182992
1.3240253 2.387078 3.7311049
1.3818913 2.3836231 3.7241027
1.4290926 2.3878176 3.701292
1.4753032 2.3876033 3.7220449
1.5350938 2.3852186 3.71034
1.5708091 2.3702414 3.720211
1.6232942 2.3852189 3.7288964
1.6826111 2.3816946 3.7177455
1.7233421 2.3817947 3.7194364
1.7854558 2.3815215 3.7117898
1.8232101 2.3791497 3.7266293
1.8709824 2.3733969 3.7135167
1.9158387 2.3889935 3.7242172
-1.8257035 2.4137778 3.7037573
-1.6592158 2.4124486 3.7152205
-1.4778314 2.4163065 3.7352769
-1.4075366 2.4047842 3.7371011
-1.3133912 2.4183373 3.7175846
-1.2788405 2.4123728 3.7171166
-1.072116 2.4109099 3.7285831
-1.0265986 2.409955 3.7185884
-0.81600463 2.4334404 3.7208943
-0.7737124 2.4295325 3.7217162
-0.67887437 2.4099383 3.7264206
-0.61779124 2.4108267 3.7360418
-0.57614279 2.4073465 3.7356787
-0.51479173 2.4065619 3.7413402
-0.47370997 2.4050863 3.7431891
-0.42266914 2.404541 3.7470362
-0.37030554 2.4053574 3.7316322
-0.31758732 2.4005694 3.7071078
-0.27878866 2.4141946 3.7306225
-0.21808755 2.4153914 3.7356093
-0.18733703 2.4114532 3.7307746
-0.12659776 2.4123225 3.7340825
-0.086161479 2.4142919 3.7380171
0.14678881 2.4090855 3.728528
0.17748086 2.4133787 3.7341504
0.21793059 2.4125164 3.731174
0.28889811 2.412725 3.7278154
0.34887916 2.4070172 3.7150066
0.37090084 2.41208 3.7351143
0.4238399 2.4048302 3.7195311
0.4832772 2.4117937 3.7318335
0.53524786 2.4064643 3.7390521
0.63570851 2.4008899 3.7180722
0.6773048 2.4041612 3.7175448
0.71866006 2.4062223 3.7148275
0.77445424 2.4008114 3.7404504
0.93142879 2.4089115 3.7256267
0.95976567 2.4025841 3.7096996
1.025209 2.405894 3.7308953
1.0602515 2.4004071 3.7289641
1.1239271 2.4038532 3.7199295
1.1874089 2.4066038 3.70891
1.2157443 2.4008558 3.7375803
1.3406805 2.4003944 3.7026291
4.1597905 1.9215515 3.7590797
4.1477156 1.9545023 3.7848544
-1.2981586 2.39747 3.7560189
-0.63495249 2.3961067 3.7962613
-0.56771165 2.3944521 3.7587466
-0.52754533 2.3978751 3.7686722
-0.4759672 2.3961387 3.7711887
-0.40475887 2.3987503 3.7817149
0.33278751 2.3962746 3.7831857
0.64489323 2.3942771 3.7920897
0.67377174 2.3973169 3.7714949
0.748743 2.3964605 3.7809227
0.76696444 2.3888903 3.7657874
0.87196797 2.3945711 3.7573054
1.025967 2.3962915 3.7744319
1.0872895 2.3936937 3.7566609
1.1231618 2.3931851 3.7702889
1.2346978 2.3964839 3.7714024
1.2793667 2.3908811 3.7733841
1.3235354 2.3840852 3.7730465
1.3573869 2.3880219 3.7703574
1.4278831 2.3894079 3.775959
1.4736261 2.3841188 3.7766922
1.5255861 2.3821518 3.7566228
1.5775542 2.3876336 3.7821267
1.632291 2.3802366 3.7832482
1.6751841 2.3800621 3.7677639
1.7323385 2.3754084 3.7720351
1.7724409 2.3748984 3.7817473
1.8171936 2.3778899 3.7786877
1.867393 2.37462 3.7698579
1.9195753 2.3744514 3.7745979
1.9918879 2.3715248 3.764863
2.2009442 2.3756578 3.7883339
2.2505701 2.3807967 3.7742748
-1.4630584 2.4056451 3.7694173
-1.4427856 2.4073205 3.7786109
-1.2857902 2.4137108 3.7872169
-1.102007 2.4033179 3.7692597
-1.0758497 2.4140863 3.7780259
-1.0400791 2.4050333 3.7858875
-0.81337452 2.4253998 3.7735772
-0.76444745 2.4345911 3.796303
-0.67336446 2.4063594 3.7643402
-0.62127006 2.4037809 3.7671366
-0.59003621 2.4020448 3.7682374
-0.42974919 2.4052951 3.7687676
-0.37472066 2.403296 3.7912955
-0.32742482 2.4106913 3.7745507
-0.27156717 2.4197092 3.7815409
-0.24114287 2.4023252 3.7980423
-0.17881042 2.4125991 3.774636
-0.127562 2.4100261 3.7721829
-0.086644724 2.4075422 3.7691808
0.086977616 2.4139707 3.7792652
0.12780271 2.4128351 3.7765744
0.17910165 2.4152629 3.7788081
0.22962523 2.4090385 3.7669449
0.28210714 2.4214778 3.7837601
0.32135892 2.4078186 3.759918
0.38453478 2.4098883 3.7798238
0.42619258 2.4134452 3.7820473
0.47687951 2.4082227 3.7733397
0.51958454 2.4182158 3.7806528
0.5741961 2.4138134 3.7746971
0.63421881 2.413619 3.7812986
0.66340774 2.4072368 3.7672238
0.71708328 2.404309 3.7766557
0.79237187 2.4035132 3.7855349
0.82113695 2.4137588 3.7827981
0.93378282 2.405164 3.7779758
0.9771508 2.4042511 3.7977641
1.0033222 2.4127266 3.7615778
1.0724347 2.4070497 3.7823191
1.1867968 2.4057035 3.7684212
1.2057199 2.4015651 3.7874608
-1.3687692 -0.018868236 3.840116
-1.346411 -0.018827152 3.8353777
-1.3651803 0.0097133163 3.8300419
-1.3227346 0.019156985 3.8264186
-1.065792 2.3949187 3.8088648
-0.55303484 2.3990691 3.8108625
-0.40801445 2.3973746 3.8220878
0.5879243 2.3937092 3.8418872
0.61008447 2.3990245 3.8479364
0.75451618 2.3941104 3.8201785
0.81865698 2.3991146 3.818239
0.88068998 2.3976731 3.8051746
0.91948825 2.3964717 3.841085
0.97174901 2.3957784 3.8299263
1.0228207 2.3924298 3.8139668
1.0761156 2.3943 3.8056896
1.1720285 2.3977292 3.835736
1.222611 2.3929288 3.8150814
1.2712072 2.3909802 3.8149567
1.3215303 2.3783937 3.8111181
1.3924223 2.3907719 3.8129497
1.4315317 2.3812752 3.8332157
1.474206 2.3809459 3.8197417
1.5213916 2.3876953 3.8171034
1.57024 2.3857455 3.8227031
1.6133482 2.3749528 3.8136263
1.6702145 2.3791263 3.8015637
1.7228934 2.3704977 3.817796
1.8272218 2.3713353 3.8325469
1.8748672 2.3761127 3.8229132
-1.3313476 2.418252 3.8141022
-1.2926236 2.4052474 3.8180184
-1.0937215 2.4101901 3.8284836
-1.0476509 2.4014716 3.8238354
-0.85675752 2.4186659 3.8439438
-0.82049906 2.4257309 3.8169994
-0.78820562 2.4332929 3.8124604
-0.70461965 2.4121695 3.8349025
-0.67446822 2.4072993 3.8238099
-0.61783648 2.4098914 3.8207242
-0.58777368 2.4143617 3.831573
-0.52608895 2.4177971 3.8439741
-0.46139869 2.4064898 3.8321161
-0.43067339 2.408545 3.8381634
-0.37856001 2.4071331 3.8400691
-0.31793824 2.4068558 3.8152115
-0.27344418 2.4155099 3.8172803
-0.22102028 2.4067345 3.8059676
-0.17025639 2.4152653 3.8214643
-0.12908594 2.4179077 3.8268797
-0.097529978 2.4043028 3.8060555
0.087545589 2.4091148 3.8138711
0.1185727 2.4116006 3.817163
0.17009407 2.4125907 3.8172333
0.22142917 2.4096775 3.8106313
0.27818596 2.4115722 3.8279395
0.33774531 2.4111757 3.8495111
0.37849283 2.4058759 3.8380811
0.42676941 2.4121888 3.8300076
0.47251612 2.4096978 3.8363042
0.52963412 2.415024 3.8283114
0.5754621 2.4059353 3.8194656
0.61909294 2.4142227 3.8276377
0.69263655 2.4168742 3.8222566
0.72614473 2.4139397 3.8347483
0.77752292 2.4008899 3.8277807
0.82064849 2.4050608 3.8276618
0.8615889 2.4025264 3.8165696
0.91429961 2.4038348 3.809216
1.0593086 2.4037998 3.8253915
1.1063836 2.4145408 3.8331368
1.1662534 2.4070256 3.8064451
-1.3934942 -0.018940112 3.8510375
-1.2854441 0.028859768 3.8678186
-1.3116136 2.397377 3.8952966
-1.0766116 2.398005 3.8578689
-0.57846671 2.3981009 3.8500855
-0.49883822 2.3953025 3.8981347
0.13018353 2.3948753 3.8761246
0.25547898 2.3984106 3.8771462
0.3598505 2.39921 3.8721683
0.57124424 2.3901591 3.8821459
0.87074649 2.396333 3.8723807
0.93806201 2.3960311 3.8825769
0.98030317 2.3956647 3.8738902
1.0464692 2.390955 3.8756728
1.0797858 2.394043 3.8739214
1.1213354 2.3960607 3.875993
1.1670566 2.3880219 3.8672268
1.2247695 2.3966522 3.8682547
1.278635 2.3897789 3.8745747
1.3200432 2.3929079 3.8853157
1.3717468 2.3891282 3.8644509
1.4261837 2.386703 3.8938291
1.4673281 2.3831236 3.8752351
1.5184965 2.3815382 3.8691909
1.5694889 2.3867996 3.8837662
1.6233644 2.3839335 3.877701
1.6735467 2.3712111 3.888567
1.7463505 2.3807216 3.8808095
1.7681197 2.3583267 3.8830469
1.8246467 2.3745701 3.8932326
2.1889811 2.3776407 3.8853889
-1.3551074 2.4195502 3.8739798
-1.3220949 2.418416 3.8809767
-1.104695 2.4130123 3.8773253
-1.0563821 2.400239 3.8660238
-0.86659634 2.425164 3.8983605
-0.83045518 2.4340563 3.8737552
-0.79606235 2.4259181 3.8659413
-0.72853833 2.4118176 3.8530314
-0.66434252 2.4071147 3.8542261
-0.62442148 2.4060733 3.8753705
-0.56026345 2.4094713 3.8707008
-0.52900648 2.4101899 3.8752155
-0.48107076 2.4115083 3.8711114
-0.42308742 2.4035707 3.8743463
-0.37128973 2.4067252 3.883487
-0.32368669 2.4130502 3.8751595
-0.28024644 2.4170425 3.8769026
-0.22954075 2.4164362 3.8748038
-0.17233416 2.4140952 3.8841834
-0.13012305 2.4162133 3.8671148
0.074658297 2.4091599 3.8714049
0.11955027 2.4108615 3.8588164
0.17228103 2.421262 3.8739541
0.22764032 2.4117947 3.8711298
0.27649713 2.4094679 3.8721986
0.32514247 2.4064391 3.8716946
0.38264301 2.4114068 3.8903325
0.42441675 2.4106662 3.8858089
0.47746855 2.4138291 3.8862965
0.52920753 2.4108112 3.8762522
0.57159466 2.4126143 3.8746355
0.63425052 2.4116161 3.8655474
0.67658824 2.4078054 3.8649151
0.72162157 2.4075971 3.880712
0.76413143 2.403527 3.8789463
0.80960649 2.4134309 3.8883483
0.87017822 2.4054859 3.8649569
0.91914672 2.4019904 3.8961427
0.96255749 2.4042733 3.8919206
1.01478 2.4020367 3.8778334
1.0933084 2.411206 3.8768933
1.1309768 2.4006169 3.850338
4.0890183 2.2886531 3.9498136
-4.0990453 2.3138597 3.919729
-0.52042186 2.3979652 3.9003794
0.76842552 2.3958223 3.9107397
0.85460925 2.3997686 3.9036739
0.92587936 2.3981822 3.9347529
0.97938299 2.398164 3.9247854
1.0214961 2.3964977 3.9136338
1.0748608 2.3962829 3.9022055
1.1251794 2.3908763 3.9292777
1.1812758 2.3955493 3.9246957
1.219108 2.3849671 3.9131594
1.2687334 2.3900611 3.9261062
1.3292251 2.3878675 3.9227631
1.3837674 2.3883705 3.9088736
1.4036068 2.3818929 3.9414454
1.4735651 2.3890839 3.9344037
1.5407177 2.3913221 3.9181385
1.5956854 2.3860013 3.9422946
1.6183674 2.370718 3.9062996
1.7351303 2.3956418 3.9131124
1.7867481 2.3608932 3.9347739
1.8282537 2.3714409 3.9399433
1.8754442 2.3745484 3.9280558
-1.1252186 2.4127831 3.9195452
-1.0786185 2.4048874 3.9160919
-0.86975628 2.4126511 3.9227378
-0.83001471 2.4216154 3.9168186
-0.72797912 2.4238949 3.9179661
-0.67505312 2.4140096 3.9314618
-0.62009275 2.4071398 3.9269972
-0.57799578 2.4081697 3.9335499
-0.54239887 2.4021633 3.9050269
-0.46881789 2.4029903 3.9136095
-0.42760468 2.4082642 3.9258628
-0.37549365 2.4124401 3.9367421
-0.32167122 2.4055791 3.9291019
-0.2796253 2.4171429 3.9283495
-0.22638221 2.4154193 3.9207649
-0.14226851 2.4148583 3.9302096
0.047220599 2.4110503 3.9037464
0.082569815 2.4095452 3.9301872
0.11048933 2.4195263 3.916513
0.17408033 2.426028 3.9252758
0.21568397 2.4197938 3.9136376
0.27257368 2.4129634 3.9293144
0.31213626 2.4127064 3.9414189
0.37581518 2.4138708 3.9391317
0.42763305 2.4076006 3.9248009
0.48159021 2.4135609 3.9298968
0.52159238 2.402853 3.9083698
0.57758999 2.4166174 3.9250729
0.63270253 2.403635 3.9422762
0.74895799 2.401361 3.922924
0.79191303 2.4027791 3.9188566
0.82449055 2.404819 3.9171329
0.91382742 2.4052262 3.9257426
-1.2573359 0.019695092 3.9728506
-1.2466449 0.01973474 3.9719939
4.088254 1.6984925 3.9823639
4.0826311 2.3277185 3.9804144
-3.8986385 2.3725359 3.9811049
-3.8328288 2.3919516 3.9998283
-1.0966154 2.3993201 3.9501519
-0.57259542 2.398257 3.9857714
-0.37673855 2.399358 3.9598577
0.58278507 2.3956482 3.9803176
0.93460923 2.399153 3.9819083
0.97401714 2.3898389 3.9584882
1.0437778 2.3909199 3.9706187
1.0768304 2.3923316 3.9662356
1.1103932 2.3838453 3.9682529
1.1778781 2.3889148 3.9621694
1.2318366 2.3876262 3.9962854
1.2719682 2.3807819 3.9741883
1.3434353 2.3914158 3.9750791
1.3792928 2.3855343 3.9799228
1.4300224 2.3870771 3.9771869
1.5851272 2.3812068 3.9888275
1.632376 2.3852534 3.9813528
1.650026 2.3785834 3.9629221
1.7503375 2.3718705 3.9691215
1.883863 2.3769083 3.9847755
-3.8996377 2.4001143 3.9681396
-1.0777166 2.4053645 3.9647028
-0.90382814 2.4254527 3.9852099
-0.88014984 2.4198723 3.9797497
-0.8241632 2.4246626 3.9737692
-0.71810883 2.4148324 3.9805391
-0.68181098 2.4059513 3.9857535
-0.63029164 2.4077868 3.9799635
-0.57275748 2.4059775 3.9835091
-0.52868569 2.4147284 3.9722919
-0.48777333 2.4236836 3.9911981
-0.43206912 2.4119308 3.9764895
-0.37819469 2.4088693 3.9755135
-0.32502371 2.4091582 3.979573
-0.27152258 2.4129043 3.9775598
-0.21815073 2.4169068 3.9754531
-0.17541763 2.4145355 3.9731188
0.03728836 2.4144516 3.9757981
0.079919904 2.4069793 3.9853587
0.12229235 2.4132543 3.972563
0.17969646 2.415406 3.9699402
0.22874738 2.4150586 3.9719806
0.27167666 2.4079692 3.9806461
0.33019757 2.4126318 3.973773
0.37832385 2.4087706 3.9754167
0.42004988 2.4035664 3.9636021
0.47463036 2.4105937 3.9706295
0.52929652 2.4169519 3.9760184
0.56766921 2.4063156 3.9694674
0.60361755 2.4041219 3.9693904
0.76043743 2.4165816 3.9930594
1.2487688 2.400003 3.9650114
-1.2344689 -0.019658111 4.0343199
-1.2332672 0.00017425907 4.0304527
4.0691271 1.7015274 4.0131769
-3.8320706 2.3377333 4.0266237
-3.8175163 2.3773046 4.0158825
-3.7750714 2.3892934 4.039691
1.1821454 2.3978629 4.0261946
1.2139494 2.3845201 4.0197549
1.3265339 2.3784821 4.0061874
1.3633063 2.3850369 4.008564
1.4847106 2.3806815 4.0181427
1.624892 2.3958807 4.0304933
1.6743338 2.3910861 4.0319757
1.7230042 2.3734372 4.0358896
1.8363482 2.3886652 4.0257111
-3.7743263 2.4156654 4.0249233
-3.7272723 2.4025767 4.0248585
-0.90756327 2.4137261 4.0117536
-0.87276214 2.4249265 4.0211129
-0.8436209 2.4173717 4.0286727
-0.77530503 2.4080482 4.0230899
-0.71180528 2.4133489 4.04107
-0.51382369 2.4239686 4.0351491
-0.46768332 2.4092021 4.0145245
-0.42418852 2.4063177 4.0132837
-0.3719002 2.4156594 4.0329018
-0.34032711 2.4211254 4.0441875
-0.26455393 2.4198534 4.0462999
-0.22109127 2.417104 4.0436492
0.048602331 2.4167302 4.047358
0.080673359 2.4076982 4.0318356
0.11299317 2.4097395 4.034687
0.17712371 2.4039772 4.0232759
0.23084758 2.4051294 4.0231857
0.28420115 2.4023454 4.0159655
0.32707942 2.4022648 4.0133381
0.38179487 2.4090457 4.0211344
0.43438566 2.4027679 4.0065708
0.47327003 2.4043593 4.0174379
0.52975267 2.406682 4.0199308
0.59148401 2.4096882 4.0495334
0.62132764 2.4101655 4.0236902
0.73750538 2.4286067 4.0323601
0.7629438 2.40289 4.0161176
4.0616741 1.6828198 4.0653677
4.0604267 1.7089924 4.0543413
-3.6688406 2.3458462 4.0891314
-3.7205737 2.3533521 4.0702801
-3.6680303 2.3853116 4.0678396
-3.6331487 2.3798709 4.0794773
-3.5803106 2.3726797 4.084722
0.11416103 2.3911269 4.0955095
0.39792687 2.3986382 4.0951796
0.59405035 2.3983309 4.0768094
1.3268358 2.3967583 4.0906429
1.4123267 2.3898861 4.0556021
1.5743272 2.38188 4.0729389
1.6120763 2.3764107 4.0776839
1.6619176 2.3830147 4.0746641
1.7730703 2.372438 4.0718522
1.812754 2.3796892 4.0723062
1.8607547 2.3825994 4.0607595
-3.5665026 2.4105451 4.084547
-3.5285327 2.4026761 4.0913491
-0.58417118 2.4248917 4.07622
-0.51783657 2.4210844 4.0764818
-0.46339601 2.421402 4.0819368
-0.41857919 2.4146583 4.0741048
-0.38621062 2.4161453 4.0790429
-0.32091758 2.4160881 4.0831881
-0.26634145 2.4144845 4.083396
0.027208958 2.4160542 4.080894
0.081589416 2.4137506 4.0880513
0.12451918 2.4030073 4.0690413
0.15707549 2.4044547 4.0706658
0.22288416 2.4135873 4.0838304
0.2765547 2.407778 4.0715394
0.31976318 2.4065957 4.0671649
0.37456432 2.4103925 4.0700946
0.42942527 2.4136167 4.0715342
0.54826206 2.4104955 4.0554886
0.5607686 2.4068415 4.0714598
0.72145987 2.4259598 4.0773029
4.0343199 1.6291063 4.1067853
4.0343766 1.6667962 4.1477137
-3.634856 2.3410735 4.1016564
-3.5615144 2.3278091 4.1191106
-3.5222149 2.3456576 4.1108322
-3.4807725 2.3442903 4.1378369
-3.55688 2.3511999 4.1005378
-3.5262644 2.3747423 4.1022372
-3.4788246 2.3810768 4.1263556
-3.4269416 2.3842559 4.1443257
0.092545919 2.3941641 4.1011186
0.11537711 2.3946075 4.1485929
0.44514281 2.3962858 4.134912
1.2625028 2.3796928 4.1262474
1.6299268 2.3798344 4.133235
1.7370441 2.3856342 4.1101131
1.8143356 2.3889899 4.1467552
-3.5034323 2.4035194 4.1126752
-0.50078112 2.4222481 4.1273437
-0.43369037 2.4164205 4.1230059
-0.38805741 2.4058263 4.1081982
-0.32344675 2.4133329 4.1252418
0.071160406 2.4068341 4.1231451
0.13662417 2.4039829 4.1170335
0.17003413 2.4129181 4.1314154
0.23575574 2.4121811 4.127748
0.2783584 2.4015713 4.1075621
0.3229287 2.4082758 4.116643
0.35628366 2.4118893 4.1208081
0.4336732 2.4048228 4.1268654
0.48704407 2.4081151 4.1042914
0.52184129 2.4059854 4.1212492
0.55602556 2.4005625 4.1323333
0.69509548 2.4471211 4.1492596
0.71184969 2.4173303 4.1195893
1.19491 2.4016013 4.1307054
-1.3525066 0.061912004 4.169013
-3.4204183 2.3389542 4.1666889
-3.3737752 2.333894 4.1856699
-3.3245616 2.3399477 4.1940546
-3.2734206 2.3444579 4.1991844
-3.4079733 2.3656995 4.1639781
-3.3748374 2.3739665 4.1675987
-3.3306789 2.3717442 4.178309
-3.2762718 2.3856142 4.1836243
-3.2453294 2.3950136 4.1884861
1.1764501 2.3872156 4.1595802
1.7139771 2.3783777 4.1593013
1.7897038 2.3870497 4.1513577
-3.327997 2.4078372 4.1660004
-3.2772484 2.4254482 4.1652479
-0.47090906 2.4164433 4.1678176
-0.4283402 2.4263029 4.1884012
0.016661838 2.4196086 4.1692066
0.28299278 2.4192162 4.1853247
0.31544465 2.4129195 4.1726751
0.37085193 2.4133129 4.1699553
0.40471539 2.4173701 4.1746764
0.52710199 2.408082 4.1724854
0.6812045 2.4293568 4.1808357
0.71682745 2.4009104 4.1629782
1.1771221 2.4111202 4.1520181
-1.3013393 0.041664355 4.2165766
-1.2731895 0.031384837 4.2327662
-1.2429217 0.020975795 4.2422676
-1.3538924 0.062927999 4.2422948
-1.3207742 0.062837914 4.2433405
-1.2889284 0.062805839 4.2481184
-2.280628 0.24346474 4.222281
-2.2289221 0.24262795 4.2252207
-2.199218 0.24298041 4.2441502
-2.2636929 0.26486278 4.2147207
-2.2296169 0.27252898 4.2336068
-3.3110354 2.3265746 4.2088084
-3.2755454 2.3199117 4.2144551
-3.2373657 2.3347604 4.2247825
-3.1728528 2.3373833 4.2465048
-3.2276943 2.3774197 4.208221
-3.1769552 2.3794224 4.2332568
-3.1302056 2.3864706 4.2414818
1.1894865 2.3908911 4.21557
-3.1583257 2.4141185 4.215086
-3.072793 2.4098387 4.2321744
0.20686482 2.4150314 4.2297087
0.34190494 2.4214292 4.2344546
0.38518628 2.411731 4.214642
0.47454426 2.4120209 4.2083731
0.67305154 2.4225681 4.2233109
0.91911554 2.4086087 4.2304587
1.1454438 2.4167893 4.2207375
1.1579866 2.4078155 4.2276497
-1.267634 0.041912794 4.2511258
-1.2313585 0.034908801 4.2528272
-1.4174149 0.085152179 4.2986598
-1.3767264 0.084600762 4.2781534
-1.3247564 0.083972938 4.2558317
-1.2757283 0.076766767 4.2531333
-1.228551 0.073362589 4.2683549
-1.3767934 0.11304048 4.2896852
-1.3308759 0.12245776 4.2820611
-1.2783546 0.12885912 4.2644768
-1.2239816 0.12282919 4.2611198
-1.1858574 0.13599226 4.2719707
-1.3038815 0.16912077 4.295403
-1.2611902 0.17512073 4.2768159
-1.2197913 0.17817849 4.2740107
-1.1851647 0.17768922 4.2684202
-2.1679809 0.24317229 4.2599983
-2.1223054 0.24297765 4.2728405
-2.091326 0.2432092 4.2888227
-1.2213349 0.21747635 4.2911687
-1.1911124 0.22058973 4.2885017
-2.204134 0.26562193 4.2526631
-2.1725392 0.27685905 4.2674546
-2.1361346 0.26538268 4.2735744
-2.0929346 0.26548707 4.2911668
3.9765966 2.2665284 4.2871146
-3.1158886 2.3335662 4.2724876
-3.0250978 2.3373499 4.2846999
3.9752932 2.3217311 4.2593627
-3.1108916 2.3676026 4.2578721
-3.0719795 2.36853 4.2711926
-3.0203011 2.3832977 4.2750154
-2.9714081 2.3871214 4.2880063
0.34486353 2.3971314 4.2900071
1.1557136 2.3924346 4.2783289
1.2726068 2.3960519 4.2599287
-3.0381114 2.4010181 4.2572498
-2.9212315 2.415441 4.2860589
-2.8767674 2.423209 4.2930102
-2.7588158 2.4366977 4.2805133
-2.7368562 2.4397178 4.2994995
-2.6984484 2.4279952 4.2922502
-2.6092677 2.4407532 4.2973361
0.14148903 2.4216301 4.2924676
0.29842848 2.4099321 4.2657452
0.3434881 2.4101059 4.2635469
0.38879117 2.4117515 4.2635937
0.63536662 2.428 4.2873502
0.67200166 2.4156487 4.2778378
0.8886649 2.4132717 4.2779446
0.92106658 2.4032104 4.2887721
1.1360011 2.4224458 4.2855816
1.3346009 2.4040072 4.2605596
-1.51998 0.086171404 4.3291802
-1.4811239 0.085778862 4.3174267
-1.4419754 0.085353866 4.303791
-1.5103539 0.11517683 4.3455968
-1.4693825 0.1177915 4.3163462
-1.4340422 0.12285678 4.3136549
-1.3823611 0.14376533 4.3122678
-1.5033813 0.16189671 4.3468862
-1.4688457 0.16482808 4.3363242
-1.4281093 0.1642483 4.3294721
-1.3762558 0.18229011 4.3458872
-1.3375665 0.19204718 4.3311281
-2.3600652 0.20523928 4.345633
-2.3331897 0.22647853 4.3205566
-2.2824831 0.22591186 4.32763
-2.2284346 0.22498906 4.3272676
-2.1934597 0.22484306 4.3371277
-1.1777104 0.23255351 4.319838
-1.2125332 0.26494846 4.3239179
-1.1905401 0.26477742 4.3249564
-2.334265 0.43216112 4.336555
-2.3310192 0.46331099 4.3452544
-2.3165746 0.54694182 4.3454266
-2.3148503 0.56928819 4.340034
3.9587169 1.6643543 4.3316884
3.9751208 2.2097464 4.3110895
-3.0797884 2.3356214 4.3003397
-3.0065405 2.3190861 4.3009391
-2.9665625 2.3308749 4.3156691
-2.9268317 2.3428271 4.3303804
-2.8976181 2.3399935 4.3396935
3.9478333 2.3103058 4.3489118
3.9628904 2.3027439 4.3121586
-2.9551361 2.3706613 4.3074646
-2.9176111 2.3852034 4.314456
-2.880234 2.3740592 4.3331733
-2.8441074 2.3896122 4.3414373
0.88245505 2.3997557 4.3406129
0.90199423 2.3904059 4.3201685
1.1371551 2.3787034 4.3094268
-2.8713121 2.4166136 4.3174624
-2.8200972 2.4179084 4.3242259
-2.7512262 2.4269769 4.3341446
-2.6550543 2.4345269 4.3300786
-2.6268461 2.4318604 4.3381634
-2.5860333 2.4425449 4.3131146
0.21840782 2.4229636 4.3257518
0.31257749 2.4095631 4.3141642
0.38225752 2.407907 4.3323259
0.63685691 2.4215961 4.3349051
0.88061178 2.4177771 4.3219829
1.1218032 2.4184773 4.3341928
-2.5346541 2.4666824 4.3241582
-2.433732 2.4536471 4.3426442
-2.7522159 0.036030222 4.3738112
-2.7273321 0.036000762 4.3828583
-2.6843929 0.024136931 4.3868909
-2.7207837 0.082930826 4.3718095
-2.6835043 0.082851201 4.3848886
-2.4018929 0.069306701 4.3745646
-2.3736773 0.080573007 4.3737836
-2.33372 0.084300078 4.3852239
-2.2842581 0.080213591 4.3867803
-2.2494884 0.091574088 4.3982134
-2.7234173 0.11830752 4.3754077
-2.6852281 0.11816035 4.3870678
-2.3821399 0.12618689 4.3629503
-2.3333161 0.12599428 4.375073
-2.2821851 0.12567818 4.3819818
-2.2476366 0.11426078 4.3941894
-1.529561 0.1299562 4.3557048
-2.3739464 0.16776192 4.3553677
-2.3303754 0.17142883 4.3684044
-2.278235 0.17371166 4.3888555
-2.2498057 0.15993944 4.3973699
-1.5307927 0.1793967 4.3747168
-1.4733164 0.1945149 4.360158
-1.4274306 0.19413748 4.3616581
-1.3931276 0.19385517 4.3625574
-2.3314221 0.20570779 4.3692822
-2.2753932 0.2057706 4.3928509
-2.2234557 0.20516978 4.3972631
-2.1666515 0.22554407 4.3630562
-2.1430125 0.22660069 4.3957124
-1.5213588 0.21836099 4.397223
-1.4792253 0.22476161 4.3882594
-1.4238601 0.22762412 4.3851681
-1.3751181 0.22310328 4.3773036
-1.3276714 0.23671502 4.3716984
-1.3331406 0.25928169 4.3888674
-1.2693212 0.27869582 4.3648186
-1.1879667 0.29851255 4.354795
-2.0918565 0.33872268 4.3935509
-1.2209032 0.344419 4.3905377
-1.1967739 0.32219496 4.3860445
-2.2291245 0.38617241 4.3728909
-2.1138799 0.3611964 4.3834391
-2.3167753 0.43312865 4.3552618
-2.2796011 0.42117289 4.3633633
-2.2265484 0.4232913 4.3812685
-2.1865757 0.4207418 4.3927784
-2.3166449 0.47864562 4.3514996
-2.2749596 0.46938342 4.3665862
-2.2222397 0.46519914 4.3909893
-2.1766994 0.45512116 4.3973713
-2.3216071 0.51389587 4.3579335
-2.2753839 0.52516454 4.3732729
-2.2177789 0.52500713 4.3933196
-2.2765658 0.58249438 4.3702455
-2.2311473 0.58252966 4.3877974
-2.316607 0.62135905 4.3907361
-1.3903899 0.69820142 4.3920369
-1.4110353 0.73031777 4.3799796
-1.3832096 0.73460865 4.3898044
-1.3796551 0.77463132 4.3860235
-1.3293917 0.77229768 4.3604217
-1.3667303 0.80617642 4.3779383
-1.3438859 0.80553484 4.3790894
-2.6723123 0.9487915 4.3633871
-2.717485 0.96409154 4.3599501
-2.6684642 0.97541296 4.3780003
-2.6487072 0.99622792 4.3664727
-2.7275858 1.0154446 4.3677998
-2.682188 1.0187497 4.3851609
-2.6321154 1.0345868 4.3828878
-2.7336168 1.065536 4.3685975
-2.6832733 1.0645182 4.387289
-2.6272068 1.0849925 4.3911123
-2.7511666 1.1036785 4.3647442
-2.7193811 1.1197281 4.3773265
-2.6743019 1.113567 4.3886395
-2.718473 1.1650161 4.3752937
-2.6814158 1.1645384 4.3907232
-2.7216353 1.2144539 4.3701987
-2.6774094 1.2183601 4.3901
-2.7334015 1.2679822 4.3783998
-2.6823027 1.2666212 4.3968706
-2.7280869 1.3196237 4.3732901
-2.6794519 1.311409 4.390625
-2.7260859 1.3669584 4.379847
-2.6801012 1.3560109 4.399219
-2.7630424 1.4097461 4.3683786
-2.7252855 1.4211886 4.3810525
-2.6860578 1.4075472 4.3970995
-2.7342162 1.4745908 4.3827376
-2.7561665 1.5287423 4.3790665
-2.7153893 1.5264013 4.3904142
-2.7247288 1.5806653 4.39182
-2.7316501 1.6338012 4.3887291
3.9366126 1.6391897 4.367959
-2.735981 1.6733057 4.3846879
-2.7552133 1.7145325 4.3781419
-2.735157 1.7174015 4.3978233
3.9472651 1.7257669 4.3521032
-2.7470052 1.7868682 4.3971357
-2.7513919 1.827003 4.3918357
-2.7608678 1.8707058 4.3943038
-2.7306166 1.8795233 4.3939409
-2.76139 2.0265565 4.3982339
-2.728127 2.0330746 4.3932242
-2.7422857 2.0940855 4.3967476
-2.7468672 2.1228564 4.3941946
-2.7604856 2.1841764 4.3955855
-2.7638798 2.2122915 4.3905282
-2.7264955 2.2263577 4.3951678
-2.7764392 2.2862082 4.3834209
-2.7320449 2.273319 4.3861923
-2.6812558 2.2577283 4.3975463
3.9465513 2.2813904 4.360539
-2.9082191 2.3227441 4.3671813
-2.8736725 2.3285284 4.3624039
-2.8268685 2.3345652 4.3649387
-2.7670817 2.3273857 4.378767
-2.7291501 2.3277087 4.3992987
-2.8237724 2.3697729 4.3536339
-2.7720847 2.3700352 4.3694954
-2.7229519 2.3723528 4.3884807
-2.6760833 2.3771188 4.3994179
-2.7763457 2.4121675 4.3586302
-2.7152698 2.4157708 4.3748851
-2.6687062 2.4207468 4.3862882
-2.613081 2.4298782 4.375947
-2.5684805 2.436481 4.3776522
-2.5228238 2.441771 4.3768711
-2.4395792 2.4470215 4.3929286
0.44136834 2.4076126 4.3530712
0.58312857 2.4251518 4.3727746
0.62286997 2.4299471 4.3775039
0.867939 2.4236338 4.3872876
1.1070062 2.4136362 4.3818197
-2.4858673 2.4554014 4.3905344
-2.2056875 2.4614761 4.3922448
-2.6484959 0.047602415 4.4017382
-2.6535769 0.08299455 4.4097486
-2.2529328 0.068898693 4.4052653
-2.219964 0.080321349 4.4200964
-2.166316 0.09139695 4.4198227
-2.1324635 0.091395289 4.4322114
-2.2533038 0.13736844 4.4047809
-2.2167478 0.12581505 4.4128666
-2.1698689 0.1257215 4.4264193
-2.1359737 0.12573074 4.4388733
-2.2163901 0.1713748 4.4110065
-2.1702878 0.17131741 4.4261618
-2.1381311 0.17146835 4.442234
-2.2044611 0.20551045 4.4129891
-2.1679406 0.20527449 4.4203005
-2.1363182 0.2168918 4.4370117
-1.4763705 0.23993969 4.4023848
-1.5075939 0.26338911 4.4242916
-1.4878561 0.27479053 4.4354014
-1.4266812 0.27356276 4.4281659
-1.3826071 0.2764146 4.4239058
-1.3435019 0.28305632 4.42206
-1.3822531 0.31428543 4.4459891
-1.3414078 0.32784936 4.4385428
-1.2910695 0.33798844 4.4371719
-1.2237835 0.34522617 4.4007835
-1.1800447 0.33426836 4.4070787
-2.1194882 0.37547535 4.4217701
-1.3528038 0.35074684 4.4494624
-1.2165875 0.38345793 4.4275236
-1.1818732 0.37799212 4.411541
-2.1624329 0.41739035 4.4072456
-2.1415045 0.42304444 4.4370384
-1.2137507 0.42476505 4.4426317
-1.1870975 0.41216362 4.4290824
-2.1645699 0.47092915 4.4077239
-2.13398 0.47255561 4.4362569
-2.173485 0.52531219 4.4124184
-2.1364238 0.51121825 4.4382744
-2.2130053 0.58377147 4.4054699
-2.1777325 0.58349961 4.4157887
-2.1466405 0.57288384 4.4355807
-2.2935944 0.62447828 4.4261017
-2.2208071 0.62346911 4.4446926
-1.376369 0.66925544 4.4252863
-1.3346571 0.68132633 4.4404049
-1.3989953 0.8122676 4.4062576
-2.6251099 1.1249439 4.4062119
-2.6573248 1.1644896 4.4017696
-2.6245232 1.1680901 4.4142346
-2.5790749 1.1975319 4.416358
-2.6618149 1.2025095 4.4017391
-2.6238275 1.2136174 4.4125004
-2.5714674 1.2235411 4.4241304
-2.6312408 1.2652338 4.4145479
-2.5844252 1.2679212 4.4290938
-2.6354184 1.3155007 4.4106536
-2.5827532 1.3132285 4.4249811
-2.5477402 1.3258255 4.4402013
-2.6661966 1.3732992 4.4065557
-2.6222055 1.369449 4.4287958
-2.5695176 1.3671699 4.4432583
-2.6741164 1.4259644 4.407609
-2.6264787 1.4202126 4.4241524
-2.5747817 1.4184446 4.4406381
-2.5354161 1.4288434 4.4484549
-2.7016184 1.4889078 4.4036951
-2.6827939 1.4712335 4.4115105
-2.6292968 1.4703426 4.4165239
-2.5789294 1.4692845 4.4355922
-2.5398834 1.4677515 4.4471536
-2.6665432 1.5263644 4.4137707
-2.6199691 1.5293425 4.4304237
-2.5801165 1.5168902 4.4348183
-2.5447984 1.5070369 4.4463663
-2.674403 1.5798461 4.4132495
-2.622191 1.577862 4.4306483
-2.5834885 1.5765951 4.4439349
-2.6822481 1.6336008 4.4121022
-2.6324732 1.633153 4.4340944
-2.5756388 1.6282325 4.4432192
-2.7042437 1.6764643 4.4111481
-2.6675141 1.6765888 4.4292269
-2.6286113 1.67533 4.4432878
-2.598922 1.6720579 4.4459515
-2.7109461 1.7176974 4.410737
-2.671495 1.7161283 4.4245992
-2.6190267 1.7140529 4.4424744
3.9143608 1.707832 4.4286966
-2.7281001 1.7687817 4.4068251
-2.6789494 1.7704262 4.4214549
-2.6229696 1.7660384 4.4339104
-2.7173176 1.8304977 4.4053774
-2.6793919 1.8189211 4.4163241
-2.6309247 1.8209445 4.4315028
-2.7067339 1.8801811 4.4078903
-2.6726701 1.8836948 4.4211617
-2.6212194 1.8734564 4.4369817
-2.7295089 1.9248126 4.4054208
-2.6754489 1.9343359 4.4188108
-2.6251588 1.9340105 4.4419355
-2.7559781 1.9723284 4.4081354
-2.7222469 1.9660931 4.4067688
-2.6840935 1.9781321 4.4197493
-2.6303773 1.9753447 4.4375858
-2.5881395 1.9841995 4.4425583
-2.7124691 2.0171347 4.4095302
-2.6674509 2.0220325 4.4321313
-2.6200399 2.0145168 4.4336691
-2.5979967 2.0293281 4.4459505
-2.7733595 2.0732515 4.4029279
-2.7215559 2.0742693 4.4053111
-2.6698582 2.0741467 4.417388
-2.6188262 2.0735095 4.4401922
-2.5762992 2.0821221 4.4448104
-2.725673 2.1260102 4.413559
-2.6809559 2.1206212 4.4211884
-2.6426363 2.1202276 4.4388118
-2.7600541 2.1584411 4.4051785
-2.7145641 2.1651955 4.4072828
-2.6674442 2.1688092 4.4274158
-2.6374717 2.1642032 4.4426208
-2.7048426 2.2055652 4.4030614
-2.6647072 2.216449 4.4131694
-2.6213145 2.2232127 4.4390945
-2.7841609 2.2541411 4.4120326
-2.7245429 2.2982411 4.4029493
-2.6786995 2.2868867 4.4224143
-2.6250529 2.2766132 4.435359
-2.5813951 2.2717276 4.4440498
-2.704042 2.3280857 4.4130278
-2.6754251 2.3254209 4.4207816
-2.631346 2.3330588 4.4243236
-2.5922079 2.332221 4.4411755
-2.7035398 2.3532345 4.4010005
-2.6757157 2.3512325 4.4101276
-2.6365376 2.3759928 4.4163427
-2.5807638 2.3716342 4.4328961
-2.5340633 2.3886378 4.4474206
-2.6526425 2.4045742 4.4041958
-2.6251891 2.4028316 4.4136176
-2.5844071 2.4132888 4.4221773
-2.5206168 2.4263458 4.423831
-2.4736967 2.4303777 4.4314294
-2.4296253 2.4370847 4.4434786
-0.41232398 2.4400687 4.4142194
0.59194326 2.4383559 4.4484229
0.61164641 2.4352045 4.4143295
0.85819322 2.42453 4.4258671
1.0945863 2.4144704 4.4404659
1.1121812 2.4013698 4.4119768
-2.4197795 2.4524961 4.4141259
-2.2221353 2.4547789 4.4361944
-2.1203809 2.4634061 4.4298553
-2.1968753 0.069261752 4.4550676
-1.5171766 0.28713354 4.4514661
-1.4693104 0.28639668 4.4502506
-1.5090791 0.33436468 4.496058
-1.4723219 0.32129601 4.47577
-1.4192886 0.3233788 4.4639759
-2.1228545 0.38952252 4.4559374
-1.4227493 0.35453591 4.485734
-1.3779614 0.3804017 4.4843817
-1.3237661 0.37879065 4.4752846
-1.2759998 0.38356978 4.4623737
-2.1262159 0.424537 4.4607153
-1.3334842 0.42074221 4.4978981
-1.2815201 0.4267737 4.4927545
-1.2420099 0.4269948 4.4618998
-1.1951556 0.43679371 4.4577341
-2.1260557 0.45888484 4.4579334
-1.2323306 0.46027818 4.4662237
-2.1268966 0.52786934 4.4541993
-1.4606543 0.53343296 4.4808698
-1.4414207 0.51226985 4.4968433
-2.1338644 0.5756343 4.4646511
-2.2696769 0.62742615 4.4601007
-2.1751275 0.62358809 4.4621005
-2.1438632 0.6245507 4.4811225
-1.3819637 0.62759805 4.4732466
-1.3390033 0.63945532 4.4593401
-2.3317163 0.66506743 4.4872193
-2.2757916 0.65574741 4.4969192
-2.3275239 0.71308941 4.491919
-2.5481424 1.2778293 4.4517093
-2.5228627 1.3699137 4.4576283
-2.4845612 1.3790377 4.4764919
-2.5173411 1.4116074 4.4559569
-2.4719641 1.4150178 4.4719825
-2.4214637 1.4137464 4.4880409
-2.3842657 1.425233 4.4979887
-2.5163872 1.4681838 4.4590454
-2.4780314 1.4670078 4.4710054
-2.4259157 1.4647673 4.4844713
-2.3876047 1.4635129 4.4954467
-2.5531836 1.5363849 4.4545689
-2.5245898 1.5216529 4.4610171
-2.4842615 1.5192707 4.4697914
-2.4321551 1.5170753 4.4837151
-2.3924232 1.5028133 4.4954305
-2.5591583 1.5766459 4.4550486
-2.5220957 1.5763624 4.4703898
-2.4714339 1.5766824 4.4778752
-2.4353366 1.5662082 4.4870243
-2.5268121 1.6282773 4.4651556
-2.47557 1.6267407 4.4821072
-2.4212921 1.623111 4.4925747
-2.5664983 1.6886735 4.4565148
-2.5307202 1.6784654 4.4681811
-2.4805436 1.6790184 4.4771128
-2.4400611 1.6764486 4.4858375
-2.5709524 1.7271819 4.4633775
-2.5200126 1.7396525 4.4683061
-2.475616 1.7331754 4.4811721
-2.4496932 1.7199086 4.492805
-2.5763831 1.7679238 4.4614086
-2.5190518 1.7746801 4.4655981
-2.4656074 1.7828239 4.4860425
-2.4222507 1.7893184 4.4965138
-2.5834317 1.8223462 4.4579182
-2.5300763 1.8195767 4.4734335
-2.4771316 1.8181139 4.4782329
-2.4351757 1.8256961 4.4915962
-2.5770445 1.8762984 4.4577312
-2.5310686 1.8698312 4.459126
-2.4817138 1.8699338 4.4811535
-2.4436555 1.8691986 4.4953384
-2.5712838 1.930981 4.4581103
-2.5177498 1.9281065 4.4738522
-2.4715385 1.9317335 4.49125
-2.5649271 1.9855131 4.4570465
-2.5182798 1.9773802 4.4682765
-2.4707549 1.9800419 4.4835176
-2.4318385 1.9787296 4.4965935
-2.5784817 2.0336721 4.4671135
-2.5347815 2.0171347 4.4672675
-2.4778457 2.0231628 4.4831934
-2.4405761 2.023299 4.4996853
-2.5667546 2.0719991 4.4604564
-2.5255051 2.0627673 4.4734507
-2.4820969 2.0718243 4.4851632
-2.4454036 2.0523298 4.4996624
-2.6202474 2.1351583 4.4507623
-2.5790915 2.1324215 4.4627991
-2.5217054 2.1265528 4.4734983
-2.4704535 2.1257086 4.4940381
-2.5842874 2.1746435 4.4570999
-2.5277672 2.1815248 4.4758019
-2.4777715 2.1824641 4.4880943
-2.6043642 2.2062426 4.4538851
-2.576328 2.2166028 4.4560099
-2.5400684 2.2186136 4.4654865
-2.4816692 2.2238021 4.4803047
-2.5537148 2.2696676 4.4518623
-2.5186243 2.2727127 4.4633503
-2.4826012 2.2621968 4.47791
-2.4405501 2.270731 4.4932532
-2.5678449 2.3332167 4.4551201
-2.5268819 2.3306675 4.4679251
-2.4695072 2.3245664 4.4791498
-2.4311047 2.3369503 4.4900298
-2.3715045 2.3282652 4.4950161
-2.5160449 2.3706598 4.460856
-2.4743991 2.3800807 4.4663982
-2.4185362 2.3751779 4.4796152
-2.3840549 2.3914745 4.4974117
1.0976712 2.3975298 4.4625707
-2.4594407 2.4160717 4.451458
-2.41659 2.4240329 4.4655476
-2.3687582 2.426971 4.4814091
-0.63305008 2.4383731 4.4975338
0.61480248 2.4126246 4.4512968
0.8345089 2.42693 4.478786
0.85328847 2.4013433 4.4546876
-2.2286181 2.4631834 4.4848623
-2.1747265 2.4577703 4.4614177
-2.1334949 2.4535992 4.4682579
-2.0798321 2.4617352 4.473597
-2.0275087 2.4588532 4.4864464
-0.55986118 2.4524744 4.477499
-2.1080613 0.18623382 4.5476079
-2.108963 0.23279549 4.5480013
-2.1067421 0.34863451 4.5378571
-2.1281857 0.38320792 4.524344
-1.4797075 0.36878908 4.5140553
-1.4308708 0.37883344 4.5101066
-2.1395593 0.42018008 4.5463061
-1.4720789 0.40325338 4.5255232
-1.4279572 0.42472827 4.523243
-1.3809189 0.43027532 4.5115504
-1.32514 0.44378102 4.507834
-1.4139245 0.46969217 4.5262012
-1.366745 0.4688375 4.5273395
-1.3168561 0.46695691 4.5181694
-1.277984 0.46494499 4.5052128
-2.1414413 0.52558231 4.5424252
-1.4140471 0.52797467 4.5094519
-1.3821781 0.52625138 4.5348897
-2.1427932 0.57262385 4.5412264
-2.1375163 0.6178931 4.5256257
-2.3218768 0.68239838 4.5026846
-2.274122 0.68216038 4.5185986
-2.2210805 0.66859472 4.5245175
-2.184319 0.65636265 4.5347958
-2.3020539 0.73059285 4.5132966
-2.2730565 0.7162236 4.5238419
-2.2223949 0.71448904 4.5411549
-2.3184237 0.76745963 4.513526
-2.2701807 0.76708186 4.5288463
-2.2209475 0.76634884 4.5415583
-2.3093085 0.81559807 4.5171247
-2.2727475 0.81518167 4.5279522
-2.225481 0.82104361 4.5440388
-2.1849499 0.82502496 4.5450659
-2.3098369 0.85123384 4.5133638
-2.2753732 0.87523818 4.5250812
-2.2287612 0.87927735 4.5371847
-2.1908302 0.88629854 4.549262
-2.2783885 0.93559384 4.5224156
-2.233953 0.93678308 4.545485
-2.1937919 0.93481433 4.5485201
-2.2707858 0.9847672 4.5278301
-2.2340455 0.98424065 4.5383339
-2.2647326 1.0348601 4.5360217
-2.2273798 1.0221763 4.5474548
-2.263752 1.0798782 4.5359702
-2.2307618 1.0832293 4.5442443
-2.2601457 1.1336446 4.5382972
-2.2253582 1.1281432 4.5444298
-2.260808 1.1697738 4.5329299
-2.2412269 1.1839645 4.5480156
-2.2337363 1.2360331 4.5416875
-2.265523 1.2883658 4.5388741
-2.2462943 1.2705185 4.541573
-2.3028803 1.3475091 4.525331
-2.2626133 1.3330044 4.5330925
-2.3531618 1.3849025 4.5027504
-2.3169255 1.3848131 4.5165005
-2.269999 1.3855436 4.5371084
-2.2331331 1.397101 4.5461874
-2.3714759 1.4127204 4.5042758
-2.3169796 1.4314727 4.5156283
-2.2780774 1.4322615 4.5334454
-2.239501 1.4493903 4.5478859
-2.3639331 1.4638195 4.5060463
-2.3323421 1.4682537 4.5189538
-2.2741301 1.4670767 4.5369115
-2.3805852 1.5217247 4.5059013
-2.3345947 1.5166907 4.521615
-2.2851288 1.5160385 4.538312
-2.2468405 1.5147326 4.5480146
-2.4069495 1.5729065 4.5068474
-2.3689382 1.5719236 4.5187464
-2.3188064 1.5709492 4.5350566
-2.2801683 1.5694759 4.5447741
-2.372483 1.6230785 4.5123754
-2.3232965 1.6227783 4.5308199
-2.2705486 1.6199335 4.5415454
-2.4192843 1.6789968 4.5028458
-2.3817239 1.6783974 4.5162377
-2.3289649 1.6756649 4.5283265
-2.2814677 1.6696163 4.54141
-2.415205 1.7338758 4.5088363
-2.3749661 1.7314099 4.5174608
-2.3339801 1.7282915 4.5240192
-2.2979565 1.7288296 4.5397825
-2.4073987 1.7740482 4.5112758
-2.3705561 1.7874395 4.5120049
-2.3248143 1.7810094 4.5325522
-2.2792344 1.7823906 4.5462751
-2.4105263 1.8256925 4.5018992
-2.3703308 1.823216 4.5109339
-2.3256907 1.8268051 4.5395226
-2.2857409 1.8244517 4.5480728
-2.4163728 1.8672254 4.5009918
-2.379549 1.8674229 4.5167274
-2.3297639 1.8671068 4.5358648
-2.2938159 1.880379 4.5486994
-2.4530246 1.913631 4.5003619
-2.4177253 1.9284555 4.5047154
-2.3728213 1.9229794 4.528698
-2.3253212 1.9106973 4.5443549
-2.2938144 1.9051187 4.5407772
-2.4079254 1.9795134 4.5088406
-2.3711271 1.9799385 4.5252085
-2.3244755 1.9831945 4.5401602
-2.4159462 2.0235693 4.5108604
-2.3780026 2.0231342 4.525425
-2.3263319 2.0340972 4.537818
-2.4506197 2.0817893 4.5001693
-2.4196415 2.0755141 4.5219564
-2.3834541 2.0647769 4.5336628
-2.3352621 2.0794663 4.5419817
-2.2939475 2.0760608 4.5494485
-2.4196291 2.1252127 4.5146132
-2.3690739 2.1249442 4.5350022
-2.3273337 2.1212521 4.5423884
-2.2791998 2.1111901 4.5478077
-2.4275231 2.1826167 4.5102634
-2.3732657 2.1790771 4.5241656
-2.3262327 2.1824422 4.5397091
-2.4339056 2.2262957 4.5074244
-2.3792505 2.2224476 4.5210114
-2.3212836 2.2277317 4.5337658
-2.2881989 2.2324181 4.5465822
-2.412225 2.2676535 4.509923
-2.3749652 2.268328 4.527266
-2.334712 2.2661057 4.5384998
-2.2945309 2.2765329 4.5443711
-2.4175453 2.3232579 4.5106339
-2.3625052 2.3190899 4.5240049
-2.3189948 2.3263557 4.5355697
-2.2990737 2.3063872 4.5432744
-2.3650413 2.3724451 4.5078073
-2.3202472 2.3784847 4.5287538
-2.2738235 2.3828993 4.546104
-2.320652 2.4170735 4.5134192
-2.2667446 2.4264891 4.5224323
-2.2180631 2.419935 4.5382085
-2.1776078 2.4378586 4.5266309
-2.1328392 2.4421124 4.5088434
-2.0703914 2.4426246 4.5328636
-2.0287082 2.437907 4.5375166
-1.9335635 2.4380815 4.5066223
1.0768471 2.4187477 4.5358019
-2.2202835 2.4553559 4.5041575
-2.1911724 2.4510841 4.5061746
-2.1149125 2.4504905 4.5336943
-2.0749114 2.4582734 4.5001006
-2.0016415 2.4606454 4.5312114
-1.9786658 2.4632792 4.5447021
-0.56602585 2.4556351 4.5363684
-0.53917259 2.4656782 4.5037446
-2.1229336 0.093969017 4.5817986
-2.0812683 0.09366034 4.5786715
-2.1135004 0.12847786 4.5608001
-2.0856202 0.13255896 4.577765
-2.1097739 0.16313535 4.5519524
-2.0825117 0.17117615 4.5700097
-2.0881462 0.22142525 4.5612793
-2.0888803 0.25641593 4.5615735
-2.1157215 0.32680452 4.558444
-2.1158733 0.38513309 4.5554848
-2.0868173 0.36942726 4.5749445
-2.1216459 0.43878794 4.5645065
-2.087399 0.43310392 4.5781612
-2.1225321 0.47990182 4.5634403
-2.0658782 0.48029894 4.5864549
-2.031194 0.48039228 4.5985084
-2.1213102 0.52637988 4.5571117
-2.0754297 0.5265882 4.5742645
-2.0301583 0.52696079 4.5925083
-2.1156452 0.57477689 4.5699315
-2.0691619 0.57487285 4.5860209
-2.0329089 0.57454824 4.5947266
-2.1178219 0.62230498 4.5702224
-2.0728281 0.62287289 4.5897679
-2.1653578 0.67457718 4.560082
-2.1210399 0.67025858 4.5723624
-2.0763404 0.67098838 4.5928164
-2.0396533 0.68227136 4.5996666
-2.2099395 0.73124677 4.5515537
-2.1737375 0.71917206 4.5633488
-2.1257489 0.71885979 4.5773745
-2.0753226 0.71769243 4.5854459
-2.037359 0.71673453 4.5906525
-2.1743262 0.76650184 4.5590262
-2.1261549 0.76612377 4.5727415
-2.076983 0.76535672 4.583672
-2.0429685 0.75404185 4.5992622
-2.215378 0.8275854 4.5509958
-2.1721165 0.81823057 4.5575519
-2.1318815 0.81544495 4.579186
-2.0888691 0.81159908 4.5945745
-2.1686814 0.87507772 4.5621581
-2.1332805 0.87508327 4.5742764
-2.086076 0.8751002 4.5900507
-2.0499249 0.87478131 4.5999427
-2.1705809 0.93499196 4.5576534
-2.1245191 0.93552631 4.5763741
-2.0798998 0.93673897 4.5980072
-2.2000341 0.99677831 4.5522985
-2.1756485 0.98461396 4.5610209
-2.1235042 0.98224699 4.5791945
-2.0834138 0.98581731 4.598619
-2.2135308 1.0389509 4.5545087
-2.1673887 1.0337551 4.5650368
-2.1221054 1.0348277 4.5859752
-2.2067304 1.0831056 4.5522313
-2.1698551 1.0825028 4.5621982
-2.1248798 1.0838051 4.5839767
-2.0800674 1.0871403 4.5951495
-2.2137046 1.1462089 4.5559187
-2.1747651 1.1326389 4.5640788
-2.1307187 1.134549 4.5881629
-2.08251 1.12814 4.593586
-2.271992 1.1995453 4.5507298
-2.2170129 1.1837876 4.555974
-2.1785619 1.1823635 4.5631623
-2.1316481 1.1828029 4.5813589
-2.0876651 1.1866678 4.5947995
-2.2180154 1.2202003 4.5510726
