ply
format ascii 1.0
comment PCL generated
element vertex 1486
property float x
property float y
property float z
element camera 0
property float view_px
property float view_py
property float view_pz
property float x_axisx
property float x_axisy
property float x_axisz
property float y_axisx
property float y_axisy
property float y_axisz
property float z_axisx
property float z_axisy
property float z_axisz
property float focal
property float scalex
property float scaley
property float centerx
property float centery
property int viewportx
property int viewporty
property float k1
property float k2
end_header
0.075767912 2.4134202 3.7161946
0.12215187 2.4102349 3.7144477
0.1765815 2.4014547 3.7157011
0.21704443 2.4025953 3.7158296
-0.70526809 -0.509556 3.750314
-0.67796475 -0.50955427 3.753602
-0.95018584 -0.4589195 3.7529347
-0.91686809 -0.46525151 3.7727418
-0.87846297 -0.47285008 3.7878315
-0.82258481 -0.48147622 3.786726
-0.77074862 -0.47846916 3.7882662
-0.72598225 -0.47822198 3.7920358
-0.67286938 -0.47594622 3.7802382
-0.61865515 -0.47758424 3.7622089
-0.57422477 -0.46711254 3.7616599
-0.52349567 -0.46907935 3.7584367
-0.48427427 -0.46163338 3.7571001
-0.9213863 -0.42711604 3.7845607
-0.88371027 -0.4440757 3.7962778
-0.81629884 -0.43342888 3.7943785
-0.7647261 -0.43757254 3.7968535
-0.72130322 -0.42261234 3.7929671
-0.67364198 -0.42153823 3.7887709
-0.62458855 -0.41939649 3.7746227
-0.57763982 -0.41840622 3.7705727
-0.52432948 -0.4225263 3.7655914
-0.47814861 -0.42232275 3.7598906
-0.42386582 -0.41935247 3.7510157
-0.39194298 -0.41447619 3.7502675
-0.93559569 -0.37230968 3.7778134
-0.72174811 -0.37689912 3.7984986
-0.67303234 -0.37536588 3.7884915
-0.62125701 -0.37056637 3.7765205
-0.57769042 -0.37295485 3.7740119
-0.51904744 -0.37846965 3.7660367
-0.47493482 -0.37993005 3.7614667
-0.42857376 -0.3789317 3.7551258
-0.39192685 -0.39643732 3.7513766
-0.95187777 -0.33096015 3.768554
-0.93830311 -0.3234393 3.7916408
-0.73073936 -0.34002399 3.7985485
-0.67087376 -0.33193278 3.7921948
-0.62288058 -0.32824698 3.7814209
-0.57809901 -0.3276886 3.7793427
-0.52163291 -0.32655483 3.7712941
-0.47467998 -0.32546678 3.762743
-0.42822337 -0.32453421 3.7553046
-0.38070679 -0.32400042 3.7525063
0.38348699 -0.31567925 3.7610362
0.40258408 -0.32555196 3.7691913
-0.95511281 -0.27998894 3.7651458
-0.93938714 -0.28680253 3.7979798
-0.66297722 -0.27428171 3.7901657
-0.62432748 -0.27339104 3.7817965
-0.57791609 -0.27299166 3.781003
-0.52109289 -0.27182829 3.7702196
-0.47464857 -0.27119836 3.7652979
-0.4285619 -0.27063492 3.7610202
-0.39112544 -0.28771499 3.7500684
0.38258275 -0.26993695 3.7544324
-0.95704806 -0.22073466 3.7754102
-0.93854481 -0.20331858 3.7981021
-0.67231369 -0.2142363 3.7925682
-0.6238187 -0.21851619 3.7810059
-0.57980448 -0.22048992 3.7804539
-0.52127296 -0.22659935 3.7735014
-0.47488689 -0.22610298 3.769083
-0.42833582 -0.22541195 3.7610538
-0.37302947 -0.2246964 3.7528286
-0.95991969 -0.17442071 3.7694352
-0.93824786 -0.17551704 3.7977955
-0.80501723 -0.18391606 3.7992527
-0.67146426 -0.17350091 3.7891083
-0.62248254 -0.172599 3.7744646
-0.57423145 -0.17643349 3.7778404
-0.52157986 -0.1813693 3.7772419
-0.4743413 -0.18066062 3.7663009
-0.42816162 -0.18024464 3.7610691
-0.3789244 -0.18568556 3.7527988
-0.95969415 -0.12845565 3.7697678
-0.93808305 -0.1200317 3.7985268
-0.66927016 -0.13312046 3.7928448
-0.62307042 -0.12727237 3.7791746
-0.57690829 -0.12712631 3.7793379
-0.52099931 -0.12678641 3.7744191
-0.47409913 -0.12637185 3.7657928
-0.42777899 -0.12604098 3.7590768
-0.37487373 -0.12342853 3.7516601
-0.95979285 -0.073360391 3.7710884
-0.66275042 -0.073064059 3.7947819
-0.62368387 -0.07277979 3.7837467
-0.57685566 -0.072613403 3.7799671
-0.52088034 -0.072418548 3.7744191
-0.4743613 -0.072235368 3.7688038
-0.42763612 -0.071966529 3.7586622
-0.38177696 -0.076313034 3.7536001
-0.33630458 -0.089644775 3.7502325
-0.28222883 -0.053718716 3.7501655
-0.96036553 -0.027434841 3.7737579
-0.65389842 -0.036502101 3.7979286
-0.62401879 -0.027237039 3.7861369
-0.57665884 -0.027167426 3.7790253
-0.52080625 -0.027103087 3.7742999
-0.47365823 -0.027004791 3.7635295
-0.42778957 -0.026959857 3.760473
-0.38472319 -0.023896294 3.7534077
-0.96066576 0.018508339 3.7748652
-0.93723601 0.03706133 3.7961395
-0.65417755 0.036685847 3.7995012
-0.62443715 0.018309714 3.788718
-0.57822728 0.018291071 3.7891879
-0.5206399 0.018179532 3.7731144
-0.47405061 0.018133445 3.7666957
-0.42762539 0.018063961 3.7589123
-0.39064521 0.0090377461 3.7524445
-0.96136189 0.073738217 3.7771108
-0.93806291 0.064821348 3.7992151
-0.62474853 0.073038287 3.7901065
-0.57734543 0.072813392 3.7829225
-0.52038687 0.072486646 3.7708795
-0.47438154 0.07236921 3.7688496
-0.42754015 0.072086506 3.7577639
-0.390504 0.08087232 3.7504809
-0.33635822 0.089774117 3.750715
-0.96468866 0.13147913 3.7730091
-0.67302674 0.1282981 3.7991319
-0.62383586 0.12760006 3.7835791
-0.57705033 0.1273181 3.7801654
-0.52093053 0.12692656 3.7737782
-0.47451827 0.12663445 3.7689741
-0.42788878 0.12619914 3.7598016
-0.37642512 0.12946546 3.7532792
-0.96012694 0.17471302 3.7700262
-0.65430397 0.16482602 3.7979212
-0.62481028 0.17340949 3.7882712
-0.57788604 0.17301024 3.7844188
-0.52132761 0.18142588 3.7751722
-0.47446871 0.18083937 3.7670581
-0.42783341 0.18023732 3.7578833
-0.37745473 0.17084904 3.7534876
-0.96116 0.22089136 3.7723894
-0.6733824 0.23832212 3.7975793
-0.62435627 0.2188621 3.783963
-0.57690841 0.21813907 3.7763798
-0.52078825 0.22653671 3.7696898
-0.47471088 0.22616211 3.7674179
-0.42836905 0.22555868 3.7609329
-0.36831862 0.22020079 3.7508645
-0.96069759 0.27596429 3.7681382
-0.93938321 0.2592904 3.7989242
-0.67358446 0.25672534 3.7979207
-0.62453872 0.27363649 3.782671
-0.57759786 0.27300772 3.7786179
-0.52180916 0.27236497 3.7749951
-0.47500882 0.27154085 3.7677796
-0.42869297 0.27085578 3.7618501
-0.37710589 0.28092518 3.7545929
-0.96259707 0.32745397 3.7652919
-0.67293894 0.34805089 3.7894132
-0.62537932 0.3287954 3.7848644
-0.57783228 0.32771227 3.777209
-0.52217466 0.32704762 3.7748079
-0.47485909 0.32574502 3.7637141
-0.42884025 0.32515118 3.7603922
-0.37622786 0.32678211 3.7569134
-0.33104244 0.31170717 3.7507029
-0.96255481 0.37300578 3.7774169
-0.62554812 0.37455922 3.7831171
-0.57840055 0.3736029 3.7781579
-0.52207386 0.37920925 3.7708826
-0.47553012 0.38056812 3.7656918
-0.42892313 0.37939808 3.7576599
-0.38580146 0.37844881 3.7512767
-0.96370149 0.42441157 3.770654
-0.94113088 0.41741878 3.7965076
-0.67558235 0.44135076 3.7979276
-0.62504721 0.4211207 3.788096
-0.57960963 0.4200227 3.7828467
-0.52311265 0.42383286 3.775259
-0.47608787 0.42636719 3.766902
-0.42974553 0.42536744 3.7616756
-0.39251253 0.42425931 3.754499
-0.96528661 0.4759219 3.7728097
-0.67612606 0.46010748 3.7995298
-0.62675047 0.47594365 3.7828357
-0.58003557 0.47512463 3.7812433
-0.5228678 0.4729948 3.7696304
-0.4764632 0.47208631 3.7662354
-0.42996204 0.4708609 3.7600877
-0.39271617 0.46962833 3.7528822
-0.96575099 0.52242166 3.7780762
-0.62909985 0.52764618 3.7813015
-0.57710642 0.5270955 3.7725663
-0.52346236 0.52820659 3.7691443
-0.47723773 0.52740306 3.7675846
-0.43027487 0.52554882 3.7579329
-0.38586989 0.52071398 3.7526104
-0.30214468 0.52332985 3.750252
-0.28405809 0.52324903 3.7506044
-0.96880358 0.57501596 3.7773664
-0.67822587 0.59074831 3.7994111
-0.61706841 0.57137293 3.7861967
-0.57311523 0.57787657 3.7875941
-0.52438146 0.57468861 3.7711499
-0.47700727 0.57259297 3.7614121
-0.42850763 0.57833618 3.7574649
-0.39371395 0.57947206 3.7523711
-0.97027272 0.62231863 3.7780986
-0.6172421 0.62201941 3.7867782
-0.57815278 0.63058054 3.778424
-0.5263359 0.62223172 3.7636194
-0.46598679 0.62077022 3.7600601
-0.42211765 0.62657005 3.7566304
-0.37963623 0.62357795 3.7526886
-0.96315354 0.67024487 3.782728
-0.61483169 0.6778968 3.7848263
-0.57422704 0.68009418 3.7837801
-0.5256381 0.67665529 3.7691061
-0.46943909 0.67474657 3.7632589
-0.42311522 0.67357439 3.7602928
-0.38211152 0.67492187 3.7559102
-0.3031978 0.65190732 3.7501917
-0.97334146 0.72674042 3.77759
-0.94914591 0.73897636 3.796109
-0.61795044 0.72093612 3.7796662
-0.57545114 0.72758758 3.7861428
-0.52695376 0.72419578 3.7729223
-0.47068337 0.72225595 3.7676907
-0.42447481 0.73052102 3.7655823
-0.37764317 0.72821206 3.7569034
-0.33170933 0.74549103 3.7527955
-0.98266828 0.77336562 3.7697439
-0.6137265 0.77546239 3.7850597
-0.57568091 0.77393937 3.781522
-0.52811104 0.77173519 3.7751474
-0.47195733 0.77004439 3.7717862
-0.42467457 0.77653521 3.7612545
-0.37816879 0.77482343 3.7562039
-0.34105355 0.77333778 3.7513618
-1.0203683 0.81843448 3.7954721
-0.6207059 0.82165897 3.7868981
-0.57662368 0.82135212 3.7812061
-0.52754843 0.8272776 3.7803679
-0.47270325 0.82633591 3.7698462
-0.425493 0.82380503 3.7619877
-0.37878579 0.81943679 3.7561071
-0.34199011 0.82106858 3.7551949
-1.0503057 0.88573408 3.7863469
-0.61884588 0.87239629 3.7914543
-0.5784902 0.8703084 3.7864761
-0.53297412 0.87247795 3.776525
-0.4737885 0.87425476 3.7716942
-0.42508841 0.87798613 3.7669857
-0.37965485 0.88080502 3.7556908
-0.32433885 0.88837349 3.7530494
-0.28726861 0.87583864 3.7501254
-1.0598242 0.93297577 3.7771602
-0.61649495 0.92641342 3.7919128
-0.57079494 0.92837971 3.7887981
-0.52194101 0.92407435 3.7757423
-0.47510189 0.92282677 3.7747252
-0.42980298 0.92432773 3.7688
-0.38052726 0.92639524 3.7573833
-0.3251591 0.92543364 3.7569268
-0.28189564 0.92682344 3.7520039
-1.0515676 0.99999851 3.7714167
-1.0416571 0.97127324 3.7766721
-0.62229443 0.97432196 3.7966449
-0.5725978 0.97785378 3.792856
-0.52365685 0.97345543 3.7803452
-0.47367302 0.97765684 3.7728481
-0.42481345 0.98034394 3.7670681
-0.38120684 0.97706848 3.7557538
-0.32549858 0.97227222 3.7530789
-0.28840381 0.96173424 3.7514176
-0.62094688 1.0274173 3.7906189
-0.5732156 1.0255718 3.7887487
-0.52504772 1.022516 3.7819977
-0.48041028 1.02607 3.7785454
-0.42010391 1.0251608 3.7645938
-0.37298936 1.0225955 3.7584717
-0.32368782 1.0246314 3.7537205
-0.27097341 1.023075 3.754215
-1.0570033 1.0715601 3.7782745
-0.61405772 1.0690511 3.7998786
-0.57488781 1.0752716 3.790899
-0.52704376 1.0730636 3.7877541
-0.47660559 1.0767386 3.7790909
-0.42196828 1.0761137 3.7725275
-0.3744556 1.0729023 3.7645609
-0.32979289 1.0728117 3.7585182
-0.27435264 1.0724864 3.7604377
-0.61634558 1.1483359 3.7990637
-0.57312161 1.1184531 3.788986
-0.5245344 1.1229384 3.7896838
-0.4805381 1.1262544 3.7825556
-0.42329276 1.1260147 3.7752516
-0.37587088 1.1233534 3.7696724
-0.32857952 1.1203525 3.7625065
-0.2724503 1.1271918 3.7555513
-0.22798684 1.1303266 3.7549508
-1.0632222 1.1827683 3.7787001
-0.62623852 1.177508 3.7950573
-0.5656476 1.1786323 3.7943146
-0.5201717 1.1718773 3.7875586
-0.47159365 1.1770244 3.7761877
-0.42424187 1.175212 3.7741153
-0.37711811 1.1736566 3.7725353
-0.32985157 1.171151 3.7673998
-0.2732788 1.1769353 3.7572832
-0.22656815 1.1749988 3.7532287
-2.0139809 1.2344832 3.7919807
-1.0890515 1.2477436 3.7854908
-0.62996697 1.2319781 3.7948334
-0.55943871 1.2038585 3.7900717
-0.51963276 1.220669 3.7913518
-0.47366121 1.2290889 3.7825127
-0.4263238 1.2278124 3.7823913
-0.37226635 1.2245365 3.769907
-0.32744077 1.2206372 3.7730892
-0.27684057 1.2299773 3.7588456
-0.22717609 1.2245648 3.7532451
-0.1993124 1.2336006 3.7515767
-0.63285655 1.2755605 3.7953007
-0.5236451 1.2740959 3.7920625
-0.47579005 1.2723206 3.7910442
-0.42529878 1.2743016 3.7880147
-0.37013996 1.2748427 3.776262
-0.32256389 1.272036 3.7709215
-0.27534869 1.2791735 3.7648182
-0.22459628 1.2769238 3.7506285
-2.0431685 1.3320396 3.7762129
-0.57476056 1.3494265 3.7977111
-0.52234238 1.3196772 3.7961464
-0.47190851 1.3206826 3.7956691
-0.42923909 1.3211346 3.7886672
-0.37116358 1.3253332 3.7755966
-0.32358134 1.3229942 3.771908
-0.27659073 1.3224528 3.7728746
-0.21946184 1.3267301 3.7586882
-0.17587988 1.3393846 3.7578318
-0.14446175 1.3336587 3.7521765
-2.0349352 1.3641083 3.7757788
-0.4699764 1.3802735 3.7974396
-0.42111558 1.3726375 3.789772
-0.3703137 1.3755906 3.7801294
-0.32493949 1.3756623 3.7760632
-0.27762336 1.3745362 3.7756109
-0.22061335 1.3805499 3.7665417
-0.17312868 1.3764226 3.7570014
-0.12991504 1.3768793 3.7538426
-0.082586594 1.3787974 3.7563255
-2.0549669 1.4221534 3.7748773
-0.50983465 1.4298947 3.7968121
-0.46159011 1.4233162 3.7973413
-0.42262211 1.4250604 3.7911777
-0.37711814 1.4277548 3.7858052
-0.3270323 1.4318961 3.7882133
-0.2786071 1.4266481 3.7769125
-0.22156487 1.4243393 3.773412
-0.17377692 1.4191945 3.7614918
-0.12973092 1.4201674 3.7561197
-0.076415934 1.4114255 3.7522132
-2.0668838 1.4925987 3.7782366
-0.45366132 1.4808658 3.7976053
-0.42730582 1.4745833 3.792527
-0.37562415 1.4744953 3.7869766
-0.32732636 1.4712344 3.7817152
-0.27967915 1.4700475 3.781292
-0.22219628 1.4756577 3.7713966
-0.1746463 1.4735767 3.7678335
-0.13339269 1.472839 3.7582424
-0.070668094 1.4900593 3.7590103
-2.0777838 1.5301021 3.7718124
-0.4227362 1.5191878 3.7987423
-0.37503842 1.5269794 3.7928493
-0.32503957 1.5269871 3.789396
-0.27515993 1.519847 3.7818942
-0.22342294 1.5313421 3.7790358
-0.17532244 1.5266263 3.7691832
-0.12755322 1.5221056 3.7593422
-0.074541412 1.5186762 3.7570381
-0.014098875 1.5494196 3.7502525
0.03311402 1.5201286 3.7558687
-2.0711787 1.5762961 3.7865155
-0.41754326 1.5747648 3.7954609
-0.37872973 1.576251 3.7932622
-0.31791607 1.5758286 3.7899897
-0.27227676 1.5769782 3.7841916
-0.22402702 1.5736421 3.7783689
-0.1760971 1.5714719 3.7749159
-0.13077158 1.5775065 3.7714458
-0.068716019 1.5727192 3.7611108
-0.025551891 1.5795314 3.7612381
0.023752078 1.5840065 3.7516556
0.080561295 1.5722466 3.7534456
-2.081579 1.6199651 3.7849901
-0.45839822 1.6411376 3.7955258
-0.43869799 1.6203638 3.7995477
-0.37599063 1.6237304 3.7916856
-0.32137722 1.6218725 3.7857573
-0.27292719 1.619095 3.7819405
-0.22482701 1.6247511 3.7783589
-0.17684115 1.625924 3.7765806
-0.12608221 1.6286722 3.7700694
-0.074196227 1.6272866 3.7678599
-0.023736332 1.6281118 3.759587
0.020041527 1.6281198 3.7546363
0.093502611 1.6218262 3.7525985
0.11882836 1.6249181 3.750957
-2.0798991 1.673107 3.7809303
-0.40091279 1.6622099 3.7982528
-0.37097603 1.6579056 3.7904851
-0.3224732 1.6563798 3.7900918
-0.27088729 1.6678103 3.7856102
-0.22543764 1.6508157 3.7822773
-0.17749843 1.6703687 3.7789371
-0.12944411 1.6695069 3.7783477
-0.071606852 1.662891 3.7644536
-0.023801241 1.6611325 3.7609146
0.028672021 1.6639798 3.7550175
0.071635775 1.6699612 3.7558546
-2.0894387 1.7218275 3.7747948
-0.40224621 1.7065251 3.7987089
-0.36398816 1.7381016 3.7975178
-0.32436508 1.718666 3.7956755
-0.27737314 1.7248499 3.7882054
-0.22674853 1.7279849 3.7828667
-0.17835183 1.7266201 3.7817242
-0.13000931 1.7248892 3.7793462
-0.071945459 1.7185394 3.7665005
-0.025821198 1.7220011 3.760011
0.021626459 1.7281218 3.7577734
0.071976386 1.7454121 3.7529821
0.1199125 1.726079 3.7580869
-2.0836928 1.7732916 3.7706268
-0.3779653 1.7785406 3.7951782
-0.32596868 1.7813183 3.7965233
-0.27671775 1.7775528 3.7912476
-0.22749341 1.7723976 3.7825367
-0.17899874 1.7716546 3.7828166
-0.1301827 1.765626 3.7713387
-0.069785178 1.7706397 3.7653022
-0.022085365 1.7761691 3.7620749
0.024154907 1.783731 3.7639
0.072371811 1.7933784 3.7602525
-0.3270123 1.8261336 3.7954767
-0.27787933 1.8240527 3.7939682
-0.22855382 1.8195556 3.7869213
-0.16731326 1.8225964 3.7854214
-0.1212151 1.8244933 3.7771461
-0.075389266 1.8275398 3.7709451
-0.024114614 1.8283355 3.763092
0.024220271 1.8264762 3.7592871
0.072462827 1.8247957 3.755399
0.12075642 1.8346946 3.7516341
-0.2788977 1.8699017 3.7942007
-0.22956608 1.8666611 3.789964
-0.17329851 1.8779936 3.7859566
-0.12184304 1.8825973 3.7793515
-0.072900988 1.8776898 3.7703927
-0.024215825 1.8745455 3.7645586
0.024302652 1.8714995 3.758404
0.072719716 1.8701472 3.7552485
0.12100476 1.8579838 3.7528419
-0.27403706 1.9180667 3.7936199
-0.22407417 1.9179219 3.7926066
-0.17169218 1.9337655 3.7875776
-0.12232026 1.9291235 3.7798524
-0.073143534 1.9230498 3.7688713
-0.024284141 1.9186932 3.7607937
0.024405034 1.9182667 3.7599499
0.073032819 1.9265842 3.7531235
0.12159859 1.9254884 3.7501442
0.23861435 1.9282677 3.751503
-0.25836843 1.9758439 3.7972906
-0.22166312 1.9810082 3.7862759
-0.17219085 1.9789534 3.7841756
-0.12297861 1.9788877 3.7854681
-0.073509462 1.9718102 3.772836
-0.024422999 1.9689784 3.7679057
0.027331097 1.9716767 3.7633958
0.070094317 1.9678974 3.7579334
0.11048673 1.9782358 3.7530499
0.1811216 1.9969546 3.7508953
-0.31313828 2.0486803 3.7966969
-0.27305016 2.0394773 3.7966862
-0.22312099 2.033854 3.7960792
-0.17305608 2.0284071 3.7877951
-0.12332867 2.0240195 3.7810268
-0.07384222 2.0202971 3.7750027
-0.024541611 2.0178742 3.7709646
0.024635607 2.0252526 3.7624729
0.073725037 2.0237801 3.7592793
0.12276522 2.0324154 3.752284
0.16874181 2.0376303 3.7532899
-0.31420547 2.0856066 3.7976465
-0.28068316 2.0801744 3.7970116
-0.22380218 2.0798788 3.7918816
-0.17369922 2.0755825 3.7859309
-0.12391671 2.0734172 3.7834275
-0.07425753 2.0711479 3.7802227
-0.022664586 2.0712359 3.7676277
0.0247426 2.0725963 3.7613373
0.074114107 2.0838842 3.7594442
0.11936251 2.0790467 3.7542138
-0.33573836 2.1455927 3.7937052
-0.22838883 2.1349206 3.7952576
-0.16966166 2.1266 3.7899759
-0.12437321 2.1205401 3.7804792
-0.071659282 2.1223514 3.7753417
-0.028073194 2.1185863 3.7711799
0.024866832 2.1236033 3.765554
0.074434437 2.1324174 3.7589924
0.12393594 2.1331103 3.7549224
0.16360228 2.1413896 3.7511282
-0.22235285 2.1745379 3.7924068
-0.17546688 2.1748402 3.7918267
-0.12532027 2.1769962 3.792758
-0.078827307 2.1693766 3.7760422
-0.024890305 2.1664128 3.7757754
0.024988743 2.1783698 3.76773
0.07473816 2.1812096 3.7578316
0.12446749 2.1820996 3.7540581
0.164023 2.1667888 3.7523224
0.20395941 2.1687884 3.7543385
-0.17642413 2.2292368 3.794513
-0.1258734 2.2268882 3.7920277
-0.075226374 2.2186038 3.7788913
-0.02500771 2.2166538 3.7760739
0.022216495 2.2289264 3.7632306
0.075114235 2.2319899 3.7587695
0.11162756 2.2253203 3.7539835
0.1651216 2.2413824 3.7511859
-0.26943749 2.2988753 3.7997432
-0.22481406 2.2863672 3.7954462
-0.17700142 2.2768905 3.7886982
-0.12615982 2.2724273 3.7828159
-0.075531624 2.2682412 3.7768395
-0.025149528 2.2684259 3.777679
0.025209725 2.284081 3.7610724
0.075499281 2.2838447 3.7601948
0.12565231 2.2851946 3.7543304
-2.4009624 2.3397799 3.7879219
-2.3117647 2.3410976 3.7774472
-2.1836684 2.3467696 3.794677
-0.27008346 2.3349495 3.7946737
-0.22902285 2.3321066 3.7920656
-0.17800395 2.3305957 3.7916782
-0.12678364 2.3241322 3.7827318
-0.07582324 2.3177869 3.7734139
-0.023230717 2.324194 3.7716439
0.025318503 2.3354099 3.7602444
0.075736798 2.3315551 3.7535522
0.11604798 2.3203914 3.7558072
-2.3030705 2.3547246 3.7514021
-2.1631236 2.3589244 3.7720947
-2.0794156 2.3744314 3.7861662
-2.0127048 2.3832438 3.7783206
-1.9723493 2.3744767 3.7788503
-1.9276481 2.3832152 3.7743652
-1.8624356 2.3823233 3.7862751
-1.8291695 2.3892636 3.7602248
-1.7744941 2.3941085 3.7777586
-1.7239401 2.395035 3.772893
-0.47827816 2.3871138 3.7993243
-0.4119322 2.3733168 3.7972939
-0.37394205 2.3778048 3.7932415
-0.31929448 2.380017 3.7883933
-0.27081943 2.3822141 3.7857161
-0.22958964 2.378655 3.7821255
-0.17814425 2.3774364 3.7732384
-0.12704562 2.369627 3.771421
-0.075963803 2.362339 3.7608354
-0.028652579 2.3647225 3.7581646
0.0051184469 2.3699193 3.7525656
-1.6662145 2.4058943 3.7758584
-1.6184044 2.4097452 3.7745953
-1.5664668 2.4086404 3.7738628
-1.5243757 2.4078023 3.7780631
-1.4759266 2.4092875 3.7717772
-1.4255852 2.4159122 3.7747829
-1.3692596 2.4190831 3.7731042
-1.3161168 2.4216561 3.7690523
-1.2729189 2.4199066 3.7778726
-1.2250935 2.4195027 3.7664557
-1.1738404 2.4222276 3.7838991
-1.1235579 2.4263363 3.7753749
-1.0686234 2.4205048 3.7752254
-1.0274616 2.4221532 3.7868576
-0.97441572 2.4290614 3.7718747
-0.92276275 2.4302356 3.7839301
-0.8794145 2.4256966 3.7845738
-0.8289417 2.4201627 3.7800362
-0.76879489 2.4156132 3.7650781
-0.72511083 2.425858 3.7737856
-0.67584825 2.4236169 3.7743344
-0.62329829 2.4218888 3.774308
-0.57495761 2.4158864 3.7749476
-0.52527392 2.4185956 3.7762444
-0.47763479 2.4147286 3.7792521
-0.42546916 2.410162 3.7767849
-0.37695709 2.4093688 3.7724562
-0.32185861 2.4174428 3.7643862
-0.27054033 2.4104187 3.7670207
-0.2293601 2.4069605 3.7636886
-0.17802963 2.4020462 3.75808
-0.13724846 2.4008708 3.7575901
-0.84718812 -0.46285918 3.8026593
-0.90390182 -0.4078176 3.8031976
-0.87369519 -0.42239118 3.8043771
-0.83558381 -0.41817564 3.805346
-0.77397275 -0.41320181 3.8022499
-0.91226262 -0.36740142 3.8086827
-0.87651199 -0.37092161 3.8118489
-0.82807446 -0.37000221 3.8092074
-0.77240729 -0.37114489 3.8043852
-0.91347349 -0.32448632 3.8082509
-0.87610173 -0.32438758 3.8128529
-0.82862884 -0.32395935 3.8145676
-0.76985162 -0.32568288 3.806097
-0.71872383 -0.31868187 3.8025868
-0.6934247 -0.31220928 3.8016906
-0.91747332 -0.27546832 3.8102536
-0.87583691 -0.27795723 3.8140831
-0.82818443 -0.27751908 3.8148744
-0.77188653 -0.27872008 3.8069465
-0.72570795 -0.27313647 3.8038611
-0.69323593 -0.27539578 3.8024826
-0.92040157 -0.22478908 3.8117394
-0.87559843 -0.22227649 3.8154304
-0.8273434 -0.22177058 3.8133409
-0.77842277 -0.22101057 3.8066473
-0.73078138 -0.22053657 3.8044612
-0.69284362 -0.23852895 3.8019598
-0.91186154 -0.17578527 3.807919
-0.87547916 -0.1759212 3.8164985
-0.83054924 -0.17359141 3.81214
-0.7773807 -0.17470753 3.8031402
-0.73064661 -0.17454207 3.8053017
-0.91605574 -0.1321751 3.8093531
-0.87563449 -0.12962544 3.818367
-0.826868 -0.12924255 3.8138852
-0.77446824 -0.12624763 3.8099322
-0.72861397 -0.13093124 3.8080931
-0.68291199 -0.10992292 3.802609
-0.92122459 -0.07395146 3.8090024
-0.87507313 -0.073970847 3.8168507
-0.82784963 -0.073895738 3.8193715
-0.77464259 -0.076248355 3.8116207
-0.72896844 -0.071199924 3.8109791
-0.68784231 -0.068706729 3.8045692
-0.92187119 -0.027678596 3.8121011
-0.87559521 -0.027685352 3.8195229
-0.82800817 -0.027651004 3.820514
-0.7788887 -0.027556742 3.812993
-0.73087364 -0.027490877 3.8089619
-0.67771965 -0.025595535 3.8058677
-0.92014253 0.016348099 3.8148775
-0.87545323 0.01864182 3.8188934
-0.82767195 0.018612884 3.8189244
-0.76968563 0.018536922 3.8142717
-0.72152859 0.018476063 3.809345
-0.68342596 0.018437497 3.8063872
-0.91682482 0.076915741 3.8134038
-0.87607217 0.074276835 3.8211088
-0.82744133 0.074074566 3.8174129
-0.77007127 0.07388518 3.8156819
-0.72142941 0.073628433 3.8083355
-0.67923111 0.073452391 3.8048778
-0.92172408 0.12982365 3.809962
-0.87580156 0.12987995 3.8189137
-0.82787639 0.12961721 3.8183682
-0.77480167 0.13176708 3.8112581
-0.72856081 0.12652026 3.8077929
-0.68610364 0.12870975 3.8093524
-0.92216057 0.17623369 3.810524
-0.87618005 0.17629436 3.8192956
-0.8275376 0.17579819 3.8155701
-0.77033705 0.17540419 3.8147433
-0.72231835 0.17494021 3.8108349
-0.68458056 0.17469518 3.8101048
-0.9232949 0.2228542 3.8135588
-0.87725323 0.22292878 3.8223264
-0.82811415 0.22220021 3.8166132
-0.77112764 0.22176449 3.8170743
-0.7224701 0.22100849 3.8099718
-0.68077326 0.21429358 3.8049042
-0.92109758 0.28089297 3.8118155
-0.8769834 0.27855363 3.8186867
-0.82949597 0.27818155 3.8205588
-0.77107686 0.27715918 3.8143387
-0.7225973 0.27627757 3.8082507
-0.68583322 0.27923328 3.80247
-0.92566395 0.32577223 3.8183715
-0.87843972 0.32550183 3.8225746
-0.83014417 0.32478237 3.8211339
-0.77198404 0.32372043 3.8163731
-0.72325003 0.32260722 3.8092773
-0.6867165 0.32740909 3.804795
-0.92549366 0.37224016 3.8147862
-0.87469733 0.37474054 3.8211577
-0.82799399 0.368931 3.8195167
-0.77289873 0.37038779 3.8181288
-0.72433639 0.36922517 3.8122094
-0.68561178 0.37745577 3.8060269
-0.92192906 0.43152574 3.8187535
-0.87070507 0.42854017 3.8240404
-0.82224482 0.42755139 3.8220837
-0.77299041 0.42599323 3.814687
-0.72491008 0.42495036 3.811362
-0.68828166 0.42031112 3.8074696
-0.63854724 0.4227851 3.801944
-0.92738819 0.47553173 3.8149669
-0.87144393 0.47550249 3.8235657
-0.82335007 0.47464341 3.8235843
-0.77488756 0.47344694 3.8203762
-0.72607154 0.48112643 3.8130653
-0.68941414 0.48376837 3.8087685
-0.92824376 0.52263379 3.8143523
-0.87275255 0.52291083 3.8252301
-0.82487363 0.52213722 3.8265722
-0.77603751 0.5206176 3.8219876
-0.7264787 0.52768266 3.8111291
-0.68836468 0.52683741 3.809643
-0.92971683 0.57953048 3.8149173
-0.87385005 0.57964623 3.8246031
-0.82631588 0.57908136 3.8278215
-0.77673405 0.5769093 3.8200667
-0.72391701 0.57774132 3.8142929
-0.68847781 0.56389111 3.8067157
-0.93059993 0.62685573 3.8135688
-0.87492496 0.62714922 3.8243122
-0.82638228 0.62582022 3.8232172
-0.77691358 0.62357634 3.8160584
-0.71736246 0.62932825 3.8155115
-0.68123168 0.63046026 3.8122523
-0.95100236 0.69356382 3.8095331
-0.93001735 0.67257154 3.8160527
-0.87698174 0.67553371 3.8278973
-0.82762533 0.67353004 3.823612
-0.77913928 0.67203093 3.8216524
-0.72361171 0.67529738 3.8164222
-0.68157619 0.67714399 3.8088708
-0.95022511 0.71172446 3.8040748
-0.9247508 0.72313344 3.8183582
-0.87861377 0.72377378 3.8291872
-0.82315427 0.72692889 3.823277
-0.77803147 0.7268436 3.8214447
-0.72184169 0.72669464 3.8151686
-0.68213558 0.72413129 3.806258
-0.96327132 0.78595787 3.8208325
-0.92459261 0.77604425 3.8283861
-0.87828052 0.77021217 3.832541
-0.82427102 0.77281559 3.8292837
-0.77160877 0.77651238 3.8188338
-0.72344989 0.77499646 3.8175366
-0.68338835 0.77194023 3.807132
-1.0105548 0.83528876 3.8317575
-0.97403944 0.82033795 3.8224735
-0.92268938 0.82356358 3.8373938
-0.87285429 0.82119161 3.8338549
-0.82291621 0.82786983 3.8267195
-0.7744329 0.82631588 3.8261454
-0.72454596 0.8229363 3.8166738
-0.68467933 0.8200081 3.8077576
-1.0196517 0.87293965 3.822793
-0.97341204 0.87396169 3.8357162
-0.92407441 0.87220234 3.835973
-0.87486345 0.87038952 3.8356078
-0.82601839 0.87817174 3.8339465
-0.77526349 0.87417775 3.8231988
-0.72342229 0.87816328 3.8153231
-0.6868028 0.87862492 3.811142
-0.60895932 0.87418121 3.8004792
-1.0244039 0.92626703 3.8215714
-0.97582924 0.92374414 3.8376555
-0.92660493 0.92212391 3.8389399
-0.8756026 0.92616272 3.8390222
-0.82659984 0.92602617 3.8290608
-0.7758128 0.92184609 3.8183956
-0.72989523 0.92520654 3.8151748
-0.6890887 0.92843282 3.8163366
-1.0153685 0.97280067 3.8283622
-0.97586864 0.97821712 3.8460305
-0.92757881 0.97078568 3.8456299
-0.87661886 0.97676092 3.8410332
-0.82363617 0.97237623 3.8258145
-0.77926743 0.97318435 3.8274865
-0.72660947 0.97611439 3.8166299
-0.69053102 0.97737312 3.8163624
-1.941448 1.0143306 3.840533
-1.0629358 1.0489508 3.8050451
-1.0258075 1.0213751 3.8214254
-0.97267354 1.0275897 3.8475089
-0.92220777 1.022839 3.8453467
-0.86960167 1.0271262 3.8412571
-0.82240576 1.0271086 3.8386757
-0.77179122 1.0230117 3.8300183
-0.72133428 1.0280677 3.8182774
-0.69230747 1.0269819 3.8177991
-1.0300467 1.073542 3.8281801
-0.97334671 1.074362 3.8415396
-0.92219412 1.0690229 3.8453681
-0.87639576 1.0751485 3.8391736
-0.82294345 1.0753601 3.832274
-0.77050269 1.0764045 3.8278649
-0.72305995 1.0778064 3.8184853
-0.69303179 1.0752234 3.8129313
-0.62826437 1.0844824 3.8063557
-1.9928261 1.1218337 3.8247299
-1.0348767 1.1278211 3.8250451
-0.97209626 1.1233708 3.8432889
-0.92662513 1.1237903 3.8453331
-0.87595731 1.1203793 3.8413668
-0.82649642 1.1278056 3.8394048
-0.7784065 1.1262345 3.8319757
-0.72552902 1.1289101 3.8221812
-0.68848735 1.1220531 3.814626
-0.62567335 1.1199461 3.8032198
-0.58857346 1.1492234 3.805048
-2.0039654 1.189641 3.8321931
-1.9961487 1.1645739 3.821975
-1.0511224 1.1906629 3.8076646
-1.0293618 1.1734701 3.8368058
-0.97445983 1.1646864 3.8447392
-0.92927372 1.1751955 3.8463309
-0.87910438 1.1724607 3.8452754
-0.82813036 1.1778953 3.8370559
-0.77696729 1.1729158 3.8277109
-0.7247898 1.1744268 3.8194919
-0.68945813 1.1763052 3.8167942
-0.63088077 1.1708449 3.8056393
-0.59253454 1.1759762 3.8047283
-1.0636278 1.2297808 3.8213081
-1.0217577 1.2077287 3.847441
-0.97191805 1.218876 3.8478088
-0.9114908 1.2253014 3.8453267
-0.87077606 1.2223196 3.8421595
-0.81758302 1.2229246 3.8379383
-0.76881915 1.2228312 3.8256819
-0.73019058 1.2226961 3.8174832
-0.6897462 1.2276373 3.818944
-0.60962903 1.2196319 3.8028746
-0.5778358 1.2260584 3.807364
-0.54301804 1.2469585 3.8003173
-2.0295155 1.285164 3.8108714
-1.1078392 1.2887963 3.8462276
-1.0863905 1.276775 3.8455982
-0.91593307 1.268804 3.8404858
-0.87379164 1.274856 3.844579
-0.82503283 1.2727635 3.8374827
-0.77108157 1.2743309 3.8261716
-0.72571254 1.2739074 3.8246746
-0.68538105 1.2712393 3.8120751
-0.60710579 1.2762544 3.8054175
-0.57531643 1.274212 3.8057506
-2.0310786 1.3352365 3.8178713
-1.648466 1.3112081 3.8487809
-1.2209047 1.3340917 3.8316197
-1.1921748 1.3348601 3.8404255
-1.1180362 1.3088381 3.8410797
-0.91727066 1.3301837 3.8472867
-0.87589556 1.3263025 3.8423758
-0.82427335 1.3211254 3.834811
-0.77186811 1.3230317 3.829448
-0.72356892 1.3229213 3.8232737
-0.68201733 1.3262635 3.8080504
-0.62334037 1.3231775 3.8059161
-0.57454342 1.3204194 3.8031878
-0.53332436 1.3424386 3.8015194
-0.4794293 1.3485137 3.8042378
-2.0316167 1.3827765 3.8401365
-0.92466903 1.3679183 3.8486934
-0.87879395 1.3695546 3.8455875
-0.82775998 1.375132 3.8391016
-0.77937257 1.3756443 3.8356147
-0.72637314 1.3761373 3.8262825
-0.68655723 1.3735192 3.8239665
-0.62323606 1.3711008 3.8118825
-0.57740539 1.3842762 3.808013
-0.52873987 1.3818022 3.8059807
-0.47035635 1.3750776 3.802202
-2.0512383 1.4339508 3.8148522
-2.0443242 1.4084078 3.807929
-0.91167969 1.4044876 3.8493891
-0.86750251 1.4180279 3.846662
-0.82104242 1.428728 3.8421621
-0.77350247 1.4254354 3.8340652
-0.72480214 1.4171813 3.829572
-0.68862253 1.4258127 3.8231747
-0.6255067 1.4241958 3.8166811
-0.57022434 1.4283832 3.8150337
-0.52406359 1.4212914 3.8098805
-0.47813722 1.423749 3.801863
-2.0561311 1.4998596 3.8053904
-2.0483193 1.4526606 3.80337
-0.85451293 1.4653014 3.8495064
-0.82342124 1.4718618 3.8429525
-0.76932174 1.4735298 3.8337235
-0.72134781 1.4721855 3.8295481
-0.69266224 1.4826536 3.8327425
-0.62046397 1.4722533 3.8139815
-0.56819004 1.4726598 3.8087535
-0.5226028 1.4771839 3.8092835
-0.48296395 1.4732851 3.8027561
-0.41566709 1.4911833 3.8000169
-2.0595119 1.5283375 3.8210113
-2.0496728 1.5314113 3.8345029
-0.85778868 1.5297586 3.8481016
-0.82513916 1.5139966 3.8402619
-0.77735883 1.525913 3.8340952
-0.7242651 1.5267525 3.8316994
-0.69391346 1.5241668 3.8289669
-0.62238872 1.5250921 3.8124516
-0.57653517 1.5274732 3.8167565
-0.52415454 1.5296433 3.8073146
-0.4751958 1.5268707 3.8047864
-0.43640265 1.5351249 3.8020279
-2.0586956 1.5814933 3.8244703
-0.86522669 1.5686991 3.8487778
-0.82122898 1.5937222 3.8495734
-0.77322364 1.5722964 3.8359227
-0.72638559 1.5702369 3.8317711
-0.69559807 1.5765381 3.8243439
-0.62549484 1.5812126 3.8176939
-0.57665879 1.5801924 3.8205853
-0.5259192 1.5734153 3.8091202
-0.47679368 1.5705479 3.8066103
-0.4378098 1.5785936 3.8032119
-0.39941695 1.598237 3.8015409
-2.0671511 1.6376257 3.8194649
-2.0402763 1.6034263 3.8450446
-0.81675345 1.6191856 3.8450823
-0.77003253 1.6190096 3.838011
-0.72531044 1.6287757 3.8334699
-0.69947165 1.6244342 3.8340981
-0.62683451 1.6234692 3.814249
-0.57690185 1.6196712 3.8107519
-0.5273757 1.6165171 3.808279
-0.48059931 1.6210159 3.8038576
-0.42012128 1.637589 3.8030837
-2.0590618 1.6776199 3.8245761
-2.0486438 1.6523693 3.846873
-0.80505222 1.6698756 3.8485274
-0.77045798 1.6695318 3.8439291
-0.72290087 1.6823233 3.8368778
-0.68267369 1.690008 3.8341112
-0.57839102 1.6530404 3.8117821
-0.52089089 1.6752719 3.8179266
-0.20766753 1.6815243 3.8031437
-2.0657916 1.7320136 3.8290629
-0.77183735 1.7173755 3.8463411
-0.72598052 1.7290173 3.8406746
-0.67439497 1.7234291 3.8347001
-0.62339038 1.7185131 3.829689
-0.57324743 1.7251886 3.8249991
-0.52570623 1.726375 3.8182085
-0.47286218 1.7262527 3.8121798
-0.42732272 1.7254747 3.8092809
-0.37673751 1.7145444 3.8019383
-0.30603632 1.7494999 3.8017027
-2.0678554 1.7717469 3.8246529
-0.79077274 1.7710696 3.8496234
-0.71447563 1.7694122 3.839673
-0.67741519 1.7707233 3.8389845
-0.62381512 1.7733711 3.8324974
-0.57661045 1.7846042 3.8312991
-0.52511662 1.7771462 3.8203773
-0.47454399 1.7715676 3.8129663
-0.42193502 1.7719845 3.8077862
-0.37500572 1.7735193 3.800631
-0.34533495 1.7516735 3.8040547
-0.81430745 1.829013 3.8469815
-0.79302692 1.8359939 3.8402925
-0.72045434 1.8190719 3.8390157
-0.6741029 1.8233465 3.8393574
-0.62877566 1.8258009 3.8321059
-0.57940835 1.8329034 3.8364847
-0.52691936 1.8226162 3.8200712
-0.47628066 1.8173555 3.8136911
-0.42678446 1.8255571 3.8110716
-0.37713686 1.8324957 3.8054695
-0.67296463 1.8715754 3.8419011
-0.62085718 1.8780583 3.8294296
-0.57994938 1.8742952 3.8262506
-0.52883059 1.8688478 3.8202972
-0.47668701 1.8718622 3.8171241
-0.43116644 1.8772482 3.8090146
-0.37882817 1.8800746 3.8086996
-0.32889828 1.8759003 3.8035247
-0.67302865 1.9245286 3.8462641
-0.62396514 1.9274353 3.8342175
-0.57292515 1.9236474 3.8323545
-0.52152449 1.9178388 3.8259492
-0.47901329 1.928641 3.8186212
-0.4258453 1.9253842 3.807344
-0.3742699 1.9283617 3.8078914
-0.32609886 1.9199327 3.8036304
-0.72083431 1.9766183 3.8491101
-0.659307 1.9836031 3.8472009
-0.6279521 1.97993 3.8437665
-0.57422644 1.9679412 3.826196
-0.52532786 1.9703928 3.8220704
-0.47341686 1.9797372 3.8226993
-0.42231324 1.9781343 3.8140457
-0.37184265 1.9739877 3.8098164
-0.3217749 1.971041 3.807404
-0.27667087 1.9671414 3.8024023
-0.23171949 1.9533093 3.8006473
-0.70358455 2.0354903 3.8484564
-0.67190528 2.0315309 3.8449783
-0.62049156 2.0336475 3.8436666
-0.57250583 2.0139935 3.8275332
-0.5229063 2.0187883 3.8296318
-0.47048676 2.0277853 3.8249302
-0.42401767 2.0259964 3.8140559
-0.37280932 2.0189097 3.8045104
-0.32264292 2.0161011 3.8025589
-0.27687439 2.0214567 3.8016934
-0.66173619 2.0616515 3.8339961
-0.62236899 2.0702007 3.8434186
-0.57055295 2.070807 3.8389387
-0.52648062 2.0703995 3.8290279
-0.48060465 2.0766025 3.8301961
-0.42627186 2.0769475 3.8185873
-0.37537166 2.072778 3.8147507
-0.33411053 2.0653529 3.8038564
-0.26444578 2.086683 3.802382
-0.60529089 2.1268725 3.8475266
-0.5728603 2.1197543 3.8381054
-0.5208109 2.1277766 3.8279936
-0.46948558 2.1311064 3.8239522
-0.42786661 2.1250014 3.8164964
-0.37720838 2.1232147 3.8172064
-0.32918933 2.119683 3.8067024
-0.27559927 2.1288648 3.8041332
-0.21498431 2.1209254 3.8002234
-0.18524647 2.1340692 3.8028188
-0.62468415 2.176389 3.8486543
-0.57655823 2.1743107 3.845989
-0.52891731 2.1722836 3.8361659
-0.46850646 2.1792974 3.8283465
-0.42088473 2.1812775 3.8285446
-0.3689639 2.174226 3.8200204
-0.32454476 2.1734354 3.8142815
-0.27689913 2.1707401 3.8086522
-0.17619422 2.1961319 3.8027852
-0.62088013 2.2277017 3.8454189
-0.57866657 2.2232566 3.8425679
-0.52304751 2.2213428 3.835541
-0.47626051 2.2281013 3.8302951
-0.42227057 2.2291496 3.8235931
-0.37018067 2.2219124 3.815135
-0.32901406 2.217953 3.8111136
-0.27543885 2.2222536 3.8052564
-0.22943158 2.2286873 3.804462
-0.63573068 2.2956185 3.8492773
-0.57756227 2.2767088 3.8386047
-0.53237563 2.2698336 3.8347392
-0.475932 2.2730093 3.8281188
-0.42402557 2.279233 3.8212547
-0.37220979 2.2749863 3.8181813
-0.32470301 2.2728107 3.8133817
-0.27949443 2.2707672 3.8097689
-0.23834157 2.2729506 3.8011582
-2.2439721 2.3407421 3.8110034
-0.72194684 2.3276372 3.8475163
-0.66586417 2.3390906 3.8447397
-0.6263023 2.3300068 3.8419297
-0.57318413 2.3245001 3.8389413
-0.52040964 2.3194892 3.8362391
-0.47829092 2.3254359 3.8283679
-0.42561305 2.3287494 3.8168128
-0.37299484 2.3206825 3.807651
-0.3215324 2.3179705 3.8067143
-2.3666916 2.3508089 3.8299861
-2.279052 2.3537538 3.8209245
-2.1619742 2.359668 3.8315635
-2.1264222 2.3642175 3.8192577
-2.0874515 2.373987 3.8378954
-2.0178237 2.3802559 3.8252728
-1.9201325 2.3778219 3.8074422
-1.8825243 2.3859196 3.8384283
-1.8217922 2.3837526 3.8227789
-1.7819763 2.3915834 3.8352714
-1.729084 2.3899248 3.8258953
-1.6720896 2.3974493 3.834446
-1.6273071 2.3956335 3.8466544
-1.5031433 2.3929994 3.8322263
-1.482129 2.3938589 3.8402944
-1.408265 2.3997519 3.8239908
-1.3653998 2.3996904 3.8362014
-1.320825 2.3965249 3.8429725
-1.2989796 2.3956797 3.847362
-1.1286294 2.3958511 3.8425608
-1.0965909 2.3953102 3.848881
-0.93039429 2.3977544 3.8410869
-0.87452751 2.3782294 3.8410752
-0.82192266 2.3777938 3.8358223
-0.77737755 2.3798869 3.8374691
-0.72404528 2.3864555 3.834116
-0.6692555 2.3769186 3.8260431
-0.62721562 2.3749008 3.8281598
-0.57122248 2.3761604 3.820488
-0.52095288 2.3734777 3.8161583
-0.47833365 2.366838 3.8096232
-0.44052505 2.373215 3.8090494
-0.36341998 2.3555038 3.8008626
-0.33258361 2.3546262 3.8015697
-1.6313084 2.40729 3.8158641
-1.5742127 2.4028025 3.8269899
-1.5293201 2.4002678 3.8370342
-1.4761261 2.4056585 3.8139715
-1.4321837 2.4146543 3.8189545
-1.3726106 2.4041715 3.8179784
-1.3315116 2.4042866 3.8217037
-1.2823522 2.4059424 3.8219423
-1.2264408 2.4112394 3.8219445
-1.1716514 2.4077351 3.8294687
-1.1248746 2.4090142 3.8194089
-1.0773876 2.4143908 3.8276405
-1.0222855 2.4142623 3.8277645
-0.97178727 2.4171691 3.8201585
-0.92905557 2.4152877 3.8253
-0.87420893 2.4087608 3.824508
-0.80745173 2.4075341 3.8116231
-0.77541721 2.4155531 3.8077273
-0.72282386 2.4136677 3.8126266
-0.66830385 2.4046018 3.8056102
-0.62657207 2.4036143 3.8094654
-0.59569728 2.4043605 3.8144825
-1.9545069 1.041571 3.8623228
-1.9262398 1.0274187 3.8728969
-0.97310644 1.0165457 3.8514001
-0.93666798 1.095495 3.8513091
-0.99862188 1.1388561 3.8502259
-1.9541559 1.1864752 3.8813732
-1.925011 1.1709551 3.8742471
-1.0008403 1.1800765 3.8506892
-0.97164071 1.1991813 3.8509188
-0.93044841 1.1766512 3.8512492
-1.9892987 1.2263658 3.8948176
-1.0208645 1.2358907 3.8540032
-0.97440279 1.2413757 3.8532877
-0.94317019 1.2288961 3.851759
-2.0088918 1.2776005 3.8718774
-1.9911278 1.2690963 3.8883708
-1.0628465 1.282968 3.8587768
-1.0242175 1.2750481 3.8587024
-0.97727221 1.2742219 3.8579953
-0.94643277 1.2816914 3.8540773
-2.016197 1.3273997 3.8745289
-1.6782782 1.3187954 3.8646259
-1.4217033 1.3468002 3.8889971
-1.2647401 1.3494799 3.8689756
-1.1659348 1.3385248 3.8573802
-1.1273067 1.3393834 3.868135
-1.072529 1.3226842 3.8603637
-1.0211772 1.3196084 3.8607359
-0.97578567 1.3293035 3.8571658
-0.94120198 1.3093048 3.8541174
-2.0137842 1.371076 3.8839579
-1.4759641 1.3603159 3.89415
-1.3700999 1.3655605 3.8762236
-1.320794 1.3661073 3.8735461
-1.2772324 1.3823433 3.8785884
-1.2227986 1.3791554 3.8772645
-1.1716177 1.3747278 3.8687432
-1.1239262 1.3739958 3.8702133
-1.0699737 1.3702326 3.8655577
-1.0252053 1.3738852 3.8638799
-0.97739351 1.3818594 3.8585963
-0.93115878 1.3849483 3.8509846
-2.0279443 1.4225105 3.8734694
-1.3286204 1.4224676 3.890944
-1.2774601 1.4331942 3.8897755
-1.2203622 1.4250276 3.8790889
-1.1783211 1.4223757 3.880657
-1.1219566 1.4245393 3.875309
-1.0740125 1.4271721 3.8723922
-1.0302109 1.4298847 3.8701406
-0.97582811 1.4224561 3.8590147
-0.92502862 1.4295634 3.8576882
-0.88740736 1.4398054 3.8526886
-2.0529225 1.4813147 3.8564384
-2.0300248 1.4797659 3.8826041
-1.302278 1.4686711 3.8913214
-1.2715895 1.4781237 3.8941154
-1.2256477 1.4712538 3.8852279
-1.1725352 1.4773244 3.8832419
-1.1253831 1.4770725 3.880291
-1.0765814 1.4788706 3.8770027
-1.0262527 1.4740913 3.8675487
-0.97319251 1.4732276 3.8595395
-0.92933244 1.4763782 3.8556237
-0.88009453 1.4806305 3.8519611
-2.0339017 1.5327507 3.8804607
-1.2619125 1.5087341 3.8893275
-1.2155724 1.5224553 3.891911
-1.175575 1.5304239 3.8952897
-1.1249831 1.5304201 3.8880911
-1.0796307 1.5228779 3.8770165
-1.0228698 1.5236018 3.8678584
-0.97250676 1.5307853 3.8599679
-0.93025327 1.5262451 3.8554211
-0.8827244 1.52039 3.853662
-2.0530746 1.5922556 3.8759749
-2.0400984 1.5790434 3.8884518
-1.2285693 1.5981292 3.8971443
-1.1723797 1.5804189 3.892693
-1.127821 1.5744095 3.8864205
-1.0730537 1.5742685 3.8778374
-1.0260432 1.5768702 3.8726106
-0.9761765 1.5762236 3.8631773
-0.92338514 1.5706792 3.8582089
-0.8824541 1.5879003 3.852942
-0.82834494 1.5687284 3.8518379
-2.0409348 1.629233 3.8741944
-1.253103 1.634118 3.8968048
-1.2199912 1.6204039 3.898345
-1.1742605 1.6132084 3.8900137
-1.1252788 1.6255516 3.8859596
-1.0777102 1.624561 3.8818188
-1.0253839 1.6310952 3.8802602
-0.98062384 1.6232257 3.868938
-0.92786342 1.6180339 3.8653076
-0.87603998 1.6337522 3.8578734
-0.83418214 1.6392202 3.8507681
-2.0317528 1.6752394 3.8847551
-1.1692187 1.6606989 3.8967345
-1.1298418 1.6685032 3.8905766
-1.0678924 1.6769348 3.8830662
-1.0288789 1.6768222 3.8811803
-0.97383118 1.6684771 3.8711033
-0.92090726 1.6730652 3.8643272
-0.87873656 1.6785191 3.8575702
-0.83688605 1.6742697 3.854115
-0.78479719 1.6589313 3.852056
-2.0572462 1.7214544 3.8693321
-2.0469279 1.7109921 3.8780913
-1.1724244 1.705871 3.894659
-1.1230643 1.7163767 3.8935425
-1.0784851 1.7271078 3.8962922
-1.0182227 1.7250825 3.8780334
-0.96811938 1.7260698 3.8742819
-0.92595822 1.7322954 3.8696513
-0.87191147 1.7243663 3.8602791
-0.81949377 1.7189667 3.8560219
-0.78922856 1.7378213 3.8518577
-2.0588217 1.7747376 3.8816965
-1.1578974 1.7756528 3.8986523
-1.1298585 1.7879404 3.8970392
-1.0717626 1.7681843 3.8992283
-1.0314094 1.7738478 3.8880196
-0.97226501 1.7838609 3.8743498
-0.92883962 1.7778834 3.8685272
-0.87550658 1.7715398 3.8631735
-0.82101166 1.7722566 3.8579087
-0.76779431 1.7850668 3.853497
-0.73163199 1.792299 3.8543458
-1.1288242 1.8189318 3.8966861
-1.0750087 1.8244328 3.8936348
-1.0209703 1.8190076 3.8920965
-0.9756549 1.8305268 3.8740864
-0.92684853 1.8280014 3.8721302
-0.87514579 1.8171657 3.8671997
-0.83682448 1.8245367 3.8589771
-0.77063286 1.8277051 3.8556664
-1.0575521 1.8602295 3.8981407
-1.0210747 1.8626488 3.8931828
-0.97502202 1.8834932 3.881958
-0.92194682 1.8708007 3.8742371
-0.86930001 1.8701143 3.8614724
-0.82373798 1.8834317 3.857106
-0.77300769 1.8734525 3.8535767
-0.72564256 1.8722236 3.8527322
-1.1064415 1.9253063 3.8997493
-1.027265 1.9219679 3.8931923
-0.97269529 1.9255747 3.8756554
-0.92034209 1.9226284 3.8788846
-0.8799715 1.9193093 3.8704612
-0.823102 1.9295479 3.8596871
-0.76975775 1.9224787 3.8531563
-0.72844863 1.919678 3.8532565
-0.69776082 1.9282343 3.8507247
-1.0029682 1.9962745 3.8913956
-0.97267389 1.9715297 3.8837032
-0.92388487 1.970904 3.8787489
-0.87468493 1.9719801 3.8745301
-0.82238847 1.9759554 3.8617387
-0.77344859 1.972155 3.8566818
-0.72616923 1.96736 3.8537488
-0.69043219 1.966151 3.8561409
-1.0695282 2.0053525 3.8968291
-1.0484854 2.0046325 3.8996067
-0.97379076 2.030623 3.8919601
-0.92958456 2.0241494 3.8870125
-0.8746419 2.022701 3.8772881
-0.82177454 2.0321164 3.8722236
-0.77710032 2.022104 3.8593633
-0.72825551 2.0141802 3.8555884
-0.67601997 2.0236702 3.8526573
-0.64142084 2.02088 3.8516836
-1.0123672 2.0980861 3.8952971
-0.97844177 2.0817642 3.8942642
-0.92726707 2.0758853 3.8872662
-0.8739326 2.0734847 3.8724823
-0.82614416 2.0839877 3.8766706
-0.77660125 2.0797257 3.8713565
-0.72741729 2.0658805 3.8566375
-0.67981941 2.0893209 3.8530161
-0.62509638 2.0944118 3.8539619
-1.1012633 2.1092606 3.8990257
-0.98170364 2.1302903 3.8904505
-0.92541426 2.1202865 3.8816664
-0.87113023 2.1244025 3.8750863
-0.83032 2.1357808 3.8795161
-0.77454001 2.1241834 3.866348
-0.72074521 2.1169124 3.8604872
-0.67601138 2.1326277 3.8570888
-0.6376 2.132818 3.8546085
-0.97245884 2.1858325 3.8961334
-0.9200933 2.1735735 3.887671
-0.87541133 2.1659093 3.8811414
-0.816585 2.1765952 3.8752832
-0.76669621 2.1721506 3.8631573
-0.72473782 2.1697583 3.8648524
-0.67703825 2.1754236 3.8586016
-1.024353 2.2280006 3.8972981
-0.96819615 2.2301822 3.8883908
-0.92483491 2.2266073 3.8898783
-0.87852263 2.2152016 3.8772407
-0.82864577 2.2269115 3.8775373
-0.77226484 2.2293541 3.8733916
-0.72866076 2.2228985 3.8682089
-0.67471617 2.2257416 3.8577724
-1.0626515 2.2846639 3.8972571
-1.0168062 2.2661722 3.896946
-0.97396779 2.2856169 3.8929994
-0.92788756 2.2758801 3.8842154
-0.87706947 2.2712955 3.8803844
-0.81724846 2.2807069 3.8654199
-0.7750321 2.2790246 3.8690648
-0.73140371 2.2727573 3.864538
-0.68354106 2.2740636 3.8620863
-0.62144715 2.2799852 3.8540061
-0.59352022 2.2716441 3.8579173
-2.1171815 2.3497429 3.8895545
-1.2102913 2.3040705 3.8992808
-1.179396 2.3382475 3.8957121
-1.1228982 2.3423359 3.8919952
-1.0718125 2.3203654 3.8926399
-1.0172943 2.3205838 3.8854077
-0.97528452 2.3308988 3.8790689
-0.92957491 2.3220649 3.8722901
-0.87141246 2.3218722 3.8650208
-0.81977904 2.3295565 3.858408
-0.77652645 2.3251429 3.8576674
-0.72280818 2.3178778 3.8576851
-0.67256975 2.3106692 3.8552921
-2.176296 2.3526502 3.8684211
-2.127789 2.3601713 3.8774223
-2.0730486 2.37237 3.8789654
-2.0258732 2.369221 3.8836887
-1.9740576 2.3825006 3.8669846
-1.9153006 2.3770814 3.8622284
-1.8652204 2.3819435 3.8736017
-1.839226 2.3791981 3.8963552
-1.7779799 2.378958 3.8655288
-1.7187304 2.3840923 3.8706632
-1.6798277 2.3896761 3.8861749
-1.6172158 2.387604 3.8693047
-1.5738736 2.3861887 3.8725302
-1.5288765 2.3839524 3.8827658
-1.4854146 2.3818443 3.8839417
-1.4313711 2.3882542 3.870178
-1.3789499 2.3813787 3.877784
-1.3240303 2.3800101 3.8805962
-1.2732272 2.3753676 3.8905299
-1.2245914 2.3892012 3.8870182
-1.1825122 2.3764675 3.8812447
-1.1265317 2.3708632 3.8749146
-1.0707364 2.377167 3.8699501
-1.0236212 2.3761754 3.8688178
-0.97742593 2.3783107 3.8678164
-0.93102586 2.3677847 3.8587298
-0.8969841 2.3507805 3.8588212
-0.72450918 2.356714 3.8513916
-1.4644831 2.4002647 3.8571591
-1.2706692 2.4027841 3.8671889
-1.2380261 2.4018617 3.873899
-0.97700655 2.408999 3.8509798
-1.9638977 1.2251896 3.9279375
-1.9335576 1.2305324 3.9314997
-1.9751561 1.273407 3.9265838
-1.9075307 1.2687855 3.9185414
-2.01243 1.3457468 3.9140186
-1.982272 1.3256247 3.9341631
-1.6077639 1.3479545 3.910398
-1.5700018 1.3418417 3.9016976
-1.5403143 1.3425326 3.9125521
-1.992328 1.3863076 3.9312251
-1.772372 1.3519078 3.9447124
-1.6686065 1.3643281 3.9452798
-1.6316184 1.3702124 3.9274838
-1.5803316 1.3813763 3.9195104
-1.5299064 1.3803556 3.9239221
-1.4522508 1.3768157 3.9067092
-1.4314408 1.3813477 3.9092207
-1.3854256 1.3909204 3.9002421
-2.0042393 1.439046 3.924628
-1.9913429 1.4258322 3.9363708
-1.7304996 1.4307709 3.9467709
-1.6763535 1.4329331 3.9472222
-1.6151377 1.424753 3.940496
-1.5619164 1.4306909 3.9285872
-1.5181055 1.4214814 3.9243145
-1.4710281 1.4155141 3.9191124
-1.4256872 1.4312345 3.9119453
-1.3784826 1.4243865 3.9037695
-2.0107896 1.4669266 3.912961
-1.9961579 1.48048 3.9496789
-1.7533621 1.4870074 3.9491775
-1.7150035 1.4601247 3.949141
-1.6611793 1.4696479 3.9432466
-1.6225994 1.4750509 3.9406676
-1.5735358 1.4760385 3.9379361
-1.5254527 1.4694673 3.9322815
-1.4770422 1.4703569 3.9285576
-1.429585 1.4758472 3.9116778
-1.376803 1.4714999 3.9063396
-1.3285123 1.4805422 3.9029965
-2.0062084 1.5226451 3.9320776
-1.6229604 1.5247794 3.9442632
-1.5802318 1.5237833 3.9430952
-1.530985 1.5242864 3.939199
-1.4822432 1.5289968 3.9318533
-1.4205272 1.520106 3.9190249
-1.3697248 1.5178859 3.9196005
-1.3252703 1.5339441 3.9130208
-1.2840151 1.5325531 3.9088717
-1.2371652 1.5355449 3.9076567
-2.0132234 1.5772123 3.9171374
-1.9977493 1.5562632 3.9309196
-1.5747212 1.5700576 3.9462984
-1.5212734 1.5766034 3.9352641
-1.4678442 1.5765333 3.9310353
-1.421454 1.5707948 3.9278059
-1.3737371 1.5716686 3.9239883
-1.3304487 1.5807265 3.9165075
-1.2740593 1.5740057 3.9121234
-1.223532 1.5779281 3.9043303
-2.0128093 1.62977 3.9190261
-1.7208573 1.6214787 3.9474454
-1.5578071 1.6261053 3.9467163
-1.5270294 1.6298512 3.9448445
-1.47092 1.621482 3.9381459
-1.4262931 1.6173433 3.9289007
-1.3839941 1.6280369 3.9258122
-1.3244872 1.6267041 3.9193535
-1.2789545 1.6208768 3.9151931
-1.2237253 1.6456889 3.9041197
-1.1800172 1.641386 3.9029675
-2.0102258 1.6839786 3.9179785
-1.9977342 1.6807585 3.9476509
-1.5769467 1.6875613 3.9492211
-1.5334228 1.6854337 3.9462147
-1.4817969 1.6747242 3.9430823
-1.4257668 1.6763021 3.9323266
-1.3718255 1.6784588 3.928231
-1.3193439 1.6740986 3.924444
-1.2784165 1.6732321 3.922472
-1.2274899 1.6813159 3.9065907
-1.1865873 1.6796761 3.9022732
-2.0245152 1.7291636 3.9205179
-1.9978094 1.7023703 3.9406662
-1.5158218 1.7309718 3.9473028
-1.4751508 1.7154882 3.9443944
-1.4092996 1.7270919 3.9470949
-1.3729708 1.7310191 3.937077
-1.3236243 1.7207445 3.9241285
-1.2794174 1.7269973 3.9216001
-1.2269574 1.731992 3.9121156
-1.1784688 1.7282962 3.9103673
-1.0898775 1.7240505 3.9004874
