ply
format ascii 1.0
comment PCL generated
element vertex 1457
property float x
property float y
property float z
element camera 0
property float view_px
property float view_py
property float view_pz
property float x_axisx
property float x_axisy
property float x_axisz
property float y_axisx
property float y_axisy
property float y_axisz
property float z_axisx
property float z_axisy
property float z_axisz
property float focal
property float scalex
property float scaley
property float centerx
property float centery
property int viewportx
property int viewporty
property float k1
property float k2
end_header
-0.72985035 -0.4561097 1.6696666
-0.67313385 -0.45736694 1.6597322
-0.62813109 -0.46879503 1.6719639
-0.57664448 -0.48257777 1.6726407
-0.52539647 -0.49163738 1.6769743
-0.47894698 -0.49570164 1.676988
-0.4193956 -0.49763548 1.6674463
-0.37477636 -0.49790993 1.680949
-0.32721776 -0.49601474 1.6796577
-0.27391711 -0.49117684 1.6744505
-0.22691727 -0.48974133 1.6792173
-0.1799632 -0.48803106 1.6821321
-0.11767155 -0.47985005 1.6687844
-0.077549204 -0.47538558 1.6659802
-0.025957819 -0.47337386 1.6719131
0.0020536741 -0.46870124 1.6512244
0.085739188 -0.46522808 1.6677791
0.12313551 -0.45835695 1.6672506
0.17507584 -0.45649555 1.6807081
0.22422346 -0.45431316 1.6744474
0.2758792 -0.45184487 1.6745723
0.34225559 -0.45075506 1.6555853
0.36704078 -0.45045057 1.6729131
0.41519424 -0.45053211 1.676646
0.48670706 -0.45105788 1.6654834
-0.70954931 -0.42571652 1.6763279
-0.67283446 -0.42416686 1.6626297
-0.62367797 -0.42478147 1.6774246
0.21732782 -0.44838402 1.677134
0.28761563 -0.44762751 1.6670938
0.32392597 -0.44749299 1.6702864
0.38196099 -0.44438657 1.6717999
0.42815208 -0.4463582 1.6733496
0.47580665 -0.4465676 1.6730065
0.52301985 -0.44336307 1.6750048
0.57207781 -0.44510871 1.6758149
0.62025321 -0.442424 1.6709763
0.67803121 -0.44182974 1.6713514
0.72386271 -0.43815148 1.6740413
0.77201438 -0.43814123 1.6749471
0.82252073 -0.4358719 1.6738971
0.88432848 -0.43457031 1.6786187
0.92598915 -0.4346931 1.6757265
0.97259253 -0.43052557 1.6777056
1.0217018 -0.42963958 1.6700091
1.0588006 -0.4277547 1.6505641
1.1487739 -0.43189457 1.6754695
1.2008735 -0.41483849 1.6599115
-0.70961571 -0.37940064 1.675182
-0.67488456 -0.37226328 1.6683058
-0.62631226 -0.37797001 1.6778188
-0.59744686 -0.38962895 1.698097
-0.67368519 -0.33809513 1.6850836
-0.63641644 -0.34541282 1.690626
-0.52474338 0.49303067 1.6803753
-1.7181041 -0.50989825 1.7282491
-1.6779612 -0.50596982 1.714156
-1.4110175 -0.50139105 1.7221214
-1.380439 -0.5014779 1.7430085
-1.2895476 -0.50035936 1.7396899
-0.28252926 -0.50033396 1.7473958
-1.7425233 -0.4634937 1.7440532
-1.6517346 -0.49994391 1.7221344
-1.5822995 -0.49532196 1.7494527
-1.5436528 -0.49373853 1.7041426
-1.4653181 -0.49561319 1.7111667
-1.4273528 -0.49503151 1.7346505
-1.3509374 -0.49817443 1.7446661
-1.3467026 -0.49289015 1.7197077
-1.2817757 -0.49350193 1.7098635
-1.0567343 -0.48197263 1.7264483
-1.0302658 -0.48065948 1.7325805
-0.97444916 -0.47719383 1.7267975
-0.75595343 -0.45744628 1.7339959
-0.74088144 -0.45543295 1.710151
-0.61405766 -0.46833369 1.7254895
-0.57170814 -0.477339 1.7200391
-0.52737737 -0.48515958 1.7301598
-0.47423249 -0.49303421 1.7256265
-0.42406651 -0.49503887 1.725172
-0.37522486 -0.49516356 1.7251464
-0.32568812 -0.49663851 1.729188
-0.27370185 -0.49362478 1.7244587
-0.22681865 -0.49184471 1.7227999
-0.17369778 -0.48758903 1.7158048
-0.1382969 -0.48576847 1.7181526
-0.083046876 -0.48541141 1.7403544
-0.014675108 -0.47884569 1.7260791
0.022443295 -0.47682363 1.7267952
0.07510516 -0.47076702 1.7233429
0.12554115 -0.46152645 1.7199416
0.1736428 -0.45817015 1.722978
0.23788138 -0.45443493 1.7283657
0.26548332 -0.45261756 1.7220902
0.31726304 -0.45127967 1.7281734
0.36054429 -0.45215246 1.7258731
-1.739682 -0.44039398 1.7462249
-0.73980093 -0.41502333 1.7148576
-0.60131586 -0.43095946 1.7025566
-0.57787806 -0.42145434 1.7261734
0.28946736 -0.44782427 1.7179314
0.33052117 -0.44731525 1.724079
0.37505406 -0.44683573 1.7263722
0.42171073 -0.44413891 1.7241439
0.47423843 -0.44455481 1.7223938
0.53156501 -0.44242346 1.7291266
0.57661754 -0.4415493 1.7248901
0.62019414 -0.44058192 1.7177808
0.67654884 -0.44284177 1.734498
0.72178775 -0.43683499 1.7240595
0.78089142 -0.43962544 1.7241443
0.81848097 -0.43622571 1.7263876
0.87037635 -0.43382782 1.709893
0.92635179 -0.43277833 1.7189288
0.96952713 -0.42979401 1.7208397
1.0284681 -0.42750493 1.7123103
1.0548273 -0.43200076 1.7231669
-0.60893971 -0.35797259 1.7025346
-0.57730705 -0.37428674 1.7246939
-0.54797763 -0.36669177 1.7499219
-0.66760963 -0.31734172 1.7200195
-0.62405342 -0.32578817 1.724467
-0.58470017 -0.33741954 1.7382944
-0.6660614 -0.29884833 1.7437185
-0.56886297 0.44382998 1.7440127
-0.52347499 0.44693485 1.7477776
-0.46960816 0.4434014 1.7331915
-0.56163734 0.46985182 1.7431942
-0.52410591 0.47638792 1.7331752
-0.47633392 0.47491354 1.7348003
-0.44500729 0.47893888 1.7415608
-0.51085293 0.51028621 1.7201276
-0.47484231 0.51976418 1.7224885
-0.43654248 0.51986384 1.7321627
-1.7646047 -0.50899303 1.7566171
-1.7247303 -0.50565141 1.76914
-1.6922591 -0.50440377 1.7881657
-1.6103127 -0.50066477 1.7598234
-1.4051404 -0.50189602 1.7866881
-1.3522983 -0.50247097 1.7661943
-0.27043965 -0.50128603 1.7849728
-1.7632997 -0.49321771 1.7700858
-1.7326317 -0.47818121 1.7734902
-1.638312 -0.49828619 1.7930974
-1.5785412 -0.49755001 1.7656498
-1.5024201 -0.49756715 1.7570596
-1.4759725 -0.49581465 1.7658443
-1.4300696 -0.4956454 1.7761046
-1.3753471 -0.49682993 1.7784822
-1.3347759 -0.49976286 1.7630267
-1.056819 -0.47852951 1.7803986
-1.0247792 -0.47980651 1.7676996
-0.75731736 -0.45197323 1.7506218
-0.60519832 -0.46508908 1.7554226
-0.57867455 -0.46737021 1.7718493
-0.521694 -0.47682738 1.7722217
-0.47771722 -0.48279408 1.776564
-0.42809343 -0.48722413 1.7726846
-0.37433803 -0.49060997 1.7713571
-0.32788217 -0.49334699 1.775561
-0.27109626 -0.49432072 1.7708565
-0.23899341 -0.49308789 1.7667134
-0.16810475 -0.49350372 1.7653435
-0.11190317 -0.48930612 1.7664608
-0.072901338 -0.48899603 1.7864478
-0.02043413 -0.48363075 1.7811648
0.02985039 -0.4766601 1.7687747
0.074248552 -0.47447017 1.7810533
0.12547769 -0.46213651 1.7667192
0.17485018 -0.45758849 1.7661705
0.22226593 -0.4573693 1.7769969
0.28087431 -0.4527275 1.7735306
0.32292417 -0.45066541 1.7605171
0.35583773 -0.45074734 1.793468
0.408214 -0.45000964 1.7829008
-2.110589 -0.42031777 1.7840202
-2.0993624 -0.40692443 1.788222
-1.7636063 -0.40815377 1.7890699
-1.7313424 -0.42610025 1.7677784
-0.7668429 -0.4485034 1.7743118
-0.55423915 -0.4257184 1.7562195
-0.5271194 -0.42580459 1.778555
-0.49597278 -0.41423479 1.7961839
0.23513572 -0.44856232 1.7614508
0.32388929 -0.44748691 1.7737353
0.37797111 -0.44558278 1.7692506
0.42393708 -0.44453755 1.7730246
0.46937537 -0.44344136 1.7772588
0.52179039 -0.44312787 1.7724826
0.57406056 -0.44008982 1.7703274
0.62592655 -0.43960059 1.7738119
0.67471904 -0.43670902 1.7734849
0.72685558 -0.43617299 1.7830844
0.77765375 -0.43591747 1.7757455
0.83089048 -0.43638477 1.7711749
0.8730402 -0.4362784 1.7827511
0.92072523 -0.43668854 1.7729503
0.97020108 -0.43316957 1.7743826
1.0381484 -0.43806496 1.7871313
1.0566707 -0.43494609 1.7885427
-2.1082616 -0.37282836 1.7848734
-2.0984137 -0.39321488 1.7784021
-1.7078483 -0.35705701 1.7926933
-1.6881572 -0.35528177 1.7928225
-0.55012143 -0.39442429 1.7528566
-0.52502191 -0.37392333 1.7705864
-0.49196312 -0.37850949 1.7945329
-2.1224153 -0.34683093 1.7958283
-1.7683977 -0.30890346 1.7932307
-0.65997207 -0.30210292 1.7661841
-0.61999989 -0.30437934 1.762022
-0.57162869 -0.31910822 1.7700498
-0.52952474 -0.33225125 1.7868382
-0.65726233 -0.2806195 1.7745634
-0.62569845 -0.2826097 1.7840155
-0.58937603 -0.28827858 1.7915078
-0.72942698 -0.054079138 1.7964922
-0.72422051 -0.0088482555 1.7841812
-0.75559616 0.020078577 1.7965425
-0.7610305 0.26820326 1.7855878
-0.72325951 0.26314929 1.7931243
-0.75267673 0.33422238 1.7946291
-0.74984777 0.35789409 1.7970477
-0.71912503 0.40647304 1.7892278
-0.66961581 0.42009851 1.7889621
-0.55944985 0.44025564 1.7703977
-0.52372915 0.42984772 1.7718863
-0.47558376 0.43121818 1.779081
-0.43681747 0.44179693 1.7809721
-0.56233782 0.45001784 1.752257
-0.42115414 0.4723056 1.7688934
-0.39406562 0.48476204 1.7812605
-0.41312748 0.50808561 1.759666
-1.8062407 -0.50941133 1.800944
-1.7066047 -0.50070161 1.8273926
-1.6143495 -0.50296748 1.8398829
-1.4189233 -0.50187469 1.8373655
-0.28792092 -0.5078094 1.8412479
-0.23131126 -0.50311464 1.8293386
-0.13175997 -0.50030965 1.8256752
-1.6221095 -0.4984405 1.8065366
-1.5436077 -0.49117658 1.820653
-1.4669884 -0.49474475 1.8285726
-1.4292555 -0.49690589 1.8240439
-1.0558985 -0.48214757 1.8217795
-0.5604195 -0.46731147 1.8067645
-0.52259266 -0.46726948 1.8248692
-0.47534293 -0.47333136 1.8252652
-0.42257938 -0.47702867 1.8170555
-0.3757804 -0.47723204 1.826761
-0.32434294 -0.48898545 1.8215332
-0.28258854 -0.49835557 1.8069514
-0.17234235 -0.49705723 1.8114481
-0.12305082 -0.49448955 1.8306407
-0.081059933 -0.49086705 1.8273206
-0.028879158 -0.48888111 1.8210063
0.02913601 -0.48342466 1.835614
0.080498859 -0.47678119 1.8234251
0.12941439 -0.46592543 1.8191067
0.16357224 -0.46583521 1.8352418
0.21670441 -0.4600203 1.827053
0.27252743 -0.45627674 1.8203033
0.32181969 -0.45203811 1.8317403
0.36439103 -0.45256579 1.8382202
-1.6260027 -0.4197793 1.8333949
-1.5861361 -0.41461709 1.8459256
-0.50015891 -0.43055722 1.8022596
-0.47198743 -0.42475033 1.8147398
-0.42683566 -0.42079651 1.8318921
-0.38902938 -0.42346239 1.8456622
0.3150939 -0.44686365 1.8206296
0.38054928 -0.44452515 1.818114
0.43121198 -0.44590935 1.8225089
0.47675741 -0.44275033 1.8189554
0.52372682 -0.44062755 1.8214719
0.5769679 -0.43836957 1.8272749
0.62292528 -0.43689293 1.8202181
0.67563432 -0.43688056 1.8268832
0.73012102 -0.43841279 1.8265967
0.77858394 -0.43550205 1.824939
0.82401294 -0.43663356 1.8282518
0.87440473 -0.43736729 1.8227593
0.92895532 -0.43661219 1.8239921
0.96364725 -0.43447956 1.8248901
-1.7221277 -0.35108584 1.8307948
-0.47003174 -0.37358707 1.8079686
-0.42541867 -0.37362707 1.8307993
-0.39062265 -0.37852517 1.8451157
-1.7608514 -0.32126129 1.8176411
-1.7336718 -0.34028688 1.8288858
-0.55175996 -0.303727 1.8016226
-0.51894343 -0.31311494 1.8137434
-0.47673348 -0.32778907 1.8252964
-0.4346123 -0.33356795 1.8411008
-2.2632389 -0.26149401 1.8251348
-2.2279844 -0.25515375 1.8281887
-0.65697956 -0.25726932 1.8032421
-0.62385505 -0.25664011 1.806429
-0.57106966 -0.27189705 1.8194906
-0.53114837 -0.28452882 1.8372581
-0.49715567 -0.29959434 1.8443161
-2.2516291 -0.24347179 1.8254668
-2.2336731 -0.24295329 1.8342727
-0.6575343 -0.22283405 1.8216567
-0.62357002 -0.2253156 1.8205565
-0.58112383 -0.22688162 1.8373497
-0.66183323 -0.17395529 1.8372768
-0.62447673 -0.17523243 1.8322012
-0.59278542 -0.17981538 1.8401021
-0.66827691 -0.11985792 1.8441616
-0.62583566 -0.12250367 1.8388771
-0.59426117 -0.13198021 1.8438458
-0.72374302 -0.058209021 1.8371261
-0.66863269 -0.086559176 1.8464012
-0.63870943 -0.082317509 1.8464718
-0.75998795 -0.020886587 1.821716
-0.72855526 -0.028949227 1.819744
-0.75820231 0.021448284 1.8091146
-0.72804439 0.021838209 1.8186473
-0.69782352 0.0093236174 1.8450857
-0.75602454 0.076460332 1.8152004
-0.73880631 0.070759371 1.8270317
-0.75945944 0.1196895 1.8217989
-0.73787832 0.12845853 1.8304249
-0.76294857 0.17818128 1.828825
-0.74224544 0.17370297 1.8340236
-0.76509041 0.22923033 1.8296382
-0.74368507 0.22173879 1.8385967
-0.61575264 0.24550891 1.8266925
-0.59970444 0.24637987 1.8373408
-0.75996423 0.27520671 1.8159989
-0.73439974 0.27642974 1.8301785
-0.6202324 0.274241 1.8225183
-0.75438309 0.31806466 1.8062394
-0.73140717 0.3253867 1.8254524
-0.67661905 0.3442637 1.8476375
-0.62601471 0.31884521 1.8201964
-0.75839013 0.37125003 1.816188
-0.7238695 0.37482131 1.8197052
-0.67536664 0.37784278 1.8329625
-0.62440675 0.38897955 1.8206314
-0.59222865 0.39189446 1.8428037
-0.52044755 0.39027062 1.8417479
-0.71649033 0.40565002 1.8091394
-0.67561531 0.41149113 1.8139658
-0.62721831 0.41831431 1.8245993
-0.5772078 0.42321303 1.828216
-0.52343887 0.40871754 1.8273095
-0.47402474 0.41302177 1.8258044
-0.42671829 0.4335905 1.8219086
-0.40277159 0.45464182 1.8205447
-0.39574385 0.46473855 1.8207861
-1.723123 -0.50896269 1.8667915
-1.6782613 -0.504215 1.8716885
-1.6308346 -0.50086612 1.8862082
-1.5992185 -0.50350368 1.8542361
-1.4504489 -0.50210261 1.880604
-1.4264685 -0.5060041 1.8757316
-0.31034851 -0.50398898 1.8969617
-0.27918977 -0.5053947 1.8779148
-0.23157296 -0.50441778 1.8694842
-1.7036519 -0.49849606 1.8917634
-1.6886351 -0.49750698 1.8968557
-1.6343917 -0.49961892 1.8760309
-1.5651604 -0.47663283 1.879825
-1.5192293 -0.49444595 1.8792914
-1.4838463 -0.49500442 1.8835087
-1.1228971 -0.49080777 1.8837916
-1.0945289 -0.48281339 1.8576351
-0.50458032 -0.46072945 1.8500733
-0.47188249 -0.46490252 1.8600104
-0.42461652 -0.46185833 1.8630308
-0.37431452 -0.46382385 1.8715609
-0.33542135 -0.48285747 1.8765851
-0.070263311 -0.49884087 1.8573785
-0.011461489 -0.49660629 1.8857954
0.020581013 -0.49197885 1.8681363
0.081795476 -0.4828364 1.880901
0.13208663 -0.4666976 1.8685167
0.1742326 -0.46736124 1.8784462
0.22093612 -0.45994177 1.86431
0.28195512 -0.45672283 1.8800833
0.32530591 -0.45217723 1.8813285
0.36987606 -0.45387837 1.8830625
0.41740906 -0.45187113 1.8678399
-1.5691316 -0.42803815 1.876451
-1.5400002 -0.42577893 1.8863328
-0.40109318 -0.44917792 1.8587176
-0.36454335 -0.4199928 1.8629562
-0.34406802 -0.42028496 1.8858695
0.43525445 -0.4468078 1.8847392
0.47790408 -0.44296277 1.8715197
0.52385062 -0.44175243 1.8827866
0.57065898 -0.43694156 1.8755654
0.62428015 -0.43412334 1.8659185
0.67689478 -0.43644732 1.8705311
0.72951084 -0.43704689 1.866073
0.77053535 -0.4327248 1.8716698
0.82890081 -0.43479398 1.8736591
0.88629246 -0.43680444 1.8748337
0.91875571 -0.43582043 1.8740184
-1.7226404 -0.35353574 1.8527125
-1.6210871 -0.36152756 1.8974216
-1.5793967 -0.35724181 1.8906606
-1.535543 -0.35361019 1.8902494
-0.36742795 -0.37219572 1.8642856
-0.34469911 -0.38157541 1.8882277
-1.7921158 -0.32560962 1.8667281
-1.7418263 -0.34592193 1.875199
-0.46452123 -0.30263656 1.857675
-0.42046729 -0.31913984 1.8667564
-0.38398057 -0.33701268 1.8745363
-2.2230237 -0.25761595 1.871313
-0.51399392 -0.2666451 1.8614181
-0.48200205 -0.28138748 1.8738409
-2.3170953 -0.24909042 1.8545641
-2.2558057 -0.24754688 1.8882983
-0.56136173 -0.21502966 1.8596061
-0.53052402 -0.2279215 1.8748956
-2.333034 -0.17218956 1.8986474
-0.56592286 -0.17335314 1.8657147
-0.5364663 -0.17753933 1.8901465
-0.67140985 -0.1291059 1.8525201
-0.60178792 -0.10059609 1.8533515
-0.56954664 -0.12192913 1.8640572
-0.54060245 -0.12943159 1.8859522
-0.70982581 -0.064959228 1.8599265
-0.67948061 -0.066086702 1.8609377
-0.6195451 -0.070162736 1.857344
-0.57732433 -0.074889734 1.880129
-0.71548617 -0.026249282 1.874348
-0.67596209 -0.027754143 1.8677679
-0.62352663 -0.027015416 1.8734739
-0.58777243 -0.033233847 1.8910087
-0.71606767 0.029630469 1.8803735
-0.67506993 0.02339674 1.8817885
-0.63109648 0.01800313 1.888989
-0.72937638 0.072264336 1.8864291
-0.67876208 0.062567353 1.8963138
-0.64672005 0.056541316 1.8996652
-2.3376465 0.10779423 1.8813996
-0.78562641 0.13616583 1.8544333
-0.73514533 0.118932 1.8761511
-2.362257 0.17614409 1.8969572
-0.78949481 0.16979527 1.8616351
-0.7415055 0.17771114 1.8723963
-0.75567508 0.23410279 1.8512352
-0.73866415 0.2282805 1.8747274
-0.71628499 0.27615547 1.8713855
-0.69188851 0.28255185 1.8878781
-0.60984486 0.29692936 1.8637247
-0.58836704 0.26772809 1.8613327
-2.3071671 0.3182545 1.8607789
-2.2912152 0.317812 1.8717927
-0.71182328 0.3242977 1.8680004
-0.68403232 0.32080546 1.8691972
-0.64755428 0.30650195 1.855803
-0.70472527 0.35603005 1.8531626
-0.69371891 0.35986042 1.8505893
-0.60002911 0.38007751 1.8536284
-0.56959522 0.38843882 1.8664012
-0.51363307 0.38222066 1.8744855
-0.47486705 0.3930583 1.8956876
-0.57950366 0.40974566 1.8631339
-0.50001264 0.40013513 1.8787717
-0.47612327 0.40943286 1.8816837
-0.42246941 0.42949203 1.8652388
-0.40224075 0.45063859 1.8633807
-1.7328423 -0.50359005 1.902012
-1.6889589 -0.5027957 1.9301668
-1.6391219 -0.50014377 1.9494845
-1.5687613 -0.50052112 1.9277089
-1.4554789 -0.50044274 1.9322803
-1.4363046 -0.50483179 1.904488
-0.305233 -0.5016036 1.9263002
-0.28400734 -0.50665611 1.9226408
-0.081464373 -0.50292122 1.908645
-2.1634073 -0.46220469 1.9317181
-1.6647505 -0.49204823 1.9372566
-1.6287924 -0.49311972 1.9379983
-1.5821155 -0.49330008 1.9465642
-1.5255411 -0.47299689 1.9169754
-1.474789 -0.47625563 1.9262191
-1.1315068 -0.49326423 1.9449295
-1.0973399 -0.48285663 1.9083736
-0.36580533 -0.46252352 1.9203615
-0.32740837 -0.49083072 1.9282119
0.12945595 -0.47528106 1.9325889
0.17995895 -0.46715349 1.9165499
0.21181503 -0.46538758 1.9071193
0.27080125 -0.46145654 1.9263916
0.32727486 -0.46131992 1.9199567
0.37875494 -0.45540416 1.9302648
0.42195717 -0.45436218 1.9341849
-2.1655145 -0.42110109 1.9317251
-2.1442924 -0.4348962 1.9438853
-1.5266041 -0.42238483 1.9171444
-1.4793943 -0.4263846 1.9232099
-0.33610007 -0.41364038 1.9231669
0.36260578 -0.44904506 1.9047823
0.44406855 -0.44630671 1.9241943
0.47390077 -0.44601926 1.9180766
0.52875805 -0.44170514 1.9260718
0.58718199 -0.43838519 1.9184005
0.60382181 -0.43635133 1.9402632
0.67308807 -0.43570328 1.9213716
0.72089392 -0.43452385 1.9105612
0.7724371 -0.43488434 1.9323586
0.82611275 -0.43043259 1.911307
0.87214482 -0.43462664 1.9092488
0.91509908 -0.43624347 1.9030037
0.96718204 -0.43638688 1.9387788
-2.1792474 -0.37130356 1.9383173
-1.51201 -0.36718789 1.9227973
-1.4898398 -0.35331431 1.9173986
-0.35266802 -0.35497612 1.9162717
-0.33852774 -0.38294539 1.9137945
-1.5061297 -0.34600243 1.9400051
-0.4323343 -0.30845052 1.9119847
-0.36919063 -0.34327713 1.9292587
-0.47992399 -0.27620357 1.9110799
-2.3588448 -0.2010856 1.9175411
-2.3430598 -0.20092382 1.9292674
-2.2377801 -0.24851641 1.9214065
-0.51437908 -0.21925347 1.9219359
-2.3561866 -0.18737878 1.9164737
-2.3454831 -0.18763529 1.9323611
-0.5234068 -0.17113964 1.9115962
-0.53008622 -0.12109239 1.9167856
-1.1468731 -0.051515505 1.9493308
-0.5557034 -0.059155542 1.9074202
-0.53990531 -0.077467375 1.9163134
-1.1456563 -0.0100822 1.9477128
-0.56616253 -0.025625158 1.9163281
-0.54527354 -0.040213753 1.9378258
-0.61111063 0.034629758 1.90953
-0.58231813 0.019783678 1.9257826
-0.71553922 0.08576484 1.9055771
-0.67352819 0.082113929 1.9086573
-0.62577242 0.075369418 1.9223148
-0.59547508 0.065033071 1.941918
-0.71989733 0.12486787 1.9200407
-0.67405564 0.12508515 1.9292932
-0.64083642 0.11532773 1.9413843
-0.70843196 0.15486686 1.9389217
-0.67217886 0.17312904 1.9389992
-0.6325053 0.18548124 1.9405047
-2.4190347 0.21481669 1.9396222
-0.72064006 0.22892554 1.918257
-0.67938888 0.21519996 1.9231596
-0.63048065 0.20628755 1.9360609
-0.71506059 0.26014182 1.9201572
-0.69401163 0.25770459 1.9058535
-2.3612664 0.3392342 1.9024682
-2.3588667 0.36796746 1.9209698
-0.55723035 0.38755965 1.9272412
-0.53912681 0.38012663 1.9173448
-0.48097387 0.38528186 1.9222937
-0.46313083 0.41353974 1.920978
-0.43298006 0.43074423 1.9205022
-1.4564859 -0.50465852 1.955368
-0.31306398 -0.50477314 1.9774276
-0.29506502 -0.50765586 1.9774398
-2.1597118 -0.46423125 1.9526885
-1.612602 -0.49044108 1.9636185
-1.5708121 -0.48941112 1.9666766
-1.5374219 -0.47866505 1.9587157
-1.4682478 -0.48364905 1.9611244
-1.324829 -0.4863998 1.9915842
-1.2881775 -0.48304781 1.9918494
-0.32812172 -0.4958047 1.9804449
0.11711735 -0.47800684 1.9645041
0.17073148 -0.47554818 1.9725015
0.23420815 -0.47305655 1.9785453
0.26363307 -0.47391081 1.9797052
0.32778877 -0.45925024 1.9532291
0.38321325 -0.4557656 1.9750965
0.41717592 -0.4518505 1.9755545
0.45409977 -0.45151344 1.9912423
-2.1631765 -0.40944549 1.9581236
-1.48069 -0.41173935 1.956063
0.47327647 -0.44488454 1.9578923
0.52120268 -0.44036719 1.9753253
0.57541525 -0.44003442 1.9755362
0.63962322 -0.44438502 1.9705997
0.6704427 -0.43690038 1.976702
0.72721076 -0.43866256 1.9714462
0.7694459 -0.42999825 1.9684018
0.8193056 -0.43855897 1.9802812
0.85063082 -0.43394879 1.9650469
0.91692942 -0.439098 1.970348
-2.1779807 -0.37713936 1.9716036
-1.5111223 -0.38737294 1.9623157
-2.2050006 -0.34370166 1.97878
-2.4856486 -0.2530711 1.9909343
-2.4149401 -0.15150268 1.992497
-2.3691473 -0.17589578 1.9528887
-0.52679694 -0.17790255 1.9660056
-0.53454536 -0.071810193 1.9618318
-1.1575681 -0.020560106 1.9604435
-1.1499243 -0.041269436 1.9546912
-0.55247617 -0.01426965 1.9546776
-0.54387939 -0.023842636 1.9598982
-2.4597182 0.0084544932 1.9824923
-2.4445634 0.036205143 1.9699625
-1.163373 0.021236278 1.9664742
-0.56216735 0.026963662 1.9683647
-2.4234269 0.070743985 1.9773148
-1.1734542 0.066630907 1.98438
-0.6086368 0.096322417 1.9539196
-0.58308655 0.076194555 1.970605
-0.62036848 0.12859568 1.9692925
-0.59534413 0.11057345 1.9829572
-0.71713382 0.18415271 1.9758372
-0.69696724 0.16525578 1.9504673
-0.62182057 0.16967198 1.9689587
-0.59545416 0.19180089 1.9790974
-2.45136 0.23859219 1.96354
-1.1643707 0.22865613 1.9830267
-1.1200166 0.22573675 1.9887943
-0.65717739 0.22321981 1.9529095
-0.62428308 0.215473 1.9560299
-0.59407413 0.20870142 1.9779904
-2.5005794 0.28607842 1.9983093
-2.4728632 0.26181549 1.9785399
-0.46876922 0.38844982 1.9827913
-0.44989631 0.42355692 1.9535322
-2.5926988 0.78519028 1.9793735
-2.6085844 0.82566386 1.9719675
-2.5830944 0.83198923 1.988398
-2.6158936 0.88509578 1.9704666
-2.5775812 0.87796736 1.9870423
-2.6230576 0.93173319 1.9730967
-2.5857959 0.92481327 1.9906203
-2.6147912 0.98020077 1.9810227
-2.5906827 0.96170342 1.9933102
-2.6129379 1.0252858 1.9838324
-2.5951824 1.0370164 1.9979424
-2.6072996 1.0777988 1.9845358
-2.5932708 1.0771804 1.9949701
-2.5888441 1.1261758 1.9950914
-2.5933208 1.1784058 1.9971119
-1.4622657 -0.50867641 2.0274634
-1.4221905 -0.50523424 2.0441396
-1.3684473 -0.51168865 2.0433569
-1.3198102 -0.5061543 2.0385332
-0.30741653 -0.50984681 2.0397103
-0.28469679 -0.50745076 2.0218127
-1.4665576 -0.49194551 2.0337894
-1.4281327 -0.48796624 2.0268712
-1.3797414 -0.49822292 2.0280602
-1.2725229 -0.48762399 2.0243576
-0.36558187 -0.48741096 2.0261939
0.13107871 -0.48452514 2.0331097
0.18953636 -0.47244075 2.0221498
0.22755906 -0.47212362 2.0072486
0.26897502 -0.47364581 2.0213735
0.34279555 -0.46350837 2.014255
0.4382419 -0.45546186 2.0116086
0.56493932 -0.44283947 2.0030932
0.63054109 -0.43945226 2.0107708
0.67060751 -0.43728003 2.0296674
0.72908759 -0.43541119 2.024071
0.77930254 -0.43193692 2.0291696
0.83692557 -0.43243238 2.015656
0.91388434 -0.43970492 2.0303011
-2.2054503 -0.3603195 2.014343
-2.234127 -0.33009464 2.0328643
-2.4320593 -0.25277174 2.0372977
-2.5214033 -0.22803311 2.0222685
-2.4576395 -0.24045092 2.0470572
-2.5115821 -0.17710036 2.0183332
-2.5089266 -0.12698133 2.0191793
-2.4412351 -0.11805244 2.0160763
-2.508651 -0.077037349 2.0208855
-2.4506466 -0.05502281 2.0259972
-2.4367366 -0.082757108 2.0137289
-0.5097208 -0.074544124 2.0427389
-0.49423623 -0.069000892 2.0289326
-2.475656 -0.024048809 2.0158293
-2.4480858 -0.040876389 2.0241294
-0.52263123 -0.026130585 2.0201781
-0.47882608 -0.024096074 2.0260317
-2.4611359 0.015552853 2.035074
-2.4410393 0.04353565 2.0180836
-0.56286258 0.026634743 2.0282495
-0.50429434 0.024830513 2.0355003
-0.48146528 0.023458695 2.0287228
-2.4296529 0.057316799 2.0083497
-0.57620299 0.082781859 2.0080292
-0.50564897 0.079762489 2.0470176
-0.48655015 0.079063378 2.0321078
-2.4252539 0.13470773 2.0272212
-0.60463685 0.13867883 2.0127349
-0.58964264 0.11656433 2.0191567
-0.50516135 0.12285639 2.0435984
-0.48874548 0.130364 2.0453835
-2.4269359 0.1700144 2.0263169
-0.60878986 0.16407087 2.0194664
-0.59346902 0.19377038 2.0192327
-2.4574814 0.20054793 2.0496275
-1.0831281 0.22961499 2.025007
-0.58757102 0.21168785 2.024941
-0.47972384 0.24619137 2.045151
-0.47513011 0.27770242 2.0406504
-2.5189297 0.32405889 2.0084503
-0.46708748 0.32790518 2.0391726
-2.5277379 0.37555885 2.0083656
-0.46396756 0.37025079 2.0313418
-2.523632 0.42345324 2.012239
-2.4791214 0.41761979 2.0402193
-2.5580149 0.47462809 2.016377
-2.5379837 0.48084021 2.0251815
-2.4355595 0.49778089 2.0142159
-2.5556047 0.51058114 2.0074632
-2.5356865 0.50946105 2.0176599
-2.5573521 0.83820212 2.0045829
-2.5272775 0.83355588 2.0174234
-2.5606949 0.86154175 2.0001156
-2.5274749 0.87506825 2.0206647
-2.4975505 0.88227856 2.0462523
-2.5612519 0.92643553 2.0064347
-2.5281103 0.92513508 2.0320134
-2.5665808 0.97606236 2.0077388
-2.5283618 0.9761613 2.0340841
-2.5693548 1.0246842 2.0144746
-2.5258744 1.0226536 2.0366261
-2.5701168 1.0769094 2.0154829
-2.5233934 1.0695257 2.038481
-2.5702474 1.1233648 2.0143008
-2.5338528 1.122985 2.0334241
-2.5710728 1.1749856 2.013618
-2.528795 1.1731308 2.036459
-2.5686896 1.2269212 2.018131
-2.5297463 1.2266358 2.0435836
-2.560904 1.2805853 2.0221937
-2.5386698 1.2751771 2.0385857
-2.5559623 1.3128141 2.0173447
-2.5325551 1.3273715 2.0395503
-2.5536656 1.3505974 2.0271168
-2.5349088 1.3707702 2.0396645
-2.5312028 1.4217528 2.0443749
-1.4505634 -0.51117414 2.0617287
-1.4199594 -0.51724106 2.0621397
-1.3028517 -0.51056242 2.0703313
-1.2800084 -0.50826931 2.0691404
-0.36487192 -0.50007468 2.0800538
-0.31497329 -0.50395411 2.0575924
-0.27733254 -0.51389146 2.0804632
-1.4949783 -0.49102733 2.059391
-1.4206398 -0.49723285 2.0671201
-1.2609003 -0.488455 2.0700457
0.12863746 -0.48416597 2.0757072
0.2756584 -0.47530177 2.0731561
0.3162995 -0.47557443 2.070503
-2.2412591 -0.41891432 2.090277
0.62668693 -0.44345558 2.0699208
0.82908231 -0.43586913 2.073612
-2.2650855 -0.3585214 2.096601
-2.2368417 -0.37395543 2.0609417
-2.2774825 -0.31093618 2.0714445
-1.7844048 -0.32700932 2.0948331
-2.4135718 -0.25386244 2.0737782
-2.3928025 -0.25396377 2.0952046
-2.2697456 -0.27954966 2.0594878
-2.4583387 -0.22424698 2.0649343
-2.4433963 -0.22761996 2.0889208
-2.3386941 -0.24973057 2.073653
-2.4616463 -0.17726871 2.0687954
-2.4395905 -0.17727119 2.0896647
-2.4660721 -0.12747942 2.0755446
-2.4426498 -0.12743221 2.0953176
-1.7689328 -0.13427368 2.0745997
-2.4635792 -0.077297673 2.0754073
-2.4410722 -0.077317871 2.0959275
-0.51529175 -0.06529291 2.0653396
-0.48767892 -0.063297383 2.0589826
-2.4640486 -0.027247576 2.0767949
-2.434741 -0.030809946 2.0980222
-0.50060803 -0.030124569 2.0699885
-0.48230377 -0.028271077 2.0584412
-2.4605522 0.022780657 2.0737746
-2.4411187 0.022747571 2.0968859
-0.52302319 0.025378786 2.075752
-0.47024181 0.0050999993 2.074017
-2.4566939 0.072632924 2.0668595
-2.4430327 0.072764166 2.0908751
-0.5835036 0.091023177 2.063077
-0.52761889 0.08162275 2.093008
-0.4767676 0.079948083 2.0561364
-2.4540155 0.10821491 2.0658817
-2.441432 0.12736973 2.0849271
-0.60675514 0.14226568 2.0675797
-0.59078062 0.12076216 2.0502579
-0.52104682 0.12521966 2.0652599
-0.47340706 0.12987216 2.0548253
-2.4539356 0.17995876 2.0746117
-2.4416945 0.16911431 2.0847733
-1.1312438 0.19198611 2.090414
-0.60964179 0.17717253 2.0572782
-0.51858497 0.16980845 2.0685282
-0.48321095 0.17419234 2.0616069
-2.4601583 0.22883384 2.0728006
-2.4433503 0.20883022 2.0897141
-1.130412 0.21374683 2.0872781
-1.0677587 0.22853649 2.0688064
-1.0278927 0.23639739 2.0748453
-0.51326776 0.20743388 2.0719228
-0.48014456 0.22161382 2.0667312
-2.462908 0.2738508 2.0733995
-0.45884845 0.27038467 2.0635114
-0.44979885 0.29158804 2.0616491
-2.4704463 0.3250519 2.0734897
-2.4389184 0.33179829 2.0988023
-0.45270264 0.31140956 2.0571811
-0.44974816 0.31668144 2.0588863
-2.4721045 0.37565789 2.0676684
-2.4417901 0.37535238 2.0950029
-2.469048 0.42674014 2.0700498
-2.4475842 0.42673275 2.0916579
-2.4648774 0.47995785 2.0734372
-2.4593744 0.507025 2.0733404
-2.4389806 0.50723851 2.0958261
-2.3679616 0.50949508 2.0578225
-2.3958564 0.69520491 2.0923767
-2.4668982 0.83083606 2.0672572
-2.4382019 0.8203634 2.0879209
-2.4725432 0.87382627 2.0676825
-2.4422538 0.87262625 2.0909598
-2.5004668 0.94074988 2.0568199
-2.469816 0.91875684 2.0671277
-2.4356577 0.92324209 2.0928736
-2.5047474 0.96478659 2.0521927
-2.4757664 0.97301453 2.0700066
-2.4397531 0.96469992 2.0918047
-2.5013325 1.0367752 2.050271
-2.4762592 1.0196338 2.0705993
-2.4433784 1.0233339 2.094218
-2.4764154 1.0689422 2.0705786
-2.4413681 1.0741906 2.0912971
-2.5085719 1.1217914 2.052207
-2.4739623 1.1197385 2.0765009
-2.438096 1.1170588 2.0996239
-2.5030053 1.1716737 2.054796
-2.4740927 1.1724231 2.0752332
-2.4432981 1.1672139 2.0933869
-2.506705 1.2418327 2.0574324
-2.4826987 1.2212197 2.0750172
-2.4432001 1.230301 2.095144
-2.5139346 1.2819717 2.0542839
-2.4760063 1.2714316 2.0750782
-2.4425671 1.2708451 2.0959609
-2.5090899 1.3200827 2.0540359
-2.4763241 1.3267097 2.0760465
-2.4403563 1.3238384 2.0989799
-2.5074868 1.3739343 2.0569839
-2.4719884 1.3759023 2.0825248
-2.4431684 1.3957278 2.0978317
-2.5111525 1.4169273 2.0583682
-2.4715006 1.4218377 2.081321
-2.5104516 1.4724505 2.0607572
-2.4768679 1.4774916 2.0859847
-2.5121145 1.5117331 2.0550957
-2.4782887 1.5264 2.0792062
-2.5015495 1.5720255 2.0743544
-2.482991 1.5767844 2.0898736
-2.4691966 1.6243806 2.0879235
-1.5260637 -0.50521433 2.1256514
-1.3903352 -0.5030511 2.1159132
-0.35526466 -0.50828004 2.1159697
-0.32567129 -0.5106135 2.1290119
-1.5007026 -0.49276274 2.1398258
-1.4073303 -0.47365421 2.1480911
-1.3686775 -0.47556797 2.1312459
-1.3354241 -0.45550281 2.1464872
-1.2700213 -0.48130509 2.1188676
-0.37150955 -0.49878061 2.1195469
0.12668431 -0.4858222 2.128907
0.16803896 -0.48582798 2.127043
0.27254289 -0.47745046 2.13026
0.32083285 -0.47983378 2.1365604
-2.251514 -0.40007856 2.1033456
-1.4017071 -0.44815859 2.1434264
-1.3714972 -0.44602242 2.1448634
-1.328656 -0.44351217 2.1496415
-2.3045983 -0.35070586 2.1352031
-2.2910967 -0.39303946 2.1425903
-2.2970848 -0.30559683 2.107718
-1.8843566 -0.33314326 2.1311765
-1.823434 -0.30166644 2.1125386
-1.7716007 -0.31905043 2.114157
-2.3609989 -0.25443077 2.1328917
-2.3411841 -0.27824348 2.1321106
-1.8141338 -0.27074185 2.1186483
-1.7855245 -0.27811834 2.1238127
-2.4179747 -0.22729743 2.1066787
-2.3737693 -0.2265545 2.1338115
-1.8153076 -0.23846091 2.1216578
-2.4146392 -0.17705919 2.1077647
-2.3722885 -0.17664087 2.1364427
-1.8299644 -0.16370434 2.1326501
-1.781706 -0.16164315 2.1232889
-2.4156718 -0.12719226 2.1116869
-2.3817427 -0.12696218 2.1347148
-1.8228142 -0.12838137 2.1262469
-1.7697456 -0.13278906 2.1212499
-2.4144478 -0.077199638 2.1125777
-2.3717005 -0.077640578 2.1384156
-2.3464077 -0.069629051 2.1446733
-0.52574956 -0.071715862 2.1071262
-2.4160092 -0.027243366 2.1105146
-2.3824928 -0.025449034 2.1283846
-2.3477759 -0.013013468 2.1467738
-2.4129629 0.022650495 2.1121912
-2.3790028 0.02253918 2.1351316
-2.4126136 0.072542049 2.1108549
-2.3809652 0.07238137 2.1358631
-2.4140942 0.12249738 2.1100543
-2.3730471 0.1240267 2.1373768
-0.54110652 0.13343823 2.1022985
-2.4165728 0.17261384 2.1091454
-2.374434 0.17206869 2.1380827
-1.124409 0.19361946 2.1149182
-2.4209199 0.22302224 2.1087828
-2.3764484 0.22211586 2.1357999
-1.1221091 0.22081126 2.1086013
-1.0538983 0.22897819 2.1023314
-1.0181662 0.23049335 2.1117728
-0.98178381 0.23631395 2.1278946
-0.47061929 0.23290256 2.1262679
-2.4260018 0.27363661 2.108062
-2.3795085 0.27234888 2.133476
-0.45881355 0.26154685 2.1061621
-2.4169426 0.32179707 2.1164358
-2.3773427 0.32297778 2.1387153
-2.3437757 0.31414607 2.1491456
-2.4152992 0.37453714 2.1119318
-2.3782847 0.37317181 2.1324368
-2.4218993 0.42597175 2.1094177
-2.3801208 0.42721739 2.1333287
-2.4247978 0.47959891 2.10794
-2.3794076 0.47356087 2.133003
-2.3430324 0.47338194 2.1498024
-2.4098399 0.51718491 2.1149032
-2.3820972 0.52456731 2.1373718
-2.4112339 0.56526661 2.1124804
-2.3867009 0.57764822 2.1313064
-2.4047031 0.63244331 2.1176825
-2.3811448 0.62181675 2.1335828
-2.4058611 0.67370737 2.1148336
-2.3807425 0.67425525 2.1393647
-2.4042189 0.72373521 2.1201611
-2.382771 0.72663933 2.1386561
-2.4093032 0.78133845 2.1148152
-2.3835595 0.77678758 2.1358049
-2.414407 0.8246336 2.1130607
-2.3813457 0.82329661 2.1377521
-2.4193821 0.87230664 2.1114752
-2.3825166 0.8704471 2.1374357
-2.4122384 0.91522729 2.1112766
-2.3802052 0.92543674 2.1372559
-2.4156067 0.97148627 2.1127613
-2.385144 0.97595251 2.1344702
-2.4190841 1.0244426 2.1103878
-2.3812015 1.0299815 2.1349456
-2.4188442 1.0816475 2.1090825
-2.3813024 1.0817374 2.135088
-2.4201863 1.1306149 2.1146672
-2.3762958 1.1314138 2.1385136
-2.4163826 1.1739086 2.1116621
-2.3776839 1.1771982 2.1371322
-2.4197738 1.2243196 2.1098731
-2.3795965 1.2287191 2.1376164
-2.4157438 1.2763683 2.1095853
-2.3771563 1.2801858 2.1345131
-2.4122856 1.3232449 2.1109226
-2.3806591 1.3280923 2.1378288
-2.420177 1.3750945 2.1170168
-2.3770916 1.3732524 2.1426351
-2.423552 1.4253331 2.1167843
-2.3835998 1.4280522 2.1381869
-2.453125 1.4730089 2.1014245
-2.4278457 1.4718868 2.1200612
-2.3840752 1.4640989 2.1359148
-2.4528115 1.5295554 2.1032848
-2.4251759 1.5226115 2.1152315
-2.3896298 1.526425 2.1385319
-2.4600167 1.5786394 2.1016803
-2.4226439 1.5702331 2.1160691
-2.3854697 1.5720505 2.138988
-2.4583404 1.6277215 2.1053922
-2.4234211 1.6195989 2.120126
-2.3952858 1.6226177 2.1452847
-2.4620028 1.6817837 2.1072237
-2.4254599 1.6728985 2.1284411
-2.3909898 1.6704689 2.1461246
-2.4539075 1.7267795 2.1103637
-2.4299769 1.7148867 2.1303144
-2.4322817 1.7705718 2.1360424
-2.3998535 1.7605989 2.1392386
-2.4199317 1.8228837 2.1404064
-2.3986402 1.8654884 2.1440818
-2.2047505 -0.50211006 2.1706915
-1.5060302 -0.50663304 2.1825976
-0.36526036 -0.50578761 2.1667068
-0.32224658 -0.51031113 2.1668727
-0.28805551 -0.51757401 2.1776874
-0.2219846 -0.5135358 2.1969976
-0.17261177 -0.51505888 2.1688209
-0.13559912 -0.52122658 2.1873264
-0.060931355 -0.50895041 2.1841624
-2.2730932 -0.46841368 2.1756904
-2.2301769 -0.47810027 2.1879261
-2.194649 -0.47502926 2.1922572
-1.4163758 -0.48144379 2.1609898
-1.3736641 -0.48730183 2.1589508
-1.3342212 -0.47484463 2.1727705
-0.37311205 -0.49387762 2.1944983
0.12463583 -0.49289662 2.1842127
0.15207323 -0.49069163 2.1976728
0.23496249 -0.49085587 2.1691499
0.25447118 -0.49304381 2.1531634
0.33303833 -0.47930461 2.1826434
-2.2740355 -0.42329109 2.1744747
-2.2257907 -0.44762233 2.1757302
-1.3679698 -0.43503058 2.1533246
-1.3404379 -0.43765014 2.1639991
-2.3097413 -0.36786488 2.1643207
-2.2874346 -0.37481824 2.1819103
-2.2484639 -0.39304584 2.1809063
-2.315738 -0.32512513 2.1625364
-2.2857025 -0.32494095 2.18713
-2.2250454 -0.32136455 2.1941772
-2.1319017 -0.3002224 2.1801224
-2.3205154 -0.27272287 2.1652238
-2.2819405 -0.27491695 2.189343
-2.1146672 -0.29974002 2.1880066
-1.8182071 -0.25590989 2.1838832
-2.3226492 -0.22583066 2.1665258
-2.2789643 -0.22508208 2.1913698
-1.8734258 -0.21566156 2.1798272
-1.8299494 -0.22845028 2.179579
-2.3224299 -0.17617929 2.1702278
-2.2754803 -0.17535205 2.1918578
-1.8680977 -0.18750927 2.1708708
-1.801103 -0.16575074 2.1945145
-1.7818322 -0.15710217 2.1593726
-2.3556206 -0.12674592 2.1509066
-2.3195925 -0.12638159 2.170522
-2.279295 -0.129501 2.1916738
-1.8710427 -0.10881084 2.1714203
-1.8180447 -0.10577454 2.1775734
-1.790671 -0.11308847 2.1604056
-2.3208697 -0.079594038 2.1682835
-2.2885268 -0.071901187 2.1873283
-1.8711182 -0.079280518 2.1749578
-1.844317 -0.079683326 2.1835873
-2.354115 -0.034354478 2.1523938
-2.3246558 -0.027204692 2.1649673
-2.2894793 -0.027168682 2.1846557
-2.3541591 0.022470072 2.1524296
-2.3201604 0.025163855 2.1685894
-2.2834785 0.02119441 2.1882744
-2.355665 0.07222759 2.1527889
-2.32482 0.071893565 2.1640441
-2.2804213 0.071537346 2.1880951
-2.3573 0.10071379 2.153265
-2.3235877 0.11972661 2.1717696
-2.2852361 0.12349211 2.1906247
-2.3193634 0.17632346 2.169153
-2.2833717 0.17914096 2.1907027
-1.1536682 0.18346176 2.1970055
-1.1433755 0.19064571 2.194334
-2.3296816 0.2257791 2.1697075
-2.2893119 0.23140353 2.1934152
-1.1454871 0.21395759 2.1858425
-2.3276076 0.27653062 2.1676233
-2.2862225 0.27753958 2.1923032
-2.3535166 0.33688405 2.1552076
-2.3255737 0.32428363 2.1650825
-2.2907546 0.32782775 2.1905851
-2.3556299 0.37294701 2.1519349
-2.3201809 0.37180024 2.1724029
-2.2871814 0.37814143 2.1933699
-2.3604219 0.40953568 2.1506028
-2.326792 0.42291284 2.1704748
-2.2847011 0.42569846 2.1940265
-2.3526883 0.48970607 2.155843
-2.326179 0.47162461 2.1688869
-2.2909639 0.47544965 2.1912487
-2.3580391 0.52685171 2.1532519
-2.324558 0.52573764 2.1759045
-2.291523 0.52709895 2.1978309
-2.3656807 0.57190812 2.1506112
-2.3269033 0.57733411 2.172261
-2.2906911 0.58069092 2.1942937
-2.3593609 0.63912046 2.1558292
-2.3248193 0.62037224 2.1719177
-2.2835667 0.61248106 2.1979852
-2.3621111 0.66165036 2.1526113
-2.3289082 0.6749258 2.1719768
-2.2889705 0.67681664 2.1924999
-2.3553994 0.72938585 2.1551301
-2.3215182 0.72783947 2.1778164
-2.2830141 0.724796 2.1954582
-2.3648834 0.76890099 2.1528182
-2.3292599 0.77404046 2.1718991
-2.2924662 0.77143103 2.1914985
-2.3590798 0.83050096 2.1558928
-2.3241839 0.81866008 2.1753705
-2.3576264 0.8767451 2.153039
-2.3264716 0.8727833 2.1732535
-2.2940886 0.87344092 2.1959605
-2.3592157 0.92439085 2.1523337
-2.3295774 0.92814243 2.1751723
-2.2906396 0.92783028 2.1948195
-2.3552511 0.98060632 2.1564128
-2.3220019 0.98010617 2.176188
-2.2915769 0.97547758 2.1927299
-2.3617165 1.0130581 2.1506555
-2.3278039 1.0288568 2.1730061
-2.2962244 1.0177345 2.1963964
-2.3560534 1.069334 2.1514699
-2.3245881 1.0760114 2.174103
-2.2891293 1.0807672 2.1926141
-2.3516302 1.1191524 2.1556144
-2.3228478 1.1281613 2.1764076
-2.289633 1.123118 2.1953602
-2.3281598 1.1779814 2.1702387
-2.2923553 1.1745281 2.1962588
-2.3564084 1.2118893 2.1500111
-2.3258724 1.2268363 2.1698017
-2.2919888 1.2248445 2.1933393
-2.3521225 1.2631193 2.1519806
-2.3246365 1.2798867 2.1743717
-2.2889769 1.2769237 2.1963341
-2.3551986 1.3343116 2.1521974
-2.3232379 1.3222522 2.1744838
-2.3270912 1.371094 2.1752701
-2.2947841 1.3500217 2.1991653
-2.3587594 1.4270316 2.1570444
-2.3222256 1.4235606 2.1787791
-2.2904119 1.4104404 2.1947918
-2.3647971 1.4841173 2.1568737
-2.3256762 1.4696926 2.1815069
-2.2980902 1.4870117 2.1965117
-2.3641701 1.526929 2.1591897
-2.3281438 1.5198851 2.1837809
-2.294636 1.5340002 2.1995082
-2.3635712 1.5736079 2.1574469
-2.3229823 1.5733629 2.1849337
-2.3694663 1.6254604 2.1643212
-2.3310068 1.6292833 2.1865168
-2.3693407 1.6800309 2.1633079
-2.331404 1.6804138 2.1886904
-2.4142337 1.7409185 2.1525898
-2.372436 1.728817 2.1628156
-2.3231812 1.726408 2.187891
-2.3767269 1.7754334 2.1686788
-2.3272629 1.7685311 2.19279
-2.4035056 1.8364524 2.168365
-2.3704233 1.8228432 2.1736026
-2.3431618 1.8204083 2.1922679
-2.401474 1.8512959 2.1565874
-2.3773715 1.8772743 2.1732097
-2.3369098 1.8764541 2.1935701
-2.4024191 1.9142358 2.1547551
-2.3724048 1.924827 2.1777992
-2.3324437 1.9190267 2.196732
-2.3693652 1.9701302 2.1886225
-2.3737073 2.0200837 2.1926565
-2.3664167 2.0534043 2.1977599
-1.5254366 -0.51319903 2.2106895
-1.4745682 -0.51675338 2.2212584
-0.36096933 -0.50478876 2.2199273
-0.32381305 -0.51166588 2.229203
-0.27255982 -0.51810616 2.2129133
-0.22356713 -0.51729679 2.2130468
-0.17526004 -0.51481366 2.2268834
-0.13492814 -0.51566529 2.2229526
-0.078171819 -0.51766115 2.2212024
0.029895026 -0.51011407 2.237824
0.078148127 -0.50658906 2.2215567
0.10992087 -0.50375372 2.2082565
0.18796441 -0.5010469 2.2424026
-2.176959 -0.47424868 2.2007074
-1.4896998 -0.4971813 2.2484386
-1.3641286 -0.48747617 2.2147295
-1.3405175 -0.47492588 2.2244122
-1.081992 -0.48168308 2.2351487
0.12038936 -0.49200895 2.2048812
0.18663913 -0.49758068 2.2268734
0.22404367 -0.49679068 2.2379501
0.2634677 -0.48868921 2.2322047
0.31759909 -0.48301989 2.2272153
-1.4307497 -0.44728363 2.2020464
-1.3570976 -0.4368439 2.249923
-1.3315686 -0.4405399 2.2058299
-2.0557995 -0.36984617 2.2449999
-2.03596 -0.36875677 2.248955
-2.2613239 -0.31745616 2.2042627
-2.2291937 -0.3089059 2.2130983
-2.1871552 -0.30601716 2.2104163
-2.1221714 -0.30278003 2.221544
-2.0226109 -0.31876493 2.24036
-0.55493319 -0.30610806 2.2340143
-0.53284377 -0.32784635 2.2346015
-2.2553601 -0.27429414 2.2033031
-2.2219894 -0.27370045 2.2230084
-2.1749935 -0.27225775 2.2410884
-2.1477144 -0.29245821 2.2498715
-2.0005264 -0.25650835 2.2478044
-1.9817098 -0.27774939 2.2411792
-1.8271216 -0.27568343 2.2236197
-0.58057994 -0.26408336 2.2486234
-2.2537758 -0.22471364 2.2065797
-2.2212956 -0.22239254 2.2239273
-2.1889958 -0.22709315 2.2401528
-1.9657885 -0.24039401 2.2351096
-1.9283297 -0.23744632 2.2173328
-1.8374023 -0.2259068 2.2247157
-0.5822317 -0.20574394 2.2149518
-2.2522357 -0.17522962 2.2088709
-2.224577 -0.17474832 2.2209833
-2.1892445 -0.17422132 2.2378278
-1.8470323 -0.18763801 2.2121301
-0.58567941 -0.18509275 2.229322
-2.2580025 -0.12306035 2.2069623
-2.2203395 -0.12749088 2.2251003
-2.1891575 -0.12245079 2.2432911
-1.8299794 -0.1026617 2.2083433
-0.58409411 -0.1303321 2.2258353
-2.2656646 -0.080817565 2.2054915
-2.2259347 -0.076877937 2.2239053
-2.1873553 -0.071494579 2.2450075
-1.9199387 -0.065179892 2.2172856
-1.8439285 -0.075189553 2.2220006
-2.2618408 -0.023650488 2.2042058
-2.2268889 -0.030275218 2.224443
-2.1897464 -0.020105751 2.2439413
-1.9736487 -0.026088357 2.2419012
-1.9328755 -0.017031988 2.2412126
-1.8722579 -0.012376563 2.2116656
-1.8470087 -0.012358614 2.2184801
-0.60105455 -0.010898455 2.2491624
-0.58494174 -0.026828095 2.2099447
-2.2644856 0.015105049 2.2002103
-2.2264493 0.023454377 2.2257085
-2.1869328 0.014908644 2.2453489
-1.8705312 0.00064284989 2.2219067
-0.60444057 0.03803879 2.2190666
-0.57696635 0.011028846 2.2446878
-2.2549305 0.089092575 2.2089911
-2.2212412 0.078277692 2.2285573
-2.1879876 0.061656754 2.2457445
-0.61377126 0.07302817 2.2386453
-0.57760274 0.098634012 2.2456915
-2.2594354 0.13081726 2.2075567
-2.2174945 0.1274654 2.2293558
-2.1854548 0.14123042 2.2486916
-0.62236249 0.1097616 2.2409577
-0.57337284 0.11419769 2.228714
-2.264318 0.17671382 2.2087018
-2.2231624 0.17896065 2.2294779
-2.1898484 0.17224184 2.245971
-1.1169057 0.1897338 2.218138
-1.0828041 0.19153713 2.2393546
-2.2672369 0.22470284 2.2084675
-2.2238481 0.22652684 2.2287748
-2.1922731 0.22614089 2.2495551
-1.1532301 0.2256971 2.2198143
-1.1274722 0.21988651 2.229043
-1.0846714 0.20737854 2.2338495
-2.2607627 0.27700093 2.2074594
-2.2290156 0.27652496 2.2289715
-2.1947465 0.27572688 2.2472234
-2.266537 0.32737181 2.2070959
-2.2262073 0.32760116 2.2296894
-2.1985412 0.31149229 2.2470944
-2.2624514 0.377525 2.2093327
-2.220634 0.37640223 2.2342741
-2.2620945 0.43143779 2.2070234
-2.2237964 0.42661566 2.2295971
-2.1925619 0.44018003 2.2487612
-2.2645345 0.47180477 2.2089994
-2.225333 0.47497159 2.2334249
-2.1977324 0.47673345 2.2476873
-2.2674484 0.52272117 2.2109408
-2.2232423 0.52598518 2.2348533
-2.2684417 0.57197106 2.2086263
-2.2288184 0.57345617 2.2332134
-2.2690701 0.63253599 2.2097983
-2.2333038 0.62275374 2.2319214
-2.2665882 0.67613113 2.208699
-2.2268834 0.67741203 2.2334204
-2.2643819 0.72821808 2.2101951
-2.2280855 0.72253633 2.2316866
-2.2677262 0.77038378 2.2083368
-2.2248821 0.7737785 2.2346568
-2.2757287 0.82696313 2.2102315
-2.2304485 0.8249824 2.2317581
-2.2697206 0.87603378 2.2078421
-2.230684 0.87736011 2.2339423
-2.2649558 0.92630798 2.2110889
-2.2228651 0.9240002 2.2379704
-2.2700927 0.97467631 2.2086542
-2.2305429 0.97027493 2.2334471
-2.2689667 1.0264212 2.2135069
-2.2260385 1.0190911 2.2392783
-2.2662385 1.0693785 2.2100434
-2.2242994 1.0781268 2.2363396
-2.2631032 1.1210517 2.2112935
-2.2317264 1.123487 2.2355659
-2.2653627 1.1722041 2.2119067
-2.2334192 1.1711307 2.2362158
-2.2667463 1.2233974 2.2107897
-2.2286377 1.2239683 2.238755
-2.263206 1.2751766 2.2133517
-2.230108 1.2735498 2.2368457
-2.2685444 1.327479 2.2141793
-2.2290599 1.3273966 2.2411945
-2.27003 1.3762343 2.2130744
-2.2251861 1.375968 2.2369258
-2.2673521 1.4181428 2.2105763
-2.2325726 1.427709 2.236433
-2.2713091 1.4725721 2.212487
-2.2278798 1.4731178 2.23614
-2.2685273 1.5252137 2.214937
-2.2273443 1.5275797 2.239073
-2.2779379 1.5782958 2.215358
-2.2363892 1.5823574 2.2417209
-2.3057861 1.6153687 2.2020967
-2.2694242 1.6248684 2.2211783
-2.2364776 1.6335536 2.2439504
-2.3037543 1.6649153 2.2049689
-2.2778883 1.6786451 2.2194359
-2.2388732 1.6732073 2.2383497
-2.2759316 1.721702 2.2201843
-2.2357683 1.7147583 2.2444715
-2.3078327 1.7802165 2.2118781
-2.2717967 1.7691041 2.228862
-2.2426417 1.7508881 2.2443168
-2.3181593 1.8291029 2.2107806
-2.2788627 1.8230803 2.2314487
-2.2485926 1.8168504 2.248492
-2.3152201 1.8792499 2.2090557
-2.2808738 1.8717012 2.2320988
-2.3170099 1.9198251 2.2104435
-2.2825356 1.9173403 2.2275953
-2.3210716 1.9737536 2.2191136
-2.2863688 1.9688359 2.2453876
-2.3614535 2.0322847 2.2040517
-2.3231125 2.0259948 2.2205973
-2.2870958 2.0299129 2.2445669
-2.3544192 2.0744538 2.2038012
-2.3255169 2.0792236 2.2220016
-2.2842898 2.0802612 2.24544
-2.3143966 2.1276362 2.2300034
-2.2836416 2.1375003 2.2451038
-2.3086121 2.1620374 2.2290072
-2.2916954 2.1788332 2.2432487
-2.2882154 2.2091897 2.2434783
-1.0964694 -0.50169623 2.2986031
-0.35991347 -0.50220466 2.285779
-0.33004823 -0.50614488 2.2740519
-0.27389413 -0.51460874 2.2719753
-0.22385775 -0.51405448 2.2732131
-0.18652076 -0.5122509 2.292825
-0.12091782 -0.51455975 2.2755024
-0.075897612 -0.51476872 2.2764323
-0.024722232 -0.517075 2.2683854
0.031501655 -0.51057518 2.279979
0.074704386 -0.50880533 2.2815607
0.10969701 -0.50477928 2.2797663
0.23622449 -0.50006932 2.2866385
-1.1326206 -0.48388106 2.2893214
-1.0718172 -0.47245669 2.2672789
-0.37664634 -0.49655989 2.2846479
0.13401668 -0.49207082 2.2553413
0.17509578 -0.49466005 2.2653639
0.21275757 -0.49709845 2.2744751
0.2781502 -0.48454392 2.2642865
0.31258947 -0.48671684 2.2715821
-2.0763032 -0.35966602 2.2691698
-2.1092849 -0.30494621 2.2598152
-2.0810568 -0.32535902 2.2735763
-2.011548 -0.32027626 2.2664561
-0.55966514 -0.30538616 2.284972
-0.53932214 -0.32785064 2.2817988
-2.1544368 -0.26535767 2.2598445
-2.1206236 -0.27163637 2.2756159
-2.069262 -0.27907541 2.281486
-2.0409837 -0.27496567 2.2833138
-1.8673208 -0.25992799 2.2938194
-1.8355832 -0.27521241 2.2529497
-0.57085526 -0.27204755 2.2846193
-2.1616409 -0.22332831 2.2581031
-2.1202359 -0.22271657 2.279707
-2.0810268 -0.23296721 2.2936409
-2.034189 -0.24705875 2.2869079
-1.9793302 -0.22856401 2.2516816
-1.8519497 -0.20989966 2.2537649
-0.57645029 -0.22396499 2.2866325
-2.1627574 -0.17886047 2.2582428
-2.12328 -0.17173176 2.2791729
-2.0797322 -0.16616809 2.2983594
-1.996799 -0.18295674 2.2751436
-1.8554952 -0.19052674 2.2594979
-0.58008975 -0.17116497 2.2852237
-2.1591856 -0.12510267 2.2619267
-2.1178617 -0.12477735 2.2834136
-2.0842726 -0.13839196 2.2984741
-2.0009665 -0.10835648 2.2838483
-1.8612608 -0.10517158 2.2710581
-1.8341241 -0.11751623 2.2622552
-0.58204353 -0.12906867 2.2796581
-2.1604617 -0.076082289 2.2606809
-2.122982 -0.075974412 2.2831767
-2.0817802 -0.068721682 2.2983003
-1.9495683 -0.052810002 2.2517838
-1.8615539 -0.091962703 2.271873
-1.8477875 -0.06502708 2.2557914
-0.58508027 -0.070809737 2.2627094
-0.53828168 -0.088270031 2.2722414
-2.1661212 -0.032715362 2.2587035
-2.1264479 -0.027065646 2.2778406
-2.0810847 -0.021407874 2.2929311
-2.0108039 -0.012872542 2.2714336
-1.9696569 -0.012710426 2.2500932
-1.8642781 -0.012626611 2.2766109
-0.58277446 -0.044118192 2.2670908
-2.1636512 0.021879256 2.2613664
-2.1197662 0.023675907 2.2856781
-2.0989466 0.00080443482 2.2918429
-1.9009579 0.013965595 2.2705905
-1.8744984 0.00062652642 2.2765436
-0.60556376 0.022233125 2.2659225
-0.5911563 0.026907746 2.2676053
-0.50581515 6.4919339e-05 2.2813363
-2.1652229 0.080751643 2.2617593
-2.1202915 0.077682413 2.2875168
-0.61038262 0.081750892 2.2667487
-0.58982605 0.075085826 2.2688026
-2.1672072 0.12528345 2.2600718
-2.1223066 0.12670267 2.2877636
-0.61869639 0.12034728 2.2693541
-0.59611881 0.11653965 2.2720912
-2.1635926 0.17623293 2.2631588
-2.1235054 0.1757673 2.2861869
-1.0644482 0.18901889 2.253557
-1.0293926 0.19157958 2.2737873
-0.99290991 0.19123934 2.2807856
-2.1725929 0.22594348 2.2630558
-2.1246958 0.22485849 2.283736
-1.1078497 0.22938816 2.2567952
-1.0738332 0.22424451 2.2721219
-1.0255731 0.21456388 2.2806752
