ply
format ascii 1.0
comment PCL generated
element vertex 1485
property float x
property float y
property float z
element camera 0
property float view_px
property float view_py
property float view_pz
property float x_axisx
property float x_axisy
property float x_axisz
property float y_axisx
property float y_axisy
property float y_axisz
property float z_axisx
property float z_axisy
property float z_axisz
property float focal
property float scalex
property float scaley
property float centerx
property float centery
property int viewportx
property int viewporty
property float k1
property float k2
end_header
-2.2877946 0.61626112 2.1944005
-2.3507025 0.69884735 2.1592221
-2.3241186 0.67192966 2.1704934
-2.2882581 0.67660856 2.1918173
-2.3547885 0.72920626 2.1545684
-2.3211958 0.72900265 2.1736155
-2.2889252 0.72191471 2.1954105
-2.3580675 0.77635831 2.1578674
-2.3258245 0.77218753 2.1771014
-2.2959535 0.77258927 2.1948369
-2.3569028 0.82240266 2.1563075
-2.3217897 0.82029438 2.1781111
-2.2865498 0.81811064 2.1991618
-2.3617454 0.88562441 2.1542685
-2.3245552 0.87073582 2.1698155
-2.2965388 0.87298834 2.1914747
-2.3596897 0.92457592 2.1527667
-2.3275175 0.93086666 2.1748931
-2.2876103 0.93175173 2.1973934
-2.3545406 0.98029757 2.1557674
-2.3209639 0.97858822 2.1793625
-2.2888606 0.99226171 2.1981754
-2.3557885 1.0296746 2.1574612
-2.3248134 1.0244699 2.1740456
-2.2968559 1.0254549 2.1939838
-2.3573389 1.0699151 2.1526446
-2.3254373 1.0764136 2.174902
-2.2934766 1.0828192 2.1967785
-2.3549438 1.1357695 2.1520462
-2.3247333 1.1256981 2.1732454
-2.2892497 1.1229458 2.1949997
-2.3551562 1.1961069 2.1558933
-2.3234227 1.1763616 2.1747978
-2.2886598 1.1739049 2.1973348
-2.3587432 1.2130901 2.1521413
-2.3257117 1.2298632 2.174464
-2.2911525 1.216826 2.1961455
-2.3572433 1.2734985 2.1529622
-2.326431 1.2808843 2.1760669
-2.2935941 1.287096 2.1970286
-2.3564458 1.3350182 2.153337
-2.3233969 1.329478 2.1721475
-2.2912407 1.3296937 2.1942413
-2.3652949 1.3737971 2.154916
-2.3272681 1.373485 2.1717002
-2.2988713 1.3677964 2.1951244
-2.3557374 1.4252207 2.1542604
-2.3237138 1.4229043 2.1755278
-2.2929838 1.4120309 2.1972528
-2.3592632 1.4631342 2.154779
-2.3245647 1.4747305 2.180171
-2.2959461 1.4778383 2.1987824
-2.363281 1.5241184 2.1651771
-2.3249424 1.5194864 2.1854374
-2.2905183 1.5312474 2.1955612
-2.3666289 1.5804535 2.1603153
-2.3243592 1.5742742 2.1862152
-2.3702757 1.6296949 2.1595528
-2.3304458 1.6288916 2.1859899
-2.290168 1.6044272 2.1871812
-2.3692846 1.6719816 2.1679363
-2.3263302 1.6782899 2.1886125
-2.4039493 1.7474133 2.1524384
-2.3729703 1.7204522 2.161571
-2.334187 1.7294126 2.1907833
-2.3806529 1.777564 2.1656938
-2.3348269 1.7681727 2.185853
-2.4060595 1.8096871 2.15289
-2.3749626 1.8189063 2.1751959
-2.3358109 1.8291324 2.194392
-2.4030178 1.8606977 2.1529794
-2.3778481 1.8752629 2.1757984
-2.3397727 1.878756 2.1962557
-2.4059865 1.9170784 2.1579549
-2.3701835 1.9230064 2.1757386
-2.3294256 1.9082887 2.1991503
-2.3661945 1.9664304 2.1790786
-2.3486612 1.9572488 2.1961286
-2.3678691 2.0226421 2.1948187
-2.363255 2.0506606 2.1948233
-2.3477621 2.0685885 2.1975698
-1.5259111 -0.52165043 2.2226193
-1.4886656 -0.51736474 2.2174721
-0.362598 -0.50695586 2.2295818
-0.32367977 -0.51145852 2.2283001
-0.27371219 -0.517542 2.2226076
-0.22258449 -0.51711762 2.2306299
-0.15822884 -0.51499009 2.206902
-0.12379178 -0.51539034 2.2238963
-0.081771575 -0.51384389 2.220855
-0.026980858 -0.51122779 2.2305775
0.019048929 -0.50970763 2.2361012
0.094697058 -0.50847459 2.2294402
0.10969846 -0.50273448 2.2037885
-2.2197747 -0.4789269 2.2041101
-2.1875036 -0.47654584 2.2113671
-1.3511713 -0.47899857 2.2072365
-1.3399521 -0.47647983 2.2182364
0.12156731 -0.49414527 2.2270179
0.16903102 -0.49350294 2.2094698
0.30854627 -0.49134034 2.2406323
-1.440367 -0.44839191 2.2044728
-1.344557 -0.43879896 2.2282424
-2.0536342 -0.36945662 2.2426353
-2.0260897 -0.37251976 2.2242861
-2.2580655 -0.30993688 2.2019634
-2.2198906 -0.30761626 2.203856
-2.1786735 -0.30483043 2.2018445
-2.1291304 -0.30377293 2.2288291
-2.0189564 -0.31664982 2.2450485
-0.5562095 -0.30681208 2.2391524
-0.54548138 -0.31790918 2.2408972
-2.2561803 -0.2743842 2.2041056
-2.2209234 -0.2735686 2.221956
-2.1781123 -0.27265745 2.2442968
-2.0210326 -0.25737908 2.245235
-1.9781958 -0.27475384 2.2331471
-1.8153646 -0.27770317 2.2151861
-2.2533548 -0.22468363 2.2061663
-2.2191994 -0.22412252 2.2249832
-2.176697 -0.22607097 2.2446342
-1.954197 -0.23897651 2.22193
-1.9261798 -0.23718159 2.2148607
-1.8357837 -0.21785572 2.2233806
-0.58288872 -0.20597611 2.2174511
-2.2509778 -0.18217131 2.2072003
-2.2258074 -0.17200932 2.2192862
-2.1884718 -0.17901142 2.2411027
-1.8502731 -0.19516528 2.2278681
-1.8303347 -0.18109067 2.2210357
-0.58330786 -0.18441139 2.2202911
-2.250937 -0.11172358 2.2111385
-2.2271326 -0.12712473 2.2218652
-2.1888816 -0.12524994 2.2428679
-1.8380561 -0.1031148 2.2180898
-0.58508682 -0.13601589 2.2293999
-2.2608352 -0.083637975 2.2086351
-2.2243135 -0.073917434 2.2210648
-2.1888807 -0.076137789 2.2420669
-1.8384603 -0.07727655 2.2235374
-0.56602097 -0.054617465 2.2461469
-0.54400676 -0.098349236 2.2482133
-2.2648411 -0.027160488 2.2005095
-2.230319 -0.027128169 2.2191408
-2.1911252 -0.027108619 2.2426569
-1.975412 -0.026111711 2.2439098
-1.9244857 -0.019211438 2.2356086
-1.843297 -0.012333763 2.2140183
-0.58989513 -0.027097937 2.2286146
-2.2657855 0.01511206 2.201473
-2.2245543 0.022044675 2.2264473
-1.8824515 0.00064695894 2.2360327
-0.60304463 0.043352567 2.2138762
-0.57602239 0.011019532 2.2410154
-2.2504082 0.099608026 2.2107863
-2.22908 0.078320466 2.2232418
-2.1897821 0.070996471 2.2429402
-0.61303914 0.076383963 2.2288702
-0.57716036 0.098558463 2.2439716
-2.2617614 0.12804152 2.2073379
-2.2219436 0.12771231 2.2338326
-2.1843078 0.12713945 2.2482326
-0.62398303 0.12104388 2.2464066
-0.57474649 0.11448145 2.2340531
-2.265305 0.17773367 2.2077062
-2.22084 0.17695147 2.2296693
-2.1862817 0.17638296 2.2472904
-1.1201205 0.18910621 2.2170911
-1.0834355 0.19165114 2.2406535
-2.2617366 0.22365482 2.2071376
-2.2237687 0.22651672 2.2286878
-2.1906688 0.22597931 2.247921
-1.1514721 0.22535338 2.2164302
-1.1233211 0.21974973 2.2289474
-1.0748551 0.20769978 2.2413313
-2.2647607 0.27572563 2.2062054
-2.2278986 0.27638239 2.2278621
-2.1955404 0.27819017 2.2477677
-2.2609286 0.33021349 2.2118592
-2.2237096 0.32623613 2.2310052
-2.1906822 0.32043386 2.2466486
-2.2621083 0.3774842 2.2089956
-2.2204306 0.37637362 2.2340622
-2.1823695 0.37466234 2.2484021
-2.268491 0.42840937 2.2072155
-2.2252707 0.42689696 2.2310808
-2.1910644 0.43987936 2.247225
-2.2648752 0.47188142 2.2093651
-2.2256594 0.47674981 2.2338598
-2.2631238 0.52307189 2.2110484
-2.2251129 0.52643001 2.2367291
-2.2688215 0.57781911 2.2076616
-2.2285397 0.57338274 2.2329423
-2.2628558 0.62237728 2.2130716
-2.2255414 0.62584805 2.2349961
-2.2682819 0.66908538 2.2115479
-2.2289526 0.67803597 2.235477
-2.2625206 0.72757864 2.2126408
-2.2267416 0.72288156 2.2348657
-2.2697761 0.77108318 2.2103148
-2.226248 0.7742523 2.2360373
-2.2650764 0.82827336 2.2138488
-2.2264464 0.82852799 2.2357814
-2.199738 0.81283808 2.2493327
-2.271421 0.88236421 2.2108588
-2.2287447 0.87547982 2.2360535
-2.2625957 0.92298877 2.2126136
-2.23068 0.92761558 2.2372258
-2.2668335 0.9732641 2.2142036
-2.2257881 0.97243315 2.2383287
-2.2721393 1.0243019 2.2115438
-2.2260649 1.0201061 2.235085
-2.2666247 1.0695647 2.2104154
-2.2220991 1.0745621 2.2385931
-2.2644694 1.1217356 2.2126245
-2.2280691 1.1184059 2.2322643
-2.2706811 1.17013 2.2119505
-2.22699 1.1690652 2.2343957
-2.2663472 1.2231859 2.2103937
-2.2280834 1.2226146 2.2335782
-2.2692225 1.2757347 2.2098832
-2.2309053 1.2699878 2.2326548
-2.2675836 1.3292135 2.2134545
-2.2284017 1.3229034 2.2355838
-2.2676449 1.3802271 2.2144973
-2.2307334 1.380474 2.2379897
-2.2685356 1.4256387 2.2136757
-2.2313843 1.4215428 2.2337172
-2.2716172 1.4727775 2.2127869
-2.2312815 1.4753681 2.2395585
-2.2705424 1.5210054 2.215492
-2.2294917 1.5312847 2.2399602
-2.2735462 1.57293 2.2130556
-2.2297485 1.5768871 2.241374
-2.2785649 1.6257174 2.2214074
-2.2428386 1.6169809 2.2422247
-2.2836134 1.6708449 2.2187028
-2.2442973 1.6627178 2.2406256
-2.3088284 1.7284311 2.2091968
-2.2728298 1.7219565 2.233609
-2.3103058 1.7672139 2.2114313
-2.271332 1.7742262 2.2353978
-2.3099432 1.8206413 2.2078359
-2.2788467 1.8230816 2.2314494
-2.3128655 1.87681 2.2132845
-2.2797937 1.8764917 2.238641
-2.3212643 1.9274771 2.2118263
-2.2750089 1.9217706 2.2396495
-2.3246183 1.9720602 2.2180266
-2.2807679 1.9718863 2.2423651
-2.3504193 2.0060549 2.2045817
-2.3234804 2.0242128 2.2168696
-2.2843244 2.0274794 2.2418616
-2.3216853 2.080097 2.2265351
-2.2850194 2.0809309 2.2461538
-2.3175139 2.1304984 2.2330043
-2.3062449 2.1763482 2.2352901
-2.2962301 2.1663599 2.2458243
-2.2894819 2.2104123 2.24472
-0.35749605 -0.50433719 2.2696002
-0.32509527 -0.50568587 2.2789314
-0.27450424 -0.5143404 2.2771833
-0.22926851 -0.51199776 2.272078
-0.17818691 -0.51436299 2.2663519
-0.12185828 -0.51351523 2.267535
-0.07012514 -0.51470202 2.27753
-0.02667693 -0.51250654 2.2819302
0.033746995 -0.51100427 2.2819371
0.072069205 -0.51132214 2.2711442
0.11254628 -0.50481123 2.26263
0.24811043 -0.50162888 2.2929912
-1.1218539 -0.4789913 2.2772691
-0.373988 -0.49862722 2.2677174
0.1350006 -0.49204919 2.2727525
0.17888698 -0.49533716 2.2682743
0.23001626 -0.4986549 2.2805398
0.26116681 -0.49467933 2.2600007
0.32389745 -0.48708364 2.2722669
0.36496085 -0.47905627 2.2844486
-2.0781615 -0.35999012 2.2712238
-2.1062231 -0.31248933 2.2687507
-2.0786047 -0.32592234 2.2731066
-2.0145271 -0.32338771 2.2738159
-0.56027472 -0.3057197 2.2874682
-0.52617323 -0.33955395 2.2786531
-2.1516538 -0.27200866 2.2561941
-2.125365 -0.27398327 2.2717514
-2.0777955 -0.27669045 2.28069
-2.020628 -0.27344796 2.2775567
-1.9857762 -0.28342742 2.2538807
-1.8623261 -0.2582857 2.2750785
-1.8379323 -0.27556464 2.2558331
-0.56911415 -0.27158377 2.2813885
-2.1571057 -0.2137738 2.2585285
-2.1200349 -0.22636193 2.2767639
-2.07535 -0.22950311 2.2935989
-2.0335674 -0.22624889 2.2879219
-1.9882565 -0.22959478 2.2618361
-0.57599676 -0.2244845 2.2847946
-2.1617346 -0.17877638 2.2571745
-2.1225727 -0.17167957 2.2784059
-2.0855143 -0.18024534 2.2974062
-1.9814796 -0.18830949 2.2572384
-1.8537917 -0.18376927 2.2578743
-0.57973659 -0.17106974 2.2838588
-2.1628504 -0.12160583 2.2593746
-2.1233985 -0.12606807 2.2797608
-2.0000794 -0.10830844 2.2828357
-1.8639591 -0.10532404 2.2743504
-0.58093721 -0.12411534 2.2807159
-2.160682 -0.079138115 2.2633383
-2.1220887 -0.075951748 2.283164
-2.0917106 -0.075759783 2.2959032
-2.0064666 -0.094982311 2.2906206
-1.8566524 -0.091720566 2.2658911
-0.58811682 -0.073492892 2.2648532
-0.53376114 -0.087528728 2.2531588
-2.1653717 -0.024306079 2.2580085
-2.124449 -0.027069706 2.2800426
-2.079309 -0.027026663 2.2960591
-2.0377903 -0.026640877 2.2760231
-1.9751736 -0.01274557 2.2562659
-1.8580017 -0.012584101 2.2689464
-0.57579029 -0.040491477 2.2697976
-2.1736875 0.021139292 2.2578447
-2.1281657 0.020187438 2.2809808
-2.0996084 0.028660627 2.2923748
-1.8728516 0.00062597956 2.2745335
-0.60564077 0.022229861 2.2662106
-0.5910756 0.026924489 2.2673209
-0.50418085 6.4709588e-05 2.2739654
-2.1669447 0.084984072 2.2619498
-2.1238644 0.075677775 2.2839158
-0.61025006 0.079947785 2.2633276
-0.58861744 0.071918353 2.2667081
-2.1620486 0.12703294 2.2644813
-2.123142 0.12675385 2.2886527
-0.61503869 0.11525594 2.2647877
-0.59774524 0.11129596 2.2784719
-2.1622837 0.17610988 2.261785
-2.1247756 0.17587584 2.287569
-1.0611641 0.18815383 2.2561238
-1.0275387 0.19235457 2.2761593
-0.99614853 0.19186415 2.2882249
-2.1633017 0.22528456 2.2590301
-2.1272335 0.22513662 2.286474
-1.1087769 0.23427397 2.2677286
-1.0790949 0.22834423 2.2773442
-1.0257716 0.21643007 2.2789085
-0.99346316 0.21453328 2.2805896
-2.1702619 0.276687 2.2612891
-2.1297278 0.27278146 2.2870443
-2.0972202 0.29492044 2.2996373
-2.1674895 0.32516369 2.2660251
-2.1299579 0.32429656 2.286639
-2.1681125 0.37510079 2.265264
-2.1263585 0.37416774 2.2897635
-2.1738544 0.42367876 2.2619081
-2.1289907 0.42456019 2.2904124
-2.1729224 0.47457591 2.2679718
-2.1289616 0.47432771 2.2935011
-2.1738894 0.52753079 2.2666075
-2.1321661 0.52596611 2.2892551
-2.1791003 0.57161123 2.2629194
-2.1356475 0.57755369 2.2891912
-2.2018077 0.60963964 2.2513685
-2.1720908 0.62362063 2.270869
-2.1342366 0.63255239 2.292984
-2.1772783 0.67768157 2.2687109
-2.1384597 0.67195302 2.2936645
-2.2016947 0.71452129 2.2522194
-2.1702058 0.72080714 2.2716947
-2.1387415 0.71987349 2.2925959
-2.1746383 0.7763378 2.2688236
-2.1330891 0.77248722 2.2947371
-2.1714272 0.82756716 2.2698646
-2.1311042 0.8282674 2.2917366
-2.2039909 0.89293474 2.2567947
-2.1747584 0.87437069 2.2680864
-2.1369991 0.86946583 2.2912934
-2.2073927 0.91629517 2.2525096
-2.1730661 0.92143524 2.2693846
-2.1382198 0.92419052 2.2932098
-2.2021379 0.97905421 2.2529926
-2.1740351 0.97007209 2.2727118
-2.1396365 0.97157037 2.2942259
-2.1741703 1.0208074 2.2694297
-2.1363702 1.0284287 2.2926815
-2.2007945 1.0516386 2.2530513
-2.1753449 1.0772297 2.2697718
-2.1440835 1.082428 2.2929733
-2.2023044 1.1340474 2.2508645
-2.1727843 1.1234363 2.2719629
-2.1384239 1.1317247 2.2960527
-2.2008307 1.1860173 2.2571907
-2.1739666 1.1689743 2.2728567
-2.1411858 1.1819988 2.293282
-2.2060719 1.2114198 2.2520719
-2.1775088 1.2205691 2.2710009
-2.1382024 1.2323164 2.2928696
-2.2054276 1.279938 2.2505517
-2.175704 1.269703 2.2707415
-2.1429694 1.2681578 2.2930343
-2.2066193 1.3352308 2.2571971
-2.1757367 1.3226981 2.2718213
-2.1385503 1.3163427 2.2939873
-2.2085896 1.3793861 2.2535524
-2.1741624 1.3769028 2.2751203
-2.1416364 1.3755817 2.2981377
-2.2121475 1.4248917 2.2509241
-2.1778064 1.4225073 2.2728426
-2.1420867 1.4302257 2.2981851
-2.2080638 1.463159 2.2584813
-2.1766787 1.4705542 2.2792745
-2.1398988 1.4742067 2.2939777
-2.2060142 1.5266186 2.2544689
-2.1744585 1.5226526 2.2698953
-2.1402192 1.5173935 2.2964025
-2.2085905 1.5785344 2.2632141
-2.1734359 1.5757256 2.2848504
-2.1415875 1.598803 2.2956362
-2.2155554 1.6286947 2.261338
-2.1792226 1.6298856 2.2869706
-2.2208495 1.6821606 2.2619367
-2.1791558 1.6765915 2.2871473
-2.2241142 1.7239819 2.2629528
-2.1787622 1.7211825 2.2897019
-2.2535086 1.7593724 2.255192
-2.2231162 1.7755932 2.2627826
-2.1924779 1.7717342 2.2851858
-2.2506623 1.8185228 2.250562
-2.2195511 1.8266592 2.265378
-2.1872413 1.8205434 2.2898123
-2.2558053 1.8850874 2.2530963
-2.2223036 1.8738216 2.2682867
-2.1838443 1.8638805 2.2945344
-2.2276864 1.9152569 2.2659087
-2.1955092 1.9058793 2.2985251
-2.256016 1.9962127 2.2569172
-2.2247167 1.9714614 2.2756
-2.2585871 2.0309811 2.257225
-2.2244618 2.0302479 2.2815235
-2.2623856 2.0835054 2.2606761
-2.22679 2.0750499 2.2827296
-2.2713149 2.1318521 2.2608445
-2.2263541 2.1242924 2.2885361
-2.2713447 2.1821194 2.2666867
-2.2214496 2.169888 2.2893975
-2.2682626 2.2233095 2.2614768
-2.2347214 2.2239881 2.2866106
-2.194207 2.2005088 2.2955568
-2.2619488 2.2685304 2.260345
-2.2326012 2.2667031 2.2820373
-2.2221954 2.3152978 2.2769482
-2.1910231 2.336216 2.2917213
-2.176698 2.3741636 2.2812204
-2.1398544 2.3891113 2.2892818
-0.27852595 -0.50452524 2.313025
-0.22883381 -0.50717682 2.3352323
-0.17183509 -0.50974816 2.3217428
-0.12887447 -0.510813 2.3188634
-0.072136082 -0.5116511 2.3205769
-0.026425848 -0.51146394 2.3256536
0.021713277 -0.50943488 2.3287213
0.076158807 -0.50768483 2.328764
0.11192884 -0.50378031 2.3278601
0.24191143 -0.50072771 2.3433113
-0.36769605 -0.49189013 2.3222625
-0.32978329 -0.4951531 2.3282917
0.13753709 -0.49383414 2.3164406
0.17540726 -0.49175516 2.3285816
0.21630079 -0.49416721 2.3140461
0.27332979 -0.4958089 2.3177886
0.33129492 -0.48688483 2.3257515
-0.50744385 -0.35147536 2.3241227
-0.47676951 -0.36477056 2.332684
-0.52625662 -0.32195234 2.3175111
-0.4936375 -0.32523954 2.3444879
-2.0491769 -0.27661347 2.3011067
-0.52857935 -0.2769888 2.3207583
-0.49439886 -0.27779627 2.3451223
-2.0681169 -0.22167104 2.3012321
-2.0473938 -0.22788703 2.3035412
-1.8861144 -0.20854691 2.321363
-0.5584392 -0.21881947 2.3024721
-0.52831686 -0.22598171 2.32322
-0.49331337 -0.21956789 2.3469794
-2.0667088 -0.17007075 2.3069706
-2.0435348 -0.17216429 2.3031259
-1.9023074 -0.18994144 2.3427122
-0.55858159 -0.17396298 2.3055792
-0.52816707 -0.17507385 2.3254035
-0.49789113 -0.17634647 2.3472419
-2.0714009 -0.12444936 2.3076146
-2.0493646 -0.1240799 2.3123529
-1.8764678 -0.12786072 2.3398168
-0.56184053 -0.1326874 2.3047976
-0.52820569 -0.12424291 2.3277223
-0.49771389 -0.11371284 2.3489261
-2.0720515 -0.07654354 2.3104074
-2.0359533 -0.065639064 2.3146582
-1.8884559 -0.060173444 2.3311329
-0.51906019 -0.076365858 2.3283446
-0.49757478 -0.073874302 2.3492713
-2.0740745 -0.032587804 2.3059406
-2.0310445 -0.040934078 2.3330171
-1.8814871 -0.012847296 2.3230894
-0.50870097 -0.031591319 2.3364673
-0.49725831 -0.034038648 2.3483832
-2.1086307 0.042771775 2.3020198
-2.0699239 0.021648817 2.3117905
-2.0195038 0.023391811 2.3304086
-1.985377 0.021409336 2.3386445
-0.50987494 0.02513624 2.3287981
-0.4970631 0.022794774 2.3474898
-2.0734842 0.077440709 2.3146827
-2.0252974 0.077156052 2.3384328
-0.5117355 0.073591292 2.3335726
-0.49746504 0.075881839 2.3486249
-2.0761924 0.12640685 2.3158367
-2.0301378 0.1242505 2.339026
-0.61912745 0.13579226 2.3139865
-0.51181531 0.11623479 2.329016
-0.49723133 0.11372087 2.3465021
-2.0777352 0.17538577 2.3147538
-2.0346711 0.17778632 2.3393033
-2.0756469 0.22575016 2.3138845
-2.0365057 0.21940376 2.3392975
-1.0328026 0.23559915 2.308275
-2.0744524 0.27243859 2.3187616
-2.0334773 0.27808467 2.3436861
-2.1030569 0.32384416 2.3027375
-2.0720053 0.32334426 2.3210354
-2.0341566 0.32285967 2.3440218
-2.1077852 0.37386405 2.3013768
-2.0759039 0.37314236 2.3190138
-2.0385053 0.37268552 2.3427935
-2.0768092 0.42482299 2.322149
-2.0382614 0.41896418 2.3425741
-2.1076219 0.47630316 2.306412
-2.0717349 0.47375691 2.3253744
-2.0411425 0.47318649 2.3439217
-2.1089237 0.52544701 2.3041258
-2.0765843 0.52440113 2.3216653
-2.0374141 0.52339083 2.3439755
-2.1103263 0.57843536 2.3056884
-2.0713744 0.57327688 2.3251741
-2.037313 0.56771767 2.3487899
-2.1102364 0.6246978 2.3048098
-2.075846 0.6275332 2.3263388
-2.0379682 0.62607604 2.3460727
-2.1146188 0.67359763 2.3049471
-2.0782912 0.67341882 2.3237453
-2.0395429 0.67000288 2.3422852
-2.1121719 0.72258985 2.3052406
-2.0740769 0.72450036 2.3279812
-2.0439534 0.72397518 2.3480096
-2.1184509 0.76912594 2.3022733
-2.0784872 0.77956885 2.3283401
-2.0483284 0.76136255 2.3433404
-2.1084747 0.82051897 2.3060787
-2.0761297 0.82414848 2.3305421
-2.0426898 0.81507313 2.3495245
-2.1110737 0.87516403 2.3063066
-2.0715692 0.87133271 2.3318107
-2.0385408 0.89163399 2.349479
-2.1153278 0.92198652 2.3079112
-2.0808923 0.92800575 2.3292933
-2.0471814 0.93180007 2.3471551
-2.113898 0.98288828 2.3091223
-2.0711541 0.97897291 2.3352005
-2.1116564 1.0348077 2.309226
-2.0775168 1.0269059 2.3327444
-2.048063 1.0121608 2.3496783
-2.1184332 1.0806307 2.3072472
-2.0764253 1.0779655 2.3308165
-2.0436728 1.0762068 2.3498363
-2.1129887 1.1300167 2.3106692
-2.0727005 1.1282403 2.3363531
-2.1162171 1.1805468 2.3086524
-2.0759044 1.1773753 2.3300381
-2.049036 1.176159 2.346945
-2.1174979 1.2283046 2.3078377
-2.0779877 1.2291908 2.3309886
-2.0493498 1.2449133 2.3487847
-2.1122906 1.2792571 2.3090949
-2.0706198 1.2758559 2.3361688
-2.1116567 1.3280958 2.3139632
-2.0777385 1.3196728 2.3344893
-2.1204782 1.3696764 2.3085532
-2.0766504 1.3714278 2.3327601
-2.1176028 1.42374 2.3100255
-2.0809729 1.4274784 2.3329148
-2.1139593 1.4722161 2.3094704
-2.0849919 1.4734659 2.335824
-2.1190162 1.5274963 2.3176534
-2.0815432 1.5222006 2.3362498
-2.1198256 1.5757476 2.3175557
-2.0831439 1.5822452 2.3391635
-2.1561768 1.6254824 2.3017828
-2.1258836 1.6291984 2.3211467
-2.0899596 1.6308336 2.3431072
-2.1572196 1.6859577 2.3032646
-2.1260459 1.6748581 2.3173296
-2.0932379 1.6791778 2.337492
-2.1554043 1.7370696 2.3058586
-2.127718 1.7260791 2.3256981
-2.0856586 1.7176187 2.3390739
-2.1665494 1.7853398 2.3053153
-2.1289532 1.7740382 2.327085
-2.0981517 1.7666392 2.3477058
-2.161217 1.8267208 2.3083622
-2.1254725 1.8176311 2.3285356
-2.0939722 1.8170943 2.3470049
-2.1565564 1.874602 2.3080986
-2.1262596 1.8691519 2.3328671
-2.2093401 1.9344314 2.3018947
-2.1797047 1.9300845 2.3156786
-2.1310003 1.9260064 2.3368754
-2.2016122 1.9753802 2.3012724
-2.176127 1.9723107 2.3143766
-2.1373794 1.9778559 2.3325722
-2.1753471 2.0310504 2.3200238
-2.1333334 2.0226543 2.3424671
-2.204891 2.0929863 2.3067918
-2.1756961 2.0743001 2.3192723
-2.137605 2.0708849 2.3438911
-2.2016194 2.1399543 2.3096128
-2.1754642 2.1240711 2.3254433
-2.1433995 2.1241145 2.3446128
-2.172157 2.1698661 2.3207312
-2.1395249 2.179723 2.3403981
-2.2130089 2.236589 2.3029189
-2.1719534 2.2193146 2.3189292
-2.1326449 2.215795 2.3449354
-2.2037191 2.2705395 2.3047059
-2.1700466 2.2694633 2.3223057
-2.1335618 2.2778394 2.3451025
-2.1714866 2.3164749 2.3138807
-2.132201 2.3291891 2.3341827
-2.1501224 2.3651221 2.3117521
-2.122355 2.3790147 2.3200374
-2.0808227 2.3817999 2.3306117
2.2259507 2.4648812 2.3367214
-1.6406816 -0.52984369 2.3680539
-1.5993712 -0.51611143 2.3893313
-0.3059839 -0.50330174 2.3504887
-0.27590549 -0.50408745 2.3566282
-0.21488364 -0.5042789 2.3617399
-0.16895132 -0.50419062 2.3637848
-0.12927194 -0.50561714 2.3721282
-0.078686357 -0.50579053 2.3586419
-0.024567932 -0.5065555 2.367738
0.025772279 -0.50466663 2.3698792
0.077501237 -0.50464225 2.36904
0.10560402 -0.50203675 2.3561063
0.220039 -0.50276536 2.3543289
-0.40167299 -0.45653275 2.3729019
-0.38091332 -0.47305259 2.3809478
-0.32786173 -0.49028873 2.3771386
-0.27907115 -0.49487606 2.368834
-0.21709199 -0.49788058 2.3876114
-0.18251888 -0.4984374 2.3921995
0.095820047 -0.4991037 2.3987432
0.12396094 -0.49579817 2.3819652
0.17452896 -0.49214029 2.3622117
0.2221204 -0.49589625 2.3777564
0.27467757 -0.49723524 2.3805909
0.30951577 -0.49736923 2.3784342
-0.41536206 -0.41941446 2.3817942
-0.38944164 -0.43894932 2.3968303
-0.45869458 -0.36405697 2.3569806
-0.43094671 -0.37599301 2.3811541
-1.9099269 -0.31826976 2.3937593
-1.8956505 -0.30213118 2.3773179
-0.46765935 -0.32704225 2.3613672
-0.43336314 -0.32772571 2.3868618
-1.916041 -0.27160883 2.3884032
-1.8923357 -0.28682065 2.361464
-0.46997666 -0.27316415 2.363569
-0.43714154 -0.27377155 2.3867507
-1.9235156 -0.22811717 2.3925962
-0.46847647 -0.22462617 2.3641522
-0.43260241 -0.22349398 2.3887813
-1.9128652 -0.17178296 2.3830652
-0.47203436 -0.17734258 2.3642945
-0.43097419 -0.17683831 2.3921726
-1.9031067 -0.10871503 2.3608501
-0.47551894 -0.12675641 2.3646667
-0.43436641 -0.12598282 2.3888423
-1.916034 -0.081970327 2.3803904
-1.8985032 -0.067801014 2.3693278
-0.47502857 -0.074304976 2.366519
-0.4353869 -0.074919134 2.3915131
-1.9219625 -0.030486349 2.3859746
-0.4733935 -0.027526928 2.3666434
-0.43642414 -0.030360246 2.391911
-1.9664268 0.031102955 2.3642628
-1.9325019 0.023719825 2.3829432
-0.47189897 0.022938561 2.3677893
-0.4393411 0.023107028 2.3902781
-1.9749054 0.078380413 2.3681562
-1.9412706 0.072784588 2.3906012
-0.47340959 0.074072063 2.3659956
-0.43924433 0.076956905 2.3909485
-2.0066435 0.13533364 2.3582239
-1.9752233 0.12451819 2.3774004
-1.9411417 0.12565663 2.393882
-0.50962704 0.13828519 2.3761921
-0.47196078 0.11449829 2.3663142
-0.43551433 0.11544016 2.391036
-2.0071909 0.17019011 2.356905
-1.9715048 0.17452385 2.3755109
-1.9403967 0.17862341 2.3953872
-2.0116234 0.22678843 2.3563304
-1.9748094 0.22358724 2.3760462
-1.9460808 0.22346246 2.3940077
-2.0121658 0.26838973 2.354996
-1.978916 0.27292821 2.3766811
-1.9447877 0.26824284 2.3938382
-2.0082929 0.32612085 2.3597765
-1.9745626 0.31941622 2.3798356
-1.9378617 0.33585525 2.3995533
-2.0092583 0.3724291 2.3617764
-1.973183 0.37220871 2.3851473
-2.0122535 0.42216396 2.3582976
-1.9768183 0.42205989 2.3826668
-1.9466805 0.43561837 2.3972692
-2.0189128 0.47290426 2.3581161
-1.97848 0.47376347 2.3806715
-1.9481992 0.47106683 2.3935962
-2.0099416 0.52601755 2.3622704
-1.9727465 0.52087748 2.3829257
-2.0191965 0.57588822 2.3580992
-1.9771916 0.5737409 2.3838127
-1.9436698 0.56512606 2.3982582
-2.0205436 0.62812608 2.3587201
-1.9788996 0.62530535 2.3843346
-2.013227 0.66764057 2.3604028
-1.9747825 0.67682046 2.3858855
-2.02474 0.72598839 2.3622835
-1.9782633 0.72809309 2.3870769
-2.019968 0.77581602 2.3608878
-1.9765383 0.77671576 2.3873951
-2.0213873 0.82599944 2.3625622
-1.9760954 0.82209355 2.3871641
-1.9449536 0.80310726 2.3996615
-2.0190382 0.87331694 2.3654294
-1.9798142 0.87834817 2.3887565
-2.019222 0.93326932 2.3660157
-1.9811577 0.9279083 2.3890407
-2.027225 0.97983658 2.3641272
-1.9873791 0.97816962 2.3867972
-2.0188775 1.0268655 2.3661387
-1.9815331 1.0264591 2.391923
-2.050189 1.0944245 2.3513629
-2.0191202 1.0761939 2.3681257
-1.9846928 1.0761139 2.3931024
-2.0255902 1.1267264 2.3671198
-1.9864255 1.1254876 2.3916898
-2.022747 1.1749411 2.3682454
-1.9865083 1.1802336 2.3930137
-2.0236135 1.2279224 2.3687451
-1.9844396 1.2305157 2.3924093
-2.0249376 1.2784042 2.3637555
-1.9873857 1.2783632 2.3915079
-2.0514693 1.3158602 2.3511405
-2.0196285 1.3292503 2.3691378
-1.9844371 1.324833 2.3930855
-2.0254278 1.3729374 2.368778
-1.9887052 1.3635591 2.3948555
-2.0562463 1.4256465 2.3534026
-2.0235221 1.4241267 2.374083
-1.9959559 1.4055046 2.3935773
-2.0609853 1.4790668 2.3611374
-2.023206 1.4740056 2.3763444
-1.9937384 1.4829795 2.3933096
-2.0610638 1.5086342 2.3567231
-2.0269544 1.523229 2.373836
-1.99226 1.5253417 2.3947275
-2.0587609 1.5651582 2.3570845
-2.0270865 1.5796071 2.3790178
-1.9936861 1.5733503 2.3943341
-2.0650578 1.6238331 2.3595972
-2.0227854 1.626393 2.3788803
-1.9993256 1.6132022 2.3929048
-2.0729885 1.6671349 2.3561862
-2.0275283 1.6771002 2.3826225
-1.9949104 1.6538306 2.399097
-2.0711923 1.7201214 2.3557677
-2.0310037 1.7263222 2.3771458
-2.0713644 1.7723223 2.3576865
-2.0335636 1.7698355 2.3851604
-2.0658121 1.819458 2.368845
-2.0345504 1.8144016 2.3858645
-2.0745156 1.8724782 2.3717978
-2.0401344 1.8746587 2.3962872
-2.1055536 1.9225028 2.3563724
-2.0776467 1.9284399 2.3765781
-2.0369902 1.9278483 2.395864
-2.1087532 1.9821686 2.3551359
-2.0755413 1.9754736 2.3783433
-2.0446851 1.9760233 2.3976138
-2.1106796 2.024971 2.3564019
-2.0759957 2.0235541 2.3791602
-2.0424531 2.0315695 2.3970351
-2.1165538 2.0777411 2.3577108
-2.0722201 2.0697234 2.3821716
-2.1156728 2.1217017 2.3602967
-2.0754261 2.121902 2.3853109
-2.1145825 2.1717377 2.3654571
-2.0772622 2.1682563 2.3857954
-2.1128032 2.2217076 2.3621757
-2.0737035 2.2194989 2.3857653
-2.046057 2.222976 2.3970325
-2.111912 2.2732961 2.3609319
-2.0753362 2.2709532 2.3823025
-2.0496273 2.2974551 2.3939903
-2.105505 2.3193591 2.3502426
-2.0772297 2.3285706 2.3726654
-2.0305121 2.3307045 2.3920066
-2.0639231 2.3649027 2.3558443
-2.0278676 2.3812015 2.3732188
-1.9860414 2.3915317 2.394825
2.1449296 2.4638515 2.3889565
2.1767259 2.4797938 2.3925426
2.2260005 2.4760697 2.3816481
2.2500422 2.4636109 2.359802
2.3354094 2.4985776 2.3995757
2.3029232 2.5015831 2.3839362
-1.7136317 -0.51734674 2.4236557
-1.6505423 -0.51468575 2.4406302
-1.6296358 -0.52154893 2.407485
-0.25400603 -0.50219727 2.406055
-0.24177866 -0.50106514 2.4014239
-0.16011384 -0.50080669 2.4046779
-0.12548909 -0.50202 2.4118328
-0.078680508 -0.50163794 2.4113233
-0.020358097 -0.50124168 2.4102006
0.026415903 -0.50347364 2.4208777
0.073113032 -0.50270861 2.4165945
0.24786286 -0.50138611 2.4025848
-0.3641758 -0.46767154 2.4130497
-0.32675433 -0.47517604 2.4244564
-0.27696976 -0.48931214 2.4200056
-0.22672917 -0.49074507 2.4305611
-0.18372391 -0.4912298 2.4353621
-0.12624903 -0.49347979 2.4288399
-0.069871955 -0.49567062 2.4293811
-0.027423194 -0.496416 2.4218554
0.02071541 -0.4957754 2.4422634
0.079605855 -0.49505547 2.4379246
0.12999533 -0.49152011 2.4310551
0.16226241 -0.49534741 2.4366937
0.27954563 -0.49434 2.4246864
0.32513729 -0.49497542 2.4240758
-1.7727772 -0.41495156 2.4233954
-0.40561914 -0.42018428 2.4011807
-0.36796072 -0.42347717 2.4206274
-0.3377746 -0.43301049 2.4405224
-1.8137046 -0.38784891 2.4473369
-1.788416 -0.39355364 2.4299085
-0.40516096 -0.37891254 2.4029193
-0.37411115 -0.37350816 2.4232697
-0.34041852 -0.37297404 2.4487882
-1.9053175 -0.33376729 2.4129734
-1.8782959 -0.32429129 2.4250283
-1.8423815 -0.33313614 2.4450288
-0.40895301 -0.32161096 2.4044795
-0.37232897 -0.32252103 2.4265454
-0.33967656 -0.31308115 2.4488842
-1.9043117 -0.26795915 2.4093704
-1.8754963 -0.27875558 2.4282329
-1.8404565 -0.28071159 2.4477112
-0.41000926 -0.27331293 2.4058759
-0.37218097 -0.27551094 2.4294205
-1.9076507 -0.23158924 2.4102809
-1.8759028 -0.22725531 2.4342766
-1.8438982 -0.24945982 2.4482965
-0.40758482 -0.23039462 2.406132
-0.37065434 -0.22694688 2.4300838
-0.33884493 -0.23569924 2.4484701
-1.9103516 -0.17274056 2.4062734
-1.8784605 -0.17302439 2.4318843
-0.40640888 -0.1723192 2.4056418
-0.37440193 -0.17482674 2.4286516
-0.3439616 -0.17048949 2.4459367
-1.9067231 -0.12397142 2.4041049
-1.8838844 -0.12431632 2.4279714
-0.40811259 -0.1192898 2.4078555
-0.37698042 -0.12270676 2.4298172
-0.34935915 -0.12522896 2.4437039
-1.9092097 -0.075617157 2.4088068
-1.8763939 -0.074292906 2.4304643
-0.40897706 -0.075374581 2.4090879
-0.3768712 -0.075929217 2.4304271
-0.34974632 -0.076367959 2.4476891
-1.9112184 -0.027090881 2.4055247
-1.8787612 -0.025906397 2.4333601
-0.41073659 -0.027007947 2.4085035
-0.37671545 -0.029152941 2.4300401
-0.34954059 -0.017583106 2.4469862
-1.9135069 0.021417983 2.4061768
-1.8773042 0.021396585 2.43504
-0.41391763 0.023259476 2.4090099
-0.37698948 0.023439871 2.4318299
-1.9181526 0.076934144 2.4066114
-1.8778628 0.076950066 2.4347982
-0.41354898 0.073874861 2.4075096
-0.37702298 0.076058514 2.4312954
-1.9165438 0.12746836 2.4127214
-1.8736832 0.12414938 2.4357789
-0.47510976 0.14000201 2.4113078
-0.41622168 0.1262324 2.4219973
-0.37702379 0.11976026 2.4355438
-1.9149586 0.17260768 2.4140899
-1.8739915 0.17443655 2.4389899
-0.70327759 0.19164607 2.4384241
-1.9184505 0.22346166 2.4126289
-1.8761041 0.22335805 2.4384921
-0.6945079 0.20882773 2.4290004
-1.9189094 0.2743634 2.4112756
-1.8777474 0.27232993 2.436528
-1.9598835 0.33725479 2.4000418
-1.9213045 0.31998551 2.4105883
-1.8808993 0.32864273 2.4349744
-1.9266893 0.37226215 2.4119473
-1.8832505 0.37831995 2.4355724
-1.9220203 0.42274505 2.4146554
-1.8795941 0.42492905 2.4415193
-1.9187938 0.47293815 2.4127069
-1.8811588 0.4733606 2.4370415
-1.9273344 0.52215356 2.4128625
-1.8862159 0.52195156 2.438345
-1.9512722 0.59565836 2.4019277
-1.9208876 0.57259125 2.4183943
-1.8819108 0.57264483 2.4406295
-1.9536849 0.61768019 2.4003668
-1.9243448 0.62443352 2.41659
-1.8872995 0.62386799 2.437587
-1.9267442 0.67835128 2.4156482
-1.8880169 0.67452389 2.4375348
-1.9539804 0.72949362 2.4026551
-1.9210445 0.72781968 2.4164069
-1.8851452 0.7276814 2.4393642
-1.9586664 0.75988299 2.4009409
-1.9243836 0.77531153 2.4190371
-1.8854469 0.77349186 2.4425931
-1.9517272 0.82748091 2.401788
-1.9196713 0.82234967 2.4210441
-1.885875 0.82197559 2.4417553
-1.9551159 0.8826201 2.4044881
-1.924986 0.87621117 2.4231818
-1.8909221 0.87404549 2.444207
-1.9556251 0.92965776 2.4050457
-1.9266554 0.92965865 2.424871
-1.8935726 0.93304276 2.4448047
-1.9629567 0.98233795 2.4049251
-1.9274433 0.97730082 2.4253192
-1.8869393 0.97515821 2.4442244
-1.9581198 1.0256801 2.405678
-1.924889 1.0265676 2.4259121
-1.8968285 1.0168242 2.444454
-1.9606652 1.075037 2.406395
-1.9256026 1.0728492 2.4286757
-1.8954688 1.0902551 2.4470854
-1.9605535 1.1291757 2.408632
-1.9256725 1.1244949 2.4310329
-1.8974264 1.106127 2.4439635
-1.9634613 1.1717364 2.406563
-1.9241108 1.17572 2.4304912
-1.893218 1.1642034 2.4468117
-1.9673179 1.2216787 2.4037895
-1.9264156 1.223047 2.4282103
-1.9609292 1.281991 2.4084253
-1.925326 1.2770017 2.4313655
-1.8969823 1.2580709 2.4459314
-1.9633018 1.3262528 2.4081159
-1.9261124 1.3313726 2.4311452
-1.96323 1.3756824 2.4096084
-1.9230348 1.3740525 2.4333284
-1.9693828 1.4241576 2.4077947
-1.9248132 1.4208028 2.4363077
-1.8979936 1.4006963 2.4495881
-1.9668751 1.4772314 2.4099498
-1.9297912 1.4738479 2.4334316
-1.9672031 1.5238814 2.4092159
-1.9241247 1.5271412 2.4376149
-1.9691772 1.5723783 2.4097803
-1.932436 1.5719972 2.4348345
-1.9703118 1.6228846 2.4136679
-1.9229848 1.6304039 2.4416978
-1.9734238 1.6765175 2.4143023
-1.9429471 1.6722412 2.4328208
-2.0038736 1.7303045 2.4061642
-1.9749062 1.7316281 2.4254508
-1.9402224 1.7229389 2.4428813
-2.0102825 1.7829092 2.4037004
-1.9751844 1.7721661 2.4282768
-1.9383295 1.7677302 2.4447889
-2.014082 1.8217697 2.4052918
-1.9757574 1.8251534 2.4288604
-1.9456654 1.8220819 2.4438539
-2.0137708 1.876923 2.4090042
-1.977507 1.8788471 2.4323831
-1.9411938 1.8655154 2.4484351
-2.0133712 1.9207808 2.4062049
-1.9787579 1.9269242 2.4358597
-2.0192938 1.9753959 2.4147229
-1.9807651 1.9764313 2.4397819
-2.0204713 2.0195489 2.4160047
-1.9807398 2.019609 2.4399135
-2.025424 2.0731575 2.4221194
-1.9806309 2.0700109 2.4405694
-2.0523503 2.1088078 2.4038711
-2.0218849 2.12626 2.4211495
-1.9820391 2.1255336 2.4404395
-2.0554192 2.1805773 2.401715
-2.0347242 2.168148 2.4155669
-1.9897523 2.1738567 2.4355855
-2.0278523 2.2152069 2.421638
-1.9901137 2.2272205 2.4427044
-2.02528 2.2724638 2.4160872
-1.9846187 2.2834392 2.4357128
-2.0097468 2.3275719 2.4146483
-1.9734255 2.3328464 2.4362907
-2.0093224 2.3627396 2.4024677
-1.9670786 2.3721902 2.4178159
-1.9295634 2.3779879 2.4376638
-1.9253988 2.4009676 2.4351068
2.0896149 2.4616125 2.422014
2.1281869 2.4754677 2.4179728
2.1787903 2.465234 2.4311161
2.2245891 2.4764669 2.4251564
2.289294 2.488261 2.414386
2.3026643 2.4843607 2.4419827
-1.7626213 -0.50009477 2.4698722
-1.7303648 -0.51908791 2.4814365
-1.6973394 -0.52070457 2.4544997
-1.6467676 -0.50413585 2.4645934
-1.3749354 -0.50327086 2.4972343
0.18773966 -0.50043124 2.4605846
0.22511169 -0.50401527 2.4762084
0.25320765 -0.50028586 2.4560106
-1.7771434 -0.46552518 2.4760766
-1.737491 -0.4692668 2.4660819
-1.607747 -0.49110597 2.4905124
-0.31201535 -0.46294165 2.4606798
-0.27506611 -0.4706403 2.4743323
-0.22509393 -0.47903746 2.4808366
-0.16894753 -0.48668793 2.4895523
-0.12257069 -0.49047634 2.4747255
-0.076042853 -0.48876172 2.4797885
-0.029846512 -0.49340919 2.4760542
0.021024331 -0.49123362 2.4804866
0.070922315 -0.49248898 2.4759588
0.12945969 -0.49052075 2.4903107
0.17004138 -0.48903203 2.4656026
0.29250014 -0.49437624 2.4851642
0.34265399 -0.4971506 2.4950328
0.36578834 -0.49556181 2.4847691
0.40303713 -0.49683127 2.4874339
-1.8017089 -0.44725731 2.4778318
-1.7798321 -0.42625713 2.4876602
-0.32099187 -0.42174879 2.4716308
-0.27931929 -0.42916816 2.4917176
-1.8118243 -0.36806625 2.4608181
-1.7844776 -0.37799972 2.4868588
-0.32026157 -0.37717947 2.4784992
-0.29006746 -0.3814286 2.4955549
-1.852062 -0.32031387 2.4526923
-1.8219296 -0.32524249 2.4682639
-1.7907823 -0.32762146 2.4909754
-0.32308117 -0.33036542 2.4780033
-0.29501396 -0.32446387 2.4945254
-1.8166137 -0.27317458 2.4695599
-1.7890517 -0.26837525 2.4921205
-0.32376099 -0.2770766 2.478008
-0.29375181 -0.27787676 2.4963193
-1.8262056 -0.22605245 2.4667261
-1.7864469 -0.22236466 2.4939673
-0.32294428 -0.22102469 2.4803989
-0.29716873 -0.22812247 2.4992034
-1.8507218 -0.16674034 2.462923
-1.8234608 -0.17441168 2.4720612
-1.7877506 -0.17814791 2.4939699
-0.32228354 -0.17284676 2.4821484
-0.29655424 -0.16773008 2.4971015
-1.8578951 -0.12817743 2.4540713
-1.8216552 -0.12324412 2.4699295
-1.7925094 -0.12479577 2.4940326
-0.35027289 -0.1177073 2.4503741
-0.32456505 -0.12504962 2.4817469
-0.29658422 -0.12380243 2.4989839
-1.860991 -0.096834339 2.45259
-1.8239748 -0.075905293 2.4708476
-1.7920474 -0.076043896 2.4948688
-0.3502709 -0.076494977 2.4513979
-0.3242493 -0.077326149 2.4806156
-0.2964386 -0.089802697 2.4987068
-1.8589187 -0.041133538 2.4510546
-1.8236742 -0.027254889 2.4712112
-1.7824302 -0.027295252 2.4958189
-0.35015312 -0.041152559 2.4511051
-0.32445964 -0.02973059 2.4828708
-0.29632011 -0.029892232 2.4985867
-1.8222942 0.021363365 2.4693162
-1.7834196 0.020362228 2.4952385
-0.35043514 0.023612097 2.4531569
-0.32458857 0.023878748 2.4837909
-0.29624054 0.023971224 2.4978716
-1.8220273 0.076889805 2.4680128
-1.7812159 0.076894186 2.4931827
-0.3505995 0.076661602 2.4535785
-0.32462296 0.077514216 2.4832735
-0.29632673 0.059917718 2.4982567
-1.8236176 0.1255856 2.4685309
-1.7822752 0.12558012 2.4930811
-0.36451772 0.1324964 2.4651802
-0.32485303 0.11930344 2.4840131
-1.8265051 0.17451148 2.470022
-1.784168 0.17441577 2.4933476
-0.68029904 0.19362924 2.4694371
-0.64905143 0.19331233 2.4709277
-1.827432 0.22332205 2.468107
-1.7885883 0.22070304 2.4938858
-0.67296457 0.22172725 2.474201
-0.6495446 0.20554535 2.4721448
-1.8509918 0.27247089 2.4552488
-1.8269758 0.27244458 2.4693162
-1.792219 0.27732876 2.4926083
-1.8535533 0.3287105 2.4530754
-1.8262758 0.32511622 2.4687557
-1.7910563 0.32871914 2.4905527
-1.3594357 0.32791677 2.489229
-1.8576699 0.37142858 2.4536078
-1.8244092 0.37627399 2.473171
-1.787273 0.37828818 2.4934731
-1.36352 0.35516477 2.4940534
-1.8613936 0.43062302 2.4507132
-1.8259848 0.42816344 2.4717057
-1.7921242 0.42841953 2.4938564
-1.8575295 0.48814192 2.4551392
-1.8247616 0.47661442 2.4712143
-1.7883916 0.47840574 2.4952855
-1.8597152 0.52191228 2.4547734
-1.8235422 0.52281809 2.4731455
-1.7952851 0.52190018 2.4934819
-1.8599463 0.57749766 2.4575341
-1.8244355 0.57133418 2.47699
-1.7891793 0.57228017 2.4947331
-1.8616956 0.62476069 2.4589915
-1.8247123 0.62421256 2.4784603
-1.7978944 0.62472087 2.4972925
-1.8648717 0.67289037 2.4549801
-1.8260909 0.67679036 2.4735715
-1.7930961 0.6752426 2.4941103
-1.8606675 0.73153478 2.459224
-1.8260008 0.72706163 2.480619
-1.8615103 0.7701683 2.4564908
-1.8264612 0.77535021 2.4810903
-1.7985625 0.76581925 2.4956956
-1.8630366 0.82635087 2.4553061
-1.8264923 0.81883544 2.4785421
-1.7940749 0.8491478 2.4969339
-1.8696951 0.87756479 2.458699
-1.8260353 0.87633598 2.4853196
-1.7989714 0.86589164 2.4996858
-1.8678961 0.9280495 2.4571657
-1.8280221 0.92708474 2.48383
-1.8639809 0.97238588 2.4605699
-1.8309072 0.976246 2.4838281
-1.799879 0.9751724 2.4988315
-1.8706238 1.0266161 2.4605243
-1.8289789 1.0242938 2.4856639
-1.8731122 1.0739539 2.4617019
-1.82903 1.0703088 2.4841137
-1.8712044 1.1228139 2.4616747
-1.8313503 1.1250222 2.4865229
-1.8690375 1.1757307 2.4658909
-1.8323696 1.171159 2.4889622
-1.8756089 1.2239361 2.4603152
-1.8295141 1.2229925 2.4870222
-1.8697444 1.2748792 2.4624648
-1.8307129 1.2781337 2.4897592
-1.8762605 1.3297989 2.4652905
-1.8328782 1.3266569 2.4915273
-1.8763489 1.3802285 2.4633622
-1.8404517 1.3746033 2.4896414
-1.8702971 1.423991 2.4678357
-1.8358796 1.4226564 2.490787
-1.9037782 1.4855964 2.4517152
-1.8765371 1.4766362 2.4707181
-1.8400178 1.4691546 2.4874585
-1.8761023 1.5235351 2.4680157
-1.8396099 1.5127707 2.4919379
-1.911953 1.5742602 2.4546249
-1.8763719 1.570544 2.4696321
-1.8400587 1.5744522 2.4936283
-1.9006462 1.6090387 2.4529932
-1.8768091 1.627412 2.471823
-1.8412126 1.6194412 2.49386
-1.9176462 1.68555 2.4578519
-1.8724289 1.6770438 2.4789455
-1.8498987 1.6506584 2.4921281
-1.9136127 1.7278174 2.4645371
-1.8699007 1.7241598 2.4859681
-1.9169345 1.7701151 2.4646242
-1.879055 1.7659553 2.4857745
-1.9214454 1.822033 2.4603915
-1.8796594 1.8205248 2.4855847
-1.9512091 1.8914551 2.4501276
-1.91907 1.8821567 2.470989
-1.8866867 1.8757758 2.4916708
-1.9515013 1.9405572 2.4601026
-1.9285421 1.9274334 2.4761708
-1.8889233 1.9270515 2.4906619
-1.9557959 1.9613204 2.4541161
-1.927464 1.9742546 2.4767926
-1.8994527 1.9877038 2.499881
-1.955631 2.0193746 2.4569564
-1.924688 2.0217285 2.4824767
-1.9580965 2.0641339 2.4597023
-1.9260786 2.0724902 2.4853771
-1.9633847 2.1036613 2.4567974
-1.9311175 2.1222086 2.4745464
-1.8941209 2.1013529 2.4993038
-1.9639261 2.1823709 2.4573615
-1.9260201 2.1693704 2.4815116
-1.9596909 2.239701 2.4563482
-1.9277782 2.2243476 2.4796817
-1.9563522 2.2719207 2.4565465
-1.9219524 2.2797043 2.4800797
-1.9663452 2.300843 2.4557009
-1.9217633 2.3283734 2.4701102
-1.8844354 2.3409662 2.4906719
-1.9094334 2.3665009 2.4600027
-1.868719 2.3690209 2.483037
-1.8311892 2.3913209 2.4799473
-1.8734955 2.4012067 2.4684706
-1.8205072 2.400043 2.499712
2.182584 2.4707108 2.4584544
2.2340474 2.4693532 2.4644716
2.3384328 2.4943085 2.4773686
2.3617036 2.4894907 2.4534702
-1.754411 -0.50576705 2.5135367
-1.7156346 -0.50615609 2.5126729
-1.6875567 -0.50753307 2.5126448
-1.408408 -0.53131002 2.5147822
-1.3798878 -0.52243066 2.528028
-1.3429403 -0.53553164 2.5389304
0.28482336 -0.50210363 2.5249388
0.31621003 -0.50334257 2.5287604
-1.7233557 -0.47336498 2.5292616
-1.6749545 -0.4798691 2.5259547
-1.6376501 -0.49601871 2.5085437
-1.520738 -0.47591281 2.5231826
-1.4322453 -0.48723608 2.5448422
-1.3603281 -0.49679774 2.5471117
-1.3347076 -0.49478438 2.54457
-0.25131416 -0.46026543 2.5039558
-0.22017069 -0.46346569 2.5098107
-0.17359404 -0.46301726 2.5233922
-0.12504022 -0.46975216 2.5281928
-0.077774636 -0.47896096 2.5286076
-0.026648305 -0.48282909 2.5222585
0.018722994 -0.48228312 2.525645
0.070101529 -0.48734209 2.5233419
0.11777522 -0.4855482 2.5259156
0.17104082 -0.48862386 2.526967
0.22454409 -0.49645081 2.5130239
0.27613705 -0.49688062 2.5204432
0.3217887 -0.49642119 2.5253129
0.38474238 -0.49232683 2.5306561
0.41496685 -0.49167514 2.5240998
0.47147509 -0.49290088 2.523941
-1.7593498 -0.41921496 2.5049388
-1.7266908 -0.42680597 2.5263977
-1.6942 -0.42748129 2.5486634
-0.25393859 -0.42326629 2.5039694
-0.22139351 -0.42466211 2.5143592
-0.17393409 -0.42122224 2.533299
-0.13421524 -0.42545003 2.5453224
-1.7609597 -0.37334877 2.5059278
-1.7264915 -0.3777473 2.5321825
-0.26203603 -0.37300774 2.5076406
-0.22148356 -0.3702268 2.5210733
-0.17392744 -0.37236863 2.5381513
-0.13995616 -0.38829735 2.5492556
-1.7640324 -0.32786691 2.5083284
-1.7244004 -0.32832772 2.5343595
-0.26857308 -0.3229185 2.5082211
-0.22122717 -0.3212865 2.5224047
-0.17505583 -0.32458085 2.540993
-1.7648247 -0.27406043 2.5098341
-1.7258266 -0.27111706 2.5356441
-0.26563731 -0.26954901 2.5092449
-0.22109681 -0.27264142 2.5247126
-0.18074043 -0.27353773 2.5402453
-1.7620044 -0.22281057 2.5143752
-1.7226758 -0.22419785 2.5366883
-0.26955399 -0.22161369 2.5078547
-0.220963 -0.22402239 2.5262012
-0.1759924 -0.22687814 2.5411015
-0.14323777 -0.24385798 2.5462677
-1.7638661 -0.1709493 2.5118487
-1.7260784 -0.17388226 2.5345635
-0.26953435 -0.175567 2.5099709
-0.22078896 -0.17545371 2.5267503
-0.17932667 -0.17631955 2.5414495
-1.7652711 -0.12485652 2.5104284
-1.7256995 -0.12504919 2.5362186
-0.26942384 -0.12665412 2.5108893
-0.2206894 -0.1269765 2.5274827
-0.17928053 -0.12762828 2.5425723
-1.7650156 -0.076101504 2.5115263
-1.7249861 -0.076206803 2.5365942
-0.27193815 -0.075606868 2.5091255
-0.22243461 -0.079650499 2.5282216
-0.1743443 -0.077750571 2.5430706
-1.7563224 -0.027343934 2.513649
-1.7243727 -0.027410075 2.5364323
-0.27129838 -0.031377569 2.5077324
-0.22505981 -0.029195093 2.5246036
-0.17564058 -0.030335307 2.5423863
-1.7646339 0.022730665 2.5062418
-1.7300005 0.021351919 2.5307522
-1.6955391 0.014368438 2.5495241
-0.27322507 0.023491785 2.5084321
-0.22323732 0.024755513 2.5268705
-0.17387138 0.023035992 2.5406299
-1.7599125 0.081155024 2.5094907
-1.7286627 0.075659327 2.5307188
-0.2733627 0.08017835 2.5089483
-0.22231098 0.077554047 2.526701
-0.17570047 0.079028212 2.5425336
-1.7586511 0.12585981 2.5144768
-1.7244674 0.12588592 2.5341127
-0.32573885 0.14619215 2.5364361
-0.2751593 0.12680423 2.5109789
-0.22390658 0.12564141 2.5254664
-0.17575204 0.12941708 2.5418282
-0.14318104 0.14631973 2.5498714
-1.7589496 0.17464755 2.512553
-1.725727 0.17478879 2.5336559
-1.6982425 0.16783452 2.5492105
-0.55297172 0.19780499 2.5463417
-1.7633867 0.22559904 2.5097499
-1.7245867 0.22520947 2.5344353
-0.55390835 0.23527913 2.5485368
-0.54938948 0.24563843 2.5269651
-1.7673922 0.27004993 2.5096011
-1.7229478 0.27426159 2.533787
-1.6992677 0.25168639 2.5453742
-1.7648485 0.32902345 2.5087061
-1.7238345 0.32217729 2.5334959
-1.3505226 0.32890776 2.5022204
-1.7679521 0.37862214 2.5076435
-1.7273161 0.37189794 2.5332904
-1.4090605 0.36352935 2.5472918
-1.3741269 0.36917198 2.5322411
-1.7694988 0.42101213 2.504478
-1.7299715 0.4215965 2.5311534
-1.7643818 0.46947923 2.5137134
-1.7254403 0.47362199 2.5357921
-1.7709209 0.52037573 2.5093472
-1.7263242 0.52243251 2.53562
-1.7657542 0.57533038 2.5146692
-1.7267584 0.57141328 2.5391531
-1.767838 0.62410426 2.511066
-1.7282972 0.62514824 2.5388432
-1.7679069 0.67647684 2.5149078
-1.7331705 0.67249191 2.5367169
-1.7745231 0.72898078 2.5129898
-1.727091 0.72776812 2.5416765
-1.7713386 0.77356118 2.5123379
-1.7315165 0.77233452 2.5376728
-1.7752905 0.821109 2.5121584
-1.7357968 0.81998295 2.5362375
-1.7722553 0.87415391 2.5173042
-1.7369485 0.87452781 2.538785
-1.7756081 0.9305166 2.5173087
-1.732864 0.92690569 2.5417821
-1.8056591 0.99290228 2.502094
-1.7751275 0.9775787 2.5219786
-1.7354053 0.97359025 2.5417268
-1.8084985 1.0090847 2.5011697
-1.775085 1.025499 2.5221374
-1.7401911 1.0264679 2.5455163
-1.805071 1.0742289 2.5051496
-1.7752048 1.0739188 2.5218368
-1.7384506 1.0738983 2.5428743
-1.8126478 1.1156642 2.5021715
-1.7743034 1.122137 2.5192802
-1.7327017 1.1258209 2.5445182
-1.806242 1.1728148 2.5028088
-1.775088 1.1752601 2.5237637
-1.7379621 1.1697617 2.5438695
-1.8024969 1.2397848 2.5031059
-1.7769935 1.2227471 2.5228479
-1.7423178 1.2244807 2.5436678
-1.8095376 1.2671278 2.5033212
-1.778125 1.2788569 2.5264802
-1.7387266 1.2711134 2.5443497
-1.8074665 1.3291103 2.5072572
-1.7764874 1.3284833 2.5243289
-1.7475166 1.3293732 2.5438218
-1.808403 1.3790063 2.5071712
-1.7715223 1.3816603 2.5271113
-1.740302 1.373342 2.5471768
-1.8121914 1.4239862 2.5067456
-1.7752553 1.4287419 2.529865
-1.7467229 1.4088715 2.5424733
-1.8173389 1.4763411 2.5081687
-1.7785935 1.4760354 2.5312274
-1.8192357 1.526639 2.5042346
-1.7754287 1.5200619 2.5300214
-1.8150104 1.5711701 2.5108638
-1.7793279 1.5716681 2.5340185
-1.8149459 1.6226768 2.5134673
-1.777545 1.6196434 2.5385904
-1.8249574 1.6723189 2.511935
-1.7838194 1.6760912 2.5396473
-1.8245616 1.7262906 2.5199149
-1.7824552 1.7239715 2.5412827
-1.8534472 1.7785385 2.5029829
-1.8227615 1.7718903 2.5249543
-1.7877045 1.7688072 2.5458827
-1.8596551 1.8246372 2.5070646
-1.8290602 1.8271372 2.5271401
-1.7896008 1.8108218 2.5451882
-1.8595738 1.8811499 2.5130539
-1.8207515 1.8813059 2.5340028
-1.7987716 1.8689487 2.5490742
-1.8652849 1.9196924 2.5062892
-1.8276919 1.9229703 2.5297318
-1.7965249 1.9327677 2.5470195
-1.8737261 1.9715611 2.5119071
-1.833432 1.9706714 2.5320499
-1.8741182 2.0209157 2.5146143
-1.8314645 2.0196648 2.5398228
-1.9033847 2.0595753 2.5026627
-1.8692392 2.0671761 2.5176067
-1.8272161 2.0800147 2.5465043
-1.9092505 2.1350965 2.5068214
-1.8693718 2.1197731 2.5269339
-1.8315498 2.1150413 2.5428267
-1.8725874 2.1738887 2.518003
-1.8405461 2.1777959 2.541131
-1.908934 2.205147 2.5017045
-1.8743975 2.231142 2.5155377
-1.8382425 2.2262459 2.5407395
-1.8697865 2.2741144 2.5165732
-1.8316478 2.2857113 2.5388217
-1.8779876 2.3210075 2.5042379
-1.8301759 2.3293161 2.5269725
-1.793566 2.3353431 2.5386009
-1.8177214 2.3772633 2.5187888
-1.7750279 2.3798275 2.5371442
-1.7393658 2.3958988 2.5423646
-1.7862539 2.4006763 2.5215414
1.8899958 2.4565978 2.5426657
1.927001 2.4698362 2.5395837
2.0014539 2.4666741 2.5292175
2.3276682 2.4939439 2.5287607
-1.4159344 -0.50463384 2.573684
-1.3622257 -0.52143639 2.5839527
-1.341309 -0.51585406 2.586298
0.23481551 -0.5007565 2.5865002
0.2729333 -0.50176835 2.5892811
-1.6668197 -0.47553083 2.5611274
-1.6241088 -0.47662884 2.5771255
-1.5776887 -0.47304827 2.5864615
-1.4262433 -0.4921869 2.5791526
-1.3264843 -0.4967218 2.5596385
-0.074334271 -0.46129885 2.5564101
-0.027787594 -0.46426368 2.5684862
0.021805206 -0.46901494 2.5773847
0.07133963 -0.47699457 2.5684218
0.12198089 -0.4769237 2.571768
0.1770411 -0.4884887 2.5699873
0.22404183 -0.49141288 2.5830982
0.33277893 -0.49744678 2.5621862
0.36497194 -0.49261099 2.5675244
0.44549015 -0.4927367 2.5939181
