ply
format ascii 1.0
comment PCL generated
element vertex 1454
property float x
property float y
property float z
element camera 0
property float view_px
property float view_py
property float view_pz
property float x_axisx
property float x_axisy
property float x_axisz
property float y_axisx
property float y_axisy
property float y_axisz
property float z_axisx
property float z_axisy
property float z_axisz
property float focal
property float scalex
property float scaley
property float centerx
property float centery
property int viewportx
property int viewporty
property float k1
property float k2
end_header
-1.5180118 0.57286769 1.7234461
-1.4883974 0.57737046 1.7440739
-1.5135877 0.62505156 1.7143763
-1.4895029 0.6246348 1.7348261
-1.5029964 0.67910367 1.7118113
-1.4892601 0.67388976 1.7346562
-1.4832278 0.72310889 1.7223778
-1.4733988 0.77703035 1.7304318
-1.4700115 0.82098299 1.7231718
-1.4919823 0.88449264 1.7199807
-1.489846 0.91168523 1.7284379
-1.4209121 -0.50287777 1.7621851
-1.3712782 -0.51160544 1.7713379
-1.3260854 -0.51368338 1.7771
-1.2815915 -0.51694441 1.7828349
-1.2294583 -0.51826054 1.778265
-1.1931577 -0.52105981 1.7761899
-1.1267618 -0.52172798 1.7737592
-1.0785953 -0.52155018 1.773527
-1.0200148 -0.52109861 1.7670115
-0.97544253 -0.52701032 1.7841715
-0.92064846 -0.52731335 1.7723272
-0.8757506 -0.52882725 1.7749559
-0.826958 -0.52317953 1.7742625
-0.77954751 -0.52106827 1.780118
-0.72536111 -0.51679295 1.7741635
-0.69003165 -0.50998157 1.7743307
-0.35187235 -0.50452942 1.7871487
-0.2614474 -0.50091094 1.7845187
-0.20767897 -0.50276911 1.7795273
-0.17555268 -0.50347745 1.7744373
-0.12688771 -0.50644428 1.7719781
-0.076191895 -0.50351882 1.7792972
-0.026787445 -0.50203443 1.7793983
0.0022015106 -0.50244135 1.7700901
-1.4559394 -0.47319683 1.7574227
-1.4299977 -0.47609666 1.7832348
-1.3932093 -0.49949843 1.7815286
-0.66243529 -0.49346676 1.7795137
-0.63246405 -0.48134932 1.7731274
-0.57283193 -0.46878138 1.7528951
-0.52259904 -0.46783966 1.7651749
-0.47722581 -0.47260633 1.7679749
-0.42752677 -0.4846122 1.7747836
-0.38747793 -0.49533159 1.7758404
-0.3166267 -0.49348828 1.7682726
-0.28061271 -0.4926908 1.775045
-0.24903573 -0.4937304 1.7597769
-0.18837845 -0.49930343 1.7631373
-0.11829361 -0.49906105 1.7555174
-0.075127281 -0.4981502 1.7538965
-0.036726139 -0.49762583 1.769021
0.025701374 -0.49324936 1.7743818
0.074138857 -0.4885439 1.7753235
0.12763485 -0.48479924 1.7690479
0.17430905 -0.48310333 1.7736595
0.22384061 -0.48659003 1.769328
0.27232879 -0.47925395 1.7713509
0.32543594 -0.47591689 1.7775544
0.37284872 -0.47442153 1.7705033
0.42898437 -0.47260392 1.7718384
0.47220927 -0.47337359 1.7698504
0.52504897 -0.47574416 1.7741971
0.57336652 -0.47262111 1.7721514
0.62278181 -0.47308147 1.77277
0.67252469 -0.47080052 1.7748662
0.72505182 -0.46952653 1.7681361
0.77390653 -0.46722713 1.7647003
0.82991904 -0.4660424 1.7752743
0.87444615 -0.46136507 1.7675511
0.9348802 -0.46364647 1.7850754
0.97576106 -0.46277684 1.7646809
1.022843 -0.46138653 1.7694396
1.0804881 -0.46136409 1.7717535
1.1230916 -0.46316156 1.773078
1.1654913 -0.46483803 1.7861793
1.3103315 -0.46805999 1.7596761
1.3640221 -0.46365178 1.7808176
1.4179895 -0.46953902 1.7799805
-1.4606763 -0.42840043 1.7575142
-1.4346392 -0.42368823 1.7814198
-0.52329773 -0.41023639 1.7650256
-1.5701104 -0.35780635 1.763569
-1.5364314 -0.36423659 1.7672867
-1.4634084 -0.37184575 1.7600881
-1.4356632 -0.37719545 1.7846366
-0.58321559 -0.37193143 1.7596905
-0.51592255 -0.37625432 1.7631592
-0.49227127 -0.3686417 1.7772652
-1.6165268 -0.30885687 1.7678012
-1.5822064 -0.32831001 1.7772191
-1.5232316 -0.32884404 1.768483
-1.4679983 -0.32378802 1.7618442
-1.4409148 -0.32482454 1.7876644
-0.60568261 -0.30825514 1.7615528
-0.50891858 -0.33270186 1.755306
-0.49111098 -0.32333815 1.7625546
-1.6270244 -0.29369578 1.7869699
-1.5082926 -0.27859068 1.757012
-1.465245 -0.27439076 1.7620994
-1.4450731 -0.27552414 1.7869108
-0.60646844 -0.27926782 1.767159
-0.57946062 -0.27634194 1.7591674
-0.52186155 -0.26790741 1.7556905
-0.48812097 -0.28149143 1.7737644
-1.5147377 -0.21397823 1.7589202
-1.4635556 -0.22928643 1.7584834
-1.4379305 -0.22753282 1.7834035
-0.50073045 -0.24271545 1.7605729
-0.47464004 -0.23551732 1.7715697
-1.460155 -0.17243232 1.7596842
-1.4348379 -0.17533803 1.7843091
-0.4695313 -0.18003853 1.7509456
-1.5271724 -0.11994635 1.7609546
-1.4636953 -0.12298308 1.7545669
-1.4362653 -0.12331565 1.7797277
-1.5186167 -0.067182459 1.7533786
-1.4620498 -0.071450882 1.7548981
-1.4344656 -0.071643159 1.7797554
-1.6212652 -0.031642456 1.7700645
-1.5300041 -0.016852526 1.7542735
-1.4616566 -0.025194183 1.7554382
-1.4349884 -0.025623301 1.7794511
-1.6593769 0.022251636 1.7504647
-1.5567163 0.042716227 1.7580051
-1.5302917 0.019550292 1.7550938
-1.4616518 0.021044178 1.7554054
-1.4345767 0.019976759 1.7793455
-1.5643791 0.05334045 1.7564452
-1.5304743 0.056305598 1.7540542
-1.4611452 0.070147127 1.7547685
-1.4377475 0.07255698 1.7762878
-1.5191816 0.13605052 1.7504191
-1.4598368 0.12784362 1.7566355
-1.4364173 0.12325659 1.7812113
-1.4560087 0.17573786 1.7607523
-1.4348696 0.17628737 1.7838671
-1.4603305 0.20655152 1.7534262
-1.4329598 0.22826134 1.7752416
-1.4233886 0.28124684 1.7614251
-1.4244584 0.30037302 1.7768508
-1.4067428 0.4171266 1.7543535
-1.4552976 0.49120998 1.7670804
-1.4373591 0.47981554 1.7764932
-1.4613758 0.52481091 1.763903
-1.4423069 0.52455348 1.7875987
-1.4663142 0.57227272 1.7677037
-1.4418021 0.57968271 1.7912918
-1.467039 0.62649161 1.7663575
-1.4378668 0.62473577 1.7891344
-1.4692754 0.67362082 1.7687038
-1.4440632 0.66501451 1.7828779
-1.4666263 0.72386676 1.7719183
-1.4476013 0.74742788 1.782433
-1.4668666 0.77135313 1.763489
-1.4648367 0.81438923 1.7661229
-1.4918458 0.86891663 1.7504699
-1.3680564 -0.50176388 1.8093456
-1.3267826 -0.50523698 1.8239009
-1.2758961 -0.5099386 1.8219703
-1.2242166 -0.51428223 1.8299376
-1.1740801 -0.51754934 1.8259903
-1.1160343 -0.5182119 1.8243989
-1.0704519 -0.5152877 1.8255632
-1.0227076 -0.51718992 1.8241181
-0.97631305 -0.52240068 1.8265632
-0.92480516 -0.52703458 1.8281736
-0.87572038 -0.52280766 1.8255763
-0.82294869 -0.51720268 1.8274839
-0.7755807 -0.51531607 1.8195441
-0.72995383 -0.51444018 1.8294652
-0.69384676 -0.50110358 1.8142571
-0.40096569 -0.50401902 1.8485663
-0.37032771 -0.50279218 1.8126422
-0.25423402 -0.50400478 1.8305774
-0.22761764 -0.50485581 1.8360379
-0.17263371 -0.50971979 1.8290633
-0.12222835 -0.50655013 1.8147615
-0.070108525 -0.50404364 1.8173082
-0.024623256 -0.50811648 1.8400226
0.0022833222 -0.50309646 1.8390325
-1.4092162 -0.47452602 1.8061607
-1.3776215 -0.47354221 1.8306004
-1.3458498 -0.49470663 1.8432529
-1.2769142 -0.49892741 1.8475068
-0.7035256 -0.49868375 1.8413823
-0.67634487 -0.489369 1.8186547
-0.64715946 -0.47553116 1.800908
-0.45810646 -0.47158003 1.8150849
-0.43231481 -0.48164621 1.8188547
-0.31613669 -0.49325749 1.8192381
-0.27382958 -0.49642462 1.8239503
0.030243088 -0.49439096 1.8217871
0.070444532 -0.49061331 1.8209505
0.12280171 -0.48663583 1.8275342
0.17331766 -0.48393497 1.822632
0.22761126 -0.48634911 1.8256096
0.2758463 -0.48162216 1.8258493
0.32252711 -0.47595873 1.8195229
0.38156864 -0.47512421 1.8193954
0.42355448 -0.47561243 1.830247
0.47870085 -0.476331 1.8238214
0.51976722 -0.47323146 1.8264313
0.5721094 -0.47308096 1.8282208
0.62414658 -0.47338158 1.8327173
0.67107749 -0.4735558 1.8267708
0.72246975 -0.47206655 1.8275539
0.76501369 -0.4712854 1.8244765
0.82817411 -0.46966961 1.8278832
0.87536746 -0.46983647 1.8352438
0.92738128 -0.46459237 1.8232485
0.9683724 -0.4621141 1.8233935
1.0143366 -0.46655318 1.8261014
1.075977 -0.46539861 1.8213279
1.1164349 -0.46382907 1.8223921
1.1791296 -0.46425131 1.8297948
1.2042117 -0.46102852 1.8278935
1.3549473 -0.46765691 1.8090328
1.4257449 -0.46207526 1.8163357
-1.4083629 -0.42439136 1.8073994
-1.3840644 -0.42744178 1.8319576
-1.4556278 -0.36408925 1.8493783
-1.4132196 -0.38234657 1.8157641
-1.3856972 -0.38871133 1.8352026
-1.5753065 -0.30525219 1.8036219
-1.4513733 -0.30730465 1.8314878
-1.4430803 -0.32663527 1.8180203
-0.46801251 -0.31934518 1.802173
-1.6073416 -0.29411119 1.8061137
-1.575929 -0.28692994 1.8120842
-1.4431913 -0.27228934 1.8091335
-1.4373114 -0.23600668 1.821974
-1.4413657 -0.078615949 1.8380122
-1.4298344 -0.015144438 1.8146104
-1.4290721 0.042102873 1.8132162
-1.4303212 0.073133141 1.8039414
-1.4169887 0.58037013 1.8169363
-1.3901334 0.58709592 1.8401184
-1.4160278 0.62263745 1.8118662
-1.3914239 0.62440592 1.8333054
-1.4527135 0.71746552 1.8001455
-1.3085475 -0.50510287 1.8616171
-1.2603111 -0.50406337 1.8642087
-1.2273165 -0.50668758 1.8823079
-1.1661166 -0.50765002 1.8713409
-1.1312945 -0.50909621 1.8656988
-1.0712585 -0.50391942 1.8602711
-1.0239172 -0.50915581 1.8723108
-0.97519922 -0.51535296 1.8766762
-0.92890573 -0.51807964 1.8781776
-0.87014288 -0.51606452 1.880922
-0.82472241 -0.51257789 1.8817122
-0.77761644 -0.51447898 1.8713547
-0.731363 -0.50867754 1.8746449
-0.40819359 -0.50377554 1.8835975
-0.37757215 -0.51398504 1.8822237
-0.33129558 -0.50272542 1.8803946
-0.23311356 -0.50796282 1.8826147
-0.17183851 -0.51176304 1.871356
-0.12251437 -0.50966847 1.8736731
-0.083545603 -0.50928193 1.8674656
-0.025096472 -0.50752312 1.8727391
0.0023231965 -0.50271863 1.8727096
-1.3519609 -0.47051132 1.8571335
-1.3265369 -0.47742328 1.8795846
-1.281533 -0.49794123 1.8820336
-1.115528 -0.48277938 1.8912214
-1.0664386 -0.47149879 1.8654722
-1.0375605 -0.47331461 1.8902012
-0.68544674 -0.48039159 1.8519049
-0.45145211 -0.47222739 1.8672057
-0.42436773 -0.48758897 1.8634402
-0.32600677 -0.49463093 1.878062
-0.24697889 -0.49857277 1.8825122
0.032034803 -0.49651465 1.8762863
0.078874499 -0.48995867 1.8731399
0.13321064 -0.48700476 1.8826905
0.18051186 -0.48195115 1.8765051
0.21965326 -0.48299688 1.8724155
0.26971638 -0.48624569 1.879432
0.32815236 -0.47538736 1.8696496
0.37678272 -0.47424275 1.8622324
0.42595923 -0.47275698 1.8669149
0.475905 -0.47430736 1.8758221
0.5200032 -0.47292057 1.8660176
0.5666604 -0.47218633 1.8658513
0.62620485 -0.47248036 1.8746122
0.68228292 -0.47270432 1.8705342
0.72278976 -0.47126761 1.8773813
0.77817714 -0.47493577 1.8890938
0.82624304 -0.47467586 1.873309
0.88468778 -0.46770543 1.8684614
0.91379839 -0.4701328 1.8695985
0.97139555 -0.46601412 1.8773904
1.0246723 -0.46503735 1.8617942
1.0880287 -0.46419707 1.8721359
1.1096746 -0.46267775 1.8547921
1.1840152 -0.46705759 1.8697702
1.4108386 -0.45998055 1.8567224
-1.3587142 -0.41976696 1.8584392
-1.3307891 -0.42558509 1.8829618
-1.1058778 -0.43193689 1.8871831
-1.0656599 -0.42222098 1.8703611
-1.0397615 -0.42125252 1.8904121
-1.4612863 -0.36281431 1.878171
-1.4289303 -0.37534478 1.8682705
-1.3673855 -0.37776512 1.8640735
-1.3334101 -0.38259053 1.8854557
-1.0713358 -0.37711802 1.8679134
-1.0434779 -0.37351692 1.8907204
-1.4721115 -0.32695794 1.8712419
-1.111294 -0.32378566 1.8905821
-1.0690572 -0.32870272 1.870648
-1.0434985 -0.32247654 1.8932455
-0.86438912 -0.3135663 1.8878355
-0.84347552 -0.31008792 1.8931801
-1.4867816 -0.29306114 1.8790309
-1.1047606 -0.2866264 1.8837485
-1.0694348 -0.27701396 1.8724923
-1.0438153 -0.27978417 1.8947344
-0.86136097 -0.27285177 1.8825836
-0.84328645 -0.27315256 1.892532
-1.1225435 -0.21259035 1.8997688
-1.0707881 -0.22834083 1.8737626
-1.0457736 -0.22938898 1.8948612
-0.85987252 -0.22144981 1.8829406
-0.84242934 -0.22193432 1.8932072
-1.1176528 -0.16627872 1.8948094
-1.0688649 -0.17832564 1.8743805
-1.0450435 -0.17936032 1.8974473
-0.85797691 -0.17287716 1.8823221
-0.84177011 -0.17554967 1.8937356
-1.1137172 -0.12546018 1.8904128
-1.0686222 -0.12869461 1.8769081
-1.0447332 -0.13276277 1.8996342
-0.8654241 -0.12520054 1.8891082
-0.84194064 -0.12753235 1.895062
-1.1083922 -0.079812691 1.8831438
-1.0675778 -0.079026468 1.877059
-1.0437926 -0.099423155 1.8994384
-0.86406416 -0.076861732 1.8879573
-0.84574986 -0.076949432 1.8962421
-1.1041236 -0.029671703 1.8769258
-1.0681622 -0.029509947 1.8791039
-0.86416644 -0.028734336 1.8890998
-0.84568805 -0.028755765 1.897011
-1.1024106 0.025124686 1.8739963
-1.0685921 0.025036851 1.8798271
-1.0428896 0.010179858 1.8995844
-0.86433762 0.024247216 1.8894759
-0.84643567 0.023310687 1.8986762
-1.10367 0.079993695 1.8749638
-1.069435 0.079642914 1.8801688
-0.86542022 0.077306986 1.8907979
-0.84688985 0.082194597 1.8985379
-1.1062945 0.12513062 1.8775684
-1.0700876 0.12936077 1.8792344
-0.86682475 0.12572946 1.8919922
-0.84749436 0.11605887 1.8986293
-1.1112057 0.17087297 1.8831965
-1.0728601 0.17851405 1.8792948
-1.0463421 0.18003792 1.8995072
-0.86863339 0.17438813 1.8931624
-0.84936064 0.18407668 1.8989893
-1.1181519 0.22240376 1.8909941
-1.0740817 0.22753812 1.8792919
-0.86028063 0.22424261 1.89177
-1.1229197 0.2537598 1.8962079
-1.0752439 0.2756882 1.8793603
-0.86399484 0.27120692 1.8932375
-1.1280533 0.31604311 1.8979242
-1.0759879 0.32179469 1.881312
-0.8656711 0.32227337 1.8935972
-1.1070982 0.37359613 1.8756924
-1.0745801 0.37171218 1.881217
-0.86573941 0.37079063 1.8950623
-1.1180996 0.41801664 1.8878447
-1.0766511 0.42391855 1.880532
-0.86716592 0.41982546 1.8945978
-1.1041329 0.49274117 1.8718743
-1.07609 0.47634718 1.8813975
-0.86694586 0.47250471 1.8937157
-1.1129634 0.52744925 1.8803957
-1.0760769 0.526016 1.8796731
-0.95767355 0.53817493 1.8990775
-0.93768781 0.54535091 1.8926195
-0.87040764 0.52530628 1.8944441
-1.3676697 0.57870871 1.863135
-1.3412828 0.58339858 1.8916582
-1.1127092 0.57590115 1.8804462
-1.0737052 0.57400787 1.8808296
-0.93277317 0.55042386 1.8935437
-0.87087727 0.55601376 1.8957082
-1.3658231 0.62552142 1.8609873
-1.3413104 0.62488735 1.8877093
-1.1110666 0.62425518 1.8773131
-1.0735928 0.62556398 1.8784176
-1.048574 0.64441919 1.8981143
-1.1149244 0.67598724 1.8823308
-1.0718125 0.67434144 1.879578
-1.1141561 0.72058636 1.880167
-1.0752879 0.72445887 1.8764096
-1.1063064 0.78504342 1.8695322
-1.0705462 0.7736901 1.8788803
-1.1125236 0.82707363 1.8755361
-1.0743634 0.82272464 1.8764681
-1.0489308 0.8311314 1.8934078
-1.1226087 0.87150139 1.8834267
-1.0743062 0.87385237 1.8741026
-1.0469903 0.88042384 1.8985473
-1.1236775 0.92034405 1.8852074
-1.0736834 0.92595673 1.8766378
-1.0477347 0.92292285 1.8977768
-1.1149877 0.97541928 1.8734717
-1.0740192 0.97553003 1.8745558
-1.0481297 0.96548796 1.8956314
-1.1215696 1.0266355 1.8855921
-1.0720916 1.0246814 1.8729229
-1.0455508 1.016312 1.8970889
-1.1200987 1.0706772 1.8791475
-1.0710111 1.0724697 1.8750384
-1.0450183 1.0810037 1.896242
-1.1201092 1.1219834 1.8767844
-1.0723071 1.1246686 1.8742647
-1.0450288 1.128108 1.896523
-1.1314808 1.1881542 1.8865536
-1.0754797 1.1759531 1.8696769
-1.0448208 1.1756575 1.8955269
-1.1250612 1.2260405 1.8773313
-1.0732397 1.2250199 1.8714185
-1.0469526 1.2178451 1.8943977
-1.1218197 1.2771071 1.871455
-1.0755086 1.2745888 1.8706259
-1.0422907 1.283021 1.8962815
-1.1137789 1.322385 1.864727
-1.0729451 1.3250648 1.8737391
-1.0478987 1.3369329 1.8960763
-1.125813 1.380592 1.8800826
-1.0736384 1.3766397 1.877118
-1.0474105 1.3914638 1.8966229
-1.1290534 1.4226109 1.879442
-1.0757188 1.4273756 1.8758988
-1.0485748 1.4494506 1.8990554
-1.129064 1.4668201 1.8785201
-1.0788314 1.4770795 1.8751787
-1.1220964 1.5255063 1.8712499
-1.0817971 1.5268365 1.8746459
-1.1202549 1.5765952 1.871147
-1.0786332 1.573272 1.8819458
-1.1130202 1.6176658 1.8599139
-1.0770526 1.6215794 1.8817353
-1.1226493 1.6728098 1.8701117
-1.0782496 1.6785237 1.8809285
-1.1298685 1.7004136 1.8630842
-1.2019943 -0.50245565 1.9038832
-1.18725 -0.50066203 1.9021362
-1.0092487 -0.50564307 1.9018451
-0.97453958 -0.50563294 1.9151493
-0.92488462 -0.50927305 1.9212621
-0.87734312 -0.50856727 1.9283375
-0.8194297 -0.51051277 1.9336954
-0.77917194 -0.51156956 1.922233
-0.73618376 -0.50522375 1.9006132
-0.4160555 -0.50978136 1.9444587
-0.37405035 -0.51085919 1.926594
-0.30563951 -0.50226867 1.928854
-0.28002053 -0.50663406 1.9265703
-0.22256319 -0.51270986 1.9259843
-0.1745697 -0.51643288 1.927783
-0.12004331 -0.51124042 1.929594
-0.074071422 -0.51384866 1.9270781
-0.022730649 -0.51172805 1.9306282
0.017899334 -0.50531882 1.9188094
-1.3067603 -0.45737433 1.9014182
-1.2772161 -0.47656342 1.9240694
-1.2283821 -0.49495724 1.9292214
-1.1763955 -0.49252814 1.9280193
-1.1435356 -0.47808999 1.9179748
-1.0133828 -0.47730181 1.9123905
-0.98233628 -0.4800421 1.9350226
-0.94338995 -0.49818277 1.9405695
-0.88315135 -0.4678084 1.9418777
-0.72108483 -0.4930141 1.9102807
-0.45627475 -0.48249617 1.9290431
-0.43451405 -0.49381796 1.9179059
-0.33645326 -0.49879044 1.9117873
0.042269439 -0.49488249 1.9255445
0.07297755 -0.4920145 1.9297141
0.12209073 -0.48929036 1.9254551
0.16989122 -0.48364496 1.9248939
0.22943576 -0.48340154 1.9247192
0.27469578 -0.48216283 1.9255099
0.3221792 -0.47744697 1.9288152
0.37024534 -0.47504821 1.915876
0.42223248 -0.47701398 1.9321544
0.47041929 -0.47264403 1.9166926
0.52667457 -0.47406113 1.9257581
0.57546812 -0.47686791 1.9186109
0.62174881 -0.472229 1.9173567
0.67823309 -0.47594336 1.933089
0.7392242 -0.47449589 1.943594
0.77977502 -0.47528261 1.9267702
0.81911874 -0.48055372 1.9173393
0.87338287 -0.47715321 1.9255631
0.92715663 -0.47216684 1.9229943
0.99234718 -0.46929979 1.9191808
1.0241467 -0.46501869 1.9029185
1.0666943 -0.46864155 1.9304264
1.1218191 -0.46895966 1.936061
1.1847802 -0.47045034 1.9152946
1.2113481 -0.46821305 1.9489834
-1.3097961 -0.42115319 1.9043268
-1.2819732 -0.42724431 1.9310832
-1.1593926 -0.41321555 1.9386435
-1.1388229 -0.43037289 1.9228354
-1.0144782 -0.42480278 1.9147164
-0.98833728 -0.43028188 1.9401253
-1.4725474 -0.35461667 1.9086375
-1.4492722 -0.35154891 1.9281485
-1.3068405 -0.37882593 1.9113984
-1.2845644 -0.38634458 1.9346068
-1.1548313 -0.3751381 1.9365593
-1.1222996 -0.37809801 1.9022331
-1.0157149 -0.37213615 1.9174647
-0.98918116 -0.37614185 1.9438927
-0.8894012 -0.37064901 1.9449503
-1.507748 -0.30459166 1.9404758
-1.4752855 -0.32724676 1.9197713
-1.4471474 -0.34135592 1.9375939
-1.144629 -0.32529777 1.9257895
-1.0177928 -0.32265213 1.9175586
-0.99048012 -0.32517889 1.9431034
-0.91415727 -0.31202945 1.9407421
-0.86759317 -0.33410025 1.9134829
-0.81966347 -0.31517392 1.9191966
-0.78684455 -0.31221727 1.9444783
-1.1664053 -0.2554456 1.9483825
-1.1347308 -0.27640262 1.914505
-1.0204992 -0.26995003 1.9181259
-0.99517155 -0.2753723 1.9426932
-0.90324211 -0.28847429 1.9347211
-0.89607513 -0.26149878 1.9218698
-0.81670874 -0.27307025 1.9158292
-0.78111398 -0.27380309 1.9393941
-0.74427783 -0.27628905 1.9262959
-1.2708002 -0.2013014 1.9457591
-1.1602049 -0.22297454 1.9408488
-1.1291565 -0.2266389 1.9098228
-1.0214078 -0.22165759 1.9199748
-0.99341428 -0.22224984 1.9454139
-0.89236516 -0.22602244 1.9169643
-0.81762689 -0.22279276 1.9178398
-0.78659469 -0.24005763 1.935281
-1.2719228 -0.16961701 1.9497762
-1.1574653 -0.1758301 1.9397974
-1.1227309 -0.19235219 1.9016817
-1.0208631 -0.17235216 1.9206592
-0.99330866 -0.17524117 1.9456859
-0.88626558 -0.1756576 1.9074662
-0.81680155 -0.1746202 1.916289
-0.77692956 -0.17246975 1.9415311
-0.73137474 -0.17543434 1.9401803
-0.69654149 -0.18434705 1.9483463
-1.1515952 -0.12682952 1.9327364
-1.1492791 -0.11801322 1.9292331
-1.0221884 -0.12319782 1.9214985
-0.99650985 -0.12090318 1.9460735
-0.8188976 -0.12500565 1.9151959
-0.78740281 -0.11688045 1.9374861
-1.146338 -0.071533643 1.9259546
-1.0237494 -0.074927427 1.9208519
-0.99617404 -0.070419744 1.9471642
-0.91453916 -0.064622641 1.9485977
-0.82114893 -0.077374965 1.915228
-0.78992438 -0.080224842 1.9408181
-1.142683 -0.025290124 1.9206518
-1.0251138 -0.028388305 1.9194295
-0.9962365 -0.025022257 1.9480652
-0.91425943 -0.049654327 1.9483051
-0.82189316 -0.02894982 1.9178787
-0.79434687 -0.029188996 1.9433727
-1.1430516 0.020753248 1.9212558
-1.0237397 0.02060703 1.9220617
-0.99584293 0.020372469 1.9472837
-0.91392601 0.03005204 1.9477806
-0.82205242 0.025760446 1.9205868
-0.79447073 0.019716037 1.9451989
-1.1443406 0.071941376 1.922457
-1.0250133 0.070394143 1.9216121
-0.99647933 0.070833966 1.9476362
-0.91524297 0.076659516 1.9496311
-0.82322413 0.077977404 1.9227388
-0.79954267 0.071865566 1.9418793
-1.1524268 0.13432984 1.9335443
-1.1453038 0.10789011 1.9228263
-1.0263664 0.12068801 1.922287
-0.99799979 0.12401306 1.9486474
-0.91554868 0.10994339 1.9491793
-0.8235752 0.12735374 1.9236352
-1.1475476 0.17484243 1.9228289
-1.0273852 0.17084946 1.9233462
-0.99919176 0.17222492 1.9482998
-0.82394391 0.17485589 1.9243973
-1.1547595 0.23278461 1.930371
-1.1456728 0.20532276 1.9174193
-1.0501554 0.2207979 1.9032089
-1.0274218 0.22168849 1.9216874
-0.99667799 0.2272505 1.9459884
-0.87782115 0.22202115 1.9061369
-0.82399011 0.22513732 1.9264572
-1.1592561 0.27522293 1.9337454
-1.1278869 0.28034925 1.9018586
-1.0516565 0.26631147 1.9016805
-1.0243238 0.27388412 1.9278396
-0.99998844 0.25338423 1.9434065
-0.90723926 0.27899167 1.9354976
-0.87398845 0.27106228 1.9089626
-0.82606304 0.27473578 1.9267846
-1.1649265 0.32347232 1.9376751
-1.1367615 0.32538566 1.9116597
-1.0545075 0.32240498 1.9004521
-1.0257628 0.3244642 1.9268079
-0.90897542 0.32575637 1.9424838
-0.85543245 0.31701446 1.9001749
-0.82743925 0.32431236 1.9245685
-0.79858208 0.31663764 1.9492821
-1.1712289 0.35665682 1.9440081
-1.142633 0.37176093 1.9153347
-1.0541624 0.38286749 1.9051558
-1.02675 0.37539965 1.9283876
-0.91247934 0.35715908 1.9461694
-0.87136203 0.37655994 1.9029678
-0.82731122 0.37441805 1.9259031
-1.1533737 0.42731509 1.9251055
-1.1402347 0.42427495 1.9140588
-1.0523367 0.42630681 1.9040425
-1.0296663 0.42719737 1.9281929
-0.86679435 0.42440259 1.9078825
-0.82423729 0.42597771 1.9294208
-1.1682522 0.47505665 1.9423571
-1.1382502 0.47743088 1.9124943
-1.0547483 0.46284783 1.9021993
-1.0298904 0.4739522 1.926895
-0.90655071 0.48509362 1.9386057
-0.86950237 0.46746281 1.9095381
-0.82756531 0.47622579 1.9267023
-1.1580421 0.52928239 1.9310741
-1.141555 0.51000124 1.9119105
-1.0514003 0.53239703 1.9057339
-1.0283371 0.5240823 1.9275964
-0.97424054 0.53443283 1.9219307
-0.92265087 0.53178185 1.9221463
-0.85586345 0.52953154 1.903182
-0.8286314 0.52393919 1.925904
-1.3159828 0.58618021 1.9133717
-1.2900239 0.58397293 1.9398808
-1.1644866 0.57870209 1.9375238
-1.1334838 0.58404231 1.904457
-1.0520328 0.55831885 1.9013278
-1.0264866 0.57659626 1.9201035
-0.98541623 0.57991838 1.9313344
-0.92592001 0.56517762 1.924745
-0.86944842 0.5669682 1.9131891
-0.82850307 0.56021136 1.9349848
-1.3146349 0.62345272 1.9135807
-1.2875659 0.62813348 1.9410022
-1.1653953 0.6251238 1.9358217
-1.1431504 0.62056422 1.9129721
-1.0257999 0.62565494 1.9195869
-0.99058878 0.62198108 1.9404123
-1.1560423 0.67009813 1.9233755
-1.1370658 0.69160277 1.9069536
-1.0249215 0.67565727 1.9214318
-0.99663639 0.67231059 1.9455677
-1.1628999 0.73078299 1.9307907
-1.1440119 0.72239214 1.9108564
-1.0515194 0.73616052 1.9033878
-1.0236425 0.72421837 1.9238626
-0.99519122 0.72507852 1.9457333
-1.1612216 0.77639914 1.9262762
-1.1347167 0.77106988 1.90327
-1.0261773 0.77606553 1.9201465
-0.9961828 0.77723825 1.9460768
-1.1755797 0.81872445 1.9393387
-1.1478134 0.81761748 1.9127909
-1.024078 0.82452661 1.9200436
-0.99642336 0.82408518 1.9455281
-1.1659347 0.8762641 1.9333168
-1.1387959 0.85116953 1.9095899
-1.0208584 0.87727505 1.9231805
-0.99570656 0.87400651 1.9458151
-1.1683515 0.91851717 1.9287814
-1.1415868 0.93772054 1.9089594
-1.0235794 0.92705739 1.9203398
-0.99563587 0.92072374 1.9455882
-1.169809 0.97320467 1.9325548
-1.1442312 0.96175271 1.9044987
-1.0216323 0.97599047 1.9209019
-0.99399996 0.97005862 1.9449359
-1.170367 1.0285066 1.9289479
-1.1439275 1.0259334 1.9041687
-1.0216287 1.027885 1.9193056
-0.99463224 1.0196604 1.9443916
-1.1770092 1.0870253 1.9376159
-1.143294 1.0798573 1.9068427
-1.0213035 1.0748186 1.9186363
-0.9911105 1.0697163 1.9443582
-1.1667577 1.128624 1.9232267
-1.0191865 1.1218706 1.9216266
-0.99483633 1.1314516 1.94531
-1.1664182 1.1755242 1.9240254
-1.0218112 1.1741668 1.9203053
-0.99462843 1.1711968 1.9436065
-1.1875987 1.220217 1.9468842
-1.0225753 1.2250962 1.9175911
-0.99378395 1.2209799 1.9437621
-1.200327 1.2983332 1.9480368
-1.169865 1.2721598 1.9267656
-1.0221858 1.2727364 1.9187793
-0.99554735 1.2761228 1.9453777
-1.1731588 1.3112121 1.9280303
-1.1463488 1.3356844 1.9010202
-1.0242974 1.3229349 1.9198841
-0.99669093 1.3218756 1.946596
-1.1760107 1.3812923 1.9295973
-1.0220653 1.3723794 1.9244061
-0.99409384 1.3686337 1.9488894
-1.1851178 1.4222081 1.9306784
-1.0225502 1.4229925 1.9243729
-1.1757938 1.4853119 1.9231516
-1.0543668 1.4692168 1.901726
-1.0243623 1.4752905 1.9236342
-1.2063732 1.5435328 1.9473684
-1.1711947 1.5251102 1.9236858
-1.0542883 1.5213548 1.9043092
-1.0254031 1.5297862 1.9292597
-0.9996801 1.5166595 1.9492575
-1.1850133 1.5706162 1.9308963
-1.0545359 1.5811341 1.9023423
-1.0319539 1.5757873 1.9257545
-1.211426 1.616152 1.9468572
-1.1724735 1.6323082 1.9211587
-1.0549676 1.6365449 1.9038877
-1.0272574 1.6204163 1.9288746
-1.183287 1.6769943 1.9267688
-1.0557917 1.673017 1.9069589
-1.027589 1.6729832 1.9293089
-1.2057077 1.7061608 1.9446746
-1.1771184 1.7397257 1.9234163
-1.0323992 1.7123284 1.9289558
-1.1907451 1.7727226 1.9354376
-0.93291509 -0.50075328 1.9559391
-0.85710454 -0.50548738 1.9547466
-0.82135892 -0.50434548 1.9761181
-0.77443933 -0.50822771 1.9650536
-0.74929404 -0.50105894 1.9667377
-0.42609337 -0.50924456 1.9812328
-0.37427795 -0.50700837 1.958964
-0.32590181 -0.50216806 1.9656235
-0.27723688 -0.50755817 1.9786986
-0.22111374 -0.51306218 1.9720038
-0.17430821 -0.5161981 1.9722159
-0.1369763 -0.51917112 1.9683354
-0.070029289 -0.51516396 1.9811474
-0.024842145 -0.51333982 1.9748402
0.018441884 -0.50523454 1.9694096
-1.2538579 -0.4614608 1.9517468
-1.2284759 -0.46905169 1.9684821
-1.1883478 -0.4678838 1.9677124
-0.9588148 -0.47151721 1.9592694
-0.92624557 -0.47587541 1.9722852
-0.87381589 -0.48711252 1.9737597
-0.84620899 -0.48159334 1.9811283
-0.75253093 -0.49315774 1.9770163
-0.44460645 -0.49557066 1.96413
-0.35939366 -0.49871793 1.988674
-0.34934115 -0.49833125 1.9883006
0.035844613 -0.49658278 1.9613112
0.09433645 -0.49317402 1.9863842
0.12912802 -0.48730174 1.9695084
0.18085751 -0.4832496 1.9665763
0.22248672 -0.48337826 1.9737887
0.27650258 -0.47916612 1.9743736
0.33169267 -0.4744556 1.9751731
0.37408376 -0.4729811 1.9637901
0.42738512 -0.4736183 1.9809628
0.47331297 -0.47400296 1.973128
0.52556312 -0.47364697 1.9871848
0.57711923 -0.4752937 1.966786
0.62878162 -0.4740839 1.9763371
0.6685136 -0.47703704 1.9726778
0.72992259 -0.47633091 1.97791
0.76640785 -0.47174263 1.9613111
0.82486558 -0.48032728 1.9779631
0.88391435 -0.47718781 1.9713786
0.93013662 -0.473874 1.9807872
0.9763276 -0.47289217 1.9598541
1.0275259 -0.47596371 1.955834
1.0930294 -0.4715167 1.9614993
1.1429368 -0.4748064 1.957132
1.1819032 -0.46922356 1.9680831
-1.2543937 -0.42011222 1.9552357
-1.2291187 -0.42462173 1.9746959
-1.1901295 -0.42869458 1.97364
-0.9642241 -0.42529657 1.9609764
-0.9301917 -0.42261195 1.9837662
-0.88662732 -0.42309722 1.9676927
-0.84837008 -0.43541506 1.9731652
-0.7517547 -0.40214849 1.9892421
-1.3140361 -0.3727276 1.9936943
-1.2658757 -0.37387577 1.966158
-1.2256953 -0.37518328 1.976581
-1.190408 -0.37788051 1.9743114
-0.96410275 -0.37829262 1.966102
-0.92804176 -0.37602431 1.9874073
-0.87386799 -0.37532422 1.9877967
-1.5039843 -0.30427682 1.9756811
-1.4775091 -0.31476855 1.9684865
-1.4402543 -0.33553278 1.9763979
-1.2715909 -0.32674938 1.976404
-1.2245607 -0.32659689 1.9812254
-1.1767086 -0.32617784 1.9579417
-0.96635896 -0.32620031 1.9650475
-0.93831658 -0.33125454 1.9741108
-0.77651232 -0.31878787 1.9728132
-1.544729 -0.29645842 1.9863172
-1.2707323 -0.27681592 1.9727236
-1.2283105 -0.27870026 1.979684
-1.1786958 -0.2758936 1.9613695
-0.97018903 -0.27352518 1.9634458
-0.93790019 -0.27433732 1.9731468
-0.76764899 -0.28945732 1.9576497
0.27250144 -0.25553563 1.9992085
-1.2617736 -0.22378114 1.9625648
-1.2287573 -0.22383001 1.9789903
-1.1956519 -0.22244346 1.9780383
-0.96738231 -0.22325814 1.9651299
-0.93517244 -0.2228615 1.9719369
-0.80657947 -0.21826258 1.9651977
-0.79846025 -0.21739671 1.9588609
-1.2609859 -0.17682573 1.9564389
-1.2299412 -0.17462984 1.9787129
-1.1887901 -0.17371009 1.970247
-0.96824491 -0.17084445 1.9651099
-0.93313444 -0.17179734 1.9711752
-0.80695081 -0.17257223 1.955682
-0.7863149 -0.16583663 1.9593047
-0.72190738 -0.16616458 1.9805665
-0.68720651 -0.18462561 1.9822589
-1.2662818 -0.12993199 1.9616227
-1.2286716 -0.12594475 1.977602
-1.1847606 -0.12583235 1.9662081
-0.97014117 -0.12140231 1.964954
-0.93049937 -0.1230232 1.9667803
-0.80822462 -0.14816451 1.9601991
-0.77006918 -0.13184091 1.9592696
-0.73459035 -0.12850218 1.9826504
-1.3056419 -0.059131034 1.9844269
-1.2707199 -0.072908618 1.9652855
-1.2281429 -0.075596139 1.9786319
-1.1787355 -0.07290408 1.9581438
-0.96997476 -0.070722662 1.9663477
-0.93083388 -0.077851854 1.9673505
-0.76625866 -0.076731808 1.9611653
-0.73695529 -0.080757707 1.9858491
-1.3202242 -0.026161054 1.9874469
-1.2683878 -0.027837662 1.9732598
-1.2254461 -0.02628107 1.9802129
-1.1764987 -0.025802851 1.9552872
-0.970043 -0.025145108 1.9672468
-0.92757505 -0.024959143 1.9644836
-0.76936328 -0.028467504 1.9659719
-0.74071485 -0.031049727 1.9892206
-1.3184489 0.021018546 1.9863185
-1.2705771 0.022499926 1.9746724
-1.227424 0.022076957 1.9807496
-1.1758994 0.021126281 1.9542758
-0.97044867 0.020463504 1.9680803
-0.93504262 0.017064482 1.9720984
-0.76793635 0.024952754 1.9702545
-0.73838979 0.024984529 1.9954754
-1.3067305 0.076193035 1.9854221
-1.2760569 0.075011164 1.9636502
-1.2295983 0.0746613 1.9748137
-1.179363 0.07353358 1.959039
-0.97084254 0.071169958 1.9679861
-0.93139428 0.074964307 1.9663174
-0.77276611 0.07914909 1.9703681
-0.74294502 0.076501973 1.9970355
-1.2649957 0.13045099 1.9593539
-1.2286613 0.12655126 1.9773231
-1.1797673 0.12586503 1.9576687
-0.97250432 0.12154835 1.9667562
-0.93193936 0.12500133 1.9678274
-0.77348906 0.12865207 1.9703796
-0.74530494 0.12974812 1.9965687
-1.2636189 0.17589618 1.9578209
-1.2281097 0.17614214 1.9785737
-1.1865826 0.17393249 1.9662397
-0.97255498 0.17287359 1.9668591
-0.93139744 0.17181818 1.9672298
-0.77462906 0.17835742 1.9705986
-0.74637866 0.16488302 1.9976768
-1.2624174 0.22139506 1.95786
-1.2298088 0.22440815 1.9775836
-1.1887426 0.22174998 1.9661678
-0.96927363 0.22202158 1.9607688
-0.9317584 0.22240071 1.9643389
-0.77718914 0.22767606 1.9711261
-0.74826074 0.22703962 1.9984728
0.26628718 0.22073056 1.9916812
-1.2610618 0.27537787 1.9571819
-1.2311298 0.27625251 1.9788015
-1.1986642 0.26963112 1.9782263
-0.97550696 0.27531585 1.9643695
-0.93902946 0.2771467 1.9734489
-0.77805448 0.2769255 1.9713668
-0.74902785 0.27070752 1.9967417
-1.2637029 0.3264527 1.9590667
-1.2276753 0.32233739 1.9792506
-0.976336 0.32874426 1.9680164
-0.93934965 0.32243651 1.976005
-0.80076194 0.34229505 1.9516501
-0.77168524 0.3256312 1.9777176
-1.2646827 0.37429011 1.9635112
-1.2280767 0.37655985 1.9796129
-1.1853132 0.38218451 1.964306
-1.0007986 0.38930082 1.9525999
-0.97596204 0.37420762 1.9714192
-0.93115103 0.37887233 1.9691883
-0.80248278 0.38114771 1.9507885
-0.77342999 0.3748661 1.9771476
-1.2637981 0.42613354 1.9617515
-1.2337335 0.42689875 1.9811814
-1.1909999 0.42131743 1.9678873
-1.0039586 0.42649016 1.9532157
-0.97620636 0.42269039 1.9715858
-0.93675709 0.4231433 1.9752856
-0.77516049 0.42436746 1.9756449
-1.2612903 0.47533211 1.9579712
-1.2285391 0.47547597 1.9776031
-1.1979854 0.45058453 1.9749144
-1.006054 0.47797725 1.9527311
-0.97840691 0.47484055 1.9695606
-0.93958056 0.47388583 1.9745449
-0.77740771 0.47445193 1.9744817
-1.2590005 0.5282402 1.9613738
-1.2295238 0.5263114 1.9812855
-1.1859019 0.53577167 1.9610571
-1.0030015 0.51962578 1.9544468
-0.97367352 0.51949698 1.9710771
-0.93924886 0.51864189 1.9734856
-0.80147392 0.52280676 1.9530433
-0.77681577 0.52643383 1.9769855
-1.2628186 0.57200158 1.9622188
-1.2269453 0.57623535 1.9824066
-1.1975138 0.56804311 1.9744027
-0.96011549 0.59032297 1.9569429
-0.93495327 0.59075558 1.9676487
-0.82601547 0.57576042 1.9701353
-0.77884138 0.56084764 1.9804577
-1.2650983 0.62341279 1.9609153
-1.2310349 0.62640476 1.9786985
-1.1909688 0.62147844 1.9622962
-0.96763372 0.6265409 1.958639
-0.92680842 0.62225264 1.9802003
-0.88834447 0.60464036 1.9944987
-1.2622823 0.67844701 1.9681908
-1.2299702 0.67510521 1.9768326
-1.1928751 0.66887313 1.9658223
-0.97244501 0.67653799 1.965928
-0.93866915 0.67268723 1.9909371
-1.2609955 0.72075391 1.9642191
-1.224771 0.7237041 1.9724088
-1.1810471 0.72446173 1.9536852
-0.97061062 0.72443229 1.9673407
-0.94544244 0.72378546 1.990899
-1.2558781 0.76861459 1.9657427
-1.2290629 0.77600741 1.9768716
-1.1918887 0.76762009 1.9606404
-0.97380877 0.77204865 1.9682711
-0.943901 0.77744395 1.9939144
-1.2505709 0.81739324 1.974547
-1.2274379 0.82246286 1.976047
-1.1866423 0.84844548 1.9500549
-0.96881777 0.82546359 1.9710093
-0.94361067 0.82298082 1.9960971
-1.2269983 0.86612701 1.9734017
-1.1925379 0.87960863 1.9567254
-0.97191161 0.87656254 1.9681447
-0.94229758 0.8697688 1.9927163
-1.2241062 0.92507583 1.9753096
-1.197504 0.93718064 1.964991
-0.97024184 0.92497754 1.9688014
-0.94151485 0.92751884 1.9947301
-1.2140304 0.97740775 1.9719982
-1.1957268 0.99553788 1.965844
-0.9701876 0.9776271 1.9691195
-0.94217682 0.96903354 1.9929701
-1.2105635 1.0243566 1.9643389
-1.1957401 1.0125282 1.9587379
-0.969989 1.0255159 1.9672529
-0.94021875 1.0206213 1.9944597
-1.2073947 1.0696031 1.966766
-1.1960102 1.0738202 1.9610747
-0.96604824 1.0776883 1.9685236
-0.94016916 1.0735961 1.993481
-1.2062573 1.1291437 1.9562659
-1.1944857 1.1403838 1.9561999
-0.97036648 1.1235763 1.9659263
-0.94322395 1.1256429 1.9906194
-1.2069426 1.1813772 1.9621229
-1.1969266 1.1542588 1.9545249
-0.96882886 1.174397 1.9675215
-0.94004834 1.1711818 1.9919832
-1.2073628 1.2265414 1.960256
-0.9700008 1.2299269 1.9680996
-0.9412995 1.2234163 1.9912764
-1.2064085 1.2770082 1.962718
-1.1960229 1.2583849 1.9607372
-0.96857232 1.2770507 1.9691898
-0.94199955 1.2728539 1.9952278
-1.2051868 1.3279061 1.9584175
-0.97058553 1.3258359 1.9708774
-0.94299477 1.3210011 1.9941502
-1.2118059 1.3719211 1.9642701
-1.1933352 1.3645272 1.9600772
-0.97134691 1.3738064 1.9746499
-0.94468796 1.3693986 1.9975882
-0.9729206 1.4240357 1.9747446
-0.94541234 1.4409919 1.9974877
-1.2065862 1.4792545 1.9545209
-1.1998214 1.4587979 1.951532
-1.0043933 1.4702493 1.9535276
-0.97629219 1.4756435 1.9742204
-0.94939095 1.4649172 1.9949311
-1.2156568 1.5026983 1.9610238
-0.97823918 1.5253532 1.9741277
-0.94722342 1.5162752 1.9975182
-1.0023569 1.5815363 1.9542994
-0.97525978 1.5746919 1.9772727
-1.0063131 1.6281178 1.9547757
-0.97907346 1.6273879 1.9760492
-1.2129024 1.660376 1.9577918
-1.0070124 1.6637969 1.952751
-0.97650123 1.6752266 1.977631
-1.0037726 1.7100978 1.952605
-0.97677302 1.7188865 1.9812961
-1.2107463 1.7639023 1.9553912
-0.81997275 -0.50168478 2.0200725
-0.78645152 -0.50193805 2.0066307
-0.46907595 -0.50162584 2.0280344
-0.42283875 -0.51520687 2.026577
-0.38487849 -0.5131411 2.016216
-0.32454348 -0.50552577 2.0203347
-0.27163193 -0.50977379 2.0309017
-0.22332972 -0.51633394 2.0313652
-0.17174433 -0.51430553 2.0199482
-0.12180904 -0.5181579 2.0190592
-0.078328334 -0.51479894 2.0243802
-0.032207523 -0.51588678 2.0376086
0.02058812 -0.50498581 2.028542
0.0712713 -0.50100178 2.0185888
-0.901241 -0.46212539 2.0113709
-0.87331223 -0.46860126 2.0214684
-0.83611292 -0.49414799 2.0265589
-0.78139752 -0.48123536 2.0269473
-0.34055424 -0.49715734 2.0266566
0.07488098 -0.49654195 2.0282242
0.12910774 -0.48998812 2.0275135
0.17112184 -0.48819256 2.0358968
0.22718677 -0.48327214 2.0284026
0.27734774 -0.4696705 2.0235341
0.3190102 -0.47551253 2.0099089
0.37449574 -0.47606748 2.0206387
0.40570146 -0.47777361 2.0240393
0.46740839 -0.47474283 2.0360775
0.53123999 -0.47316495 2.0299132
0.57530814 -0.47217655 2.017261
0.61783737 -0.47395489 2.0167267
0.67362666 -0.47771737 2.0216386
0.72452933 -0.48024639 2.0332103
0.768408 -0.47586331 2.0387757
0.81984699 -0.48013037 2.0348506
0.86927354 -0.48673743 2.0362213
0.93755484 -0.47514558 2.0373838
0.97441769 -0.47508079 2.0245283
1.0250654 -0.47365949 2.026958
1.0532817 -0.47142854 2.0331314
1.104315 -0.47031105 2.0072572
-0.90189618 -0.42451036 2.0097036
-0.8811996 -0.42529222 2.0205553
-0.76248938 -0.42828977 2.0147054
0.2748422 -0.42573047 2.0350747
-1.3265488 -0.35965449 2.0150118
-0.88170755 -0.37439433 2.0094972
-0.84111696 -0.35182858 2.0371137
-0.78141844 -0.37848201 2.0361404
0.27755049 -0.39425322 2.0471447
-1.5302703 -0.30037513 2.0338655
-1.4683403 -0.31006473 2.0152576
-1.4287155 -0.32606521 2.0208945
-1.3753262 -0.34134305 2.0233731
-1.3303345 -0.32731402 2.0250978
-0.84483802 -0.34697247 2.0045316
-0.78107756 -0.34082031 2.0160728
-1.5384661 -0.29858103 2.0112524
0.27818787 -0.27324706 2.0178728
0.31619498 -0.27573311 2.0367036
0.27468276 -0.22358157 2.0179973
0.32036796 -0.22439443 2.0361753
-0.70590621 -0.16451922 2.006361
-0.67701584 -0.16844998 2.0275784
-0.62501323 -0.18081777 2.0315154
-0.58181828 -0.1861061 2.0422738
0.27471125 -0.1750031 2.0213065
0.31805652 -0.17612562 2.0378516
-0.71080828 -0.12958835 2.0066252
-0.6855309 -0.12161601 2.031724
0.27468556 -0.12636599 2.0233827
0.31748989 -0.12803327 2.0365522
-0.71053994 -0.07377518 2.0108664
-0.68549663 -0.073540241 2.035346
0.27667847 -0.077997535 2.0198357
0.31558532 -0.078397714 2.0385404
-1.365541 -0.010670516 2.0087144
-0.71363568 -0.028842 2.0148973
-0.68863654 -0.025122687 2.0393362
0.27464572 -0.029125292 2.0255196
0.31745568 -0.030590706 2.0387626
-1.3680215 0.00036501756 2.0123742
-0.71457946 0.020180717 2.0200295
-0.69035548 0.020346556 2.0444179
0.27538255 0.025321053 2.0205672
0.31718028 0.025339998 2.0382562
-0.71845537 0.07169304 2.0201371
-0.69396067 0.067560077 2.0435929
0.27535105 0.078188226 2.0236676
0.3157542 0.079232991 2.0395315
-0.72138613 0.12078497 2.0214326
-0.69668704 0.12172143 2.0445125
0.27451834 0.1263489 2.022012
0.31579065 0.12759501 2.038115
-0.72432661 0.1723492 2.0202594
-0.69758254 0.17262061 2.0446155
0.27477077 0.17509747 2.0214241
0.31920648 0.1771502 2.0409925
-0.72565269 0.22122815 2.0206861
-0.69893378 0.22379152 2.0451748
0.27309242 0.21049593 2.0197816
0.32437861 0.21060166 2.0342066
-0.72404581 0.2734668 2.0221744
-0.69966513 0.2723639 2.043262
-0.72295052 0.32488459 2.0258167
-0.6930089 0.33769545 2.0495417
-0.72556555 0.37582815 2.0244429
-0.72673231 0.42582041 2.0219567
-0.69769967 0.44298223 2.0498087
-0.75074649 0.49389929 2.0018501
-0.72667992 0.47356167 2.0243547
-0.69897491 0.47820106 2.04813
-0.75241297 0.52051258 2.001708
-0.72449005 0.52414507 2.027411
-0.83225477 0.59882855 2.0318263
-0.76875997 0.57552439 2.0130568
-0.7292105 0.56068003 2.0270383
-0.90182209 0.63128632 2.0064418
-0.87516397 0.62956959 2.0291805
-0.91428691 0.67697829 2.0108809
-0.8854531 0.67593622 2.0353329
-0.9200505 0.72560018 2.0135508
-0.88760489 0.72366887 2.0399592
-0.91695338 0.77436948 2.0172777
-0.88884705 0.77299458 2.0422406
-0.91922337 0.82680202 2.017302
-0.89322811 0.82025069 2.0396657
-0.91650963 0.87610036 2.0187213
-0.88999927 0.87531191 2.0419106
-0.91729283 0.9240942 2.0159326
-0.89245749 0.92445725 2.0400727
-0.91689366 0.97514772 2.0167174
-0.88825107 0.97755635 2.0407875
-0.91619647 1.0277895 2.0161066
-0.88917732 1.0261674 2.0401011
-0.91658747 1.074365 2.0136545
-0.88633442 1.0748285 2.0406156
-0.91657346 1.126792 2.0148718
-0.88983071 1.1257451 2.0401063
-0.91805774 1.1762892 2.0154746
-0.89184427 1.1744151 2.0383427
-0.91723108 1.2257589 2.0163388
-0.89112616 1.2222531 2.0419035
-0.91705585 1.2765667 2.0183253
-0.89425433 1.275159 2.0444887
-0.9185046 1.322305 2.0182774
-0.89209348 1.3226345 2.0431385
-0.92161876 1.3749387 2.023186
-0.894355 1.370144 2.0448158
-0.92153937 1.424796 2.0219309
-0.89679247 1.418844 2.0460773
-0.92191041 1.478213 2.0270755
-0.92675728 1.5244941 2.0207362
-0.89976937 1.5378975 2.0497715
-0.95051736 1.5900261 2.002737
-0.92447704 1.5719843 2.0258038
-0.95404434 1.6082091 2.0017133
-0.92923182 1.62465 2.0225112
-0.89911103 1.6073707 2.0487936
-0.95117283 1.6614707 2.000474
-0.92575622 1.675801 2.0287492
-0.95313954 1.7309752 2.0037291
-0.92726237 1.7252469 2.0241697
-0.89725953 1.7382571 2.0495124
-0.91131777 1.7536083 2.0382884
-0.428166 -0.51878154 2.0790989
-0.38379699 -0.5130502 2.0788376
-0.32314852 -0.50894731 2.0774679
-0.28407693 -0.51181197 2.0931294
-0.22944352 -0.51430804 2.0645678
-0.17918962 -0.51480418 2.0698771
-0.12880428 -0.51508814 2.0735106
-0.079556048 -0.51467663 2.0665002
-0.027578944 -0.51273197 2.0665448
0.037805792 -0.50332856 2.0707762
0.053154491 -0.50576335 2.0805786
-0.85335207 -0.469951 2.0556724
-0.82537508 -0.47198999 2.0738106
-0.78762174 -0.4761005 2.0601563
0.043277107 -0.49840209 2.0939102
0.075967133 -0.49641073 2.0848897
0.1123407 -0.48904699 2.0528536
0.17276704 -0.48743987 2.0748363
0.21962959 -0.48462495 2.0726142
0.25879592 -0.48227179 2.0594776
0.32343191 -0.47485942 2.06657
0.3781032 -0.47694215 2.0696151
0.41945142 -0.47528267 2.0687406
0.48724973 -0.47676489 2.0893679
0.5303573 -0.47605318 2.0814106
0.57480228 -0.47410619 2.0741298
0.61875349 -0.47184595 2.0632763
0.67137539 -0.47686297 2.0669937
0.72649997 -0.47543982 2.0700033
0.78355139 -0.47680268 2.0803571
0.82912141 -0.47660884 2.0775242
0.87728548 -0.48509777 2.0782003
0.93407106 -0.47613847 2.0708857
0.97029227 -0.47543332 2.0831251
1.0081555 -0.47544709 2.0702376
1.0817449 -0.47316048 2.0899203
-0.8599965 -0.42171234 2.0542355
-0.83043474 -0.42301509 2.0766399
-0.79595876 -0.43071899 2.0740895
-0.86185789 -0.38231999 2.0555768
-0.8304683 -0.37670422 2.0737543
0.27976063 -0.37338796 2.0737798
-1.5116348 -0.30246136 2.0651529
-1.4766686 -0.3082698 2.0843618
-1.4228171 -0.31914213 2.0703688
-1.378799 -0.32446235 2.0666859
0.2787472 -0.31886703 2.0774317
-1.5800328 -0.29595464 2.0783851
0.24486929 -0.27254257 2.0956933
0.25550994 -0.27293888 2.0756366
0.33785069 -0.2755447 2.0579309
0.37171009 -0.27200651 2.0790966
0.24416488 -0.23149402 2.0928135
0.25269777 -0.22511095 2.0797405
0.34316933 -0.23145628 2.0528033
0.37506187 -0.225667 2.0774145
-0.65779716 -0.15736881 2.0573554
-0.62701774 -0.16007572 2.0776796
-0.57260281 -0.17809986 2.0694406
0.24422021 -0.16779405 2.0971735
0.25248712 -0.17990416 2.0808327
0.33945143 -0.18081507 2.0539944
0.37312606 -0.17390475 2.0793581
-0.66218197 -0.11954028 2.0576577
-0.63749564 -0.12281577 2.0810771
0.24369216 -0.12053849 2.0946958
0.25226089 -0.12981065 2.0813632
0.33946863 -0.12628445 2.0567393
0.37276271 -0.12499622 2.0805635
-0.66168952 -0.067885347 2.0597329
-0.6367237 -0.074022479 2.083194
-0.53000689 -0.070983969 2.0818388
0.24306661 -0.075120695 2.090708
0.25413671 -0.078084238 2.0677192
0.33754525 -0.079175033 2.0567467
0.3716585 -0.073103502 2.0781763
0.40766934 -0.060711663 2.0966413
-0.66433442 -0.025357412 2.064733
-0.63756776 -0.027295005 2.089427
0.24588221 -0.014825264 2.072988
0.25144336 -0.032343745 2.0770192
0.33864963 -0.024668951 2.0541639
0.3724764 -0.027306998 2.081219
-0.66530025 0.02050576 2.0677328
-0.6397875 0.020651894 2.09073
0.24284308 0.020060582 2.0895286
0.25292933 0.021137265 2.0687771
0.3402473 0.02311416 2.0536044
0.36813527 0.022450186 2.0792851
-0.6698947 0.072368659 2.0670917
-0.64228833 0.068328157 2.0937047
0.24688399 0.079414479 2.0697236
0.25857326 0.068978399 2.0531442
0.34017849 0.074244395 2.0548804
0.37203208 0.077180699 2.0822787
-0.67156136 0.12268768 2.0677798
-0.64540708 0.12730643 2.0945194
0.24346712 0.11987683 2.0821154
0.25124812 0.13603093 2.0725632
0.33778015 0.12887308 2.0563991
0.36825931 0.12378117 2.0793905
-0.67311966 0.17417383 2.0700541
-0.64632881 0.17223351 2.0953126
0.24304137 0.17036381 2.0866699
0.25057128 0.17862689 2.0648096
0.33967978 0.18251362 2.0550401
0.36703703 0.17138726 2.0736742
-0.67353863 0.22671291 2.0718045
-0.64863563 0.22237068 2.0936389
0.24065493 0.21154141 2.0783865
0.25029671 0.218086 2.0600576
-0.67309123 0.27681473 2.073297
-0.64985275 0.29009852 2.0919485
-0.6718598 0.3244032 2.0743732
-0.6734696 0.37296399 2.0732927
-0.64397442 0.38078913 2.0990582
-0.67542529 0.42447659 2.0726056
-0.64606154 0.43434536 2.0988688
-0.70059043 0.48618978 2.0517626
-0.67605215 0.47495547 2.072331
-0.64744341 0.47199383 2.0978475
-0.7030713 0.52943075 2.0518308
-0.6727336 0.52471501 2.0755394
-0.6491887 0.52234107 2.0954175
-0.76026803 0.59363145 2.0744469
-0.70828825 0.57260907 2.0597346
-0.67745429 0.56231189 2.0768702
-0.85015321 0.6398564 2.0538962
-0.82307404 0.62688684 2.0733485
-0.86111182 0.67345649 2.0572143
-0.83239025 0.67409933 2.0824635
-0.86257607 0.72497308 2.0656009
-0.83538443 0.72411138 2.0897963
-0.86503381 0.77719343 2.064914
-0.83947378 0.77141303 2.0885932
-0.86692697 0.82624888 2.0650618
-0.83932847 0.82283968 2.088582
-0.86784297 0.87349671 2.0643716
-0.83876324 0.87508857 2.0902398
-0.86566341 0.92413187 2.0637627
-0.83826822 0.92494869 2.0902171
-0.86606026 0.97505635 2.0641963
-0.83744812 0.97318834 2.089174
-0.86292624 1.0258685 2.0628672
-0.83737504 1.0210493 2.0898504
-0.8649264 1.0738368 2.062717
-0.83964843 1.0734054 2.087656
-0.86417729 1.1240798 2.0657008
-0.84005845 1.1256274 2.087908
-0.86821967 1.1753165 2.0621376
-0.839845 1.1779844 2.0907652
-0.86599272 1.2259895 2.0671535
-0.8413229 1.2302744 2.0888216
-0.86767673 1.2741396 2.0680487
-0.83928984 1.2850302 2.0962498
-0.86650312 1.3206102 2.0691781
-0.84037358 1.3232502 2.0956204
-0.86900192 1.3739166 2.0708756
-0.84499329 1.3740506 2.095382
-0.87181938 1.4248939 2.0691607
-0.84222293 1.417348 2.0959475
-0.87367284 1.4725237 2.0699172
-0.84685826 1.4636232 2.0972257
-0.87409782 1.522925 2.0728984
-0.84290415 1.5209379 2.0965688
-0.87548697 1.5765202 2.0745597
-0.84891069 1.5564671 2.0964344
-0.90541822 1.6373456 2.0504885
-0.87315679 1.6248782 2.0758107
-0.84650779 1.6187427 2.0977197
-0.90150672 1.6844171 2.0529804
-0.87521571 1.6726316 2.0747392
-0.90428036 1.7022158 2.0503075
-0.87393123 1.724772 2.0764906
-0.84805417 1.7032053 2.0989027
-0.90408295 1.7642686 2.0556159
-0.87242824 1.7693061 2.083173
-0.84738427 1.7793419 2.0967789
-0.46966529 -0.51422715 2.1263387
-0.42361102 -0.51969624 2.1101646
-0.3701205 -0.50580037 2.1241751
-0.31889138 -0.51267701 2.1308422
-0.27216309 -0.51382691 2.1282198
-0.22572711 -0.51426703 2.1279087
-0.17298649 -0.51520985 2.1350751
-0.12509616 -0.51605296 2.1283331
-0.074921042 -0.51639771 2.1238837
-0.028349068 -0.51633596 2.124368
0.015943572 -0.51137614 2.1294894
0.064554982 -0.50048864 2.1250544
0.11524459 -0.50170016 2.1059837
0.08563254 -0.49809051 2.1369686
0.13135706 -0.49435005 2.1193511
0.17850669 -0.48624292 2.1282933
0.22028366 -0.48712891 2.1295829
0.26484233 -0.48539895 2.1305258
0.32211688 -0.47911835 2.1331522
0.37792614 -0.4754512 2.1185873
0.42489681 -0.47684065 2.1230915
0.47173405 -0.47497526 2.12377
0.52487528 -0.47385305 2.1216419
0.58039403 -0.47540879 2.1293077
0.618922 -0.47527894 2.1213062
0.6756618 -0.47747803 2.1286414
0.71057022 -0.47459364 2.1300406
0.77507663 -0.47510046 2.1383967
0.82698375 -0.47705379 2.1344543
0.87776703 -0.48078293 2.1247215
0.92362463 -0.49604982 2.1445441
0.98150843 -0.47264254 2.1227045
1.0337673 -0.47644213 2.1246512
1.0551231 -0.4760654 2.1150625
0.27955249 -0.36407211 2.1180472
-1.470541 -0.30607232 2.1227081
-1.4295933 -0.3090592 2.1279697
-1.3834655 -0.30001089 2.110703
0.27743602 -0.33221477 2.1210084
0.41206598 -0.30052656 2.1333585
-1.5622082 -0.29336095 2.1245708
-1.5429616 -0.29914969 2.1326146
0.24086002 -0.27612165 2.1234527
0.39395934 -0.29859129 2.121551
0.42264307 -0.270659 2.1147587
0.45771512 -0.27754864 2.1445806
0.23838508 -0.22301818 2.1254795
0.39932397 -0.2033979 2.1015224
0.42953545 -0.22622812 2.120101
0.46104735 -0.22394489 2.1441867
-0.60330075 -0.1591921 2.1177285
-0.57699394 -0.16369803 2.1368632
0.23636219 -0.17763171 2.1270096
0.3987664 -0.17263995 2.1003671
0.42886338 -0.17452224 2.1198919
0.46393865 -0.18147503 2.1459579
-0.60911411 -0.12433267 2.1140885
-0.58252221 -0.12686557 2.1391211
-0.53217119 -0.13015282 2.1095898
0.23746791 -0.11973005 2.1303389
0.39880207 -0.10662409 2.1033978
0.42568865 -0.12243742 2.1204762
