ply
format ascii 1.0
comment PCL generated
element vertex 1515
property float x
property float y
property float z
element camera 0
property float view_px
property float view_py
property float view_pz
property float x_axisx
property float x_axisy
property float x_axisz
property float y_axisx
property float y_axisy
property float y_axisz
property float z_axisx
property float z_axisy
property float z_axisz
property float focal
property float scalex
property float scaley
property float centerx
property float centery
property int viewportx
property int viewporty
property float k1
property float k2
end_header
-0.3386839 -0.047082249 2.4543166
-0.0087198792 -0.035060868 2.4514847
0.018169796 -0.02773877 2.4683759
0.080355383 -0.030036611 2.4783766
-0.026352072 3.111751e-05 2.4620931
0.020790201 3.1320022e-05 2.4808831
0.08136607 0.023660313 2.4753535
0.081665382 0.076132514 2.4729009
0.079899818 0.12427655 2.4773834
0.082927004 0.17328723 2.4780803
0.07999602 0.21327238 2.4764853
-0.46595562 0.53526151 2.4537399
-0.46961924 0.59401029 2.4645767
-0.46846724 0.61068845 2.4555166
-0.46794048 0.94235313 2.4505477
-0.47214949 1.0259 2.4513376
-0.48174739 1.7266068 2.4798663
-0.49005094 1.7796376 2.46854
-0.50605232 1.833239 2.4556446
-0.48885262 1.822459 2.4761224
-0.50529826 1.8735163 2.459707
-0.49330387 1.8745962 2.4771283
-0.51445138 1.9299681 2.4636025
-0.49074179 1.9279463 2.4790018
-0.515001 1.976806 2.4636114
-0.4892326 1.9794598 2.4902954
-0.50454509 2.0044503 2.477432
-0.49282435 2.0158975 2.4940219
1.938186 2.4301372 2.492605
1.9810513 2.4256232 2.4650199
2.0332563 2.4312098 2.474369
2.0778313 2.4239063 2.4755225
2.1425564 2.4276891 2.4593232
2.1594238 2.4286494 2.4924965
1.0959997 -0.50114596 2.5058568
-0.46326229 -0.47239935 2.5164409
-0.41256818 -0.48894554 2.5100672
-0.39886695 -0.48714492 2.5021288
-0.33206782 -0.48440033 2.52056
-0.21760193 -0.47815901 2.5353501
-0.17840403 -0.48388159 2.5019057
-0.13117716 -0.47602519 2.527895
-0.076311864 -0.47641093 2.5314164
-0.015078685 -0.47177333 2.5074921
0.0030871634 -0.47341123 2.5162318
0.088509344 -0.47577634 2.5277941
0.12485492 -0.47488484 2.5220108
0.17817859 -0.47615799 2.5267
0.22533882 -0.47793505 2.5172098
0.28377068 -0.47592148 2.5191154
0.30695847 -0.47396207 2.5068753
0.38836604 -0.47689223 2.5151162
0.47181323 -0.46859005 2.5288656
1.0756335 -0.47994021 2.5295057
1.1102064 -0.48526204 2.5241985
-0.4040831 -0.35779154 2.5498235
-0.37347347 -0.36427379 2.5214667
-0.34851444 -0.38790271 2.5064409
0.015151204 -0.36231878 2.5152411
-0.37688571 -0.32023016 2.5213027
0.017111337 -0.32084969 2.50934
0.081197575 -0.3005268 2.5078721
-0.4010528 -0.26938567 2.537596
-0.37790525 -0.2755248 2.5206003
0.03255875 -0.27035016 2.5336914
0.060491994 -0.27204102 2.525089
0.94912708 -0.28992182 2.5164297
0.97599322 -0.26870641 2.5200291
1.0074224 -0.2679134 2.5362918
-0.40163818 -0.2329828 2.543669
-0.37682027 -0.22356421 2.5165911
0.033249728 -0.22304478 2.5209677
0.057446618 -0.22359034 2.5271368
0.97887659 -0.22097245 2.5189075
1.0146329 -0.22714391 2.5380657
-0.405707 -0.17980914 2.5458755
-0.38254416 -0.17576705 2.5189772
0.039262626 -0.174909 2.5248911
0.057179563 -0.17442413 2.5176182
0.98003989 -0.16827711 2.5198915
1.0155575 -0.1685327 2.5435319
-0.4010585 -0.13466986 2.5445945
-0.38597441 -0.12442509 2.5158615
0.039029408 -0.12591405 2.511714
0.057014931 -0.12592067 2.5118616
0.97579271 -0.11982641 2.522732
1.014859 -0.11734931 2.5437436
-0.41250968 -0.077404201 2.5398996
-0.3881754 -0.079267956 2.5161562
0.038902208 -0.083644874 2.5046418
0.056929283 -0.077811331 2.5088954
0.93802005 -0.070785828 2.5096247
0.97458267 -0.079126917 2.5207629
1.0100574 -0.08265698 2.5397503
-0.41370797 -0.026780704 2.5325618
-0.39121303 -0.034163427 2.5100658
0.038861729 -0.041763838 2.5026932
0.057679091 -0.032420304 2.5048473
0.057748463 0.021400921 2.5168433
0.039275404 0.096579425 2.5282874
0.057155143 0.078197345 2.5197763
0.059352871 0.13073213 2.5263126
0.059320793 0.17427541 2.5240667
0.057632592 0.21225509 2.5353746
-0.49064049 1.9342235 2.5301313
1.8229127 2.4264247 2.5384278
1.8831773 2.4362864 2.5161438
1.9219779 2.4242635 2.5249238
1.9750615 2.4295461 2.516597
2.02531 2.422719 2.522465
2.085557 2.4268405 2.5393269
2.1655297 2.4182968 2.5370502
2.2272072 2.4268184 2.5310974
-0.46305457 -0.48292246 2.5854204
-0.41886732 -0.47825688 2.5706623
-0.3782413 -0.4876897 2.57389
-0.32754463 -0.48657745 2.5725067
-0.18034402 -0.48080006 2.5649791
-0.12979312 -0.47359943 2.5828226
-0.058493324 -0.46831 2.5556793
-0.027784491 -0.47069114 2.5689723
0.0031366264 -0.46864873 2.5579667
0.12786753 -0.47382119 2.5841248
0.17493279 -0.47547588 2.5775514
0.24998477 -0.48128182 2.55006
0.25858796 -0.4796629 2.5751071
0.31578645 -0.47509012 2.5805063
1.0860735 -0.46941531 2.556078
1.124365 -0.47362998 2.570431
-0.47551146 -0.44083512 2.5882075
-0.4093743 -0.43747807 2.5755663
-0.3912878 -0.43475506 2.5609951
-0.40574732 -0.37165472 2.5591645
-0.39257923 -0.3832868 2.5541856
-0.40459901 -0.32735807 2.5557697
0.027711516 -0.3318207 2.5628817
-0.40399948 -0.29603559 2.5544667
0.04000878 -0.29500818 2.5660055
0.052155763 -0.29417992 2.5586591
1.0375208 -0.27543777 2.5724978
1.0713464 -0.27227986 2.5874252
-0.41680998 -0.22605956 2.5762844
1.0351443 -0.21908511 2.5613673
1.0719826 -0.22632818 2.5833557
-0.41820514 -0.17757736 2.5717957
1.0323197 -0.17991394 2.5564373
1.0708505 -0.17754532 2.5832121
-0.41773072 -0.12847824 2.559618
1.0301834 -0.12818836 2.5532568
1.0651412 -0.12114975 2.5802197
-0.42686877 -0.081475317 2.5662389
1.0324301 -0.083438233 2.5600927
1.0683172 -0.08575099 2.5841815
-0.4284586 -0.036926609 2.5614374
0.037577432 0.027131543 2.5786602
0.051978532 0.048902828 2.560344
0.040210988 0.074173003 2.5890503
0.039865281 0.12857409 2.5653455
0.051857315 0.11582933 2.5529292
0.039873932 0.17774077 2.5639739
0.040017132 0.21522832 2.5713534
1.7766061 2.4311547 2.5732701
1.8273026 2.4263463 2.5765374
1.8779764 2.4308887 2.5773749
1.9305698 2.4295266 2.5801697
1.9811771 2.4388311 2.5837994
2.0168915 2.4311931 2.5916612
2.1154616 2.4327066 2.5726519
2.174576 2.4294736 2.5717258
-0.46553269 -0.47380334 2.6158204
-0.43044135 -0.48138094 2.6222565
-0.36125812 -0.47881696 2.6209087
-0.3340514 -0.48363042 2.6258273
-0.11723495 -0.46927777 2.6304109
0.2376177 -0.48142946 2.6206908
1.1417171 -0.46220723 2.6065357
1.1612198 -0.45750272 2.6288795
1.1430689 -0.42825654 2.6374049
1.165709 -0.42774293 2.6427326
1.1489632 -0.39061111 2.6434388
1.0932589 -0.26789191 2.6052058
1.1258487 -0.26993454 2.6250436
1.172343 -0.26787427 2.6306958
1.2136049 -0.26989597 2.6401551
1.1261753 -0.22570282 2.6212032
1.1689775 -0.220846 2.6329982
1.2157688 -0.2188327 2.6421244
1.2521428 -0.20335202 2.6466806
1.094247 -0.15753165 2.6020379
1.1246175 -0.17892903 2.6200294
1.1739279 -0.17518726 2.6340055
1.2206219 -0.17301135 2.6419342
1.0948404 -0.13131805 2.6044312
1.132037 -0.1259429 2.6219578
1.1773812 -0.12477662 2.6333747
1.2138873 -0.12790075 2.6431384
1.2510487 -0.1082517 2.6482615
1.0928775 -0.078574695 2.6012135
1.1283069 -0.087347865 2.6213939
1.1778485 -0.085860543 2.6338344
1.2278658 -0.088769272 2.6392207
0.02189902 0.031275094 2.6195643
0.025155531 0.069088198 2.6317248
0.028261313 0.11915959 2.6258128
0.02833763 0.16974145 2.6310899
0.028171729 0.20620137 2.6139483
1.6879762 2.4343758 2.6291904
1.7297206 2.4346199 2.6261544
1.7839829 2.4396534 2.6225302
1.8407151 2.44995 2.6460638
1.8757633 2.4367297 2.6324966
1.9802037 2.4319308 2.6310246
2.0399537 2.4222441 2.6498747
2.0949166 2.44364 2.6489615
2.1272821 2.4384425 2.6186943
2.2173264 2.4378629 2.6017127
1.7870789 2.4527302 2.6198735
-0.46323943 -0.46645495 2.6641178
-0.44276091 -0.47182113 2.6593204
-0.16341841 -0.47432953 2.6571732
1.1366979 -0.41064504 2.6603515
1.1720667 -0.42101544 2.6582062
1.1317985 -0.37364554 2.6767206
1.165336 -0.37024006 2.6631768
1.1728566 -0.3305074 2.6778815
1.2414258 -0.26504326 2.6535287
1.2763668 -0.266642 2.6603992
1.3242083 -0.26940453 2.6760094
1.3736373 -0.26674956 2.6889036
1.4126152 -0.27027398 2.6954675
1.2351221 -0.23523664 2.6531477
1.2781295 -0.22753507 2.6635671
1.3240242 -0.22517043 2.6729932
1.3692533 -0.22732353 2.6869037
1.4202077 -0.23169872 2.6964066
1.2387252 -0.17623483 2.6529014
1.2743309 -0.17446521 2.6581259
1.3271909 -0.17413284 2.6741071
1.3733882 -0.17152742 2.6871452
1.4102795 -0.17904565 2.691587
1.2388819 -0.135518 2.6548846
1.2745363 -0.12957188 2.6636701
1.3290898 -0.12402055 2.6769331
1.3754599 -0.12520824 2.6908629
1.4161304 -0.11665034 2.6966476
1.2388049 -0.067646638 2.6565218
1.2755383 -0.081704758 2.6623387
1.3230919 -0.082215935 2.6659322
1.3732538 -0.090106986 2.6843133
1.41769 -0.092299275 2.6959646
0.0032566141 0.025704905 2.6828284
0.0087134289 0.073112845 2.6806457
0.011785924 0.12182554 2.6850195
0.015995147 0.17215022 2.6690905
0.011718412 0.212672 2.6683671
1.586854 2.4278567 2.6743746
1.6002507 2.4215417 2.6582246
1.6672542 2.4426918 2.6528714
1.7289343 2.4407263 2.6765113
1.778873 2.4391282 2.6660502
1.8281627 2.4436586 2.675431
1.8815349 2.4417074 2.6793253
1.9360225 2.4342263 2.6698864
1.9732946 2.4262059 2.655252
2.0074604 2.4272392 2.6791022
2.073688 2.4403951 2.657634
2.1048768 2.4366341 2.6758723
1.6420759 2.4579182 2.6886981
1.6864684 2.4529159 2.697757
1.7057006 2.454865 2.6900413
1.1710058 -0.32943404 2.7006261
1.4376311 -0.26106703 2.7034748
1.47528 -0.26725698 2.7124972
1.5242947 -0.26409844 2.7255657
1.5654396 -0.27041113 2.739213
1.4328753 -0.22003278 2.7066975
1.472813 -0.22680838 2.7073839
1.526161 -0.22373076 2.7251906
1.5748241 -0.22523294 2.7375531
1.4340199 -0.17296888 2.7039416
1.4745169 -0.17468256 2.7079668
1.5251088 -0.17666718 2.7257988
1.5792775 -0.17388688 2.7428198
1.6089303 -0.17474549 2.7469401
1.3907814 -0.12582883 2.7013609
1.4288965 -0.13119605 2.7043188
1.4768349 -0.12955447 2.7125278
1.5282228 -0.12176986 2.7295983
1.5744481 -0.12534015 2.7415509
1.6118382 -0.11631633 2.7462969
1.4300889 -0.073672771 2.7054472
1.469662 -0.087598629 2.7105565
1.5157274 -0.087910615 2.7226448
1.5741408 -0.086490959 2.7368562
-0.062008545 0.013101593 2.7385292
-0.016216688 0.02606532 2.7256937
0.003277852 0.025799321 2.7003441
-0.0096879443 0.071506396 2.7231276
-0.0097233262 0.1239382 2.7318072
0.0032875547 0.12282643 2.7065957
-0.012366552 0.180345 2.7346387
0.0033029206 0.17530203 2.7174771
-0.014134906 0.21385677 2.7385209
0.0032969955 0.20738471 2.7111983
1.4733744 2.4290628 2.7325611
1.5288854 2.4315732 2.728745
1.5623169 2.444447 2.7108333
1.622799 2.4378135 2.7097139
1.6758844 2.4455979 2.7334099
1.7255949 2.4434464 2.7236218
1.7976881 2.4467833 2.7086298
1.8249211 2.4408607 2.7259574
1.8741384 2.4438806 2.7338002
1.923283 2.4343915 2.7215657
1.9687498 2.4361086 2.7180748
2.0958538 2.4384232 2.7075872
1.5912315 2.4618118 2.720998
1.6669239 2.4504676 2.7047811
1.7756976 2.4538996 2.7321155
1.6220263 -0.26826605 2.7592595
1.6746308 -0.26029497 2.764977
1.7249367 -0.25952274 2.7724254
1.7734865 -0.26600659 2.7830627
1.6303667 -0.22203818 2.7613261
1.6750938 -0.224262 2.7670279
1.7281801 -0.2242502 2.782279
1.7784477 -0.22931907 2.7913001
1.6255417 -0.17560239 2.7563729
1.6679064 -0.17709027 2.7680397
1.7195295 -0.18121149 2.7834105
1.7657319 -0.16177873 2.7949505
1.8231742 -0.16382873 2.796052
1.6296622 -0.13437174 2.7525012
1.6684058 -0.12213575 2.7687879
1.7228245 -0.12666827 2.7820482
1.7744106 -0.1303412 2.7917888
1.5890563 -0.072700962 2.763155
1.6222804 -0.080188207 2.7571921
1.6731539 -0.082481503 2.7705715
1.722293 -0.081782043 2.7824535
1.7654856 -0.082369603 2.7894254
-0.050026879 0.026748236 2.7993443
-0.039654307 0.023257267 2.7753956
-0.029697552 0.072681263 2.7682846
-0.050049201 0.10693482 2.7992978
-0.029740872 0.1257657 2.7716863
-0.030689392 0.17584494 2.7698362
-0.029752862 0.21847369 2.7694545
1.3221478 2.4258344 2.7951922
1.4214252 2.4335525 2.7725182
1.4572802 2.4374483 2.7712979
1.508147 2.4392653 2.7694592
1.5755816 2.443305 2.7820549
1.6277647 2.4451928 2.7785833
1.7358199 2.4434459 2.7804446
1.7681065 2.4411354 2.7801232
1.8325146 2.4346526 2.7689095
1.8808677 2.4415927 2.7804503
1.9225024 2.4391019 2.7809246
1.9788051 2.4320507 2.7720914
2.0312335 2.434756 2.7813389
2.0572214 2.4308093 2.7887516
1.6271662 2.4534123 2.7707131
1.67456 2.458019 2.7799985
1.7112563 2.4525924 2.7659929
1.8249482 -0.25967708 2.8119917
1.8830791 -0.26242584 2.8224983
1.9467756 -0.2658197 2.8387663
1.7952074 -0.21207957 2.8000197
1.8296499 -0.22582474 2.8089714
1.8795924 -0.2262063 2.8247614
1.9273024 -0.22209039 2.8307824
1.966614 -0.20357418 2.840353
1.7862548 -0.18159264 2.8031085
1.8276602 -0.19313174 2.8098395
1.879804 -0.16614279 2.8199389
1.9322121 -0.17417833 2.8352158
1.9782293 -0.1803555 2.8426604
1.7875067 -0.11072443 2.8026464
1.8265066 -0.1215464 2.8058913
1.8714652 -0.1224791 2.8121998
1.930344 -0.12750737 2.8405881
0.63006598 -0.054404646 2.8091345
0.67789954 -0.054960977 2.8318403
0.71643978 -0.05527766 2.8428161
1.7957442 -0.083071187 2.8059025
1.8247391 -0.085998289 2.8093417
1.8759733 -0.082504526 2.8107717
1.9329774 -0.081295922 2.8348348
0.63275594 -0.027248034 2.8213205
0.6798858 -0.027509287 2.8404274
0.7104724 -0.041491747 2.8479574
-0.056872055 0.040217832 2.8070383
0.58787477 0.040848631 2.8088195
0.62032634 0.020654488 2.8290167
0.66114581 0.0083711809 2.8461246
-0.052928019 0.077838406 2.8097129
0.59319997 0.068676166 2.8338795
0.60965526 0.06208184 2.844871
-0.053670451 0.12758471 2.8126249
0.58123147 0.12387598 2.8430424
-0.053610593 0.17107511 2.8082478
-0.05034529 0.20838696 2.8121026
-0.036797546 0.22788262 2.8030963
-0.40815404 2.2766819 2.8376782
-0.37542537 2.2781451 2.8432369
-0.31690368 2.2726765 2.8422189
-0.27562556 2.2718003 2.8446667
1.2776415 2.4414849 2.8345556
1.323624 2.4383352 2.837023
1.3723583 2.4350471 2.8248177
1.4297701 2.4331386 2.816468
1.4815297 2.4360805 2.8167281
1.5179235 2.4425616 2.8289058
1.6805916 2.4466321 2.835804
1.7324859 2.4462268 2.8285949
1.7709689 2.4302251 2.8252892
1.8248025 2.431469 2.8186746
1.8769732 2.4317813 2.8255682
1.9287102 2.4299731 2.8215568
2.0310893 2.4256606 2.842752
1.2836976 2.4530423 2.8480318
1.3546748 2.4529319 2.8190062
1.5469577 2.45101 2.8474984
1.5785947 2.4578872 2.8422966
1.6247716 2.454432 2.8244519
1.6514862 2.4534249 2.8402631
1.7155106 2.4534588 2.8067155
2.0283868 -0.25446185 2.8630905
1.9758239 -0.22819482 2.8522699
2.019496 -0.2187715 2.858911
2.0653095 -0.24001509 2.8687096
2.12059 -0.22642379 2.8827653
1.972106 -0.15691046 2.85057
2.0209329 -0.17049909 2.8651206
2.0698788 -0.17624758 2.8786485
2.1160338 -0.17765766 2.8844583
1.9491905 -0.10928616 2.850172
1.9858166 -0.1218301 2.8559589
2.0240598 -0.12667745 2.8634205
2.0696754 -0.12794696 2.8803048
0.74069017 -0.055535663 2.852721
0.7725513 -0.055819958 2.8626184
0.83087426 -0.055972815 2.8604901
0.86048728 -0.056070346 2.8602035
1.9871029 -0.081546597 2.855758
2.0294256 -0.079187088 2.8723662
2.0677218 -0.082998864 2.8820267
2.1090126 -0.096539199 2.8884165
0.73126715 -0.026063157 2.8656926
0.77542853 -0.027938386 2.8736448
0.82461178 -0.028189225 2.8905654
1.922614 -0.025734523 2.8804486
1.9778076 -0.033246029 2.8572998
2.0289171 -0.031185487 2.8566496
2.0639701 -0.031414133 2.8692129
2.1144724 -0.023746368 2.8970122
0.67924571 0.024786495 2.8579128
0.72474426 0.021106819 2.8758194
0.77354336 0.01806443 2.8866034
1.9382601 0.012384347 2.8827176
1.9657284 0.028211402 2.8757007
2.0199995 0.02706776 2.8648043
2.073952 0.032778628 2.8803287
2.1143208 0.033076514 2.896682
0.59813792 0.096876338 2.856936
0.63165939 0.079306476 2.8668754
0.674766 0.077039987 2.8791113
0.7175138 0.07194975 2.888612
0.7528618 0.056648917 2.8995206
1.9730898 0.069175422 2.8753536
2.0324056 0.084271595 2.868422
2.0675931 0.072856292 2.8787348
2.1121502 0.081467584 2.8823674
0.59383184 0.12462977 2.8583724
0.62858886 0.1270601 2.8778863
0.66716433 0.1229855 2.8921671
1.9893113 0.12413256 2.8922462
2.0237341 0.12431514 2.8785446
2.0548544 0.1367685 2.8748424
2.105696 0.14610943 2.8819616
0.58336323 0.17744218 2.8816302
0.6182375 0.16425724 2.8916991
2.0494761 0.1763639 2.8655684
2.0738974 0.17709905 2.8681376
2.1128979 0.16283168 2.8911128
-0.36961716 2.2767572 2.874073
-0.33026487 2.270704 2.879416
-0.2783125 2.2841396 2.8791287
-0.23146179 2.2842422 2.8762851
-0.14517491 2.2908111 2.8765154
-0.079042591 2.2979839 2.8876524
-0.17932735 2.3031068 2.8903847
-0.1295629 2.3083205 2.8991551
1.1212422 2.4473672 2.8993142
1.1711781 2.4405818 2.8730192
1.2340679 2.4426162 2.8653467
1.275002 2.4396043 2.8800879
1.3223085 2.4357097 2.8751202
1.3685358 2.4331231 2.8813832
1.4179759 2.4409599 2.8717611
1.4500827 2.4405861 2.8768237
1.5352328 2.443038 2.8816848
1.5801216 2.4431481 2.8767982
1.6193566 2.4417987 2.8803072
1.6800966 2.4409118 2.8691859
1.7257853 2.439656 2.8750806
1.7769489 2.4341822 2.8820558
1.8162286 2.4386144 2.8784156
1.8772109 2.438509 2.8880334
1.9234076 2.4218378 2.8712094
1.9831052 2.4364321 2.8903587
2.0122278 2.4269924 2.8721352
2.0807889 2.4220347 2.8754392
2.6217601 2.4253461 2.8878329
1.1785203 2.45594 2.8911669
1.2137996 2.4553604 2.8777049
1.479894 2.4601209 2.8917601
1.5001391 2.4634721 2.8874679
1.6282334 2.4504652 2.8683097
1.6621441 2.4508123 2.872489
2.9618948 -0.50400269 2.9286327
3.029685 -0.37559098 2.9240489
3.0603652 -0.3306987 2.940836
2.119709 -0.14584835 2.9014976
2.1190498 -0.07260339 2.902693
0.87334454 -0.030577952 2.9174402
0.90161324 -0.02883812 2.9460726
1.8977123 -0.015433549 2.9334605
1.9019561 -0.015329715 2.9077127
0.7758733 0.04261414 2.9026856
0.82513446 0.018671596 2.913543
0.86739171 0.021740019 2.9341125
1.8926423 0.0084515046 2.9418502
1.9195964 0.016502675 2.9265482
0.73506325 0.094486438 2.9061663
0.77222043 0.07602676 2.916317
0.81906068 0.074074976 2.9388394
1.9581914 0.088623449 2.9273348
2.0966222 0.097927354 2.9027457
2.1280615 0.098645099 2.9142661
0.69149095 0.13032988 2.9116483
0.73023456 0.12832685 2.9252656
0.77758628 0.12193301 2.9355438
0.81378084 0.10557685 2.9400113
1.9476804 0.11294738 2.9432068
1.9673313 0.12894376 2.9290552
0.62693733 0.19189486 2.908072
0.67250562 0.17577179 2.9194772
0.72158432 0.16976818 2.933907
1.9782047 0.17708009 2.9217429
0.67336684 0.21384032 2.9316235
0.70699257 0.20105195 2.9492416
-0.28121749 2.2759693 2.9295614
-0.23091671 2.2848525 2.9284382
-0.18062264 2.2945611 2.9276488
-0.14701664 2.2946491 2.9293175
-0.11881286 2.304806 2.91646
-0.079751253 2.3083503 2.9198701
-0.032818206 2.3210022 2.9301507
0.0042754272 2.3442509 2.9466991
0.96799248 2.4407811 2.9375989
1.0847014 2.4463913 2.934314
1.11347 2.4443452 2.9223034
1.1641895 2.4453781 2.9189742
1.2247181 2.445992 2.9265342
1.2757567 2.4415681 2.9236953
1.3226131 2.4387045 2.9271307
1.3759565 2.4358244 2.927634
1.4257593 2.4426281 2.9298227
1.4746002 2.4410019 2.9329975
1.5312716 2.4475882 2.9307728
1.5696565 2.436269 2.9268315
1.6246483 2.4358883 2.9311068
1.6719176 2.4409223 2.9196451
1.72402 2.425524 2.9287851
1.7744699 2.4265952 2.9256225
1.8228019 2.4167337 2.9230375
1.8762699 2.4211924 2.9273071
1.9296434 2.4099164 2.9233131
1.9806659 2.4260221 2.9204097
2.0189753 2.4185386 2.931179
2.0574491 2.4187112 2.907932
2.578568 2.4331088 2.9081914
0.99864906 2.4509654 2.9422729
1.0662062 2.4635782 2.9386384
1.1443712 2.4589863 2.9070854
1.1694844 2.4565232 2.9322236
1.2032288 2.4522417 2.9146366
1.4885796 2.4562125 2.9222748
1.5154028 2.4551806 2.908664
2.9143505 -0.50394571 2.968447
2.9507425 -0.50532782 2.9526019
2.923295 -0.4867287 2.9802539
2.9529147 -0.48692629 2.9574919
3.0253494 -0.37528533 2.9804158
3.0405312 -0.32746071 2.9842305
3.0590951 -0.30975497 2.9653547
3.0407825 -0.27551296 2.997956
3.065244 -0.27508906 2.9683146
3.0665004 -0.23780783 2.9902248
3.0592685 -0.065232895 2.9726565
1.044767 -0.029580494 2.9987242
1.0711184 -0.03847928 2.9910572
1.1100593 -0.044674292 2.9997215
1.8717095 -0.0208607 2.9691322
3.0616815 -0.027189879 2.9754496
0.847103 0.043740943 2.9693968
1.8835999 0.027305862 2.9823418
1.9009948 0.048702471 2.9709263
3.0633628 0.020430267 2.9770319
0.84274387 0.06521789 2.9538279
0.8643074 0.069118626 2.962152
1.928365 0.085391968 2.9798291
1.9526453 0.097130798 2.9511662
3.0609319 0.077543914 2.9737575
0.79674321 0.14430562 2.9503231
0.8338418 0.12728143 2.9681287
1.932044 0.1298227 2.9759989
3.0666773 0.12538856 2.9778593
0.73816812 0.18732835 2.9550838
0.77113265 0.17340766 2.9583473
0.8089664 0.1713573 2.9804039
1.9468373 0.16239797 2.9727943
1.9577446 0.16197121 2.9566343
3.0666561 0.17308284 2.9756486
0.73177254 0.20194966 2.9588463
0.76336384 0.20993027 2.9643545
3.0693569 0.23053111 2.9747858
3.0748327 0.27876011 2.9764602
3.0805273 0.32721245 2.9776125
3.8470256 1.6525587 2.9814777
3.8589554 1.7194581 2.9871578
3.8602321 1.7821616 2.9838591
-0.26596612 2.2638028 2.9636848
-0.22920254 2.2745292 2.967176
-0.18220644 2.2809894 2.9750054
-0.13590032 2.2902176 2.9808724
-0.088969238 2.2977791 2.9676664
-0.12264785 2.302139 2.9560027
-0.063645601 2.3015738 2.9731307
-0.027318001 2.3102839 2.9777739
0.015687574 2.3216608 2.9776595
0.032935422 2.3632257 2.9812946
0.061751466 2.3718395 2.9917762
0.71022254 2.4358442 2.9928396
0.78194886 2.4394512 2.9824557
0.80771917 2.4372835 2.9738452
0.86312592 2.4442201 2.9697027
0.91751176 2.4435663 2.9788673
0.96916866 2.4483917 2.9833
1.0455687 2.4420888 2.9894645
1.066759 2.4495406 2.9931748
1.1296101 2.4401927 2.9792745
1.1663599 2.4450126 2.9800568
1.2343746 2.4381223 2.9689698
1.2799774 2.4355664 2.9775405
1.3312776 2.4298565 2.9758112
1.3721576 2.4297559 2.9825211
1.4221455 2.4322515 2.9798193
1.4759121 2.4241459 2.9712944
1.5260725 2.433238 2.9771047
1.5787755 2.4254975 2.974489
1.6320239 2.4212599 2.9785066
1.6780615 2.4224997 2.9687004
1.7235137 2.4151163 2.9772561
1.778862 2.4171674 2.9737766
1.8331106 2.4075589 2.9735618
1.8945167 2.4160337 2.9764395
1.9177021 2.4116769 2.9788959
1.9801809 2.4179611 2.9534297
2.0102203 2.4118083 2.9719033
2.0895758 2.4174516 2.9814224
2.1059775 2.413945 2.9650452
0.83857989 2.4500465 2.983222
0.89342803 2.4544833 2.9755116
0.93835199 2.4557204 2.9653578
1.0274702 2.4582827 2.9652407
1.0733018 2.4528203 2.97719
1.1051607 2.4548774 2.9885175
1.1857666 2.4537175 2.9603047
1.2036843 2.4538014 2.9921002
2.8921857 -0.48003167 3.037468
2.9114487 -0.48951063 3.0209451
2.973336 -0.41871521 3.0411239
3.0018137 -0.41864982 3.0164337
3.7769687 -0.42877328 3.0413477
2.9815164 -0.3776646 3.0316248
3.0147142 -0.360623 3.0000219
2.9854267 -0.33308667 3.0447025
3.0127344 -0.32334402 3.0195453
3.0153117 -0.27585453 3.0261979
3.022855 -0.23048308 3.0235102
2.972862 -0.15096401 3.0440876
3.0117497 -0.18962225 3.0282469
3.0018578 -0.12281015 3.0390191
2.999964 -0.0941137 3.0379584
3.020556 -0.069594473 3.0234663
1.0318937 -0.033492152 3.0198357
1.0814867 -0.019779244 3.0109746
1.1244211 -0.024924606 3.0238159
1.172492 -0.039373398 3.0422051
1.8390317 -0.031753518 3.0054004
1.8615384 -0.031854253 3.0083122
2.9991968 -0.017800661 3.0382864
3.0225768 -0.029215598 3.0188677
1.037948 0.015180863 3.0325797
1.0722575 0.024790967 3.0265296
1.1198361 0.017814042 3.0410912
1.8641094 0.022047246 3.0124331
2.9981737 0.0012716033 3.0372658
3.0220714 0.022779591 3.0209863
1.0432405 0.067962453 3.0406501
1.0569409 0.07541547 3.0330541
1.8733811 0.071101271 3.0381267
1.9066081 0.089915693 3.012208
3.0222354 0.077694669 3.0247262
1.0272486 0.10550658 3.0406392
1.8844566 0.11491113 3.0437098
1.9115505 0.13128978 3.0301096
3.0231869 0.12548433 3.0242279
0.82653052 0.17642894 3.00246
1.9459194 0.19630954 3.0029149
3.0234351 0.1732624 3.0223296
3.7630939 0.17399454 3.049324
3.0245132 0.23066677 3.0199769
3.7615099 0.23832238 3.0443377
3.0292137 0.27889118 3.0210972
3.0317783 0.32805842 3.0373628
3.0552742 0.32753697 3.0068123
3.8193493 1.6643528 3.020704
3.822351 1.7150706 3.0280268
3.8193588 1.7613648 3.0381467
3.8190415 1.8294492 3.0378082
3.817585 1.8860525 3.026191
3.8216567 1.9457444 3.0475743
-0.20859464 2.2658486 3.0029511
-0.17149799 2.2777565 3.0289743
-0.12426692 2.2896497 3.0217412
-0.081542857 2.293257 3.0276754
-0.041491523 2.2970407 3.0278113
-0.01286742 2.3057933 3.0284655
0.024982236 2.3133464 3.0250149
0.07130909 2.3301699 3.0305793
0.10827939 2.3214822 3.04755
0.086622804 2.3731394 3.0149567
0.12116983 2.3834035 3.027046
0.14411621 2.4109366 3.027725
0.17929018 2.4137323 3.0296764
0.22370929 2.4217396 3.0373583
0.26823449 2.4278784 3.04212
0.33060417 2.4338069 3.044575
0.36590832 2.4340434 3.0415468
0.42919147 2.4429541 3.0459907
0.47113717 2.4310453 3.0257626
0.51816499 2.4453678 3.0375919
0.57228547 2.4495814 3.0349236
0.624237 2.4445879 3.0199702
0.68213511 2.4439745 3.0436456
0.72717249 2.4455018 3.0369453
0.77144092 2.4444816 3.0264466
0.83024561 2.4421327 3.0459683
0.87532192 2.4427466 3.0362201
0.92114973 2.4453361 3.0282261
0.9769581 2.4410048 3.025871
1.022433 2.433742 3.0290806
1.0725807 2.4356961 3.0281582
1.1249266 2.4228301 3.0236244
1.1761024 2.4257922 3.0193233
1.226928 2.4274311 3.0235028
1.2764442 2.4257782 3.0229905
1.3102596 2.4115214 3.0094278
1.3858402 2.4320455 3.0102358
1.4288151 2.41943 3.0244188
1.4747511 2.4141068 3.0278769
1.5270698 2.4131637 3.0203786
1.5760626 2.414315 3.0253344
1.6237566 2.4128537 3.0265055
1.6755319 2.4177387 3.0267687
1.7189189 2.4174771 3.0341413
1.7750686 2.4124043 3.0269444
1.8277885 2.4170787 3.0220802
1.8725961 2.4128377 3.0211675
1.9109181 2.4202399 3.0432281
1.9685966 2.410836 3.0259311
2.0675654 2.4160714 3.0165615
0.57288128 2.4520957 3.0379915
0.67995566 2.4539812 3.0219691
0.73249298 2.4513311 3.008291
0.76043046 2.4555554 3.0079074
0.82774615 2.4527738 3.0248115
0.87175775 2.450727 3.0117149
0.90022355 2.4552155 3.0105729
1.0314603 2.4512074 3.0059326
0.74289376 -0.4900322 3.078341
0.77567321 -0.49171194 3.0838077
2.8722339 -0.47045249 3.0530117
2.94209 -0.41019997 3.0814476
3.7450104 -0.41935831 3.095042
3.7644539 -0.41905212 3.0715737
3.8005223 -0.40976673 3.0626829
2.9336245 -0.37086239 3.0767024
2.9654384 -0.39986461 3.0531123
3.7815149 -0.37646416 3.0702791
2.9400685 -0.34299576 3.0863066
2.9675591 -0.31767491 3.0694849
3.777329 -0.32788715 3.081182
3.8093674 -0.31293899 3.0789528
2.973511 -0.27647984 3.073081
3.7794399 -0.26427421 3.0713615
2.9440405 -0.20874661 3.0827377
2.9714353 -0.23066212 3.0696323
3.7720823 -0.23524217 3.0737991
2.9382145 -0.18928698 3.0776722
2.967443 -0.17076622 3.0732646
3.7602687 -0.17047405 3.0872331
2.9705582 -0.12315034 3.0784028
3.7722251 -0.12735422 3.0788805
2.9489772 -0.075280644 3.0929935
2.9763024 -0.075204276 3.0677299
3.7683363 -0.073299512 3.0770502
1.020128 -0.030207714 3.0692704
1.1812017 -0.015099368 3.0562837
1.2092578 -0.030568564 3.0701735
1.2743709 -0.046548788 3.0962994
1.7905943 -0.032223519 3.0788736
1.8207731 -0.015946228 3.077899
2.9492378 -0.027486479 3.0939035
2.9749281 -0.027419776 3.0669644
3.7745094 -0.030215405 3.0826149
1.0277381 0.028048223 3.07565
1.1429757 0.030698195 3.0586469
1.180451 0.022251813 3.0792861
1.216423 0.0053680153 3.0884402
1.8386571 0.04978539 3.0903296
1.8651724 0.016887844 3.071017
2.9689739 0.020349652 3.0786047
3.7698803 0.023757406 3.0787582
1.0323926 0.07634104 3.0808256
1.0861155 0.072318822 3.0577912
1.1226958 0.076669656 3.0719125
1.1808996 0.062134814 3.0992029
1.8679073 0.082190998 3.0517833
2.9707487 0.077753969 3.0795648
3.7664225 0.08127331 3.0816252
3.8014057 0.067298844 3.0841026
1.0353965 0.11929944 3.0726516
1.0740739 0.1247318 3.073149
1.1194819 0.12004753 3.0871062
1.8850479 0.13244559 3.0784657
2.9692249 0.12554242 3.0765736
3.7726564 0.12093922 3.0789659
1.0326387 0.16781491 3.0790126
1.0544736 0.16004415 3.0710111
2.9724872 0.17355266 3.0778427
3.7668858 0.17472297 3.0759022
1.8998966 0.20000562 3.0999417
2.9760602 0.2216844 3.0788403
3.7639399 0.22497003 3.0733473
2.9747951 0.2695052 3.0741222
3.7330308 0.27146748 3.0973272
3.7696173 0.2718426 3.0682082
2.9750779 0.32808068 3.0874746
3.0057621 0.32832977 3.0650694
3.7371323 0.34727854 3.0943069
3.7695529 0.32579494 3.0637276
3.737102 0.379646 3.0910368
3.7763581 0.38041553 3.0640335
3.7644751 0.41269538 3.0705867
3.7400031 1.6321993 3.0992789
3.7552199 1.6290458 3.0722494
3.7481577 1.6584684 3.0967596
3.7742641 1.6714242 3.0739861
3.8005948 1.684445 3.0514212
3.7748895 1.7223117 3.0753229
3.777369 1.7744163 3.0776896
3.7793202 1.8266176 3.079103
3.7670536 1.8778318 3.0881147
3.7818632 1.9372711 3.0841572
3.7688422 2.0239222 3.0900974
3.7483306 2.2392399 3.0995145
3.7645802 2.2349851 3.0735893
-0.15695576 2.2765386 3.0642192
-0.12043728 2.2789128 3.0777314
-0.078874394 2.2834804 3.0782261
-0.034723043 2.2899156 3.0824823
0.0043822671 2.295296 3.0814536
0.073908739 2.2950704 3.0804482
-0.021588134 2.302129 3.056905
0.025247524 2.3039391 3.0727372
0.073892906 2.3045292 3.0729024
0.12645906 2.3214607 3.07672
3.772568 2.301187 3.0952599
0.13865857 2.3701932 3.0653179
0.17801617 2.3827364 3.0815208
1.101528 2.3958895 3.0954628
0.17993443 2.4052553 3.05248
0.22496918 2.4088209 3.0715299
0.2698693 2.4158981 3.0776243
0.32123968 2.425715 3.0788693
0.38101333 2.4341114 3.0742316
0.432004 2.4412758 3.0778506
0.47781423 2.4388273 3.0864589
0.52188402 2.4361184 3.0770619
0.57570577 2.4373989 3.0707786
0.6277256 2.4375229 3.0700016
0.67227119 2.4313109 3.0852826
0.72550714 2.4306674 3.0784869
0.7776618 2.4303446 3.0732272
0.82373142 2.4314737 3.0692058
0.87197381 2.431464 3.0761757
0.92711848 2.4339185 3.065984
0.97484589 2.4221466 3.0742788
1.0229496 2.4195573 3.0761573
1.0796043 2.4152119 3.0725582
1.128772 2.4046369 3.0806711
1.1783167 2.4106774 3.0774281
1.2261497 2.4194274 3.0768223
1.2803084 2.4229765 3.0761721
1.3331813 2.4231904 3.0705998
1.3770716 2.4297214 3.0662291
1.4213247 2.4193912 3.0821295
1.4784809 2.4115553 3.0772502
1.5264148 2.4058161 3.0758865
1.5809536 2.4078951 3.076508
1.630806 2.4164255 3.0888112
1.6798089 2.4138219 3.072665
1.7294594 2.4157455 3.0847394
1.7792834 2.4087141 3.0708301
1.8233373 2.4066992 3.0673697
1.8796344 2.4200158 3.0829835
1.9077847 2.409112 3.0724568
2.0474672 2.4171596 3.0546379
0.77136075 -0.46646878 3.1148438
0.80445576 -0.46172348 3.1382811
0.7753225 -0.43526664 3.1201484
0.8040421 -0.44610026 3.13815
2.9159977 -0.41060841 3.1076856
3.6983924 -0.40828136 3.1365459
3.7288651 -0.42003977 3.1212518
2.8797762 -0.37137675 3.1265397
2.9064579 -0.37108397 3.1016026
3.7358813 -0.3763296 3.1117704
2.8865561 -0.34353191 3.1367114
2.918443 -0.31921053 3.1193578
3.6971064 -0.32180241 3.1437664
3.7312565 -0.32234988 3.1227846
3.7514834 -0.32265615 3.1098237
2.9243448 -0.27734491 3.1290991
3.7356505 -0.25739443 3.1214569
2.8971174 -0.21915263 3.1395926
2.9243464 -0.23165058 3.1219218
3.737283 -0.22123283 3.1184418
2.7968833 -0.16875443 3.1384521
2.8968663 -0.15209854 3.1426306
2.9243162 -0.15199469 3.1183352
2.8970566 -0.12337859 3.1438627
2.9251614 -0.12331723 3.1202729
3.6895816 -0.10572363 3.1493514
3.7258894 -0.11654235 3.1200511
2.8980179 -0.075513147 3.1461146
2.9232337 -0.075388707 3.1194403
3.6848955 -0.084072754 3.1458614
3.7248979 -0.073397867 3.1202536
0.99137974 -0.036848098 3.1320822
1.0085815 -0.020362919 3.1173294
1.2873229 -0.031083198 3.1066458
1.3089796 -0.031221613 3.1164031
1.7835912 -0.027078791 3.1199646
2.9196718 -0.025662031 3.1270127
3.7270389 -0.030280713 3.1225584
0.98184752 0.0053125056 3.1363833
1.0109718 0.023211319 3.1161742
1.2650011 0.015972555 3.1378393
1.3035626 0.00022070846 3.1459224
1.7905512 0.028039128 3.1440086
1.8105308 0.025135804 3.1131463
2.8969328 0.020266661 3.1455238
2.9251633 0.020307546 3.1220844
3.7277944 0.023660667 3.1231048
1.0135306 0.077223532 3.1234605
1.1796358 0.085841492 3.1178672
1.2178748 0.078550763 3.1280098
1.8181443 0.074977316 3.1256504
1.8555455 0.083083786 3.1005847
2.8973436 0.068167157 3.1453481
2.9209671 0.080489121 3.1243508
3.7325337 0.081233345 3.1195383
1.0137573 0.12348779 3.1231077
1.1344836 0.13956155 3.1094294
1.1717408 0.12476496 3.1186945
1.2148618 0.12600249 3.1415589
1.869994 0.10038993 3.124347
2.9192982 0.12578376 3.1314774
3.7242608 0.12065323 3.1180747
1.0223973 0.1791427 3.1223962
1.0909619 0.16978009 3.1041331
1.1233752 0.17599876 3.11619
1.158731 0.1562344 3.1286659
1.8673785 0.16679388 3.117789
2.9193923 0.17373133 3.1295195
3.7277935 0.17472142 3.1187675
1.016669 0.20115861 3.1293092
1.0779107 0.20105568 3.1133738
2.9235313 0.22198325 3.1312964
3.7227082 0.22836949 3.111495
2.9356067 0.27023825 3.1229055
3.7211747 0.27213621 3.1270924
2.9273376 0.32802418 3.1272092
3.7282157 0.32169622 3.1129918
3.7152274 0.36876872 3.1135392
3.6949608 1.6321753 3.1414955
3.7192259 1.6720378 3.127799
3.7364693 1.7254786 3.1230247
3.7415063 1.7789669 3.1275113
3.7533722 1.7623485 3.1024511
3.7379436 1.8342966 3.1443973
3.7544801 1.8426929 3.1130207
3.7441816 1.872009 3.1340723
3.7579727 1.8674598 3.1056149
3.7303138 1.9344985 3.1360068
3.7503636 1.9213966 3.1181293
3.729445 2.0043175 3.1480877
3.7235391 2.0597136 3.1302555
3.7354641 2.1192081 3.1220441
3.7541223 2.1583698 3.1002967
3.7340791 2.2329473 3.1333621
-0.10048326 2.2733188 3.1181927
-0.0716841 2.2786369 3.1375434
-0.027134176 2.2862256 3.1233952
0.022018621 2.2944617 3.1312487
0.078318097 2.2946892 3.13428
0.17203954 2.2940598 3.1442068
3.7448153 2.2749143 3.1241007
0.057141852 2.3024123 3.1246111
0.12783201 2.3096802 3.1327896
0.17866047 2.3268526 3.1239505
0.21756622 2.3446944 3.1417539
3.7347419 2.3188505 3.1369925
3.7530389 2.3155589 3.1124797
0.19313526 2.3649275 3.1126888
0.22649741 2.3806958 3.120204
0.26373428 2.3963125 3.1384423
1.967319 2.3954709 3.1103485
3.7203336 2.3723207 3.139612
0.27656654 2.4047639 3.1227193
0.32658729 2.4162996 3.1252003
0.3802872 2.4194095 3.1185443
0.42539719 2.4275758 3.1128583
0.46705836 2.4301023 3.1199775
0.52990836 2.422507 3.1246157
0.57713902 2.4245167 3.1204
0.6227929 2.4242291 3.1252139
0.67518824 2.4294984 3.1322215
0.72209102 2.4186666 3.1210949
0.78418863 2.421277 3.1182575
0.82799834 2.4256084 3.1237936
0.8807466 2.4286201 3.1251252
0.93171334 2.4284778 3.1250007
0.97404075 2.4153726 3.1208498
1.0299782 2.4261208 3.1335342
1.0659075 2.412962 3.1206501
1.1367162 2.4134917 3.148613
1.1746603 2.4151709 3.1393082
1.2252939 2.4236002 3.1353006
1.2747276 2.4289534 3.1264241
1.3222289 2.4211383 3.1181471
1.3758003 2.4191847 3.1258035
1.4230093 2.4215422 3.1421044
1.4708604 2.4109838 3.12095
1.521124 2.4083097 3.1239786
1.5720114 2.4058695 3.1268616
1.6183411 2.4071288 3.1228056
1.6702137 2.4104238 3.1263161
1.7336156 2.4156985 3.1271312
1.7782844 2.4142025 3.125386
1.825063 2.4152069 3.1262941
1.8709184 2.4134235 3.1150057
1.9110332 2.4183328 3.1332576
2.7960181 -0.36221185 3.1956682
2.8310895 -0.36299935 3.1814258
2.8541553 -0.3622438 3.1532319
2.8311303 -0.32467666 3.1848888
2.8735776 -0.32148427 3.1640501
2.8320546 -0.27687868 3.1897211
2.8766689 -0.27743602 3.1673555
2.7912147 -0.20748614 3.1657128
2.8331275 -0.23272566 3.1902373
2.870724 -0.22896092 3.1640108
2.8257079 -0.15195835 3.1894965
2.866209 -0.15203178 3.1628809
2.8266211 -0.12331052 3.1915185
2.8671055 -0.12335945 3.1648848
2.829905 -0.079344384 3.1927314
2.8716133 -0.07561519 3.1710598
0.98223346 -0.023148201 3.1555679
1.3813124 -0.031785525 3.1598525
1.733938 -0.02290293 3.1768029
1.7600845 -0.016181413 3.1505771
1.8032686 -0.01625604 3.1543872
2.8392658 -0.027681112 3.1896064
2.8717942 -0.027681869 3.1718798
2.9015708 -0.037247218 3.1505404
0.98594481 0.023553045 3.1674461
1.0013447 0.04689648 3.1633797
1.2915711 0.016112091 3.1598456
1.3149778 0.03219647 3.1733336
1.38229 0.016425779 3.1899662
1.7890911 0.00039424535 3.1657691
2.8245473 0.023958934 3.1873209
2.8674955 0.020218169 3.1670876
0.99049091 0.078444615 3.181421
1.0016812 0.078090854 3.1639881
1.3240809 0.064225487 3.1732354
1.7398483 0.050437264 3.1872721
1.7603744 0.050555199 3.1875231
2.8316438 0.072796434 3.1892362
2.8693552 0.077738903 3.1683123
0.99537086 0.13390279 3.1958308
1.0029454 0.12501346 3.1669343
1.236252 0.126587 3.1517758
1.2684625 0.13625705 3.1884797
1.3068628 0.11280666 3.1958332
1.8238565 0.13396451 3.1519005
2.8387284 0.12551624 3.1868086
2.8716402 0.12573421 3.1694784
0.99426264 0.18090385 3.1906714
1.0104678 0.16893071 3.1682508
1.1870583 0.17370594 3.1579394
1.2306798 0.16940431 3.1659315
1.2643458 0.15974216 3.1773508
1.8479989 0.15127735 3.1568429
2.8299298 0.16947672 3.1894615
2.8711395 0.17364435 3.166909
0.99353933 0.2043388 3.1873789
1.0029287 0.20306313 3.1641102
2.8429334 0.23114981 3.1863663
2.8766611 0.22201204 3.1704087
2.8813818 0.27049318 3.172334
2.9117973 0.27066481 3.1514347
2.8920004 0.32887352 3.1702957
3.6692867 1.6357808 3.1802273
3.6873457 1.6780738 3.1815033
3.6775529 1.7318034 3.1857831
3.7067685 1.727491 3.1583312
3.678236 1.7739316 3.1832187
3.7155857 1.7944155 3.1610725
3.6496122 1.8130203 3.195652
3.682183 1.8178451 3.1831214
3.7146459 1.8341104 3.165091
3.6834219 1.8799492 3.1867821
3.7188606 1.8900977 3.1593962
3.6815562 1.9214864 3.1807842
3.704668 1.9331292 3.1545734
3.700712 1.9780277 3.1752436
3.6257255 2.0446887 3.1983528
3.6882725 2.0187907 3.1883864
3.7121186 2.0191402 3.1681776
3.6801517 2.0657194 3.1875153
3.6844919 2.1116114 3.1853502
3.7105501 2.136658 3.1553376
3.6912589 2.1811986 3.1816497
3.7141013 2.1808605 3.1606865
-0.030906947 2.2765989 3.166909
0.025784498 2.2813563 3.1787944
0.07098636 2.2843261 3.1771312
0.13314013 2.2946005 3.1724265
0.18208158 2.2920876 3.175703
0.21804844 2.2964311 3.1799705
3.6897991 2.2846031 3.1983168
3.72314 2.2523422 3.158174
0.11953146 2.3019378 3.1569567
0.19916123 2.3016462 3.1533697
0.22873107 2.3177047 3.1668465
0.26160729 2.3262682 3.1952693
3.6868401 2.3273942 3.1881816
3.7156086 2.3216677 3.1609545
0.23615266 2.3529558 3.1517932
0.26933312 2.3758729 3.1804621
3.6864378 2.3734021 3.1710749
0.29351756 2.4027698 3.1797442
0.32953879 2.4108872 3.1701298
0.37323141 2.4181528 3.1817398
0.42160186 2.4212241 3.1750364
0.47639176 2.4233284 3.1715431
0.51952714 2.4239902 3.1728723
0.56912506 2.4229038 3.1763477
0.62434042 2.4205203 3.1736944
0.67762834 2.4258652 3.1773944
0.72072601 2.4291613 3.1869025
0.76983535 2.4245722 3.1656747
0.83132476 2.4258025 3.1692793
0.87508857 2.424093 3.1795349
0.92232764 2.4222398 3.1658678
0.97081709 2.4117389 3.1541171
1.0245794 2.423825 3.1698008
1.0824462 2.4119496 3.1719844
1.1240208 2.4167871 3.1766243
1.1693696 2.4241049 3.1932218
1.2260166 2.4247396 3.1762969
1.27558 2.4202762 3.1732931
1.3210288 2.4212201 3.1690669
1.3768924 2.4163914 3.1791694
1.431567 2.412287 3.1764855
1.4745793 2.4108973 3.178566
1.5328897 2.4114072 3.1806448
1.5715362 2.4135337 3.1750667
1.6224153 2.4082122 3.1661229
1.6611161 2.4031773 3.1847608
1.716404 2.4128807 3.1753683
1.7790481 2.4124584 3.1902635
1.8306831 2.4159825 3.1707668
1.8810964 2.4106202 3.1827056
1.9024863 2.41272 3.1752467
3.6673162 2.4200513 3.1958625
2.7727675 -0.36295533 3.2229147
2.7759173 -0.32500896 3.2299175
2.8023024 -0.32470834 3.2062385
2.7771521 -0.27720329 3.2350521
2.8055711 -0.27713537 3.2137263
2.7754915 -0.23869309 3.2356341
2.8017967 -0.23845592 3.2119431
2.7746134 -0.16195086 3.2384863
2.808356 -0.16502567 3.211215
2.7812579 -0.12347726 3.2295189
2.7767978 -0.078375615 3.2357452
2.8071001 -0.062822498 3.2126992
1.5446239 -0.024543952 3.2308207
1.5854965 -0.032983221 3.2351639
1.6340747 -0.024638582 3.2147126
1.6824603 -0.024702903 3.2121866
1.7077986 -0.033047017 3.2031083
2.7718768 -0.027749766 3.2383919
2.810771 -0.027714923 3.211266
1.4205246 0.024664925 3.2071991
1.5249591 0.01681599 3.2298505
1.5813805 0.00030433142 3.2467618
1.6105241 0.00031488435 3.2462869
1.6753129 0.00034189242 3.2177145
1.7125514 0.00035715886 3.2121189
2.7818716 0.020128284 3.2259305
2.8083971 0.0010143028 3.208631
1.3891428 0.081714287 3.2192929
1.7540599 0.084499873 3.2127609
2.7875626 0.06468121 3.2140081
2.8188334 0.087173872 3.2014306
0.99801081 0.11058822 3.2049406
1.3236735 0.13783769 3.2141185
1.365468 0.13071662 3.2271228
2.8206773 0.12554079 3.2024002
1.2767347 0.1774175 3.2078843
1.3170238 0.17043501 3.2188926
1.3820624 0.16427773 3.2435739
0.61724943 0.2988511 3.2489657
0.38584358 0.38195348 3.2375898
0.41503856 0.38510707 3.2397106
0.38601816 0.42112255 3.2359078
0.41624659 0.42170587 3.2378719
0.38478786 0.4707427 3.2376556
0.41013119 0.46873656 3.2353442
0.38590568 0.52721024 3.2341478
0.41582915 0.51782405 3.2442141
0.38785377 0.57982254 3.2351656
0.41226351 0.56538469 3.2421913
0.38552937 0.63077074 3.238025
0.41375825 0.63836634 3.2452028
0.38126585 0.6760757 3.2342887
0.41328093 0.67698032 3.2361228
0.38175896 0.72417521 3.2315793
0.41510957 0.72744489 3.2435579
0.39132428 0.77472854 3.2375767
0.42159405 0.76652336 3.2467492
0.39066452 0.82096082 3.2381072
0.41183606 0.82629108 3.2444413
0.37931228 0.87792301 3.2409348
0.40178406 0.87518901 3.2413294
0.38667032 0.92480302 3.2403517
0.40361005 0.91911191 3.2486134
0.38845718 0.97716159 3.2457707
0.40443745 0.96103793 3.2474298
0.38996705 1.0292035 3.2482483
0.4062725 1.0297642 3.2487485
0.39182779 1.0987365 3.2493052
0.38661298 1.120782 3.2461202
0.40956062 1.1516542 3.2489204
3.6293731 1.633044 3.2065866
3.6394005 1.6768789 3.2215638
3.6596799 1.6924075 3.2139943
3.6405027 1.7398289 3.218385
3.6617937 1.7162627 3.2059917
3.6416948 1.7747474 3.2041841
3.6503193 1.8709657 3.2161732
3.6566281 1.9326286 3.2412546
3.6725132 1.9639293 3.2128189
3.6664507 2.1146572 3.2106011
3.657675 2.182117 3.2138083
3.6384945 2.2201221 3.2195487
-0.013339054 2.2841496 3.2037001
0.017963905 2.2786059 3.222265
0.079863012 2.2858589 3.2264857
0.12654391 2.2906613 3.2250431
0.17211503 2.2930815 3.224427
0.2166945 2.2949131 3.2272491
0.25546026 2.2949545 3.2108707
3.6550565 2.253963 3.2216296
0.28408748 2.3180194 3.2235737
0.31347209 2.3446136 3.2407303
3.6465378 2.3109899 3.2298844
3.6687882 2.3100817 3.2082763
0.29392913 2.3608727 3.2112286
0.32280219 2.3826158 3.2209775
0.35243282 2.3988376 3.2406261
3.6393647 2.3813722 3.2322118
3.6589875 2.3906348 3.2017722
0.3737765 2.4056053 3.2264447
0.42493668 2.413079 3.2170925
0.4807764 2.418165 3.2176278
0.52582908 2.4148006 3.2073727
0.57488483 2.4197285 3.2253873
0.62373996 2.4220951 3.2151616
0.67213613 2.4296379 3.242075
0.73172808 2.422626 3.2311139
0.77775598 2.4251404 3.2289684
0.82577652 2.4269147 3.2185373
0.87852281 2.4178741 3.2225494
0.92294359 2.4143817 3.2200947
0.97727364 2.4229145 3.2254143
1.0257466 2.426965 3.2188015
1.0681934 2.4155293 3.2231944
1.1183217 2.4214382 3.2341104
1.180194 2.4275904 3.2347574
1.2336015 2.4269123 3.2305336
1.2718623 2.4164793 3.2192805
1.3270425 2.416291 3.2309728
1.3700061 2.4187298 3.2265615
1.4238648 2.4075797 3.2244225
1.4816999 2.414187 3.2339365
1.5193046 2.4126081 3.2165904
1.5706666 2.4129627 3.2395589
1.6325992 2.4069755 3.2183192
1.6935143 2.4161973 3.2363291
1.7254183 2.4196417 3.2275248
1.761652 2.4190807 3.232595
1.824551 2.4140999 3.2170222
1.8685213 2.4151917 3.2284148
1.9391559 2.4139917 3.205874
2.7305818 -0.36505741 3.2818637
2.7526269 -0.36412126 3.2536001
2.6927016 -0.32547802 3.2939174
2.7263858 -0.32603773 3.2801027
2.7527206 -0.32569993 3.2570302
2.7257955 -0.27789938 3.2830291
2.7523251 -0.27763459 3.2602301
2.6893427 -0.2275646 3.2601218
2.7321088 -0.23913902 3.2749181
2.7508755 -0.23908314 3.2610016
2.7379515 -0.17229232 3.2853565
2.7530079 -0.1623992 3.2673719
2.7533078 -0.12397913 3.2690811
1.583111 0.017099403 3.2704513
2.6477313 0.038889222 3.287277
1.3892945 0.18162744 3.2599211
2.6991518 0.15377697 3.2751539
2.7110312 0.21056512 3.2506468
0.62812215 0.28062296 3.256321
0.66407019 0.27840114 3.2822378
2.7368243 0.2707648 3.2870417
0.59314919 0.34238937 3.2910039
0.6186353 0.32873866 3.2629364
0.66320843 0.32283184 3.2810524
2.7374828 0.33287436 3.2885253
2.7620316 0.32874891 3.2670677
0.33224034 0.37970838 3.2904396
0.36111355 0.37515584 3.2686124
0.44095662 0.38435742 3.2762825
0.46408844 0.38873029 3.2889845
0.58653933 0.37887737 3.2878087
0.62151408 0.38008603 3.2658644
0.6559853 0.38173971 3.2758093
0.33001858 0.43053642 3.2880459
0.35769713 0.42453113 3.2644787
0.44120783 0.42547172 3.2648468
0.46534413 0.43751717 3.2939131
0.58952391 0.43425506 3.2863171
0.62210488 0.42799601 3.2650452
0.66317952 0.43551418 3.2868793
0.32922709 0.47598794 3.2919681
0.35691237 0.47587737 3.2672074
0.43822932 0.47375786 3.2679796
0.46526179 0.47720984 3.2896547
0.5904597 0.47481364 3.2878375
0.62400424 0.47700801 3.2706075
0.65968722 0.47984704 3.2858734
0.33347714 0.52005529 3.2901342
0.35929236 0.52119368 3.2699263
0.44082183 0.52230191 3.2704558
0.46728247 0.53519088 3.2982483
0.54504204 0.54109669 3.2765877
0.58378553 0.53192979 3.2825003
0.62375414 0.52446109 3.2643132
0.66219115 0.53783834 3.2925365
0.3381218 0.57279307 3.2906895
0.36012751 0.57260191 3.2614379
0.43571791 0.57412243 3.2641072
0.47148657 0.57937258 3.2943337
0.53776425 0.56571126 3.2790236
0.57813829 0.56621522 3.2774103
0.62597865 0.56621504 3.271492
0.66369975 0.56319875 3.2973409
0.3320238 0.6242075 3.2876706
0.35751143 0.6253193 3.2659261
0.43560386 0.62168735 3.2618723
0.4745701 0.62101829 3.2939086
3.3395867 0.63463438 3.2895617
3.354605 0.63352108 3.2648022
0.32405722 0.67202657 3.2821705
0.35192063 0.68009311 3.2559006
0.43650892 0.67456257 3.2619433
0.46121821 0.67460889 3.2839985
3.3412361 0.65606844 3.2875309
3.3773472 0.66474813 3.268734
0.3276071 0.72242874 3.2807469
0.35356665 0.73094243 3.264251
0.43278638 0.72418708 3.2570457
0.46026537 0.72039181 3.2823968
0.33284873 0.76992786 3.2918801
0.36235198 0.78048706 3.2640755
0.42888856 0.79137754 3.2581043
0.45831141 0.77189338 3.2902446
0.34168935 0.82002568 3.2914307
0.36528009 0.82809198 3.2685215
0.43175074 0.83548445 3.2626595
0.45421478 0.82002014 3.2822526
0.34262323 0.87062126 3.2920895
0.36101937 0.86646402 3.2749052
0.42708555 0.87816733 3.2629921
0.45666471 0.8729338 3.2915411
0.34337094 0.92102748 3.2903817
0.36565199 0.92420536 3.2698228
0.42633274 0.9272154 3.2626572
0.45833278 0.9248156 3.2945778
0.34415245 0.97978485 3.2868133
0.3661215 0.97364432 3.2644818
0.42576811 0.97702616 3.2668757
0.34598687 1.0338593 3.2941875
0.36745751 1.0256891 3.266351
0.43040991 1.0217962 3.2763171
0.34625876 1.0754112 3.2878702
0.37389427 1.0726359 3.2619536
0.42689955 1.0732415 3.2746384
0.34875402 1.1488132 3.2964098
0.36809474 1.1214185 3.2664833
0.42329374 1.1224526 3.2724223
0.37885389 1.173299 3.2626383
0.42569968 1.1746188 3.2750258
0.34960544 1.2174349 3.2881761
0.37695274 1.2233827 3.2632275
0.42359343 1.2254812 3.2795753
0.37431434 1.2754283 3.2721095
0.42603117 1.2739794 3.2876525
0.36812255 1.3237742 3.2791977
0.4138265 1.3260629 3.281122
0.37407395 1.3778667 3.2750323
0.40993381 1.3769836 3.2788823
0.37153545 1.427826 3.2823772
0.41958046 1.4218775 3.2864363
0.3775557 1.4720498 3.2804399
0.41183472 1.4751004 3.2890556
0.37468788 1.51852 3.2851744
0.40855581 1.524801 3.2818966
0.37906089 1.5778229 3.2878766
0.38180035 1.6225374 3.2868316
0.41351765 1.6115527 3.2984509
0.38586482 1.6756427 3.293716
0.38840422 1.7257643 3.2924974
0.38558269 1.7850868 3.2999871
0.38603988 1.8045617 3.2969573
0.08152663 2.2773349 3.2730951
0.13143513 2.2844727 3.2730987
0.17984365 2.2913971 3.269244
0.20492204 2.2952824 3.2856677
0.26006928 2.2998233 3.2891302
0.37038007 2.2866147 3.2981474
0.23586614 2.3071799 3.289026
0.2809816 2.3025193 3.2699745
0.32323787 2.3130121 3.2673652
0.35959816 2.3207495 3.282603
0.33324364 2.3559384 3.2549391
0.37300184 2.3817341 3.2770412
0.412103 2.3897491 3.2949436
1.7876049 2.3978076 3.253566
0.42956796 2.4115264 3.2686012
0.4768523 2.4171782 3.2711637
0.52376527 2.4200709 3.2693186
0.57152462 2.416759 3.2766871
0.62451744 2.4287777 3.2763321
0.67535728 2.4225476 3.2687547
0.72850639 2.4279361 3.2795811
0.77275199 2.421941 3.2785776
0.81837714 2.4230118 3.2729707
0.87491292 2.4231274 3.2783811
0.93161321 2.4190598 3.2693992
0.97720444 2.4177971 3.2760029
1.0260944 2.4170117 3.2723684
1.0692892 2.4197235 3.2847056
1.1295794 2.4220273 3.2813642
1.1825131 2.4198973 3.2762063
1.2195101 2.4207397 3.2729247
1.2650483 2.4111862 3.2746472
1.3308746 2.4212406 3.2856586
1.3736819 2.4108765 3.2686932
1.4248514 2.406224 3.2641616
1.479942 2.4077022 3.2671509
1.5338501 2.4147933 3.2719934
1.5699095 2.4072604 3.2744675
