ply
format ascii 1.0
comment PCL generated
element vertex 1536
property float x
property float y
property float z
element camera 0
property float view_px
property float view_py
property float view_pz
property float x_axisx
property float x_axisy
property float x_axisz
property float y_axisx
property float y_axisy
property float y_axisz
property float z_axisx
property float z_axisy
property float z_axisz
property float focal
property float scalex
property float scaley
property float centerx
property float centery
property int viewportx
property int viewporty
property float k1
property float k2
end_header
-0.721268 -0.071283594 1.9533039
-0.67509216 -0.074124746 1.9743365
-0.62865013 -0.073787257 1.9909409
-0.57322407 -0.086991608 1.9725854
-0.54602796 -0.086525612 1.9665264
1.8708088 -0.07832963 1.9727793
-0.71954197 -0.031373654 1.9638515
-0.67442769 -0.032055464 1.9857869
-0.64214349 -0.049116261 1.9954097
2.1785424 -0.025209524 1.9924155
2.2188721 -0.019989971 1.9772037
2.2600679 -0.012073158 1.9544499
-0.71459103 0.036838796 1.9872946
-0.68439335 0.016557824 1.9926203
2.1899343 0.0076695019 1.9906425
2.2293968 0.019214801 1.9766494
2.2613077 0.041050583 1.955083
-0.72271359 0.070666388 1.9930507
2.2300963 0.064853087 1.9813591
2.2605858 0.081323646 1.9780236
2.2421627 0.10776652 1.9854723
2.2717836 0.1265281 1.9856678
0.27275565 0.24369064 1.973085
0.36029378 0.24183594 1.9965042
0.42620495 0.243213 1.9791287
0.89970362 0.24484225 1.9944501
0.88314235 0.2503432 1.956841
-0.91870141 1.2141973 1.9687294
-0.29231548 -0.50110114 2.0056953
-0.24282941 -0.50038356 2.0071888
0.35418665 -0.50224847 2.0462875
-0.32122505 -0.49299082 2.0329926
-0.27819631 -0.4935827 2.0253241
-0.22615968 -0.4967621 2.0236344
-0.17721201 -0.49566498 2.0259361
-0.12954976 -0.49538001 2.0355241
-0.076083519 -0.49282333 2.0198557
-0.028640732 -0.49321762 2.0222876
0.023697969 -0.49116322 2.0329697
0.071265019 -0.49080166 2.0186033
0.12483181 -0.48939326 2.0232303
0.17336191 -0.48848248 2.0238254
0.22562863 -0.48987636 2.0255468
0.26722258 -0.48978207 2.024868
0.32049173 -0.49274269 2.0276647
0.97054178 -0.48141807 2.034121
1.0260988 -0.47948712 2.0280282
1.0752451 -0.47401097 2.038023
1.1130888 -0.47020248 2.0176697
1.1831694 -0.4675138 2.0182011
1.2285262 -0.46614966 2.0213978
1.2796625 -0.46596429 2.0280211
1.3248204 -0.4635433 2.0250325
1.3589755 -0.45911825 2.0150733
1.4045041 -0.46489626 2.0252137
1.5941988 -0.45575869 2.0042109
1.6381282 -0.45984668 2.0025353
1.4414996 -0.44840112 2.0481732
1.5744224 -0.44845805 2.0488167
1.8736272 -0.26026362 2.032275
1.8722116 -0.22877163 2.0299673
1.8676552 -0.17440815 2.017134
1.8694913 -0.12956253 2.0166767
-0.6115182 -0.062296096 2.0035205
-0.57499701 -0.069015905 2.0152559
-0.52318162 -0.069357917 2.0347879
-0.4955748 -0.079631515 2.0483255
-0.39338863 -0.089027368 2.0490017
1.8770026 -0.079641335 2.0253012
-0.62617373 -0.026917577 2.0105138
-0.57593602 -0.030796815 2.0293438
-0.53024989 -0.033657122 2.0425284
-0.49554092 -0.039780997 2.0489304
2.0444846 -0.037618101 2.0225673
2.0894656 -0.038055047 2.0304041
2.1333935 -0.025152773 2.0157456
2.1540604 -0.018635612 2.0066838
-0.70227295 0.0497404 2.0000429
-0.66805613 0.031458061 2.0073607
-0.62442374 0.020018859 2.0232575
-0.58015555 0.018668875 2.0418789
-0.53704298 7.1509457e-05 2.0487952
2.1301794 0.022893086 2.0371053
2.1740184 0.025638092 2.0214903
2.2065768 0.034281548 2.0054817
-0.71136224 0.083600909 2.0058608
-0.67499411 0.073756516 2.0169785
-0.62907493 0.068994649 2.036124
-0.58736229 0.052250959 2.0476642
2.1399238 0.073546261 2.041235
2.1810193 0.068889938 2.0278518
2.2160971 0.081141897 2.0128076
-0.71500432 0.1306127 2.0182338
-0.67483062 0.12036506 2.0310864
-0.6385774 0.11917558 2.0446334
2.1815119 0.11570473 2.0440247
2.2274466 0.12521778 2.0273266
2.2697248 0.14282173 2.0079806
-0.71281117 0.15629907 2.0263045
-0.67675495 0.1602222 2.0407553
2.2323329 0.17671329 2.047411
2.2631748 0.1770675 2.0249112
0.27925709 0.24284726 2.0135984
0.31699431 0.24577916 2.0345457
0.3755236 0.24547067 2.0253143
0.40238723 0.24390711 2.0086465
0.88421118 0.24762997 2.0253034
0.91656226 0.24758124 2.0145183
2.237484 0.20420565 2.0498958
0.38168228 -0.50193548 2.0859733
-0.26989764 -0.49415413 2.0774322
-0.2235412 -0.49267569 2.0769987
-0.17852078 -0.49292985 2.0660667
-0.12438129 -0.49391145 2.0674744
-0.078114279 -0.4924877 2.0757389
-0.027453864 -0.49014172 2.059341
0.022743607 -0.48990202 2.076098
0.074279122 -0.48884013 2.0657248
0.12185402 -0.48719737 2.0698621
0.1779203 -0.48714665 2.078655
0.22287066 -0.49101266 2.0774181
0.28864697 -0.49371958 2.091078
0.33222547 -0.49191773 2.0715525
0.36253777 -0.49203652 2.0732129
0.92692184 -0.4825418 2.0863814
0.97736561 -0.47629121 2.0711393
1.0304782 -0.47555572 2.0744059
1.0729823 -0.47191897 2.0768154
1.1267279 -0.47075856 2.0748792
1.1788934 -0.46948758 2.075078
1.2259655 -0.46429443 2.0760319
1.277522 -0.46215659 2.0731888
1.3611352 -0.46226701 2.074537
1.4396167 -0.45509875 2.0915558
1.4583184 -0.4572922 2.0952575
1.5129795 -0.45603544 2.0562603
1.8881967 -0.25860691 2.0841389
1.8822393 -0.22366764 2.0729504
1.8791347 -0.17495215 2.0694904
1.8788205 -0.12472266 2.0721862
-0.47323784 -0.064948104 2.0612924
-0.43002269 -0.066982068 2.0793948
-0.39071032 -0.090704598 2.0888336
1.8816417 -0.078212202 2.0754867
-0.51382595 -0.018715918 2.0601063
-0.47492006 -0.027160099 2.073662
-0.43483838 -0.025244713 2.0930316
1.8952099 -0.049733054 2.081037
1.9754437 -0.02651467 2.0871742
2.0244038 -0.023399442 2.071763
2.0574872 -0.01211448 2.059907
-0.56186402 0.030206308 2.0550711
-0.52430052 0.020230362 2.0660884
-0.47459507 0.018957274 2.0868769
-0.44406709 5.6711164e-05 2.0973158
2.0343084 0.016093345 2.0930824
2.0735445 0.022044014 2.07008
2.1084547 0.040412083 2.0610108
-0.60739166 0.085783593 2.0536666
-0.57125783 0.073497139 2.0629835
-0.52587056 0.07124047 2.0863602
-0.49613866 0.061136242 2.0946944
2.0464754 0.059792504 2.0967457
2.0784726 0.070536628 2.0902479
2.1215656 0.073780604 2.0728807
-0.61445224 0.12149782 2.0582116
-0.57602805 0.12296908 2.0778198
-0.53258359 0.11310432 2.0935471
2.0979836 0.12464789 2.0969899
2.1267679 0.1251075 2.0840423
2.174865 0.13664959 2.0685551
-0.66015714 0.1759284 2.0521541
-0.62687415 0.16754319 2.0670116
-0.58011168 0.16523738 2.0887125
2.1337023 0.17459309 2.0919116
2.1697888 0.17280285 2.068589
2.2206032 0.19034888 2.0606482
0.29169208 0.23935004 2.067605
0.32199278 0.23962609 2.0670288
0.93891156 0.24213257 2.055567
0.95081228 0.24248865 2.0551188
2.1295207 0.20822155 2.0976138
2.1918454 0.21042104 2.0824943
2.2216485 0.20457825 2.0731816
-0.35011709 -0.48754758 2.1198637
-0.31994161 -0.49423736 2.1288874
-0.27732804 -0.49504605 2.1246748
-0.2217761 -0.49011585 2.1226144
-0.17453946 -0.49350074 2.1213725
-0.11769137 -0.49162021 2.1235313
-0.075660646 -0.48993096 2.1206269
-0.023925209 -0.49216828 2.1257641
0.023211256 -0.48798355 2.1208651
0.076875389 -0.49054313 2.1231933
0.12306529 -0.48868179 2.1260607
0.17904603 -0.4875572 2.134043
0.22323683 -0.49171486 2.1319876
0.27209494 -0.49038863 2.1243875
0.32085678 -0.49202743 2.1292574
0.38483191 -0.49032769 2.1283784
0.42270023 -0.49301821 2.1258004
0.45732319 -0.49683261 2.147558
0.84498197 -0.48108596 2.1495383
0.8801192 -0.48481542 2.1301649
0.91995949 -0.47943911 2.1277721
0.97233313 -0.47743395 2.1255944
1.0277905 -0.47348374 2.1233082
1.0731226 -0.46801448 2.1265039
1.1256253 -0.46563545 2.1253417
1.1702533 -0.46718884 2.132287
1.2047379 -0.46677572 2.1319556
1.2926375 -0.46410024 2.1231401
1.309182 -0.46203905 2.1265216
1.3767337 -0.46140304 2.1383891
1.420784 -0.45847708 2.1225908
1.5234274 -0.45445123 2.1190503
1.8869525 -0.2586669 2.1147959
1.8822438 -0.22224638 2.1169138
1.8846064 -0.17149949 2.1235278
1.8872223 -0.12065115 2.1293809
-0.40612444 -0.062971987 2.1051438
-0.39653674 -0.061326016 2.1206841
1.8868977 -0.069424242 2.1248639
-0.41319782 -0.025426423 2.1099207
1.8930277 -0.024947524 2.1425686
1.9233017 -0.023755366 2.1208708
1.9581325 -0.012093623 2.1020606
-0.4662185 0.030626891 2.1025476
-0.42622212 0.021401228 2.1167643
1.9254228 0.016838495 2.1325436
1.9748477 0.022003414 2.1175468
2.0158229 0.029501315 2.1047139
-0.47548133 0.073092707 2.1089232
-0.43205673 0.07269945 2.131417
1.934346 0.052567009 2.148062
1.9729029 0.069143541 2.1350012
2.0198071 0.074596532 2.1153555
2.0615492 0.088649817 2.1030121
-0.51691288 0.13290273 2.1094282
-0.47352743 0.12323114 2.1279149
-0.44071823 0.12017972 2.1440427
1.9874518 0.12234972 2.1408069
2.0263751 0.12393143 2.1246583
2.0676043 0.12542999 2.1086628
-0.55531526 0.16721149 2.1036868
-0.52498394 0.17301081 2.1196349
-0.47874978 0.17052683 2.1376283
2.0356729 0.17754807 2.145376
2.0741792 0.17345233 2.1194801
2.1087692 0.17416801 2.1046994
2.0293756 0.20604819 2.1447034
2.0796812 0.20719285 2.122472
2.1114523 0.21488772 2.1124358
0.47147056 -0.50062662 2.1624153
-0.35471258 -0.48538285 2.1831136
-0.34333622 -0.49069524 2.1669481
-0.27781376 -0.49427202 2.1566172
-0.22719713 -0.49177527 2.1819041
-0.17699787 -0.4912658 2.1746101
-0.12626369 -0.49269032 2.1783698
-0.078220695 -0.49240908 2.1753805
-0.030468447 -0.48995659 2.1768551
0.023830056 -0.48794255 2.1725733
0.078211591 -0.48978606 2.1718409
0.12883423 -0.48809597 2.1661739
0.17034954 -0.48865995 2.179527
0.22508922 -0.4872182 2.1778636
0.26644802 -0.48784521 2.1654224
0.31988278 -0.48721969 2.1783175
0.36285526 -0.48985398 2.1651392
0.42332411 -0.48878613 2.1753986
0.4753812 -0.49396887 2.1816478
0.52767789 -0.49233449 2.1917078
0.55699539 -0.48892143 2.1969633
0.61194277 -0.48939991 2.1892934
0.67253363 -0.4939425 2.1986639
0.87781036 -0.48080724 2.1714644
0.92387527 -0.4770638 2.1784627
0.9782632 -0.47507033 2.1843607
1.0210016 -0.47230428 2.167835
1.0710706 -0.46731666 2.1865237
1.1109443 -0.468106 2.17645
1.1858758 -0.45911476 2.1630993
1.2225624 -0.46212551 2.1653013
1.2646955 -0.4611358 2.1767068
1.3314662 -0.45950481 2.1728084
1.3529718 -0.45745698 2.1502416
1.4252744 -0.45376053 2.1673441
1.4879012 -0.45829326 2.1637368
1.8923354 -0.25897813 2.1738067
1.8845315 -0.22558175 2.1677778
1.8921533 -0.17457908 2.1805077
1.889779 -0.1224938 2.1806672
1.8890243 -0.068367675 2.1776557
1.8911368 -0.027371036 2.17676
1.8922923 0.0039159963 2.1741347
1.9048361 0.030920228 2.1679592
-0.40912384 0.071176246 2.1649714
1.892234 0.078833327 2.1971829
1.9177269 0.073450699 2.1677461
1.9594628 0.092036791 2.1502397
-0.42254969 0.12615654 2.1598494
1.8952706 0.11158378 2.1994965
1.9258848 0.12332965 2.1749966
1.9698437 0.13189664 2.1597519
-0.45721334 0.17251921 2.1547246
-0.43586615 0.16902256 2.1690712
1.9289187 0.17589407 2.1874473
1.9764425 0.18006267 2.1677594
2.0216737 0.17288131 2.1515961
1.9295418 0.2110824 2.195668
1.9742562 0.21239722 2.1838882
2.0013199 0.22572979 2.162755
-0.36395979 -0.48525688 2.2069101
-0.33183518 -0.49639031 2.2102642
-0.23957372 -0.49529499 2.2132251
-0.12633589 -0.49197695 2.2169302
-0.070875704 -0.49170184 2.2216218
0.021252437 -0.48964095 2.225023
0.069045775 -0.48742822 2.219065
0.12456503 -0.48397923 2.2184801
0.1747568 -0.48374596 2.2151923
0.22435677 -0.48647475 2.2248201
0.27693856 -0.48874149 2.2228253
0.32556155 -0.4895328 2.2306547
0.37193221 -0.48858827 2.2214513
0.42464575 -0.48538101 2.2265704
0.47179392 -0.48714292 2.2255011
0.5208199 -0.48674759 2.2281911
0.58438247 -0.490051 2.2280746
0.62457043 -0.48919711 2.2217376
0.66913038 -0.48343924 2.2219088
0.88661939 -0.47568142 2.226953
0.93068123 -0.4779366 2.2260599
0.97495496 -0.47143567 2.2406771
1.0251983 -0.46880031 2.2211244
1.0772014 -0.46467975 2.2188876
1.1254661 -0.46505091 2.2202554
1.1712108 -0.46229029 2.2332387
1.2443352 -0.46297133 2.2317834
1.2849783 -0.45282874 2.2270856
1.8911676 -0.25584817 2.2223139
1.8942181 -0.22334303 2.2288105
1.8958527 -0.18158181 2.2296867
1.8916576 -0.12723449 2.2337415
1.8949885 -0.058452517 2.2257776
1.8938016 -0.025548693 2.2186842
1.8937505 0.022981424 2.2297282
1.900412 0.01375535 2.2079372
-0.41216633 0.095793411 2.2034152
1.8924512 0.072980009 2.2284803
1.8943955 0.12727121 2.2286475
1.900164 0.13149573 2.2042499
1.8953333 0.17628133 2.2289894
1.9019996 0.18400478 2.2031317
1.8850908 0.21121262 2.2308996
-0.070652463 -0.49020162 2.2748516
-0.024802728 -0.49216339 2.2757518
0.02669969 -0.48692355 2.2777011
0.080448747 -0.48811105 2.2913167
0.11683545 -0.48890945 2.2764099
0.16868772 -0.48648119 2.2805002
0.22471416 -0.48816219 2.2852106
0.27365619 -0.48628423 2.2728376
0.32410309 -0.48559001 2.2742224
0.37721878 -0.48371249 2.2741749
0.4077926 -0.48809874 2.2680933
0.47327003 -0.4843871 2.2832198
0.52424389 -0.4837347 2.286546
0.57238704 -0.48353973 2.268441
0.6287052 -0.48471737 2.2735553
0.67158532 -0.4831447 2.2574661
0.72443539 -0.48751739 2.2827146
0.92661774 -0.47190157 2.2719207
0.97651094 -0.46619409 2.2764616
1.018402 -0.46665129 2.2659829
1.0673169 -0.46710894 2.275182
1.1344405 -0.46180302 2.267396
1.1801126 -0.45978135 2.2746403
1.20644 -0.45700583 2.284462
1.272287 -0.45492956 2.2707942
1.3289189 -0.4497183 2.2655115
1.8988361 -0.22707079 2.2845125
1.8957735 -0.16993627 2.2721715
1.9006734 -0.17911476 2.2648888
1.8915572 -0.13041927 2.2776167
1.8934311 -0.052601065 2.2740531
1.8964581 -0.023748705 2.2738123
1.9017142 -0.025897175 2.2591214
1.8939536 0.00064169639 2.2750595
1.9038072 0.034101516 2.2866366
1.8955253 0.0737276 2.2632329
1.9015226 0.067482077 2.2832227
1.8930956 0.13063854 2.2770624
1.8957478 0.17439118 2.2815814
1.8913609 0.20548026 2.2808666
2.1866672 2.4117267 2.280519
-0.077505998 -0.48717627 2.3259926
-0.025330281 -0.48863101 2.3311131
0.074315093 -0.48854408 2.3300216
0.11786644 -0.48933095 2.328959
0.1772311 -0.4836657 2.321321
0.2233023 -0.48605055 2.330188
0.27888367 -0.48565516 2.3337481
0.32316706 -0.48594204 2.3219159
0.36988351 -0.48407689 2.3272846
0.42123517 -0.48388404 2.3128452
0.47813642 -0.48370293 2.3362896
0.52150083 -0.48238841 2.3187134
0.5733484 -0.48386866 2.3374553
0.61944222 -0.48102114 2.3301494
0.67330056 -0.47952351 2.3276279
0.71848625 -0.48009387 2.3213634
0.90424067 -0.46801257 2.3072653
0.98811066 -0.46545836 2.336452
1.02337 -0.46518955 2.3241658
1.0667822 -0.45989853 2.315264
1.1240625 -0.46022126 2.3338959
1.1508496 -0.45152178 2.3468719
1.2158744 -0.45297027 2.3319273
1.2899317 -0.45313874 2.3036537
1.8897283 -0.25536367 2.3093631
1.8912679 -0.24384011 2.3381333
1.9031442 -0.17490266 2.3147938
1.8996994 -0.10773046 2.330991
1.9018776 -0.1278109 2.3199632
1.8934325 -0.066623151 2.3116815
1.9010729 -0.09357395 2.3075383
1.8919463 -0.032975107 2.310467
1.8882891 0.027495416 2.3122969
1.9004234 0.02754361 2.3080349
1.8937962 0.070770338 2.3195338
1.9032683 0.074750751 2.3105631
1.8827872 0.12142249 2.3093522
1.8866762 0.17550015 2.3112097
1.9000716 0.175515 2.302043
1.8834685 0.20206963 2.3054578
2.1139519 2.4082797 2.3235447
2.1876678 2.4331365 2.3333123
2.2243857 2.4443767 2.3262851
2.2628946 2.4305267 2.3402619
-0.072085291 -0.48473787 2.3872478
-0.020241313 -0.48691642 2.3986447
0.032464843 -0.48850274 2.3733785
0.089327991 -0.48386586 2.3825746
0.11806581 -0.48351732 2.3800287
0.1873572 -0.48801327 2.3800147
0.22663641 -0.48178691 2.3662982
0.27384228 -0.48403022 2.3741083
0.33163804 -0.48430976 2.3706255
0.37512133 -0.48163509 2.3679669
0.42791072 -0.4794443 2.370153
0.47363096 -0.47714892 2.370008
0.50826293 -0.47621447 2.3689489
0.57576764 -0.47922197 2.3740377
0.93041325 -0.4665038 2.3588405
0.96679997 -0.46961176 2.3660698
1.031113 -0.46303853 2.3804333
1.0837007 -0.45760375 2.3688483
1.1137873 -0.45747787 2.3578413
1.1696422 -0.45407233 2.3557632
2.0098968 2.4087203 2.3928137
2.0721035 2.4203606 2.3698807
2.120281 2.4304724 2.380935
2.1800129 2.445384 2.3781407
2.2297621 2.4430182 2.3825996
2.2427151 2.4555883 2.3521173
-0.072988726 -0.49079418 2.417037
-0.035944685 -0.4866496 2.4171293
0.029360991 -0.48146361 2.4310768
0.075448789 -0.48554 2.4308665
0.1138356 -0.47835809 2.4137917
0.17898886 -0.48480964 2.4236491
0.22517379 -0.47934374 2.4136403
0.27526075 -0.48516554 2.4397197
0.33681589 -0.48142496 2.4311466
0.37420425 -0.48007333 2.4205871
0.41972414 -0.47573337 2.4276359
0.46618664 -0.4750042 2.4307919
0.52264702 -0.4780075 2.4229608
0.57186842 -0.47889626 2.436219
1.9483545 2.3972697 2.4152396
1.9663717 2.3981073 2.4048593
2.0135415 2.415333 2.4278891
2.0780733 2.430218 2.422286
2.1219277 2.4323049 2.4381642
2.1853876 2.4348085 2.427614
2.2339959 2.4394078 2.416194
2.2624843 2.4423585 2.4444857
2.1653121 2.4511588 2.4389994
2.320246 2.4554138 2.4261684
2.3884873 2.4603271 2.4307756
2.4237494 2.4588709 2.4480584
-0.018488174 -0.48251209 2.4737537
0.02097344 -0.47782928 2.4746513
0.063165165 -0.48091182 2.4901562
0.23034497 -0.47851872 2.4712703
0.27126545 -0.4767856 2.459517
0.32635134 -0.47585201 2.4663515
0.37891325 -0.47692743 2.4768238
0.43672663 -0.46971861 2.471354
0.47232947 -0.47719893 2.4849997
0.52393526 -0.47230044 2.473985
0.56544191 -0.47716874 2.47736
0.6128701 -0.4754892 2.4777875
1.8778013 2.4180193 2.4918194
1.9249616 2.4234562 2.4805474
1.973999 2.4314764 2.4785845
2.0161707 2.4219415 2.4779558
2.0767367 2.4244707 2.4727871
2.1385763 2.443634 2.4876406
2.1790206 2.4394131 2.4750791
2.2150028 2.4373376 2.4833362
2.3217635 2.4482937 2.4570713
2.447969 2.4458673 2.4538181
2.1638019 2.451762 2.4837098
2.2871397 2.4505203 2.4847307
2.3450751 2.4538701 2.4723969
2.3826256 2.4549432 2.4927144
2.4117105 2.4561687 2.4743958
-0.070006303 -0.47947478 2.5258918
-0.02124718 -0.47445512 2.5217092
0.023367004 -0.47395897 2.5190446
0.063558958 -0.48380217 2.5051417
0.10002819 -0.48467097 2.5088654
0.15052192 -0.47898158 2.5429323
0.2405718 -0.4748767 2.5165043
0.2729204 -0.4781462 2.5317729
0.32165325 -0.48179969 2.5252683
0.37046084 -0.47333762 2.5203416
0.42270407 -0.47289786 2.5353081
0.4783752 -0.475144 2.5180681
0.53201652 -0.46729556 2.5137475
0.57067019 -0.47626087 2.5344574
0.63487649 -0.47060618 2.5161893
0.72715801 -0.46797287 2.5204682
0.66974223 -0.29892945 2.5432103
0.66334277 -0.22411649 2.5486948
1.7430249 2.4010022 2.5482569
1.7890775 2.4162865 2.5436904
1.8232136 2.4152553 2.5214183
1.8955933 2.4232168 2.5296369
1.9274781 2.4211309 2.5270703
1.9779699 2.4308212 2.5307252
2.0264339 2.4273679 2.5255592
2.1082432 2.4412322 2.5257859
2.1824436 2.4355011 2.5172069
2.2210097 2.4200656 2.5240545
2.320899 2.4492431 2.5489981
2.1606131 2.4505 2.5272849
2.2761233 2.4527309 2.5257952
2.3271332 2.4551365 2.5243883
2.3773212 2.459425 2.5267534
2.4305601 2.4565711 2.5302324
2.4614935 2.4592695 2.5129468
2.6454182 2.4685397 2.5389001
-0.059437905 -0.47587252 2.5969498
-0.038285356 -0.47684416 2.5794613
0.021944515 -0.47538903 2.5946734
0.071258977 -0.48336455 2.5684681
0.22000337 -0.48325366 2.5623722
0.32104149 -0.48076725 2.5879071
0.37036943 -0.47291639 2.5637758
0.41304517 -0.47191015 2.5539374
0.4744277 -0.47427154 2.5776987
0.50979245 -0.47523165 2.5607007
0.56980777 -0.47414601 2.57024
0.62796825 -0.47268555 2.5770457
2.8777497 0.33546916 2.5857146
2.9065535 0.81563574 2.5977197
2.9117219 1.0605458 2.5965912
2.9224687 1.3599283 2.5996013
2.7981505 2.3434958 2.5882587
2.7701902 2.3659651 2.5764906
1.6785165 2.4081366 2.5959644
1.7350072 2.4262156 2.5903745
1.7773017 2.4202893 2.5837402
1.8249099 2.418685 2.5766885
1.8767655 2.4178309 2.5955141
1.9213043 2.4186108 2.5759933
1.9789014 2.4359903 2.5807688
2.0203187 2.4340603 2.579643
2.0815456 2.4372196 2.5734136
2.1201949 2.4381733 2.5784469
2.1689923 2.4427028 2.5752327
2.2266886 2.4469261 2.5802839
2.2893064 2.4453683 2.5644915
2.7296543 2.4323516 2.5826283
2.7564325 2.4004714 2.5775664
2.2665606 2.4509628 2.5898573
2.3440328 2.454747 2.5883164
2.379678 2.4526801 2.5595605
2.4286206 2.4642649 2.5761821
2.4561262 2.4537981 2.553827
2.6194429 2.4708211 2.5862648
2.6815467 2.453814 2.5834794
2.7110908 2.4540086 2.5620785
-0.09770342 -0.47926512 2.614717
-0.021965357 -0.47772807 2.6074433
0.053662311 -0.47925812 2.6155183
0.24287063 -0.47925833 2.6084967
0.25638857 -0.4809536 2.6169307
0.33362773 -0.48281264 2.6214089
0.43396187 -0.46866471 2.6050808
0.46388739 -0.46692985 2.6289394
0.59223962 -0.47364521 2.6127315
0.61061788 -0.47299927 2.6062129
2.7336566 0.33538938 2.6323106
2.7764106 0.33399522 2.6149325
2.8345516 0.33437094 2.6107473
2.8537071 0.34680948 2.6055624
2.7388563 0.37611008 2.6378186
2.7796519 0.37822413 2.6288576
2.8236861 0.37212986 2.6230214
2.8780217 0.37478885 2.6082978
2.7372971 0.42699707 2.6294236
2.7740288 0.42877284 2.6165574
2.8064175 0.43975651 2.6136489
2.8713787 0.41849118 2.6126652
2.900249 0.40273029 2.6088052
2.736167 0.47939837 2.6365211
2.7743037 0.47845039 2.6286435
2.8361993 0.47222608 2.6173813
2.87132 0.47061169 2.6048276
2.7453108 0.52382028 2.6381643
2.7824168 0.52171516 2.62604
2.8259335 0.51727289 2.6197546
2.856081 0.53181159 2.6131029
2.7422879 0.56780249 2.6434302
2.7691371 0.57291335 2.6331093
2.8226449 0.57376301 2.6227314
2.8727717 0.5778029 2.6120443
2.9085798 0.56476039 2.6234186
2.7352951 0.61967129 2.6425626
2.7692881 0.62157381 2.6267872
2.8326826 0.62493289 2.6255481
2.8675432 0.63126749 2.6156726
2.7459183 0.67382365 2.6416731
2.7800896 0.67589694 2.6257827
2.8281147 0.68125552 2.622179
2.8726416 0.67124009 2.6140921
2.7417614 0.72674549 2.6417067
2.7659671 0.73160857 2.6284776
2.822495 0.72562879 2.6229248
2.8775237 0.71893942 2.6145034
2.9140143 0.7467221 2.6227417
2.7395458 0.78038949 2.6427484
2.7725887 0.76506358 2.6302185
2.8295448 0.77119607 2.6185377
2.8723459 0.77574927 2.6089022
2.9153843 0.77371824 2.6172714
2.7445841 0.82521141 2.6360412
2.7722685 0.82371002 2.6199682
2.8229439 0.82999349 2.621733
2.8711057 0.82768887 2.6142278
2.9274478 0.82156324 2.6163249
2.7400525 0.89007181 2.6468375
2.7703524 0.87401849 2.6320336
2.8206031 0.87588203 2.6182723
2.8783755 0.87976325 2.6205373
2.9071455 0.86531341 2.6187718
2.7485459 0.91032052 2.6498296
2.7634296 0.93670386 2.6460354
2.8212924 0.92168093 2.6259522
2.873697 0.92844522 2.6150823
2.7288802 0.97946399 2.6415915
2.7754734 0.97207463 2.638411
2.8281226 0.9723376 2.6310751
2.8729267 0.97263205 2.6213884
2.7466428 1.0210211 2.6471434
2.7668307 1.0359383 2.6405838
2.8149137 1.0271014 2.6341648
2.8750851 1.0211111 2.6252053
2.9136581 1.0253083 2.6105158
2.7739677 1.0719166 2.6310756
2.8298335 1.0694791 2.6230006
2.8765497 1.0725676 2.6179533
2.9054391 1.0828129 2.6177473
2.7778661 1.1220945 2.6353967
2.8159893 1.1226897 2.6156595
2.8694918 1.1153435 2.6219196
2.7670734 1.1713514 2.6365917
2.8212554 1.1730906 2.6202002
2.885428 1.1848302 2.6128345
2.7822659 1.2236112 2.6354597
2.8185523 1.2205352 2.6167147
2.8681717 1.2122362 2.6198173
2.7783232 1.276364 2.6398692
2.8250475 1.2723157 2.621038
2.8873789 1.2749994 2.6154423
2.7862835 1.3234965 2.6352427
2.8248534 1.3215344 2.6184516
2.8698859 1.3298751 2.6099472
2.9158556 1.3201958 2.6092718
2.7804186 1.3715755 2.638319
2.8197455 1.3730425 2.6272948
2.8785098 1.3793435 2.6166186
2.9072232 1.3797307 2.6112931
2.7715614 1.419668 2.639956
2.8245182 1.4254756 2.6279511
2.877743 1.4231224 2.6211762
2.9181461 1.4310074 2.6130733
2.7750392 1.4735665 2.6417279
2.8270311 1.4726201 2.6279202
2.8656166 1.4753798 2.6210349
2.7802129 1.5224581 2.6437376
2.8326895 1.521862 2.6303017
2.8843753 1.5205271 2.6151192
2.9123423 1.549058 2.6147907
2.7862699 1.5769055 2.6436851
2.8215697 1.5720201 2.630954
2.8639581 1.5644017 2.614706
2.9200828 1.5877274 2.6178234
2.7892907 1.6301408 2.6399715
2.8264837 1.6263511 2.6291332
2.8715193 1.6199929 2.6167111
2.9317737 1.6450318 2.6290321
2.7853668 1.6864778 2.6386034
2.8185427 1.6643295 2.619395
2.8758962 1.6685967 2.6154635
2.9237499 1.6854224 2.6251361
2.7886128 1.7302563 2.6460178
2.8264475 1.7295736 2.6304741
2.8715155 1.7209291 2.6223037
2.9146051 1.7366947 2.6205077
2.7899694 1.7744688 2.6439002
2.8250761 1.7789297 2.6261711
2.880285 1.7710271 2.6198516
2.9111795 1.7688469 2.619287
2.7952595 1.8215714 2.6450531
2.8290217 1.8240393 2.6333411
2.8605852 1.8218398 2.6210222
2.7805715 1.8526202 2.6491618
2.8295474 1.8758501 2.6390269
2.8874116 1.8855321 2.6470702
2.902266 1.86353 2.6373804
2.7913752 1.9489604 2.6497219
2.8259308 1.9254246 2.640383
2.8775074 1.9263796 2.6277454
2.8317606 1.9657683 2.6386864
2.8729026 1.9829955 2.6279032
2.9111195 1.9786499 2.6251378
2.8274002 2.0147324 2.6459892
2.8655934 2.0290823 2.6399603
2.81938 2.0745239 2.641679
2.8678899 2.0766718 2.6360793
2.7582209 2.1010275 2.639477
2.8214891 2.1269979 2.6484022
2.8681629 2.1222022 2.6375141
2.826257 2.1772394 2.645942
2.8680031 2.1768768 2.639822
2.9089308 2.1657457 2.638468
2.8290544 2.2264056 2.6411488
2.8688529 2.2162106 2.6241906
2.8176944 2.2817523 2.6412065
2.8761127 2.2776976 2.632417
2.7789257 2.3346202 2.6271975
2.8243637 2.3174944 2.6209188
2.8761337 2.3168809 2.6153853
1.5459491 2.3917549 2.6435654
1.6355271 2.3962083 2.6023884
2.748343 2.3907783 2.6161313
2.7553158 2.3685486 2.6188841
1.5909603 2.4074833 2.642792
1.6107272 2.4109941 2.6373682
1.6755066 2.4088159 2.6252887
1.7272249 2.4099922 2.611059
1.7883027 2.4155788 2.6247563
1.8168913 2.4142253 2.6333725
1.8750079 2.4181793 2.6181855
1.9202787 2.4121423 2.6230218
1.9776398 2.4287438 2.6275885
2.0217242 2.438771 2.6225848
2.0678189 2.4313209 2.6169634
2.1264241 2.4373939 2.617543
2.1971757 2.436101 2.6125901
2.3753967 2.4487638 2.6025732
2.7269065 2.4278095 2.6232123
2.2323165 2.4543438 2.6193016
2.2674549 2.4533849 2.6396267
2.3294435 2.4592216 2.6063149
2.3627341 2.4552727 2.6229634
2.4572101 2.4643776 2.6193187
2.5673363 2.4738729 2.6216218
2.6204281 2.4705374 2.634481
2.6743662 2.455019 2.624464
0.62546468 -0.47142637 2.6712775
2.7276819 0.33169818 2.6696472
2.7266982 0.38279831 2.6814396
2.7281716 0.43089283 2.6845942
2.7354646 0.47998196 2.6813145
2.7326012 0.52142572 2.6781597
2.7319703 0.56609738 2.6694882
2.7311168 0.62761414 2.68297
2.7320452 0.67674828 2.6767228
2.7318416 0.72566569 2.6685593
2.7300982 0.77391958 2.6682653
2.729454 0.81974691 2.6724958
2.7340066 0.87055933 2.6666043
2.7340896 0.92766315 2.6773558
2.7854633 0.9167515 2.6524501
2.7380488 0.969859 2.6807277
2.7351711 1.0243973 2.6743705
2.7802827 1.0092944 2.6524169
2.7419221 1.0780623 2.6715953
2.7354841 1.1187202 2.6711502
2.7503054 1.1175777 2.6524951
2.7405028 1.1807652 2.6679482
2.7396646 1.2261131 2.6709619
2.7538593 1.2155826 2.6550241
2.739944 1.2723858 2.674499
2.751967 1.2945336 2.6571448
2.7426081 1.3315442 2.6798975
2.7591405 1.324949 2.6525393
2.7433255 1.3650044 2.678674
2.7550185 1.3859663 2.6582122
2.7491851 1.4012252 2.6821332
2.7533386 1.4306794 2.6737227
2.7389176 1.480696 2.6805813
2.753325 1.4671189 2.656728
2.7466602 1.5319313 2.6817341
2.7599251 1.54475 2.6659672
2.7451715 1.5809816 2.6816368
2.7617598 1.5733851 2.6540217
2.7442977 1.621523 2.6862736
2.7626197 1.6147699 2.6602767
2.7478528 1.681316 2.6998413
2.7602108 1.6693249 2.6659527
2.7604082 1.7256333 2.6764469
2.7675064 1.7709183 2.6638272
2.7678878 1.8221037 2.6700277
2.7696962 1.871896 2.6732297
2.7709465 1.9235072 2.6716378
2.8085759 1.9094875 2.654073
2.768029 1.9769866 2.6685097
2.8073542 1.9793456 2.6536334
2.7744255 2.0265267 2.6648579
2.8056901 2.0497966 2.6518061
2.7798414 2.0750167 2.675365
2.8001204 2.0987566 2.6572037
2.9165649 2.087831 2.6525016
2.7748902 2.1235838 2.6782696
2.7859547 2.1762824 2.6761134
2.8101397 2.1625409 2.6538239
2.7798755 2.2269592 2.6721945
2.8141308 2.202666 2.656426
2.7784467 2.2781672 2.6716468
2.7685795 2.3297698 2.6715682
1.4703753 2.3955553 2.6865878
1.5148636 2.3973472 2.667331
1.5662374 2.3921833 2.6726568
2.7578828 2.3640654 2.6784222
1.5481017 2.4046335 2.6999855
1.6276352 2.4062941 2.6769338
1.6710354 2.4100454 2.6697168
1.7340229 2.4219851 2.6761901
1.7823002 2.4209557 2.677933
1.8159446 2.4048893 2.6752467
1.8796582 2.4193439 2.6738729
1.9274982 2.4357424 2.6847966
1.9724089 2.4264505 2.6708257
2.0252669 2.4400752 2.6738408
2.0661247 2.4330819 2.672998
2.1177969 2.4408231 2.6742697
2.1697249 2.4481068 2.6746202
2.2234468 2.4463863 2.6580775
2.2795246 2.4474475 2.6678901
2.7300088 2.4285128 2.6690686
2.7632544 2.4010532 2.6775651
2.2605114 2.4568157 2.6738553
2.3276031 2.4585593 2.6694415
2.3591278 2.4521935 2.6678181
2.4245486 2.475177 2.6741335
2.4693112 2.4666798 2.6797516
2.6166356 2.4752753 2.6880817
2.6750376 2.4633443 2.6820819
0.65115726 0.17857057 2.7166157
2.7247715 0.33802447 2.7254183
2.7256112 0.37270015 2.7222872
2.7313235 0.41808185 2.7386229
2.7281685 0.46966732 2.7280018
2.72756 0.52159411 2.7190459
2.7286618 0.57571596 2.7271817
2.7286823 0.62460923 2.7260618
2.7358837 0.67540097 2.7313695
2.7303114 0.72306168 2.7282591
2.7300513 0.77257103 2.7194259
2.7261243 0.83235061 2.7253804
2.7303157 0.87942517 2.7221246
2.7293031 0.92144227 2.7296429
2.7297077 0.9747026 2.7137821
2.7373085 1.0178556 2.734935
2.7360094 1.0726192 2.723954
2.7426209 1.1415713 2.7250371
2.7538514 1.1245661 2.7258506
2.7466331 1.172179 2.72735
2.7374434 1.2237566 2.7206712
2.7388344 1.2690626 2.7264144
2.7375793 1.32724 2.7194891
2.7433839 1.3801253 2.7225103
2.7424755 1.4209397 2.7223277
2.7476473 1.4744215 2.7233901
2.7532406 1.4541156 2.7204034
2.7404027 1.5451566 2.7195663
2.7606318 1.5184233 2.7186978
2.7454088 1.5758188 2.7108066
2.7414472 1.6214787 2.7225084
2.7509308 1.6795826 2.7250671
2.7481344 1.7211754 2.7196546
2.7595911 1.7786565 2.7140403
2.7495675 1.8002286 2.7197061
2.7539465 1.8315797 2.7080946
2.7531607 1.8723726 2.7258728
2.7628942 1.9336885 2.7252765
2.7618163 1.9782122 2.7189586
2.7579792 2.0149286 2.7240767
2.7719445 2.0774698 2.7170231
2.7826838 2.1397009 2.7384963
2.7745347 2.1805279 2.7234254
2.7710953 2.2331097 2.7300501
2.7628932 2.2741997 2.7140169
2.7657006 2.3241098 2.7164631
1.3725778 2.3913114 2.7257903
1.4312917 2.3939595 2.7218919
1.4708247 2.3930097 2.7210567
1.5224533 2.3967671 2.7209911
2.762728 2.3877716 2.7318327
1.4027307 2.4134066 2.7431924
1.4761904 2.4017277 2.7310295
1.5300714 2.4038484 2.7078791
1.5661008 2.4012246 2.7252793
1.6244397 2.4164917 2.7310622
1.6785173 2.4081876 2.7305021
1.7177514 2.4143553 2.7252293
1.7682785 2.4131918 2.7157831
1.8745407 2.4179473 2.7176807
1.9231023 2.4250035 2.7284086
1.9599349 2.4252009 2.7059047
2.0125244 2.4259872 2.7183657
2.070703 2.4416437 2.7295547
2.1241682 2.4401803 2.7147312
2.2032478 2.4468076 2.7194283
2.2786522 2.4478431 2.716783
2.6709731 2.4478912 2.7336197
2.7269106 2.4325476 2.7276778
2.7538614 2.4089701 2.727401
2.1913269 2.4546514 2.7410338
2.2495902 2.4560876 2.7036834
2.2679443 2.4569082 2.7401369
2.3094685 2.4603517 2.7172747
2.3936141 2.4685783 2.7211015
2.4230633 2.4788766 2.7185423
2.5765226 2.4845603 2.7178884
2.6271234 2.4649973 2.720854
2.6822762 2.4591079 2.7205343
2.7134349 2.4501278 2.7060444
0.63774425 -0.040405631 2.7813931
0.6548447 0.23076345 2.7883732
2.6163228 0.33617616 2.7908068
2.6741135 0.33700719 2.798151
2.712096 0.34070992 2.7774916
2.7173381 0.37627888 2.7789133
2.7239826 0.42093289 2.7801714
2.6362786 0.45128581 2.7982717
2.6672056 0.45362514 2.7983594
2.7244234 0.47348174 2.7731783
2.7298977 0.52703607 2.7704
2.6822953 0.56123656 2.7975211
2.7187116 0.58095068 2.7826436
2.7264926 0.62308198 2.7772915
2.7302525 0.67166752 2.7770092
2.7311344 0.72164088 2.7754545
2.7288094 0.78093559 2.7760141
2.729779 0.82206953 2.7787457
2.7243125 0.87236905 2.7731361
2.7297928 0.92757362 2.763438
2.7364025 0.97291279 2.7784288
2.7314014 1.0239569 2.7708902
2.7304626 1.06846 2.7550359
2.7407758 1.123683 2.7779455
2.7341247 1.1759148 2.7719855
2.7365434 1.2217566 2.7797139
2.739846 1.286889 2.7704048
2.7534175 1.2659466 2.7825201
2.744494 1.3233019 2.7767997
2.7427144 1.3981932 2.7520094
2.7535806 1.3760425 2.7750189
2.743387 1.4264234 2.7789304
2.7421296 1.4628346 2.7608593
2.7511666 1.4962902 2.7961261
2.7460566 1.5215118 2.7777331
2.7466247 1.5658406 2.7704096
2.7507029 1.5949571 2.7680292
2.746789 1.646928 2.7976823
2.752048 1.6294217 2.7726471
2.74981 1.6866479 2.7812314
2.7525923 1.6680828 2.7672036
2.7587845 1.7301751 2.7702217
2.7586603 1.7762809 2.7730637
2.7653947 1.8327187 2.765132
2.7504835 1.8835741 2.7583292
2.7764785 1.9304905 2.7675939
2.7665873 1.9760456 2.7704325
2.7543688 2.0495715 2.7527158
2.7703729 2.0811269 2.7567091
2.7741971 2.111146 2.7662201
2.7736645 2.1655824 2.7767584
2.7757971 2.2148862 2.7714989
2.7743473 2.269923 2.7802002
2.7659333 2.3300145 2.7749348
1.2495073 2.3877075 2.7721765
1.2739401 2.3837266 2.793828
1.3258599 2.3876667 2.7688513
1.3748255 2.3929124 2.7646835
1.426626 2.3935659 2.7712069
1.4785841 2.3934224 2.7761674
1.5471455 2.3951519 2.7654321
1.5754299 2.3934407 2.7888048
2.760865 2.3741791 2.769311
1.2912101 2.4009633 2.773665
1.3130807 2.4091983 2.7760231
1.4057927 2.40113 2.7626185
1.5196738 2.40258 2.7699738
1.58635 2.403836 2.7720873
1.6302558 2.4174991 2.7768128
1.6594485 2.411845 2.7734714
1.7283953 2.414784 2.7823751
1.7811155 2.4146185 2.766969
1.8199673 2.419966 2.7673471
1.8738654 2.4206319 2.7511668
1.9215952 2.4162652 2.7591126
1.979126 2.4355886 2.7701578
2.0083964 2.4223106 2.7750189
2.0693102 2.442817 2.7705595
2.1233954 2.4420028 2.764688
2.179826 2.4440029 2.7776802
2.7381718 2.4310865 2.7745559
2.1697514 2.4517245 2.7505386
2.2337625 2.4614427 2.7715623
2.2575774 2.4568322 2.7713065
2.315846 2.4683394 2.7755926
2.594861 2.4716737 2.7835457
2.6900167 2.4543142 2.7850039
0.64449316 -0.013555693 2.8109834
0.65821123 -0.027186509 2.8091495
0.64691341 0.020633142 2.8214612
0.66101086 0.020633325 2.8210983
0.64657706 0.075330034 2.8193414
0.66007519 0.075313821 2.8164511
0.64599389 0.12312037 2.8156626
0.65934879 0.12306625 2.8122149
0.57959318 0.17839596 2.8330636
0.64624047 0.1710268 2.8150356
0.65949655 0.17092085 2.8111408
0.59013647 0.23141401 2.8405492
0.64617157 0.2257334 2.8121386
0.65843898 0.20476852 2.8051221
0.59208095 0.26700103 2.8206191
0.60546809 0.26687166 2.8172908
2.5964069 0.3368867 2.8177855
2.6603 0.34827349 2.804162
2.5834556 0.3916235 2.8244803
2.61431 0.37512851 2.8113701
2.6783133 0.37563986 2.8037672
2.588793 0.4245753 2.8317502
2.6264086 0.4196178 2.804894
2.6735065 0.41980216 2.8096943
2.7038162 0.4218429 2.8085911
2.596189 0.46861181 2.8284833
2.6239047 0.47185454 2.8091567
2.6761694 0.48136145 2.8039246
2.7094758 0.47542009 2.8070853
2.5935104 0.50496209 2.8421454
2.6114914 0.52076584 2.8100002
2.6693013 0.52537608 2.8061588
2.7152498 0.52925825 2.8047717
2.5964339 0.58384812 2.8323164
2.6231337 0.57533771 2.8136358
2.6760509 0.58318251 2.8068573
2.7195139 0.63116008 2.8247337
2.7247977 0.68242884 2.8286486
2.7254155 0.73789543 2.8199885
2.7310936 0.77687794 2.8286307
2.7296283 0.82597476 2.8263915
2.7356467 0.8831594 2.8267508
2.7305131 0.92314708 2.8221695
2.7323005 0.97681767 2.8226099
2.7342393 1.0261078 2.82758
2.742151 1.092777 2.8147445
2.7373924 1.1218209 2.8174872
2.7303066 1.1904688 2.8214719
2.731745 1.2182397 2.8252776
2.7440543 1.2714953 2.8296382
2.7406657 1.3293496 2.830251
2.7449145 1.3772293 2.8257155
2.7500107 1.3742008 2.81006
2.741941 1.4260504 2.8163795
2.7474012 1.4755653 2.8009417
2.7436888 1.5788999 2.8274388
2.7521846 1.563558 2.8054698
2.7467501 1.6279727 2.8072164
2.7510262 1.6115457 2.821054
2.7425528 1.6557518 2.8287561
2.7534068 1.6909645 2.8252406
2.7549527 1.7309666 2.820384
2.7471411 1.7852665 2.8086786
2.7554159 1.7617373 2.8327422
2.7518535 1.8075644 2.8029585
2.776721 2.1813636 2.8403425
2.7774255 2.2221224 2.8155813
2.7730916 2.2853863 2.8151021
2.7729104 2.3234789 2.8215764
0.98584235 2.3772819 2.8487761
1.0580468 2.3848171 2.8365095
1.1645455 2.3907428 2.8082514
1.2251371 2.3903482 2.8218613
1.286792 2.3989828 2.8286188
1.3294098 2.3914089 2.8289914
1.3727446 2.3956614 2.8329172
1.4242159 2.3970473 2.8254592
1.4709055 2.3975568 2.8444691
1.5563169 2.3962936 2.8225257
2.757252 2.3773365 2.8251545
1.2133589 2.4016933 2.8051119
1.3918315 2.4048653 2.8122606
1.4803162 2.4071989 2.8346148
1.529699 2.4057286 2.8292027
1.5846076 2.4030011 2.8389616
1.6250267 2.409405 2.8285198
1.6702018 2.413321 2.8320308
1.7348733 2.418282 2.8264041
1.7744811 2.4188843 2.8312638
1.8188435 2.4143226 2.8164477
1.8864315 2.4328785 2.8292232
1.9277798 2.4287753 2.8201768
2.0893166 2.4495752 2.8466382
2.1431577 2.445632 2.8049242
2.1631727 2.4491668 2.8455269
2.6535878 2.4486644 2.8013833
2.7452126 2.435761 2.8150864
2.7524877 2.4127343 2.8181162
2.068439 2.4552891 2.822885
2.113482 2.4554605 2.8411779
2.5917983 2.4778192 2.8239698
2.6296973 2.4647241 2.8238287
2.6803837 2.4529274 2.843792
2.7102036 2.4522662 2.81989
0.54380924 0.11781687 2.8688695
0.55681896 0.1245833 2.8625729
0.56813937 0.17291272 2.8583291
0.57718146 0.20742369 2.854665
2.587347 0.33037084 2.8573713
2.5940611 0.47219682 2.8675117
2.5857928 0.52548522 2.874583
2.5888968 0.58444887 2.8682997
2.6894102 0.6255368 2.8782892
2.7208583 0.72074038 2.8765705
2.7233615 0.77219331 2.8764365
2.7284305 0.83240402 2.867451
2.7335112 0.87306362 2.8803918
2.7272081 0.93307412 2.8745768
2.7283287 0.97188479 2.8676167
2.7337029 1.0270125 2.8812895
2.7283061 1.0700288 2.873441
2.7385616 1.119949 2.8713832
2.7386169 1.1774021 2.8736069
2.7338512 1.2293032 2.8771708
2.7394056 1.2757665 2.8757958
2.739799 1.313179 2.8614545
2.7406313 1.3694333 2.8782768
2.7434027 1.4303986 2.8688984
2.7515116 1.4313488 2.8655841
2.7556989 1.4813436 2.8886766
2.7400665 1.5201626 2.8506918
2.749862 1.5838286 2.8740649
2.7604759 1.6310802 2.8754311
2.7571545 1.6761341 2.8797112
2.7574494 1.7293562 2.8810008
2.7799888 2.1896167 2.8870163
2.774812 2.2247069 2.8726184
2.7647755 2.2832537 2.8749528
2.7470574 2.3143888 2.8990271
2.7626081 2.320606 2.8712611
0.77797937 2.3733873 2.8978117
0.83098537 2.3774912 2.8907039
0.92985857 2.3795733 2.8852582
0.97084594 2.3802729 2.8834622
1.025045 2.3853824 2.8742409
1.0715414 2.3801994 2.8976061
1.1269211 2.3863986 2.8880026
1.184689 2.379178 2.8949711
1.2237245 2.3867786 2.8766825
1.2731938 2.3926716 2.8719428
1.3229523 2.3893151 2.8799481
1.3765538 2.3889713 2.8729172
1.4220953 2.3905756 2.8559108
1.4532042 2.3978417 2.8528283
1.574832 2.3975277 2.8761415
1.6021136 2.3976171 2.863055
2.761152 2.3685083 2.8697081
1.0311904 2.4027185 2.8687444
1.275003 2.4010839 2.8548641
1.3840919 2.4019992 2.8886347
1.4790695 2.4074693 2.8949921
1.5221888 2.4042089 2.8705158
1.5507128 2.4023092 2.8948176
1.634263 2.4048657 2.8581357
1.675542 2.4066982 2.8817027
1.7310184 2.409672 2.8716495
1.7811773 2.4196162 2.8891225
1.8241825 2.427423 2.8779526
1.8828561 2.4336519 2.8769579
1.9262627 2.4316723 2.8707294
1.9780847 2.4397202 2.8760209
2.0065808 2.4418759 2.8852711
2.060214 2.4490376 2.8641474
2.7249413 2.4438744 2.874887
2.7540894 2.4214137 2.8720305
2.0343297 2.4523699 2.8859324
2.1298316 2.4551039 2.877564
2.1682186 2.4560614 2.8784003
2.5787306 2.4674385 2.8759639
2.6201427 2.4646354 2.8576949
2.6613269 2.4635782 2.8792782
2.7263758 2.4555633 2.8693571
2.5947018 0.3346431 2.914722
2.5878155 0.47550473 2.9066479
2.5976696 0.5232228 2.9279013
2.5987961 0.55185181 2.9416659
2.6055694 0.58002543 2.9449079
2.6911256 0.63218415 2.9306755
2.7047372 0.65134352 2.9250517
2.7188804 0.73314774 2.9329982
2.7268372 0.77767217 2.9409451
2.7179742 0.82071173 2.9205117
2.7302628 0.87925929 2.919796
2.7249842 0.92634887 2.9190555
2.7359698 0.98231757 2.924964
2.7277477 1.0258784 2.9297841
2.7275136 1.0793589 2.9187329
2.7370956 1.1258805 2.9274375
2.7345815 1.1782085 2.9214268
2.730556 1.2242699 2.922735
2.7377331 1.2709684 2.9270375
2.7480228 1.3166995 2.9090827
2.7427535 1.3846494 2.9338949
2.7450309 1.4209601 2.9255195
2.7433224 1.4819611 2.92624
2.7381392 1.5144087 2.9184005
2.7420866 1.5520204 2.9199417
2.7538669 1.630417 2.9260445
2.7421863 1.6711532 2.9463437
2.7541263 1.6835526 2.9282486
2.7548983 1.7204267 2.924793
2.7573576 1.7585692 2.9227464
2.7618062 1.800558 2.9066873
2.7773182 2.1368425 2.9158263
2.7667902 2.154495 2.9360201
2.7666049 2.2337489 2.9097097
2.7604866 2.2760673 2.9211771
2.7592602 2.3040802 2.9253829
0.43266955 2.3653319 2.9472022
0.4846721 2.368274 2.9442389
0.5618757 2.3683507 2.9329176
0.61415219 2.3715696 2.9282985
0.69645172 2.3886147 2.9348099
0.73294795 2.376291 2.9199457
0.7744996 2.371881 2.9309313
0.8190794 2.375699 2.925724
0.87545145 2.3787985 2.9335146
0.92185277 2.3757489 2.9233217
0.97644746 2.3828621 2.9296441
1.0203868 2.3832972 2.9174626
1.0676485 2.3857822 2.9306428
1.122159 2.3821974 2.9295764
1.169791 2.381216 2.9252372
1.2260348 2.378876 2.9296081
1.2814311 2.3852561 2.9246125
1.3341042 2.3907652 2.9313462
1.3852991 2.3903806 2.9232683
1.4205633 2.3932722 2.9258957
1.456304 2.3965406 2.9286962
1.5225167 2.3969386 2.9402921
1.5891553 2.3964365 2.949981
1.6966347 2.3997905 2.9449747
2.7546768 2.3795984 2.9174626
1.4402075 2.402982 2.9054337
1.4862344 2.4009366 2.9221253
1.5245984 2.4041307 2.9096315
1.5720901 2.4028721 2.9265256
1.617813 2.4049735 2.9182596
1.6722795 2.4101133 2.9308541
1.7234491 2.4075933 2.9222338
1.7691503 2.4099631 2.923588
1.8253275 2.4226487 2.913573
1.8978784 2.4246655 2.9208188
1.9290668 2.4282212 2.9086785
1.9636025 2.4285026 2.9347043
2.7406392 2.4360609 2.9315701
2.7515652 2.4156888 2.9382434
2.0486345 2.4503019 2.9204819
2.0707061 2.4536343 2.912513
2.1755872 2.4559059 2.9219971
2.5431983 2.4589732 2.9036434
2.5706539 2.4551759 2.9302456
2.6248424 2.4641001 2.9260273
2.6684227 2.459013 2.9201832
2.7195401 2.4565859 2.932833
2.5936887 0.33906186 2.9800901
2.5924225 0.37474114 2.9783151
2.5962009 0.42846873 2.9731607
2.5974233 0.46273941 2.9532182
2.6015096 0.46663734 2.9914911
2.5937068 0.56347388 2.9679961
2.6048639 0.5928036 2.9762962
2.6887352 0.63585919 2.9620657
2.716614 0.68096751 2.9712317
2.7248161 0.77898389 2.982934
2.730067 0.8114298 2.9725516
2.7338169 0.88219833 2.971462
2.7315943 0.92255414 2.9733181
2.726043 0.97845602 2.9726131
2.7304704 1.005965 2.9760876
2.7449276 1.0673963 2.9746685
2.7532604 1.0931488 2.9955442
2.7320869 1.139238 2.9926214
2.7398484 1.1744186 2.977562
2.7331417 1.2243968 2.964323
2.7370594 1.2638725 2.9547079
2.7468843 1.4203949 2.9843795
2.7476623 1.4754357 2.9755344
2.7425566 1.5438685 2.9655988
2.754298 1.5213964 2.9914184
2.7425323 1.5589586 2.9794085
2.7544246 1.6395711 2.9786127
2.7467842 1.6858578 2.9881587
2.761013 1.6630592 2.9762228
2.7527649 1.7288145 2.974911
2.755867 1.7764542 2.9766269
2.7601924 1.8352067 2.9736562
2.7570107 1.8651317 2.9826498
2.7716227 2.0414522 2.9648969
2.7735243 2.0799351 2.9760926
2.7777176 2.1323547 2.9664965
2.7684479 2.1614199 2.9820757
2.7687278 2.2190495 2.9950318
2.7667201 2.2677944 2.977267
2.7675743 2.3282926 2.9723685
-0.03001287 2.3698761 2.9787865
0.064538226 2.3748109 2.9845378
0.32254303 2.3745439 2.9704406
0.38344413 2.3701482 2.9755912
0.40316376 2.3762395 2.997843
0.52147734 2.3796644 2.9535255
0.61487263 2.3623025 2.9612386
0.68599522 2.3776906 2.9912357
0.71401989 2.3823681 2.966022
0.77905095 2.3683658 2.9598508
0.81805611 2.3805537 2.9671919
0.93547142 2.3900497 2.9505827
0.98278224 2.3806958 2.9607477
1.1216017 2.3771307 2.9503644
1.1636171 2.3727546 2.9675531
1.2103188 2.3769379 2.9575081
1.3300606 2.3850689 2.9731593
1.3665464 2.3890536 2.9746351
1.4431056 2.3865392 2.9593549
1.473222 2.3890071 2.9743419
1.5236988 2.3948736 2.9774861
1.5624982 2.3979139 2.9646182
1.6026068 2.3981156 2.9880207
2.7550817 2.3665862 2.9768376
1.6352969 2.4068696 2.972142
1.6799835 2.4051726 2.9761028
1.7393813 2.4147213 2.9903014
1.7708772 2.4063079 2.960413
1.817289 2.4181082 2.9548819
1.9261672 2.4294474 2.9580317
1.9933826 2.4340813 2.97312
2.0219383 2.4452915 2.9753067
2.5752435 2.44876 2.9691322
2.6177127 2.4486952 2.9933696
2.7429705 2.4256392 2.9849453
2.7577178 2.4001997 2.9588289
2.561331 2.4550953 2.9918866
2.6261778 2.4572406 2.976295
2.6825919 2.4607625 2.9692721
2.7184572 2.4534991 2.9844165
2.5992401 0.39735314 3.0315242
2.592694 0.4764595 3.0370252
2.5933394 0.54217827 3.0226598
2.5980427 0.56123948 3.0253386
2.6094043 0.58721924 3.0289075
2.7258177 0.67678183 3.0323868
2.7248795 0.72281212 3.0220802
2.7316108 0.77098191 3.0196424
2.752835 0.82372808 3.0324402
2.7358432 0.92404968 3.0331693
2.7314935 0.96636045 3.0258293
2.7423048 1.0236712 3.0318482
2.7439108 1.0780028 3.0268281
2.753571 1.0744337 3.0018332
2.7351842 1.1389197 3.0348866
2.7499688 1.1832265 3.0385604
2.7457712 1.2195084 3.0206778
2.7476749 1.2741474 3.0164566
2.7539833 1.2995794 3.0017569
2.741447 1.3026661 3.0241911
2.7401371 1.3882756 3.0291963
2.745414 1.4295887 3.0191967
2.7461312 1.4685934 3.0037129
2.7522008 1.4822295 3.0471568
2.7496841 1.5393239 3.0188129
2.7538278 1.5123646 3.0363011
2.7596433 1.6641929 3.0165954
2.7514381 1.7403674 3.010746
2.7544279 1.8780938 3.0319402
2.7782431 1.9247174 3.0415585
2.7764997 2.0192056 3.0320306
2.7685099 2.0710039 3.0210278
2.7746181 2.1330459 3.0331783
2.7627819 2.173018 3.0143461
2.7644904 2.2218325 3.0356185
2.7683792 2.2665708 3.0136006
2.7651708 2.322892 3.0220745
0.37543681 2.3719604 3.0176804
0.40545517 2.3722856 3.0261595
0.49231279 2.3707139 3.0135288
0.6915161 2.3791881 3.0268526
0.70815825 2.375921 3.0193245
1.2848091 2.3785384 3.0487108
1.31646 2.3879354 3.0118117
1.5071166 2.3939312 3.0243933
1.5631684 2.3945963 3.0006802
1.6643212 2.3962898 3.041115
2.7550793 2.3740554 3.0225732
1.5362183 2.4105046 3.0372272
1.5518746 2.4058359 3.0231221
1.7181537 2.4151826 3.0235426
2.7333536 2.4353108 3.0222297
2.7521491 2.4108829 3.0446322
2.554441 2.4683208 3.0230439
2.6783841 2.4550819 3.0178838
2.709049 2.4523737 3.0470889
2.5899575 0.39867827 3.054713
2.5897503 0.41672781 3.0524242
2.5947938 0.4735927 3.0688014
2.5934174 0.5387485 3.0755198
2.605463 0.57790315 3.0841842
2.6156936 0.60565019 3.074506
2.7244334 0.69269693 3.0816588
2.7190177 0.72176564 3.0876012
2.7292256 0.77312249 3.0744462
2.7361271 0.82392329 3.0712609
2.7349424 0.87669814 3.0719912
2.7345223 0.92683756 3.0773807
2.7318029 0.97644997 3.0795426
2.7352467 1.0251263 3.0700171
2.7386062 1.0776062 3.0777097
2.7431126 1.1242656 3.0784199
2.7422533 1.1881168 3.0661573
2.7518435 1.1730502 3.0833106
2.745286 1.2224602 3.0779002
2.7452805 1.2750187 3.0790436
2.7419965 1.3120589 3.0612063
2.7513096 1.3358699 3.0642853
2.7292728 1.3925325 3.0537181
2.7556291 1.3767016 3.0947309
2.7413144 1.4278076 3.0553927
2.7499108 1.4615123 3.0528708
2.7546127 1.5235473 3.0743155
2.7626727 1.6481768 3.071588
2.7641351 1.6795516 3.0731828
2.7635009 1.7005816 3.0913391
2.7662585 1.8694675 3.0996275
2.7781363 1.9285131 3.0854797
2.767159 2.1224923 3.0763183
2.7711546 2.1751428 3.0751829
2.7613623 2.2360585 3.0713472
2.7615025 2.2761557 3.0713763
2.7643304 2.3293056 3.0672421
0.3758423 2.3705516 3.0951488
1.3772423 2.3937824 3.0769045
2.7615197 2.3765919 3.0830801
2.7333474 2.4228506 3.0696063
2.6874013 2.4518561 3.0622556
2.5895495 0.53635371 3.141794
2.7020426 0.63789666 3.1193395
2.7258074 0.71909481 3.1327193
2.7309115 0.77730012 3.1269372
2.7436092 0.82846093 3.131022
2.7352405 0.87963754 3.1181648
2.7358983 0.92210835 3.1240876
2.7414927 0.97719288 3.1291018
2.7312913 1.0307524 3.1015863
2.751081 1.0190071 3.1295264
2.7395957 1.0663579 3.120822
2.7439423 1.1296196 3.1263824
2.7429318 1.1795329 3.1188984
2.7431452 1.2247044 3.133754
2.7373061 1.2608856 3.1137052
2.7586718 1.2902697 3.1310563
2.7460976 1.3084798 3.1282916
2.7516901 1.3356329 3.11882
2.7455318 1.3618083 3.1279774
2.7505062 1.3937191 3.1223302
2.746978 1.4115314 3.110616
2.7451706 1.5303109 3.1430798
2.7523565 1.5332174 3.1092396
2.7619317 1.6743952 3.1309497
2.7465622 1.7024417 3.1103451
2.7529669 1.7264887 3.107878
2.7596254 1.7737387 3.1389389
2.7435946 1.8170815 3.1389444
2.7592266 1.8241886 3.1128368
2.7657185 1.8726573 3.1431575
2.7493124 1.9471351 3.1252198
2.7761259 1.9126848 3.1220486
2.7830112 1.9564618 3.1242099
2.7652738 2.0769901 3.124419
2.7650199 2.1263385 3.1194782
2.766093 2.1770661 3.1153066
2.7678277 2.2266579 3.1378551
2.7581177 2.2689741 3.1294949
2.7705457 2.3311405 3.1277075
0.38832605 2.3752036 3.1346838
0.6704486 2.3764846 3.1329942
1.1562304 2.3778715 3.129523
1.3477094 2.3885951 3.1204352
1.3941207 2.385525 3.1391764
2.7423451 2.3968434 3.1417449
2.7611196 2.3839107 3.1297016
2.7300942 2.4382429 3.1195681
2.6113296 2.4596243 3.1341679
2.6575921 2.4633007 3.1079631
2.5979505 0.47858724 3.18385
