ply
format ascii 1.0
comment PCL generated
element vertex 1512
property float x
property float y
property float z
element camera 0
property float view_px
property float view_py
property float view_pz
property float x_axisx
property float x_axisy
property float x_axisz
property float y_axisx
property float y_axisy
property float y_axisz
property float z_axisx
property float z_axisy
property float z_axisz
property float focal
property float scalex
property float scaley
property float centerx
property float centery
property int viewportx
property int viewporty
property float k1
property float k2
end_header
1.0269668 -0.47667393 1.731092
1.0749207 -0.47675842 1.7224572
1.13079 -0.47588217 1.7244024
1.1697496 -0.47118002 1.7235228
1.2325231 -0.47194842 1.7340255
1.2693835 -0.46992216 1.7237117
1.3245183 -0.47024989 1.724835
1.3697281 -0.46929321 1.7293319
1.4204503 -0.47032508 1.7213734
1.4788876 -0.47068629 1.7238888
1.5309982 -0.47001743 1.7362716
1.5800428 -0.46796137 1.7376516
1.6290216 -0.46395797 1.726759
1.6644495 -0.45930302 1.7040195
1.7202866 -0.45753634 1.7221081
1.8431727 -0.26442641 1.720971
1.846238 -0.22846052 1.7188113
1.8502754 -0.22012258 1.7330521
1.8442402 -0.1761663 1.722566
1.8525634 -0.15700926 1.7198936
1.8453833 -0.12308747 1.7260269
0.59547764 -0.076204166 1.7080953
1.8457457 -0.076316372 1.7241652
1.8514392 -0.055655938 1.7346979
0.29328379 0.24962278 1.7156162
0.31273004 0.24621023 1.729385
0.38381812 0.24602163 1.7388582
0.43249714 0.24636042 1.7336202
0.46816525 0.24727994 1.7341022
0.52178192 0.24717003 1.7227979
0.78222203 0.24554777 1.7083944
0.82810384 0.24753074 1.7234694
0.94298935 0.2479974 1.7452695
0.96171272 0.24460588 1.7084144
0.28552181 0.25010988 1.7198991
0.3688888 0.25012988 1.7094041
0.51069677 0.25002724 1.7462516
0.84389585 0.25087354 1.7302058
0.87316531 0.25158519 1.7253667
0.91437715 0.25059026 1.7014103
0.99657476 0.25111419 1.7499341
-0.26665294 -0.50289738 1.7581645
-0.24236023 -0.50223207 1.7746688
-0.17422219 -0.50160491 1.7668223
-0.14521405 -0.50288016 1.7676495
-0.071049184 -0.50117213 1.7972435
0.032986067 -0.50068748 1.7963002
-0.30722523 -0.49506891 1.7921244
-0.27301529 -0.4979485 1.7725945
-0.21468064 -0.49499139 1.7807214
-0.17389031 -0.49678007 1.7767605
-0.12103178 -0.4976913 1.7685119
-0.077828214 -0.4958134 1.7697428
-0.027211701 -0.49797082 1.7703619
0.015249469 -0.49694538 1.7722048
0.075122245 -0.49384758 1.7791469
0.12992606 -0.49123317 1.7676319
0.18108875 -0.4929496 1.779164
0.22451887 -0.49247217 1.7740951
0.26240304 -0.49179503 1.7765261
1.0229918 -0.47770745 1.7814082
1.0749753 -0.47636914 1.778967
1.1269349 -0.47482494 1.7701472
1.1740283 -0.47106487 1.7761843
1.2272546 -0.47111806 1.7754042
1.2777302 -0.4683013 1.770785
1.3313847 -0.46716991 1.775962
1.3716606 -0.46445611 1.7807955
1.4205103 -0.46692339 1.7631831
1.4803365 -0.4693884 1.7756447
1.5258147 -0.4696998 1.7716917
1.5773182 -0.4663229 1.7822382
1.6321925 -0.46172467 1.783856
1.6591974 -0.45509046 1.7948979
1.8460184 -0.26298031 1.774
1.850377 -0.26305979 1.7710328
1.8471227 -0.21672885 1.7732207
1.8547531 -0.22275548 1.7692295
1.8456322 -0.18020286 1.7661227
1.8526568 -0.17149962 1.7828388
1.8463807 -0.12838185 1.7655835
1.853353 -0.11964299 1.7817209
1.8460795 -0.07487759 1.7768102
1.8505505 -0.056173388 1.7656661
0.27743804 0.24949993 1.7775131
0.34771454 0.24621218 1.7773553
0.47795823 0.24523707 1.7825483
0.83510774 0.2445827 1.7564929
0.878977 0.24674204 1.7590374
0.96735483 0.24380606 1.7808098
1.0089732 0.2448297 1.7726976
0.27493185 0.25558954 1.7798086
0.41848969 0.25157207 1.7741092
-0.91935998 1.2334173 1.7807844
-0.89504975 1.2361983 1.7861847
-0.28919631 -0.50214887 1.8202438
-0.23038152 -0.5010252 1.8217491
-0.17979664 -0.50143057 1.8270019
-0.13722745 -0.50250477 1.8266103
-0.30917144 -0.4964664 1.8320365
-0.2733475 -0.49866194 1.8240346
-0.22874707 -0.49735591 1.8083328
-0.17535308 -0.49688911 1.8314784
-0.1195716 -0.49597389 1.8310963
-0.069111399 -0.49685827 1.8268534
-0.025570735 -0.49485543 1.8216701
0.025978925 -0.49489534 1.8203909
0.07657329 -0.49457824 1.8259436
0.12094668 -0.49255589 1.8206716
0.17366257 -0.49211419 1.8200754
0.22598141 -0.49308422 1.8237
0.2674183 -0.49114129 1.8283383
1.0253249 -0.47497526 1.8204151
1.0771062 -0.47126159 1.8177439
1.1343002 -0.47386813 1.8159802
1.1794558 -0.46876305 1.8314435
1.2231091 -0.4725394 1.8233364
1.2677488 -0.47021329 1.8147449
1.3222163 -0.46478415 1.8224093
1.3792289 -0.46308795 1.8299589
1.4264621 -0.46111205 1.8210436
1.4758362 -0.46714389 1.8251026
1.5299677 -0.4685111 1.8302379
1.5722452 -0.4639844 1.8192159
1.6222601 -0.45963144 1.8155825
1.8585924 -0.26092717 1.827536
1.8594146 -0.22862241 1.8251959
1.8562591 -0.17361253 1.8214582
1.8561164 -0.12435826 1.8208071
1.8441242 -0.068235524 1.8019379
1.8555657 -0.078279816 1.8301805
0.24567309 0.2479088 1.8338987
0.27405778 0.24751619 1.8282573
0.30480206 0.24920069 1.8377022
0.38867164 0.24879092 1.8240029
0.42825434 0.24856615 1.816337
0.45979393 0.24882549 1.8130956
0.90652674 0.24506208 1.8152126
0.97892153 0.24792826 1.8127811
1.012921 0.24478047 1.8292489
0.25533485 0.25316128 1.8061922
0.37774047 0.25037143 1.8374735
0.95630807 0.25071788 1.8463644
-0.95061439 1.2463892 1.8308048
-0.91926658 1.2357601 1.8308244
-0.27656469 -0.50085342 1.8665663
-0.22840399 -0.50084454 1.8563474
-0.17525008 -0.50024104 1.8851399
-0.10692989 -0.50062925 1.8628823
-0.31003639 -0.49606785 1.8666347
-0.28335306 -0.49758029 1.8752786
-0.22594984 -0.49840921 1.8732607
-0.16886522 -0.49764794 1.8666587
-0.12638962 -0.49641058 1.8823344
-0.079978228 -0.49699402 1.8740921
-0.023821244 -0.49611777 1.8735521
0.025197303 -0.49520358 1.873215
0.075535484 -0.49071029 1.8761381
0.12389629 -0.49310231 1.8789482
0.16893545 -0.49189159 1.8786347
0.22081965 -0.4920525 1.8762232
0.27170271 -0.4925074 1.879369
1.0248537 -0.47896016 1.8753061
1.0801909 -0.47641036 1.8840324
1.1286992 -0.47282961 1.8777435
1.175396 -0.472891 1.8764676
1.2331605 -0.47235835 1.8828679
1.2782198 -0.4703998 1.8848797
1.3274847 -0.46827826 1.8794198
1.3808665 -0.46429375 1.8838108
1.4042735 -0.46135208 1.8688359
1.4599222 -0.46163785 1.8694741
1.5196977 -0.46637985 1.8769141
1.5648121 -0.46634153 1.86362
1.6383232 -0.46179658 1.8561044
1.6785347 -0.45528173 1.8608184
1.8665826 -0.26712665 1.8860992
1.8496475 -0.23596042 1.883409
1.8562194 -0.22888929 1.8710554
1.8562694 -0.17693967 1.865409
1.8585527 -0.12290408 1.8684154
1.8590667 -0.075814918 1.8710283
2.2730775 -0.038081393 1.8921349
2.3106089 -0.02512593 1.8869665
2.3180704 0.0013423987 1.8931518
0.24390444 0.24619082 1.8902292
0.29302576 0.24534014 1.8789809
0.32129145 0.24609247 1.8817394
0.38036767 0.24706964 1.882007
0.41389358 0.24696654 1.8764813
0.46488288 0.24496625 1.8526747
0.91324592 0.24720252 1.8748226
0.98499471 0.24584997 1.8800812
1.0016253 0.24511099 1.8667812
-0.95404881 1.2322872 1.8817296
-0.92015731 1.2233546 1.8705311
-0.31917858 -0.50120419 1.9232262
-0.28163987 -0.50173318 1.9292164
-0.20385808 -0.50142956 1.9156742
-0.13007511 -0.50146198 1.9389272
-0.082531564 -0.50007516 1.9352865
-0.32149515 -0.49444351 1.9288963
-0.27308568 -0.49578032 1.9178302
-0.22809832 -0.49522856 1.9086093
-0.18088332 -0.49803555 1.9228866
-0.11997922 -0.49704653 1.929858
-0.074154578 -0.49408042 1.931384
-0.024062462 -0.49408343 1.919494
0.028239712 -0.49354857 1.9253492
0.075650483 -0.4921968 1.9279034
0.12684718 -0.49107966 1.9205961
0.17417939 -0.49255222 1.9238662
0.2282588 -0.49361825 1.9353456
0.27527162 -0.49190161 1.9189386
0.30715901 -0.49512023 1.9396352
0.99739319 -0.4768616 1.9198841
1.0260155 -0.47641474 1.9214236
1.0850465 -0.47618738 1.9337645
1.1277624 -0.47363716 1.9299916
1.1714009 -0.47136778 1.9263532
1.2246829 -0.47044578 1.9251471
1.2726303 -0.46917483 1.9239212
1.3398812 -0.46704394 1.9388214
1.3620251 -0.46593761 1.9201678
1.4175494 -0.46195775 1.9312012
1.4763178 -0.46099073 1.9246843
1.5043275 -0.45549461 1.9082247
1.5781384 -0.46406543 1.9138981
1.6071813 -0.4658986 1.9056841
1.6780118 -0.4530184 1.9276875
1.8610079 -0.25776875 1.9265921
1.8599693 -0.21936414 1.925752
1.8617836 -0.1713559 1.9186573
1.8645129 -0.12305266 1.9227494
-0.75464952 -0.062965974 1.9382381
-0.74348307 -0.065474369 1.9439424
1.8605256 -0.076850727 1.9169042
-0.75689518 -0.029083584 1.9445426
-0.74753833 -0.038842957 1.9480017
2.2662108 -0.025233222 1.9350573
2.2843831 0.020478971 1.9313965
2.3085284 0.03462141 1.9215524
2.2989085 0.054656733 1.9376302
2.3120871 0.074497908 1.911257
0.27997953 0.24991152 1.9158471
0.33767533 0.24221988 1.9231014
0.36924124 0.24462371 1.9387542
1.0115758 0.24238399 1.9317012
0.27116704 0.25031835 1.919849
-0.9623884 1.2319567 1.9041724
-0.27648687 -0.50007266 1.9623876
-0.24802251 -0.50086421 1.9680699
-0.15149289 -0.50022882 1.9720697
-0.31180304 -0.49651355 1.9769589
-0.27129367 -0.49629098 1.9765768
-0.22370896 -0.49551606 1.968796
-0.18081833 -0.49610856 1.9769754
-0.12570544 -0.49614069 1.9799534
-0.062493719 -0.49249777 1.9744729
-0.027431663 -0.4928025 1.966226
0.018953556 -0.49462155 1.9764711
0.07698302 -0.49282551 1.9754239
0.13011771 -0.49006876 1.9816126
0.17926461 -0.48958552 1.9771447
0.22318457 -0.49140945 1.9792198
0.27750808 -0.4904708 1.9757426
0.3105835 -0.49237293 1.9787102
0.99474466 -0.48280925 1.9755852
1.0221207 -0.47722897 1.9820238
1.0786736 -0.47214094 1.9705393
1.1328537 -0.47464293 1.9720936
1.1766468 -0.46927771 1.970692
1.2260107 -0.46666217 1.9738474
1.2741342 -0.4669075 1.9722394
1.3252566 -0.46762294 1.9777184
1.3698741 -0.46387562 1.9695326
1.4066252 -0.46749514 1.9704607
1.5420547 -0.45551971 1.9582822
1.6272827 -0.4668428 1.9759166
1.7090391 -0.45270252 1.9881071
1.5728577 -0.44965759 1.9773811
1.6969705 -0.44637629 1.9517672
1.8583364 -0.26079869 1.9690918
1.8685945 -0.22554307 1.9837693
1.8693752 -0.1773791 1.9715574
1.8701452 -0.12960424 1.9714282
-0.71269268 -0.062621966 1.9605563
-0.67409158 -0.071972996 1.97497
-0.62861508 -0.074358605 1.9886453
-0.58133715 -0.084670596 1.9741542
1.8661872 -0.080242425 1.9716203
-0.71953285 -0.030483222 1.9640175
-0.67635155 -0.030181235 1.9845992
-0.64379865 -0.033138394 1.9966347
2.1672878 -0.031730648 1.99432
2.2281585 -0.023649953 1.9725584
-0.72442937 0.033705074 1.9825338
-0.67707533 0.013555744 1.992263
2.1987119 0.027538192 1.9984437
2.2256422 0.015866905 1.9870557
2.2600679 0.027820513 1.9640681
-0.71806389 0.070359997 1.9934701
2.2401235 0.076652028 1.9849077
2.2668693 0.064641893 1.9716141
2.2926893 0.11602147 1.9920456
0.28030849 0.24498349 1.9515419
0.88718361 0.24568562 1.9749731
0.9754349 0.24598567 1.979358
1.0072154 0.24624285 1.9702294
-0.29276174 -0.50044036 2.0452418
-0.12523317 -0.501028 2.0169454
-0.32318425 -0.49437508 2.0256329
-0.2651144 -0.49561951 2.0277991
-0.22091758 -0.49431229 2.018904
-0.17518795 -0.49349958 2.0255146
-0.12594365 -0.49374166 2.0289388
-0.080242999 -0.49370235 2.0183909
-0.023197597 -0.49610576 2.0328479
0.022143407 -0.49184659 2.0237782
0.072806098 -0.48884544 2.0175951
0.11845019 -0.48701882 2.0184996
0.17472994 -0.48884359 2.0319562
0.2189794 -0.49243373 2.0354099
0.26963514 -0.49187097 2.0333581
0.32461149 -0.49299079 2.0283406
0.94865781 -0.4780812 2.0482197
0.97673142 -0.48148036 2.0284684
1.0226748 -0.47767097 2.0341291
1.0683336 -0.47450444 2.0243495
1.1223223 -0.47339025 2.015907
1.174823 -0.47070584 2.039161
1.2139474 -0.4678525 2.0311992
1.288643 -0.46720535 2.0307384
1.3272364 -0.46535289 2.0343101
1.3822625 -0.46127909 2.0154877
1.6729113 -0.46792284 2.0336461
1.5134009 -0.44919273 2.0116239
1.6109508 -0.44872755 2.0274467
1.8767682 -0.26069859 2.0356638
1.870984 -0.22860886 2.0286582
1.8710679 -0.17371896 2.0197587
1.8733205 -0.1310962 2.0229542
-0.61819053 -0.059025124 2.0025632
-0.57326698 -0.068403669 2.0146232
-0.52570999 -0.070204921 2.0387795
-0.49197945 -0.076268606 2.0477965
1.8761399 -0.077036686 2.0261075
-0.659796 -0.0097884322 2.0012779
-0.6190322 -0.027220689 2.0122542
-0.57475871 -0.030445449 2.0291972
-0.53287673 -0.035113774 2.043236
1.9041191 -0.048940673 2.0203102
2.0461552 -0.037907049 2.048327
2.077775 -0.025071563 2.0434153
2.1198165 -0.012087944 2.0233564
-0.70276439 0.03984144 2.0016012
-0.66816914 0.031641625 2.0073771
-0.62556875 0.022230044 2.0231063
-0.58414263 0.017613437 2.0433059
-0.54775655 7.3381954e-05 2.0497291
2.135493 0.0141599 2.0381937
2.1681304 0.029084139 2.0195165
2.2009809 0.040806074 2.0002856
-0.70899582 0.08967042 2.0028272
-0.67695874 0.077180982 2.0153441
-0.62928849 0.071686745 2.0365696
-0.59426528 0.057763021 2.045831
2.1428561 0.060431246 2.0444698
2.1809189 0.064757481 2.0256693
2.210849 0.06758716 2.0085814
-0.70933437 0.13045461 2.0176349
-0.67319363 0.12228609 2.0317922
-0.63532287 0.11427747 2.0446999
2.1866536 0.12788966 2.0458047
2.2281568 0.12785625 2.0271518
2.2700536 0.12513977 2.0042293
-0.71134406 0.16651516 2.0277574
-0.67601925 0.1602307 2.0410337
2.2365522 0.16977248 2.0391474
2.2640104 0.17662968 2.0130706
2.3251014 0.17196134 2.0040638
0.27939844 0.24291009 2.014097
0.31573233 0.24477217 2.026217
0.38606074 0.24590421 2.0276423
0.87862271 0.2460677 2.0125294
0.95355666 0.24826139 2.0085666
2.2898042 0.20533773 2.0210795
0.38036373 -0.50020152 2.0787673
-0.32371959 -0.48932874 2.0613103
-0.27543747 -0.49365488 2.0695164
-0.22919336 -0.49368793 2.0659523
-0.17912409 -0.49259061 2.0734673
-0.12863918 -0.49458241 2.0754828
-0.078009181 -0.49377269 2.0737472
-0.031022316 -0.49589947 2.0762541
0.020586729 -0.48910323 2.0638938
0.074322172 -0.48808351 2.0720332
0.12529825 -0.48882782 2.0735698
0.17403521 -0.48894796 2.0718057
0.22735983 -0.49181712 2.0804873
0.27448401 -0.49031278 2.081567
0.33596319 -0.49361068 2.0784945
0.369113 -0.49341252 2.0835242
0.88610035 -0.48166102 2.0855923
0.92495245 -0.47902912 2.0811369
0.97361743 -0.47444829 2.0769992
1.0265999 -0.47480124 2.0718787
1.0733898 -0.46951944 2.0737891
1.1311125 -0.47131443 2.0729744
1.1628749 -0.46771806 2.0775352
1.2074863 -0.46816954 2.0735538
1.2760531 -0.46540251 2.073652
1.3142966 -0.46071145 2.0699832
1.3609129 -0.45608923 2.0656757
1.4283657 -0.45728368 2.0740485
1.4874846 -0.45541584 2.0670362
1.5983557 -0.45527518 2.0799613
1.8752913 -0.25771713 2.0817242
1.8775748 -0.22311468 2.0677922
1.8754932 -0.17845072 2.0702538
1.8754182 -0.12461148 2.0713506
-0.5066039 -0.059832063 2.0514643
-0.4707886 -0.063693397 2.061667
-0.42763385 -0.066849485 2.0803394
1.8801936 -0.078162305 2.0738933
1.9124585 -0.050185688 2.099977
-0.51556003 -0.020860387 2.0574744
-0.47598773 -0.027687317 2.0737312
-0.42900145 -0.026271878 2.095006
1.9771148 -0.028104436 2.0859458
2.0213265 -0.023379605 2.0686297
2.0619648 -0.016432181 2.056215
-0.5651741 0.026556896 2.05387
-0.52303857 0.019860145 2.0667129
-0.47639972 0.018986927 2.0885472
-0.44414574 0.0051382165 2.0976753
1.9996568 0.013772299 2.0977383
2.0226245 0.019073937 2.0899024
2.0734437 0.01982417 2.0674696
2.1194031 0.027307829 2.0570617
-0.60623109 0.078711465 2.0535474
-0.57031143 0.071549751 2.0609987
-0.52525616 0.071161821 2.0839329
-0.48869085 0.059658565 2.0951009
2.0435686 0.053169172 2.0939393
2.0745168 0.066693701 2.0881138
2.1180289 0.075863712 2.0693672
-0.62056786 0.12366996 2.0577738
-0.57452607 0.12323594 2.0765154
-0.53605783 0.11319127 2.0909841
2.084697 0.12924053 2.0940051
2.1187685 0.13632582 2.0822031
2.1610918 0.14086941 2.0583153
-0.65688157 0.18027513 2.0643947
-0.62537384 0.16459683 2.0667503
-0.57742602 0.16301121 2.0884967
2.0970685 0.15993299 2.0939867
2.1387331 0.16591333 2.0933189
2.1674893 0.17855641 2.0743146
2.2122321 0.1896334 2.0529773
0.32345998 0.24070333 2.0762858
2.1725025 0.20584494 2.0768816
2.2247257 0.20425144 2.0634181
-0.33151674 -0.5011735 2.134325
-0.35040751 -0.47757009 2.1231966
-0.32324532 -0.49103194 2.131294
-0.27955383 -0.49504137 2.1283352
-0.22362022 -0.4925409 2.1238527
-0.17439356 -0.49095154 2.1224742
-0.12483469 -0.49261853 2.1276116
-0.081213549 -0.49096173 2.1196473
-0.029946564 -0.49134731 2.116688
0.021218082 -0.49253112 2.1232953
0.075092748 -0.48818773 2.1316032
0.12642623 -0.48864728 2.1226921
0.17661196 -0.48839307 2.1203225
0.23023431 -0.49039835 2.1246138
0.26104471 -0.49088487 2.1197038
0.31958836 -0.49015605 2.116951
0.37835762 -0.49048266 2.1296334
0.42086777 -0.49121749 2.1277072
0.45613763 -0.49554464 2.1419907
0.8780508 -0.47948799 2.1323338
0.92035264 -0.47677752 2.1250155
0.97790498 -0.47447729 2.1333256
1.0216527 -0.47319004 2.1268797
1.0759829 -0.46760491 2.1234252
1.1209564 -0.46425536 2.123982
1.1795499 -0.46582195 2.1369777
1.2300148 -0.4649725 2.1243217
1.2729226 -0.46508521 2.1265342
1.3130326 -0.4593358 2.1086254
1.3697544 -0.45910311 2.1276703
1.5213276 -0.45382485 2.1161294
1.5531237 -0.45612213 2.1129234
1.8680195 -0.2578201 2.1173923
1.8822755 -0.22462453 2.1207542
1.8809367 -0.17214212 2.1210182
1.8885882 -0.12074054 2.1309097
-0.40360704 -0.060872782 2.1029212
-0.39745602 -0.066574313 2.1254928
1.8882374 -0.078486659 2.1297376
1.9052613 -0.050524637 2.127934
-0.40716928 -0.022357963 2.1111083
-0.39944601 -0.041186552 2.1365666
1.9228759 -0.024944117 2.1236687
1.9609709 -0.018546443 2.1050677
-0.45579156 0.030623242 2.1029599
-0.42532659 0.021888342 2.1169262
1.9302275 0.017621184 2.1345851
1.9708725 0.022756113 2.1106734
2.0028698 0.039763972 2.1007853
-0.4720355 0.0771356 2.1104298
-0.43530852 0.069928952 2.1304107
1.9299183 0.052445937 2.143033
1.9743242 0.072365537 2.130358
2.0233886 0.075028755 2.1131694
2.0565543 0.08642105 2.1062388
-0.51617038 0.13013306 2.1081758
-0.47407249 0.1227368 2.1252649
-0.43206564 0.11219343 2.1392448
1.976523 0.10530791 2.1437409
2.0283651 0.12599109 2.1314232
2.061986 0.12624638 2.1099737
-0.55565119 0.17704789 2.1078112
-0.52677453 0.17231646 2.1185431
-0.48069793 0.16904296 2.137763
2.0370102 0.1811341 2.1449366
2.0737584 0.17361294 2.1232228
2.120074 0.18179135 2.1154249
2.0410175 0.20659196 2.144695
2.0689077 0.2047625 2.1282675
2.1221855 0.20208192 2.1158457
-0.32631874 -0.48814124 2.1734986
-0.27541173 -0.49244362 2.1780138
-0.16809779 -0.48927915 2.1743307
-0.12405957 -0.48972002 2.1761811
-0.067771889 -0.48951164 2.1788566
-0.028878704 -0.49257928 2.1705198
0.029021449 -0.49044102 2.1755581
0.073076695 -0.48703775 2.1758206
0.12509058 -0.48948103 2.1793871
0.17966306 -0.482418 2.1689103
0.22687759 -0.48890305 2.1771786
0.27904895 -0.49146503 2.1710794
0.32752916 -0.48979577 2.1808968
0.37632161 -0.48791513 2.1814935
0.43380079 -0.48856372 2.172998
0.47548193 -0.48877072 2.183383
0.51742363 -0.4983111 2.1950846
0.56126529 -0.4879238 2.191545
0.8701182 -0.47494385 2.1685433
0.92719275 -0.47678682 2.1612504
0.97652346 -0.47447336 2.1737006
1.0183963 -0.47367671 2.1760271
1.0648842 -0.46859914 2.1640198
1.1076722 -0.47156647 2.1967936
1.1797216 -0.46121877 2.1775818
1.2390071 -0.46177226 2.156359
1.2697849 -0.46456766 2.1592948
1.3321891 -0.45637572 2.1534944
1.3807251 -0.45486307 2.1962681
1.4037089 -0.45068151 2.1586254
1.4743994 -0.4559871 2.1560564
1.5217354 -0.44906637 2.16626
1.8872232 -0.22323035 2.172858
1.8921587 -0.17456925 2.1804984
1.8908527 -0.12257437 2.1819
1.890714 -0.068315759 2.1741853
1.8950973 -0.025233647 2.1772661
1.8931353 0.026563074 2.1749172
1.905542 0.013615 2.1567466
-0.41323793 0.071753539 2.159853
1.8944983 0.055734858 2.1760182
1.9142501 0.080282323 2.1703935
-0.42683744 0.12955189 2.1586936
1.9224609 0.1247431 2.1808991
1.9706211 0.13567314 2.1603844
2.009217 0.14595909 2.152463
-0.46061936 0.18190192 2.161876
-0.43463957 0.16888069 2.1673086
1.8959774 0.17036872 2.1970887
1.9256579 0.16671592 2.1903439
1.9748572 0.17716938 2.1782033
2.0155602 0.18903443 2.1612628
1.9729857 0.21156015 2.1701355
2.0054207 0.21293148 2.1683576
-0.35892206 -0.49315533 2.2440159
-0.32032809 -0.48995128 2.2330387
-0.28148282 -0.49251017 2.2228117
-0.14934298 -0.48884308 2.239862
-0.072484121 -0.48550063 2.2168653
-0.021964343 -0.49070644 2.2298467
0.020761508 -0.48765352 2.2291462
0.078419484 -0.48658293 2.2318349
0.12651548 -0.48439294 2.2203362
0.16959715 -0.48427513 2.2179022
0.22339746 -0.484366 2.2151752
0.26526242 -0.48587427 2.22945
0.32851422 -0.48865896 2.2263207
0.37819052 -0.48826507 2.236758
0.42181125 -0.48409295 2.2170691
0.47876301 -0.48325834 2.2357132
0.52630782 -0.48807466 2.2217302
0.5803923 -0.48779041 2.2257292
0.61001271 -0.49005425 2.210536
0.68287593 -0.48341092 2.2113883
0.92523766 -0.47808546 2.2284157
0.97047049 -0.47068167 2.2223659
1.0280932 -0.46950415 2.2317231
1.0713978 -0.46688277 2.2308335
1.1265815 -0.46257779 2.2228475
1.1703514 -0.46136263 2.2340095
1.2392813 -0.46553153 2.249012
1.298676 -0.45554435 2.2378664
1.3236836 -0.46367273 2.2016814
1.8929281 -0.25039911 2.2374377
1.8931131 -0.22952901 2.2228172
1.9004993 -0.21160507 2.2497578
1.8906759 -0.17229359 2.2241783
1.8906485 -0.12328231 2.2291811
1.8933034 -0.071400441 2.2172928
1.9021965 -0.065269448 2.2341075
1.8918738 -0.028916072 2.2287593
1.8956202 0.020391822 2.2228491
1.9028294 0.013854162 2.2355127
1.8951912 0.073135309 2.237844
1.9025819 0.079405114 2.2153974
1.8947135 0.12645942 2.2311418
1.9011213 0.12283961 2.2057426
1.8935422 0.17576294 2.2328336
1.9154018 0.18710534 2.2101347
1.8985646 0.21125835 2.2219088
1.9241138 0.21191931 2.2142754
-0.32323036 -0.49179876 2.2677951
-0.12148481 -0.49080229 2.2724681
-0.090730265 -0.48941034 2.2706861
-0.026728323 -0.48563099 2.2804811
0.019485027 -0.48739535 2.2888222
0.080386147 -0.4875845 2.2888443
0.12488001 -0.48820826 2.290472
0.17404166 -0.48614505 2.2786434
0.22451217 -0.48774523 2.2832594
0.28424275 -0.48829892 2.2681386
0.31843519 -0.48717794 2.2732008
0.37463996 -0.48649144 2.2733452
0.42198884 -0.48331773 2.2848332
0.47973758 -0.485704 2.2803464
0.52532417 -0.48299557 2.2827687
0.57693207 -0.4839049 2.2788265
0.62901831 -0.48499703 2.2748764
0.67123795 -0.48210335 2.2771842
0.72043133 -0.48391211 2.2802291
0.89299905 -0.47375175 2.2769244
0.92154461 -0.47256628 2.2625456
0.97025198 -0.46798387 2.2664583
1.0137889 -0.46721941 2.2706153
1.0762597 -0.46141934 2.2854917
1.1207969 -0.45748791 2.2828324
1.159428 -0.46468055 2.2750089
1.2211354 -0.45898128 2.2660284
1.2857422 -0.45950896 2.2676849
1.8932092 -0.25221062 2.2628331
1.89766 -0.1781164 2.2739692
1.9027232 -0.19857173 2.2533822
1.8947945 -0.12779105 2.2795575
1.8964897 -0.071406975 2.2772467
1.9021338 -0.079154268 2.2649381
1.8977239 -0.025996134 2.2669153
1.9012828 -0.021569282 2.2754152
1.8981555 0.010652856 2.2737739
1.9012722 0.02728668 2.2668831
1.8947566 0.078760386 2.2684994
1.8939638 0.12982196 2.2844627
1.9003308 0.13423826 2.2792828
1.890433 0.17623104 2.2775648
1.8898685 0.20133412 2.2878306
-0.14320296 -0.49428862 2.3183579
-0.074361168 -0.48832548 2.3197386
-0.024122244 -0.48595876 2.3256202
0.034457929 -0.48806271 2.3356731
0.070321068 -0.48782921 2.3230081
0.12662259 -0.48704603 2.32393
0.17756006 -0.48454729 2.3255334
0.22226477 -0.48372611 2.3190427
0.27371135 -0.48529068 2.3229575
0.32586202 -0.48721394 2.3278284
0.36916494 -0.48378181 2.3182616
0.43977013 -0.48233521 2.3297472
0.47358903 -0.48194912 2.3234313
0.54597878 -0.48012072 2.3230681
0.58047962 -0.48019502 2.3177941
0.61969697 -0.48405749 2.3304462
0.68068719 -0.48235196 2.3102481
0.72593063 -0.47952265 2.3229682
0.92596656 -0.47112241 2.3182168
0.9712472 -0.46843919 2.3308911
1.0241114 -0.46554598 2.3259602
1.0709103 -0.45948869 2.3184571
1.1357807 -0.46009848 2.3289146
1.1748426 -0.46113569 2.3210783
1.2197883 -0.45938993 2.3315964
1.2664605 -0.45352283 2.3156257
1.8973997 -0.24463068 2.3457139
1.9042864 -0.208327 2.3053699
1.9025543 -0.16832446 2.318763
1.8976114 -0.12027063 2.3023398
1.9039793 -0.14189918 2.3347812
1.8964689 -0.066798806 2.3154368
1.9037739 -0.080229595 2.3112192
1.8953196 -0.033162475 2.3273695
1.9017414 -0.026290081 2.3096907
1.8939339 0.019434053 2.3103745
1.9018795 0.00063553272 2.3099711
1.8934472 0.070613332 2.3139935
1.9006265 0.067914411 2.307544
1.8822284 0.13480985 2.3080273
1.8843031 0.17529173 2.3083017
1.882262 0.20194018 2.3039811
2.1412854 2.4294271 2.3381271
2.1808307 2.4264936 2.3479443
2.2215059 2.4367733 2.3266218
2.2686858 2.4367237 2.3462143
-0.066057079 -0.48667279 2.377655
-0.019923698 -0.48122597 2.3705945
0.014444503 -0.48503923 2.3701782
0.090785772 -0.48510662 2.3694439
0.1176263 -0.48168966 2.371032
0.1641258 -0.48352987 2.3783107
0.24685381 -0.48773199 2.394381
0.27420416 -0.48037767 2.3677938
0.32820329 -0.48297414 2.3742011
0.37949577 -0.48066139 2.3774469
0.42169002 -0.48034251 2.3711698
0.47646746 -0.47922394 2.3887312
0.52432942 -0.48294348 2.3749709
0.57739669 -0.48054516 2.3805761
0.61053932 -0.47893357 2.3667433
0.68203294 -0.47991511 2.3585892
0.72212636 -0.47730488 2.3685181
0.93727762 -0.46693331 2.3593612
0.97578716 -0.46502286 2.3724527
1.0257044 -0.46571743 2.3616133
1.0928723 -0.45891395 2.3735962
1.1612225 -0.45559147 2.3680248
1.2568719 -0.45899084 2.3533952
2.0142868 2.4139814 2.3980401
2.2275829 2.4406877 2.3803546
2.2510192 2.4286406 2.3872132
2.3186729 2.4432456 2.3646059
2.1229775 2.4590461 2.3960512
-0.061307162 -0.48522067 2.4195991
-0.032312535 -0.4856689 2.437151
0.026276596 -0.48736209 2.4156065
0.071688347 -0.48435742 2.4278522
0.10821521 -0.47937289 2.4190938
0.27878109 -0.48445544 2.4358637
0.32235649 -0.48489866 2.4345858
0.38014853 -0.47715187 2.4205794
0.42450219 -0.47321957 2.4139347
0.46859321 -0.47739545 2.4430282
0.52604485 -0.47541213 2.4247684
0.58162963 -0.47846204 2.4195411
0.99807501 -0.4665705 2.4108119
1.0830536 -0.45904472 2.4150968
1.9830974 2.4185059 2.4252994
2.0225918 2.4167984 2.4379449
2.0624208 2.4315882 2.4210052
2.1249197 2.4442494 2.4270995
2.1784825 2.4412448 2.4249582
2.2094588 2.4421749 2.4373469
2.283628 2.4262142 2.4035275
2.3239226 2.4404774 2.4208555
2.2895038 2.4518352 2.4414458
2.3971946 2.4503846 2.4081936
2.4175913 2.4526236 2.4418383
-0.064800255 -0.4829677 2.4797027
-0.020848688 -0.48958847 2.4722018
0.02303304 -0.48391774 2.4850938
0.070933908 -0.47902739 2.4802215
0.14604838 -0.47666311 2.4658673
0.24101478 -0.47591054 2.4570644
0.27779162 -0.4777934 2.4642839
0.32689619 -0.47977957 2.4706411
0.37160099 -0.48326188 2.4846723
0.42645401 -0.47159171 2.4825749
0.47984147 -0.47671106 2.4815266
0.52148902 -0.47558802 2.4920478
0.58916861 -0.4760724 2.4846098
0.62080055 -0.47543827 2.4759374
0.77315265 -0.47178927 2.496598
1.8840742 2.4148405 2.4830463
1.9378746 2.4187312 2.4753528
1.9673871 2.4233027 2.470264
2.0223777 2.4287586 2.4776554
2.0732803 2.4380412 2.47967
2.1187637 2.440243 2.4741569
2.1681778 2.4377406 2.4869223
2.2082133 2.4426327 2.482091
2.2649655 2.4457228 2.470161
2.3247871 2.4456055 2.4800746
2.3070102 2.4521172 2.4736369
2.4337406 2.4596753 2.4874508
2.4781785 2.4572489 2.4747429
2.5158987 2.4571757 2.4706497
-0.11775324 -0.48323867 2.5009289
-0.027253389 -0.48148283 2.5151746
0.012172401 -0.47730422 2.5202768
0.067325145 -0.48014063 2.5349457
0.32731903 -0.47712907 2.5220816
0.38295293 -0.47778526 2.5204389
0.42858851 -0.47452724 2.5321188
0.4861353 -0.4705756 2.5207691
0.52284479 -0.47013476 2.5307319
0.57825702 -0.4756496 2.5299675
0.6308558 -0.47142267 2.5392747
0.71719939 -0.46335876 2.5324376
1.8204941 2.4072084 2.521131
1.8727007 2.4164145 2.5334978
1.9350735 2.4299037 2.5288742
1.975853 2.4185803 2.5269976
2.0244803 2.4348497 2.5280833
2.0767672 2.4301345 2.5181022
2.1151185 2.4296408 2.5240517
2.1841285 2.4380763 2.5349612
2.2467525 2.4465504 2.5060182
2.2719975 2.4454479 2.5313425
2.3065567 2.4433906 2.5264091
2.6599474 2.4446347 2.5332551
2.381386 2.4539535 2.5145535
2.4178076 2.4532039 2.5334489
2.4728189 2.4610317 2.5312524
2.5478747 2.4692352 2.5152934
-0.067117691 -0.47930083 2.5696349
-0.024193605 -0.47419626 2.5743775
0.019613048 -0.46985614 2.5644798
0.071703956 -0.47360086 2.5843453
0.34054759 -0.47474319 2.5765302
0.37067035 -0.47333863 2.5660472
0.42724153 -0.47390133 2.5633421
0.49577886 -0.46721816 2.5895634
0.55487937 -0.47636214 2.5607324
0.80360967 -0.4699223 2.5528717
2.8955491 0.43692198 2.5996528
2.9210732 1.1792973 2.5986266
2.7846808 2.3420148 2.56955
2.8099356 2.3271437 2.5723433
2.7671468 2.372215 2.5825558
1.7454641 2.4285626 2.587795
1.7768469 2.4211597 2.5744939
1.8255653 2.4150741 2.5811136
1.8799913 2.4194722 2.5751595
1.9284503 2.4268382 2.577328
1.9827595 2.440737 2.5857966
2.0423472 2.4399772 2.5891516
2.0660827 2.4272249 2.5820212
2.2239881 2.4442086 2.5851622
2.2814558 2.4469452 2.5726378
2.6624832 2.4452844 2.5816743
2.7236309 2.4456105 2.5870175
2.7579136 2.4202323 2.5890594
2.2399392 2.4507775 2.5624735
2.2917168 2.4579332 2.5841982
2.3358393 2.4560108 2.5962677
2.3686075 2.4603868 2.5575004
2.4034929 2.4578004 2.5515575
2.462724 2.4603894 2.5606873
2.6715746 2.4544134 2.5672417
2.7160761 2.4585214 2.5667899
0.33278334 -0.47732544 2.6151268
0.37775847 -0.46965039 2.6164076
0.46200132 -0.47141874 2.6175005
2.7269316 0.33205926 2.6314015
2.7784119 0.33742213 2.6218197
2.8294623 0.33300304 2.616873
2.8804195 0.34287047 2.6089461
2.7357249 0.37252563 2.6384327
2.7697618 0.38173753 2.6269143
2.817416 0.37991428 2.616087
2.870424 0.37920088 2.6039658
2.7367849 0.4282198 2.6449039
2.7718945 0.42974913 2.6304681
2.8205228 0.4283492 2.6205754
2.8799777 0.41845968 2.6042461
2.7397358 0.48002514 2.6399593
2.7739363 0.47839656 2.6283092
2.826869 0.46797541 2.6179063
2.8629179 0.47499478 2.6126454
2.9027207 0.45546985 2.6034698
2.7494855 0.53319675 2.6406734
2.7773027 0.5174123 2.6315873
2.8191867 0.52459764 2.6202335
2.8739412 0.52481467 2.6146386
2.7427616 0.56790411 2.643889
2.7699211 0.57308257 2.6338756
2.8234642 0.57393706 2.6234789
2.8786645 0.57496035 2.6131976
2.9024677 0.59871674 2.6110954
2.7436461 0.63878572 2.6470559
2.7721245 0.62220651 2.6295006
2.8295679 0.63267344 2.6258788
2.866394 0.62291086 2.6218987
2.7454224 0.67370588 2.6411951
2.7769239 0.67509454 2.6227901
2.8144133 0.67792183 2.6094828
2.8685858 0.67156148 2.6134815
2.7454739 0.70820236 2.6333301
2.7748227 0.72866631 2.6247618
2.8376331 0.72728741 2.6207495
2.8735485 0.72213 2.6149595
2.9149814 0.74696994 2.6236122
2.7388611 0.78019905 2.6420867
2.7692101 0.77849132 2.626653
2.825599 0.76709551 2.6190593
2.8669643 0.77583241 2.6148846
2.9214215 0.76410401 2.6084511
2.7483299 0.82633603 2.6396394
2.7805526 0.82034969 2.6293733
2.8117373 0.82441276 2.6261036
2.8721173 0.82796609 2.6151361
2.7385049 0.88085818 2.6478853
2.77213 0.87458962 2.6337297
2.8171754 0.87915319 2.6189723
2.8787022 0.86921424 2.6124141
2.9108961 0.89318943 2.6144247
2.7446146 0.91774702 2.6433835
2.7745736 0.92630363 2.6379728
2.8117774 0.92556983 2.6253412
2.8714714 0.92474627 2.6173992
2.9237177 0.92401826 2.6179106
2.7778471 0.97289801 2.6406631
2.8269255 0.97484535 2.625536
2.8720114 0.97524774 2.6108339
2.906703 0.98700011 2.6161079
2.744657 1.0114996 2.6481628
2.7782416 1.0269037 2.6341851
2.83371 1.0247548 2.6337452
2.8741851 1.0297451 2.6213887
2.9167697 1.0174057 2.616322
2.7497804 1.0574105 2.6380718
2.7713363 1.0744109 2.6273184
2.8323839 1.074846 2.623791
2.8752387 1.0720607 2.6167607
2.9016883 1.0814151 2.614368
2.7497189 1.1350652 2.645364
2.779247 1.1197504 2.636085
2.8202486 1.1255893 2.6250877
2.8837826 1.1317781 2.6250608
2.9159803 1.1138964 2.6175547
2.7406962 1.1919887 2.649344
2.772115 1.1734825 2.6413703
2.8275342 1.1756878 2.6260438
2.8789816 1.1702714 2.6151092
2.9096916 1.1783535 2.6049733
2.7783031 1.2229838 2.643357
2.8241718 1.2242621 2.6274369
2.8728037 1.2322953 2.6168485
2.9091942 1.2181321 2.6071484
2.7838187 1.2816479 2.6402702
2.8314142 1.275184 2.6269536
2.8697963 1.2802844 2.6123791
2.7475977 1.3104244 2.6453092
2.7714469 1.3192496 2.6322176
2.8141155 1.3192956 2.6195714
2.8630781 1.3159823 2.6144645
2.9137683 1.3417519 2.6163349
2.7810645 1.3719207 2.6351945
2.8218763 1.3764079 2.6189022
2.8668714 1.3726733 2.621367
2.9106362 1.3662109 2.6085527
2.7716849 1.4197359 2.6400859
2.8254347 1.4350839 2.6246138
2.8783376 1.4234101 2.6217282
2.9112828 1.4214827 2.6097145
2.767302 1.4558203 2.6408737
2.812546 1.4744027 2.6290596
2.8708992 1.4765172 2.6202834
2.902607 1.4601777 2.6074758
2.7848587 1.5233192 2.6425517
2.8194504 1.524276 2.6325004
2.8804607 1.5280174 2.6261103
2.7874684 1.5683429 2.649441
2.8320806 1.5752962 2.6323438
2.877795 1.578195 2.6242828
2.7791641 1.6136832 2.6422756
2.8235753 1.631339 2.6360347
2.8657403 1.6235989 2.6196291
2.7863777 1.6746931 2.6460741
2.8245058 1.6665539 2.6321628
2.8759532 1.6769915 2.624299
2.9060669 1.6788664 2.6204793
2.7866452 1.7383766 2.6391301
2.8228621 1.7221432 2.6378653
2.90119 1.724857 2.6302066
2.775409 1.7640562 2.6374314
2.8208678 1.7668434 2.6273074
2.8719292 1.7893872 2.6261709
2.8239765 1.8248402 2.6399205
2.885318 1.8180039 2.6207767
2.9155827 1.8406516 2.626173
2.8264215 1.879042 2.639967
2.8747895 1.8603982 2.6312866
2.7901387 1.9480972 2.6485484
2.8174229 1.9185925 2.639873
2.8726666 1.9205601 2.6288614
2.78776 1.9818345 2.6464243
2.821697 1.9587854 2.6293163
2.8929513 1.9988434 2.6312633
2.9067092 1.9562714 2.6321435
2.8278944 2.0160334 2.638905
2.8821042 2.0261581 2.6288583
2.9050124 2.0461776 2.6197162
2.8239155 2.0754981 2.6402946
2.868989 2.0695236 2.627754
2.9118071 2.0872538 2.6255169
2.8318748 2.127527 2.6411953
2.8806205 2.1322989 2.6413636
2.9127042 2.1244392 2.6258183
2.8241756 2.1756334 2.6439219
2.8750653 2.1822186 2.6463251
2.9119866 2.1581023 2.6471732
2.8317015 2.2193232 2.6420577
2.8799546 2.2255549 2.6267262
2.7874138 2.291646 2.64956
2.8264012 2.2708097 2.6401496
2.8816335 2.2827775 2.6298254
2.9191353 2.2781489 2.6272259
2.7824705 2.3311706 2.6280565
2.8248267 2.3178484 2.6213365
2.8737638 2.3149703 2.6132424
2.9227231 2.3009782 2.6182096
1.5495309 2.3972962 2.6496902
2.7638493 2.3759069 2.6270399
1.5931878 2.4108541 2.6464922
1.6287085 2.4117866 2.6288311
1.6673129 2.4083703 2.6224976
1.7429509 2.410821 2.6236179
1.775206 2.409838 2.6237037
1.8202958 2.4108441 2.6260853
1.8755193 2.4188001 2.6188395
1.9183213 2.4194543 2.6216238
1.9776541 2.4287596 2.6276214
2.0192173 2.4358096 2.6193967
2.0724084 2.4372463 2.6310096
2.1211126 2.4321511 2.6274595
2.1722269 2.448231 2.6197584
2.2166734 2.4473863 2.6182833
2.2595601 2.4448426 2.6304362
2.6794643 2.4411669 2.6113966
2.726007 2.4268398 2.625731
2.2896552 2.4570112 2.6303923
2.3213477 2.4516518 2.645885
2.3755965 2.4587781 2.6199715
2.5713234 2.4709218 2.6462362
2.6641033 2.4548955 2.6234787
2.7095027 2.4505987 2.606889
2.7099411 0.33088759 2.6735125
2.7236707 0.37751138 2.6709883
2.727844 0.43400297 2.680589
2.7282875 0.47873655 2.6742921
2.7348921 0.52187264 2.6803966
2.7350068 0.56674695 2.6724687
2.7323656 0.62122315 2.6764445
2.7363479 0.67392039 2.6784668
2.7376289 0.73019487 2.6701291
2.7308264 0.78405976 2.6748841
2.730623 0.82412481 2.6759548
2.7361925 0.87122273 2.6738997
2.7311347 0.92667162 2.6744664
2.7367404 0.97199023 2.6733685
2.7401352 1.0312061 2.6804786
2.7404554 1.0774701 2.6701922
2.7415345 1.1247826 2.6757803
2.7372622 1.1737545 2.6741643
2.7416239 1.2270052 2.6728656
2.7550952 1.2161282 2.6562157
2.7458315 1.27871 2.6787446
2.7579241 1.2662163 2.6574354
2.7366345 1.3226043 2.6766598
2.7430291 1.3731639 2.6778371
2.7540832 1.3854883 2.6573129
2.7426128 1.4298284 2.6801701
2.7487636 1.4652401 2.6903925
2.7644279 1.4776263 2.6652374
2.7425239 1.5268599 2.6919732
2.7600696 1.5247964 2.6694262
2.7567081 1.5902343 2.6784229
2.7429917 1.614078 2.6752589
2.7561064 1.6268663 2.6589992
2.7342708 1.6730057 2.6864965
2.7585785 1.6683271 2.6643596
2.7662666 1.7283846 2.6664321
2.7568855 1.777254 2.6803703
2.7660465 1.8265206 2.6774745
2.802093 1.8165487 2.6567988
2.7720835 1.8731238 2.6674075
2.7697909 1.9173082 2.6666465
2.7674606 1.9689156 2.6725173
2.788141 2.0334723 2.6656294
2.7824125 2.0692465 2.6789029
2.8040733 2.0751326 2.6556096
2.7831879 2.1372342 2.6745427
2.8073781 2.1236954 2.6521938
2.7842922 2.1749985 2.6746013
2.824656 2.1563854 2.6565001
2.7826843 2.2240694 2.6728704
2.7756519 2.2795801 2.6695526
2.7637019 2.3204327 2.6740179
1.4980289 2.3981736 2.6768577
1.5393642 2.3910618 2.684747
1.5699881 2.3979077 2.6790509
1.6430839 2.3977706 2.6800103
2.7619255 2.3808498 2.6735671
1.5384464 2.4070988 2.6694148
1.5737288 2.4077754 2.6522543
1.6191877 2.4060621 2.6651375
1.6695977 2.407994 2.6674397
1.7378923 2.4139965 2.6927679
1.7729349 2.4131382 2.6713619
1.8112087 2.4105425 2.6868312
1.8637238 2.4087267 2.6525683
1.9214458 2.4280488 2.6763258
1.9764735 2.431464 2.6763484
2.0164502 2.4270172 2.6729436
2.0730307 2.4406357 2.6735084
2.1079948 2.4402437 2.6798365
2.1696124 2.4491901 2.6995871
2.720504 2.432574 2.6667328
2.7577102 2.4162278 2.6590209
2.1385269 2.4539523 2.6824272
2.1968687 2.4586589 2.6972358
2.2232974 2.4565957 2.675643
2.2741446 2.4612906 2.6721053
2.3086741 2.458338 2.6664612
2.3672605 2.4654422 2.6734841
2.5822899 2.4617405 2.6712959
2.6250648 2.4641547 2.6780651
2.6731839 2.4524653 2.6628952
0.64973229 0.1847685 2.7103789
0.65844089 0.20061387 2.7460701
2.7180669 0.34041548 2.7237511
2.7267225 0.3814635 2.7222793
2.7267113 0.42226812 2.7224398
2.7231243 0.46879172 2.7229588
2.7269251 0.52231741 2.7265606
2.7306125 0.57955593 2.7201715
2.7241039 0.62889135 2.7287557
2.7338219 0.68218917 2.7164373
2.7348099 0.72427046 2.7327528
2.7265337 0.76855248 2.7200804
2.7296588 0.82772422 2.7218246
2.734956 0.87614989 2.7315266
2.7328186 0.92261893 2.7331617
2.7292366 0.97453737 2.7133129
2.735038 1.0195701 2.7264934
2.732604 1.0775197 2.7273901
2.7341065 1.1201572 2.7230568
2.7388773 1.1707438 2.7280338
2.737426 1.2216598 2.7159433
2.741915 1.270479 2.7294855
2.7348466 1.3267902 2.7201312
2.7297223 1.3793532 2.7189322
2.7357185 1.4159869 2.7226894
2.7451608 1.48019 2.7273059
2.7437134 1.5141889 2.7191749
2.7456763 1.5574305 2.7202511
2.750618 1.5841503 2.7332225
2.7561712 1.6227667 2.7308612
2.7463267 1.6755242 2.7279091
2.7589531 1.7209107 2.7205076
2.7497189 1.7504022 2.7059894
2.7536397 1.7744253 2.7394218
2.7554014 1.8198433 2.7376385
2.7553122 1.8738385 2.7280014
2.7496848 1.9022506 2.7464647
2.7603121 1.9251664 2.7052846
2.7696331 1.9741498 2.7323656
2.7664428 2.0273197 2.7178388
2.7650151 2.0722861 2.7102251
2.764447 2.1901684 2.724793
2.7625294 2.2440732 2.7328575
2.7761984 2.2851381 2.7270956
2.7720082 2.3282919 2.7387302
1.3560487 2.3926909 2.7349555
1.4726317 2.3959827 2.7244468
1.563814 2.3977256 2.7213101
2.7570601 2.3737876 2.716738
1.3789932 2.4024882 2.7385304
1.4344606 2.403645 2.7245288
1.4759247 2.4012952 2.7305379
1.5273842 2.4029057 2.720897
1.6192402 2.417587 2.7354171
1.6746931 2.4130006 2.7261677
1.7176009 2.4152887 2.73368
1.7708442 2.4121635 2.7232292
1.8228601 2.4198682 2.7369366
1.8792434 2.4341362 2.7260919
1.969192 2.4366436 2.7186656
2.0225832 2.4269395 2.7134771
2.083071 2.4348633 2.7176907
2.137887 2.4424446 2.7248974
2.1679263 2.4496622 2.748225
2.2233834 2.4481437 2.7079692
2.693253 2.449971 2.7209103
2.7360349 2.4313569 2.7264347
2.7526758 2.4092381 2.7019246
2.2275085 2.4526806 2.7129402
2.2821221 2.4611444 2.7137663
2.3182888 2.4595332 2.709636
2.5828111 2.4741573 2.7280185
2.6139026 2.4619093 2.724885
2.6869788 2.4634426 2.725431
0.64040881 -0.054126713 2.7928708
0.63972396 -0.040531058 2.7900269
0.65349078 0.22350776 2.7829669
0.64875108 0.25553653 2.7608535
2.6222901 0.33692539 2.797174
2.6668539 0.33933255 2.7956562
2.7124565 0.33748457 2.7727442
2.6258354 0.37186947 2.7971404
2.7173996 0.37128514 2.7828393
2.6336975 0.43354151 2.7979202
2.6977348 0.43837464 2.7999549
2.7221079 0.42063296 2.7782643
2.6648552 0.4532254 2.7958937
2.7274806 0.4740217 2.7762845
2.7257626 0.53028679 2.7766578
2.7284431 0.57762522 2.7711399
2.7192543 0.62141818 2.7699404
2.7301428 0.68047452 2.7750196
2.7261932 0.72031856 2.7704327
2.720407 0.77571887 2.7732944
2.729337 0.82194233 2.7783084
2.7309353 0.87449551 2.7798767
2.7286232 0.93318349 2.7745762
2.7361331 0.97757602 2.7731423
2.7315707 1.0303044 2.7834065
2.7384737 1.0751306 2.7800407
2.744766 1.1265286 2.7876415
2.7388017 1.1803912 2.7702825
2.7397747 1.2231822 2.7830026
2.7503676 1.2380173 2.7524965
2.7413473 1.2807955 2.7715282
2.7405193 1.3235694 2.7813466
2.7457793 1.3782873 2.7773411
2.7389641 1.4241632 2.7744324
2.7459273 1.4791681 2.7777581
2.7569051 1.4893326 2.7670994
2.7442577 1.5205126 2.7759147
2.7461655 1.5816313 2.7754383
2.7512712 1.6289543 2.7718685
2.7479072 1.6703383 2.766696
2.7553501 1.7280241 2.766772
2.7556431 1.7783955 2.7817774
2.7548816 1.8224983 2.7776961
2.7575638 1.8691233 2.7764025
2.7643704 1.9287765 2.7732968
2.765831 1.9834136 2.7796304
2.7616711 2.0185461 2.7600162
2.7737002 2.0639565 2.7720356
2.7748981 2.2321763 2.7821283
2.763833 2.280196 2.7729759
2.7724423 2.3354452 2.7814322
1.1356829 2.3666701 2.7860773
1.1781842 2.3833148 2.7932668
1.2126831 2.3832877 2.7803721
1.276143 2.3927679 2.7777295
1.3238463 2.3918672 2.7755637
1.3790313 2.3892994 2.7704365
1.4239031 2.396208 2.7602456
1.4710875 2.3890088 2.7667561
1.527202 2.3974845 2.7654426
1.5621177 2.390945 2.7518084
1.6333246 2.3998723 2.7690516
2.7630308 2.3760529 2.7714913
1.3274182 2.4035778 2.7622864
1.4254606 2.4019694 2.7933397
1.5199108 2.4030147 2.7704673
1.594727 2.4045537 2.7756381
1.6094103 2.4087784 2.7542741
1.6804949 2.4072459 2.7759025
1.7248054 2.4097652 2.7765906
1.776666 2.4107506 2.7775507
1.8324642 2.4162152 2.7828767
1.8778268 2.4213507 2.7790041
1.9110353 2.435457 2.7746334
1.9722558 2.4354756 2.7817135
2.0150986 2.4329221 2.7733178
2.067802 2.4416225 2.7771707
2.1651886 2.4489858 2.7961307
2.733681 2.4268997 2.7732873
2.0058997 2.4517851 2.7650435
2.1323843 2.4523699 2.7764993
2.2315395 2.4589181 2.7687519
2.2750976 2.4654293 2.7743957
2.5834689 2.4608223 2.7713251
2.603596 2.4609973 2.7567174
2.7001927 2.4543626 2.7774189
0.64380014 -0.013541116 2.8079607
0.65833068 -0.0135577 2.8097377
0.64657837 0.020610657 2.8200002
0.66020143 0.020609174 2.8176439
0.51122874 0.054956369 2.8463786
0.64651608 0.075336978 2.8190758
0.66034418 0.075344652 2.8175988
0.64713639 0.12332731 2.8206432
0.66153669 0.12347782 2.8215463
0.64634597 0.17107674 2.8154945
0.65945077 0.17092477 2.810945
0.58601117 0.22712581 2.8390224
0.64644486 0.22580591 2.813329
0.59470552 0.26131624 2.8335569
0.62664926 0.26031691 2.8177092
2.5931199 0.33396006 2.819885
2.6012511 0.34499949 2.8059707
2.595335 0.38104126 2.8279953
2.6147134 0.38508213 2.8078997
2.6818037 0.37613153 2.807416
2.5938802 0.42398894 2.8210926
2.6182375 0.42135167 2.8045242
2.6771789 0.41970032 2.8053455
2.7002289 0.403761 2.8071575
2.5951169 0.47210354 2.8289924
2.6301899 0.46906456 2.805465
2.6759248 0.4813152 2.8036685
2.7085578 0.47526321 2.8061335
2.5951734 0.5166046 2.825599
2.6234632 0.52230096 2.8147235
2.6715631 0.52583104 2.8085334
2.7127237 0.51996911 2.803627
2.5994561 0.5758056 2.8371723
2.626806 0.57942814 2.8241327
2.6829071 0.58077794 2.8113985
2.7166972 0.56477576 2.8002658
2.7129793 0.6207822 2.8197169
2.7278686 0.69541615 2.8206365
2.7270963 0.72915876 2.8260937
2.7242515 0.77063078 2.834116
2.7383587 0.82859755 2.8354366
2.7316117 0.88186359 2.8226063
2.7363708 0.92245615 2.8343554
2.7249279 0.97637248 2.826313
2.7292681 1.0168484 2.8338041
2.7332013 1.0564058 2.8347576
2.737674 1.1219491 2.8177726
2.7392926 1.1692265 2.8250468
2.7330039 1.2249345 2.8242748
2.7463398 1.2768778 2.8328664
2.7606351 1.2777368 2.8243968
2.737381 1.3216803 2.8165393
2.7390563 1.3705778 2.8212731
2.7323167 1.4210343 2.8064988
2.7386382 1.4571886 2.8179998
2.750205 1.4770712 2.8038001
2.7401433 1.5285852 2.8066661
2.7426176 1.5782877 2.8263326
2.7501814 1.5541877 2.8478382
2.762234 1.6181113 2.8325472
2.7528028 1.6905932 2.824621
2.7555082 1.7313246 2.8209572
2.760556 1.7746868 2.8328106
2.7542245 1.8240305 2.8256853
2.7527628 1.8769312 2.8228512
2.7588663 1.9180288 2.8225682
2.7713475 1.9738129 2.8225987
2.7903223 2.036752 2.8125734
2.7870216 2.0786366 2.8274813
2.7673321 2.1361828 2.8313577
2.7598193 2.178046 2.8167803
2.7697172 2.225997 2.8013651
2.7662354 2.2594938 2.8212204
2.7588518 2.3207073 2.8171906
1.0319126 2.3842883 2.8440516
1.1176742 2.3743601 2.82061
1.1705713 2.3856728 2.8354757
1.2234768 2.3868427 2.8324039
1.273982 2.3914218 2.823154
1.3217252 2.3898678 2.820528
1.3720731 2.3922977 2.8220398
1.4152431 2.3968625 2.8291593
1.4720809 2.3994727 2.8467422
1.5317483 2.3948851 2.8122194
1.5699024 2.3943584 2.8331196
1.6074182 2.3966572 2.8181047
2.7459707 2.3954427 2.8434501
2.7633324 2.3733408 2.8214638
1.17417 2.4105015 2.8314605
1.2416862 2.4060507 2.8002601
1.4480666 2.407212 2.8295684
1.4787471 2.4046724 2.8316259
1.5061681 2.4057202 2.8204598
1.5651855 2.405113 2.8112404
1.6462271 2.4007607 2.8045857
1.6731404 2.4084387 2.8438029
1.7188559 2.4086778 2.8200619
1.7670336 2.4109662 2.8293457
1.8230015 2.409544 2.8209648
1.8822702 2.4182365 2.8299658
1.9309039 2.4327228 2.8247654
1.9800578 2.4347398 2.8283761
2.0249894 2.4372494 2.8199589
2.0737708 2.4425099 2.8444769
2.1135826 2.4445004 2.8223071
2.1710246 2.4471641 2.8368354
2.7270818 2.4264042 2.8211284
2.1501801 2.4536457 2.8141153
2.213722 2.4625847 2.8353927
2.5905352 2.4665101 2.8297167
2.6170862 2.4623756 2.8287458
0.52381837 0.020865817 2.8773203
0.57114977 0.17311525 2.8616211
0.58348751 0.2072138 2.8508434
2.5845499 0.33980715 2.8696959
2.593847 0.37590972 2.8763084
2.5904434 0.41577405 2.8709877
2.589113 0.47151622 2.8642251
2.5920534 0.50806028 2.8733001
2.5845606 0.56956553 2.8715036
2.6086123 0.59930968 2.8770175
2.6869519 0.62496281 2.8756404
2.7137685 0.64495873 2.8672128
2.7212915 0.68334693 2.8734462
2.7203736 0.72959721 2.8740988
2.7238789 0.77560216 2.867445
2.7353599 0.8289485 2.8791182
2.7326932 0.86830127 2.8753743
2.7225683 0.93149215 2.8750691
2.7299552 0.97661537 2.8741455
2.7298412 1.0164132 2.8800745
2.7380521 1.0653056 2.8741615
2.7335787 1.1223539 2.8683059
2.7322321 1.1716533 2.8680656
2.7397182 1.2176751 2.872921
2.7453403 1.2670527 2.8768804
2.742913 1.3053567 2.8684611
2.7511134 1.3373092 2.8656695
2.7450094 1.3715912 2.8828871
2.7373958 1.4241543 2.8666146
2.7364376 1.4710022 2.86848
2.7465794 1.519532 2.8797517
2.7516446 1.5413578 2.8761888
2.7343686 1.5749049 2.857872
2.7605326 1.5708181 2.8943768
2.7555134 1.6227185 2.8764238
2.7491159 1.6520528 2.8810201
2.7535658 1.6835883 2.8710914
2.7524538 1.733458 2.886157
2.7591479 1.7839278 2.8830478
2.7456779 1.82895 2.8685186
2.7533545 1.8018454 2.8509483
2.7733233 1.8867036 2.8755586
2.7680001 1.926111 2.8899109
2.7810113 1.9848109 2.8747857
2.7825575 2.0220165 2.8852847
2.7751486 2.0896125 2.8948371
2.7809684 2.1065617 2.8701298
2.7763374 2.1867197 2.8832064
2.7555916 2.2065465 2.8859503
2.7711844 2.269968 2.869611
2.7662714 2.3271163 2.8728437
0.83333725 2.3842776 2.898993
0.88467413 2.3830204 2.8844366
0.91542011 2.3800728 2.8810699
0.95782012 2.3932981 2.8780186
1.0169865 2.3849165 2.8731451
1.0517354 2.3924479 2.8844004
1.178609 2.3846061 2.8677332
1.2034792 2.3815124 2.8915541
1.2732606 2.3927977 2.8721042
1.3242435 2.3917916 2.8791099
1.386416 2.3905592 2.8711305
1.4272971 2.3903742 2.8729177
1.4806707 2.395421 2.8764248
1.5315943 2.3973606 2.8828399
2.7616444 2.3689082 2.8702068
1.4732606 2.4069664 2.8770208
1.5779285 2.4022243 2.8817699
1.6249882 2.4181595 2.8830602
1.6695864 2.4113684 2.8920078
1.7169776 2.4134161 2.8706954
1.7703772 2.4050024 2.871696
1.8197482 2.4092309 2.8512325
1.8827138 2.4241009 2.8836913
1.9180707 2.4332738 2.8782096
1.9940623 2.4266417 2.8672705
2.0305741 2.4363787 2.8612075
2.1155312 2.4386196 2.858243
2.1935008 2.4422021 2.8615477
2.730726 2.4326034 2.8754809
2.1833465 2.4525228 2.8864739
2.5734577 2.4689882 2.8739376
2.6165376 2.4605763 2.8796346
2.6502378 2.4627831 2.8860419
2.7103257 2.4596376 2.8897798
2.5740087 0.33308935 2.9078779
2.5918005 0.37061796 2.9242954
2.5875874 0.42416549 2.9299614
2.5781794 0.45931104 2.9313381
2.6059196 0.58009738 2.9453049
2.7241383 0.67201346 2.9253461
2.7221541 0.72707486 2.9204273
2.7292216 0.77794701 2.9199979
2.731492 0.81891978 2.9222298
2.731225 0.87545377 2.9339464
2.7287331 0.91947699 2.9313374
2.7312918 0.97604728 2.9213183
2.7379932 1.0355176 2.9205072
2.7348006 1.0748457 2.9227879
2.7466772 1.1298176 2.9376869
2.7325408 1.1668802 2.9204161
2.7412515 1.2290488 2.9341893
2.7390101 1.2748936 2.9141533
