ply
format ascii 1.0
comment PCL generated
element vertex 1493
property float x
property float y
property float z
element camera 0
property float view_px
property float view_py
property float view_pz
property float x_axisx
property float x_axisy
property float x_axisz
property float y_axisx
property float y_axisy
property float y_axisz
property float z_axisx
property float z_axisy
property float z_axisz
property float focal
property float scalex
property float scaley
property float centerx
property float centery
property int viewportx
property int viewporty
property float k1
property float k2
end_header
-0.26529583 -0.50304991 1.5816431
-0.23754342 -0.50221926 1.5731767
-0.13620658 -0.50053769 1.5847
-0.45719537 -0.49940673 1.5954427
-0.41034183 -0.49947393 1.5761145
-0.36764073 -0.49857759 1.5694436
-0.33849326 -0.49787769 1.5757426
-0.26019207 -0.49799338 1.5840836
-0.21689197 -0.49626008 1.5783383
-0.17492417 -0.49676147 1.5790052
-0.11836175 -0.49683708 1.5845447
-0.071451262 -0.49452439 1.5781003
-0.028247932 -0.49361217 1.5782628
0.026636565 -0.49493429 1.5817112
0.075707518 -0.49290308 1.5764247
0.12708615 -0.49058768 1.5729555
0.18019119 -0.48987383 1.5780386
0.22827366 -0.48942429 1.5752947
0.27602246 -0.48792776 1.5730748
0.30881202 -0.48229966 1.5676261
0.91427648 -0.47920901 1.5639498
0.97669625 -0.48090667 1.5804083
1.025637 -0.47995406 1.5791092
1.0745379 -0.47863477 1.5770983
1.1150222 -0.47538453 1.5713954
1.1705704 -0.47446814 1.5784315
1.2295251 -0.47496375 1.5827404
1.2805161 -0.47393239 1.5769562
1.3278246 -0.47441077 1.5724069
1.3779315 -0.47703323 1.5587794
1.4258435 -0.47711101 1.5784682
1.4821247 -0.47600368 1.5867544
1.5210313 -0.47097412 1.5768589
1.5823945 -0.47316843 1.5811751
1.6279316 -0.46721268 1.5710964
1.6808579 -0.46966779 1.5744472
1.7204909 -0.46470392 1.5779279
1.8068712 -0.46351442 1.5654775
1.8381457 -0.26915523 1.5739871
1.8385944 -0.22480577 1.5751405
1.8342992 -0.17398858 1.5767655
1.8348594 -0.12552683 1.5716221
1.8413097 -0.07800249 1.5774947
1.8512818 -0.053047813 1.5802163
0.36692506 0.24593374 1.5700614
0.41324693 0.2460821 1.5632455
0.46064132 0.2488457 1.5726964
0.51830107 0.24648285 1.5714016
0.57125908 0.24552003 1.587798
0.6139729 0.24971536 1.5979655
0.77047628 0.24802253 1.5976475
0.8425712 0.2498332 1.5846696
0.87974644 0.24919009 1.5645205
0.92664009 0.24820234 1.5816733
0.95869309 0.24791487 1.5877405
0.54595947 0.25236672 1.5776385
0.5679934 0.25168943 1.5675576
0.68856835 0.25051332 1.5820515
0.75739956 0.25194442 1.5696651
0.89380747 0.25022346 1.5666382
0.93967903 0.25592077 1.591122
-0.45714897 -0.50215375 1.6268517
-0.42597699 -0.50404465 1.6287382
-0.37617821 -0.50208431 1.6286588
-0.34185648 -0.50087696 1.6298189
-0.25854683 -0.5022434 1.625752
-0.23643088 -0.50328803 1.6337674
-0.17807767 -0.50029004 1.6220295
-0.11899434 -0.50025308 1.6394179
-0.085314706 -0.50009835 1.6126103
-0.013905813 -0.50169456 1.6192412
-0.42362386 -0.49927196 1.6306533
-0.35005233 -0.49943918 1.6431552
-0.32725257 -0.49381831 1.6129873
-0.26371229 -0.49532497 1.6259837
-0.22295828 -0.49815503 1.6251602
-0.17321691 -0.49861082 1.6237679
-0.12558979 -0.4976624 1.619552
-0.077338137 -0.4969056 1.6332624
-0.025297333 -0.49577507 1.6235396
0.021645399 -0.49443462 1.6257621
0.07492774 -0.49432051 1.6251705
0.1212794 -0.49193245 1.627584
0.17445648 -0.49305496 1.6264583
0.22575098 -0.49153677 1.6266624
0.27395827 -0.48746136 1.6259185
0.93572307 -0.4818294 1.6126931
0.96807116 -0.4815121 1.6215243
1.0291102 -0.47935358 1.6258906
1.0766504 -0.47624534 1.6259129
1.1295687 -0.47500315 1.6309508
1.1764135 -0.47264612 1.6275381
1.226258 -0.47348255 1.6286488
1.2657923 -0.47095326 1.605105
1.3214996 -0.47130451 1.6222006
1.3736374 -0.47349054 1.6116571
1.4206928 -0.47433627 1.6148757
1.4796958 -0.47415024 1.6236306
1.5192738 -0.47099662 1.6269064
1.5773112 -0.47089121 1.6211364
1.6263758 -0.46581951 1.6262186
1.6720641 -0.46142665 1.6182786
1.8437165 -0.25731334 1.6281418
1.8527689 -0.27796775 1.6231227
1.8437786 -0.22395685 1.6262064
1.8414019 -0.17354186 1.6302785
1.8380669 -0.12611523 1.6240623
1.8420557 -0.080887541 1.6216342
0.33708075 0.24737532 1.6375061
0.36938938 0.24500529 1.6166253
0.47153288 0.24677072 1.6107278
0.57628155 0.23735364 1.6272315
0.62098801 0.24767105 1.6407388
0.67811751 0.24947315 1.6380385
0.71083772 0.24881625 1.6233132
0.8284747 0.24722216 1.6361001
0.86210686 0.24711025 1.6223854
0.90960312 0.24731216 1.6045735
0.95167732 0.24413215 1.6320616
0.35425729 0.25056002 1.6025953
0.46733522 0.25092834 1.6402534
0.54350036 0.25061479 1.6218946
0.68586159 0.25028175 1.641745
0.81185758 0.25191429 1.6122227
0.96292961 0.25124392 1.6130095
-0.47273195 -0.50280297 1.6744591
-0.420293 -0.50578153 1.6687281
-0.36655235 -0.50473088 1.6813443
-0.34966865 -0.50246966 1.6836004
-0.26625034 -0.50077802 1.6781782
-0.2351284 -0.50210148 1.6758875
-0.16574495 -0.5034734 1.6835711
-0.12995678 -0.50102717 1.6798935
-0.097944081 -0.50024152 1.698486
-0.043087475 -0.50092363 1.6727784
-0.49060297 -0.49264133 1.6877949
-0.27436632 -0.49631014 1.6670278
-0.22011422 -0.49823835 1.6669772
-0.17898321 -0.49812058 1.6719894
-0.12547339 -0.49736246 1.6727473
-0.074202098 -0.49759179 1.6734222
-0.023429224 -0.49606195 1.67434
0.022107452 -0.49399608 1.6692996
0.073106892 -0.49592033 1.669932
0.11883076 -0.49385694 1.6800946
0.17384294 -0.49287778 1.6782612
0.21982867 -0.4911553 1.674768
0.2789261 -0.49000871 1.6799463
0.98322695 -0.47911772 1.6724015
1.0217111 -0.47925583 1.6736019
1.0693841 -0.47904027 1.6769356
1.1153772 -0.4786773 1.6821983
1.1755255 -0.4742392 1.6842283
1.2201306 -0.47204471 1.679498
1.2732456 -0.47001979 1.6734685
1.32111 -0.47239345 1.6718743
1.3773624 -0.47296 1.6808488
1.4201934 -0.47263417 1.6743984
1.474046 -0.47287145 1.6712111
1.5321159 -0.46993339 1.6795231
1.5686861 -0.46913111 1.6676258
1.6201833 -0.46542677 1.671424
1.6699209 -0.46174046 1.6780314
1.7329978 -0.45764279 1.6717765
1.8121531 -0.45416471 1.6564133
1.8446087 -0.26485804 1.6764795
1.8514404 -0.27745712 1.6635457
1.8441272 -0.22413892 1.6752347
1.8446608 -0.18593135 1.6765101
1.852549 -0.16114162 1.688022
1.8469242 -0.12472165 1.681023
1.8525828 -0.1439376 1.6789279
0.58959931 -0.065291762 1.6767789
0.60535812 -0.062736109 1.6846633
1.8462337 -0.081952572 1.6804057
1.8512905 -0.0710181 1.6609539
0.58817977 -0.028253481 1.6709858
0.6014998 -0.020698842 1.6746017
0.58724129 0.025433194 1.6677445
0.602943 0.016793832 1.6785915
0.58608967 0.078795455 1.6680708
0.60640901 0.067281611 1.68736
0.59003115 0.12521501 1.6773164
0.59317952 0.16680157 1.6881281
0.6020028 0.18597059 1.6945732
0.31742382 0.24578388 1.6857951
0.37034494 0.24831241 1.696377
0.43091086 0.24746279 1.6806846
0.46813729 0.24682404 1.6693398
0.53231305 0.24711803 1.6786096
0.55784851 0.24324024 1.6608801
0.62852901 0.2422933 1.6612859
0.68413305 0.2443012 1.6610988
0.73122793 0.24598415 1.6730789
0.77353448 0.24791925 1.6779221
0.8264358 0.245683 1.6944081
0.91866928 0.24934129 1.6893126
0.98148823 0.24874742 1.6575757
1.0188166 0.24530798 1.6893947
0.31190857 0.25284648 1.677999
0.77602339 0.25229907 1.6939698
0.82209021 0.25046423 1.6638383
0.9594745 0.25071281 1.6838078
1.0190771 0.25220862 1.669767
-0.27534828 -0.50146836 1.7282631
-0.23091452 -0.50274116 1.718845
-0.17728712 -0.50325847 1.726391
-0.11785477 -0.50099695 1.7154622
-0.079210795 -0.50134355 1.7130371
-0.014841945 -0.5018301 1.7362911
-0.27422985 -0.49742585 1.7220633
-0.217227 -0.4980979 1.7299504
-0.17695028 -0.49871933 1.7351961
-0.12549178 -0.49721795 1.7351612
-0.072393022 -0.49670419 1.7227736
-0.036827706 -0.49770427 1.7280264
0.021340566 -0.49520537 1.7274457
0.071949489 -0.4942053 1.7230415
0.12652369 -0.49373892 1.7221359
0.1785486 -0.4933432 1.7256725
0.22444551 -0.49213296 1.7241182
0.26645955 -0.49165827 1.7220013
0.99271935 -0.48082399 1.7353293
1.0215596 -0.47658128 1.7179664
1.073437 -0.47831237 1.7247329
1.1226245 -0.4758434 1.718951
1.1780559 -0.4723393 1.7292042
1.2417132 -0.47495702 1.726751
1.2668016 -0.47056699 1.7339969
1.3276776 -0.46794462 1.7217591
1.3749293 -0.46824375 1.7297429
1.4109621 -0.47236446 1.7392472
1.4731884 -0.47089142 1.7249253
1.5317465 -0.47034073 1.7309446
1.5759664 -0.46528414 1.7179346
1.6322933 -0.46180412 1.7099833
1.6679107 -0.45998612 1.718268
1.7119561 -0.46234098 1.7228653
1.7790699 -0.46006498 1.7293315
1.809347 -0.45072943 1.7189208
1.8424393 -0.26434356 1.7203082
1.8459936 -0.23986225 1.7196759
1.854008 -0.21209416 1.7289432
1.8483838 -0.171253 1.7253518
1.8511813 -0.17716999 1.7275083
1.8476845 -0.12310485 1.7246255
1.8544779 -0.12138142 1.7326311
1.843581 -0.074707016 1.7251862
0.6042136 0.19513398 1.700137
0.30483082 0.24886814 1.7089784
0.37793261 0.24495019 1.7319176
0.44136217 0.24501744 1.7222749
0.46662763 0.24723168 1.7340332
0.52224874 0.24534053 1.7091982
0.77444351 0.24296486 1.708057
0.82278901 0.24721521 1.7080078
0.92755574 0.24673504 1.7405758
0.97258139 0.24621738 1.7177179
1.0138893 0.24967116 1.7298391
0.29140574 0.25160468 1.7297094
0.88495898 0.25111443 1.7170988
0.92136407 0.25250506 1.714411
-0.27737474 -0.50164521 1.771383
-0.22677757 -0.50133085 1.767332
-0.1702829 -0.50009716 1.7563051
-0.11917416 -0.50277597 1.7685851
-0.079786032 -0.50044322 1.7618392
-0.30458438 -0.49515027 1.7759033
-0.26142955 -0.49793696 1.7849504
-0.22141927 -0.49647167 1.7721006
-0.17398086 -0.49752495 1.7701004
-0.1228957 -0.49896312 1.782035
-0.067245841 -0.49803522 1.7752937
-0.023777345 -0.49761739 1.7691075
0.027105153 -0.49499232 1.7759745
0.081216924 -0.49345511 1.769339
0.12368587 -0.49245423 1.7723327
0.17338 -0.49335298 1.7811174
0.23153387 -0.49227312 1.7751402
0.26698279 -0.49255267 1.7804945
0.99760562 -0.47818717 1.781158
1.0267557 -0.4782154 1.7781439
1.0674928 -0.47748366 1.7808912
1.1278179 -0.47586665 1.7748247
1.1640011 -0.47249183 1.7634655
1.2234753 -0.473041 1.7713195
1.2748258 -0.47160229 1.7844391
1.3167567 -0.46973729 1.7649792
1.3731033 -0.46497071 1.7826047
1.4126848 -0.46605369 1.7633619
1.4659114 -0.46836233 1.7838364
1.5181282 -0.47064015 1.782962
1.587341 -0.46606001 1.7730808
1.6311235 -0.4640272 1.7750367
1.6775448 -0.46509531 1.7703286
1.7151692 -0.46365735 1.7690436
1.8468155 -0.26827848 1.7668748
1.8560085 -0.25728083 1.76643
1.8490357 -0.21196917 1.7864338
1.8533238 -0.22744043 1.7733451
1.8476145 -0.17951331 1.7643919
1.8520991 -0.17108041 1.7751755
1.8498374 -0.1473525 1.760542
1.8526469 -0.12264975 1.7767024
1.8466054 -0.077166386 1.771891
1.8509182 -0.068030611 1.7870796
0.28328213 0.24710108 1.7595258
0.31946608 0.24872866 1.7671678
0.35746506 0.24699743 1.7819487
0.41911468 0.24755234 1.777171
0.46932316 0.24458297 1.7790933
0.50077063 0.24498087 1.7763574
0.84180743 0.24657142 1.7707827
0.89040142 0.24738829 1.760345
0.91831952 0.24833848 1.757794
0.98969299 0.24586463 1.7900631
1.0207905 0.24467184 1.7660919
0.27679634 0.25324231 1.7734864
0.39952987 0.25055671 1.7696314
0.4343949 0.25073522 1.7653815
0.96549821 0.25027066 1.7556585
-0.92346472 1.2376989 1.7849137
-0.30146417 -0.50018197 1.8116502
-0.2854172 -0.50035906 1.8257722
-0.23503891 -0.50141644 1.822769
-0.18471467 -0.50310606 1.8157979
-0.12912282 -0.50106245 1.8200316
-0.084343232 -0.50198847 1.8167037
-0.024634369 -0.50233066 1.8361229
0.038174063 -0.50244403 1.836386
-0.30798197 -0.49458498 1.8250959
-0.27271563 -0.4977181 1.8265572
-0.22087996 -0.49696216 1.8307856
-0.16736399 -0.4977631 1.8230332
-0.13150151 -0.49707401 1.8224906
-0.073454142 -0.49688429 1.8345002
-0.024621684 -0.49642122 1.8337045
0.01824964 -0.49459139 1.8147122
0.074595161 -0.4950726 1.8184775
0.12682623 -0.49246952 1.8200719
0.17865014 -0.49335679 1.8270589
0.22221729 -0.49224752 1.8203812
0.2703267 -0.49273816 1.8293291
1.0190183 -0.47859085 1.8288584
1.073578 -0.47576627 1.8327973
1.1275641 -0.47447044 1.8236828
1.1770662 -0.47147378 1.8141696
1.2352836 -0.47231746 1.8211854
1.2815279 -0.47405267 1.8277003
1.3319511 -0.46702117 1.8312438
1.3739783 -0.46433145 1.8279432
1.4200209 -0.46132237 1.8200696
1.4692848 -0.46607772 1.8294207
1.5205288 -0.46728402 1.8291274
1.5725939 -0.46766204 1.8231964
1.6078105 -0.46266496 1.8087544
1.6663209 -0.4601419 1.8236656
1.7023301 -0.45551929 1.8440049
1.8586711 -0.26094365 1.812176
1.8561783 -0.22501339 1.8321185
1.8543273 -0.17891942 1.8233443
1.8495927 -0.14921106 1.8031948
1.8578026 -0.12128346 1.8238717
1.844344 -0.056722619 1.8025147
1.8568165 -0.077227011 1.826473
0.26591665 0.24615987 1.8189138
0.31524521 0.24696046 1.819675
0.38085464 0.2465812 1.8084105
0.42032695 0.24650902 1.8019618
0.8724755 0.24606806 1.8359944
0.92264169 0.24560854 1.8140148
0.97221035 0.2474217 1.811018
1.047134 0.24432519 1.8407341
0.2609306 0.25437659 1.8144457
1.0362839 0.25145668 1.8206805
-0.9216603 1.2329934 1.8242645
-0.89548379 1.2323824 1.8123535
-0.31396288 -0.50231582 1.8901536
-0.26773107 -0.50342393 1.8625171
-0.22552051 -0.50168633 1.8839775
-0.1829056 -0.50092381 1.8600115
-0.13085353 -0.50064504 1.880028
0.0023180661 -0.50160837 1.8685739
-0.31065506 -0.49702024 1.8702106
-0.27371222 -0.4968164 1.873286
-0.21952669 -0.4991143 1.8867797
-0.16960801 -0.49601892 1.8664364
-0.11803513 -0.49797049 1.8704859
-0.075003497 -0.4969545 1.8809777
-0.025285101 -0.49632677 1.8846174
0.028824637 -0.49769345 1.8753798
0.074225396 -0.49630541 1.8701711
0.12834963 -0.49236974 1.8759655
0.17186831 -0.49337983 1.8744112
0.2295453 -0.4924759 1.8668675
0.27029625 -0.49308786 1.8826369
1.0337636 -0.47812715 1.8755494
1.0843728 -0.47604096 1.8804026
1.1176046 -0.47756013 1.8732373
1.1696935 -0.47061238 1.8673966
1.2328798 -0.47342977 1.8732941
1.2752639 -0.46725971 1.8778446
1.3205148 -0.46917614 1.8740711
1.3802792 -0.46226534 1.8670803
1.4147627 -0.46125981 1.8618858
1.4690065 -0.46077961 1.8927224
1.5499716 -0.46357772 1.8564718
1.5666744 -0.46524417 1.8553536
1.6775701 -0.45657977 1.870492
1.8637565 -0.26586211 1.8721334
1.8566744 -0.22697851 1.8816171
1.8492203 -0.17674077 1.8885067
1.8552091 -0.17069122 1.8679583
1.8604178 -0.12515086 1.8738418
1.8591923 -0.075801745 1.8711671
2.2897069 -0.031340793 1.8579384
2.3168092 0.021205552 1.8919297
0.23942494 0.24627836 1.8912816
0.27373305 0.24633211 1.8885897
0.3244724 0.24506107 1.8733461
0.4008252 0.24461015 1.8599273
0.86546445 0.24258687 1.8930609
0.90363902 0.24243721 1.8788137
1.0046976 0.24828647 1.8948703
0.24394737 0.25066659 1.8546953
-0.95296943 1.230893 1.8796008
-0.92722493 1.2279769 1.87
-0.32828435 -0.50066537 1.9200898
-0.21330771 -0.50177038 1.9162836
-0.18350686 -0.50089759 1.9338322
-0.13819268 -0.50155306 1.92005
-0.31676191 -0.49764457 1.9329513
-0.2743715 -0.49675092 1.9280744
-0.2237252 -0.49530736 1.9257654
-0.17746319 -0.49580908 1.9375616
-0.12114704 -0.49553791 1.9272749
-0.074387573 -0.49644864 1.9278173
-0.021703357 -0.49405971 1.9239924
0.025815111 -0.49393404 1.9220942
0.077330783 -0.49183464 1.9225264
0.12115727 -0.49237844 1.9279625
0.17822474 -0.492098 1.916966
0.22548227 -0.49311581 1.9236301
0.27566212 -0.48990098 1.9220078
0.99599701 -0.48120502 1.9244165
1.0224376 -0.48014536 1.9158567
1.0772388 -0.47506231 1.93136
1.1255983 -0.47324568 1.9124172
1.1689867 -0.47288853 1.9242198
1.2244323 -0.47022799 1.9198967
1.2760108 -0.47042617 1.9290862
1.3337456 -0.46722665 1.922092
1.3802588 -0.46522695 1.9188578
1.4261022 -0.45937839 1.9106531
1.478693 -0.45790109 1.9394246
1.5311499 -0.46581131 1.9195384
1.5726395 -0.47107592 1.912913
1.6225753 -0.47036111 1.9239373
1.8625669 -0.25798464 1.9282079
1.8656271 -0.22472057 1.9333401
1.8663605 -0.17315002 1.9213766
1.8642911 -0.12241884 1.9204191
-0.75495481 -0.058140058 1.9391273
-0.73753822 -0.069138944 1.9457744
1.8659792 -0.077088907 1.9225467
-0.75616324 -0.043641523 1.9424808
-0.74751598 -0.038836163 1.9479436
2.2346115 -0.038314372 1.9443576
2.2823946 -0.018648103 1.9305139
2.245353 0.014382855 1.9416599
2.2792375 0.012343913 1.9420546
2.3057675 0.017977476 1.9256053
2.2823768 0.067878336 1.9478586
2.3006029 0.068054199 1.9386753
2.345046 0.1231494 1.9487944
0.27492821 0.24237314 1.9309223
0.34179419 0.24184296 1.9195683
0.38715258 0.24405798 1.9318205
0.94034177 0.24829909 1.9190073
0.97238421 0.24513519 1.924853
-0.13259192 -0.50152081 1.9780854
-0.31675452 -0.49566799 1.9709431
-0.2777369 -0.49699271 1.9903513
-0.22553647 -0.49668735 1.977381
-0.17125754 -0.49598959 1.9770749
-0.12182038 -0.49674195 1.9595828
-0.074388973 -0.4949775 1.9713167
-0.033295859 -0.49489573 1.9774292
0.023742631 -0.49377877 1.972429
0.07490661 -0.49219942 1.9829596
0.1283333 -0.49374804 1.9874119
0.17245317 -0.49212268 1.9719405
0.22312243 -0.48937535 1.9641412
0.27399006 -0.49162331 1.9807646
0.31711981 -0.49507976 1.9788834
0.98671949 -0.48139155 1.9846314
1.0235716 -0.47640094 1.9684042
1.0694302 -0.47286615 1.9688349
1.1325754 -0.47356579 1.9742298
1.1783888 -0.46950713 1.983049
1.2199671 -0.46928295 1.9748427
1.2735386 -0.4686802 1.9824015
1.3288053 -0.46846151 1.9743495
1.3788882 -0.46380377 1.9754559
1.5877651 -0.45444319 1.973204
1.6314901 -0.46413741 1.9817196
1.68165 -0.44859186 1.9785287
1.8667564 -0.26199621 1.9780496
1.8684015 -0.22240913 1.9756788
1.8699834 -0.17562503 1.9666111
1.8655174 -0.12665211 1.9650512
-0.711869 -0.065909795 1.9568295
-0.67302257 -0.073384061 1.972223
-0.63098258 -0.075464822 1.988036
-0.58319867 -0.087034434 1.9716928
-0.53608304 -0.086475074 1.9670963
1.8724644 -0.078401349 1.9744973
-0.72105891 -0.030425211 1.9630905
-0.67478311 -0.028927267 1.9854089
-0.64438266 -0.037664711 1.9970425
2.1847796 -0.018721025 1.9981649
2.2255797 -0.021503275 1.9733568
2.2590737 -0.018701304 1.9535484
-0.75053114 0.00012045867 1.9560516
-0.7127983 0.025784476 1.9815751
-0.68427902 0.013564569 1.9907056
2.2282124 0.012735033 1.9757491
2.2550201 0.034416959 1.9620825
-0.75069451 0.089316733 1.9834576
-0.71933854 0.069588087 1.9945073
2.2315044 0.074364305 1.9938051
2.2710497 0.071446918 1.9750378
2.2849495 0.12908623 1.9845853
2.3018994 0.10878816 1.9628943
2.2994416 0.16331249 1.9824543
0.23774089 0.24480446 1.9538406
0.27607754 0.24541329 1.9554155
0.31837922 0.24414429 1.9803753
0.40428615 0.24882863 1.9682839
0.95946217 0.24451618 1.9711908
-0.27263641 -0.5010435 2.0072951
-0.22841421 -0.50103521 2.0109494
-0.15495965 -0.50183678 2.0188406
-0.12497873 -0.50001001 2.0128472
0.35377172 -0.50166011 2.0438905
-0.32325438 -0.49353093 2.0319965
-0.27396709 -0.4936381 2.01879
-0.22641405 -0.4976365 2.0392299
-0.17550214 -0.4944976 2.029613
-0.12636724 -0.49472064 2.0204945
-0.074888662 -0.4950923 2.0242701
-0.014709076 -0.49386925 2.0216131
0.022059709 -0.48957562 2.0143003
0.071046807 -0.48968172 2.0139985
0.12302177 -0.48898593 2.015507
0.17853364 -0.4889999 2.0067737
0.22755648 -0.49094835 2.0298548
0.27032149 -0.49096641 2.0295267
0.31473085 -0.49307337 2.0232453
0.94726944 -0.48799276 2.0434215
0.97134459 -0.47956008 2.0247104
1.027647 -0.4741298 2.0191472
1.0853617 -0.47373736 2.0326545
1.1278323 -0.47027433 2.0267744
1.1788512 -0.46940437 2.0303395
1.232823 -0.46820149 2.0204384
1.2829521 -0.46515125 2.0217836
1.3348012 -0.46407083 2.0231152
1.3698498 -0.46277422 2.0310488
1.8717139 -0.25912759 2.0185602
1.874006 -0.22561 2.0210879
1.8731583 -0.17913187 2.0196905
1.8730147 -0.13161401 2.0256968
-0.6110943 -0.066220902 2.0086246
-0.57557589 -0.068376444 2.0172486
-0.52686763 -0.069962583 2.0349205
-0.48262924 -0.077058941 2.0481882
-0.39297572 -0.088933922 2.0468509
1.8804796 -0.079783045 2.0290403
-0.65489721 -0.009790251 2.0025153
-0.61977643 -0.028325161 2.0140586
-0.57383424 -0.029697424 2.0301273
-0.53082055 -0.037112221 2.0433555
2.0429134 -0.037846994 2.0450819
2.0827556 -0.02508593 2.0422449
2.1254456 -0.023532258 2.0255187
2.1650145 -0.027886365 2.0069318
-0.70240247 0.049749572 2.0004117
-0.66860843 0.029880017 2.0071867
-0.62590438 0.022244684 2.0242059
-0.5827089 0.017457167 2.041971
2.0958712 0.00093394046 2.0491171
2.1289921 0.012474257 2.0350633
2.1718082 0.021612098 2.0175374
-0.7109248 0.088063084 2.0032053
-0.67471755 0.076974399 2.0178323
-0.62746167 0.070723079 2.036999
-0.59455347 0.058193862 2.0431867
2.1747251 0.074090332 2.0370727
2.2083755 0.087447971 2.0056198
-0.71064603 0.12161997 2.0183427
-0.67467785 0.12106529 2.0300586
-0.63758105 0.11070007 2.0407259
2.2295682 0.12630682 2.0229952
2.269716 0.14956643 2.0075462
-0.71197593 0.15864079 2.0238109
-0.6836707 0.16584596 2.0411057
2.2400639 0.16328698 2.0428638
2.2693453 0.1730507 2.03074
0.28308988 0.24196911 2.005872
0.32455879 0.24406126 2.0192428
0.35443994 0.24446772 2.0193901
0.42451286 0.24541326 2.0183403
0.49146968 0.24953017 2.0431521
0.88362706 0.24508767 2.0214124
0.9080289 0.24710786 2.0129054
0.95032752 0.24742067 2.0017648
2.2578456 0.20485137 2.0431416
0.50254232 0.25007641 2.0459874
-0.1199411 -0.50029093 2.0998728
-0.047491316 -0.50028408 2.058116
0.38074178 -0.50069869 2.0808332
-0.32539529 -0.4904564 2.0772822
-0.27857596 -0.49419329 2.0768352
-0.22504658 -0.49574772 2.0749288
-0.17111528 -0.49284434 2.075052
-0.12898405 -0.49609604 2.0818255
-0.079598166 -0.49128121 2.0758898
-0.029244425 -0.49438921 2.0699306
0.022792652 -0.49424532 2.0822852
0.077175803 -0.48917717 2.0670528
0.12333127 -0.48871201 2.0699713
0.17401987 -0.49023384 2.0716243
0.20809124 -0.49184373 2.0745389
0.28127354 -0.48886895 2.0747354
0.32810107 -0.49245477 2.0668461
0.36442205 -0.49253106 2.0781353
0.89677441 -0.48452705 2.0963771
0.92614698 -0.48119357 2.0800231
0.97458571 -0.47670546 2.0695107
1.0217305 -0.47526002 2.0788751
1.0860174 -0.47412816 2.0786328
1.1274728 -0.47014892 2.0762961
1.1763169 -0.46539143 2.0716665
1.2288114 -0.4661448 2.0744288
1.2693499 -0.46564922 2.0750113
1.3301225 -0.46333304 2.0824056
1.3841628 -0.46576551 2.0765481
1.4154096 -0.45690477 2.0784192
1.8829887 -0.25883299 2.0735533
1.8766937 -0.21932268 2.0750678
1.8770262 -0.17302939 2.068969
1.8776675 -0.11853803 2.0751498
-0.47417367 -0.062588885 2.0603642
-0.42767537 -0.066307738 2.0817075
1.8809087 -0.078179285 2.0746858
-0.51710784 -0.01829779 2.0593162
-0.47462454 -0.027046628 2.0754161
-0.43293887 -0.028469948 2.0938513
1.8923839 -0.049658898 2.077934
1.9306594 -0.037548076 2.0961747
1.98022 -0.024943287 2.0893011
2.0215776 -0.021350667 2.0753458
2.0614393 -0.016427429 2.0556886
-0.56213355 0.030285312 2.0582855
-0.52506214 0.019539837 2.0667791
-0.47642234 0.018958645 2.0886118
-0.44378868 5.6675613e-05 2.0960009
1.9933066 0.00080596097 2.0911338
2.0287476 0.017769512 2.0840821
2.0733314 0.022297226 2.0621626
2.1040146 0.040326983 2.0566709
-0.61310393 0.090922944 2.0547442
-0.57152659 0.072144561 2.0654504
-0.52565324 0.071214683 2.0854821
-0.49116859 0.061166633 2.095937
2.0466766 0.059808262 2.096952
2.0786557 0.073152207 2.0797849
2.1176751 0.076427594 2.0654426
2.158391 0.087467782 2.0584102
-0.62138897 0.12358575 2.0579603
-0.57670045 0.12205544 2.0758078
-0.53707236 0.11918332 2.092643
2.0998819 0.13360584 2.0984566
2.1297522 0.12060252 2.0788894
2.1702354 0.13060229 2.0625765
-0.66227931 0.16759066 2.0535843
-0.62877297 0.16528374 2.0658689
-0.58152407 0.16437052 2.0861273
-0.54978079 0.15351596 2.0935314
2.1355183 0.1747333 2.0936692
2.17417 0.16876364 2.0751619
2.2116685 0.18338558 2.0655499
0.3425965 0.24009103 2.068918
0.35672581 0.23949544 2.0620947
0.43139276 0.24131453 2.0685747
0.49875498 0.24310204 2.0742543
0.50804406 0.24270387 2.0692024
0.92227054 0.24189946 2.0586774
2.1816158 0.20332766 2.0859466
2.2158344 0.21415164 2.0880861
-0.33040363 -0.49011073 2.1144109
-0.27766773 -0.49175343 2.1278815
-0.22456172 -0.49091026 2.1199057
-0.17699471 -0.49092144 2.1255865
-0.12128107 -0.49042672 2.1259353
-0.06380026 -0.49029911 2.1040177
-0.028393328 -0.49162388 2.1306996
0.024997652 -0.49017832 2.1270707
0.074857727 -0.49077535 2.124279
0.12809514 -0.48854288 2.1274774
0.1752416 -0.48942995 2.119169
0.22451504 -0.49202135 2.1195807
0.27807555 -0.4922092 2.1162224
0.32954422 -0.49117318 2.1223624
0.37504905 -0.48820072 2.1104271
0.41459879 -0.49338618 2.1284728
0.84389853 -0.48046911 2.1467819
0.88075751 -0.48130423 2.1293807
0.92447281 -0.4770467 2.1250031
0.97657329 -0.4748764 2.1275361
1.0251775 -0.47246975 2.1068978
1.0754901 -0.47460303 2.1303034
1.1265342 -0.47168049 2.1261647
1.1741955 -0.4637202 2.1273823
1.2158873 -0.46887791 2.1391177
1.273604 -0.45965424 2.1286845
1.3969589 -0.45645761 2.1223645
1.421638 -0.45875281 2.1239562
1.4502565 -0.46222058 2.130641
1.8806167 -0.25791836 2.1237962
1.8862433 -0.22718543 2.1250396
1.8845197 -0.17149337 2.123409
1.8866709 -0.12330384 2.1269143
-0.40408805 -0.055872016 2.1055231
-0.397075 -0.066509269 2.123455
1.8885314 -0.06667687 2.1242096
-0.41334498 -0.021470003 2.1118579
1.8942236 -0.027528912 2.1422954
1.9228028 -0.022054927 2.1195998
1.9606484 -0.02497221 2.1046593
-0.45546815 0.030599916 2.1014678
-0.42670617 0.021431362 2.1191204
1.9243617 0.020093499 2.137356
1.9688969 0.02022185 2.1182799
-0.47274485 0.075903714 2.1121783
-0.43211141 0.069764346 2.1307905
1.9397027 0.059021942 2.1416528
1.9727064 0.061446052 2.1289499
2.0279529 0.079496548 2.1154468
2.0523686 0.086242974 2.1019518
-0.51323467 0.12851116 2.1102121
-0.47365585 0.12326656 2.1284044
-0.44154453 0.11176014 2.1465304
1.9832197 0.12126084 2.1454206
2.0270028 0.12779154 2.129894
2.0672431 0.12755612 2.1053314
2.1052477 0.14725192 2.1030233
-0.55953079 0.18275481 2.1034622
-0.5250175 0.17601155 2.1216891
-0.47813112 0.16928782 2.1377621
2.0275648 0.16888854 2.1421316
2.0770137 0.17368808 2.1223609
2.1080315 0.17409928 2.1039641
0.33425722 0.24496746 2.1125808
0.41938967 0.24138407 2.1261947
2.0480638 0.21328409 2.1391022
2.0747635 0.20513171 2.1300526
2.1204767 0.21263914 2.1132259
-0.35600141 -0.48519397 2.1570914
-0.32612178 -0.49136433 2.1717072
-0.27352968 -0.48857298 2.1802654
-0.23032731 -0.48980933 2.1769283
-0.17743485 -0.48941761 2.1808496
-0.10879383 -0.48837304 2.1889412
-0.078806564 -0.49174854 2.1770611
-0.023674773 -0.48780072 2.175956
0.021702496 -0.48917064 2.1748457
0.072601125 -0.4890154 2.1746275
0.12472951 -0.48810351 2.1871634
0.17388204 -0.49075636 2.1829422
0.22822145 -0.48920041 2.1682694
0.27356252 -0.49142313 2.1686788
0.32017297 -0.49114239 2.179518
0.37875852 -0.49003398 2.184818
0.4280338 -0.4911181 2.175406
0.46992821 -0.49256003 2.1824679
0.51702434 -0.4979243 2.1933801
0.6284017 -0.48728979 2.1938329
0.87368107 -0.47668949 2.1668231
0.93278134 -0.47451854 2.1775856
0.97657597 -0.47258145 2.1838994
1.0273013 -0.47170198 2.178046
1.0752579 -0.46775189 2.1747444
1.1243868 -0.46653688 2.1626911
1.1599927 -0.46407032 2.1570613
1.2232804 -0.46311507 2.1707575
1.3338072 -0.45895484 2.1684391
1.3930829 -0.45700181 2.1655388
1.4287558 -0.45486891 2.1726382
1.891426 -0.25974721 2.1849532
1.8899809 -0.22622439 2.1740642
1.8882369 -0.17422478 2.175998
1.8894242 -0.12019151 2.1762965
1.8900886 -0.072626434 2.1733572
1.8868613 -0.025231706 2.1799629
1.8918948 0.021850454 2.171349
-0.40976396 0.078368627 2.1625254
1.8912188 0.059069835 2.1843333
1.9162687 0.076395847 2.1635878
1.9610659 0.092112094 2.151999
-0.42719525 0.12856662 2.1576028
1.9274909 0.12298806 2.1796677
1.9605579 0.13420229 2.1592796
-0.45748788 0.18308136 2.1554399
-0.43469307 0.17157705 2.1649785
1.9298347 0.1776464 2.1861176
1.9776276 0.1784717 2.1653798
2.0210626 0.19065951 2.1537995
1.9381331 0.21060388 2.1807237
1.9786079 0.21216431 2.176343
2.0294597 0.20873344 2.1530018
-0.36022824 -0.4875187 2.217783
-0.33090881 -0.49092418 2.223635
-0.26527151 -0.4925096 2.2325771
-0.22878678 -0.48972744 2.2140048
-0.15819271 -0.49342042 2.2096362
-0.1305577 -0.49182928 2.2288425
-0.06409736 -0.4890371 2.223166
-0.018790361 -0.49125946 2.2287524
0.024329688 -0.49154121 2.2299571
0.073609166 -0.49034995 2.2492299
0.12095406 -0.48354903 2.2166739
0.18079081 -0.48556116 2.2232337
0.22508386 -0.48804957 2.2320223
0.27117103 -0.48793122 2.2280722
0.33449817 -0.48882502 2.2369609
0.36698937 -0.48645663 2.2251947
0.42402202 -0.48596081 2.2030087
0.4838911 -0.48646873 2.2235093
0.52550894 -0.48852539 2.2239342
0.5778473 -0.49067399 2.2194474
0.61793607 -0.48650214 2.2191603
0.67427301 -0.48295957 2.2222197
0.70130378 -0.48769665 2.2171717
0.89402413 -0.47660911 2.2297025
0.92520809 -0.47608206 2.2179615
0.9761731 -0.47488773 2.2378533
1.0175189 -0.47249684 2.2329676
1.0670856 -0.46576557 2.2316425
1.1225736 -0.46504551 2.2212574
1.165868 -0.46723822 2.2175269
1.2244251 -0.4599331 2.2219467
1.2720435 -0.46055499 2.2424736
1.3625567 -0.45681855 2.2170846
1.4599961 -0.45257428 2.2220957
1.892624 -0.25855735 2.2279599
1.8934454 -0.22687589 2.225796
1.8935417 -0.18154484 2.2311153
1.9010121 -0.15747242 2.2289851
1.8914542 -0.12436401 2.231854
1.8932277 -0.071535669 2.2233841
1.894237 -0.028964151 2.2315381
1.8928342 0.020381691 2.2236969
1.8929373 0.068895563 2.2229853
1.9021517 0.092656597 2.2206457
1.8962665 0.13235177 2.2306223
1.901931 0.12129144 2.211719
1.8946398 0.17587329 2.2341301
1.9044358 0.18189196 2.2110782
1.8958335 0.21168275 2.2311425
-0.11873938 -0.48895153 2.2809093
-0.076306544 -0.49053565 2.2875824
-0.023547065 -0.49060148 2.2721131
0.026603267 -0.4892455 2.2709837
0.077868998 -0.48990497 2.2786674
0.12021305 -0.48784018 2.2712643
0.17515208 -0.4859601 2.2688768
0.22572212 -0.48340708 2.2735648
0.27711016 -0.48584089 2.2706106
0.31925279 -0.48895329 2.2708192
0.38175184 -0.48389244 2.2648053
0.42596999 -0.4856253 2.2746375
0.46295801 -0.48598266 2.2693508
0.52199739 -0.48324329 2.2733064
0.57281178 -0.48677889 2.2711134
0.60477877 -0.483679 2.2728722
0.6684581 -0.48626366 2.2880797
0.71890688 -0.48286939 2.2754056
0.9368661 -0.47158703 2.2743189
0.98109394 -0.47037593 2.2762818
1.0253578 -0.46714962 2.2665052
1.0950553 -0.46946609 2.2561085
1.1249052 -0.46195659 2.2717047
1.1656487 -0.45914862 2.2883446
1.8878287 -0.25239056 2.2690029
1.8907478 -0.22905134 2.2682042
1.8956113 -0.17056532 2.2761831
1.9024549 -0.1999532 2.2782476
1.8929634 -0.12194057 2.2763219
1.8939526 -0.067785956 2.2707019
1.9042109 -0.07910084 2.2611256
1.8980887 -0.019221095 2.2548532
1.9004824 -0.039435752 2.2826681
1.8937662 0.02064028 2.2747483
1.895703 0.076613203 2.2760136
1.8955418 0.12224765 2.2741132
1.9009175 0.14095874 2.2796354
1.8945645 0.1697159 2.2787628
1.904219 0.17467515 2.2816396
1.8851132 0.20676637 2.2689514
-0.06881246 -0.48638558 2.3381433
-0.02900506 -0.48699245 2.3232028
0.016350124 -0.48855644 2.3271396
0.067008495 -0.49006975 2.3374293
0.1272561 -0.48613968 2.3353736
0.23878515 -0.48305234 2.3147204
0.27661276 -0.48364779 2.3148017
0.32412389 -0.48408023 2.3241978
0.37163112 -0.48400965 2.3267603
0.42455852 -0.4822146 2.3311784
0.47978997 -0.48435462 2.3248093
0.520028 -0.48267674 2.3281367
0.57614368 -0.48335573 2.324621
0.6276865 -0.48130623 2.3150697
0.67430258 -0.47774902 2.325846
0.72646004 -0.47904411 2.3326745
0.93548995 -0.46603513 2.3210063
0.97990388 -0.46441045 2.3329532
1.024999 -0.46506462 2.3229396
1.0699192 -0.46424645 2.3215947
1.1380794 -0.46158755 2.3187108
1.1770136 -0.45962799 2.3112862
1.9038658 -0.21977054 2.3186934
1.9015517 -0.18172282 2.3167174
1.8963492 -0.12019064 2.3008084
1.9035116 -0.14085902 2.308568
1.8973038 -0.053289328 2.3167384
1.9027815 -0.080345429 2.318538
1.8974682 -0.039961275 2.3299367
1.9022503 -0.02630242 2.3103087
1.8855548 0.014053692 2.3154678
1.9004549 0.0006350567 2.3082409
1.8866211 0.070461787 2.3107345
1.8872691 0.12823302 2.3081324
1.8854625 0.16194943 2.310569
1.9023582 0.18310377 2.3171785
1.8940326 0.20320301 2.3183889
2.1267376 2.4228454 2.3375978
2.1968846 2.4335845 2.3278713
2.2132685 2.4233468 2.3212345
2.2675128 2.4444077 2.3384905
-0.11178833 -0.49038649 2.3706474
-0.076926194 -0.49029395 2.3568053
-0.020227911 -0.48669732 2.3975468
0.03959642 -0.48636642 2.37272
0.07955876 -0.48662111 2.3771319
0.10540178 -0.48968694 2.3531687
0.23834616 -0.48230171 2.3681042
0.27445412 -0.48520529 2.3798757
0.32613882 -0.48486429 2.3738542
0.38280839 -0.47932673 2.3763416
0.42325723 -0.48021534 2.3802824
0.46949306 -0.47998774 2.373348
0.52775633 -0.4780696 2.3755865
0.57563907 -0.47905907 2.3732479
0.60734856 -0.48104167 2.3781714
0.98924601 -0.46244323 2.3894858
1.0183954 -0.46184412 2.3773823
1.0753726 -0.46044978 2.3760319
1.1266937 -0.46016639 2.3699334
1.1754717 -0.45756179 2.3749235
1.9022843 -0.24526045 2.3517528
1.9233489 -0.15706454 2.35783
2.0358679 2.4085724 2.3755577
2.0928369 2.4241343 2.3620336
2.1276362 2.4350572 2.3764567
2.1836271 2.4394913 2.3664711
2.2332692 2.4273672 2.3552999
2.2992876 2.4418139 2.3755472
2.320245 2.4449022 2.3662093
2.2728105 2.4508212 2.3658919
-0.10157302 -0.48772433 2.4012682
-0.069544703 -0.48644561 2.419466
-0.028212279 -0.48420322 2.4248629
0.0068470165 -0.48682716 2.4180586
0.067637242 -0.48180372 2.432313
0.23787108 -0.48144597 2.4235015
0.27869147 -0.48101792 2.4184432
0.32614496 -0.48170063 2.4179966
0.37220943 -0.4789978 2.4204543
0.43563163 -0.47401971 2.4294138
0.47106442 -0.4739379 2.4245701
0.52746582 -0.47665581 2.431133
0.57944524 -0.47782207 2.4293301
1.08131 -0.45830572 2.4112086
1.975379 2.4196873 2.4321244
2.0239992 2.4267306 2.4250066
2.0798421 2.4278607 2.4278443
2.1152685 2.4336314 2.4238176
2.1741021 2.4408534 2.4167035
2.2160535 2.4395223 2.4285848
2.2994044 2.4429758 2.4201322
2.438484 2.4363904 2.4443102
2.2783761 2.4581561 2.4162252
2.3308108 2.4569263 2.4213769
2.3677053 2.4578915 2.4411566
2.4227176 2.4577522 2.432071
-0.080234855 -0.48768646 2.4617767
-0.026983365 -0.48036614 2.4877691
0.019713115 -0.48461899 2.4719236
0.078445189 -0.48039031 2.4661157
0.12288661 -0.47929472 2.480334
0.19400223 -0.47735313 2.4672809
0.2798788 -0.48138988 2.4828334
0.33403754 -0.47725886 2.4697661
0.37435088 -0.4755803 2.4766645
0.42058906 -0.47760662 2.4716532
0.45604262 -0.47101349 2.4759965
0.52856266 -0.47648028 2.4958951
0.57701588 -0.47679248 2.4681318
0.60315961 -0.47748065 2.4899936
1.8882841 2.409085 2.4716573
1.9355125 2.4201591 2.4858763
1.9763999 2.424912 2.4806805
2.0202353 2.4256456 2.4672136
2.0655303 2.4289422 2.4704237
2.115098 2.4373825 2.4933717
2.171531 2.4411581 2.4829779
2.2349026 2.4419992 2.4628038
2.2653382 2.4468138 2.4936416
2.3180728 2.444402 2.4531658
2.216681 2.4519994 2.4916091
2.2838855 2.4562097 2.4744296
2.3316405 2.4587188 2.4675345
2.4037516 2.4574049 2.4595826
-0.076184668 -0.48141557 2.5250118
-0.033401679 -0.48180997 2.5168488
0.033472463 -0.4799386 2.517899
0.051877294 -0.48770317 2.5255237
0.12551649 -0.47734654 2.5351095
0.18473285 -0.48434386 2.5040183
0.28226554 -0.47332078 2.5053596
0.31615895 -0.48475599 2.5303802
0.37125283 -0.47231591 2.5261674
0.42871618 -0.47050285 2.521452
0.47207114 -0.47296301 2.5299051
0.5156275 -0.48151982 2.5248528
0.57450402 -0.47797334 2.5317693
0.62606579 -0.47537324 2.5324652
0.68238968 -0.40572584 2.5234306
0.67173916 -0.39609292 2.5170588
1.8270983 2.4203491 2.5267429
1.8727822 2.4267037 2.5388374
1.9129972 2.4139986 2.5252767
1.9791033 2.4264488 2.5315776
2.0204585 2.423501 2.5198033
2.0725231 2.4296649 2.5094156
2.1295633 2.4312832 2.5279114
2.1698833 2.4323263 2.5351801
2.2429397 2.4431791 2.5253453
2.2696722 2.4429312 2.5287285
2.3172934 2.4454384 2.5450382
2.3941905 2.448288 2.541682
2.3166454 2.4535797 2.5139678
2.3664412 2.4575703 2.5160928
2.4258821 2.4612608 2.5263579
2.457011 2.4547911 2.5083704
-0.021550903 -0.48189065 2.5612288
0.017755957 -0.47818491 2.5868881
0.12175111 -0.47395584 2.585022
0.15372713 -0.47663733 2.5986059
0.30670151 -0.47805229 2.5743098
0.36908388 -0.47400045 2.5698283
0.42070973 -0.47356796 2.5622356
0.47619468 -0.46049479 2.5538566
0.5393948 -0.47322193 2.5694103
0.57007951 -0.47350588 2.5714316
0.62617278 -0.47027543 2.588176
0.65982902 -0.46709558 2.5643413
0.7296086 -0.47137591 2.5762546
2.840234 0.32798046 2.5952311
2.871269 0.32960448 2.5912905
2.8939819 0.45409867 2.5956321
2.7973495 2.3428252 2.587518
2.8380997 2.3324316 2.5877571
1.6448797 2.3846319 2.5802798
2.7589548 2.3773544 2.5816576
1.6778387 2.4071641 2.5949163
1.726944 2.4166675 2.5909228
1.7618008 2.4092569 2.5898848
1.8287112 2.4144604 2.5713882
1.8817489 2.4217529 2.5775962
1.9222366 2.41978 2.577244
1.9797492 2.4273202 2.5808129
2.0126865 2.4261241 2.5862577
2.0741773 2.4346418 2.5594988
2.1264026 2.4356155 2.5848861
2.1584289 2.4319651 2.5868921
2.2106779 2.4491322 2.5798624
2.2919319 2.4382582 2.550555
2.3556139 2.4472203 2.5671339
2.7434232 2.4161167 2.592046
2.2939448 2.4603229 2.5867107
2.3428214 2.4534781 2.5869787
2.3936651 2.4670963 2.574605
-0.078600332 -0.47837397 2.6102288
-0.034807384 -0.47406566 2.6228614
0.028594114 -0.46925619 2.6319051
0.066247314 -0.47905073 2.6141977
0.34372085 -0.47916692 2.600539
0.52481228 -0.47059879 2.6049855
0.57057261 -0.4640516 2.6362624
2.7253799 0.33186957 2.6299131
2.7748125 0.33378986 2.6134093
2.8174748 0.33588552 2.6053724
2.8701506 0.34776914 2.6043267
2.7331011 0.37533358 2.6322765
2.7812908 0.37409773 2.6179948
2.825912 0.38479391 2.6153846
2.8813295 0.37521064 2.6112885
2.7390075 0.42367375 2.6396687
2.7653718 0.43190867 2.6206365
2.8226991 0.42914659 2.6176183
2.8666351 0.41779852 2.6083658
2.9003999 0.40275121 2.6089408
2.7401693 0.48007068 2.6403818
2.7716198 0.47798094 2.6261172
2.8332977 0.46856144 2.6184654
2.87047 0.47554421 2.6114511
2.9089007 0.4827131 2.6048627
2.7448182 0.52373993 2.6376886
2.7870033 0.52139747 2.6273208
2.8311923 0.52172142 2.6240809
2.874567 0.52491814 2.6152005
2.9152806 0.51006591 2.6062169
2.773926 0.57045245 2.6383059
2.8260105 0.57442325 2.6258612
2.8768163 0.57458645 2.6115232
2.9068942 0.59962982 2.6150775
2.7376366 0.62878358 2.6430609
2.7751067 0.62285846 2.6323225
2.8234918 0.62259328 2.622057
2.8744094 0.62694448 2.6231909
2.9069934 0.62605733 2.6097627
2.7423382 0.6729539 2.6382272
2.7777188 0.67531419 2.6235273
2.8286502 0.67599374 2.6155272
2.8732533 0.66386747 2.6196783
2.9087963 0.65285408 2.6057701
2.7443578 0.72668642 2.6388493
2.7722116 0.73344952 2.6293452
2.8215272 0.72537935 2.6220517
2.8638294 0.72078222 2.6142864
2.9030881 0.74392229 2.6129076
2.7378731 0.77990109 2.6411378
2.7665875 0.77775192 2.6241736
2.8203976 0.76566851 2.6142488
2.8740463 0.78179371 2.6174712
2.9102714 0.78122044 2.6104178
2.7369688 0.81426299 2.6311059
2.779393 0.8258459 2.6266556
2.826252 0.81965566 2.6109123
2.8769379 0.83237952 2.6152749
2.9197381 0.81044877 2.6118796
2.7794828 0.87690455 2.6407173
2.8221169 0.86849737 2.624275
2.874655 0.87862462 2.6171508
2.9041212 0.85550809 2.6185839
2.7744818 0.93418664 2.6354747
2.8242204 0.91444588 2.6242738
2.8743818 0.9286502 2.6156898
2.9150753 0.94807971 2.6019642
2.7684445 0.97547913 2.633312
2.8281298 0.97527403 2.6266358
2.8849907 0.97173268 2.6223004
2.912683 0.98903078 2.6214902
2.747719 1.0302269 2.6451836
2.7830887 1.0247879 2.6326268
2.8269086 1.0295711 2.6161401
2.8780365 1.0205603 2.619653
2.9212461 1.0189737 2.6203353
2.7391448 1.0953852 2.64816
2.7631164 1.0739622 2.6326621
2.8235941 1.0777063 2.6223493
2.8562806 1.0711172 2.6061776
2.9051948 1.0737101 2.6206734
2.7438622 1.1149595 2.646281
2.7723064 1.123781 2.6388526
2.8235204 1.1268663 2.6281168
2.8662665 1.1320446 2.6123929
2.9104118 1.1117604 2.6125588
2.7415271 1.1670309 2.6240642
2.7742426 1.1727455 2.640429
2.8295619 1.1723183 2.6235459
2.8803589 1.1749347 2.6172159
2.9014421 1.1786395 2.6142111
2.7443495 1.2113849 2.6458554
2.7829466 1.2295221 2.6460421
2.8157148 1.2231716 2.6306109
2.8760438 1.2246504 2.6234059
2.9197714 1.2226025 2.6165779
2.7789376 1.276628 2.6404381
2.8271563 1.2732615 2.6230068
2.8725719 1.2724432 2.6186206
2.9061966 1.270152 2.6195254
2.7723897 1.3225716 2.6442208
2.8236768 1.3223931 2.6228931
2.8836608 1.3270948 2.6263852
2.901499 1.3403031 2.6219988
2.7421937 1.3704884 2.6498837
2.7725883 1.3699328 2.6392336
2.8182716 1.3723218 2.6259212
2.8710742 1.3620639 2.6159172
2.9049056 1.3602535 2.6171923
2.7872276 1.4233488 2.6292331
2.8185239 1.4178921 2.6244345
2.7723525 1.4799379 2.6482222
2.8230884 1.4715399 2.6313777
2.8726914 1.4774376 2.6219273
2.7853584 1.5273709 2.6379898
2.8226209 1.5229708 2.6216147
2.8834949 1.5200828 2.6143148
2.7736995 1.5763006 2.6414053
2.8209782 1.5809323 2.6258476
2.8724041 1.5690078 2.6223848
2.7797942 1.6226747 2.6417503
2.8172677 1.6276999 2.6301544
2.8678827 1.6248014 2.6215773
2.7775099 1.6804893 2.6384037
2.8186536 1.6717902 2.6254663
2.8783271 1.6783402 2.626442
2.7888994 1.7304527 2.6462796
2.8238804 1.7335491 2.6357515
2.8762729 1.7237744 2.6266618
2.9010828 1.7437525 2.6201916
2.8216269 1.7826557 2.6398284
2.8748434 1.7746793 2.6243775
2.9182239 1.7922 2.6155093
2.7967353 1.822531 2.6464505
2.8307836 1.8251709 2.6349776
2.8828096 1.8289461 2.6216927
2.9154437 1.8095473 2.6028459
2.7810621 1.8624159 2.6442518
2.824038 1.8721913 2.6338849
2.8761618 1.8740548 2.6254551
2.9102273 1.8721528 2.6224535
2.7846837 1.9091678 2.6429384
2.8253078 1.9249731 2.6397657
2.8634627 1.92081 2.6373584
2.786809 1.9811515 2.6455164
2.8230729 1.9721577 2.6371646
2.8761535 1.9760547 2.6326585
2.9139528 1.9708844 2.6331849
2.822861 2.0300651 2.6363506
2.8773704 2.0306368 2.6338899
2.9205289 2.0209613 2.6337609
2.8306353 2.0668628 2.6334944
2.8801446 2.0784676 2.6304266
2.9106855 2.0501735 2.6248322
2.8125749 2.1105714 2.6459894
2.8684855 2.1224284 2.6377857
2.873862 2.1821301 2.6375904
2.823267 2.2119932 2.6418614
2.8725753 2.2275026 2.6368079
2.9039106 2.2364287 2.6317024
2.7870488 2.2913458 2.6492131
2.8181956 2.282795 2.6339421
2.8823576 2.2826481 2.6381464
2.9202909 2.2790506 2.6282659
2.7832117 2.3317766 2.6287529
2.8152835 2.3193412 2.613929
2.8830843 2.3131704 2.6202898
2.9244094 2.3023057 2.6197202
2.7617233 2.3740542 2.6249332
1.5945456 2.4129086 2.6487477
1.6364511 2.4103727 2.6225433
1.6741282 2.4094095 2.6401842
1.7213959 2.4041357 2.6191776
1.7757622 2.4106269 2.6245773
1.8090239 2.4106917 2.6257091
1.8929745 2.4207203 2.6322949
1.9210763 2.4229071 2.625387
1.9765438 2.427417 2.6261597
2.0368426 2.4369187 2.6316154
2.0857153 2.4421291 2.6301968
2.1248608 2.4369235 2.6403503
2.1578655 2.4336088 2.6352067
2.2297211 2.4420905 2.6233406
2.3720419 2.445812 2.6473179
2.7423077 2.4325423 2.6244912
2.1030912 2.4501822 2.6095898
2.2085271 2.4580197 2.6190019
2.2741666 2.4598722 2.622885
2.3270123 2.456929 2.6197188
2.3801889 2.4538305 2.6239021
2.4322867 2.468153 2.6199546
2.4623599 2.459918 2.6076832
0.58839601 -0.46797103 2.6566343
0.64374101 -0.47040144 2.6623566
2.7090499 0.33293954 2.6616883
2.7247608 0.37762833 2.6720612
2.726563 0.43425044 2.6743715
2.7280722 0.47868156 2.6740875
2.7320106 0.52133358 2.6775708
2.7342682 0.56968528 2.6678574
2.7663076 0.57099646 2.6504748
2.7302897 0.62308073 2.6753237
2.7348878 0.68050897 2.6755204
2.7343402 0.72634524 2.6710026
2.7279298 0.78197163 2.6638994
2.7243762 0.82223809 2.6698127
2.7426541 0.87624645 2.6707499
2.7388127 0.9319067 2.6759899
2.7523298 0.9203378 2.6508107
2.73564 0.97159177 2.6723213
2.7315845 1.0230454 2.6708539
2.7301047 1.0747932 2.6666827
2.7342777 1.1325129 2.6766942
2.7388394 1.1772227 2.6710129
2.7349558 1.2240193 2.6663654
2.7586658 1.2356046 2.6524885
2.7471638 1.2695212 2.6804481
2.7531633 1.2861069 2.6620598
2.745049 1.324464 2.682693
2.7609189 1.3348116 2.6503708
2.7393327 1.35549 2.6718404
2.7564363 1.3912048 2.676446
2.7578468 1.4238075 2.6670995
2.7578075 1.4696888 2.6737511
2.7481868 1.5266595 2.6861603
2.7613056 1.5298852 2.6620195
2.7458014 1.5747366 2.6724384
2.756237 1.5610523 2.6533132
2.7461352 1.6225996 2.688077
2.7550144 1.6262413 2.6579027
2.7492757 1.661597 2.6719022
2.7574003 1.694442 2.6650686
2.749685 1.7385342 2.6716194
2.7639177 1.7272224 2.6694164
2.7754273 1.7826236 2.6732543
2.7644496 1.819836 2.6667044
2.761888 1.8729639 2.6703887
2.7617557 1.9205354 2.6818123
2.7705812 1.9649681 2.6678746
2.7827845 2.029568 2.6605132
2.791312 2.0905182 2.6641657
2.7794857 2.1343732 2.6709588
2.8439295 2.1365833 2.6524382
2.7649174 2.1810813 2.6755831
2.817749 2.1782079 2.6549203
2.8542256 2.1640079 2.6500728
2.7798297 2.2223554 2.6713688
2.800108 2.2464967 2.6525931
2.8592656 2.2423925 2.6523252
2.7809474 2.2707129 2.6830959
2.8345213 2.2582822 2.6509361
2.7722003 2.3234088 2.6735964
1.4412729 2.390408 2.6931813
1.4771335 2.3924437 2.6789241
1.5217177 2.3932061 2.6708596
1.5973581 2.3996289 2.6673238
1.6436832 2.3986452 2.6809878
2.7596188 2.378875 2.6713486
1.523827 2.4026406 2.6897986
1.5750688 2.4070556 2.6766376
1.626747 2.4042809 2.658504
1.6816156 2.4151702 2.6849713
1.7222173 2.4134429 2.6802216
1.7727594 2.4128723 2.6710565
1.8244706 2.4147201 2.6749456
1.8806235 2.4205961 2.675251
1.9348065 2.4236257 2.6753099
1.9714179 2.4238982 2.6527264
2.0316017 2.4341671 2.674845
2.0738518 2.4354608 2.6793499
2.109942 2.442498 2.6823118
2.1575985 2.4356279 2.6846385
2.2608035 2.4476664 2.6813068
2.3914065 2.4464908 2.6830254
2.7422009 2.4200599 2.6783655
2.7534318 2.4124792 2.6548955
2.1925182 2.4537902 2.6918945
2.22929 2.4533854 2.681668
2.2953629 2.4644527 2.6864269
2.3258643 2.4567196 2.667449
2.3628759 2.4560895 2.6720567
0.65460151 0.18616341 2.7306759
2.7224112 0.3377341 2.7230644
2.7284744 0.3817341 2.7240403
2.7290807 0.42506853 2.7190046
2.7248898 0.46909633 2.7247241
2.7273695 0.52322501 2.7351265
2.73107 0.57583678 2.7263229
2.7276416 0.62435907 2.7250414
2.7285862 0.67362046 2.7241042
2.7311726 0.72024775 2.7332163
2.7344377 0.77379537 2.7238035
2.7315197 0.82825089 2.7236907
2.7327962 0.88020831 2.7245884
2.7286572 0.91975141 2.7207282
2.7312901 0.98133022 2.7275443
2.7280076 1.0197862 2.7209377
2.735214 1.0722759 2.7231731
2.7310905 1.1278744 2.716794
2.732882 1.1771803 2.7186885
2.7333286 1.2190157 2.7152236
2.7449968 1.2752057 2.7188284
2.75193 1.2569306 2.7468314
2.7426422 1.3221602 2.7214568
2.7416048 1.3609617 2.7287359
2.7508008 1.3930173 2.7258351
2.7475245 1.4220771 2.734441
2.7514472 1.4391766 2.7057629
2.7453911 1.4732071 2.721117
2.741981 1.5157619 2.7259903
2.7492046 1.5779974 2.7145545
2.7523541 1.5798206 2.7176023
2.7455308 1.6238707 2.7265756
2.7457647 1.6751842 2.7273476
2.7531164 1.6845367 2.7050128
2.7576659 1.7201157 2.7192299
2.7608023 1.7729665 2.729121
2.7572289 1.824246 2.7166488
2.7653282 1.8806496 2.7379181
2.755924 1.9125259 2.7065723
2.7599761 1.9672104 2.7228715
2.76651 2.0176654 2.7238023
2.771101 2.1225655 2.7174561
2.7741902 2.1795466 2.730994
2.7724049 2.2360845 2.7074757
2.7646286 2.2844129 2.725302
2.7663977 2.3246987 2.7171409
1.3290923 2.3909426 2.7440953
1.3554542 2.3916419 2.7337565
1.4252434 2.3896914 2.7376299
1.4710027 2.3932872 2.721432
1.5209843 2.3961518 2.7273366
1.6374393 2.3976355 2.7230341
2.7626987 2.3733695 2.729656
1.4788978 2.4061084 2.7359409
1.5795097 2.4082026 2.728677
1.6246198 2.4138124 2.7337503
1.6825008 2.4068801 2.7229362
1.7298549 2.4097588 2.7321446
1.7782516 2.4145513 2.7122021
1.8208231 2.4171798 2.7339027
1.8781334 2.4225729 2.7228982
1.9178648 2.4184062 2.7209892
1.9776827 2.4371097 2.728955
2.0158279 2.4398711 2.724206
2.072402 2.4436789 2.7318115
2.1199179 2.4460721 2.727531
2.7412941 2.426904 2.718996
2.1906424 2.4538848 2.7401779
2.2970624 2.4676201 2.7387331
2.3290145 2.4610302 2.7209427
2.3650699 2.459054 2.7243464
2.4068782 2.4822581 2.7361805
2.6204765 2.4581251 2.7386816
0.64172757 -0.013497524 2.7989211
0.64930683 0.24229866 2.764034
0.65463525 0.22391829 2.7878621
0.6520642 0.25684154 2.7749531
2.5898511 0.3434875 2.7936735
2.6700497 0.33971643 2.7990093
2.714922 0.33779612 2.7752838
2.6272914 0.39796665 2.7955925
2.7159226 0.37108299 2.781321
2.7237599 0.42089733 2.7799442
2.7245409 0.47349131 2.7732928
2.6774054 0.53400338 2.796901
2.7226057 0.52729219 2.7793961
2.7267616 0.58437598 2.7793331
2.721966 0.62565339 2.7776289
2.7246368 0.66720021 2.7753448
2.7211633 0.73012334 2.7798362
2.7272706 0.78048581 2.7744482
2.7311723 0.82463676 2.7587972
2.7330861 0.86931479 2.7749734
2.7341716 0.92908472 2.7678635
2.7340131 0.96946913 2.7821622
2.7350404 1.0252925 2.7745907
2.7360203 1.0760101 2.7708948
2.7377586 1.1171086 2.768244
2.7350333 1.1762974 2.7729239
2.7430604 1.2246805 2.7863281
2.7515991 1.2385716 2.7537289
2.7368796 1.2854879 2.7674139
2.7560077 1.2671375 2.7851377
2.7386618 1.3197459 2.7680209
2.7559459 1.3310091 2.7970483
2.7376504 1.377279 2.7703507
