ply
format ascii 1.0
comment PCL generated
element vertex 1493
property float x
property float y
property float z
element camera 0
property float view_px
property float view_py
property float view_pz
property float x_axisx
property float x_axisy
property float x_axisz
property float y_axisx
property float y_axisy
property float y_axisz
property float z_axisx
property float z_axisy
property float z_axisz
property float focal
property float scalex
property float scaley
property float centerx
property float centery
property int viewportx
property int viewporty
property float k1
property float k2
end_header
-1.9274448 0.87284678 2.0360842
-1.9672397 0.92693764 2.0114179
-1.9314359 0.92143732 2.0354691
-1.9656868 0.97565693 2.0108781
-1.9315331 0.97628695 2.0346987
-1.967831 1.0267289 2.0132329
-1.9337164 1.0295976 2.0370266
-1.9699099 1.075026 2.0140588
-1.9336792 1.0734826 2.0394742
-1.9710598 1.1210625 2.0128317
-1.9322578 1.1213942 2.0402861
-1.9710946 1.1695974 2.018132
-1.940026 1.176734 2.0419021
-1.9764824 1.2271081 2.0170443
-1.9400913 1.2269915 2.0411248
-1.9722781 1.2847266 2.0192647
-1.9431534 1.2821279 2.0413842
-1.9705091 1.3311539 2.0208981
-1.9413848 1.3418078 2.0471749
-2.0035582 1.3704886 2.0043516
-1.9712926 1.376007 2.0234468
-1.9464744 1.366237 2.0406291
-2.0038657 1.4242353 2.0101533
-1.9741659 1.4230592 2.0317867
-2.0079596 1.4816988 2.010406
-1.9707595 1.475054 2.0332267
-2.0062075 1.5303036 2.0083196
-1.9815865 1.5255336 2.0292945
-2.0180023 1.5790794 2.0106251
-1.9777318 1.5697037 2.0384288
-2.0148699 1.6260839 2.010412
-1.9810452 1.628837 2.0382118
-2.0188038 1.6787497 2.0149882
-1.9831176 1.6742749 2.0375109
-2.0132768 1.7242223 2.0175827
-1.986545 1.7265251 2.0430479
-2.0186825 1.7722564 2.0114105
-1.9848773 1.7739207 2.0365801
-2.0231626 1.8267999 2.0168517
-1.9899013 1.8220253 2.040514
-2.0515747 1.8910291 2.0013444
-2.0247409 1.8795527 2.0189657
-1.9965622 1.8813833 2.0432053
-2.0258732 1.9231468 2.0190649
-1.9917765 1.9215292 2.0437086
-2.025044 1.9675246 2.0233228
-1.996178 1.9560553 2.0454662
-2.0223634 2.0224848 2.0342951
-1.9947256 2.0004749 2.0489032
-2.0207264 2.0733752 2.0423613
-1.7828672 -0.55077726 2.08184
-1.727458 -0.56177342 2.0711188
-1.8716763 -0.51499599 2.0648167
-1.8241428 -0.52481371 2.0794995
-1.772666 -0.54521441 2.0949664
-0.41241202 -0.50599736 2.0545461
-0.36901841 -0.51025385 2.0723054
-0.32451203 -0.51325959 2.0773568
-0.27122152 -0.52068156 2.0817399
-0.22482939 -0.52066123 2.0779812
-0.17793752 -0.5256536 2.0713544
-0.12892483 -0.53390205 2.0730128
-0.08073815 -0.5394069 2.0787346
-0.035557054 -0.54420632 2.0866036
0.012694682 -0.53498381 2.071599
0.053530801 -0.5399068 2.090246
-1.8642594 -0.47097576 2.0633097
-1.8304873 -0.47538525 2.0889952
-0.41854727 -0.47453648 2.0580521
-0.37490138 -0.47753084 2.0764499
-0.3336733 -0.47655967 2.0930717
0.77621698 -0.48072001 2.0595472
0.81314659 -0.47969696 2.0969193
0.86953682 -0.47695467 2.0675302
0.91325897 -0.47903168 2.0643539
-1.8719236 -0.42322367 2.0640743
-1.8341119 -0.41973355 2.0919809
-0.45424804 -0.41474268 2.0525444
-0.42223585 -0.42474893 2.0639906
-0.37425083 -0.42772174 2.0849411
-0.34268308 -0.42284355 2.0956428
-1.9022731 -0.3525551 2.0517664
-1.8732489 -0.3707681 2.064544
-1.8400156 -0.37297133 2.090241
-0.45530003 -0.37225556 2.0548241
-0.42192185 -0.37391093 2.0689609
-0.37357894 -0.37612456 2.0876894
-0.34452987 -0.387898 2.0986741
-1.9027016 -0.32108873 2.0565908
-1.8704351 -0.31992745 2.0685699
-1.8386626 -0.31990337 2.0920639
-0.45900515 -0.32101649 2.0538044
-0.425098 -0.32261994 2.0691667
-0.3774249 -0.32618481 2.0885668
-1.8735936 -0.26917315 2.0662522
-1.8360912 -0.27180174 2.0930843
-0.46247905 -0.27249843 2.0533383
-0.42505464 -0.27162641 2.069412
-0.37737662 -0.27352589 2.0903428
-1.9110932 -0.21334155 2.0538323
-1.87211 -0.22506706 2.0690644
-1.8406796 -0.2188222 2.0933743
-0.46449932 -0.22895786 2.0540628
-0.42471555 -0.22114162 2.0716472
-0.37957522 -0.2231728 2.0912285
-1.8711879 -0.18108058 2.071631
-1.839221 -0.1747905 2.0951605
-0.46167022 -0.17963418 2.0538783
-0.42496476 -0.17170687 2.0712335
-0.37913263 -0.17014182 2.0895352
-1.9064094 -0.13743956 2.054219
-1.8729104 -0.13265945 2.0715628
-1.8412348 -0.12660532 2.0924311
-0.46146417 -0.12966447 2.0554235
-0.42554876 -0.12319153 2.0720422
-0.37990025 -0.12055127 2.0908148
-1.9009159 -0.061892547 2.0513446
-1.8719424 -0.078907721 2.072767
-1.8406343 -0.084837981 2.0934713
-0.46339917 -0.077177338 2.0542648
-0.4279485 -0.073017061 2.0711987
-0.38261649 -0.07102982 2.0917339
-1.9021491 -0.011794622 2.0533774
-1.8698303 -0.031855963 2.0741103
-1.8395216 -0.02687715 2.0965686
-0.46078831 -0.029836554 2.054914
-0.42830458 -0.027391283 2.0716026
-0.38184172 -0.023678875 2.0913136
-1.9069149 0.019599244 2.0583866
-1.8739097 0.020946331 2.0728912
-1.8434305 0.01319081 2.0940316
-0.46320415 0.025697306 2.0558274
-0.42688248 0.021160422 2.0718601
-0.38282755 0.01969623 2.0914464
-1.9034599 0.08854764 2.0530446
-1.8711963 0.069218203 2.0735872
-1.8379345 0.069549039 2.0985289
-0.46628094 0.07986068 2.0554795
-0.42383566 0.071011014 2.0741665
-0.38240725 0.070743658 2.0931911
-1.9061559 0.10123509 2.0554371
-1.8715121 0.12042491 2.0669465
-1.837073 0.12682723 2.0846851
-0.56046349 0.11067046 2.0557783
-0.50910765 0.11043098 2.0601854
-0.47037748 0.10948091 2.0803156
-0.42564991 0.10210156 2.0785685
-0.38670409 0.10116267 2.0946531
-1.8851681 0.15079424 2.0534816
-0.85998034 0.17373306 2.0609095
-0.82816702 0.17745189 2.0858746
-0.85676652 0.20849454 2.0602846
-0.82325345 0.20661052 2.0724959
-0.83381575 0.29663354 2.0975039
-1.8084769 0.31925839 2.0918708
-1.871518 0.38763916 2.0589018
-1.8269801 0.37509605 2.0857105
-1.8723801 0.42174616 2.0661395
-1.8340538 0.42817172 2.0782185
-1.8736154 0.47551692 2.0635347
-1.8406327 0.47889417 2.0935051
-1.8723465 0.52847791 2.0693374
-1.8414907 0.52871138 2.0948253
-1.9005017 0.58854425 2.0506699
-1.8767327 0.57371068 2.067446
-1.8416115 0.57741892 2.09389
-1.8740517 0.62315089 2.0710111
-1.8410578 0.6172328 2.0934715
-1.9045101 0.68404293 2.0548208
-1.8759868 0.67438096 2.0707362
-1.8429204 0.679712 2.0926268
-1.9069961 0.7253074 2.0539873
-1.8728024 0.72238964 2.0731168
-1.8420839 0.72344476 2.0961359
-1.9050379 0.77980345 2.051517
-1.8754946 0.77295244 2.0734887
-1.8462015 0.77000237 2.095638
-1.9020082 0.83609927 2.0548868
-1.8742173 0.82760531 2.0728757
-1.8452196 0.82094175 2.0952549
-1.9060417 0.85750312 2.0521283
-1.8759907 0.87833279 2.0738735
-1.8419418 0.8776688 2.0978992
-1.9054388 0.92242813 2.0537548
-1.87284 0.92284751 2.0764818
-1.8485801 0.90710145 2.0957325
-1.9070542 0.97439253 2.0554407
-1.8743532 0.97284907 2.0760324
-1.8463625 0.96537417 2.0976651
-1.9087391 1.0270083 2.0562155
-1.8750823 1.0239855 2.0779729
-1.8466506 1.0323935 2.0983746
-1.9093783 1.0763317 2.0563104
-1.8745209 1.0700581 2.0807436
-1.9097223 1.1192881 2.058399
-1.8767772 1.1198127 2.0820487
-1.9177023 1.173173 2.059829
-1.8789485 1.1753311 2.0816445
-1.9116718 1.2308259 2.0599558
-1.8805838 1.2292081 2.086108
-1.9158255 1.2793815 2.0626519
-1.8809264 1.2797431 2.0908177
-1.9218559 1.3269295 2.0624561
-1.883785 1.3338484 2.0890532
-1.9207979 1.3747307 2.0614877
-1.8855219 1.3743801 2.088769
-1.9246947 1.4193382 2.0670009
-1.8884397 1.4193096 2.0914655
-1.9226092 1.4742843 2.0701818
-1.8923594 1.465615 2.0947199
-1.9569861 1.5326389 2.0538561
-1.9267107 1.5198981 2.0722659
-1.9572216 1.5801862 2.0578356
-1.9235307 1.5689914 2.0798311
-1.8889841 1.564115 2.0958261
-1.9624484 1.6193099 2.0579319
-1.9291786 1.6251835 2.0803025
-1.959754 1.6726178 2.0590971
-1.9288856 1.6778116 2.0872622
-1.9644861 1.7248421 2.0647645
-1.9309045 1.7295713 2.0870852
-1.959107 1.771623 2.0622275
-1.9308202 1.7786047 2.0869555
-1.9625391 1.8243153 2.0655146
-1.9322474 1.8306653 2.086874
-1.9701089 1.8726572 2.0593646
-1.9349148 1.8800136 2.0861456
-1.9671705 1.9211245 2.0647442
-1.940848 1.9311576 2.0918162
-1.9703913 1.9717022 2.0645251
-1.9407461 1.9693036 2.0897417
-1.9689205 2.029978 2.0801733
-1.9477313 2.0308712 2.0966792
-2.0115349 2.0877814 2.0540552
-1.9831903 2.0669351 2.0725486
-2.0077214 2.1158476 2.0656824
-1.9802967 2.1183167 2.0847754
-2.0038154 2.1521168 2.0714829
-1.984592 2.1648991 2.0863831
-1.981016 2.2023177 2.0924082
-1.7514076 -0.55077159 2.1040497
-1.72754 -0.55536509 2.1169319
-1.8045883 -0.51129591 2.1046877
-1.7719282 -0.52274841 2.1259573
-1.7342656 -0.54271537 2.1457834
-0.30593655 -0.50388479 2.102515
-0.27335781 -0.50952351 2.1092424
-0.22332709 -0.51295584 2.1275668
-0.17371203 -0.52746069 2.1276369
-0.1234102 -0.53499156 2.1251655
-0.069927491 -0.53381437 2.1293337
-0.028343422 -0.54084688 2.1203487
0.018259089 -0.54171646 2.139739
0.078304268 -0.54251552 2.1419854
0.14877099 -0.53221494 2.1418176
0.15836328 -0.52939069 2.1299574
0.28455397 -0.52195781 2.1351266
0.34140414 -0.52113008 2.126123
0.37952021 -0.51974005 2.1159799
0.41718286 -0.51809245 2.1043887
-1.8070444 -0.46870986 2.1077807
-1.7733636 -0.47444355 2.1322465
-0.31482384 -0.46488187 2.1043832
-0.27617493 -0.47496998 2.1186757
-0.24129331 -0.47742614 2.1325526
0.8164202 -0.47936678 2.1214747
0.86350948 -0.47922146 2.1351106
0.9244073 -0.4768917 2.1053345
-1.8083926 -0.42293105 2.1116946
-1.7783121 -0.42167717 2.1340563
-0.31869477 -0.42332298 2.1092803
-0.27632305 -0.42357168 2.1270065
-0.24141213 -0.42573133 2.1408668
-1.8158602 -0.36817005 2.1084688
-1.7796204 -0.37105498 2.1350012
-0.32356119 -0.37528655 2.109143
-0.27512112 -0.37230957 2.1307161
-0.24188563 -0.37482584 2.1461313
-1.8147826 -0.32015145 2.1119945
-1.7820745 -0.31996718 2.1327941
-0.35634291 -0.32013017 2.1022041
-0.32471219 -0.32728007 2.1117136
-0.27667829 -0.3259114 2.1333203
-0.24363217 -0.32899785 2.1438172
-1.8143125 -0.26736489 2.1135418
-1.7794462 -0.26928887 2.1353629
-0.35365248 -0.27476478 2.1027236
-0.32445228 -0.27593049 2.1148496
-0.27526727 -0.27787074 2.1344543
-0.24524041 -0.27880865 2.1441708
-1.8144763 -0.22498822 2.1098833
-1.7779539 -0.22516531 2.137758
-0.35681021 -0.22219677 2.1024516
-0.32368022 -0.2242889 2.1137333
-0.27476504 -0.22599801 2.1345735
-0.24515255 -0.22709855 2.1473587
-1.8137522 -0.18104237 2.112509
-1.7790951 -0.18362536 2.1376095
-0.35418591 -0.17579766 2.1025057
-0.32344627 -0.17317742 2.1153195
-0.27482736 -0.17467239 2.1382356
-0.24494144 -0.19078727 2.147815
-1.8137764 -0.13149887 2.1155655
-1.7899643 -0.1337405 2.1346993
-0.354947 -0.11864267 2.1023278
-0.32327205 -0.12217155 2.1165116
-0.2744897 -0.12313435 2.1378863
-0.24476023 -0.1236546 2.1493793
-1.8160216 -0.080893144 2.120271
-0.35496119 -0.06943655 2.103833
-0.32311109 -0.071210317 2.11691
-0.27612975 -0.071322173 2.1380808
-1.8211198 -0.030695116 2.1154366
-0.35524967 -0.028647488 2.1032434
-0.32316428 -0.025411135 2.1179321
-0.27675521 -0.026763238 2.1396894
-1.8190771 0.0209102 2.1212599
-0.35641468 0.021421518 2.103364
-0.32338172 0.020415602 2.1193397
-0.27614495 0.021900749 2.1387985
-1.8145491 0.069587588 2.1186883
-0.35723975 0.070999309 2.1041036
-0.3235209 0.071394704 2.1195495
-0.27457562 0.071909815 2.1398535
-1.8134211 0.11802101 2.1176677
-1.2788215 0.14907168 2.1456246
-0.43743935 0.11263414 2.1138372
-0.36275455 0.10153351 2.1053634
-0.32401457 0.1021184 2.1219125
-0.27987894 0.10277025 2.1398454
-1.2604116 0.15962975 2.1382492
-1.224731 0.15867338 2.1378403
-0.80753237 0.15796563 2.1004033
-0.77612036 0.17495833 2.1239557
-0.74419594 0.18150692 2.1474848
-0.81011331 0.20597607 2.1042361
-0.77593821 0.20672582 2.1215186
-0.73866481 0.21346235 2.1461396
-0.76531655 0.29880825 2.1325991
-1.8027292 0.32672283 2.1080158
-1.7949375 0.3142859 2.1162944
-0.82370603 0.32673535 2.1293101
-0.79148698 0.31784564 2.1385715
-1.8142278 0.37681976 2.1207287
-0.85357338 0.36873472 2.1400118
-1.8211002 0.4236317 2.1175501
-0.85601747 0.43499523 2.1375027
-1.8165331 0.47979444 2.1192651
-0.69788098 0.49596184 2.1477659
-1.8186468 0.52868861 2.1189222
-1.7973882 0.54980159 2.1359959
-0.82674164 0.54346067 2.1433315
-1.8150259 0.57315546 2.1200233
-1.7961975 0.57706332 2.1409917
-0.81243658 0.55736852 2.1225467
-0.79058027 0.56258959 2.1336193
-1.8149432 0.62172621 2.1157532
-1.7947814 0.62357438 2.1407542
-1.8174258 0.67503762 2.11414
-1.7878963 0.67601305 2.1375594
-1.8180672 0.72509825 2.1139278
-1.7815305 0.72236776 2.1357534
-1.8234245 0.77036119 2.1126368
-1.7846451 0.77162832 2.138252
-1.8194503 0.82755685 2.1128876
-1.7832127 0.83021593 2.1388752
-1.8158603 0.87767494 2.1176472
-1.7835903 0.87786108 2.1420593
-1.822336 0.92353773 2.1121321
-1.7900292 0.92471677 2.1358473
-1.8214207 0.97455716 2.1159577
-1.7879926 0.97585201 2.1412728
-1.8202617 1.0230221 2.1170659
-1.7842411 1.024228 2.1427791
-1.8239281 1.0720137 2.1172743
-1.7908051 1.0666887 2.1414943
-1.8528291 1.103919 2.1040411
-1.823992 1.1259726 2.1205177
-1.7912887 1.1229155 2.1421394
-1.8530421 1.17314 2.1010914
-1.8268849 1.1788405 2.1230574
-1.7936683 1.1809196 2.145539
-1.8552456 1.2378834 2.1020803
-1.8235419 1.2280997 2.1283903
-1.7952131 1.2136552 2.1472225
-1.8544955 1.2878762 2.10567
-1.82714 1.2810889 2.13044
-1.8579201 1.3313538 2.1082547
-1.8264767 1.3285476 2.1292713
-1.7976274 1.3449228 2.1455469
-1.8593464 1.3808187 2.1126502
-1.8249832 1.377432 2.1338828
-1.8712242 1.4283986 2.1102095
-1.8324769 1.419772 2.1357608
-1.8691683 1.4770861 2.1136203
-1.83713 1.4756352 2.1398916
-1.9010344 1.5335798 2.1003931
-1.8745859 1.5277239 2.1124222
-1.8371421 1.5300064 2.1409113
-1.869146 1.574306 2.1201293
-1.8415917 1.5732518 2.1386793
-1.9056339 1.6483264 2.1036561
-1.8761826 1.6271651 2.1212826
-1.8414761 1.6194118 2.1442394
-1.9003423 1.6857289 2.1055415
-1.8726213 1.6749856 2.127095
-1.8420855 1.685932 2.1497154
-1.9045832 1.725584 2.1039014
-1.8796812 1.7274694 2.1265309
-1.8484689 1.7064948 2.147193
-1.9047122 1.7762893 2.1059651
-1.8749532 1.7761855 2.1278913
-1.9073349 1.8278531 2.1055868
-1.8806556 1.8186051 2.1272562
-1.9101479 1.8852957 2.1141124
-1.881667 1.874465 2.1341262
-1.9171494 1.9302907 2.1137903
-1.8801212 1.9251082 2.1349492
-1.9184023 1.9761755 2.1139684
-1.8795907 1.9709702 2.1400285
-1.9243513 2.0229537 2.1184814
-1.8902997 2.0197532 2.143261
-1.9530352 2.0840702 2.1071117
-1.9245325 2.0708156 2.1235535
-1.8932517 2.0707006 2.145
-1.9586066 2.1057491 2.1015451
-1.9247611 2.1234646 2.1254518
-1.8968593 2.1067963 2.1455648
-1.9575214 2.1779394 2.106704
-1.9257036 2.1721823 2.1251485
-1.8935038 2.1522911 2.1462924
-1.9210742 2.2065992 2.1388812
-1.7291967 -0.52184761 2.1693659
-0.2202241 -0.50413525 2.1803827
-0.1761435 -0.52119029 2.1750019
-0.12355199 -0.52854615 2.1763675
-0.074930318 -0.53161007 2.1789994
-0.026362246 -0.53554082 2.1752658
0.027193137 -0.53874451 2.164077
0.075255968 -0.54324412 2.1814365
0.11301629 -0.53582448 2.1578221
0.18375425 -0.53241801 2.1855989
0.23796737 -0.53453326 2.1908529
0.25570875 -0.52706593 2.1586699
0.32726946 -0.52669805 2.1738219
0.39302433 -0.5239048 2.1779222
-1.7539957 -0.45447242 2.1509266
-1.7238153 -0.47385985 2.1703358
-1.6968058 -0.47518277 2.1967399
-0.23251876 -0.49178714 2.1979342
-1.7527177 -0.42257613 2.154623
-1.7218779 -0.42278761 2.1764214
-1.6931117 -0.43617415 2.1983776
-1.7508609 -0.39058068 2.1572754
-1.7231601 -0.37045702 2.1761546
-0.23680599 -0.36432996 2.1541157
-1.7582154 -0.32022795 2.1516771
-1.7275788 -0.32039931 2.1735246
-1.6981066 -0.32080701 2.196322
-0.23677754 -0.31744248 2.1586809
-1.7553122 -0.26946354 2.153754
-1.725391 -0.26972094 2.1762991
-1.6949925 -0.27620044 2.1971178
-0.23730205 -0.27640539 2.1671991
-1.75325 -0.22524111 2.1553495
-1.7234678 -0.21920131 2.1784341
-0.23741332 -0.22955489 2.1717629
-1.7590847 -0.17329364 2.1561568
-1.7259657 -0.18177944 2.1844201
-0.24131715 -0.17559357 2.1699162
-1.7949731 -0.13284883 2.1767507
-1.719692 -0.11263642 2.1922386
-0.24493584 -0.12374501 2.1508672
-1.7218863 -0.08113876 2.1900449
-0.25519317 -0.077309996 2.1510453
-0.24523604 -0.072258726 2.1550369
-0.25501078 -0.015421163 2.1503379
-0.24504279 -0.02575619 2.1540101
-0.25508806 0.0051921508 2.1510086
-0.24581718 0.020753808 2.1608117
-0.24606624 0.072586194 2.1622386
-1.2620502 0.14978741 2.1661823
-1.2287273 0.14852643 2.1578653
-0.26109359 0.11109822 2.1697943
-0.24474807 0.10807884 2.1808114
-0.72046775 0.1763998 2.167573
-0.68180114 0.17706329 2.1899381
-0.72249192 0.20790555 2.1627798
-0.67977852 0.21120267 2.1872997
-0.63904464 0.21582599 2.1934042
-0.85779989 0.31606039 2.1567354
-0.81067675 0.34721017 2.155488
-0.77099651 0.3334204 2.1702087
-0.73538172 0.32505614 2.1890268
-0.86440998 0.39534512 2.1644497
-0.81477964 0.37943289 2.1692615
-0.77717757 0.37676904 2.1839044
-0.74189055 0.35056257 2.1953347
-0.86353844 0.41686487 2.1593466
-0.81710559 0.42545673 2.1794972
-0.78798133 0.42037287 2.1912389
-0.8668133 0.46805838 2.1603291
-0.82455045 0.46924657 2.1865125
-0.79535979 0.45467052 2.1989105
-0.68166113 0.49363813 2.1578493
-1.8121068 0.52854609 2.1589794
-0.88030165 0.50323915 2.1895511
-0.81841952 0.52784687 2.1749318
-0.78217393 0.53699666 2.185457
-0.7224772 0.52583855 2.1787622
-0.69443059 0.51619923 2.1897378
-1.8180388 0.58611125 2.1793866
-0.84598958 0.56237197 2.1536965
-0.7687487 0.55986351 2.1636193
-0.72615343 0.55856287 2.1804926
-1.7907367 0.63746548 2.1642196
-1.7644199 0.6780616 2.1645026
-1.7280124 0.68835014 2.187233
-1.7558514 0.72032404 2.1571465
-1.7273033 0.72388512 2.1803594
-1.7587376 0.77160954 2.156502
-1.7280419 0.7723217 2.1805766
-1.7590051 0.82328862 2.1584334
-1.7234497 0.82823884 2.183737
-0.68461782 0.82288665 2.1907444
-1.7590685 0.88062888 2.1591375
-1.727815 0.87676144 2.1821582
-1.7662374 0.92173761 2.1572373
-1.728511 0.92286801 2.1826272
-1.7627997 0.97317064 2.1609313
-1.7298956 0.9732396 2.1839149
-1.7595192 1.0252768 2.1639922
-1.7297854 1.0280066 2.1874483
-1.7644922 1.0729365 2.16221
-1.7326726 1.0695832 2.1866777
-1.7665976 1.1265786 2.1642239
-1.7368436 1.1190872 2.1880112
-1.7710828 1.1788249 2.1615663
-1.7369447 1.176187 2.1874559
-1.7712774 1.2328535 2.1687155
-1.7378021 1.2282367 2.1929708
-1.8013589 1.2822639 2.1530557
-1.7756649 1.2802285 2.170541
-1.7383783 1.2804822 2.1931577
-1.7738299 1.3289459 2.168762
-1.7412713 1.323348 2.195128
-1.7758188 1.375646 2.1748176
-1.7460382 1.367178 2.1960273
-1.8084009 1.4260241 2.1584206
-1.773936 1.4202145 2.179914
-1.7409725 1.4359939 2.1993849
-1.8117319 1.4760796 2.1598773
-1.7764431 1.4726197 2.1820593
-1.8091511 1.5248924 2.1603858
-1.7778077 1.5300786 2.1846187
-1.818298 1.5727092 2.1602535
-1.7826376 1.574545 2.1820354
-1.8189918 1.631617 2.1690674
-1.7851722 1.6231302 2.1900201
-1.8203678 1.6733141 2.1635423
-1.7882197 1.6760968 2.1885474
-1.8614777 1.7333293 2.1521728
-1.8208901 1.7271773 2.165277
-1.7895275 1.725757 2.1889696
-1.8543036 1.7702392 2.1513553
-1.8259559 1.7789885 2.1692703
-1.7916819 1.7818605 2.1927965
-1.8583373 1.8335226 2.1525154
-1.828276 1.8206147 2.1719716
-1.7907619 1.8308901 2.1957064
-1.8582885 1.8711517 2.1546826
-1.8246964 1.8752923 2.1765776
-1.8558537 1.937445 2.1513073
-1.8274205 1.9261304 2.1799686
-1.798828 1.941605 2.1986728
-1.8564129 1.9771717 2.1634314
-1.8251606 1.9765652 2.1841652
-1.8634396 2.0239341 2.162801
-1.8320246 2.0234146 2.1836221
-1.8697878 2.0706005 2.1609788
-1.8362839 2.069952 2.1865907
-1.8699007 2.119694 2.1660023
-1.8302374 2.1192605 2.1920297
-1.8670393 2.1661599 2.1672742
-1.8294535 2.1680555 2.1889541
-1.8746855 2.2083254 2.1721814
-1.8286704 2.2009609 2.1910427
-1.7131939 -0.50727332 2.2257237
-0.2028164 -0.50843489 2.2244883
-0.17564675 -0.51890922 2.2228661
-0.12316611 -0.5199151 2.2215552
-0.077068016 -0.52635056 2.2284765
-0.029831368 -0.53502166 2.2361956
0.028494868 -0.53725678 2.2279298
0.069876686 -0.53898877 2.2262814
0.12167431 -0.54057151 2.2220154
0.17338541 -0.5417248 2.224494
0.21395114 -0.54143202 2.2209778
0.29268533 -0.53596371 2.239399
0.32418913 -0.53396416 2.2280126
0.37853447 -0.53066677 2.2276654
-1.691462 -0.47090137 2.2154307
-0.22680448 -0.48882195 2.222507
-1.6882973 -0.42022571 2.2110145
-0.23554319 -0.42229393 2.2368004
-1.6880413 -0.37318099 2.2133074
-1.6860784 -0.32213578 2.2171221
-1.6845026 -0.27147907 2.2116573
-1.6946865 -0.22297256 2.2119999
-0.2318925 -0.21857356 2.2206235
-1.7142961 -0.16363181 2.2069438
-1.6978215 -0.17586504 2.2090442
-0.23283918 -0.17186069 2.2118902
-1.7075961 -0.10638997 2.2010546
-0.23594391 -0.12722713 2.2128968
-1.706298 -0.087455623 2.2000396
-0.23537216 -0.074051462 2.2090638
-0.23553514 -0.026432825 2.2113159
-0.23770455 0.016675247 2.2101779
-0.24098472 0.074199438 2.2114549
-0.24251494 0.13334115 2.2236831
-1.1150848 0.15827966 2.2390325
-0.6597448 0.17929401 2.2075679
-0.62809306 0.18147455 2.2236528
-0.59305251 0.18847016 2.2395926
-0.36114076 0.1820077 2.2464447
-0.24447815 0.16126579 2.2405319
-0.65913707 0.2062622 2.2039273
-0.62399256 0.21081868 2.2160625
-0.58026004 0.21444601 2.2338657
-0.54015565 0.21724361 2.226464
-0.71277976 0.33041635 2.2167487
-0.67432374 0.32696038 2.2353127
-0.64865857 0.30927289 2.2392769
-0.75604075 0.394308 2.2089679
-0.72544247 0.37436962 2.2214291
-0.68496442 0.3597734 2.2444799
-0.76398617 0.42834842 2.2108228
-0.72935283 0.4246065 2.2329853
-0.80763346 0.48719347 2.2059412
-0.77630836 0.47545198 2.2236881
-0.7385608 0.47517905 2.2422493
-0.8124643 0.50274587 2.2056382
-0.77692246 0.51533413 2.2060113
-0.69141048 0.53639168 2.2295372
-0.67581725 0.56132162 2.2220671
-0.6423223 0.56675899 2.2450433
-1.7018514 0.69170582 2.2064781
-1.6907933 0.69892299 2.2154472
-1.704914 0.72532153 2.201745
-1.6760216 0.72720557 2.2230282
-1.646349 0.73447001 2.2486458
-1.6782898 0.77325153 2.2169948
-1.6481271 0.77429318 2.2402225
-0.62616014 0.77520847 2.2070148
-1.67706 0.82615167 2.2197435
-1.6498337 0.80764276 2.2330589
-0.70236671 0.84196371 2.2055953
-0.67076254 0.83232903 2.2029848
-1.7028329 0.88657236 2.2035513
-1.6724372 0.87381256 2.2253206
-1.649667 0.85334516 2.2464652
-1.7073205 0.90864909 2.2025585
-1.6775484 0.92351371 2.2231874
-1.6473303 0.93161988 2.2452424
-1.7054044 0.98095602 2.2016702
-1.6737529 0.97286302 2.2240045
-1.6439939 0.99040329 2.247874
-1.7048024 1.0229861 2.2061546
-1.672208 1.0288644 2.2297704
-1.6485701 1.0131506 2.2466471
-1.7081995 1.0759693 2.2045231
-1.6765355 1.0715543 2.2276015
-1.6464097 1.0804503 2.2464895
-1.7103505 1.1216098 2.205796
-1.6765203 1.1225992 2.2271359
-1.644191 1.1103237 2.2456791
-1.7133688 1.1747767 2.2070758
-1.6744188 1.1788808 2.2347152
-1.7126745 1.2315459 2.210351
-1.678635 1.2316221 2.2330573
-1.7168254 1.2847974 2.2121527
-1.6819401 1.2821516 2.2355399
-1.7167809 1.332744 2.2145264
-1.6849115 1.3233197 2.2373421
-1.7248257 1.3740568 2.2156959
-1.687224 1.3683962 2.2389352
-1.7517844 1.4052342 2.2014689
-1.7181166 1.4207758 2.2239907
-1.6874933 1.4312613 2.2450292
-1.764317 1.4980651 2.2038202
-1.7246552 1.4763069 2.2222071
-1.6855483 1.4568121 2.2445335
-1.7547072 1.5234897 2.206744
-1.721004 1.5288552 2.2317119
-1.6881686 1.5494012 2.2487664
-1.7630826 1.5848969 2.2077675
-1.7280619 1.5742012 2.2315469
-1.7637266 1.6319306 2.205816
-1.7260996 1.6263173 2.2319438
-1.7651936 1.6821228 2.2105637
-1.7338992 1.6728474 2.2330322
-1.7699267 1.7256972 2.2093036
-1.7346357 1.7188723 2.2372186
-1.7666069 1.7678952 2.2094524
-1.7351717 1.7698721 2.2348614
-1.7689077 1.8289962 2.2139089
-1.7354028 1.8229158 2.2383745
-1.7696153 1.8806601 2.2152305
-1.7391844 1.8652042 2.2431939
-1.7701025 1.9300836 2.2198651
-1.7439451 1.9247271 2.2444675
-1.7759525 1.9790336 2.219476
-1.7416513 1.9776211 2.2428555
-1.8102543 2.0250306 2.2012715
-1.774403 2.0256171 2.2237675
-1.7411703 2.0090017 2.2397027
-1.809171 2.0725875 2.2055621
-1.7765247 2.0772586 2.2323568
-1.806735 2.1193562 2.2078805
-1.7788343 2.1269865 2.2304769
-1.8124374 2.178292 2.2036531
-1.7841043 2.1747854 2.2316623
-1.8022853 2.2076278 2.2184551
-1.7863438 2.2175496 2.2439427
-0.20743033 -0.5033778 2.2775607
-0.17198086 -0.51223427 2.2749851
-0.12389334 -0.51221281 2.2700222
-0.074479878 -0.51858777 2.2744339
-0.024769263 -0.52595508 2.2700336
0.020726332 -0.53002214 2.2690744
0.077049203 -0.5354625 2.276742
0.12879457 -0.53816289 2.2770839
0.17386499 -0.54177392 2.2817883
0.2236391 -0.54096806 2.2657402
0.27085567 -0.53812146 2.2699223
0.33288038 -0.53691906 2.2887726
0.37044689 -0.53458321 2.2748394
0.45393646 -0.5299108 2.2951972
-1.1077533 0.15221629 2.2707813
-1.0806426 0.1613695 2.2704189
-1.0345676 0.1633981 2.2868214
-0.6092959 0.16551945 2.254231
-0.57024395 0.17978768 2.2645304
-0.5333975 0.1813651 2.2853925
-0.37557396 0.18474689 2.2802632
-0.34598428 0.19622613 2.2617202
-0.5648753 0.20951852 2.2582285
-0.52530253 0.20975451 2.2800851
-0.48636344 0.21963888 2.2899771
-0.37509719 0.20812248 2.2690322
-0.3493242 0.20912482 2.2829013
-0.5703944 0.25608322 2.2771311
-0.65385902 0.33958548 2.2544847
-0.62699664 0.32899946 2.2644718
-0.7019884 0.3916949 2.2513793
-0.67084068 0.38141504 2.2647202
-0.63538307 0.37409067 2.2796268
-0.70981395 0.42870671 2.2555397
-0.67240393 0.42218295 2.2682955
-0.63546848 0.42377856 2.2848349
-0.71676391 0.47583982 2.2623956
-0.67711383 0.46610314 2.2813935
-0.63675261 0.46429646 2.2841783
-0.6764673 0.52848333 2.2760336
-0.6350199 0.54120922 2.2883043
-0.65831459 0.55395335 2.2621274
-0.62079644 0.56611151 2.2756426
-1.7441102 0.68901628 2.2663841
-1.723737 0.70860565 2.2730963
-1.6766748 0.72245872 2.2694628
-1.6326364 0.73705959 2.2682214
-1.6393932 0.77617204 2.2657564
-1.6508975 0.83428216 2.2542615
-1.6460314 0.82268775 2.2727036
-0.65638167 0.84458536 2.2585065
-0.63583195 0.83905512 2.258908
-1.6450789 0.87774241 2.2719321
-1.6263145 0.92482704 2.2740779
-1.5927677 0.94497097 2.2984948
-1.6214719 0.97068745 2.2652605
-1.5920548 0.98077905 2.2907901
-1.6210929 1.0261153 2.2679315
-1.5836787 1.0247095 2.2922928
-1.6228645 1.072793 2.2652431
-1.588919 1.0756433 2.2893827
-1.6233324 1.1225712 2.2671165
-1.5907032 1.1219952 2.2893431
-1.6504942 1.153053 2.2532539
-1.6215175 1.1700609 2.2706678
-1.5903695 1.1663256 2.2937696
-1.654204 1.2337595 2.2545183
-1.6239263 1.2178807 2.2737122
-1.5984941 1.21244 2.2959723
-1.6556925 1.2831225 2.2550135
-1.6243134 1.2681317 2.2780292
-1.5931261 1.2601246 2.2972636
-1.6593084 1.3241502 2.2518477
-1.6270823 1.3191687 2.2802594
-1.661456 1.3701425 2.2598746
-1.6281813 1.371491 2.2840111
-1.6648903 1.4229605 2.2605741
-1.6298672 1.4228547 2.2874665
-1.6723913 1.4814233 2.2636044
-1.6354103 1.4814942 2.286546
-1.674476 1.5237236 2.2641649
-1.6359369 1.52593 2.2907045
-1.6723902 1.5731722 2.2703848
-1.6415421 1.5739994 2.2918165
-1.6770148 1.6251564 2.2714579
-1.638494 1.6358829 2.2953415
-1.7093487 1.6848041 2.2542067
-1.6727062 1.6742181 2.2786369
-1.7103248 1.7225735 2.2570434
-1.6783859 1.7254686 2.280894
-1.6488463 1.7126309 2.2969079
-1.7063371 1.7783709 2.2607908
-1.6777323 1.7720371 2.2819371
-1.7114695 1.8214811 2.25822
-1.6739711 1.8269712 2.283725
-1.7127153 1.8690276 2.2614083
-1.6815615 1.8791741 2.2809308
-1.7219064 1.9256351 2.2607815
-1.676773 1.9307159 2.2882056
-1.7205875 1.9799068 2.2606826
-1.6865785 1.9781559 2.2835691
-1.7194781 2.0275514 2.266072
-1.6925753 2.0325005 2.2916663
-1.72272 2.0747936 2.2690015
-1.6892922 2.0787449 2.2941885
-1.7522928 2.1375463 2.2539136
-1.7277708 2.1286452 2.2743185
-1.6897752 2.1126928 2.2920074
-1.754926 2.1744139 2.2537265
-1.7234664 2.1748393 2.2744656
-1.6992509 2.166368 2.2954025
-1.760196 2.2149308 2.2566977
-1.7263964 2.2126677 2.2746465
-0.20084132 -0.50922507 2.3309689
-0.17291564 -0.50467736 2.3384836
-0.1256174 -0.50267315 2.3043253
-0.071535073 -0.50962591 2.3179042
-0.025266709 -0.51706666 2.3194275
0.025365582 -0.52258366 2.3210535
0.075146757 -0.52811927 2.326457
0.11790063 -0.53522795 2.3291824
0.17403422 -0.53601742 2.325465
0.23022459 -0.53837979 2.3179929
0.27820468 -0.53927112 2.3208263
0.32562533 -0.53783375 2.3189354
0.37216228 -0.5339002 2.3226335
0.42046234 -0.5375675 2.3333952
-0.15617453 -0.47712991 2.3470395
-0.12696333 -0.47407633 2.3271942
-0.088493265 -0.4795475 2.3392158
-0.12635842 -0.42399976 2.3341043
-0.095088698 -0.42763555 2.3432691
-0.12657134 -0.37695706 2.3372855
-0.098824024 -0.3785001 2.3477104
-0.12641478 -0.32593557 2.3393774
-0.098681942 -0.3328225 2.3488061
-0.12617041 -0.27482161 2.3391569
-0.12533209 -0.22561076 2.3434353
-0.098213136 -0.2021037 2.3471723
-0.11506096 -0.19087532 2.3472924
-0.12015069 -0.10059985 2.3404927
-0.12453224 0.0221917 2.3189969
-0.46934801 0.14032002 2.331562
-0.40203252 0.13501833 2.3324614
-0.37313756 0.14035445 2.3305371
-0.34615999 0.14079922 2.3405986
-1.0674002 0.15396301 2.3150785
-1.0200592 0.1578477 2.3297656
-0.97631609 0.1643649 2.3204074
-0.92569721 0.16473196 2.3408592
-0.50505131 0.18130143 2.3043044
-0.47375819 0.17686419 2.3229156
-0.4246121 0.17437784 2.3283401
-0.37175006 0.16174279 2.3262076
-0.50078279 0.20152102 2.3047802
-0.47256741 0.21085331 2.3126273
-0.43039876 0.21168488 2.3162668
-0.3989954 0.20097373 2.3116069
-0.57409775 0.27160242 2.314605
-0.62407821 0.38767448 2.3133316
-0.63107133 0.42658576 2.3351333
-0.67307502 0.49278998 2.3028352
-0.63502657 0.47852334 2.3237147
-0.65907085 0.51479012 2.307164
-0.62968236 0.5229302 2.3098807
-0.60727918 0.55849934 2.3173079
-1.6542386 0.85614407 2.3092442
-1.6580883 0.90565801 2.3287063
-1.6095798 0.93087864 2.3159752
-1.5750674 0.97654319 2.320955
-1.5597417 1.0231764 2.3127029
-1.5321984 1.0296069 2.3355494
-1.5652605 1.0778377 2.3094165
-1.5297207 1.0811722 2.3347008
-1.5653346 1.1226469 2.3113506
-1.528605 1.1259332 2.3354678
-1.5664504 1.1737435 2.3109117
-1.5309912 1.1736705 2.3365445
-1.5694321 1.2231288 2.3159111
-1.530854 1.2210777 2.3419454
-1.5701777 1.2707105 2.3167303
-1.5324526 1.2740378 2.3411605
-1.5776767 1.3239042 2.3176985
-1.5392241 1.3155372 2.3390911
-1.6039389 1.3746687 2.3063269
-1.5727222 1.3738928 2.3228388
-1.5428419 1.3649298 2.3454878
-1.6054907 1.4263978 2.3055427
-1.5729159 1.4288468 2.3302557
-1.5418552 1.4469597 2.3495567
-1.6090677 1.4770043 2.3063874
-1.5743564 1.4721645 2.3280931
-1.6090767 1.5275681 2.3108225
-1.5769092 1.5197322 2.3364031
-1.6176407 1.5788779 2.3119462
-1.5888703 1.5760735 2.3360531
-1.6153997 1.6258564 2.3144097
-1.5816327 1.620227 2.3398936
-1.6210194 1.6779439 2.3143263
-1.5810068 1.6737245 2.3386838
-1.6237684 1.7247161 2.3167045
-1.5875793 1.7255428 2.3402216
-1.6571324 1.7892047 2.3036504
-1.6249708 1.7745073 2.3189712
-1.5927382 1.7691205 2.3437452
-1.6193477 1.8212767 2.3198681
-1.5944195 1.8330022 2.3468673
-1.6577818 1.8752465 2.3081751
-1.6213286 1.870821 2.3256314
-1.6565938 1.9053607 2.3054905
-1.6274399 1.9273381 2.3274791
-1.6597779 1.9807297 2.3012314
-1.6182384 1.9755559 2.3369203
-1.6621363 2.0286331 2.3157885
-1.6303719 2.0247166 2.3364341
-1.6663996 2.0769331 2.3118036
-1.633332 2.0873241 2.3426611
-1.673225 2.1351914 2.3153617
-1.6360044 2.1325758 2.3378413
-1.6720185 2.180331 2.3150914
-1.6369871 2.1859062 2.3387396
-1.7000196 2.2200289 2.3023067
-1.6732712 2.2165027 2.3134565
-1.6487254 2.2158415 2.3274009
2.18538 2.4296632 2.3091786
2.2455308 2.4392397 2.3245251
2.1879673 2.452234 2.3424213
2.2385294 2.4510055 2.3477275
-0.20947668 -0.50511122 2.3659868
-0.19155091 -0.50323594 2.3581672
-0.054270301 -0.5030995 2.3622355
-0.023244265 -0.50867659 2.365083
0.021599278 -0.51284432 2.3736987
0.078560837 -0.52252048 2.3736014
0.12019017 -0.52660918 2.3781121
0.17745011 -0.53106397 2.3689935
0.21396454 -0.53713286 2.3677499
0.272257 -0.53663343 2.3703325
0.32174143 -0.53699017 2.3766863
0.3723599 -0.53645927 2.3872814
0.4269824 -0.53436631 2.3717
0.47900903 -0.53832239 2.3830311
-0.20940761 -0.49413446 2.3892004
-0.18052712 -0.47446686 2.3786156
-0.064514317 -0.47201377 2.3613853
-0.031607624 -0.47906712 2.3841364
-0.17301627 -0.42733335 2.3752644
-0.06780602 -0.42443472 2.3668497
-0.038038094 -0.42381409 2.3915913
-0.17337507 -0.37524331 2.3770399
-0.073338218 -0.3734197 2.3670554
-0.038200118 -0.37678167 2.395303
-0.1717992 -0.32638112 2.3764081
-0.074141011 -0.32293046 2.3698206
-0.04305014 -0.32752407 2.3946383
-0.17514987 -0.27532297 2.3803165
-0.075010285 -0.27571955 2.3705156
-0.043001071 -0.27550241 2.3961184
-0.16872008 -0.2235271 2.3754056
-0.14380793 -0.20305486 2.356724
-0.077031031 -0.22598821 2.3722892
-0.042939231 -0.22351348 2.3961635
-0.1560477 -0.19295524 2.3714068
-0.12972079 -0.18332595 2.3584781
-0.076512463 -0.19301562 2.3746235
-0.042888694 -0.19462228 2.3949773
-0.45779294 0.13827737 2.3831401
-0.42375943 0.14416191 2.3571832
-0.32085273 0.14205314 2.3643003
-0.29308343 0.14233615 2.3716388
-1.0079473 0.15664142 2.3801086
-0.97133303 0.15814915 2.3760169
-0.92630833 0.16453935 2.3756847
-0.88012934 0.16722715 2.3922422
-0.49313819 0.1597079 2.3530679
-0.32517037 0.16475214 2.371624
-0.29498249 0.16045113 2.3862844
-0.44052354 0.20471473 2.3505423
3.0468006 0.68003052 2.3950505
3.0507739 0.71575719 2.3902376
-1.6831902 0.85752046 2.3537762
-1.5650002 0.98759717 2.3572538
-1.545935 0.99753672 2.3514345
-1.5530611 1.0109354 2.3902822
-1.5153058 1.0247124 2.3682621
-1.4732976 1.0322134 2.3802416
-1.4417871 1.040522 2.3980684
-1.5064512 1.0588248 2.3525901
-1.4779285 1.0760949 2.3731253
-1.4470615 1.0782533 2.3947611
-1.5046124 1.1282424 2.3547688
-1.4728841 1.1299498 2.3757703
-1.440975 1.1247997 2.3986356
-1.5052021 1.1748068 2.3534722
-1.4770008 1.1777118 2.3758175
-1.4483017 1.1715765 2.3949835
-1.5068643 1.2289006 2.3587701
-1.4764721 1.2262206 2.3817461
-1.5070482 1.2692587 2.3583119
-1.4779294 1.2782 2.3814998
-1.5164276 1.3287054 2.3622391
-1.4812062 1.3315493 2.3876069
-1.520669 1.3826886 2.3637359
-1.482511 1.3811486 2.389226
-1.5194328 1.4246134 2.370451
-1.4899366 1.4373512 2.3952782
-1.5560237 1.4888955 2.3558545
-1.5232991 1.471939 2.3722656
-1.496487 1.4651246 2.3948159
-1.5270809 1.524364 2.3706892
-1.4928893 1.5260835 2.3929465
-1.5625397 1.5815959 2.3551397
-1.5249873 1.5729625 2.3776274
-1.4893596 1.5735531 2.3982151
-1.5589927 1.6292937 2.3586335
-1.5272006 1.6223373 2.3815031
-1.5574614 1.6723256 2.3591537
-1.5296935 1.6752461 2.3818965
-1.5627873 1.7308424 2.3648381
-1.530471 1.7261699 2.3876839
-1.5679109 1.7728918 2.3616021
-1.534071 1.7721968 2.3871474
-1.5713383 1.8190191 2.3593009
-1.5359017 1.8253083 2.3856363
-1.5725048 1.8792475 2.364399
-1.5373572 1.8768424 2.3893058
-1.5729275 1.9223684 2.3669841
-1.5382324 1.9210306 2.390898
-1.5767198 1.9716343 2.3690901
-1.5457809 1.9847189 2.3949201
-1.6046072 2.0470591 2.3512695
-1.5801765 2.0208688 2.36641
-1.5479566 2.0030506 2.3869052
-1.614548 2.0754774 2.3537972
-1.5709631 2.0674655 2.3825223
-1.5355248 2.074775 2.3986371
-1.6127394 2.1252906 2.3590088
-1.5798149 2.1156709 2.3819683
-1.6122574 2.1723869 2.3576581
-1.5798632 2.1724484 2.3813162
-1.5462435 2.1748543 2.3996844
-1.6236744 2.2254355 2.3566992
-1.580125 2.219209 2.3852046
2.183959 2.439862 2.3668313
2.2076783 2.4384067 2.3901784
2.2885301 2.4495966 2.3954711
2.3222709 2.447037 2.3682752
2.1399488 2.4581299 2.383409
2.1513331 2.4508653 2.3646319
2.2294502 2.4516406 2.375659
2.2750294 2.4532061 2.3681839
2.3070402 2.4500475 2.3835571
2.3707321 2.4604287 2.3996098
0.036115732 -0.50705117 2.4187944
0.075158827 -0.51132601 2.4194694
0.12988134 -0.51920319 2.4171622
0.17346585 -0.52306116 2.42397
0.22352798 -0.52977461 2.4180508
0.27591255 -0.53201187 2.4216096
0.32775137 -0.53136313 2.4236574
0.37527436 -0.53569221 2.42788
0.40508366 -0.54389632 2.4174416
0.47204909 -0.53649092 2.4315879
0.51890451 -0.53567892 2.4214084
-0.2139556 -0.47047248 2.4127946
-0.01362698 -0.46764621 2.4043577
0.019591745 -0.47645351 2.4273436
0.054973442 -0.48648351 2.4439409
-0.2127454 -0.42554832 2.4139006
-0.19413486 -0.4173044 2.4017501
-0.01444848 -0.42354676 2.4087462
0.021675594 -0.42649609 2.4355073
-0.21234864 -0.37817848 2.4144421
-0.016347174 -0.37469155 2.4106894
0.014705489 -0.37716433 2.4345069
-0.21217367 -0.32553217 2.4173741
-0.19337332 -0.32329571 2.4016204
-0.020188207 -0.32412556 2.4128296
0.012723886 -0.32325986 2.4357946
-0.21200415 -0.27298731 2.4196107
-0.020153631 -0.27162975 2.4133949
0.012332389 -0.27671391 2.437638
-0.21754557 -0.22623909 2.41941
-0.19281387 -0.22641402 2.4017794
-0.020139873 -0.22523125 2.4148781
0.013601243 -0.22695737 2.4390047
-0.18371902 -0.19824831 2.4353828
-0.017899146 -0.19250092 2.4266765
0.011733047 -0.19544116 2.4414079
-0.2169859 0.13576449 2.4437957
-0.92477691 0.15782718 2.4239099
-0.87884068 0.16315907 2.4245374
-0.81989521 0.16831401 2.4239562
-0.22448502 0.17187981 2.4449103
-1.0471555 0.38325113 2.4221525
2.7476108 0.49432552 2.4228599
2.7864223 0.49836531 2.4263115
2.7827137 0.53236645 2.4322984
2.7839048 0.57580638 2.440604
2.8057365 0.57690692 2.428834
2.7824919 0.62219828 2.4373646
2.8211656 0.60523188 2.4369776
3.0483985 0.64047843 2.4368639
3.0557206 0.6384021 2.4114718
2.785099 0.66966301 2.4369042
3.0346379 0.68617976 2.4280705
3.0697839 0.6676324 2.4169736
2.7850659 0.72193074 2.4400632
2.8120182 0.72463876 2.4326074
3.0347662 0.71807551 2.4240627
3.0748553 0.70384938 2.4131508
2.7940464 0.78007114 2.4413145
2.7876182 0.8366496 2.4435625
2.8076103 0.82073188 2.4348459
2.7884429 0.88466847 2.4381425
2.7883711 0.9240799 2.4339173
-1.3753829 0.98724508 2.4489183
2.7902563 0.97002369 2.4372118
2.8086569 0.95352221 2.4278355
-1.5172018 1.0327113 2.4293308
-1.4724354 1.0302153 2.4436936
-1.4190912 1.0267787 2.4209104
-1.3811629 1.0260643 2.4413128
2.7836182 1.0248119 2.4450026
2.80774 1.0274491 2.4349222
-1.4186954 1.0739247 2.4134307
-1.3823316 1.0734217 2.4385262
2.7882092 1.0838158 2.4417927
-1.4220767 1.1234593 2.4148037
-1.3845992 1.1219131 2.4386106
2.7837052 1.1255448 2.4417603
2.810075 1.1293149 2.433574
-1.4219904 1.1751546 2.4151449
-1.3910933 1.1668192 2.4386775
2.7867408 1.1760954 2.438786
-1.4512491 1.2475314 2.4039381
-1.4252032 1.2230498 2.4213619
-1.3904729 1.2146658 2.4414234
2.786422 1.2349472 2.4436734
-1.4565639 1.2729732 2.4037447
-1.4261699 1.2721673 2.421984
-1.3922826 1.264128 2.442924
2.7864115 1.2743324 2.441571
-1.4577085 1.3287563 2.4078767
-1.4214066 1.3198133 2.4305277
-1.3969151 1.3030101 2.4453993
2.7885015 1.3308187 2.4396701
-1.459003 1.3785979 2.40855
-1.4278591 1.3692045 2.4318717
2.791424 1.3779402 2.4481678
-1.469874 1.4244242 2.4091487
-1.4338431 1.4239025 2.432446
2.79954 1.408332 2.4432855
2.8029363 1.4276648 2.4381311
-1.4706384 1.4750065 2.4104037
-1.4308401 1.4782157 2.4372904
2.7948194 1.46785 2.4458039
2.8072701 1.4921534 2.4482434
-1.4704342 1.5283797 2.4094787
-1.4325706 1.521154 2.4387372
2.8165758 1.5149232 2.447804
-1.4663254 1.5768288 2.4248836
-1.4372561 1.5727246 2.4419682
2.7925582 1.5698473 2.4476027
2.801177 1.5696946 2.439539
-1.5089365 1.6456643 2.4001386
-1.4756242 1.6253276 2.4185846
-1.4407772 1.6212564 2.4437618
-1.5006052 1.6821733 2.4006519
-1.4734501 1.6716826 2.4227135
-1.4443606 1.6705741 2.4448025
2.8004177 1.6977894 2.4464469
-1.5059175 1.7262712 2.4067786
-1.4749925 1.7244555 2.4280519
-1.5087426 1.7755294 2.4036283
-1.4757308 1.776724 2.4280326
-1.4482086 1.7597237 2.4436703
2.809207 1.7870837 2.4467697
-1.511593 1.8300588 2.4076767
-1.479574 1.8282647 2.4263577
-1.5134151 1.8842677 2.4093809
-1.4754353 1.8825675 2.4391136
-1.5164399 1.9337717 2.4147596
-1.4773275 1.9283663 2.4383252
-1.5211836 1.975207 2.4113686
-1.4798174 1.9742218 2.4359226
-1.5652006 2.0410762 2.4018419
-1.5267262 2.0238068 2.414067
-1.4870635 2.0229301 2.4343989
-1.5194075 2.0690815 2.4205894
-1.4866592 2.0754068 2.4446867
-1.5553402 2.1334169 2.4051185
-1.5232086 2.1175733 2.4196277
-1.4887332 2.1211958 2.441402
-1.5245644 2.1701686 2.422981
-1.4894669 2.1575844 2.4415541
-1.560452 2.219099 2.4023771
-1.5224268 2.2185545 2.4201663
-1.4889656 2.2206426 2.4440451
2.2524183 2.449666 2.4202085
2.3187692 2.4445121 2.4237773
2.3596129 2.449491 2.4328134
2.1720622 2.4565196 2.4009259
2.2269874 2.4606094 2.4337311
2.2826712 2.4536133 2.4274998
2.3466048 2.4543324 2.4062483
2.3813174 2.4529414 2.4234788
2.4205303 2.4554837 2.4298594
2.4753313 2.4545529 2.4493549
0.092399776 -0.50630724 2.4629922
0.12840888 -0.50730366 2.4667931
0.17336862 -0.51327324 2.4760411
0.22913891 -0.52012098 2.4743981
0.275159 -0.52183235 2.4654579
0.32253999 -0.5302946 2.4765396
0.35987905 -0.5321359 2.4818592
0.42622811 -0.53789234 2.4727523
0.46547762 -0.53524977 2.4849494
0.51381254 -0.53493285 2.477073
0.079656497 -0.47195935 2.4733133
0.12604579 -0.49181312 2.4938612
0.069307789 -0.42560041 2.4735518
0.035999764 -0.37002003 2.4524293
0.071945071 -0.37588146 2.4782698
0.036012989 -0.32535601 2.457335
0.068560407 -0.32730308 2.480782
0.034387294 -0.27264664 2.4575281
0.069817349 -0.27611762 2.4823763
-0.22097214 -0.20035236 2.4593623
0.035898454 -0.23028843 2.456269
0.06594681 -0.22210497 2.482573
-0.20842201 -0.19962305 2.4510715
-0.032452259 -0.18908089 2.4729478
0.029425528 -0.19085795 2.4576483
0.068386391 -0.18994173 2.483721
-0.074232347 0.083235718 2.4900281
-0.2318574 0.12920451 2.4519868
-0.17765518 0.13949196 2.4634335
-0.12189287 0.14283848 2.4898028
-0.080068775 0.10686203 2.4857461
-0.02670558 0.14268306 2.4889703
-0.87344009 0.1591398 2.459254
-0.83069968 0.15953708 2.4761803
-0.69974864 0.16974762 2.4717479
-0.5638786 0.16895363 2.4830997
-0.21261252 0.18820782 2.4543827
-0.17434183 0.17155826 2.4711971
-0.13048145 0.17292656 2.4927859
-0.019689845 0.17107153 2.4916024
-0.22825536 0.2015653 2.4725347
-0.17085351 0.20670766 2.4835415
-0.13073927 0.20787947 2.4958758
-0.020861208 0.20320071 2.4995785
-0.032839872 0.25121847 2.4987428
-1.2258849 0.3164067 2.4945776
-1.1791037 0.30534777 2.4681227
-0.032894917 0.34748942 2.4953401
-1.2431027 0.38976344 2.4990728
-1.1795392 0.39879614 2.4911821
-1.1833075 0.42358649 2.480303
-1.0834477 0.42347902 2.4692354
-1.1836643 0.45180359 2.4935267
-1.0835075 0.46146211 2.4645293
-0.045240343 0.49525526 2.4993043
-1.1161704 0.51491952 2.4991465
2.7370441 0.54802322 2.4655383
2.7565646 0.54035413 2.4538078
2.8911874 0.54826659 2.4796259
2.9319522 0.53554273 2.4860086
2.9568758 0.53698331 2.4753718
-1.2726964 0.59227842 2.4988806
2.5727694 0.56667739 2.4888732
2.7395403 0.57732421 2.4725542
2.7639008 0.57506043 2.4537792
2.9829485 0.57659024 2.4906027
-1.3206937 0.63603729 2.4716876
-1.280672 0.62663901 2.489306
2.739383 0.61855984 2.4848671
2.7615929 0.6150105 2.4621975
2.8539109 0.64619923 2.4578681
2.9833148 0.63039243 2.4930015
3.0255878 0.62851262 2.4651141
-1.3192673 0.67265177 2.4720137
-1.2855662 0.67118186 2.4875305
2.7418284 0.67417347 2.4874125
2.7605994 0.66973895 2.4616299
3.0171487 0.67103738 2.4736092
-1.3153517 0.7083959 2.488374
-1.2879986 0.71988803 2.4915226
2.7427847 0.72394162 2.4955137
2.7623816 0.72252268 2.4664638
2.9471631 0.72438776 2.4918456
3.0094597 0.70791286 2.4639297
-1.2889541 0.75975597 2.4986138
2.7471716 0.7755928 2.486325
2.7675927 0.77140915 2.4619441
2.7465043 0.82846653 2.4872322
2.7667611 0.8278169 2.4638031
-1.3082092 0.88824999 2.4900086
-1.2910624 0.87381464 2.4969962
2.7474649 0.88210273 2.4887197
2.7661042 0.87716162 2.4627342
2.8465157 0.85779124 2.4611773
-1.3187016 0.92712563 2.4814107
-1.2914753 0.92436296 2.4953034
2.761436 0.92633158 2.4724221
-1.3615253 0.9802314 2.4562817
-1.3276662 0.97342068 2.4724424
-1.2975427 0.97615439 2.4932175
2.7443304 0.97166371 2.490104
2.7655714 0.9702282 2.4621713
-1.504375 1.0380615 2.4522293
-1.3556652 1.0186679 2.4543822
-1.3230093 1.0231969 2.476294
-1.2897966 1.0145975 2.4994841
2.7643833 1.0270995 2.4748855
-1.3579435 1.0821111 2.4576843
-1.3224884 1.0774999 2.4819891
-1.2954543 1.0600789 2.4973004
2.7474806 1.064615 2.4946625
2.7635069 1.0779637 2.472553
-1.361288 1.1252381 2.4580507
-1.324297 1.1287724 2.4834189
2.7408228 1.1375716 2.4944079
2.7620237 1.1226604 2.4746387
-1.3659774 1.1749284 2.4570312
-1.3295205 1.1750997 2.4828665
2.7436454 1.1559883 2.4902537
2.7632306 1.1755282 2.47475
-1.3699942 1.2247264 2.4608603
-1.332773 1.2254825 2.4840407
2.7405593 1.231285 2.4911296
2.7611079 1.2202767 2.4658773
-1.3668193 1.2730569 2.4662242
-1.3365769 1.2775376 2.4903016
2.7437038 1.2801287 2.4915128
2.7616541 1.2740636 2.469974
-1.3712052 1.3254621 2.4671474
-1.3416586 1.3246329 2.4915867
2.7441416 1.3193278 2.4926062
2.76545 1.3231443 2.4651456
-1.4025036 1.3854218 2.4579773
-1.3738033 1.3780723 2.4737666
-1.3487134 1.3742521 2.4957356
2.7436211 1.3889903 2.496357
2.7668676 1.3743362 2.4792252
-1.4097285 1.4282784 2.4537489
-1.3786479 1.429724 2.4748361
-1.3445268 1.4419858 2.4944544
2.7458386 1.4077079 2.4902337
2.7770412 1.4264388 2.4690959
-1.405664 1.4818941 2.4573112
-1.3714404 1.4749936 2.4836895
2.7708554 1.4736674 2.4774318
-1.4079374 1.5331678 2.4630239
-1.3771964 1.5222913 2.4835987
2.7795875 1.522993 2.4740016
-1.413671 1.5761662 2.4604454
-1.3862264 1.5766641 2.4850831
2.770941 1.5727061 2.4758456
-1.4171994 1.6213086 2.4592118
-1.3825878 1.625073 2.4854558
2.7815244 1.6287584 2.4783335
2.8086886 1.6289459 2.4548988
-1.4180219 1.6743579 2.46506
-1.3864733 1.6761732 2.4909794
2.7812986 1.6700114 2.475322
-1.423481 1.7242001 2.4614773
-1.3843526 1.7228904 2.4927068
2.7745593 1.7221462 2.4770699
2.8007908 1.7453513 2.4589741
-1.4259444 1.7725585 2.4642804
-1.392471 1.7738231 2.4905217
2.7805822 1.7770602 2.4737325
2.8023274 1.7645079 2.4505749
-1.455584 1.8403963 2.4557195
-1.4240587 1.8232931 2.4739532
-1.3909898 1.8289939 2.4950562
2.7810128 1.8203208 2.4772446
2.8050182 1.8326858 2.4545124
-1.4590518 1.8600345 2.4515774
-1.4249045 1.87287 2.4727159
-1.3929552 1.8889185 2.4976935
2.7769296 1.8730078 2.4863102
2.8030539 1.8710495 2.4689753
-1.4512502 1.900268 2.4516366
-1.424199 1.9197758 2.4773061
-1.3797015 1.9071689 2.4987533
2.7833691 1.9225887 2.4728916
2.8122292 1.9049317 2.4615386
-1.4549259 1.9720238 2.459918
-1.4267739 1.9760104 2.4807079
-1.3935696 1.9652071 2.4977255
2.7861474 1.9755167 2.4786689
-1.4618304 2.0312402 2.460984
-1.4232632 2.0268347 2.4857342
2.7797348 2.0241189 2.4760928
2.8023794 2.035557 2.4517682
-1.4612331 2.0830166 2.4638915
-1.4297532 2.075278 2.4861152
2.7857547 2.0789566 2.4834754
2.8094754 2.0920596 2.4672909
-1.4692454 2.1274333 2.4612806
-1.4352856 2.1329935 2.4836073
2.7880602 2.1247339 2.48596
2.8042238 2.1400945 2.4716256
-1.471103 2.1801829 2.4631159
-1.4319389 2.1841547 2.4892051
2.7763436 2.1681402 2.4842381
-1.46547 2.2250342 2.4664402
-1.4275935 2.234767 2.4927154
1.8827575 2.4244013 2.4983962
1.9218169 2.4294529 2.4813952
1.977705 2.4419689 2.4785767
2.0573919 2.4477444 2.4633167
2.3169265 2.4431932 2.4519527
2.4325452 2.44907 2.4701707
2.4619 2.4409811 2.4809673
2.0246677 2.4512827 2.4902673
2.0798814 2.4532506 2.4570842
2.1290081 2.4507487 2.4626856
2.2881145 2.4607675 2.4790044
2.3269763 2.4541523 2.4854474
2.3929152 2.4559824 2.4872763
2.4104342 2.4548593 2.473093
2.4521852 2.4500799 2.4580443
2.5118616 2.4624534 2.4826703
2.5572352 2.4598956 2.4921701
0.18627584 -0.50666875 2.5225046
0.22523785 -0.50932992 2.523196
0.26097971 -0.5217678 2.5305648
0.32544592 -0.52217901 2.5174274
0.37881038 -0.52955031 2.5278907
0.41235974 -0.53312081 2.541605
0.4742054 -0.53545308 2.5333214
0.51076061 -0.53232294 2.5257831
0.55709201 -0.54137188 2.5321784
0.13391055 -0.46883667 2.5150552
0.16879711 -0.48155829 2.5392733
0.09942653 -0.42153904 2.5008681
0.13066354 -0.42497391 2.5205262
0.16271204 -0.42961228 2.5466945
0.099235497 -0.37264371 2.50102
0.12931389 -0.37374496 2.5259542
0.16231358 -0.36733866 2.5466928
0.099248759 -0.32458943 2.5056758
0.13046716 -0.32129493 2.5265651
0.16217142 -0.31195346 2.5492301
0.099096701 -0.27008083 2.5059903
0.13042557 -0.27272835 2.5295758
0.096696317 -0.22564223 2.5087347
0.13036411 -0.22412482 2.5314653
0.099077277 -0.1920097 2.5101428
0.13019241 -0.19355369 2.5294209
-0.056857783 0.083876036 2.5101025
-0.69332784 0.14934394 2.5426469
-0.070925601 0.1319937 2.5109828
-0.71072578 0.16149828 2.5341609
-0.68411642 0.1706641 2.5270514
-0.64822948 0.17214522 2.5179415
-0.58204126 0.16637719 2.5353773
-0.10888667 0.17396946 2.508611
-0.075266272 0.1748371 2.5218561
-0.04254932 0.17762111 2.5106902
0.0030737023 0.16917153 2.528662
-0.15279838 0.23381728 2.5027118
-0.11936366 0.2285601 2.5126669
-0.075748213 0.22444965 2.5350983
