ply
format ascii 1.0
comment PCL generated
element vertex 1526
property float x
property float y
property float z
element camera 0
property float view_px
property float view_py
property float view_pz
property float x_axisx
property float x_axisy
property float x_axisz
property float y_axisx
property float y_axisy
property float y_axisz
property float z_axisx
property float z_axisy
property float z_axisz
property float focal
property float scalex
property float scaley
property float centerx
property float centery
property int viewportx
property int viewporty
property float k1
property float k2
end_header
-1.1223611 2.1687591 2.7126181
-1.0847042 2.1785727 2.739645
2.6163583 2.1771035 2.7236304
-1.120181 2.2248659 2.719938
-1.0813481 2.2299716 2.7405088
2.6207192 2.2290246 2.7286212
-1.1181327 2.2705746 2.7143946
-1.0848238 2.2825906 2.7389233
2.6231718 2.2785647 2.7228744
-1.114203 2.3045671 2.7098129
-1.0834988 2.3102694 2.7281873
2.5974042 2.319701 2.7470021
2.6192312 2.3300385 2.7192681
1.3352481 2.3864725 2.7352989
1.4180409 2.3950038 2.7104406
2.5949366 2.3945427 2.7394655
2.6115358 2.3725398 2.7186079
1.4024725 2.4129624 2.7426875
1.4723412 2.4081748 2.7265997
1.5278 2.4035695 2.721653
1.5737295 2.4129057 2.7385316
1.6230513 2.4204104 2.7241535
1.669908 2.418987 2.7377136
1.7277439 2.4202714 2.7183642
1.7747556 2.4220257 2.7257221
1.8301493 2.4275386 2.7305858
1.8761451 2.4301047 2.7215688
1.9321446 2.4364002 2.7412283
1.9776677 2.447145 2.7303896
2.0246155 2.4412766 2.7178974
2.1268113 2.4432085 2.7180951
2.1676207 2.449317 2.7478375
2.535923 2.4446199 2.7241812
2.576309 2.4287887 2.7241981
2.6064038 2.4067316 2.7024097
2.1713219 2.4511199 2.701714
2.2314472 2.4570224 2.7177603
2.2791038 2.4586186 2.7353935
2.325089 2.4570756 2.7247524
2.3760862 2.4604559 2.7190185
2.4142053 2.4602251 2.7407522
2.4771335 2.4548512 2.7188404
2.5154216 2.4539554 2.7059426
0.62774253 -0.50202441 2.7692592
0.67788547 -0.51076585 2.7716916
0.72080827 -0.51183814 2.7784522
0.78581882 -0.51453632 2.7740343
0.82852435 -0.51460868 2.7793357
0.85574281 -0.51529098 2.764219
0.92038578 -0.51382929 2.7822294
0.48071495 -0.46647811 2.7578304
0.52456409 -0.47696432 2.7786093
0.58012772 -0.49534878 2.7697616
0.47286269 -0.42237952 2.7643948
0.51164508 -0.42679521 2.789228
0.44290566 -0.37950921 2.7519889
0.47314882 -0.37568921 2.7705631
0.51128775 -0.37233052 2.7923837
0.44235754 -0.31253219 2.7540479
0.4722394 -0.32808834 2.7690935
0.50661713 -0.32411507 2.7896626
0.47174892 -0.27424294 2.7700214
0.5015977 -0.27597669 2.7843008
0.44088769 -0.21206643 2.7510626
0.47249448 -0.22230674 2.7701433
0.50680745 -0.21789712 2.7910469
0.44116911 -0.19229579 2.7537603
0.46733224 -0.19015577 2.7686071
0.50932568 -0.18879241 2.7936387
0.088852584 0.085531913 2.755331
0.12283049 0.0862813 2.7788413
0.15036118 0.086874649 2.7970004
0.095379382 0.10521895 2.753581
0.12932795 0.10606803 2.774879
-0.31857622 0.31756309 2.7880027
-0.32751918 0.38459626 2.7819202
2.3196096 0.37850869 2.795732
2.378196 0.39654389 2.7698543
2.3846467 0.429003 2.7773347
2.4022958 0.44744647 2.7601683
-0.31628653 0.479599 2.7528019
2.3893189 0.47924942 2.7846513
2.4057066 0.48122942 2.7592945
-0.3176232 0.51505744 2.7604358
0.016680332 0.53265995 2.7571287
2.3938651 0.52961636 2.7854991
2.4086018 0.52830708 2.7633114
-0.31782931 0.58901191 2.7524071
2.3896847 0.55973893 2.7915764
2.4141393 0.57632613 2.7697053
-0.31845322 0.6237005 2.7528658
2.5233486 0.6308192 2.7732809
2.5336049 0.67189467 2.7833703
2.5516477 0.68492979 2.7615557
-0.3181183 0.7242862 2.7577019
2.5376713 0.72243339 2.7870932
2.560936 0.72177333 2.7639627
2.5424848 0.77252889 2.7844033
2.5594189 0.77452749 2.7609427
2.5460165 0.83104044 2.7874546
2.5567396 0.82892996 2.7665863
2.5361941 0.87683976 2.7978277
2.5565045 0.87492847 2.7710273
2.5442986 0.91718304 2.7824566
2.5623975 0.92311823 2.7556789
2.5373664 0.97886598 2.7835255
2.5574596 0.97379804 2.7605295
2.5378547 1.023291 2.7912755
2.5619268 1.0270168 2.7630048
-0.78763127 1.076656 2.7784271
2.5426989 1.0752593 2.7890205
2.5606899 1.0692604 2.7687151
2.5417471 1.1289152 2.7962189
2.56336 1.1268402 2.7698505
-0.92398494 1.1755325 2.7562172
-0.8890574 1.1906385 2.7823071
2.5609319 1.1735849 2.7751698
-0.91943198 1.2244264 2.7692885
-0.88650304 1.2203852 2.7914515
2.5444067 1.235702 2.7966213
2.5644686 1.2237297 2.7715492
-0.95824087 1.2683548 2.7536316
-0.92481178 1.2725772 2.7719154
-0.89239359 1.2784091 2.793546
2.5462694 1.2632861 2.7882159
2.5624294 1.2714281 2.7686
-0.95661813 1.3330946 2.7606843
-0.92355251 1.3250804 2.7765939
-0.897506 1.33008 2.7942502
2.5424743 1.3328476 2.7923174
2.5655692 1.3220385 2.7704687
-0.96218663 1.371871 2.7563484
-0.9247219 1.3776404 2.7819977
2.5404844 1.3677759 2.7874632
2.563133 1.370151 2.7656727
-0.96682632 1.4276711 2.7625611
-0.9288702 1.4205409 2.788372
2.5499909 1.427532 2.7995746
2.5656929 1.426016 2.7715852
-0.96935469 1.4751455 2.7681558
-0.93172157 1.4702492 2.7915626
2.5634224 1.4752665 2.7764225
-1.0041027 1.5348973 2.7512124
-0.97118294 1.5266742 2.7720978
-0.93980056 1.524807 2.792028
2.5670145 1.5289707 2.770509
-0.97397751 1.5771723 2.7697909
-0.94109029 1.577921 2.7980185
2.5681925 1.5798079 2.7720232
-1.0017 1.6307389 2.7565897
-0.97393543 1.6276646 2.7763531
-0.94615966 1.6247559 2.7961311
2.569597 1.6229806 2.7722883
-1.0045161 1.6658834 2.7500179
-0.97496623 1.675845 2.7795489
2.575165 1.6784121 2.7716572
-1.0109715 1.7293466 2.7567587
-0.97282559 1.7219677 2.7807343
2.5694947 1.728792 2.7821045
-1.0118843 1.77439 2.7583177
-0.97778916 1.7770873 2.7796674
2.576544 1.7807659 2.7722168
-1.0085114 1.8272632 2.7636497
-0.97816539 1.8261145 2.7876661
2.5799108 1.8277357 2.7803712
-1.0234364 1.8760905 2.7636805
-0.98747212 1.8804955 2.7944562
2.5777709 1.8704783 2.7740555
-1.0246991 1.9264219 2.7664878
-0.98500127 1.9229205 2.794771
2.5788434 1.9244951 2.7728293
-1.0216436 1.9719819 2.7754588
-0.991503 1.9677293 2.7949691
2.5794444 1.9726969 2.7769763
-1.0602279 2.0325916 2.7536917
-1.0249836 2.0286107 2.7800784
2.581758 2.020478 2.7780209
-1.0607948 2.0711129 2.7541101
-1.0293142 2.0758832 2.7768457
-0.98975056 2.0699263 2.7971766
2.5862312 2.0644701 2.78771
2.6021354 2.0893962 2.7667065
-1.0654523 2.123652 2.7566042
-1.0302409 2.1270852 2.7831907
2.5885403 2.1268647 2.7783341
-1.0276482 2.1718872 2.7796652
2.590065 2.1749372 2.772738
-1.0623156 2.2210753 2.7603393
-1.0292677 2.2262051 2.7868116
2.5900886 2.2225754 2.7843647
-1.0555515 2.2822487 2.7575309
-1.0240028 2.2731051 2.7796664
2.5858154 2.2731273 2.7782464
2.6073086 2.2523003 2.7614071
-1.054921 2.3210089 2.7522295
-1.0203934 2.3198798 2.7756917
-0.98659819 2.3260279 2.7920408
2.581635 2.3225 2.7825785
2.5806429 2.3734226 2.7701175
1.3132229 2.4095702 2.7764153
1.3796185 2.4100311 2.7676663
1.4285461 2.4055374 2.7681885
1.4719337 2.4058344 2.7776518
1.5221511 2.4082181 2.7835701
1.5758537 2.4119306 2.7759047
1.6250092 2.4097326 2.7678828
1.6825399 2.4322462 2.7921314
1.723127 2.4279795 2.7777274
1.7705058 2.4228735 2.7715836
1.8225011 2.429934 2.7851667
1.8784075 2.4383965 2.7768095
1.9191927 2.4348803 2.7761059
1.974327 2.436944 2.7716169
2.0294821 2.4389801 2.774271
2.1093628 2.44767 2.7836041
2.1649125 2.4486735 2.7957742
2.3531077 2.4473109 2.7609093
2.5317869 2.4299541 2.7715955
2.559521 2.4082389 2.7665071
2.0848649 2.4505954 2.7813153
2.1176193 2.4556952 2.7685642
2.1742718 2.4579282 2.7818878
2.2156475 2.4619052 2.7687721
2.2659061 2.4556887 2.7716081
2.3241558 2.4570484 2.7742743
2.3868742 2.4621603 2.7638178
2.4109268 2.4571934 2.7876902
2.4757643 2.4531858 2.7842934
0.67067248 -0.50023961 2.8334537
0.73772597 -0.50548279 2.8116493
0.77220923 -0.50645393 2.8318689
0.81638128 -0.50434971 2.8320312
0.87971973 -0.510028 2.8316691
0.54268956 -0.45722026 2.8034549
0.57933152 -0.46927607 2.8225305
0.62341326 -0.48506171 2.8241537
0.67130154 -0.49465215 2.8213887
0.7174561 -0.49893296 2.8180759
0.53497791 -0.4224079 2.8032398
0.56877524 -0.42347294 2.8252521
0.60003 -0.44381088 2.8445518
0.53723699 -0.3702704 2.8052208
0.56694925 -0.37781519 2.827497
0.5285368 -0.32638603 2.8069825
0.56702286 -0.32288697 2.832329
0.53070045 -0.27575663 2.8071332
0.57645535 -0.27490532 2.8357193
0.53674018 -0.2270942 2.8124418
0.57938373 -0.22477068 2.8362131
0.53611481 -0.18425016 2.8260908
0.5741834 -0.18555568 2.8409932
0.17829524 0.087457515 2.8145988
0.20726395 0.088356867 2.8422821
0.17842783 0.10771356 2.8162184
0.21396317 0.10868473 2.8400536
0.26187864 0.10885263 2.84179
-0.69375324 0.34530807 2.8250804
-0.64874494 0.31929249 2.8492599
-0.70615995 0.37583059 2.843529
-0.33511221 0.36570415 2.8100526
2.3185928 0.38655791 2.8250287
2.3626566 0.39945206 2.814105
-0.33499956 0.42877436 2.803148
2.3355069 0.40877998 2.8434434
2.3582301 0.42506111 2.8214588
2.3484836 0.48642352 2.8493185
2.3639219 0.46779904 2.8226919
2.3491998 0.50332534 2.8477445
2.3704462 0.52173692 2.8280454
2.3688877 0.56269193 2.8303125
2.4090869 0.59156662 2.8257816
-0.74093068 0.62522322 2.8361857
2.4852204 0.62121546 2.8295951
2.50471 0.63465881 2.8169327
2.4971209 0.65426815 2.8373513
2.5125124 0.6746583 2.8236301
2.4937038 0.7443471 2.8477967
2.5132685 0.72525495 2.8248684
2.4962528 0.77974439 2.842696
2.5176089 0.77835679 2.8178084
2.5182493 0.83036631 2.8184657
2.5110977 0.87252617 2.8236766
2.4983368 0.9079414 2.8468726
2.5174146 0.92741686 2.8257682
2.514581 0.97674847 2.8222024
2.4985852 1.0286231 2.8468246
2.5193558 1.0263914 2.820394
-0.76649982 1.090131 2.8411393
2.516793 1.0716093 2.8247991
-0.78421962 1.1164813 2.8438406
2.4993045 1.1335498 2.8491592
2.5191367 1.1217566 2.8243039
-0.86478031 1.1972039 2.8043239
-0.827429 1.1813794 2.8138545
2.5220163 1.1713372 2.8286021
-0.8661679 1.2346481 2.8148613
-0.83390623 1.2209108 2.8340065
2.5288365 1.2233638 2.8243189
-0.86664099 1.2739626 2.8154004
-0.83541048 1.2754116 2.8389783
2.518661 1.2705916 2.8284118
-0.869205 1.3218899 2.8161736
-0.83958149 1.3288451 2.8435106
2.4978566 1.328615 2.8481433
2.524689 1.3240596 2.8209894
-0.87406862 1.3754472 2.8200955
-0.84251773 1.3709552 2.8403687
2.5331066 1.3827157 2.8221695
-0.90962887 1.4304245 2.8016796
-0.87826139 1.4249942 2.8238285
2.5309353 1.4272764 2.8236575
-0.90804976 1.482978 2.8109491
-0.87262243 1.4712931 2.835181
2.5243888 1.4764434 2.825964
-0.91445929 1.5258964 2.8115888
-0.87936997 1.5232769 2.8330317
2.5290809 1.523378 2.8248444
2.5553107 1.5136267 2.8063467
-0.91737753 1.5766811 2.8144364
-0.88444686 1.5703731 2.8335409
2.5373666 1.5638157 2.8237922
2.5530963 1.5873901 2.8074932
-0.9204464 1.6252317 2.8138294
-0.87757784 1.6207315 2.8413486
2.5355752 1.6212629 2.8265743
-0.92244047 1.6734009 2.8167109
-0.88582045 1.6713711 2.838299
2.5378871 1.675524 2.8310847
2.5606959 1.6870292 2.8083525
-0.92530853 1.7241313 2.8176653
-0.88814646 1.7221409 2.8468392
2.5407283 1.7190927 2.8318107
2.552891 1.7313527 2.8151474
-0.95066625 1.7846094 2.8001297
-0.92478216 1.7734207 2.8223822
-0.89384973 1.7725748 2.8462775
2.5395095 1.7693822 2.8381767
2.5552948 1.7767524 2.8150952
-0.95841813 1.8386414 2.8026328
-0.92525816 1.8275248 2.829953
-0.89591384 1.800356 2.8411767
2.5427179 1.825211 2.8334835
2.5556417 1.8304222 2.8069632
-0.96194571 1.890119 2.8115616
-0.92758769 1.871866 2.8312297
2.5459452 1.8815737 2.8280623
-0.96103221 1.9255047 2.8113716
-0.92978275 1.9234035 2.837755
2.5445662 1.9254851 2.8222055
2.5582306 1.9120718 2.8071601
-0.96440047 1.9780496 2.8188055
-0.92864722 1.9762897 2.8429132
2.5451491 1.9786024 2.8360176
2.5595684 1.9750203 2.8159771
-1.0031003 2.0313625 2.8038867
-0.9735586 2.0186353 2.8125789
-0.93640202 2.0285203 2.8412335
2.5409937 2.0287652 2.8441577
2.559624 2.0201023 2.8185985
-1.0093824 2.0768027 2.8016284
-0.97158229 2.0773118 2.8262277
2.5603964 2.0752075 2.8235459
-1.0028365 2.1468568 2.8031015
-0.97279233 2.1195378 2.8212821
-0.94050866 2.1387351 2.8436458
2.5484483 2.1182275 2.8464732
2.5637279 2.1246004 2.8207448
-0.97795039 2.1715066 2.8211563
-0.93658519 2.1737657 2.8434858
2.5437207 2.1794095 2.8463206
2.5653713 2.1729941 2.8155184
-1.0005022 2.2447386 2.8042264
-0.97641599 2.2252908 2.8237021
-0.94272912 2.2216077 2.8405104
2.5647998 2.2283788 2.8255641
-0.96972454 2.2748966 2.8158238
-0.93376023 2.2644053 2.8390644
2.541939 2.2826607 2.8389294
2.5611415 2.2731051 2.813498
-0.96549612 2.323838 2.8068981
-0.92994583 2.3248065 2.8255394
-0.88847816 2.3390899 2.8428712
2.5381017 2.3273687 2.8344936
2.5644789 2.3241155 2.8169467
-0.89802003 2.3502967 2.8379297
1.0244267 2.3670194 2.8234568
1.0668157 2.3850694 2.8340058
1.1418114 2.3794415 2.8011117
1.1682347 2.3852346 2.8266532
1.2028527 2.3980923 2.8041728
1.5611485 2.3989096 2.8039896
2.5396225 2.3774741 2.8356435
2.556057 2.3745532 2.8085928
1.1210794 2.4088712 2.8477709
1.2146435 2.4040344 2.8445952
1.2924386 2.4183733 2.8345029
1.4329554 2.4076872 2.8240507
1.4805685 2.4057863 2.8258483
1.5152634 2.4076986 2.8257153
1.5735266 2.4179049 2.8261175
1.6196357 2.4119086 2.821429
1.6788551 2.4217894 2.8196371
1.7272618 2.425024 2.8304312
1.7799959 2.4206979 2.8268402
1.8294467 2.4283924 2.8328588
1.8815109 2.4311872 2.8182738
1.9198672 2.4305682 2.8278637
1.9821011 2.4434958 2.826539
2.0273054 2.4400742 2.823247
2.0700788 2.4407704 2.8283203
2.1273949 2.4446146 2.8253403
2.2962902 2.4487023 2.8032737
2.3799698 2.4459844 2.8397572
2.4063668 2.4428217 2.8151069
2.4751165 2.4390967 2.8271151
2.5220919 2.4274821 2.8262439
1.3000468 2.4503834 2.8379111
2.1889708 2.4565217 2.8413031
2.2296684 2.4588332 2.8180144
2.2773147 2.4596183 2.8359132
2.331378 2.4559817 2.8417358
2.3738999 2.4594481 2.8181863
2.4379358 2.4548264 2.8147647
0.8188532 -0.50043309 2.8948095
0.86912233 -0.50387865 2.876477
0.912341 -0.50783485 2.8767924
0.97080487 -0.50504875 2.8912249
0.63612902 -0.46469858 2.8599749
0.68024397 -0.47208223 2.877861
0.72405833 -0.48720229 2.8752911
0.76540464 -0.4936482 2.8633747
0.83064502 -0.49892262 2.8833282
0.6205495 -0.42400137 2.8587189
0.66469508 -0.4265103 2.8862758
0.599549 -0.36029619 2.850028
0.62501663 -0.37552038 2.8671689
0.65852928 -0.37666768 2.8879132
0.59979391 -0.33964461 2.8528666
0.62667143 -0.32432672 2.871237
0.6654222 -0.31674165 2.8909888
0.63096422 -0.27575275 2.8743784
0.66560131 -0.27223685 2.8947256
0.59802014 -0.2487793 2.8505192
0.62878042 -0.22547022 2.8683734
0.66447848 -0.22490411 2.8925064
0.52702785 -0.17902969 2.8528001
0.63127112 -0.18822485 2.8750789
0.66792965 -0.19173706 2.8879397
0.2332141 0.090287015 2.8594162
0.27623048 0.089409322 2.8724453
0.23557115 0.10926595 2.8541706
0.27717859 0.10952479 2.8584743
0.30785239 0.11071489 2.887655
-0.71946812 0.38706648 2.8849409
-0.68893737 0.35343501 2.8950219
2.2967641 0.38286403 2.8618982
2.3010447 0.38635644 2.8991044
-0.72373801 0.42383817 2.8808858
2.3301733 0.42241782 2.8764114
-0.72524959 0.4742583 2.8816442
2.3336642 0.47100663 2.8745134
2.3512316 0.45345712 2.8572857
-0.72676706 0.52490586 2.8818414
2.3354113 0.52259642 2.8762653
-0.7342034 0.57336861 2.8806355
2.3379037 0.56528926 2.8726563
2.3943853 0.59627628 2.8725786
-0.73080009 0.62039208 2.8885858
2.4620008 0.6308533 2.8730187
-0.73114341 0.66919804 2.8852887
2.4729307 0.67422181 2.8711722
-0.72820711 0.72484326 2.8884373
2.4795425 0.72643709 2.8725686
-0.72943562 0.77640277 2.8843291
2.476068 0.77954274 2.8748341
-0.73435378 0.82504779 2.8954809
2.4753959 0.821769 2.879637
-0.73534602 0.86964703 2.8905756
2.4828365 0.87372756 2.8714716
-0.73941672 0.92550325 2.8955224
2.4796486 0.93208373 2.8766143
-0.74142939 0.97913104 2.8916998
2.4809277 0.97585565 2.8758152
-0.75485563 1.035949 2.870189
-0.74451327 1.0272151 2.8930011
2.4839721 1.0205944 2.8764675
-0.76457703 1.0773711 2.8839958
2.4915414 1.0765953 2.8726666
-0.76454979 1.1274204 2.8863373
2.4833312 1.1188825 2.8801291
-0.80814785 1.1959764 2.8547938
-0.76978624 1.1739713 2.8820212
2.4933012 1.178641 2.8804538
-0.81060368 1.229259 2.8543446
-0.78321028 1.2226849 2.8797238
2.4842734 1.2231915 2.8783112
2.5059531 1.2340407 2.8584194
-0.81143165 1.2728586 2.8647726
-0.77542841 1.274075 2.88834
2.4870994 1.2738565 2.874202
-0.81240433 1.3182493 2.8643444
-0.78073287 1.3248907 2.8859851
2.4851279 1.3271855 2.8885543
2.5001948 1.3118908 2.8580751
-0.81625366 1.3696634 2.8623676
-0.78963017 1.3757139 2.881212
2.4906037 1.3733265 2.8869281
2.5114958 1.3795516 2.8609135
-0.82350367 1.4252239 2.8632765
-0.78420228 1.4213347 2.8894312
2.48628 1.4284586 2.8867803
2.5059302 1.424157 2.8574085
-0.82981491 1.4757731 2.8660944
-0.79225606 1.4701796 2.8923728
2.4952435 1.4688905 2.8883226
2.5104651 1.482868 2.8771069
-0.85238093 1.5217984 2.8546946
-0.82256049 1.5210096 2.8734598
-0.79037648 1.5212218 2.8926373
2.4918694 1.5432291 2.8828628
2.5094719 1.5196334 2.8748116
-0.85677576 1.5680822 2.8536644
-0.82409018 1.5736939 2.8750875
2.4914827 1.5763431 2.8869071
2.5170569 1.575093 2.8634882
-0.86251026 1.6250008 2.8530111
-0.82503563 1.6222073 2.8800159
2.4924073 1.6198068 2.8877161
2.5104034 1.6312704 2.8630738
-0.85777366 1.6732327 2.863142
-0.82594723 1.6760045 2.8842406
2.4924016 1.6629817 2.8869205
2.5103157 1.6884273 2.8727818
-0.86694121 1.7266811 2.8599536
-0.83246362 1.7273759 2.8792057
2.5173402 1.729514 2.8688595
-0.86613536 1.7804192 2.866483
-0.82852769 1.7686796 2.8898416
2.5173171 1.7742202 2.8747747
-0.90382397 1.8481244 2.8501246
-0.87154269 1.8233744 2.8686373
-0.83602154 1.8180075 2.8922317
2.4947023 1.8218021 2.8918638
2.5158539 1.8167144 2.8621531
-0.87637639 1.8755956 2.8713732
-0.84843004 1.866397 2.8938205
2.5186889 1.8643249 2.8703847
-0.90126586 1.9406528 2.8629088
-0.87378371 1.9227179 2.8804278
-0.83716077 1.9095646 2.8976109
2.5257323 1.9263848 2.8684349
-0.9099142 1.9746996 2.8569043
-0.8734901 1.9737592 2.8831527
2.4912171 1.9716023 2.8895001
2.516362 1.9802848 2.8719547
-0.91184902 2.0207546 2.8645396
-0.88896346 2.0245478 2.8761859
2.4955137 2.0482519 2.896204
2.5189037 2.0341513 2.8739085
-0.92056412 2.0746746 2.8620644
-0.88098049 2.0771039 2.8888354
2.5315387 2.083137 2.8642082
-0.91959327 2.1276925 2.8617895
-0.8766107 2.1197069 2.8841085
2.5233719 2.1271322 2.8744206
-0.90916383 2.1879044 2.8709931
-0.88244975 2.1630971 2.8854265
2.5209353 2.17519 2.8822732
-0.91761148 2.2281222 2.8598976
-0.88125038 2.2188048 2.8873725
2.5264769 2.2283194 2.8730109
-0.91769385 2.2859709 2.8614264
-0.87865478 2.2761166 2.8811767
2.5197208 2.2665064 2.876591
-0.91294765 2.3109159 2.8504622
-0.87373465 2.3224485 2.8703985
-0.84135634 2.3328364 2.8809485
2.5176117 2.3259118 2.8738458
-0.86775696 2.3605843 2.8593576
-0.82518089 2.3626127 2.8794379
-0.77812684 2.3739958 2.8984585
0.82215822 2.3768892 2.8920746
0.87560993 2.3819118 2.8853219
1.0492936 2.3868935 2.8777039
1.079669 2.3839934 2.8761685
1.1292102 2.3942754 2.8761573
1.1808745 2.3890972 2.8731177
1.2291907 2.3888984 2.8739271
1.4411173 2.3895309 2.8852992
1.4763552 2.3943675 2.8636582
2.4976676 2.3550181 2.8935535
2.5138881 2.3844597 2.8686306
1.0010642 2.4139879 2.8927622
1.2699997 2.4020367 2.8832247
1.342479 2.4274058 2.8648744
1.3884002 2.4274735 2.8845446
1.4224499 2.4063292 2.878583
1.531245 2.404212 2.8663292
1.5790216 2.4113562 2.8678567
1.6261371 2.4116528 2.8725991
1.67864 2.4163437 2.8531325
1.7343383 2.4248405 2.8794405
1.7723427 2.4180071 2.8770063
1.8260154 2.4298887 2.880887
1.8702884 2.4295373 2.8774281
1.9232064 2.4278462 2.8662274
1.9730005 2.4380944 2.8839405
2.0222886 2.4378603 2.8688138
2.0776803 2.4391844 2.8833017
2.1118522 2.4343789 2.8532727
2.2330241 2.4448967 2.8890014
2.3518298 2.4474144 2.8622365
2.4744136 2.4313152 2.8895719
2.5034888 2.4105663 2.8653541
2.1729255 2.4545467 2.8807049
2.2118411 2.451812 2.8663287
2.2586613 2.4613225 2.8764887
2.323667 2.4586995 2.8772478
2.4249594 2.4619124 2.8888729
2.4600625 2.4571078 2.8547144
0.807347 -0.50217485 2.9075925
0.86646342 -0.50315142 2.902041
0.93707371 -0.50632715 2.9066677
0.69994295 -0.45463267 2.9011149
0.72850937 -0.46635973 2.9259148
0.76609719 -0.47925535 2.9367101
0.82271081 -0.4927392 2.9371552
0.85530066 -0.49062619 2.9176219
0.90974003 -0.49669731 2.944804
0.98335487 -0.49695799 2.9303384
1.0077612 -0.49818248 2.9324551
0.68522811 -0.41170362 2.9054737
0.72048056 -0.42420787 2.9276795
0.75530618 -0.40460739 2.9492805
0.67982793 -0.37583718 2.9064732
0.71843445 -0.3751595 2.9298587
0.68155992 -0.32999253 2.9123549
0.72125566 -0.32416713 2.9338045
0.68020719 -0.27735564 2.9070001
0.71634591 -0.27411833 2.928709
0.7530641 -0.28812262 2.9495082
0.69030184 -0.22644757 2.9091156
0.72714442 -0.22469772 2.9348457
0.7517817 -0.21570516 2.9485145
0.69336778 -0.1888863 2.9134858
0.72278756 -0.19037409 2.9331505
0.32092482 0.094202839 2.9117208
0.37143975 0.08992067 2.9267185
0.35270607 0.11178079 2.9122679
-0.65537971 0.33671412 2.9208124
-0.63301986 0.33631915 2.9420419
-0.70574754 0.39734766 2.9000444
-0.67394072 0.37619087 2.9212775
-0.64199257 0.37313852 2.9464233
-0.67314637 0.42477039 2.9250584
-0.64317906 0.42414784 2.9472854
2.3174303 0.42286912 2.9158309
-0.67707795 0.47411111 2.92047
-0.64349645 0.47468761 2.9435918
2.3188241 0.47896233 2.9186714
-0.67609155 0.52502429 2.9242873
-0.64543849 0.52663046 2.9466796
2.3195763 0.52659041 2.92103
-0.71069646 0.57159877 2.9009891
-0.67972827 0.57565695 2.9273653
2.2990773 0.56172049 2.9386179
2.3151481 0.56793773 2.9088576
-0.70720106 0.63202053 2.9091942
-0.67769939 0.6194852 2.9321666
2.3821251 0.60173583 2.922673
2.4267805 0.63245893 2.9231465
-0.70774597 0.67562217 2.904788
-0.67753571 0.67414457 2.9365408
2.4350114 0.67646748 2.9294047
2.4534311 0.69569349 2.9104517
-0.71136254 0.72241855 2.9125197
-0.67932123 0.72679663 2.9360437
2.4416106 0.72801703 2.9344289
2.4555027 0.73106885 2.9056292
-0.71344632 0.77527404 2.9120886
-0.68171781 0.77311403 2.9387527
2.4402568 0.76923651 2.9294994
2.4587603 0.76685596 2.901875
-0.71595722 0.82887626 2.9127035
-0.67978764 0.82196325 2.9366555
2.4373698 0.82946581 2.9378734
2.4542241 0.8234005 2.9174321
-0.71865278 0.87578768 2.9148223
-0.68695408 0.87773991 2.9335759
2.4383862 0.87085873 2.9377692
2.459208 0.88366997 2.9174747
-0.71946144 0.92452329 2.9169257
-0.68551683 0.93274784 2.9413395
2.4400098 0.91872406 2.9451265
2.460525 0.9253304 2.9169385
-0.71671313 0.970658 2.9187157
-0.68433118 0.97685856 2.9435349
2.4437943 0.97319454 2.9351561
2.4556985 0.97093409 2.9157059
-0.72342318 1.0251708 2.9182293
-0.68782067 1.0272214 2.9406416
2.4407115 1.0258615 2.9373271
2.4595475 1.0317445 2.9117637
-0.750458 1.0871909 2.9027977
-0.72589147 1.0769631 2.9193676
-0.69286817 1.0768955 2.9409039
2.4403267 1.0767143 2.9357591
2.461329 1.0742652 2.9099097
-0.75167447 1.1111736 2.9015465
-0.72581619 1.1269172 2.9193015
-0.69125539 1.1213019 2.9396908
2.4414575 1.125803 2.9397826
2.4583175 1.1233341 2.9173684
-0.72173721 1.1746172 2.9224894
-0.68768042 1.1727986 2.9452324
2.4418714 1.1749365 2.9424376
2.4614713 1.1715046 2.9144776
-0.75966215 1.2278148 2.9021919
-0.72568065 1.2261866 2.9252656
-0.69101578 1.2238153 2.9464016
2.4456129 1.2126563 2.9343834
2.4615593 1.2206963 2.9158082
-0.75033557 1.2899091 2.9105334
-0.72344655 1.2718222 2.9288967
-0.69335097 1.2658408 2.9449244
2.4659705 1.2769136 2.9160995
-0.75749111 1.3263389 2.9071121
-0.72541398 1.3221416 2.9299419
-0.69846094 1.33626 2.9472115
2.4572055 1.3224977 2.928422
-0.76271141 1.3722626 2.9100094
-0.7236371 1.37491 2.9309602
2.4496019 1.3878739 2.9498613
2.466923 1.3732007 2.9218206
-0.76416743 1.4180166 2.9110942
-0.7320922 1.4262567 2.9338031
2.4632304 1.4221818 2.9269843
-0.7652024 1.4770926 2.9121013
-0.72111619 1.4717234 2.9423232
2.4676013 1.480507 2.9285612
-0.76577622 1.5274303 2.9100001
-0.73365253 1.5221663 2.9352705
2.4705415 1.5234137 2.9216297
-0.77182019 1.5733415 2.9139111
-0.73533213 1.5795311 2.9375985
2.4678442 1.5744882 2.9184155
-0.77579153 1.6289028 2.9149733
-0.74077994 1.6263615 2.9412425
2.4714272 1.6247876 2.924485
-0.77439249 1.6782715 2.9230945
-0.74023354 1.6710205 2.9464622
2.475991 1.6706724 2.921289
-0.80169868 1.7224709 2.9024055
-0.77521807 1.7243345 2.92135
-0.74436289 1.7201639 2.9455092
2.4804974 1.7175633 2.9254904
2.5028586 1.748256 2.9009686
-0.80708933 1.7738258 2.9034722
-0.77565616 1.7758749 2.9311714
-0.74903107 1.7630125 2.9495039
2.4862683 1.7753202 2.9256859
-0.81215692 1.8169947 2.906328
-0.77418602 1.824572 2.9376602
2.476752 1.82512 2.9319918
-0.81950432 1.8738703 2.9125981
-0.78296667 1.8749411 2.939719
2.4826558 1.8790011 2.9293685
2.5027068 1.8892674 2.9108694
-0.82283556 1.931282 2.9149699
-0.78967839 1.9246753 2.9393404
2.4840629 1.9255927 2.9275541
2.5067708 1.9114578 2.904644
-0.82468748 1.9784536 2.9235663
-0.78325957 1.952685 2.9439604
2.4834449 1.9710736 2.9228632
-0.86472934 2.035424 2.9045475
-0.82642728 2.0229733 2.9256306
-0.79333133 2.0442939 2.9459345
2.485642 2.0190797 2.9208446
-0.85789806 2.0730152 2.9055128
-0.82664078 2.0695188 2.924834
2.4840815 2.0725079 2.9324555
2.5111566 2.0805466 2.9022973
-0.82794607 2.1238863 2.9259536
2.4836254 2.1193688 2.926259
-0.85989445 2.1835368 2.9059582
-0.82266265 2.1749587 2.9311845
2.4916954 2.1739717 2.9294815
-0.86011827 2.2295585 2.9077163
-0.8274436 2.2243791 2.9254634
-0.79622269 2.2319784 2.9433317
2.4823966 2.2225976 2.9305396
2.5041029 2.2057817 2.9060292
-0.82576662 2.277729 2.9178698
-0.79114807 2.2674456 2.9419112
2.4815276 2.272018 2.931046
2.5094635 2.287703 2.9103475
-0.81540918 2.322876 2.9116876
-0.77236271 2.3266671 2.9359272
2.4812183 2.3265991 2.9238279
-0.80351263 2.3556218 2.9029243
-0.7659117 2.363225 2.9128046
-0.72435427 2.374723 2.9354169
-0.67024922 2.3878539 2.938798
-0.62621224 2.3848858 2.9431245
0.53688306 2.3715756 2.9409249
0.62692046 2.3873682 2.9462883
0.69904095 2.3974948 2.9457209
0.7458477 2.3806174 2.9142814
0.77430731 2.3886802 2.9184556
0.82271916 2.3919668 2.934654
0.86901093 2.3862145 2.918714
0.92016679 2.3819222 2.9261036
0.95149893 2.3861966 2.941077
1.0586216 2.3905196 2.9156671
1.1264678 2.3951356 2.918525
1.1744558 2.3942475 2.9194491
1.2166593 2.3942091 2.9326425
1.2539312 2.3928587 2.9266608
1.338686 2.3989725 2.9414501
1.3927796 2.3990226 2.9197028
1.4580871 2.3994749 2.932282
2.4744525 2.3791738 2.9263482
0.96628648 2.4144528 2.9034579
1.0102345 2.4184332 2.9317603
1.297763 2.407974 2.9316645
1.325279 2.4089975 2.9224524
1.4288021 2.4030135 2.92361
1.4833541 2.420146 2.9319015
1.5244185 2.4182684 2.9308815
1.5804965 2.4341903 2.9288888
1.6136944 2.4103189 2.9180846
1.6778328 2.4201729 2.9268441
1.7226843 2.4263756 2.9165103
1.7684387 2.418294 2.9156258
1.8223463 2.4311914 2.9290495
1.8690228 2.4334383 2.9291501
1.9230804 2.427844 2.9229076
1.9794488 2.4362726 2.9384162
2.0301197 2.4299872 2.9206343
2.0763118 2.440886 2.934592
2.17432 2.4447205 2.9273536
2.2167666 2.4484975 2.9062831
2.3916717 2.4486923 2.9396803
2.4251688 2.4421093 2.9210443
2.4606981 2.4174659 2.918751
2.1267798 2.4545043 2.9264812
2.2721157 2.4570384 2.9345725
2.322094 2.4581223 2.9280553
2.3716242 2.4583907 2.9199083
0.97630942 -0.50084788 2.9566188
0.78567135 -0.46538925 2.9582007
0.82533473 -0.46928951 2.9771066
0.87909001 -0.4904047 2.9680264
0.9288168 -0.4936986 2.9693716
0.95720875 -0.49501747 2.9718561
0.7419371 -0.4341512 2.9533241
0.77392358 -0.42856494 2.9604766
0.81777477 -0.4289279 2.9875245
0.7737903 -0.37765095 2.9645851
0.80954242 -0.37350917 2.9848199
0.77346969 -0.32665923 2.9673107
0.81060278 -0.32995152 2.9922056
0.77501392 -0.27393952 2.9694896
0.80980033 -0.27836594 2.9926922
0.77468717 -0.22597012 2.9665487
0.80742931 -0.22638753 2.986773
0.77218229 -0.18112369 2.9705884
0.81399155 -0.18537171 2.993963
0.42589909 0.089500308 2.9796178
0.43228677 0.10007755 2.9736011
-0.60882187 0.33876425 2.9675636
-0.57827538 0.33885002 2.9854894
-0.6158762 0.3747142 2.9629695
-0.57836729 0.37907672 2.9885809
2.3408735 0.39591274 2.9820197
-0.61705625 0.42596295 2.964041
-0.58049583 0.42453662 2.9880462
2.3417387 0.43042827 2.9791639
-0.61819512 0.47738287 2.9644248
-0.58067554 0.47928041 2.9920986
2.3277297 0.47057724 2.9560034
-0.61889863 0.5213607 2.9628515
-0.58398592 0.52529144 2.9905705
2.3176694 0.54051197 2.9663382
-0.62667549 0.57533133 2.9649291
-0.58730507 0.5765512 2.9847636
2.3169067 0.56886357 2.9833462
-0.65013742 0.63216352 2.9546685
-0.62601316 0.62551129 2.9694412
-0.58254498 0.63221663 2.9915843
-0.53845376 0.63021046 2.9966605
2.383446 0.62434685 2.9845641
2.4046307 0.63571155 2.9622312
-0.6515969 0.67728949 2.9547062
-0.62484151 0.67257369 2.9714561
-0.57994413 0.67188954 2.9916413
2.3998842 0.66528791 2.9848721
2.409483 0.68181324 2.9684033
-0.65275764 0.72955161 2.9517124
-0.62352937 0.72447962 2.9739635
-0.58336818 0.72236681 2.9954746
2.3953717 0.7199313 2.9913909
2.4180894 0.72604465 2.9689572
-0.65486699 0.77581555 2.9536126
-0.62145817 0.77490592 2.9781682
-0.58780062 0.77658165 2.9963994
2.3970008 0.77494377 2.9936059
2.4150052 0.77228522 2.9655254
-0.65712851 0.83724964 2.9528384
-0.62275928 0.82571054 2.9812405
-0.57532674 0.84651679 2.9981453
-0.54498142 0.8455174 2.9984062
2.3873801 0.8481428 2.9993925
2.4127154 0.8256734 2.9722438
-0.66301733 0.86587375 2.9570756
-0.62596524 0.87444562 2.9790165
-0.57815081 0.87304068 2.9964671
2.4119513 0.87397903 2.972805
-0.66864759 0.92212063 2.9590714
-0.62841946 0.92251509 2.981436
2.4156294 0.92424393 2.9781818
-0.65959239 0.97891283 2.9638495
-0.62612522 0.96899736 2.9829144
2.420542 0.97805172 2.9746525
-0.66175216 1.0237175 2.9619234
-0.62747061 1.0228703 2.985157
2.4192979 1.0257022 2.9775028
-0.66816032 1.0765229 2.9612188
-0.62851 1.0691828 2.9872169
-0.58524966 1.0877445 2.9995339
2.414413 1.0720767 2.975215
-0.66566861 1.1286143 2.9637601
-0.63345182 1.1216804 2.9893265
2.4205368 1.1268946 2.9724944
-0.66778213 1.177488 2.960686
-0.63540405 1.1725109 2.987772
2.4230223 1.1743028 2.9764457
-0.66587579 1.2278317 2.9658675
-0.63575196 1.2185682 2.9846375
2.4255042 1.2262063 2.9723344
-0.67035538 1.2759135 2.9660807
-0.63312542 1.2681738 2.9893374
2.4298043 1.2745283 2.9711404
-0.6729418 1.321833 2.966455
-0.63673013 1.3216155 2.9920475
2.4303913 1.3262125 2.9727516
-0.70223427 1.3818623 2.9503229
-0.67223126 1.3738234 2.9719555
-0.64029837 1.3786055 2.9927146
2.4285614 1.3709584 2.9767895
-0.70673501 1.4370816 2.9530888
-0.67254806 1.4281064 2.9747009
-0.6390515 1.4211713 2.994704
2.4298043 1.4247216 2.9771786
-0.67609006 1.4756608 2.9707408
2.4308305 1.4721727 2.9781287
2.4518001 1.4731752 2.9569054
-0.71379089 1.52949 2.953686
-0.67474234 1.5240409 2.9794626
2.4384506 1.5281224 2.9737356
-0.70538151 1.5680268 2.9574525
-0.67679548 1.5771343 2.98489
2.4339349 1.5741928 2.9872513
2.452879 1.5684679 2.9564962
-0.71537066 1.6289182 2.9629276
-0.67563331 1.6225272 2.9839077
2.440315 1.6343471 2.9687767
2.4582732 1.605901 2.9679046
-0.71924704 1.6774931 2.9623024
-0.68649787 1.67325 2.9835167
2.4336867 1.6799997 2.9786425
2.4580631 1.6774695 2.9538882
-0.7248199 1.7249509 2.9656425
-0.68244761 1.7328614 2.9915097
2.4347658 1.7249752 2.9793868
2.4538498 1.7345611 2.9613383
-0.71874881 1.7743899 2.9706521
-0.6920988 1.7733438 2.9959788
2.4437935 1.7760696 2.9893153
2.4602275 1.7751421 2.964818
-0.72595173 1.8257352 2.9738014
-0.69660091 1.825651 2.9967241
2.4421375 1.8198721 2.9856169
2.459224 1.8279802 2.9643726
-0.76322687 1.8862761 2.9625235
-0.734016 1.8763314 2.9793274
2.4408445 1.8811719 2.9951651
2.4590809 1.8768417 2.9709332
-0.76150775 1.9311663 2.9603167
-0.73380941 1.9237304 2.9828422
2.4446321 1.9129481 2.9837251
2.4596136 1.9371367 2.9643612
-0.76977372 1.9785057 2.9667764
-0.72587943 1.9723259 2.9923866
2.4431512 1.9753433 2.9917076
2.4630666 1.9771152 2.9622786
-0.77688199 2.0234001 2.9618225
-0.73953384 2.0313425 2.9891496
2.433732 2.0223048 2.9950898
2.4599428 2.0296707 2.9647624
-0.80080098 2.0971057 2.9547467
-0.77494979 2.0784938 2.9669549
-0.73475033 2.0706997 2.9893849
2.4573557 2.0827646 2.9756343
-0.77220821 2.1275659 2.9713147
-0.73582476 2.1305935 2.9947779
2.4452908 2.1369228 2.9935403
2.461308 2.1337776 2.9749718
-0.77614093 2.1751735 2.9648197
-0.73511392 2.1679602 2.9859414
2.4621148 2.1825476 2.9699395
-0.77569407 2.2240822 2.9654162
-0.74067032 2.2185941 2.9880557
2.4609959 2.2326527 2.9768791
-0.75873804 2.2728124 2.9666274
-0.7249344 2.2773604 2.9866908
2.4424648 2.2793365 2.9965913
2.4556818 2.2731273 2.9740944
-0.75391841 2.3100388 2.9563837
-0.71975899 2.323971 2.9722407
-0.67795563 2.3390007 2.9930978
2.4438715 2.3203568 2.9888704
2.4591467 2.3357644 2.9638975
-0.71529287 2.3592334 2.9611149
-0.67380935 2.3708127 2.9745483
-0.6219334 2.3842022 2.9769661
-0.57362366 2.3929601 2.9826903
-0.5338738 2.3926146 2.9765348
-0.48098111 2.3927853 2.9757843
-0.42798153 2.3875074 2.9757745
-0.39513057 2.3978093 2.9926136
0.38678208 2.3995376 2.9957607
0.4291274 2.3933198 2.9831045
0.45632163 2.3996103 2.987761
0.59670299 2.3962121 2.9798565
0.61651075 2.3968105 2.994318
0.78638083 2.3934281 2.9681232
0.82517052 2.3928449 2.9730608
0.88120574 2.3858564 2.9590147
0.92392081 2.3880436 2.986593
0.96800554 2.3788798 2.980382
1.2300576 2.3980167 2.9805846
1.3440121 2.3903935 2.9658041
1.3725159 2.3927894 2.958024
2.4405842 2.3668962 2.9856024
2.457958 2.3743443 2.9610598
-0.4310776 2.4045494 2.9970536
0.36950421 2.4002111 2.9984105
0.48343077 2.4048321 2.9908552
0.51795948 2.403357 2.9841852
0.57109737 2.4071026 2.9809022
0.63174713 2.4058857 2.9691014
0.73168641 2.4105146 2.9731638
0.75875556 2.4042521 2.9766693
1.0401398 2.4294086 2.973942
1.0552536 2.4231215 2.9608924
1.11165 2.4117556 2.9645739
1.1830475 2.4119897 2.9786932
1.2145679 2.403017 2.9931164
1.2715381 2.4083064 2.9803154
1.3080015 2.4088445 2.9675333
1.4243536 2.4079401 2.9724531
1.4762063 2.4108963 2.9816933
1.529426 2.4112821 2.9726212
1.5668436 2.4138205 2.9663138
1.6301186 2.4184105 2.9750023
1.6725016 2.4051633 2.9654887
1.7184818 2.4174242 2.9618435
1.7705965 2.4293168 2.9831231
1.8295366 2.4343956 2.9747314
1.8762937 2.4314885 2.9781337
1.9279636 2.4228995 2.9766872
2.0099013 2.4424677 2.9776323
2.0786614 2.4470267 2.9917293
2.1924601 2.4453871 2.966125
2.2147558 2.4482772 2.9568062
2.2813816 2.4471531 2.9609172
2.3113627 2.4484744 2.9944522
2.3729665 2.4435263 2.9778404
2.4251041 2.4218965 2.9704418
2.1221642 2.4521334 2.973743
2.1729627 2.4567039 2.9988472
2.240468 2.4557824 2.9785566
2.2568693 2.4528701 2.9877167
2.3372257 2.4546046 2.9883623
2.3592277 2.4566114 2.9770658
1.0131886 -0.50069356 3.0453
0.87428546 -0.46857157 3.0132234
0.91789407 -0.47092715 3.0336459
0.98624134 -0.4985877 3.0375686
0.84391171 -0.42178509 3.007241
0.87396026 -0.42415598 3.0256407
0.90367991 -0.41979274 3.037756
2.3144829 -0.43350196 3.0446851
0.83924466 -0.37423569 3.0126567
0.87677819 -0.37291953 3.0308774
0.90425134 -0.37502846 3.043627
0.83568805 -0.32294747 3.0117252
0.87584037 -0.32781446 3.0310719
0.90416408 -0.33000964 3.0468116
0.83762723 -0.27291465 3.0100346
0.87693995 -0.27598721 3.0383308
0.903593 -0.28479162 3.0479276
0.83693808 -0.22107321 3.0103295
0.87443548 -0.22313695 3.0325019
0.90208554 -0.2169539 3.0465422
0.83636236 -0.18408664 3.0100069
0.87142849 -0.19268918 3.0235033
0.48762327 0.088044912 3.0475645
0.47641087 0.1018663 3.0230291
0.50105447 0.10245822 3.0382218
-0.55733258 0.34253266 3.0082386
-0.52208513 0.32871261 3.0204334
-0.48379451 0.3263244 3.0368593
-0.55304897 0.37028581 3.0070333
-0.52363056 0.3736589 3.0261176
-0.49696097 0.37562346 3.04532
2.3337989 0.3803612 3.0077965
-0.55458635 0.42338139 3.0067236
-0.52471793 0.42581037 3.0279021
-0.49779192 0.42787349 3.0458956
2.3596947 0.41950011 3.0373478
-0.55661768 0.47029582 3.0063713
-0.52711523 0.47361159 3.0283692
-0.49800596 0.47233519 3.0428441
2.3700366 0.47390941 3.0443103
-0.55929726 0.52795881 3.0092618
-0.52587461 0.52573383 3.0320945
-0.49966049 0.52572948 3.0472732
2.3437014 0.53319633 3.0356398
2.3676753 0.5171895 3.035423
-0.56110388 0.57082951 3.0138812
-0.52469206 0.5757969 3.0288134
-0.47747618 0.58129567 3.0431333
2.3337448 0.57728153 3.0385265
-0.55773693 0.61662465 3.0016422
-0.52283949 0.62617773 3.0155985
-0.48060286 0.62125993 3.0419121
2.3638411 0.62742406 3.0199857
-0.57174218 0.6863066 3.0064144
-0.51985443 0.67859656 3.023005
-0.48422384 0.67857379 3.0440707
2.3776751 0.6716758 3.02789
-0.56124151 0.72025555 3.0055733
-0.52484375 0.72837162 3.0223169
-0.48539281 0.72027177 3.0420189
2.3800695 0.72134393 3.0271723
-0.57253569 0.77285999 3.0067651
-0.52407557 0.77340841 3.0225697
-0.48624408 0.78198069 3.0454769
2.3797605 0.77791858 3.0226185
-0.57360291 0.8188681 3.0043497
-0.52608937 0.82116479 3.0261891
-0.48222309 0.82219696 3.0468452
2.3770244 0.82417721 3.0264041
-0.57006574 0.89447057 3.0016937
-0.52735561 0.87175679 3.0241644
-0.49249673 0.86494178 3.0461886
2.3795547 0.87241316 3.0229752
-0.57571882 0.93155533 3.0139959
-0.52605981 0.92217714 3.0292761
-0.49512234 0.93760341 3.0487089
2.379081 0.92701054 3.0281992
-0.57457924 0.97672105 3.009433
-0.52931666 0.97344857 3.0303218
2.3847299 0.97659624 3.0277784
-0.57648998 1.0252086 3.0090437
-0.53060335 1.0255409 3.0343289
2.386982 1.0220002 3.0255904
-0.60679984 1.0852522 3.0050077
-0.57276785 1.0684011 3.0104334
-0.52890706 1.0810124 3.0345104
2.3870258 1.0754091 3.0248218
-0.60775143 1.1208895 3.0080614
-0.57549602 1.1284709 3.021867
-0.53547519 1.1313779 3.0349827
2.3880389 1.1250936 3.0271788
-0.60599512 1.1742339 3.0054581
-0.57707089 1.1774387 3.0178914
-0.5333733 1.1745846 3.038275
2.3883953 1.179306 3.0353897
2.406955 1.1751274 3.0063469
-0.61644381 1.2256182 3.0052779
-0.57652479 1.2341703 3.0215731
-0.53331059 1.2191297 3.0379441
2.3903799 1.2241899 3.0295589
2.4049926 1.2375904 3.0203662
-0.6158877 1.2822089 3.0070267
-0.57648671 1.2780758 3.0250545
-0.53810126 1.2701706 3.0409985
2.3874638 1.2818768 3.0333304
2.4042566 1.2735895 3.0064595
-0.61881918 1.3347433 3.0069077
-0.5713498 1.3194228 3.0239973
-0.54095078 1.3158095 3.0453954
2.3822923 1.3270547 3.0326049
2.406436 1.3252821 3.0099702
-0.612854 1.37386 3.0129089
-0.57146102 1.3754631 3.0307477
-0.54380351 1.3775482 3.044153
2.3889823 1.373024 3.0250401
2.4051237 1.3845958 3.0047712
-0.61320114 1.4221721 3.0138433
-0.57842731 1.4259597 3.0320134
-0.54622632 1.4229975 3.0447536
2.3885646 1.4233462 3.0284142
2.4112699 1.4157001 3.0013981
-0.62414265 1.4764695 3.0114284
-0.5759238 1.475601 3.0337849
-0.54949558 1.4710504 3.0494375
2.3950651 1.4742659 3.0335732
2.4027476 1.4676627 3.0073433
-0.62996215 1.5277699 3.0126283
-0.57310212 1.5255249 3.0387707
2.3882818 1.5094788 3.049355
2.4114091 1.5251412 3.0162249
-0.62596595 1.5763037 3.015795
-0.58515722 1.5690091 3.0345664
2.3919382 1.57189 3.0416653
2.4079425 1.5826106 3.019913
-0.65173656 1.647861 3.0097983
-0.62698179 1.6219819 3.0197074
2.3937407 1.6283466 3.0470202
2.4216115 1.6224949 3.0171437
-0.65966219 1.6811699 3.0097523
-0.62387609 1.6750075 3.0282936
-0.5779891 1.6819686 3.0481658
2.3977845 1.6593759 3.0389376
2.4150088 1.6733925 3.0166733
-0.66289711 1.7210687 3.0047793
-0.62726647 1.7246075 3.0278156
-0.57905149 1.7012652 3.0470619
2.3907933 1.7150042 3.0441444
2.4104092 1.7216289 3.0180712
-0.66985476 1.7787869 3.009366
-0.63221675 1.7708658 3.0375111
2.4150691 1.774138 3.024663
-0.66518849 1.8236923 3.0242691
-0.63708085 1.8255744 3.0422964
2.398092 1.8201867 3.0473189
2.416785 1.8285177 3.0200148
-0.70296365 1.8834449 3.0045397
-0.67389351 1.874657 3.0227895
-0.64124763 1.8788698 3.0429664
2.4202485 1.8715136 3.0207314
-0.70685315 1.9269443 3.00489
-0.67563689 1.9239813 3.0231609
-0.64468938 1.9139236 3.0473487
2.4249363 1.9201427 3.0155571
-0.67477524 1.9792091 3.0286789
-0.6495344 1.9786224 3.0453396
2.4225945 1.9725114 3.0284598
-0.71341413 2.0223684 3.00927
-0.67019701 2.0324628 3.0386162
2.4156277 2.0149813 3.0249228
-0.70938998 2.0741217 3.0080831
-0.67671287 2.0741234 3.0349894
2.4258072 2.0695803 3.0247076
-0.71386135 2.125397 3.0144892
-0.68068802 2.1288331 3.0356386
2.3913393 2.1315064 3.0475578
2.4216554 2.1152148 3.0236754
-0.71427131 2.1821146 3.0104842
-0.68533832 2.1795716 3.02953
2.4202917 2.169471 3.026988
-0.70949954 2.2282894 3.0078843
-0.67518598 2.2265499 3.0349143
2.4307511 2.2202961 3.0237756
-0.70415294 2.2645097 3.0076864
-0.67231613 2.2737842 3.0263965
-0.64097577 2.2856965 3.0484679
2.4198086 2.2685568 3.0230107
-0.66711223 2.3145461 3.0139718
-0.62732863 2.3288488 3.0359325
2.4162316 2.3243732 3.031014
-0.62128818 2.367269 3.0097384
-0.57710689 2.374527 3.0304604
-0.52100259 2.3853934 3.0228901
-0.47079396 2.3837428 3.0195844
-0.42937431 2.3901262 3.0261157
-0.38509113 2.3946288 3.0316954
-0.3456963 2.3989873 3.0327451
-0.22145696 2.3980489 3.0076265
-0.13464853 2.398927 3.0129533
-0.013093636 2.3983548 3.0480304
0.039140265 2.399493 3.0159352
0.23009619 2.3969145 3.0056562
0.28226274 2.3974385 3.0026636
0.31853893 2.3978233 3.0225279
0.38937357 2.3980932 3.0273049
0.41446584 2.3913658 3.0159388
0.48432255 2.3917277 3.0078187
0.51966029 2.3953612 3.030412
0.56639063 2.3979485 3.0211294
0.61218196 2.3965993 3.02918
0.78281963 2.397861 3.0156438
0.8275125 2.3904014 3.0133665
0.87118781 2.3878684 3.0210814
0.93424892 2.3805354 3.0241137
0.9743216 2.3894911 3.0477884
1.0206046 2.3866358 3.0218849
1.0656017 2.3928652 3.0267169
1.238024 2.3953862 3.012279
1.3567514 2.3947554 3.0065022
2.4149451 2.3793445 3.0228868
-0.37054774 2.4073572 3.0072761
-0.32380277 2.4029255 3.0195529
-0.27541924 2.4055073 3.0301182
-0.22734259 2.4056654 3.0335989
-0.17044489 2.4141438 3.0305879
-0.10907116 2.4095738 3.0271835
-0.074177235 2.4102039 3.0288439
-0.030494859 2.4066324 3.0249588
0.013118852 2.4097002 3.0289381
0.074406661 2.4164288 3.0366592
0.12699524 2.4177096 3.0368443
0.17909104 2.4118359 3.0272992
0.22319932 2.4076457 3.0363872
0.28368717 2.4096935 3.018055
0.32777685 2.4039524 3.023952
0.36049759 2.4057171 3.0287247
0.42400426 2.4045472 3.0147896
0.45976081 2.4001598 3.0218246
0.53967458 2.4051075 3.0172577
0.57370573 2.4012854 3.0300181
0.63864756 2.4055474 3.0190544
0.69469184 2.434422 3.011405
0.7320962 2.4203856 3.0266054
0.76586884 2.4090636 3.0164616
1.1245134 2.4213719 3.0109773
1.1815546 2.4279125 3.039552
1.2752731 2.4052751 3.032681
1.3166192 2.4139428 3.030241
1.3895559 2.4041123 3.0074348
1.4345274 2.4087758 3.0163112
1.4774218 2.4094272 3.0196552
1.5252746 2.4154446 3.0219605
1.5762933 2.4146521 3.0257518
1.631408 2.4177165 3.0263288
1.6741273 2.4294031 3.0459509
1.7185566 2.4252095 3.0175657
1.7597814 2.4334745 3.0320785
1.8215469 2.430048 3.0166709
1.8679138 2.4339559 3.0436783
1.9075491 2.4353375 3.0243301
1.9782759 2.4414802 3.0179863
2.0276499 2.4444251 3.0178633
2.0671835 2.4418421 3.025815
2.1172149 2.4494278 3.0208583
2.2312148 2.4484389 3.0471497
2.2698011 2.4468651 3.0190971
2.3268721 2.4446702 3.0287764
2.3804598 2.4278159 3.0262127
2.4152782 2.4119985 3.0115952
2.1380556 2.4507139 3.0102086
2.178169 2.4538991 3.0403485
2.208972 2.4549432 3.0226369
1.0393531 -0.50233257 3.0500329
1.0655861 -0.50393081 3.0543303
0.94590926 -0.46327713 3.0676241
0.97778022 -0.47437206 3.0711255
1.0176867 -0.48377147 3.0693617
1.0682559 -0.49341115 3.0875778
1.1133258 -0.49630952 3.0963683
2.2953677 -0.45398682 3.0846992
0.93636459 -0.42439404 3.0664566
0.9751305 -0.42809281 3.086772
1.0044004 -0.44620565 3.0999315
2.3209937 -0.41449341 3.0725031
0.93649954 -0.37896147 3.0708303
0.97130138 -0.37408975 3.0879698
2.325819 -0.37227544 3.091804
0.93096375 -0.32567388 3.065516
0.97115958 -0.32100821 3.0958996
0.92956823 -0.26959869 3.06703
0.96945828 -0.27080873 3.0936446
0.92817062 -0.22825129 3.064646
0.97214895 -0.22856712 3.0915072
0.87288356 -0.18123847 3.0844228
0.91728371 -0.19039515 3.0774474
0.9655723 -0.19830307 3.0979447
2.3097062 0.088008456 3.0951297
0.52641183 0.10312884 3.0555873
0.55161005 0.10371792 3.0704067
2.3104432 0.12298831 3.095103
2.3061435 0.16634077 3.0876837
2.311579 0.23896037 3.0798433
2.3194005 0.28412539 3.073024
-0.46493152 0.33591923 3.0593131
-0.42619649 0.33367252 3.0767281
-0.39715722 0.34160349 3.0836053
2.3211305 0.32918045 3.076766
-0.46952665 0.37724638 3.0616958
-0.42773354 0.37208694 3.0851147
2.3304555 0.3708967 3.0717583
-0.47010672 0.42955437 3.0609202
-0.42795658 0.4243997 3.0822783
2.3395042 0.42212924 3.0784545
2.3513682 0.42985803 3.0591874
-0.47104031 0.4749271 3.0626693
-0.42883888 0.47747305 3.0834517
2.3335149 0.47535273 3.0812299
2.3547182 0.47433448 3.0582163
-0.47164297 0.52307481 3.0613854
-0.4299835 0.52366376 3.0869794
2.3266771 0.52851677 3.0821736
2.3572283 0.50995439 3.0568702
-0.5009774 0.56423217 3.0509026
-0.46436763 0.56110835 3.0585067
-0.42591566 0.57802111 3.0763016
-0.38793156 0.58209205 3.0760131
2.3282609 0.58169121 3.0765259
-0.45727652 0.62477505 3.0533743
-0.4237738 0.62863517 3.0687768
-0.38831377 0.62371242 3.0736823
2.3344836 0.63012147 3.084228
2.3562558 0.61967272 3.0735736
-0.46441323 0.66813844 3.0547318
-0.42314091 0.67429072 3.0729334
-0.38621736 0.67514068 3.0802345
2.3341324 0.67398494 3.0866661
2.3556108 0.67255551 3.0635231
-0.46473399 0.73035449 3.0541489
-0.42463684 0.72178215 3.076905
-0.38517132 0.71821451 3.0650713
2.3344231 0.72425026 3.0812764
2.3562651 0.7316137 3.062063
-0.46719217 0.77715397 3.0563078
-0.42685407 0.7741825 3.0734448
-0.38717523 0.77460653 3.0723977
2.3345478 0.77451646 3.0856626
2.358104 0.77826613 3.0603633
-0.46411979 0.83548659 3.0669701
-0.42286667 0.82634079 3.0802875
-0.38831139 0.82212245 3.0735183
2.3390973 0.82060045 3.082176
2.3518181 0.81883341 3.0643671
-0.46975619 0.88022697 3.0620666
-0.42458528 0.87533683 3.0844634
-0.39184648 0.85243714 3.0973201
-0.34419438 0.86266136 3.0802944
2.3397529 0.88058138 3.0839083
2.3555002 0.87357336 3.0569255
-0.4715676 0.9235121 3.0627062
-0.42578909 0.92275906 3.0909438
2.3427887 0.92826521 3.0766072
2.3602765 0.91104251 3.0544972
-0.51229739 0.97934598 3.0510888
-0.47590294 0.97506523 3.067276
-0.42927954 0.97962248 3.0931106
2.3463278 0.97359294 3.0920818
2.3615248 0.97599036 3.0638821
-0.50923014 1.0264249 3.0539315
-0.47587082 1.0237663 3.0707436
-0.4309338 1.0279701 3.0907767
2.3422937 1.0254376 3.0872276
2.3611615 1.0262995 3.0619075
-0.50434303 1.0663362 3.0547943
-0.47219196 1.0752982 3.0723059
-0.43609968 1.0809683 3.0924609
2.3393834 1.0687342 3.0932953
2.3582199 1.0740391 3.0626502
-0.50631499 1.1203723 3.0543318
-0.47448376 1.1268504 3.0758276
-0.43979055 1.1296932 3.0966866
2.3419809 1.1310549 3.0880623
2.365696 1.1199454 3.0633535
-0.50419396 1.170403 3.0531089
-0.47809964 1.1753808 3.0749054
-0.43922555 1.158668 3.0970404
2.34793 1.1726036 3.0742526
2.3625767 1.1708865 3.0580006
-0.50699133 1.2233515 3.0573022
-0.47610658 1.2269628 3.0831859
2.3457747 1.2172438 3.0951178
2.3641548 1.2264179 3.0694489
-0.51695603 1.2753254 3.0561907
-0.47220868 1.2725188 3.0816629
2.3640952 1.2723314 3.0724783
-0.52347666 1.3323315 3.0596969
-0.48178929 1.3238958 3.0872307
2.3625336 1.3256388 3.07603
-0.52005035 1.3811721 3.0620759
-0.48368728 1.3726325 3.0860293
2.3656144 1.3755043 3.0767331
-0.51516068 1.4236138 3.0648963
-0.48845983 1.4301077 3.0872993
2.3447461 1.4310604 3.0960238
2.3667407 1.4182971 3.0739813
-0.52496415 1.4727911 3.0648339
-0.48654541 1.4720894 3.0986404
2.3708591 1.472962 3.0787904
-0.5518139 1.5090294 3.0510447
-0.52314878 1.5260644 3.0704725
-0.49389964 1.5183311 3.0968747
2.3782792 1.5285822 3.0754249
-0.55645657 1.5778058 3.0560074
-0.52365172 1.5755324 3.0698743
-0.49610311 1.5896708 3.0870876
2.3683701 1.5715338 3.0747428
-0.56838495 1.6291245 3.0605736
-0.52908587 1.6242681 3.0751638
-0.48983753 1.6117125 3.0932336
2.3688455 1.6262357 3.0765226
-0.56369203 1.6795802 3.064049
-0.53314489 1.6727819 3.0844748
2.3737731 1.677705 3.0693066
-0.56678683 1.7295181 3.0638354
-0.52911723 1.7274171 3.0924754
2.3766069 1.7253119 3.0817287
-0.60310912 1.7812214 3.0602946
-0.57619846 1.7785413 3.0775809
-0.53434294 1.7698489 3.0921068
2.3867326 1.775268 3.0693121
-0.61445928 1.8234057 3.0601242
-0.57607001 1.8242482 3.085263
2.3783188 1.8217356 3.076519
-0.61809248 1.8757172 3.0590556
-0.5799858 1.8783854 3.0871964
2.3852277 1.8747287 3.0765085
2.4000967 1.8943522 3.0568082
-0.62726283 1.9317427 3.0580442
-0.58800751 1.9254073 3.0808764
2.3811066 1.9271902 3.0805321
2.408843 1.9303848 3.0519643
