ply
format ascii 1.0
comment PCL generated
element vertex 1515
property float x
property float y
property float z
element camera 0
property float view_px
property float view_py
property float view_pz
property float x_axisx
property float x_axisy
property float x_axisz
property float y_axisx
property float y_axisy
property float y_axisz
property float z_axisx
property float z_axisy
property float z_axisz
property float focal
property float scalex
property float scaley
property float centerx
property float centery
property int viewportx
property int viewporty
property float k1
property float k2
end_header
-1.6451142 0.8803317 2.264653
-1.625067 0.9241122 2.2723317
-1.5920657 0.94455445 2.2974818
-1.6158446 0.97615552 2.266432
-1.5908561 0.97579092 2.2920661
-1.6244338 1.0280576 2.2612007
-1.5873542 1.0242972 2.2883501
-1.6208253 1.0745568 2.2672319
-1.5894003 1.075967 2.2900712
-1.623291 1.1211859 2.2676144
-1.5869815 1.1258582 2.2937815
-1.6530429 1.1616342 2.2537434
-1.6265411 1.1734852 2.2691424
-1.5909983 1.1659687 2.2902579
-1.6532987 1.2330898 2.2532816
-1.6237029 1.2242843 2.2730587
-1.5931501 1.2187172 2.2944465
-1.6605142 1.265977 2.2500253
-1.6256292 1.2704699 2.2748556
-1.5943346 1.2748587 2.2925365
-1.6619189 1.3262362 2.2553887
-1.6267952 1.3189305 2.2798445
-1.6660908 1.3701063 2.2568414
-1.6314195 1.3740423 2.284035
-1.6634734 1.4263513 2.2635994
-1.6301033 1.4230456 2.2877803
-1.6669154 1.479534 2.2678859
-1.6307735 1.4769218 2.2905438
-1.6722001 1.526379 2.2686596
-1.6351557 1.5251873 2.2896168
-1.7068197 1.5955402 2.2558239
-1.6750755 1.5721927 2.2700925
-1.6385436 1.5782056 2.2927651
-1.7116944 1.6146499 2.2531652
-1.6767796 1.6249344 2.2711494
-1.6454053 1.6354767 2.299963
-1.7056121 1.6713592 2.2556584
-1.6727817 1.6743183 2.2787714
-1.6492643 1.6539556 2.2961683
-1.7055737 1.7301661 2.2555652
-1.676931 1.7239915 2.2789433
-1.6499547 1.7137821 2.2984519
-1.7092179 1.7811801 2.2546661
-1.6783559 1.7725883 2.2777774
-1.712182 1.8222418 2.2591631
-1.6810493 1.8289279 2.2855165
-1.7149355 1.8714375 2.2643538
-1.6734334 1.8729976 2.2859643
-1.7196089 1.9200214 2.26003
-1.6855567 1.9286307 2.2843177
-1.7173666 1.9739982 2.2653368
-1.6846756 1.9828597 2.2890377
-1.7519438 2.0214324 2.2535608
-1.7204728 2.0287104 2.2673647
-1.6866174 2.0341566 2.2919464
-1.7544411 2.0895841 2.2509251
-1.727616 2.0777946 2.2680018
-1.6914525 2.0724003 2.2887692
-1.7274172 2.1282294 2.2738972
-1.6931472 2.142698 2.2997811
-1.7680207 2.1807418 2.2551515
-1.7279069 2.1772888 2.2727523
-1.6983054 2.1651623 2.2941253
-1.7568616 2.2107348 2.2524228
-1.7245035 2.2102597 2.2721803
-1.6967189 2.2157185 2.2978365
2.2046504 2.431561 2.2992742
-0.21050255 -0.50524843 2.3121092
-0.17323603 -0.50398946 2.3173125
-0.12603927 -0.504179 2.3112266
-0.073211581 -0.50998282 2.3158171
-0.02452434 -0.51462948 2.3309228
0.024109129 -0.52181846 2.3234496
0.075353794 -0.52830255 2.3243823
0.11918982 -0.53471369 2.3184402
0.15763044 -0.5358817 2.3304908
0.22766209 -0.53802216 2.3324866
0.28575227 -0.54018426 2.319911
0.32268715 -0.53893709 2.3394067
0.37376836 -0.5362013 2.332644
0.41629729 -0.53470016 2.3211741
0.47621748 -0.53427386 2.3292649
-0.15900911 -0.48279917 2.3461585
-0.12691219 -0.47388569 2.3262737
-0.087605111 -0.47912386 2.3387935
-0.12632324 -0.42390183 2.3336215
-0.095122375 -0.42776814 2.3440421
-0.15563668 -0.38491461 2.3498633
-0.12651576 -0.37607044 2.3362131
-0.098634876 -0.38340345 2.3426309
-0.12546417 -0.32458377 2.3384004
-0.098621093 -0.34388876 2.3463008
-0.12514716 -0.27391863 2.3411574
-0.12607719 -0.22419432 2.340992
-0.098306283 -0.20229536 2.3493984
-0.12412225 -0.18109922 2.3416331
-0.12140014 -0.11864504 2.3280635
-0.12464228 0.022196118 2.3210516
-0.47103876 0.14076935 2.3395095
-0.4020423 0.14065 2.3322911
-0.3732174 0.14038447 2.3310726
-1.0654966 0.15368462 2.3109126
-1.0248783 0.1596539 2.3251891
-0.96788234 0.16393159 2.3160415
-0.94368929 0.16480032 2.3368623
-0.50620049 0.17907669 2.3044107
-0.47449791 0.17567499 2.3241053
-0.42775914 0.17339322 2.3317044
-0.37709948 0.16655342 2.3187268
-0.51256531 0.20736021 2.3054841
-0.47223073 0.21209908 2.3129563
-0.42957452 0.20781542 2.3221431
-0.39722431 0.20008163 2.3013461
-0.57091188 0.27279431 2.325707
-0.62701404 0.39058331 2.3128395
-0.63023102 0.42033362 2.3327348
-0.62953627 0.47899103 2.3132467
-0.6631881 0.51365024 2.3076084
-0.63126689 0.51961476 2.3098922
-0.61232036 0.55767781 2.3215365
-1.6706932 0.86466008 2.3322141
-1.6194953 0.92602158 2.3189337
-1.5867651 0.94932723 2.3166616
-1.5728421 0.97947991 2.3203838
-1.5447304 0.99675941 2.3496022
-1.5592151 1.023012 2.3143947
-1.5328578 1.0314749 2.3356948
-1.5657352 1.0781698 2.3101201
-1.5277287 1.0767955 2.3344338
-1.5625122 1.1219354 2.3117249
-1.5272355 1.1249163 2.3333583
-1.5673099 1.1757606 2.3167503
-1.5285248 1.1734954 2.3374643
-1.5705703 1.2184913 2.3122265
-1.5353501 1.2238375 2.3355176
-1.5740975 1.2701745 2.313098
-1.5393591 1.269961 2.3322265
-1.5751114 1.3220912 2.3184206
-1.540336 1.3220378 2.3381522
-1.6044468 1.3640826 2.3011417
-1.5736419 1.3747002 2.3241856
-1.5436316 1.386182 2.3482542
-1.605706 1.4336499 2.3020945
-1.5789292 1.4266365 2.3253336
-1.6117433 1.4879279 2.307936
-1.5797377 1.4734582 2.329886
-1.6093603 1.5279759 2.3050039
-1.5785983 1.5209622 2.3341599
-1.615024 1.576269 2.3129828
-1.577661 1.577415 2.3376846
-1.6202192 1.6248673 2.3132732
-1.5861187 1.6272035 2.338594
-1.6248275 1.6735499 2.3118441
-1.583429 1.6761799 2.3373148
-1.6263815 1.7274851 2.3204398
-1.5899706 1.7281301 2.3437514
-1.6558251 1.7878006 2.3018281
-1.625729 1.7753527 2.3200736
-1.5931733 1.785002 2.3446229
-1.6541413 1.8399472 2.3038747
-1.6254221 1.8280822 2.3217723
-1.5939802 1.8324914 2.3462248
-1.6247549 1.8721261 2.3231418
-1.588945 1.8820839 2.3437819
-1.660408 1.9174141 2.3052197
-1.6269329 1.9245099 2.3289373
-1.6577902 1.9791131 2.3091102
-1.6299736 1.9680364 2.3320632
-1.6650957 2.0279839 2.307899
-1.6291964 2.023241 2.3347027
-1.667485 2.0857697 2.31915
-1.6274464 2.0758529 2.3372207
-1.6717101 2.1257298 2.3176305
-1.6360149 2.1246371 2.3441124
-1.6709505 2.178488 2.3208892
-1.6386406 2.1796708 2.3436966
-1.6679288 2.2201049 2.3221226
-1.627206 2.2192636 2.3454137
2.1617596 2.4327593 2.3296876
2.2444873 2.4381063 2.3234448
2.2672565 2.4256632 2.3295503
2.2184992 2.4664843 2.3441739
-0.20859697 -0.50299418 2.35607
-0.18641689 -0.50481081 2.365845
-0.054036301 -0.50093019 2.3520501
-0.026809473 -0.50595206 2.3648992
0.027178494 -0.51324761 2.3732634
0.081553034 -0.52159196 2.3744671
0.12290461 -0.52753818 2.3720932
0.17736383 -0.53475684 2.3716512
0.22136822 -0.53666401 2.3898835
0.27404618 -0.53630322 2.3686848
0.31537557 -0.5350374 2.3729672
0.37536502 -0.53524727 2.3815043
0.42289868 -0.53651923 2.3819325
0.47275373 -0.5334999 2.3619738
-0.21133754 -0.49795333 2.3883104
-0.1783759 -0.47559547 2.3773029
-0.06331335 -0.47162133 2.3632085
-0.027297586 -0.47773218 2.3861687
0.0087531582 -0.49874371 2.3982494
-0.17150687 -0.42560714 2.3737857
-0.067789622 -0.42435959 2.3664217
-0.036226653 -0.42392129 2.3907006
-0.17431128 -0.37444416 2.3771505
-0.14418222 -0.36194158 2.3505354
-0.073308282 -0.37380606 2.3658719
-0.038166631 -0.37647924 2.3933606
-0.17017324 -0.32403067 2.3752062
-0.075435542 -0.32312682 2.3685784
-0.043057367 -0.32757932 2.39504
-0.16895424 -0.27694848 2.3745112
-0.1439389 -0.29357871 2.3527095
-0.075081699 -0.27462193 2.3708138
-0.043009117 -0.27840576 2.3963497
-0.16798675 -0.2285444 2.376339
-0.077038087 -0.22481859 2.3718476
-0.042899724 -0.22903162 2.3936198
-0.15691443 -0.19402698 2.3845782
-0.12086202 -0.17992544 2.3513396
-0.076520316 -0.19302881 2.3747854
-0.45980412 0.13888484 2.3936098
-0.4274466 0.14349484 2.3582778
-0.32696843 0.14225382 2.3671508
-0.29419038 0.14288047 2.3805959
-1.0193312 0.15563196 2.3592842
-0.98305058 0.1565033 2.3851156
-0.92344731 0.16644324 2.3684371
-0.88066423 0.16732228 2.3935857
-0.32792789 0.16551733 2.3732924
-0.2958222 0.16090788 2.3930771
-0.63842088 0.44325095 2.3608654
3.0490317 0.69793832 2.3928845
-1.570006 0.99075603 2.3647935
-1.5198042 1.0185591 2.3641524
-1.4749298 1.0333467 2.3828516
-1.4405843 1.0396539 2.3960676
-1.5073922 1.0662496 2.3515363
-1.4784586 1.0741363 2.371618
-1.4449679 1.0699154 2.3937647
-1.503409 1.1273495 2.3528817
-1.4717492 1.1266825 2.3795199
-1.4422354 1.1325635 2.3982236
-1.5053408 1.174916 2.3536897
-1.476882 1.1776122 2.3756206
-1.448209 1.1715024 2.39483
-1.5093546 1.2246907 2.3569541
-1.4760228 1.2258284 2.3809993
-1.4446452 1.2280552 2.3988211
-1.5178623 1.2744375 2.3610437
-1.4784396 1.2758491 2.3834906
-1.5180647 1.3268753 2.3619652
-1.4821151 1.3285816 2.3850911
-1.5206794 1.3796052 2.3653762
-1.4865295 1.3758112 2.3879817
-1.5531664 1.4159797 2.352006
-1.5209236 1.4276212 2.3698626
-1.4871536 1.4204841 2.397886
-1.5558535 1.4887326 2.3555968
-1.5239791 1.4713551 2.3705988
-1.4947753 1.4634502 2.392076
-1.5584896 1.5341837 2.3546972
-1.5258559 1.5237813 2.373641
-1.4968221 1.5373237 2.39534
-1.5559634 1.5604544 2.3536129
-1.5240145 1.5719582 2.376133
-1.5611628 1.6204568 2.3586428
-1.5243489 1.6231823 2.3813334
-1.4979973 1.6045496 2.3997331
-1.5602044 1.6776503 2.3584874
-1.5310694 1.6717277 2.3776524
-1.4995121 1.6809479 2.3989031
-1.5612242 1.7291074 2.3624725
-1.5272233 1.7249153 2.3878295
-1.569121 1.7783204 2.3621566
-1.5343009 1.7724733 2.3875167
-1.5678104 1.8316822 2.3663654
-1.5350688 1.8265699 2.388376
-1.5693139 1.8782593 2.3672035
-1.5334556 1.8808187 2.3922465
-1.6009779 1.91164 2.3506668
-1.5730442 1.9225007 2.3671458
-1.5453308 1.9260796 2.3893039
-1.607186 1.9840664 2.3579886
-1.5749067 1.9680331 2.3714695
-1.5443552 1.9828883 2.3927112
-1.602687 2.0368109 2.3543582
-1.5775622 2.0209033 2.3723915
-1.543371 2.0149875 2.3904843
-1.6006522 2.0778189 2.3658209
-1.5717479 2.0752625 2.3785627
-1.5449516 2.0507226 2.391942
-1.6147509 2.1187754 2.3569179
-1.579186 2.1241009 2.386188
-1.6148247 2.1758378 2.3614092
-1.5838392 2.1763895 2.3803964
-1.6081297 2.2262225 2.3670611
-1.5803665 2.2195587 2.3855755
2.1278086 2.4441848 2.3698876
2.18312 2.4389009 2.3658845
2.2234135 2.4458904 2.3914611
2.2773166 2.4369299 2.3616433
2.3321276 2.448278 2.3848858
2.3530552 2.4420831 2.3817177
2.1576874 2.4581044 2.3716164
2.2199976 2.4502347 2.3589606
2.2746024 2.453371 2.3898349
0.041005164 -0.50590491 2.4180639
0.079433918 -0.51135761 2.4291024
0.13035159 -0.51783031 2.4215736
0.17334944 -0.52267843 2.4222324
0.2265968 -0.52602834 2.4236596
0.27068862 -0.52849042 2.4231791
0.33138022 -0.53379059 2.4233484
0.37280637 -0.5355314 2.4273872
0.42578089 -0.53569567 2.4335988
-0.2131732 -0.4730908 2.4130483
-0.19464003 -0.47067624 2.4016736
-0.0125192 -0.45662329 2.4059305
0.020624997 -0.47466359 2.4272218
0.054212887 -0.49229845 2.4447539
-0.21272752 -0.42548105 2.4135604
-0.19450147 -0.42970142 2.4049518
-0.013624613 -0.42313114 2.4111438
0.016548494 -0.42926735 2.4333835
-0.21252374 -0.37848446 2.4164791
-0.016356625 -0.37487888 2.4118621
0.013871619 -0.37528616 2.4345856
-0.2119662 -0.32523426 2.4150474
-0.19362241 -0.33526352 2.4036903
-0.01934661 -0.32557601 2.4112012
0.014686261 -0.32142276 2.4367459
-0.21189532 -0.2728585 2.4184644
-0.19314286 -0.27677852 2.4024818
-0.022618486 -0.2732029 2.4126074
0.012332371 -0.27682361 2.4386082
-0.2176317 -0.2263474 2.4204247
-0.18999231 -0.21592255 2.4032485
-0.021900563 -0.22389314 2.4147134
0.010762585 -0.22686458 2.4393988
-0.20787345 -0.19909765 2.4446204
-0.18195248 -0.19635552 2.4121313
-0.025860768 -0.19605628 2.4127622
0.0088140992 -0.19854154 2.4434459
-0.21901555 0.13441588 2.4404097
-0.19633906 0.14073621 2.4499245
-0.95897448 0.15747863 2.408644
-0.9274568 0.15794156 2.4251196
-0.88980484 0.16171907 2.4309883
-0.8264761 0.168446 2.4244437
-0.77842236 0.1684352 2.4352643
-0.51922989 0.16434905 2.4197726
-0.22248416 0.16549104 2.4448586
-1.182106 0.30287006 2.4437432
2.7692056 0.49674347 2.4265604
2.7466812 0.52189493 2.448122
2.7808971 0.53201735 2.4307032
2.7823818 0.57878608 2.4307051
2.8102465 0.58617824 2.4310415
2.7813151 0.62918979 2.4373894
2.8243942 0.61436027 2.437953
3.0461245 0.64000708 2.4350448
3.064467 0.64023411 2.4183731
2.7835793 0.66636914 2.4394577
2.8015914 0.68838757 2.43191
3.0344963 0.68500555 2.4475758
3.0587778 0.67587483 2.4219515
2.7890327 0.72295165 2.4435403
2.8175507 0.72607726 2.4373906
3.0306561 0.71038091 2.4384127
3.0578294 0.71944153 2.4112515
2.7847028 0.7773183 2.4380116
2.7811687 0.82631183 2.4403193
2.8121073 0.82205176 2.4387445
2.788981 0.88484645 2.4386101
2.832109 0.85344982 2.4487209
2.7834055 0.93369573 2.4423654
2.8043504 0.92659491 2.4323323
2.7786388 0.97739446 2.4397404
-1.5148692 1.0311244 2.4255981
-1.4520438 1.0207071 2.4244142
-1.4190131 1.0281126 2.4167333
-1.3802084 1.0226483 2.4405119
2.7840252 1.019044 2.4341273
-1.4211246 1.0723426 2.4121361
-1.382961 1.0742947 2.4352827
2.7787259 1.0773975 2.4378502
-1.4192417 1.1206032 2.4150801
-1.3854359 1.1225963 2.4400852
2.7847295 1.1259599 2.4426584
2.8108745 1.1209885 2.4375579
-1.4199474 1.178849 2.4165285
-1.3874545 1.1669153 2.4391999
2.7851782 1.1754363 2.4374213
-1.4502352 1.2466599 2.4022586
-1.4265389 1.2292126 2.4194851
-1.3871851 1.2182865 2.4419281
2.7904482 1.2305104 2.4411945
-1.4591147 1.2891448 2.4018316
-1.4249959 1.274586 2.4230444
-1.3928534 1.2646505 2.443933
2.7841268 1.2788264 2.4487681
2.8081751 1.2819287 2.4384956
-1.4604023 1.3328072 2.4061608
-1.4260613 1.3181094 2.4278598
-1.3981559 1.3111836 2.4445038
2.7811835 1.3250166 2.4429805
-1.4604439 1.379964 2.4109309
-1.428789 1.3701079 2.4334693
-1.3955135 1.3714373 2.4490051
2.7873764 1.3701507 2.4355135
2.8072524 1.3508226 2.4424553
-1.4642895 1.4239404 2.4118214
-1.4306223 1.4254352 2.437377
2.7848539 1.4243947 2.4431479
2.8061829 1.4293184 2.4409552
-1.4714854 1.4758594 2.4117951
-1.4328675 1.4754395 2.4367628
2.788754 1.4735115 2.4362845
-1.4700949 1.5250409 2.4177587
-1.4325964 1.5207808 2.4429531
2.7873077 1.5352938 2.4406018
2.8001473 1.5060871 2.4335265
-1.4736428 1.5767398 2.4190962
-1.4385523 1.5741414 2.4441731
2.8133085 1.585483 2.4456246
-1.4753174 1.6295345 2.4236388
-1.4372234 1.6175519 2.4444509
2.8051958 1.6359029 2.4472744
-1.4713712 1.6745324 2.4261396
-1.4460124 1.6724546 2.447659
-1.5058656 1.726251 2.4066772
-1.4773152 1.7246059 2.4262967
-1.5088844 1.7757039 2.4038496
-1.474399 1.7777671 2.4321308
-1.4490505 1.7532427 2.4497519
-1.5074368 1.813457 2.4050481
-1.4776436 1.8225471 2.4310701
-1.5079086 1.8686491 2.4110951
-1.4741201 1.8751202 2.4330795
2.7867308 1.8693212 2.4494863
-1.5170006 1.9290379 2.4101641
-1.4814634 1.9327579 2.4357102
-1.5203158 1.9740874 2.409992
-1.486851 1.9810212 2.4396405
-1.5217212 2.0197618 2.4140201
-1.4841516 2.0269272 2.438683
-1.5253757 2.0744793 2.4220903
-1.4939536 2.0745997 2.4394994
-1.5567422 2.13534 2.4072866
-1.5260868 2.1215818 2.4242084
-1.4913869 2.1249754 2.4457548
-1.5609539 2.1571088 2.4013135
-1.5297805 2.1738427 2.4229925
-1.4906101 2.1684697 2.4450634
-1.5609047 2.2197356 2.4030795
-1.5268223 2.2249341 2.427114
-1.4955835 2.2104023 2.4437897
2.2241113 2.4384651 2.4214008
2.3263693 2.4434838 2.4458904
2.3938882 2.4473212 2.4494898
2.4371371 2.4443264 2.4364481
2.2027473 2.4528205 2.4164414
2.2874687 2.458796 2.4325829
2.3169413 2.4519176 2.4227152
2.3868842 2.4586756 2.4291441
2.4113822 2.4555755 2.4290276
0.092596203 -0.50138468 2.4688373
0.12779041 -0.50734645 2.4713845
0.173123 -0.51271254 2.473366
0.22661325 -0.51944304 2.4910157
0.27817702 -0.5220601 2.4803972
0.31917024 -0.52832508 2.479301
0.37140712 -0.53125697 2.4765549
0.4217478 -0.5338515 2.4834988
0.47165599 -0.53913808 2.4731154
0.075857833 -0.47159034 2.470113
0.11152897 -0.4759745 2.4954462
0.038439929 -0.4192881 2.4528108
0.072049305 -0.42223966 2.4776154
0.036021981 -0.37023276 2.4538617
0.073429525 -0.37661275 2.481107
0.038336836 -0.32391483 2.4554701
0.068549886 -0.32725358 2.4802778
0.034394328 -0.27268532 2.4578259
0.068503037 -0.27947992 2.4826784
-0.22099294 -0.20037121 2.4595938
0.033852305 -0.22623928 2.4571607
0.066365525 -0.22344595 2.4805145
-0.020609505 -0.18885958 2.4701228
0.021809693 -0.19025697 2.4575717
0.062296908 -0.18956654 2.4789257
-0.072047032 0.0849998 2.4835374
-0.16755049 0.14117949 2.4590616
-0.12760319 0.14255071 2.4846001
-0.074032255 0.10674445 2.483129
-0.020709468 0.14249484 2.4857357
-0.85934621 0.15916577 2.4631732
-0.82785994 0.16017644 2.4875154
-0.77304268 0.1650786 2.4797781
-0.70861602 0.17042813 2.4804749
-0.69148099 0.17069574 2.4878809
-0.5638991 0.16895977 2.4831901
-0.54868019 0.1619966 2.471041
-0.222427 0.18429007 2.4539049
-0.17445718 0.17169538 2.4730296
-0.12944727 0.17126469 2.4901769
-0.020748664 0.16651279 2.4885645
-0.21526799 0.20061886 2.4616702
-0.17369017 0.20568451 2.4840674
-0.13528582 0.2203543 2.4970338
-0.14069812 0.27555537 2.4983726
-1.2206599 0.31374335 2.4918826
-1.1701709 0.3046844 2.4649668
-1.2429519 0.38971618 2.4987698
-1.2434808 0.40287089 2.4983315
-1.1833998 0.42361924 2.4804835
-1.2493082 0.48305842 2.4999058
-1.1826293 0.45140854 2.4913464
-1.0929984 0.47185948 2.4852657
2.957727 0.4653478 2.4563377
-1.1138674 0.50743496 2.4949288
2.6924107 0.54233479 2.455749
2.7309675 0.53854179 2.4616418
2.7572541 0.5487842 2.4528348
2.8871162 0.54749453 2.4761343
2.9805765 0.53258622 2.4967761
-1.2714003 0.5851047 2.4974732
2.5747497 0.56711352 2.4907887
2.7256413 0.5700323 2.4713743
2.7571599 0.5775727 2.4575021
2.9845417 0.57689738 2.4919329
-1.319429 0.63543504 2.4692953
-1.2785714 0.62767226 2.4885287
2.7437913 0.61954021 2.488869
2.762651 0.61524743 2.4631476
2.9756403 0.61168998 2.4934464
3.0229142 0.62949771 2.4712942
-1.3590943 0.68159699 2.4959805
-1.3204354 0.6732536 2.4741759
-1.2830189 0.67321455 2.4887764
2.7385437 0.67110878 2.4935086
2.7651706 0.67584598 2.4773552
2.9990437 0.68481666 2.4819036
3.0183957 0.66545194 2.475929
-1.3100809 0.71678257 2.4866126
-1.2857038 0.71779859 2.4930062
-0.058077872 0.70987117 2.4987216
-0.045858908 0.71015781 2.499902
2.7407796 0.72340697 2.4936905
2.7660806 0.72347832 2.4697614
2.917201 0.7299239 2.4960535
2.9680555 0.71795005 2.4902575
3.0075552 0.70028996 2.4532094
2.7479081 0.75896132 2.4915206
2.7587948 0.77496856 2.4708159
2.7453032 0.82812083 2.4861536
2.760164 0.83040112 2.4642379
-1.307409 0.88770771 2.4884892
-1.2933424 0.87384069 2.4962122
2.7479084 0.8822394 2.4891233
2.7666821 0.877343 2.4632494
-1.316177 0.92547226 2.4824851
-1.2913533 0.92428058 2.4950666
2.7621138 0.92655247 2.4730182
-1.3632381 0.97466868 2.461432
-1.3283135 0.97389174 2.4736493
-1.2944616 0.97977513 2.4941428
2.7475617 0.95576262 2.4987216
2.7602451 0.97235417 2.4783058
-1.5057782 1.0390298 2.4545166
-1.4885439 1.036662 2.4556668
-1.4166255 1.0109214 2.4571972
-1.3586934 1.0288517 2.4550459
-1.3262703 1.0227336 2.4735551
-1.293545 1.0054097 2.4930136
2.7618644 1.0261444 2.472631
-1.3592625 1.0770279 2.4535952
-1.3252027 1.0776364 2.4783962
-1.2967287 1.0679756 2.4974794
2.7481966 1.0820563 2.488986
2.7599087 1.0799817 2.4680555
-1.361679 1.1255606 2.4587467
-1.3235316 1.1281255 2.4819887
2.7446547 1.1391619 2.4978952
2.7610738 1.1267569 2.4686821
-1.3644482 1.1753672 2.4578431
-1.3293916 1.1749864 2.4826231
2.7413943 1.1784252 2.4875383
2.762934 1.1680486 2.4630752
-1.3638706 1.2221808 2.4622424
-1.3348582 1.2274041 2.4879394
2.7387934 1.2218424 2.4931264
2.7651434 1.2307396 2.4658775
-1.3676896 1.273988 2.4631362
-1.3369547 1.2730387 2.4849598
2.7476389 1.2518482 2.4903257
2.764015 1.2815198 2.4781482
-1.407832 1.3414371 2.4520624
-1.3720345 1.3262659 2.468627
-1.3407302 1.3237333 2.4898787
2.7403541 1.3174901 2.4891732
2.7606196 1.3211884 2.4659324
-1.4008496 1.3908761 2.4517961
-1.375471 1.3754588 2.4710238
-1.3477507 1.3803983 2.4907401
2.7436526 1.3890063 2.4963856
2.7613816 1.3716061 2.4743328
-1.4062157 1.4175867 2.4510779
-1.3781208 1.4291886 2.4738963
-1.3423851 1.4253664 2.4971962
2.7606766 1.4240129 2.4738727
-1.4102545 1.4720875 2.459511
-1.3724136 1.4760505 2.4854631
2.7490032 1.4715539 2.4999294
2.7677908 1.4809653 2.4735732
-1.4119546 1.5249743 2.4597552
-1.3796502 1.5225083 2.4825811
2.7701638 1.5224034 2.4694245
-1.4141936 1.5767304 2.4613426
-1.3824294 1.5770367 2.486264
2.7498012 1.5528851 2.497643
2.7726531 1.5787638 2.4747794
-1.4155114 1.6258934 2.465256
-1.3808833 1.6252378 2.4883208
2.7729793 1.6237576 2.4707208
2.8001788 1.6150274 2.4520328
-1.4231081 1.6745584 2.4629171
-1.3860023 1.6744467 2.4858265
2.7805648 1.6734365 2.4726202
-1.4258574 1.7270899 2.4656036
-1.3872638 1.7246579 2.4915614
2.7710173 1.7187673 2.4808257
2.8102043 1.7256027 2.4558895
-1.420737 1.7785106 2.4696748
-1.386477 1.7754418 2.4932175
2.7822523 1.7738146 2.4813695
2.8049006 1.7661281 2.4528251
-1.4524556 1.8364408 2.4504416
-1.4255006 1.8265536 2.467505
-1.3894043 1.8298081 2.4942887
2.7812071 1.8249159 2.4736366
2.8013108 1.8302635 2.4512682
-1.4235113 1.8710388 2.4703074
-1.3887864 1.8756144 2.495183
2.7719231 1.8729155 2.4825587
2.8032358 1.8988398 2.4536667
-1.4574548 1.9238344 2.4515617
-1.4300727 1.9209775 2.4711788
-1.3939633 1.9281756 2.4907129
2.782779 1.92715 2.473434
-1.4627789 1.9808373 2.4581406
-1.4262238 1.9705983 2.4767413
-1.3942516 1.973935 2.493634
2.779357 1.9790609 2.4742856
2.8025894 1.9665997 2.4529536
-1.4573299 2.0259972 2.461067
-1.42421 2.0300682 2.486095
2.7830265 2.026525 2.4790206
2.8100393 2.0411208 2.4584696
-1.4669033 2.0809391 2.4637394
-1.4303479 2.0852425 2.4892278
2.7824576 2.0842862 2.4892309
2.8035216 2.0782239 2.467612
-1.4693575 2.1276081 2.4614625
-1.4322599 2.1316271 2.4866896
2.790714 2.1275082 2.4811645
-1.4619505 2.1809573 2.4690583
-1.4304258 2.17431 2.4851167
2.7797337 2.1715364 2.4800758
-1.475419 2.2245483 2.456888
-1.4285853 2.2280455 2.4897566
2.7639577 2.2099862 2.4960279
-1.4646198 2.2532902 2.4859793
-1.4494416 2.2550499 2.4963169
1.8778647 2.4181008 2.4919033
1.9216703 2.4292514 2.4811931
1.9789584 2.4368668 2.4768705
2.0229015 2.4491444 2.4880948
2.3213587 2.4482555 2.4794612
2.3640521 2.4451191 2.4666414
2.1387074 2.4619138 2.4739051
2.2716022 2.4522011 2.4543369
2.4296346 2.4555316 2.4832644
2.4884205 2.4611318 2.4817781
2.5190666 2.4602697 2.4737606
0.18596113 -0.5057705 2.5180705
0.22506194 -0.50894666 2.5212772
0.27408171 -0.51715797 2.5379694
0.32872498 -0.52529413 2.5363674
0.38044524 -0.53189665 2.5389462
0.42222109 -0.52985483 2.5246665
0.47782764 -0.53662086 2.5356545
0.52014267 -0.54163194 2.5232887
0.57282853 -0.54035562 2.5353975
0.13763712 -0.47550544 2.5156343
0.16762806 -0.48114103 2.5346432
0.099556141 -0.44017002 2.5021071
0.12916735 -0.42509976 2.5211568
0.15857141 -0.42538595 2.5463715
0.099183246 -0.36042708 2.5008655
0.12696593 -0.37301645 2.5247757
0.15420623 -0.37155083 2.5475438
0.099205151 -0.3304739 2.5040793
0.13062392 -0.32167116 2.5295167
0.16231535 -0.33059809 2.5499983
0.097189695 -0.27233008 2.5081327
0.13054827 -0.27296168 2.531786
0.096651629 -0.22554827 2.5076466
0.12912424 -0.22448193 2.5308444
0.092919946 -0.19167882 2.5059595
0.13141176 -0.19116162 2.5299428
-0.062798157 0.083831802 2.5079579
-0.64227903 0.1490337 2.5462193
-0.10448965 0.14340799 2.5002904
-0.071494825 0.13716185 2.5177734
-0.045006238 0.14422469 2.5157156
-0.77381384 0.1617284 2.5253081
-0.71646637 0.16139942 2.5314131
-0.66930062 0.17284784 2.5249245
-0.6294111 0.17203316 2.5194578
-0.577016 0.16054572 2.5414975
-0.11561269 0.17585914 2.5138075
-0.075233549 0.17472325 2.5204253
-0.034618359 0.18145384 2.5068409
0.003083274 0.16969833 2.5365362
-0.25280935 0.21939676 2.5399926
-0.15342321 0.22877587 2.5133026
-0.11332108 0.22352107 2.516263
-0.075686224 0.22428206 2.5332742
-0.026945107 0.22196524 2.5078092
-0.15329251 0.27065024 2.5083935
-0.1222425 0.27087212 2.5151641
-0.075982407 0.27381316 2.5398915
-0.027374221 0.27249756 2.5119956
-1.226571 0.33282638 2.5158336
-1.1805651 0.32666636 2.5202034
-0.15860783 0.32542899 2.5243702
-0.12402872 0.32095239 2.5228918
-0.076187454 0.32334056 2.5428777
-0.026693869 0.32390261 2.5113053
-1.2273089 0.37049246 2.5189643
-1.1907816 0.37217882 2.5345094
-1.1126615 0.38950318 2.5411041
-0.15935896 0.37649125 2.5236115
-0.12531391 0.37183157 2.5227458
-0.076297201 0.37347737 2.5415778
-0.029364526 0.37555933 2.515636
-1.2344854 0.42591676 2.5113213
-1.1821903 0.41481233 2.5111122
-0.16354972 0.42807701 2.5281963
-0.12465525 0.42298484 2.525872
-0.070362307 0.41818452 2.543731
-0.033189517 0.42924973 2.5099561
-1.2503744 0.49653193 2.5001655
-1.2286093 0.47531915 2.5124762
-1.1889862 0.47847384 2.5341768
-1.121147 0.48888016 2.5255649
-0.16192611 0.4766939 2.5290675
-0.125126 0.47347742 2.5298221
-0.075377241 0.47323957 2.539861
-0.03438643 0.4776102 2.5130739
-1.2534901 0.52396786 2.5024602
-1.2253718 0.52636355 2.519207
-1.1875501 0.52100873 2.5374486
-1.1228973 0.52098358 2.5308938
-0.16220722 0.52653885 2.5271568
-0.1243594 0.52242523 2.5329378
-0.071792319 0.51673687 2.5374081
-0.032421723 0.52661395 2.512356
2.488287 0.52883989 2.5217679
2.9555671 0.53985614 2.5060318
-1.2569723 0.57138693 2.5020022
-1.2260345 0.57433397 2.5222204
-1.191209 0.57209218 2.5440717
-0.16325191 0.57272667 2.5235364
-0.12605625 0.57239425 2.5354455
-0.074100345 0.57484478 2.5384097
-0.034558352 0.57719654 2.5104249
2.5435357 0.56910634 2.5359373
2.570344 0.58178329 2.5247982
2.6411877 0.58823079 2.5378928
2.6791153 0.58936048 2.5119619
2.9286933 0.58134669 2.5067658
2.9591439 0.57529807 2.5024717
-1.3469687 0.6287235 2.5141764
-1.2545981 0.6260165 2.503511
-1.2243619 0.62705106 2.5245476
-1.1907709 0.62388599 2.5487921
-1.1295431 0.63256419 2.5455265
-0.16289875 0.62107587 2.5241492
-0.12645249 0.62354374 2.5354831
-0.066663705 0.62634921 2.5283937
-0.033583794 0.62616831 2.513664
2.6949534 0.61137474 2.538976
2.7174604 0.62541914 2.5153861
2.9379432 0.62662703 2.50577
2.9703596 0.6298362 2.5013642
-1.2584152 0.67220747 2.505918
-1.2239693 0.67700958 2.5273759
-1.1938428 0.67207682 2.5467024
-0.16731817 0.67439264 2.5260231
-0.1281285 0.67403287 2.5360315
-0.074005403 0.68136442 2.5321016
-0.034925032 0.67447346 2.5155377
2.7155473 0.66967952 2.5234206
2.9775267 0.67140657 2.5117805
-1.3353945 0.7099092 2.5068369
-1.2641366 0.7270745 2.5055923
-1.2287256 0.72629178 2.5276434
-1.1967413 0.71370029 2.5449381
-0.163719 0.71698385 2.5205727
-0.13094184 0.72043073 2.5340106
-0.071301155 0.72303343 2.5317252
-0.038937904 0.72541904 2.5260007
2.7225277 0.72521037 2.5238492
2.9568729 0.70055938 2.5063353
-1.3065877 0.76622438 2.5171614
-1.2674189 0.77324682 2.509798
-1.2214273 0.77672213 2.5346515
2.7251418 0.77885813 2.5287893
2.9428673 0.77135891 2.509145
-1.2702221 0.82487053 2.5101321
-1.2284677 0.82416975 2.5341859
2.7303712 0.82270741 2.5219748
-1.3281106 0.88356227 2.5159171
-1.2669264 0.87571251 2.5128045
-1.2271992 0.87294835 2.5387752
2.7267172 0.87015694 2.5280395
-1.3415066 0.91062194 2.5026274
-1.2679214 0.9241215 2.510155
-1.2306756 0.92257458 2.5364256
2.7263532 0.92022991 2.5217595
-1.3833464 0.97533804 2.5019774
-1.2699214 0.9735353 2.5112798
-1.2307587 0.97305375 2.5367172
2.7236755 0.97711378 2.5244336
-1.4215256 1.0104429 2.5003386
-1.2732288 1.0272487 2.5169322
-1.2341734 1.0285106 2.5394912
2.7313223 1.0277017 2.5205567
-1.27183 1.0748585 2.5149031
-1.2411506 1.0715954 2.5378649
2.7233732 1.0731558 2.528538
-1.2733133 1.1233883 2.5153773
-1.2358737 1.1221113 2.5425074
2.7249789 1.1196281 2.5229821
-1.3014965 1.1874859 2.5023751
-1.2760695 1.1758651 2.5200171
-1.244518 1.1732956 2.5413792
2.7217491 1.1786157 2.5268619
-1.310761 1.2309154 2.506856
-1.2781545 1.2274683 2.5260086
-1.2443523 1.220336 2.5470297
2.7197168 1.2248762 2.5233569
-1.3114144 1.2803631 2.5076859
-1.2757161 1.2741764 2.5309863
-1.2479861 1.2520189 2.5438325
2.7314484 1.2780229 2.5216694
-1.3144767 1.3327887 2.5123587
-1.2736741 1.3203883 2.5390491
2.7203963 1.3247404 2.5275536
-1.3190438 1.378296 2.5147636
-1.2834116 1.3709091 2.5347502
2.7265227 1.370526 2.5257072
-1.3196465 1.4200715 2.5180459
-1.2820109 1.4281892 2.5420716
2.728488 1.4256856 2.52703
-1.3503828 1.4554743 2.5019128
-1.3239959 1.4772915 2.5181808
-1.2920399 1.4760514 2.5402436
2.7297516 1.4708747 2.5247495
-1.3535817 1.5476617 2.5053077
-1.3289452 1.5226423 2.5207448
-1.2995697 1.5381912 2.5463912
2.7281122 1.5239234 2.5232484
-1.3564643 1.5655928 2.5030982
-1.3241192 1.5706102 2.5271828
-1.2922587 1.583811 2.5485339
2.7367682 1.5739855 2.5234687
-1.3578825 1.6228875 2.5047796
-1.3267248 1.6255313 2.5269687
-1.2969528 1.6117402 2.5463536
2.7373564 1.6279703 2.5341368
2.7591779 1.6314293 2.5061307
-1.3609352 1.6815361 2.5056176
-1.3222045 1.6707559 2.5298793
-1.2963178 1.6893295 2.5486107
2.7280924 1.6708015 2.530566
2.750052 1.6818746 2.5062385
-1.3619978 1.7328316 2.5127165
-1.3311751 1.7263048 2.5336804
-1.2987169 1.707438 2.5449901
2.7354293 1.716791 2.5266089
-1.3629543 1.7753443 2.5131164
-1.325442 1.7753017 2.5375822
2.7467692 1.7662275 2.533339
2.7580583 1.7784586 2.5118361
-1.3672795 1.8256358 2.5094397
-1.3321404 1.8176498 2.5331817
2.7377412 1.8257593 2.5374608
2.7533708 1.825542 2.50879
-1.3634485 1.8768172 2.5150876
-1.3315617 1.8735744 2.5360966
2.741385 1.8727847 2.5253758
-1.3696336 1.9223213 2.5106375
-1.3362772 1.9298419 2.5384037
2.7377412 1.9200826 2.5330806
2.7608271 1.9242181 2.5147021
-1.3689899 1.9716282 2.5162277
-1.34223 1.9708091 2.5368731
2.7395883 1.9835138 2.5344419
2.7635212 1.9703099 2.5079854
-1.404521 2.0041399 2.501127
-1.3730482 2.0194371 2.5199621
-1.3383207 2.0196476 2.5449846
2.7392457 2.0268204 2.5189745
2.7563019 2.0427229 2.5056462
-1.4037642 2.0731227 2.5018666
-1.374918 2.061491 2.5182805
-1.3442303 2.0709286 2.5446472
2.741025 2.0876408 2.5392015
2.7608969 2.0805857 2.5161955
-1.4060699 2.1242583 2.5066597
-1.3751215 2.1187043 2.5267463
2.7387688 2.1303298 2.5375187
2.7623405 2.1354086 2.5121629
-1.4152186 2.1865249 2.5047281
-1.3756167 2.1754444 2.5308425
2.7435367 2.1884551 2.5360754
2.7695167 2.1776111 2.5099728
-1.4067721 2.214757 2.5139723
-1.3743552 2.2216048 2.5359483
2.7382729 2.2378924 2.5396883
2.7596619 2.2313881 2.5182176
-1.3744578 2.2525537 2.529767
2.7403848 2.2769468 2.5321939
2.761251 2.2789223 2.5116436
2.7441916 2.3176408 2.5260165
2.7237351 2.3720138 2.5469317
1.7683158 2.4118075 2.5494025
1.8274412 2.4207776 2.5271473
1.8800977 2.4242599 2.5272214
1.9272556 2.4297574 2.5196881
1.9737134 2.4351428 2.5262671
2.0256467 2.4453032 2.5224848
2.0538058 2.4468119 2.5063941
2.414423 2.4497697 2.5299027
2.5021005 2.4426186 2.5482578
2.5862548 2.4491847 2.5469096
2.6119595 2.44627 2.5229669
2.6682661 2.4336741 2.5313458
2.0913782 2.4518011 2.5323153
2.3310161 2.4589763 2.513036
2.3825235 2.455142 2.5157778
2.4007955 2.4550421 2.5486941
2.4721782 2.4509797 2.5141358
2.5091162 2.450012 2.5092611
2.573643 2.4564762 2.5213602
0.24002548 -0.51103824 2.5732474
0.27204859 -0.50632739 2.5798478
0.32184792 -0.51644355 2.5732167
0.37039334 -0.52115744 2.5771811
0.42403567 -0.52751297 2.5757682
0.46834865 -0.53202754 2.5718629
0.52971685 -0.53901905 2.5813546
0.57351846 -0.53631759 2.5789301
0.6296593 -0.53971875 2.5826926
0.67198831 -0.53656346 2.5858486
0.18209235 -0.46889815 2.5551136
0.22058918 -0.47906503 2.5783658
0.25446218 -0.4836188 2.5965011
0.17843293 -0.42330384 2.5607505
0.21409412 -0.42852068 2.5858469
0.17668772 -0.37499475 2.5599384
0.21389066 -0.37829942 2.5885439
0.17670316 -0.32577822 2.564533
0.2107226 -0.33201075 2.5910366
0.17543602 -0.27682111 2.5658736
0.20892067 -0.27840155 2.5874219
0.14984328 -0.22005789 2.5543103
0.17524676 -0.22736208 2.5663192
0.20806614 -0.22968501 2.5911298
0.17201391 -0.18989147 2.5724521
0.20570458 -0.19423741 2.5894337
-0.046471305 0.099290304 2.5991826
-0.69601452 0.14992265 2.5525
0.10193858 0.14823143 2.5845573
0.16476569 0.14921091 2.5995266
-0.70918399 0.15006965 2.552659
-0.67341053 0.16298178 2.5655005
-0.63699365 0.15701449 2.5768588
0.10786125 0.16020766 2.5778852
-0.24036177 0.22706556 2.5816386
-0.19261436 0.22023489 2.5532284
-0.1777354 0.32268763 2.5676231
-1.1646622 0.37426424 2.5595458
-1.1331917 0.3747007 2.5626917
-0.18674316 0.37566057 2.5729558
-0.076523229 0.36761689 2.5501256
-1.1675147 0.42779598 2.5598671
-1.1397961 0.42725751 2.5651751
-0.1898814 0.42501506 2.5705187
-0.081568256 0.4276408 2.5527716
-1.1609794 0.47387025 2.5563116
-1.1383913 0.46610358 2.5571232
-0.189821 0.47932976 2.5756333
-0.078995563 0.47229981 2.5528326
2.5099442 0.47500449 2.5826328
-1.1630026 0.5208261 2.5542827
-1.1251724 0.53156555 2.5635116
-0.19012564 0.53005278 2.5735142
-0.085443348 0.53365344 2.5535657
2.5173216 0.51844138 2.5878193
-1.1655253 0.57811624 2.5568371
-1.1363857 0.57678008 2.5711224
-0.18967584 0.57861549 2.5728505
-0.089756444 0.57608426 2.5529137
2.5323784 0.56570697 2.5873282
2.5609493 0.59310281 2.5807252
-1.1649384 0.62425292 2.5591688
-1.1286556 0.62276983 2.5747511
-0.19195612 0.62302828 2.5725324
-0.090941891 0.6286096 2.5534108
0.015840746 0.63160086 2.5971859
2.6696141 0.62581313 2.5700774
-1.1697857 0.67354107 2.5612161
-1.1326094 0.67799717 2.5856843
-0.20013611 0.69916934 2.5976691
-0.19194169 0.66944504 2.5772734
-0.10915693 0.69902909 2.5520113
-0.092279322 0.66403741 2.5518553
2.6827683 0.67518705 2.577045
-1.2017772 0.73679495 2.5514519
-1.1728332 0.72506702 2.5650654
-1.1381977 0.72169983 2.5849183
-0.20029876 0.71246004 2.5974529
-0.18896806 0.72777134 2.5691092
-0.10992075 0.72913718 2.5651054
-0.093257628 0.73014337 2.5691283
2.6855679 0.72878051 2.5834248
2.7060468 0.72751254 2.5555885
-1.2028782 0.75087625 2.5509119
-1.1738063 0.77392411 2.5675802
-1.134704 0.77555734 2.5896254
-0.16652042 0.75432849 2.5586009
-0.14790101 0.7556082 2.5637312
2.6901608 0.78634214 2.5815649
2.7015886 0.77326107 2.5721223
-1.1779511 0.8239274 2.5658469
-1.14038 0.82765698 2.5916831
2.6800449 0.82534379 2.5851793
2.7018194 0.83274651 2.5560162
-1.2024238 0.88103217 2.5545003
-1.1755754 0.8744567 2.5709963
-1.1366059 0.87066466 2.5909574
2.6858914 0.86973625 2.5785377
2.7086916 0.86889946 2.5526433
-1.2066605 0.92493182 2.552726
-1.1754578 0.92628014 2.5751219
-1.1377435 0.92288524 2.593152
2.6871459 0.92420769 2.5800841
2.7023106 0.9321059 2.56001
-1.2006075 0.98551381 2.5583553
-1.1770424 0.97312468 2.5743074
-1.1420721 0.97283447 2.5943627
-1.0440563 0.96618158 2.5957501
2.6873949 0.97869277 2.5797064
2.7082958 0.96842253 2.5545883
-1.2112027 1.0227854 2.556361
-1.1768445 1.0241959 2.5788827
-1.1420126 1.0216621 2.5959094
2.6843746 1.0287155 2.5879943
2.7014747 1.0236701 2.5626144
-1.2165737 1.0803359 2.5565646
-1.1779481 1.0763158 2.5816634
2.6857989 1.0706376 2.5804391
2.7050853 1.0594697 2.5538635
-1.2107249 1.1244639 2.5580604
-1.1745728 1.1297283 2.5848095
2.6861064 1.1261604 2.5776293
2.7023113 1.1430103 2.5542984
-1.2194086 1.1745014 2.5619435
-1.1787581 1.1763963 2.5850496
2.6901066 1.1749297 2.5807917
2.7076464 1.1626115 2.5525844
-1.2209703 1.2250149 2.5673339
-1.1830351 1.2294408 2.591857
2.6915627 1.2217349 2.5754411
2.7051802 1.238762 2.5542939
-1.2538871 1.2720741 2.5503719
-1.2224466 1.2761563 2.5718443
-1.1832074 1.2796642 2.5943975
2.68696 1.2750642 2.5806274
2.7092314 1.279676 2.5594788
-1.2543824 1.3442818 2.562912
-1.225709 1.3273922 2.5735888
-1.1987965 1.3245699 2.5963922
2.6818492 1.3227776 2.5847247
2.7025933 1.3157183 2.554188
-1.2646496 1.3750061 2.5590181
-1.2278086 1.3771137 2.5778549
2.6918507 1.3740811 2.5790851
2.7025585 1.3860458 2.5588255
-1.2573597 1.4260603 2.5602276
-1.2258892 1.4229792 2.5831206
-1.1967981 1.4106897 2.5987306
2.685667 1.4198562 2.5874057
2.7043195 1.426937 2.5602756
-1.2668815 1.4744385 2.5582273
-1.2291498 1.472856 2.5839841
2.6975605 1.4641869 2.5901787
2.7057757 1.4792686 2.5648203
-1.2723781 1.5225568 2.5625923
-1.2295909 1.5275631 2.5894704
2.6983876 1.5143158 2.5856071
2.7058651 1.5377775 2.5768528
-1.2693827 1.5785623 2.5656974
-1.2331771 1.5711249 2.5872848
2.6940889 1.5902588 2.5991669
2.7103004 1.5749785 2.5698557
-1.2719296 1.6249269 2.5638118
-1.2364 1.6195474 2.5856822
2.6920846 1.628849 2.5894043
2.7174523 1.6224377 2.5638087
-1.2719449 1.6731637 2.5677953
-1.2351304 1.6835806 2.5914326
2.6937928 1.6826549 2.5889616
2.7054555 1.669583 2.5719626
-1.3059199 1.731974 2.5505936
-1.2726591 1.7270954 2.5709844
-1.2394031 1.7271286 2.5929513
2.6937027 1.7397779 2.5971496
2.7100587 1.7236462 2.5681775
-1.3031236 1.7940384 2.5548337
-1.2767942 1.775463 2.5720634
-1.2433594 1.7726579 2.5953684
2.7177842 1.7710968 2.5717595
-1.3079669 1.8236187 2.5505786
-1.2752156 1.8313743 2.5777047
-1.2492151 1.8039385 2.5944157
2.695863 1.8268986 2.5910537
2.7185555 1.8211914 2.5684361
-1.3074037 1.865311 2.5566235
-1.2724138 1.8767412 2.5821786
2.6986015 1.897113 2.5947812
2.7147164 1.8797498 2.5658488
-1.3095642 1.9291945 2.5598335
-1.2793643 1.9236056 2.5808485
2.7185123 1.9268116 2.5718904
-1.3187166 1.9809968 2.5578032
-1.2799753 1.9711357 2.582433
2.6987042 1.9758904 2.5893312
2.7201912 1.9703223 2.5674536
-1.3145149 2.0300229 2.5659516
-1.2830148 2.0263951 2.5915911
2.7200685 2.022368 2.5704191
-1.3174113 2.078666 2.5685606
-1.2807949 2.0764415 2.5917556
2.7211981 2.0735114 2.5685754
-1.3241373 2.1298432 2.5689189
-1.2875811 2.128727 2.5919063
2.7117102 2.1204269 2.5822031
-1.3261627 2.1742609 2.56741
-1.2869673 2.1779816 2.5935595
2.719455 2.1711049 2.574403
-1.3248264 2.2269094 2.5700688
-1.2795062 2.2412691 2.5927808
2.7164896 2.2158995 2.5717146
-1.3227993 2.2617836 2.566843
-1.286088 2.2692411 2.5935702
2.7192316 2.2725806 2.5827739
2.721411 2.3213503 2.5763695
2.6922784 2.3881707 2.5766068
2.714962 2.3626258 2.5690708
1.7311747 2.4086809 2.5666099
1.7805239 2.4225338 2.5717108
1.8163905 2.4235311 2.5789061
1.8579586 2.4317317 2.5660496
1.918759 2.4349241 2.5748594
1.9710267 2.4464278 2.5809646
2.0022273 2.4315526 2.5586753
2.0670135 2.4459696 2.5608335
2.5914631 2.4438491 2.5819149
2.6295638 2.4335895 2.5596256
2.6747661 2.4191861 2.5735204
1.9995071 2.4502428 2.5900667
2.0366647 2.4513712 2.5677204
2.0775611 2.4585199 2.5739918
2.1312039 2.4595165 2.5765188
2.290787 2.4569359 2.5831497
2.387712 2.4609606 2.568202
2.4371266 2.4633653 2.5841975
2.479238 2.4577198 2.567852
2.5347509 2.4554822 2.5716398
2.561131 2.4527328 2.5715671
2.6562686 2.4591198 2.5624886
0.32655084 -0.50703806 2.6126285
0.38025355 -0.5143646 2.6291306
0.42155781 -0.51683074 2.6256602
0.46670577 -0.52522683 2.6251402
0.51933402 -0.53091031 2.6251628
0.56806093 -0.53366917 2.6280046
0.61799204 -0.53411949 2.6362891
0.66870296 -0.52963823 2.6183991
0.72522432 -0.5271886 2.6186984
0.24204922 -0.45878124 2.6018925
0.27847847 -0.47339204 2.6197047
0.31979281 -0.48589373 2.6394885
0.23955147 -0.41732797 2.6066861
0.27636772 -0.42542234 2.6308661
0.24183036 -0.37045115 2.6086509
0.27325681 -0.3741166 2.6325397
0.23521326 -0.31977496 2.6095285
0.27324608 -0.32428259 2.6367087
0.23154444 -0.27143672 2.6109779
0.27117014 -0.27076888 2.6367946
0.23567556 -0.22170885 2.6111772
0.26710317 -0.22252804 2.6304827
0.2280118 -0.19042456 2.607245
0.26861167 -0.18949066 2.635525
-0.047035195 0.081615642 2.6311538
0.09057761 0.14986683 2.6133771
0.090237901 0.16174434 2.6030867
-0.23758279 0.2408538 2.6425109
-0.19421372 0.3196381 2.6096306
0.13364504 0.311465 2.6318729
0.15476924 0.31578633 2.6319835
-0.19703725 0.35043764 2.6027439
0.14333811 0.38850817 2.6485105
0.160152 0.39022353 2.6448987
2.4490654 0.38959637 2.6341739
2.4634724 0.38933623 2.619225
0.14349204 0.42719525 2.6474502
0.16061899 0.42166391 2.6294887
2.479496 0.42872769 2.6268094
0.14363956 0.45953247 2.6466737
2.4920449 0.47123438 2.6260839
2.5030291 0.49105182 2.6161087
-0.21486095 0.53255129 2.6487875
2.4933681 0.53007412 2.6380308
2.507118 0.52458572 2.6147864
-0.21483025 0.57095218 2.6430464
0.041742895 0.59013075 2.6454959
2.4904699 0.56726778 2.6359773
2.5241241 0.57764179 2.6234
2.5542102 0.59725416 2.6202888
-0.21413985 0.62029839 2.6268294
0.022454206 0.61423957 2.6350973
2.6336055 0.63417566 2.6261995
-0.21426316 0.67181414 2.6199014
0.016103141 0.66775197 2.6360102
2.6357532 0.67108798 2.6322911
2.6525936 0.68445283 2.6089215
-1.1331701 0.74447739 2.6049337
-0.21155632 0.72635609 2.6082606
2.642894 0.73171377 2.6420927
2.6604533 0.73404837 2.6183908
-1.1185735 0.75728548 2.6038523
-0.20457876 0.76666725 2.6455379
2.6412776 0.7753582 2.6404414
2.6649835 0.77949244 2.6115849
-1.1304425 0.83031416 2.604388
2.6444492 0.81037366 2.6345975
2.6567969 0.82305896 2.6193919
-1.1153861 0.87698752 2.6067166
2.6368585 0.87311667 2.6422136
2.6594412 0.87217098 2.6166103
-1.1131119 0.92512208 2.6082048
-1.0890442 0.93059301 2.6173041
2.6479301 0.92832458 2.6378303
2.6656744 0.92471522 2.6187975
-1.1139158 0.98001963 2.6103952
-1.0812184 0.97467375 2.6270931
2.6401415 0.97469854 2.6487122
2.660774 0.97737634 2.6159339
-1.1179268 1.0248854 2.6130228
-1.0766304 1.0277598 2.6341121
-1.0418355 1.0180175 2.6383457
2.6420813 1.0185324 2.6363506
2.6618323 1.0178834 2.6155691
-1.1507373 1.0781446 2.6010151
-1.1240282 1.0722636 2.6148038
-1.0807967 1.0722804 2.6379492
2.6452672 1.0543103 2.6276274
2.6632423 1.0781654 2.6185627
-1.1542087 1.1023228 2.6022651
-1.1241806 1.1216769 2.6154914
-1.0849189 1.123966 2.6404152
2.6621759 1.1260351 2.6266379
-1.1511623 1.1973809 2.6035471
-1.1273603 1.1697198 2.6186421
-1.0909396 1.1725889 2.6412561
2.6408644 1.1799921 2.6463194
2.6591806 1.1720865 2.6208768
-1.1571208 1.2319123 2.6068974
-1.1235044 1.2212819 2.6256192
-1.0906266 1.222538 2.6453259
2.6486433 1.227285 2.6366267
2.6666818 1.2208732 2.6101348
-1.1595039 1.2804472 2.6122859
-1.1251197 1.270287 2.6309566
-1.0990106 1.2820513 2.6476688
2.6450248 1.2865888 2.6439712
2.6614265 1.2730541 2.6147418
-1.1699469 1.3235683 2.6124709
-1.1291413 1.3215692 2.6364818
2.6483548 1.3058515 2.6397538
2.6633053 1.3292669 2.6255991
-1.1724958 1.3714933 2.6157687
-1.1302974 1.3786361 2.640507
2.6657119 1.3765352 2.6221526
-1.203916 1.4409088 2.6047418
-1.1706916 1.4263623 2.6191363
-1.132331 1.4236546 2.6408951
2.6627235 1.4241338 2.6226094
-1.2085385 1.4757011 2.6016741
-1.1761488 1.4770261 2.6195376
-1.1336002 1.469727 2.6404192
2.6719179 1.478598 2.6269729
-1.2027621 1.530737 2.6060421
-1.1735665 1.5234001 2.6260815
-1.1471121 1.5128698 2.6445389
2.6742744 1.5221699 2.6213036
-1.2100002 1.5695907 2.607518
-1.1763 1.5740315 2.6284468
-1.1457511 1.5979576 2.6495638
2.6723759 1.5715287 2.6252007
-1.2124822 1.6282822 2.6042478
-1.178627 1.6248314 2.6292775
-1.1481695 1.6162997 2.6478813
2.6731105 1.626141 2.6235585
-1.2171588 1.6719695 2.6079028
-1.1781275 1.6749685 2.6325958
2.6778815 1.6758293 2.6269956
-1.2146859 1.7263021 2.6128042
-1.1769224 1.7220592 2.6294799
-1.1468059 1.711432 2.6465015
2.6750176 1.7262176 2.6263664
-1.2171659 1.778843 2.6163766
-1.1813506 1.7785728 2.6418686
2.6848903 1.7795579 2.6233625
-1.2253294 1.8244258 2.6080489
-1.1851029 1.8273523 2.6380696
2.6767087 1.8233871 2.6279969
-1.2228471 1.873812 2.6173801
-1.181741 1.8683583 2.641598
2.6755364 1.8746454 2.6223392
-1.2571843 1.9158301 2.6026571
-1.2214983 1.9275365 2.6241493
-1.1847358 1.9246258 2.6452038
2.6816397 1.9328467 2.6119912
-1.2521377 1.9792024 2.601124
-1.2276107 1.9741335 2.6229134
-1.1960287 1.9824145 2.6458461
2.6811547 1.9741946 2.6283388
-1.2599468 2.0152786 2.6017339
-1.2282567 2.0264978 2.6260605
2.6842279 2.0267429 2.6289651
2.7104614 2.045691 2.6054184
-1.259269 2.0877781 2.6074619
-1.2261952 2.0699399 2.6291134
2.6855333 2.083055 2.6230862
-1.2590252 2.1248677 2.6101327
-1.2238972 2.1165411 2.6321754
2.6888652 2.1323333 2.6272278
-1.2606939 2.1657858 2.6164877
-1.23184 2.1720648 2.6374691
2.6838541 2.1820261 2.6318092
2.7009406 2.1630688 2.6039186
-1.2687305 2.2197974 2.6124594
-1.228157 2.2230859 2.6380041
2.6895838 2.233212 2.6294999
2.7062078 2.2310319 2.611882
-1.2641323 2.2740943 2.6097517
-1.2305723 2.2647548 2.6283908
2.6848924 2.2783439 2.6300533
2.6765611 2.3314579 2.6256452
2.6745043 2.3787956 2.622617
1.571858 2.4049132 2.6491015
1.622959 2.416225 2.638382
1.6790549 2.4219902 2.6320164
1.7273674 2.4313385 2.6225984
1.7729324 2.4265857 2.6231139
1.8212271 2.4240389 2.6180532
1.874639 2.4334886 2.6141629
1.9183502 2.4391849 2.6241424
1.967842 2.4422474 2.6300755
2.0296721 2.44837 2.6329012
2.0724998 2.4466252 2.6240487
2.1046278 2.4427299 2.6186275
2.2443433 2.4487062 2.6476278
2.5362592 2.4465184 2.6271648
2.5676236 2.4389997 2.6151061
2.6234438 2.4381855 2.6306083
2.6610107 2.423136 2.6246586
2.0365734 2.4549179 2.6169519
2.0529838 2.4526846 2.6026361
2.1312046 2.4521303 2.6163788
2.1792517 2.4561484 2.6282132
2.2180197 2.4592116 2.6373751
2.3587146 2.4701223 2.6045282
2.4453585 2.4620886 2.6237617
2.4774134 2.455658 2.6133637
2.5167229 2.4563429 2.6103246
2.6101537 2.4510486 2.6309257
2.6512396 2.4529109 2.6041236
0.3710925 -0.50318378 2.6575074
0.42612734 -0.50726414 2.6739254
0.47790039 -0.51350391 2.6659837
0.52886641 -0.5179652 2.6783071
0.57770658 -0.52204674 2.6626427
0.61992592 -0.52468091 2.6701801
0.66989398 -0.52780253 2.678571
0.72013974 -0.52506495 2.6732862
0.76894963 -0.51912653 2.687043
0.3319039 -0.46384153 2.6619661
0.3713153 -0.47659203 2.6829944
0.4224942 -0.49765062 2.694603
0.32545778 -0.42512637 2.6663897
0.36330339 -0.42497051 2.6899536
0.29728776 -0.37707704 2.6518455
0.323953 -0.37791184 2.6684518
0.35856721 -0.36819065 2.6928346
0.29692587 -0.31917036 2.6535082
0.32510084 -0.32819191 2.6724856
0.35713547 -0.32129258 2.6942058
0.29660019 -0.28054884 2.6534102
0.32451844 -0.276191 2.6714716
0.35920125 -0.27983922 2.6950533
0.29402083 -0.21929567 2.6570175
0.32475886 -0.2249615 2.6765258
0.35554323 -0.22528557 2.6934323
0.29707581 -0.19157735 2.6628101
0.32409525 -0.19243507 2.6727934
0.3534683 -0.19448541 2.6991785
-0.022260845 0.08309602 2.6775558
-0.025365291 0.10505567 2.667285
0.011837435 0.10716563 2.6936471
-0.21442461 0.24329336 2.6706979
-0.26561746 0.28813371 2.6647832
-0.21683812 0.27994996 2.6716383
0.10616165 0.29585424 2.6838422
-0.26441109 0.32561439 2.6758158
-0.22669807 0.32717854 2.6817489
0.12408952 0.33700493 2.6711257
-0.2616387 0.3771992 2.6735771
-0.22938564 0.37491146 2.6858835
0.127928 0.37575325 2.6614606
2.441236 0.39221439 2.6714542
-0.26522848 0.42223376 2.6785028
-0.22980551 0.42089963 2.6862047
0.12560891 0.42509612 2.6757183
0.16974592 0.44830105 2.6562059
2.4473336 0.42729577 2.6890914
2.4613004 0.42210647 2.6664548
-0.26773673 0.47261664 2.6810381
-0.23036297 0.47382474 2.6868782
0.12076824 0.47166449 2.6750116
0.16472466 0.47146022 2.6764908
2.4467981 0.45999894 2.6838458
2.4646349 0.47837159 2.665792
-0.27009144 0.52735358 2.6861117
-0.2334826 0.52433813 2.6865661
-0.0097045572 0.5466336 2.6914568
0.026722157 0.54362971 2.6897244
0.074433878 0.52594215 2.6952183
0.11398353 0.50788558 2.696511
2.4684138 0.52512288 2.6702046
-0.27068228 0.57678044 2.685473
-0.2385245 0.57529682 2.6931403
-0.009620063 0.56763637 2.6643889
0.021442384 0.57468301 2.6723506
0.058099754 0.57654166 2.6931024
2.469233 0.56989098 2.6750321
-0.27004978 0.62402338 2.6853981
-0.23886657 0.62193912 2.6901886
0.029147014 0.62252206 2.6588893
2.541579 0.6020574 2.6695631
2.5840652 0.63201475 2.6884115
2.608978 0.63127327 2.6612866
-0.27191249 0.67510724 2.6827819
-0.23928864 0.67549276 2.6864266
0.029091323 0.65826726 2.6516118
2.6137307 0.68267041 2.6754491
-0.27493319 0.72299331 2.6883707
-0.23880067 0.72128946 2.6882527
2.6206205 0.72687793 2.6687634
2.6147141 0.77387035 2.6783793
2.6210732 0.82221431 2.6726992
2.6241183 0.87739176 2.6775455
2.6211264 0.92803299 2.6719055
2.6177878 0.97140914 2.679472
-1.0567111 1.0466173 2.6502461
-1.0236681 1.0380299 2.6681201
-0.99234164 1.031278 2.6903768
-0.88205403 1.017289 2.6784041
2.620491 1.0248637 2.6745665
-1.0577356 1.0896901 2.6547816
-1.0279145 1.073999 2.675076
-0.99810821 1.0725373 2.6959343
-0.87456596 1.0665269 2.6895618
2.6292865 1.0791528 2.6703115
-1.0600024 1.1273298 2.6568334
-1.0213907 1.1265353 2.6818979
-0.86121541 1.1300462 2.6760149
2.6221721 1.127017 2.6800058
-1.0650249 1.1751422 2.6556711
-1.028514 1.1760739 2.6834579
2.6241052 1.171286 2.675827
-1.0682327 1.2292054 2.6634836
-1.028566 1.2198708 2.6851954
2.6249135 1.2263304 2.6757426
-1.0757911 1.2765166 2.6651618
-1.0404259 1.2748927 2.6875126
