ply
format ascii 1.0
comment PCL generated
element vertex 1487
property float x
property float y
property float z
element camera 0
property float view_px
property float view_py
property float view_pz
property float x_axisx
property float x_axisy
property float x_axisz
property float y_axisx
property float y_axisy
property float y_axisz
property float z_axisx
property float z_axisy
property float z_axisz
property float focal
property float scalex
property float scaley
property float centerx
property float centery
property int viewportx
property int viewporty
property float k1
property float k2
end_header
1.1185782 -0.46492845 1.5259432
1.1667804 -0.46515453 1.5252994
1.2193143 -0.46660164 1.5156798
1.2738265 -0.46917924 1.5303395
1.3292499 -0.47067347 1.5254456
1.3652147 -0.46777245 1.5178806
1.4162205 -0.4738076 1.5111829
1.4736161 -0.47515941 1.5291867
-0.56024963 0.18242323 1.5177643
-0.34625238 0.25463033 1.5300623
-0.25030041 -0.46510583 1.5961432
-0.22040579 -0.46881452 1.5805073
-0.17499237 -0.46814987 1.5755936
-0.12593041 -0.46877572 1.5762143
-0.075888529 -0.46751937 1.5717793
-0.024030447 -0.46729854 1.5756997
0.026860446 -0.46640956 1.5724626
0.079453819 -0.46529296 1.5782623
0.12366489 -0.46528986 1.5698638
0.17531519 -0.46597192 1.5634843
0.21819758 -0.46521685 1.5641918
0.27764642 -0.46716735 1.5819447
0.32384652 -0.46701881 1.5794191
0.3727347 -0.46693191 1.5741357
0.4261609 -0.46489868 1.5726281
0.47415859 -0.46331161 1.5725831
0.52657157 -0.46583563 1.5721797
0.57426542 -0.46408156 1.5814648
0.62275428 -0.4634999 1.5773522
0.67270434 -0.46358839 1.5831034
0.72112626 -0.4651348 1.578342
0.77352625 -0.46302593 1.571988
0.82680285 -0.46409187 1.5750966
0.87715447 -0.46255288 1.5648549
0.92332292 -0.46418345 1.5715827
0.98306322 -0.46493816 1.573544
1.0237203 -0.4656567 1.5656786
1.0783565 -0.46523714 1.5665187
1.1238514 -0.46468821 1.5732116
1.1806005 -0.465431 1.5817137
1.2247938 -0.46668461 1.574246
1.2674102 -0.46693271 1.5707386
1.3352054 -0.47220245 1.5748774
1.3751793 -0.47387818 1.5846194
1.4346124 -0.47786102 1.5759169
1.4725409 -0.4761855 1.565907
-0.36333355 0.24878053 1.5894284
-0.35669771 0.25186825 1.5595818
-0.34340641 0.25334078 1.5710071
-0.2528778 -0.46193135 1.614132
-0.22686514 -0.46725404 1.6220737
-0.18037634 -0.46903127 1.6308957
-0.12429219 -0.46824417 1.6276401
-0.074664779 -0.46858138 1.6270235
-0.027694326 -0.46635583 1.6267532
0.024959108 -0.46765164 1.6244161
0.068022199 -0.46683088 1.6326424
0.12544888 -0.46659032 1.6271373
0.17535996 -0.46604845 1.6196802
0.22613733 -0.46820858 1.6241766
0.27117285 -0.46632501 1.6303781
0.32452884 -0.46480086 1.6200533
0.3756839 -0.46428159 1.6227505
0.42473996 -0.46299514 1.6157171
0.47159931 -0.46397185 1.6241232
0.52578199 -0.46286365 1.6165146
0.57739198 -0.46270043 1.6274151
0.62600553 -0.46335533 1.6275356
0.67891043 -0.46318647 1.6309444
0.72242057 -0.4606708 1.62269
0.77509779 -0.4647477 1.6215813
0.82363272 -0.46516985 1.6214612
0.87520784 -0.46383643 1.6155661
0.91708851 -0.46156502 1.6277666
0.97531915 -0.46504605 1.624802
1.0270469 -0.46350604 1.6180427
1.0743608 -0.46502686 1.6263407
1.1219988 -0.46581012 1.6173961
1.1734935 -0.46646497 1.6251494
1.224103 -0.46709839 1.624383
1.2723653 -0.46891373 1.628903
1.318377 -0.47102195 1.6227947
1.3656113 -0.46851689 1.6317682
1.4229822 -0.47536713 1.6141993
1.4869568 -0.48242342 1.6202018
1.5139623 -0.47450477 1.6140082
-0.35128346 0.25127828 1.6077484
-0.33884493 0.25373888 1.6257604
-0.26526979 -0.46295914 1.6784228
-0.22320037 -0.46874255 1.6845281
-0.17100126 -0.46982002 1.6696346
-0.12264434 -0.46813643 1.6733392
-0.07592123 -0.46907964 1.6767999
-0.023640683 -0.46695432 1.670936
0.020241456 -0.46757573 1.677802
0.076024391 -0.46817702 1.6787694
0.12264277 -0.46503225 1.6694136
0.17616354 -0.46714804 1.6804144
0.2280167 -0.46827841 1.6824722
0.27662221 -0.46463719 1.6770273
0.32583845 -0.46748379 1.6733196
0.37254617 -0.46562847 1.6791018
0.41830388 -0.46526301 1.6780671
0.47806177 -0.46588308 1.6751449
0.51985276 -0.46465939 1.6675215
0.57379395 -0.46300092 1.6739104
0.62380958 -0.4633975 1.6786493
0.6692555 -0.46321273 1.67544
0.73018664 -0.46345225 1.6706052
0.77670813 -0.46651492 1.6761247
0.82475013 -0.46408758 1.6797329
0.87600982 -0.46603298 1.6769955
0.92840654 -0.46280456 1.6816736
0.97295654 -0.46243459 1.6690085
1.0288186 -0.46504197 1.661539
1.0721991 -0.46483263 1.6847241
1.1305602 -0.46527025 1.6728244
1.1816698 -0.46674514 1.6748855
1.2199974 -0.46752849 1.66677
1.2717353 -0.46992773 1.67932
1.3166718 -0.47028145 1.6743027
1.3730619 -0.47619748 1.6688823
1.4406515 -0.47316018 1.6826286
1.4657912 -0.47698739 1.6659485
1.5313312 -0.47449255 1.6640385
1.5641856 -0.47819272 1.6603342
-0.387945 0.24903272 1.6987867
-0.37615046 0.25314337 1.6711074
-0.34236044 0.25128204 1.6633489
-0.26260644 -0.46658811 1.7249037
-0.22813796 -0.46920332 1.7284292
-0.17720141 -0.46826011 1.7203389
-0.12825999 -0.47002858 1.7313023
-0.075257264 -0.46993533 1.7276287
-0.025598293 -0.46733314 1.7211504
0.02739046 -0.46688971 1.7309256
0.073617376 -0.466649 1.7209295
0.12571865 -0.46803114 1.7255464
0.17561172 -0.4668932 1.7223803
0.22409315 -0.46704209 1.7218804
0.27610511 -0.46795338 1.7284962
0.32514584 -0.46576673 1.7272615
0.37338933 -0.46507436 1.7237874
0.4285655 -0.46390086 1.7193344
0.47671077 -0.46409619 1.7313057
0.52599186 -0.46516448 1.7289013
0.56917578 -0.46561357 1.7306632
0.62169605 -0.46481165 1.7305727
0.68225896 -0.46498555 1.726055
0.72447795 -0.46475661 1.7264071
0.77320975 -0.46417862 1.7306676
0.81620383 -0.46249589 1.7295038
0.87608898 -0.46409792 1.7324983
0.92021447 -0.46021819 1.7232366
0.97730654 -0.46399909 1.724321
1.0299555 -0.46469238 1.7174743
1.0550613 -0.46231908 1.727736
1.1171849 -0.46702552 1.7301916
1.1804354 -0.46983746 1.726331
1.2229936 -0.47056741 1.7321806
1.2714887 -0.46758816 1.7245086
1.3267753 -0.46927151 1.7181308
1.3711996 -0.47028872 1.7143196
1.4289775 -0.47492489 1.741658
-0.40734342 0.24747753 1.7458836
-0.39757738 0.24987192 1.7032169
-0.35997915 0.25271612 1.7288429
-0.34071159 0.25576028 1.7331867
-0.26040217 -0.46826875 1.7830583
-0.22555028 -0.46902004 1.7793745
-0.17012613 -0.47033119 1.7749037
-0.12135377 -0.46813494 1.7700187
-0.079945244 -0.46764901 1.7845821
-0.027536452 -0.46797106 1.7731931
0.023820894 -0.46671948 1.7721834
0.073615231 -0.46672663 1.7664162
0.12793513 -0.46579751 1.7744484
0.17641309 -0.46694192 1.7804271
0.22369178 -0.4645687 1.7721232
0.27664456 -0.4665263 1.777644
0.32514903 -0.46578586 1.7707057
0.37509659 -0.46495605 1.7740828
0.42692584 -0.46266398 1.7733686
0.46944344 -0.46262595 1.777162
0.52809799 -0.4642733 1.7873164
0.57167834 -0.46224603 1.7706714
0.62626815 -0.46739954 1.7725534
0.67255026 -0.46481147 1.7762157
0.72042227 -0.46345291 1.7704458
0.78756428 -0.46496174 1.7774072
0.83469105 -0.46224278 1.7708788
0.86935562 -0.46115711 1.7685322
0.91709691 -0.4653514 1.7884963
0.97598618 -0.46412584 1.7775652
1.0238179 -0.4644919 1.7713321
1.0846815 -0.47044915 1.777355
1.1237851 -0.46684933 1.7730581
1.1777922 -0.46751577 1.7739418
1.2283654 -0.46591607 1.7767664
1.2616118 -0.46876934 1.7917882
1.3243933 -0.46908033 1.7759365
1.4844208 -0.47233468 1.7510563
-0.35964882 0.24989839 1.7705371
-0.35264838 0.25104678 1.7798367
-0.33317888 0.25416613 1.7797226
-0.27072683 -0.4695439 1.8353621
-0.22099812 -0.46770349 1.8248386
-0.17572293 -0.47058612 1.8299313
-0.12677331 -0.46787533 1.8233044
-0.067512691 -0.46666232 1.8216469
-0.026871711 -0.46625838 1.8208839
0.025954364 -0.46787998 1.8237201
0.078587189 -0.46685129 1.8156661
0.123335 -0.46722305 1.8305964
0.17459896 -0.46638817 1.8245746
0.21936902 -0.4623042 1.8279868
0.26915905 -0.46256465 1.813895
0.32611766 -0.46328062 1.818073
0.37720165 -0.46506917 1.8278593
0.42341149 -0.46217191 1.8218623
0.47752309 -0.46306071 1.8121234
0.52214241 -0.46498695 1.8246267
0.56505078 -0.46239883 1.8150718
0.62933981 -0.46647328 1.8189847
0.66939765 -0.46259871 1.8286395
0.72480738 -0.4689354 1.8342454
0.77330554 -0.46513936 1.8251173
0.82897699 -0.46617994 1.8253744
0.86632723 -0.46591988 1.8282493
0.92223805 -0.46541214 1.8257952
0.97821522 -0.46579435 1.8249871
1.0190161 -0.46892121 1.8232886
1.0757223 -0.46727851 1.8192071
1.1208167 -0.47144437 1.8283679
1.2314274 -0.4687286 1.8264875
1.2958794 -0.47173461 1.8071704
1.3327036 -0.46901113 1.8297105
-0.37981498 0.25325388 1.8252727
-0.32108659 0.25698224 1.8268967
-0.27637345 -0.46697673 1.8751978
-0.22716495 -0.46822047 1.8781469
-0.17568401 -0.46515912 1.8639977
-0.11657057 -0.46900448 1.8753027
-0.075937681 -0.46931055 1.8779322
-0.026069093 -0.46625414 1.8831708
0.023609472 -0.46817887 1.8743269
0.072947212 -0.46798688 1.87115
0.12576865 -0.46587577 1.8750042
0.17361367 -0.46419215 1.8767782
0.23342092 -0.46207425 1.8917449
0.26842237 -0.46332225 1.8742288
0.32965463 -0.46327338 1.8772066
0.3773419 -0.46337017 1.8758222
0.42297149 -0.46214297 1.8698455
0.47384459 -0.46475822 1.8784224
0.52656972 -0.46786895 1.8760773
0.57503319 -0.46740046 1.8782612
0.61411041 -0.46857661 1.869146
0.69093013 -0.46518952 1.8699265
0.73126578 -0.46711376 1.8750691
0.76788658 -0.46422425 1.8741307
0.82501853 -0.46351361 1.8687862
0.87509286 -0.46780956 1.872153
0.92381829 -0.46653247 1.8732233
0.96958715 -0.46749219 1.8656206
1.0277109 -0.46753377 1.8625247
1.0744035 -0.47496673 1.8794725
1.1269773 -0.46846914 1.8763605
1.1747986 -0.47263134 1.8754022
1.2025006 -0.4754681 1.8766278
1.294404 -0.46884447 1.8804579
-0.39348081 0.24859944 1.8921959
-0.36534142 0.25423425 1.8682338
-0.31467298 0.25591111 1.8697376
-0.27562207 -0.46614605 1.9228204
-0.22436571 -0.46601632 1.9223405
-0.17978106 -0.4694066 1.9326138
-0.12624925 -0.46980757 1.9170756
-0.072012186 -0.46467596 1.9110359
-0.016414253 -0.46615493 1.9313895
0.021975782 -0.46361017 1.9235153
0.077335186 -0.46647859 1.9250814
0.1267612 -0.46576092 1.9288349
0.16510352 -0.46390471 1.9201918
0.22992894 -0.46809855 1.9250305
0.27795246 -0.46703377 1.9338408
0.32669359 -0.46854389 1.929896
0.37149468 -0.46375024 1.9248652
0.4241589 -0.46440217 1.920311
0.476616 -0.46451122 1.9210358
0.52745324 -0.46890783 1.9295257
0.57745826 -0.46715921 1.9224007
0.63216954 -0.46832982 1.9168786
0.67141503 -0.4689073 1.9228659
0.72045374 -0.46605691 1.9181494
0.77441573 -0.46199077 1.9234947
0.81840628 -0.46562007 1.9274608
0.86878902 -0.46779922 1.9219888
0.91707021 -0.47212362 1.9263195
0.98590046 -0.47092929 1.9467732
1.0741453 -0.47137314 1.9141855
1.1038951 -0.47315869 1.9105259
1.2110065 -0.47249618 1.9135351
1.2519437 -0.47604787 1.9121242
-0.42479557 0.24689628 1.949609
-0.36689341 0.2492944 1.9012004
-0.42180461 0.25177252 1.9129946
-0.37919593 0.25133136 1.9155186
-0.3168236 0.25353479 1.9402176
-0.27727285 -0.46608832 1.9736477
-0.23137936 -0.47002998 1.976604
-0.17017032 -0.46974573 1.9688981
-0.12967919 -0.46695724 1.9676692
-0.094644479 -0.46608111 1.9992223
-0.026262255 -0.45903909 1.970359
0.045239203 -0.46625823 1.9587936
0.073648244 -0.46351629 1.9699506
0.11491539 -0.46436048 1.9699425
0.18551683 -0.46572527 1.9792562
0.21927613 -0.46730438 1.9766381
0.27902073 -0.46570852 1.9861567
0.32622781 -0.46612138 1.9723669
0.37908038 -0.46942252 1.991201
0.42932969 -0.46726385 1.9812547
0.47740307 -0.46704364 1.9754406
0.53072023 -0.46664676 1.9780008
0.576442 -0.46832299 1.9654509
0.62073267 -0.46967769 1.9736891
0.67724729 -0.470799 1.9891158
0.72255242 -0.4698658 1.9737453
0.76792359 -0.47315601 1.9769787
0.82646859 -0.46946687 1.9725094
0.86983407 -0.46917361 1.9778105
0.90724522 -0.46239546 1.9844115
1.2752774 -0.4693203 1.9851482
1.3180816 -0.4709298 1.9724709
-1.0324 -0.10792744 1.9809016
-1.0501853 -0.092674427 1.9799765
-1.0335076 -0.082418486 1.9889783
-0.43730533 0.2486124 1.9617461
-0.32288241 0.24883036 1.9782645
-0.28680551 0.26038086 1.9965534
-0.30617219 -0.46795762 2.0378256
-0.25912696 -0.47381222 2.0229194
-0.21995817 -0.46873647 2.0231376
-0.17726274 -0.4688195 2.0145895
-0.10467408 -0.46750227 2.0049977
-0.065953955 -0.47160962 2.012862
-0.040109787 -0.46865234 2.0261295
0.021983575 -0.46686929 2.0259883
0.091935731 -0.46685871 2.046833
0.11553225 -0.47137699 2.0212286
0.17365317 -0.46758494 2.031636
0.22456117 -0.46550655 2.0266218
0.2684159 -0.467314 2.0310121
0.32767767 -0.46912989 2.0295074
0.36944184 -0.4659957 2.0221124
0.41986051 -0.46413654 2.0203669
0.47274756 -0.46683347 2.0113733
0.5329054 -0.46519721 2.0171161
0.57988465 -0.4692359 2.014982
0.62352264 -0.46997991 2.0273626
0.67204916 -0.46835288 2.0133953
0.72558391 -0.46751589 2.0205169
0.76779813 -0.4691503 2.0073011
0.83768052 -0.46374568 2.0126219
0.88810742 -0.47134078 2.0344908
-1.073148 -0.1052476 2.0228996
-1.0185276 -0.10920892 2.013973
-1.0684915 -0.078502879 2.0149639
-1.0260247 -0.085220046 2.0295818
-0.41443804 -0.058809191 2.0284247
-0.37440524 -0.061377406 2.0251119
-0.32467201 -0.065083377 2.0297077
-0.27729791 -0.064543054 2.0379348
-0.46867943 -0.028024683 2.0253108
-0.42855483 -0.029320827 2.0237603
-0.378243 -0.02922138 2.0231113
-0.32725388 -0.030729631 2.0295546
-0.27851132 -0.037100714 2.0373843
-0.46775651 0.0056983503 2.0309098
-0.4315412 0.0017064488 2.0300338
-0.38593769 4.9170929e-05 2.0377209
-0.18419918 0.19066468 2.0484898
-0.20783453 0.22776181 2.0405939
-0.17996807 0.22533734 2.0352681
-0.35968032 0.25455356 2.0204382
-0.27393809 0.26547301 2.0278437
-0.20483123 0.27107441 2.0345554
-0.1751453 0.27502671 2.0317438
-0.17010835 0.32074898 2.0344493
-0.13909581 0.32851043 2.0408962
-0.15844412 0.3611725 2.0319414
-0.13201886 0.37520477 2.0378585
-0.12165873 0.41579154 2.0447345
-0.096576266 0.41625705 2.0480182
-0.30803466 -0.46840572 2.0861578
-0.27542371 -0.46999425 2.0728967
-0.23752566 -0.46998662 2.0760646
-0.1809137 -0.46984065 2.0675306
-0.12378997 -0.47508973 2.0818658
-0.079927236 -0.47269514 2.0804362
-0.024151802 -0.47242418 2.0724666
0.027601205 -0.4714576 2.0682259
0.093923256 -0.4668034 2.0925901
0.18348584 -0.46971887 2.0668745
0.24669695 -0.46781108 2.0889084
0.27978694 -0.46646571 2.0800469
0.33320683 -0.46687609 2.0649502
0.53562856 -0.46883017 2.0693064
0.57142925 -0.46849784 2.0771725
0.6296736 -0.46625775 2.0764818
0.67716283 -0.4668391 2.0689931
0.77207088 -0.47412705 2.0809453
0.81229758 -0.47299084 2.0647118
-1.0139515 -0.11134093 2.0850291
-1.0598655 -0.064185433 2.0719495
-1.0205208 -0.079846449 2.0712891
-0.43646345 -0.059807345 2.0608697
-0.27315369 -0.073348768 2.0661173
-0.24777311 -0.065051444 2.0887136
-0.31965548 -0.0098721245 2.062057
-0.26454276 -0.031851925 2.0782459
-0.24806218 -0.045055564 2.0914826
-0.4808394 0.020203855 2.074743
-0.43184474 0.010041149 2.06388
-0.36743304 4.700819e-05 2.0749249
-0.17047918 0.096520685 2.0862911
-0.20950364 0.13972089 2.0816026
-0.18171041 0.12785529 2.0768981
-0.21125291 0.17585003 2.0677335
-0.18062261 0.17176268 2.0609941
-0.47421831 0.24354117 2.0819657
-0.36682522 0.24962658 2.0613959
-0.21508357 0.20774828 2.0590894
-0.47325987 0.25049078 2.0541573
-0.41400784 0.25408161 2.0930882
-0.27423677 0.25678709 2.0748045
-0.21473461 0.27160379 2.050797
-0.15628819 0.38715741 2.052803
-0.10918298 0.38484496 2.0560329
-0.097171232 0.39887831 2.0632601
-0.11080567 0.43947268 2.0510783
-0.090527251 0.43334374 2.0593681
-0.11068245 0.47129861 2.0568306
-0.080990158 0.47593388 2.0653946
-0.10875624 0.50610757 2.0793021
-0.076248474 0.52254164 2.0671499
-0.047983177 0.54099071 2.0727525
-0.06596414 0.55830687 2.0619903
-0.047798354 0.55904114 2.061167
-0.31257081 -0.46499455 2.1185126
-0.27749547 -0.46678901 2.1300242
-0.22993048 -0.47114688 2.13429
-0.1677651 -0.4750483 2.1265559
-0.11943216 -0.47604981 2.1253328
-0.067000583 -0.47190219 2.1281936
-0.032224897 -0.4707242 2.1293945
0.023184415 -0.47226828 2.1183724
0.069439858 -0.47289521 2.1205339
0.13086812 -0.4717471 2.1134672
0.17228968 -0.46952149 2.1175156
0.22996259 -0.47173941 2.1240087
0.27118438 -0.46995074 2.1207082
0.38120872 -0.47308809 2.1485934
0.42973223 -0.46866369 2.1218951
0.47478497 -0.47202414 2.1311295
0.53678191 -0.47117835 2.1172347
0.57325292 -0.46479309 2.1319089
0.62021357 -0.47004175 2.1133993
-1.0032287 -0.11338119 2.1095893
-0.99408317 -0.11357832 2.11678
-1.0145714 -0.08157894 2.1265447
-0.25118944 -0.081169732 2.117182
-0.2386355 -0.06284263 2.127521
-0.26118624 -0.020252757 2.1160445
-0.24091184 -0.035480961 2.1178286
-0.20118758 0.091734946 2.1282899
-0.17251499 0.083934411 2.1177871
-0.21450123 0.11765981 2.1171424
-0.17908308 0.10095797 2.1089478
-0.82105815 0.22407295 2.1239226
-0.47117075 0.23955356 2.1281381
-0.443829 0.24925779 2.1369009
-0.4246414 0.25018504 2.1476767
-0.27671587 0.25557017 2.1205776
-0.30876058 -0.47060212 2.1786656
-0.26879203 -0.46641421 2.1666732
-0.20864575 -0.47202578 2.1762023
-0.17635509 -0.47396111 2.1700907
-0.12428476 -0.47603863 2.1820207
-0.081379049 -0.47261813 2.1676731
-0.012995111 -0.46965331 2.1550574
0.021950865 -0.47229481 2.1754825
0.075968213 -0.47089276 2.1598663
0.12092489 -0.47694102 2.1764252
0.16852662 -0.47122571 2.1705112
0.22146426 -0.47269222 2.1784341
0.27769563 -0.47220221 2.1719856
0.33153853 -0.47192878 2.174027
0.37733221 -0.47083041 2.1897218
0.42853838 -0.46864241 2.1861405
0.53722328 -0.47029486 2.1646869
0.58532071 -0.47024989 2.1560361
0.64776886 -0.4729031 2.1567137
-1.0097078 -0.071801521 2.1677637
-0.99617696 -0.094158426 2.1765428
-0.22364734 -0.063992538 2.1769149
-0.22579318 -0.0363243 2.1690731
-0.17560586 0.072340995 2.1606898
-0.81214917 0.23645301 2.1699924
-0.7869634 0.24144186 2.1986234
-0.4699631 0.23511463 2.1727006
-0.44368997 0.24451813 2.1896629
-0.28812051 0.24927312 2.1547089
-0.43752125 0.25159991 2.1584196
-0.26858711 0.25042287 2.1664448
-0.32848498 -0.46751294 2.2214365
-0.27620888 -0.47119331 2.2278848
-0.22170699 -0.47043529 2.219445
-0.16402465 -0.47325861 2.218513
-0.12637885 -0.47333902 2.2204843
-0.075890183 -0.46976748 2.2139623
-0.020528525 -0.46847209 2.2172918
0.026894979 -0.4719227 2.2160921
0.076506041 -0.47041607 2.2232525
0.12623972 -0.47238284 2.2160175
0.17476614 -0.47274944 2.2155523
0.22942957 -0.47216314 2.2227557
0.27617842 -0.4729692 2.2310326
0.40127474 -0.47385195 2.201247
0.51838154 -0.47161415 2.2281573
0.63121325 -0.47394603 2.2199459
-0.99370015 -0.10116678 2.2133284
-0.16599673 -0.11101677 2.2325177
-1.0062484 -0.063927986 2.2230375
-0.99738288 -0.08195971 2.2292721
-0.21063246 -0.064005561 2.229043
-0.16017181 -0.070155092 2.2159703
-0.14356557 -0.065696627 2.2180412
-1.0120451 -0.045176528 2.2265978
-0.21562228 -0.037263338 2.2257378
-0.16182211 -0.031808797 2.2208636
-0.13994908 -0.031653862 2.2117338
-0.15619265 0.017697725 2.2167122
-0.13562742 0.025363311 2.2102094
-0.81393856 0.23191334 2.207623
-0.78723574 0.24122266 2.2334206
-0.46038553 0.23701389 2.2182269
-0.44032457 0.24861762 2.2278199
-0.25685063 0.2488315 2.2487748
-0.34007969 0.25715709 2.218797
-0.35424733 -0.46859434 2.2904425
-0.32189506 -0.4691062 2.2849422
-0.2709682 -0.46602568 2.2851813
-0.23439156 -0.46882463 2.2738664
-0.1624694 -0.47019091 2.2754819
-0.12523262 -0.47014877 2.2676122
-0.079501703 -0.47151434 2.2664058
0.02487212 -0.47299424 2.2743218
0.068410695 -0.47028485 2.26074
0.12305896 -0.47002473 2.2579348
0.17473145 -0.46930724 2.2742543
0.23006594 -0.46728691 2.2666171
0.27176014 -0.46949124 2.2688978
0.5425387 -0.47211936 2.2834613
0.59611368 -0.46882927 2.2872252
0.60966992 -0.47185335 2.2706859
-0.062507659 -0.40247241 2.2568548
-0.98884326 -0.10362059 2.2757449
-0.18028596 -0.11839294 2.2501585
-0.99167812 -0.074554875 2.2679353
-0.20381737 -0.065253407 2.2726367
-0.18066797 -0.06470032 2.2563193
-1.0103345 -0.027191021 2.2738523
-0.99570161 -0.034452543 2.2827728
-0.20789362 -0.037780359 2.2580009
-1.0072818 0.00017841993 2.2893488
-0.99712443 0.0059969071 2.2962403
-0.79258704 0.23878019 2.2842598
-0.45677021 0.2407842 2.2550149
-0.44056094 0.2439373 2.2874625
-0.42661214 0.25332761 2.2728512
-0.34942076 0.25321287 2.2805705
2.1755905 2.3995101 2.2689669
-0.36298469 -0.4687196 2.3484657
-0.33158082 -0.46475437 2.3313563
-0.28522778 -0.46875471 2.3265338
-0.21749952 -0.46887341 2.3318176
-0.17172778 -0.4730584 2.3262634
-0.13162154 -0.47058693 2.3157866
-0.092465222 -0.47096038 2.3188796
0.025346035 -0.4717246 2.3237367
0.087137148 -0.4718796 2.3235531
0.12592061 -0.46986294 2.3124118
0.18309918 -0.46709862 2.3250694
0.20953912 -0.46921772 2.305269
0.28487721 -0.46987391 2.322427
0.30807117 -0.47467837 2.3250313
-0.98850316 -0.078206755 2.3265893
-1.0004283 -0.02315909 2.3038001
-0.99499059 -0.032198649 2.329607
-1.0146036 0.032070018 2.3187428
-0.99334639 0.025215842 2.3295915
-1.0055946 0.079326309 2.3279419
-0.99470043 0.059209265 2.3362811
-1.0061191 0.12190375 2.3248732
-0.9993276 0.12989056 2.3293934
-1.0100268 0.15331101 2.3223095
-0.99819672 0.15329941 2.3257585
-0.80819976 0.23023987 2.3120656
-0.77429122 0.24013886 2.302654
-0.42954478 0.24448209 2.3304245
2.1739926 2.3994584 2.3100758
2.0919013 2.4029386 2.3298953
2.116873 2.4116075 2.3267553
2.1712627 2.421742 2.3332734
2.2164936 2.4145238 2.3188426
2.2841392 2.4251671 2.3380837
-0.36719856 -0.46259582 2.3772378
-0.31405056 -0.46663263 2.3727851
-0.27072573 -0.47003165 2.3834665
-0.22624449 -0.46972018 2.3648102
-0.16824071 -0.46774742 2.3580177
-0.11722568 -0.46915656 2.367156
-0.088747956 -0.46970314 2.3707538
0.026050746 -0.47254109 2.3860483
0.07426016 -0.47390661 2.3805127
0.12295079 -0.46865314 2.3644316
0.16354083 -0.47036156 2.3714702
0.2248845 -0.46981996 2.3804622
0.27829632 -0.47056362 2.3653955
0.3228476 -0.4662458 2.3799763
-0.9860037 -0.073757738 2.3789933
-0.99056524 -0.025366236 2.3825762
-0.98942816 0.02171332 2.3749912
-1.0007846 0.083824448 2.365783
-0.99188781 0.077509247 2.3804357
-0.99509668 0.12569124 2.3669207
-0.99900925 0.15618914 2.3750389
-0.8073144 0.22325291 2.3648305
-0.42365453 0.24217857 2.384172
1.9744196 2.3868799 2.3823802
2.0255635 2.4066846 2.3794057
2.0733247 2.4130249 2.3781176
2.1181395 2.4154532 2.3725393
2.1645706 2.4103482 2.3746159
2.2209489 2.4154391 2.3863876
2.27918 2.4209523 2.3767269
2.3296003 2.4180155 2.3798361
2.376755 2.4111042 2.3859358
-0.36276925 -0.47188133 2.4261417
-0.31197712 -0.46650869 2.4028211
-0.27360085 -0.46745768 2.4107821
-0.23128743 -0.46849298 2.419116
-0.16709056 -0.46922353 2.4263649
-0.11413623 -0.46840093 2.4241257
0.014711249 -0.4678247 2.4228766
0.073096417 -0.46802175 2.4231734
0.12795445 -0.46872771 2.4253609
0.17052482 -0.46750113 2.4172819
0.22457644 -0.46647209 2.4090481
0.2808367 -0.4695189 2.4210055
0.31947991 -0.46881542 2.4142144
0.38267699 -0.46263358 2.4393129
-0.98314077 -0.077673584 2.4297101
-0.98132676 -0.036357727 2.4222674
-0.98796016 0.02307339 2.4296691
-0.99015903 0.083336666 2.4316196
-0.98975176 0.13058522 2.4167628
-0.99293613 0.159051 2.4257348
-0.41979748 0.24668579 2.429915
2.4911315 2.3963082 2.4277482
1.9446979 2.4142461 2.4435897
1.9744406 2.4185967 2.4310598
2.0254471 2.4097049 2.4250016
2.0681787 2.4112568 2.4406888
2.123457 2.4143555 2.4191244
2.175997 2.4123795 2.4261968
2.2228305 2.4190032 2.433461
2.2739313 2.4165678 2.423126
2.3294671 2.4185605 2.4314532
2.3742595 2.4087474 2.4275978
2.4308722 2.4103334 2.420028
2.4721088 2.4050751 2.4340944
-0.3721576 -0.47199085 2.4904649
-0.33388701 -0.46922064 2.4792168
-0.27255252 -0.46725067 2.4736524
-0.24405342 -0.47009987 2.4907951
-0.11745571 -0.46996754 2.4961171
-0.092868388 -0.46753553 2.4838634
0.12180501 -0.4750762 2.4585035
0.33384717 -0.46905833 2.4783893
0.36533388 -0.47085848 2.4850817
-0.97338277 -0.084291972 2.464885
-0.97675544 -0.02607175 2.4782233
-0.97950172 0.024898708 2.4708004
-0.97927815 0.077206179 2.4682953
-0.9841584 0.12684759 2.4733937
-0.98920012 0.16244492 2.4846082
-0.414139 0.25036347 2.4674914
-0.39177877 0.25130913 2.4794042
1.8443723 2.3972969 2.481287
2.4957733 2.3999648 2.476819
1.8314036 2.4030294 2.4979849
1.885278 2.4163918 2.4846456
1.9232595 2.4114065 2.4734311
1.9818172 2.4162879 2.4741819
2.0279975 2.4116035 2.4783785
2.0798821 2.4070306 2.4682624
2.1276844 2.4162583 2.4766393
2.1783359 2.4107876 2.4793141
2.2274742 2.4128978 2.4781539
2.2721028 2.4121642 2.4753795
2.3235996 2.4130771 2.470541
2.3760169 2.4107039 2.474427
2.4352591 2.4082558 2.4735274
2.4652371 2.4071665 2.4653797
2.515007 2.4004931 2.4638877
2.5752296 2.403044 2.4715376
-0.38948017 -0.46613201 2.5245633
-0.31423026 -0.47175154 2.516844
-0.26155046 -0.46815196 2.5238287
-0.23464099 -0.46924728 2.5202057
-0.18633828 -0.47652352 2.5282707
-0.13144054 -0.47283557 2.5330889
0.039382704 -0.47190925 2.5080492
0.052249063 -0.46663639 2.5466361
0.11286926 -0.47567996 2.5266347
0.27000478 -0.47310689 2.5051055
0.36353379 -0.47032049 2.5159993
-0.97312242 -0.1006268 2.516871
-0.97310758 -0.069286548 2.5234675
-0.96982265 -0.031305306 2.5184369
-0.97107553 0.022227921 2.5217826
-0.97489393 0.072318792 2.5245197
-0.97646683 0.12126345 2.527277
-0.97661179 0.15819985 2.523648
-0.40865386 0.24225652 2.5090785
-0.39758155 0.24288911 2.5169253
2.5734229 2.3999887 2.5147519
1.7884307 2.4154127 2.5427709
1.8142595 2.4149437 2.5264337
1.8802669 2.4148355 2.5263739
1.924997 2.4187021 2.5318482
1.9688441 2.4196448 2.5191102
2.0171576 2.4171107 2.5259581
2.0780702 2.4139111 2.5233941
2.1348519 2.4133475 2.527709
2.177094 2.4210446 2.5337563
2.2212667 2.414175 2.5288751
2.2732255 2.4183574 2.5297377
2.3186474 2.4088347 2.5268714
2.3658638 2.4053307 2.5217061
2.4084115 2.4061284 2.5042143
2.4780035 2.409601 2.5303173
2.5388722 2.4043131 2.5002477
2.599149 2.4062397 2.5073855
-0.30845594 -0.46731138 2.5736275
-0.29470545 -0.47154173 2.5626674
-0.17737296 -0.47324702 2.5790479
-0.13934992 -0.47078818 2.5671632
-0.09660767 -0.47389013 2.5853927
0.028028833 -0.47241303 2.5784154
0.090407752 -0.47351956 2.5835238
0.12689696 -0.47013628 2.5640206
-0.96092558 -0.10269982 2.5768938
-0.96753705 -0.070585616 2.5763478
-0.96688658 -0.025553392 2.5751743
-0.96369636 0.018468151 2.5693667
-0.96641803 0.070787437 2.5732546
-0.96833366 0.1224172 2.5770242
-0.96961784 0.1547925 2.5792336
1.6893005 2.3987095 2.5759759
1.7276628 2.4159613 2.5794327
1.7731431 2.4126039 2.571979
1.8327013 2.4128661 2.5733836
1.8765043 2.4247289 2.5715683
1.922418 2.4102869 2.576318
1.975281 2.4177299 2.5712845
2.0298662 2.4250748 2.5733163
2.0729353 2.415076 2.5721896
2.136054 2.4170568 2.5772347
2.1622798 2.4102967 2.5779135
2.2251506 2.4146991 2.5751796
2.321739 2.4126775 2.577451
2.3746712 2.4098463 2.5815611
2.4206996 2.4087937 2.5703564
2.4691236 2.4096539 2.5765607
2.5450237 2.4079132 2.5987594
2.6180549 2.402806 2.5846767
-0.32700962 -0.46988192 2.6221807
-0.26933169 -0.46264237 2.6221442
-0.19290134 -0.46809942 2.6208687
-0.14970456 -0.47151938 2.6419237
0.074911803 -0.47651336 2.6236999
-0.95795834 -0.10519854 2.6460555
-0.95785254 -0.071776494 2.6268647
-0.95601422 -0.025957948 2.6223629
-0.95821482 0.01978001 2.6283898
-0.95867538 0.069250338 2.6262605
-0.9629941 0.1241837 2.6198466
-0.96025848 0.15747848 2.6307797
-0.40097716 0.25267878 2.6196747
-0.38018993 0.26404291 2.6082001
1.5414346 2.3847704 2.6358457
1.5625113 2.3906128 2.6333492
1.5910132 2.4075634 2.64288
1.620944 2.4132133 2.6350892
1.672822 2.4130719 2.6223118
1.7288829 2.4078984 2.6171217
1.7721524 2.4057183 2.6192293
1.8172792 2.4068496 2.6217568
1.8845261 2.4205353 2.6301539
1.916768 2.4175088 2.6195142
1.9775716 2.4092433 2.6251099
2.0353265 2.4150586 2.6190348
2.0796173 2.4125519 2.6225832
2.1225443 2.4190767 2.623378
2.1767302 2.4153717 2.6370723
2.2319577 2.4159071 2.6307275
2.291954 2.4206083 2.6123822
2.3204761 2.4120049 2.6240625
2.3763425 2.4117103 2.6312847
2.4339168 2.4122293 2.6390269
2.4532876 2.4125104 2.625453
2.5112996 2.4031987 2.6148157
2.6282151 2.4104288 2.6418443
0.016096748 -0.47476739 2.6628861
0.071463995 -0.47319078 2.6534176
0.11315979 -0.47162899 2.6808634
-0.95279849 -0.10609369 2.6717496
-0.94434786 -0.10664244 2.68871
-0.95343095 -0.072905213 2.6742094
-0.94683015 -0.074373014 2.6801262
-0.95288128 -0.033061005 2.673223
-0.94836986 -0.026555244 2.6809916
-0.95360965 0.020146728 2.6752715
-0.94692582 0.013404602 2.6769423
-0.95682877 0.088644467 2.6698971
-0.94539607 0.066529281 2.6720333
-0.95808315 0.12613307 2.6656163
-0.94778103 0.13412698 2.6974716
-0.95148057 0.15929042 2.6660509
-0.41266596 0.23404486 2.6976223
-0.3969869 0.24538697 2.6800463
-0.38935852 0.25755307 2.6721239
-0.31169796 0.25716507 2.6747928
1.7376096 0.3751477 2.695678
1.7564445 0.3686876 2.6955085
1.7445784 0.44305992 2.6986933
1.7467685 0.47316873 2.6981642
1.4875957 2.3953631 2.6779613
1.528332 2.3961277 2.6782076
1.7455491 2.3999765 2.6670332
2.5159075 2.3974688 2.650316
2.8650262 2.3961098 2.6973312
1.5878278 2.4117217 2.6899524
1.6277685 2.4064898 2.6771517
1.6725188 2.412214 2.6721153
1.7204248 2.4097531 2.668855
1.7760049 2.4051633 2.6573725
1.8278947 2.4192734 2.6800175
1.8777548 2.4169271 2.6711733
1.9328384 2.4165673 2.6761172
1.9756855 2.4108524 2.6726167
2.0240717 2.4113481 2.6756253
2.0571766 2.4026003 2.6506064
2.1246033 2.4193497 2.6791613
2.1699235 2.4098189 2.6783006
2.2215986 2.4113669 2.6805847
2.264101 2.41202 2.6638961
2.3248849 2.4074349 2.6604242
2.37339 2.4089186 2.6767366
2.4327509 2.4108915 2.6619463
2.4638481 2.4030871 2.6992178
2.5320463 2.4063103 2.6718481
2.5728245 2.4134257 2.6888802
2.6247838 2.4253006 2.6728115
2.7948403 2.4111099 2.6735439
2.8617902 2.4137094 2.6812582
0.08261656 -0.46227315 2.7431829
-0.93526685 -0.10713458 2.704221
-0.95461148 -0.067321919 2.7187927
-0.93982106 -0.073933274 2.7181046
-0.95186049 -0.013310068 2.7114637
-0.94253886 -0.029586006 2.7266128
-0.95119649 0.040480282 2.7093508
-0.94423789 0.021740476 2.7230499
-0.95498425 0.054140404 2.7199693
-0.94500029 0.078514598 2.7244842
-0.95062304 0.12203514 2.7270019
-0.94640642 0.1267999 2.7356892
-0.95251775 0.16171475 2.7099435
-0.41179961 0.23070671 2.7360845
-0.38741559 0.24752013 2.7046032
-0.31020942 0.2482658 2.7194297
-0.32674405 0.25093222 2.7476194
1.743515 0.37644601 2.7047732
1.7457136 0.41381851 2.7040806
1.3207124 2.3914356 2.7483323
1.3567846 2.3939893 2.7364397
1.5487339 2.3880374 2.7147441
2.5836866 2.3940077 2.7207713
1.3794326 2.4032538 2.739403
1.4188749 2.4111128 2.7326319
1.463123 2.4121437 2.7135231
1.5194588 2.4089131 2.733434
1.5858128 2.4043722 2.7198586
1.6249189 2.4024794 2.7234821
1.6833721 2.4126756 2.7209499
1.7215329 2.4124954 2.7271931
1.7691854 2.4144285 2.7171738
1.8360453 2.4152129 2.736186
1.8717974 2.4152894 2.7222781
1.9273924 2.4096727 2.7229185
1.9780121 2.4065022 2.7081864
2.040555 2.4187753 2.7334871
2.0768549 2.4151828 2.7190754
2.1251624 2.412499 2.7246964
2.1802759 2.4128437 2.7232165
2.2329717 2.4102814 2.7300193
2.2820921 2.4124548 2.715764
2.3218927 2.404943 2.7063487
2.3710768 2.4067705 2.7235677
2.43958 2.4077435 2.7256832
2.5211027 2.4014168 2.7044239
2.6208477 2.4101052 2.7242451
2.6764932 2.4191935 2.7263806
2.7220235 2.4186373 2.7173133
2.7611344 2.4166415 2.7102273
2.8431454 2.4118571 2.7464409
-0.0099359415 -0.46630365 2.7679031
0.030159365 -0.46818635 2.778985
-0.93848324 -0.020338651 2.7575307
-0.93843347 0.016133772 2.7719259
-0.94080526 0.074233077 2.772397
-0.94228488 0.12350859 2.7667673
-0.94289291 0.15101503 2.7676225
-0.61589044 0.21667974 2.7875657
-0.58471543 0.21872209 2.7934151
-0.41427636 0.21773095 2.7680759
-0.38002801 0.22214518 2.7623353
-0.32903168 0.22608039 2.7681084
-0.35408863 0.25159961 2.7527573
-0.3425664 0.25286588 2.7677238
1.229427 2.3822956 2.772613
1.2596074 2.3905308 2.7720361
1.6807361 2.398555 2.7831404
1.2954124 2.4087777 2.7826922
1.3319278 2.4058547 2.7759962
1.3723283 2.4038873 2.7811568
1.4273121 2.4034553 2.7658105
1.4783167 2.4095387 2.7735646
1.5209098 2.4045632 2.7722533
1.5651509 2.4091883 2.7772088
1.619862 2.41834 2.7766464
1.6765747 2.4106193 2.7624912
1.7225416 2.4193094 2.7925677
1.7722734 2.4129581 2.7721124
1.8184601 2.417973 2.7650585
1.8800551 2.4102356 2.7743104
1.9200481 2.4096768 2.7788436
1.9711145 2.4133589 2.768378
2.0224209 2.4163938 2.775202
2.0781744 2.4133835 2.7765007
2.1240513 2.4103549 2.7723005
2.1673925 2.411067 2.7760494
2.2230222 2.4107525 2.769721
2.2588823 2.4028008 2.7792492
2.3341284 2.4084404 2.7695744
2.3660905 2.4019351 2.7679892
2.4523783 2.4103959 2.7720716
2.5256727 2.4236102 2.7951705
2.569597 2.4176998 2.7774117
2.6023674 2.4197931 2.7833316
2.6991086 2.4330788 2.7901556
2.7181127 2.411716 2.7872968
2.7619271 2.4147136 2.7598038
-0.010098452 -0.46039349 2.8146648
0.057565454 -0.47352597 2.8104038
-0.94018787 -0.013739088 2.8065319
-0.93796378 0.032601744 2.8147004
-0.93727452 0.07784009 2.8227386
-0.93813294 0.12571709 2.8208797
-0.94557232 0.15367638 2.8196671
-0.65253389 0.20509176 2.8105865
-0.63188893 0.21867804 2.8123713
-0.56352466 0.22006609 2.8100109
-0.52413279 0.21730544 2.8253489
-0.47785354 0.21571945 2.8238008
-0.44669455 0.21146506 2.8313293
-0.3610248 0.20253162 2.8096051
-0.33690777 0.20428926 2.8362067
0.22934107 0.37649894 2.8469419
0.250339 0.43205774 2.8460073
0.26253772 0.47890523 2.8452277
0.27769646 0.50736284 2.835367
-1.1090088 2.3830962 2.8171654
-1.0788496 2.3926899 2.8400602
1.0901234 2.3983984 2.8441701
1.1891521 2.3967404 2.8256991
1.2268103 2.3936298 2.8257186
1.2623647 2.3947799 2.8137262
1.3271132 2.399622 2.8320832
2.2669852 2.399297 2.8327796
1.1277711 2.4046044 2.8398058
1.1616154 2.4025869 2.8252618
1.2232023 2.4096181 2.8244298
1.2851909 2.4048116 2.8186076
1.3114434 2.4042299 2.8197715
1.3747065 2.409076 2.8351471
1.4217856 2.4060116 2.8239503
1.4788599 2.413898 2.8252738
1.5358226 2.4012513 2.8196938
1.5925565 2.4103994 2.8258982
1.6224725 2.4145825 2.8172424
1.6686774 2.4071405 2.8026392
1.7295419 2.4126229 2.8310318
1.7752342 2.4153404 2.8281448
1.8192859 2.405623 2.8240132
1.8736038 2.4177127 2.8231108
1.9179533 2.4094369 2.839005
1.9769102 2.4124417 2.8265011
2.036191 2.4104218 2.8290823
2.0715353 2.4086657 2.8191538
2.12837 2.4113677 2.8341744
2.1805241 2.4071214 2.8241818
2.227735 2.4074759 2.8253582
2.3318815 2.4065092 2.8007836
2.3767543 2.4129853 2.8315039
2.4221027 2.4125576 2.8324497
2.480207 2.417907 2.817667
2.5193701 2.4169524 2.8219903
2.5648966 2.4120088 2.8228042
2.6532719 2.4281163 2.8150272
2.7467675 2.4166389 2.8305035
2.7590926 2.4095809 2.8065851
2.8221817 2.4066491 2.8360257
-0.94068617 0.042418674 2.8530378
0.13733695 0.092326134 2.898633
0.15566176 0.083026849 2.8957446
0.12962617 0.12613434 2.8932459
-0.94252092 0.15547217 2.8558686
0.12641488 0.17310774 2.8864138
-0.47928745 0.2069789 2.8604419
-0.43664229 0.20637789 2.8565371
0.13527438 0.22425342 2.8780572
0.15812466 0.23713242 2.8718741
0.14150356 0.26913267 2.8820274
0.16626266 0.27591977 2.8614976
0.18201114 0.31843501 2.8635955
0.21353656 0.33796513 2.8532152
0.19700578 0.36634061 2.877358
0.21206507 0.38155225 2.8544977
0.2509008 0.39865807 2.8557048
0.2276891 0.42487091 2.8591084
0.25771672 0.42605871 2.8519897
0.23722994 0.46066183 2.8512089
0.26485652 0.46088573 2.8510032
-1.1224633 2.3856957 2.8702016
-1.0782766 2.3932588 2.876889
-1.0231112 2.3925819 2.8813248
-0.98573279 2.3980405 2.8760486
-0.93268448 2.3956604 2.8879361
-0.87872171 2.3903832 2.8953996
-0.82160807 2.375453 2.8902161
0.87047112 2.3914146 2.8990548
0.92354333 2.3943038 2.8888659
0.98656887 2.3911662 2.8846018
1.0217907 2.3923233 2.875602
1.1276454 2.3966272 2.8835292
1.1618876 2.3949137 2.8694835
1.2358222 2.3935308 2.859278
1.299922 2.3968344 2.8769088
1.3174461 2.3964431 2.8694308
1.3822469 2.3987973 2.884784
1.417892 2.3985877 2.8693783
1.5417502 2.3974462 2.8715067
2.2255328 2.3962386 2.8554747
2.49649 2.3938422 2.864373
2.5200152 2.3972986 2.8538296
-1.0224444 2.4026985 2.8711679
-0.93491358 2.4013369 2.8948252
0.9809581 2.4075949 2.8901618
1.0686572 2.4060712 2.8829503
1.1429031 2.4006665 2.865603
1.1846099 2.4054244 2.8759284
1.2143631 2.4032688 2.880672
1.2797447 2.4055912 2.8687172
1.3389394 2.4031878 2.8703566
1.3674904 2.4057558 2.8751411
1.4201852 2.4024396 2.873915
1.4782039 2.4094479 2.8585317
1.5175395 2.4124031 2.8714917
1.5871372 2.4114919 2.8709574
1.6843977 2.4154592 2.8697665
1.7375622 2.4188023 2.8825314
1.7824835 2.4089046 2.8713009
1.8310519 2.4055438 2.8826733
1.888401 2.4193683 2.8726487
1.9233379 2.4091711 2.8803244
1.9687898 2.4046202 2.8798714
2.0288258 2.4057105 2.8798025
2.0784597 2.4097376 2.8791785
2.1217654 2.4063776 2.8774364
2.1717348 2.4093494 2.8661392
2.2004781 2.4110439 2.8990679
2.2707999 2.4044092 2.8894255
2.3209426 2.4160016 2.8763893
2.3710871 2.4123878 2.8727849
2.4414968 2.4184592 2.899219
2.462894 2.4101491 2.867732
2.5499659 2.4067662 2.8502753
2.591327 2.4065309 2.8730102
2.6186309 2.4131126 2.8656852
2.6874862 2.4183948 2.8794651
2.7235713 2.4128819 2.86867
0.029142523 -0.060529675 2.9293652
0.073324434 -0.062762551 2.9239261
0.108812 -0.063102558 2.9394393
-0.017494956 -0.028047824 2.9435129
0.02448198 -0.027907411 2.9287672
0.073217347 -0.027823431 2.9201441
0.10727565 -0.030794222 2.9359384
-0.017499177 0.0070651686 2.9443443
0.024505014 3.6965568e-05 2.9280853
0.059742142 3.7448819e-05 2.9431436
0.14332975 0.041971341 2.927428
0.1656746 0.030752342 2.9263616
0.12885152 0.073606394 2.9160709
0.15981358 0.069457568 2.9080963
0.11443958 0.11095153 2.9032614
0.199687 0.39230585 2.9147148
-1.1210577 2.3937874 2.9365654
-1.0829633 2.3931925 2.923619
-1.016731 2.3953822 2.9347341
-0.97952557 2.3924134 2.920028
-0.92123395 2.3936446 2.9235659
-0.86968637 2.3958862 2.9398856
-0.82749921 2.3923378 2.9106989
-0.78428209 2.3928151 2.9214387
-0.71457022 2.391531 2.9347878
-0.67888713 2.3878016 2.9370897
0.66155112 2.3875358 2.9401736
0.72279739 2.3899007 2.9311111
0.76610172 2.390192 2.9221964
0.82028562 2.3965273 2.9180014
0.88039458 2.393621 2.925559
0.92956448 2.3924463 2.9198961
0.97461808 2.3959336 2.9120553
1.0908273 2.3946176 2.9293275
1.1250978 2.3956048 2.9257176
1.1673954 2.3979249 2.9270031
1.2349098 2.390578 2.9303868
1.3287768 2.3991344 2.9069853
1.3905085 2.3951106 2.914942
1.9838518 2.3992305 2.9192622
2.2651124 2.3994806 2.9345334
-1.0540354 2.4001606 2.9299746
-1.0336728 2.402616 2.9214721
-0.97821802 2.4224393 2.9104004
-0.87537104 2.4013662 2.9339545
-0.76171935 2.4036407 2.9404695
-0.74471241 2.4049425 2.9458108
0.77018815 2.4027612 2.9375989
0.82244617 2.4029093 2.9258268
0.85872012 2.4070237 2.922363
0.9302296 2.4115877 2.9096627
1.0366458 2.4006515 2.9360881
1.0730002 2.4030476 2.9281831
1.2156028 2.4055364 2.9206898
1.2719539 2.4070318 2.9248474
1.3187418 2.4135077 2.931463
1.3632479 2.4058917 2.928736
1.4323721 2.4090219 2.9308901
1.4764365 2.4166489 2.9257069
1.5194058 2.405761 2.9245741
1.6384238 2.408942 2.9178267
1.6885142 2.4068344 2.9175868
1.7281981 2.414252 2.9302921
1.782565 2.4155638 2.9253874
1.8355197 2.4049048 2.9233475
1.8823954 2.4074397 2.9236879
1.9296783 2.4099872 2.9234118
1.9609598 2.4061277 2.9445605
2.0265081 2.4063983 2.9292927
2.0787497 2.4131074 2.9324169
2.1213093 2.4083869 2.9294302
2.1766272 2.4067333 2.9233978
2.2367764 2.4097831 2.9222555
2.2583501 2.4119444 2.9117463
2.3012617 2.4168348 2.9423792
2.3882365 2.4049799 2.9113023
2.4664993 2.4131525 2.9239588
2.512656 2.4185195 2.9279754
2.5712302 2.4256206 2.926049
2.6143689 2.4075067 2.9126651
2.6873794 2.4161518 2.9311733
-0.017589159 -0.056399323 2.9572101
0.13811833 -0.063675642 2.9651453
0.16065517 -0.064208485 2.9890738
-0.074559502 -0.02838742 2.9770544
-0.038792796 -0.028239762 2.9615147
0.13336508 -0.02826163 2.9647081
0.16092685 -0.042856295 2.9943695
-0.12181754 0.022839731 2.9859948
-0.07623481 0.012894384 2.9676187
-0.038722508 0.0070847701 2.9562173
-1.123842 2.3861787 2.9768853
-1.0816481 2.3957448 2.9702408
-1.0139265 2.3929632 2.9805114
-0.98003906 2.395649 2.9816701
-0.92313576 2.3949087 2.978076
-0.87591523 2.3954194 2.9729311
-0.81699198 2.3948226 2.9721885
-0.77842647 2.3960624 2.9732044
-0.74656767 2.3934555 2.965045
-0.67729264 2.395519 2.9815624
-0.62413692 2.3983605 2.9835074
-0.56430793 2.3928003 2.9720919
-0.52889293 2.3946869 2.9827442
-0.48090574 2.3924799 2.9753919
-0.42759547 2.3849633 2.9726095
-0.38411611 2.3834205 2.9755774
-0.33318239 2.3896716 2.9885368
-0.27267796 2.3902185 2.9942856
-0.2382295 2.3920352 2.9989934
0.02163171 2.382596 2.9947977
0.07349547 2.3862193 2.9987223
0.10791694 2.3829029 2.993701
0.2121335 2.3901856 2.9983065
0.2988247 2.3911457 2.9934454
0.3163403 2.3926172 2.9938233
0.35937989 2.3908591 2.9875879
0.41186988 2.3939166 2.9858685
0.48868123 2.3878641 2.9685934
0.58214951 2.3900583 2.9743083
0.63004583 2.3905103 2.966738
0.67870349 2.3958838 2.970453
0.72005624 2.3922431 2.9690313
0.77372414 2.3892875 2.9677513
0.83257234 2.3975749 2.9653134
0.87391073 2.3919904 2.980835
0.92783791 2.3981285 2.9992352
0.95897639 2.3960726 2.9702296
1.0251924 2.3974376 2.9714007
1.064172 2.3963673 2.9766583
1.1302682 2.3954976 2.9731226
1.180721 2.3982198 2.9790297
1.2841235 2.3967977 2.9977665
1.3098854 2.3941617 2.984381
1.3930098 2.3942885 2.9915137
1.4507107 2.3991163 2.9749506
1.7280599 2.3990042 2.9708381
1.8795369 2.399554 2.9798837
1.9428318 2.3999543 2.9908376
1.9874346 2.3959484 2.9580164
2.0910549 2.399637 2.9973352
2.1167927 2.3956995 2.9743199
2.2398605 2.3947659 2.9932365
2.2822475 2.3977978 2.9707606
-1.0627992 2.4023125 2.966676
-1.0452527 2.4028597 2.972718
-0.96158153 2.4027619 2.9783626
-0.94953239 2.4035218 2.9646895
-0.83748364 2.4037988 2.9581602
-0.72353631 2.4039927 2.9835305
-0.65862221 2.4086287 2.9676838
-0.63155973 2.4052925 2.9683104
-0.48392314 2.4074924 2.9941063
0.43975961 2.4040918 2.9954972
0.46573567 2.4033122 2.9912486
0.52670425 2.4035349 2.9831231
0.58030534 2.4092138 2.9821301
0.7004807 2.4024327 2.9517879
0.81592375 2.4000618 2.9935484
0.92345172 2.4044673 2.9730282
0.98483425 2.4046783 2.9686673
1.0094447 2.411145 2.976434
1.0968021 2.4004533 2.9906797
1.1071602 2.402015 2.9526005
1.1875242 2.4029107 2.9644487
1.2193772 2.4037032 2.9734292
1.2689244 2.403393 2.9742424
1.3264893 2.4049687 2.9645863
1.3700279 2.4043274 2.975893
1.4212286 2.404783 2.9757318
1.4850758 2.4103498 2.977077
1.5264988 2.4083648 2.9763784
1.6920277 2.4046342 2.9692647
1.7117889 2.4024401 2.9845715
1.7773712 2.4103808 2.9746244
1.8213091 2.4092281 2.9715242
1.8573009 2.4049225 2.978497
1.9203612 2.4030442 2.9628026
1.9644779 2.4029827 2.9835703
2.0355856 2.4093502 2.9761639
2.0815318 2.40816 2.9699199
2.1723797 2.4034328 2.9529574
2.2299795 2.4039226 2.9661527
2.2523217 2.4067852 2.9566479
2.3491216 2.4260197 2.978559
2.3801279 2.417021 2.9749641
2.4191723 2.4058671 2.9703016
2.4696968 2.4059193 2.9611602
2.5073643 2.4126182 2.974421
2.570992 2.413887 2.9855318
0.18352953 -0.064698473 3.0118918
0.21457759 -0.065401964 3.0430241
-0.12572488 -0.021523349 3.0111625
0.14696282 -0.01429153 3.0018449
0.17657262 -0.031168178 3.016655
0.21205206 -0.033858534 3.0420015
-0.12900299 0.0036209659 3.0040815
0.16346729 0.014565831 3.0417829
-0.48535818 0.20445824 3.030442
-1.1201442 2.3851862 3.0177469
-1.0574071 2.3947718 3.0316281
-1.0305833 2.3942008 3.026309
-0.98199397 2.3884749 3.0221887
-0.91904968 2.3966169 3.0263481
-0.87514156 2.3909004 3.0205133
-0.82822913 2.3926528 3.0160677
-0.77568364 2.3945141 3.0301819
-0.70967579 2.3988562 3.0143476
-0.66438943 2.3944931 3.0172057
-0.637909 2.3942084 3.0215578
-0.5169279 2.3927267 3.0215926
-0.47233868 2.3916483 3.0295968
-0.42862815 2.3934937 3.0254326
-0.38673949 2.3941858 3.0337741
-0.33602655 2.3925142 3.0253594
-0.25667116 2.3850505 3.022228
-0.21832967 2.3914559 3.0194583
-0.16972649 2.3946209 3.0227301
-0.11794958 2.3950098 3.0419006
-0.082530782 2.3915703 3.0218613
-0.03390345 2.3936596 3.0285923
0.027596757 2.3906841 3.0270987
0.068036914 2.3923481 3.0176191
0.12679933 2.3963385 3.0433171
0.17904186 2.3977304 3.0346131
0.23562416 2.3962691 3.0295832
0.27442646 2.3963351 3.0186193
0.31889844 2.3943908 3.0293067
0.3601371 2.3917606 3.0334148
0.41548455 2.3972602 3.0233729
0.48138466 2.3960421 3.0273757
0.53472501 2.3960609 3.0268478
0.57152104 2.3919981 3.0182974
0.61875457 2.3881245 3.0169783
0.67725724 2.389101 3.0217555
0.73404288 2.3930531 3.0281873
0.77771884 2.3974035 3.0219955
0.83375198 2.3939068 3.0285308
0.85803878 2.3925927 3.0270905
0.9169867 2.3984056 3.0384905
1.0146432 2.3977661 3.0236804
1.0678964 2.3980179 3.0332346
1.1123343 2.3967266 3.0178804
1.1670433 2.3982601 3.0151012
1.2293903 2.3959887 3.028959
1.2559185 2.3949311 3.0052927
1.3433645 2.3942854 3.030715
1.3672366 2.3971355 3.0059185
1.751869 2.3940265 3.0382426
1.8926487 2.3899987 3.0480807
1.9178946 2.395123 3.0198174
2.0131123 2.3995967 3.043848
2.0985343 2.3886251 3.0217373
2.2810578 2.3974984 3.0224354
2.3203549 2.3975062 3.0484271
2.6032708 2.3938749 3.0051641
-1.0751171 2.403039 3.0193243
-0.76429391 2.4043064 3.0103855
-0.74020547 2.4032559 3.0316112
-0.68497401 2.404974 3.0271347
-0.61167651 2.4035983 3.0210891
-0.58550453 2.4045205 3.0265579
-0.37141776 2.4041328 3.0199411
-0.31013456 2.4034352 3.0247757
-0.2797237 2.4046214 3.028677
-0.12652589 2.4100595 3.027236
-0.065271296 2.4038837 3.0210767
-0.013012108 2.4006419 3.017561
0.13499762 2.4039364 3.0192518
0.17854592 2.4040434 3.0175028
0.23067567 2.402976 3.0132997
0.33542022 2.405153 3.007952
0.38914239 2.4054124 3.0197833
0.44242722 2.4011323 3.0252018
0.51301622 2.4035208 3.0190687
0.71950907 2.4020648 3.0167387
0.80541933 2.403692 3.0361428
0.89313495 2.4002931 3.0109854
0.93279457 2.4049404 3.0191939
0.97394031 2.406518 3.0346739
1.0440644 2.4026856 3.0097084
1.087299 2.4010737 3.0316877
1.1471131 2.4130425 3.0298207
1.1866438 2.4015014 3.0385652
1.222634 2.4007742 3.0253668
1.2878757 2.4025691 3.0437386
1.3171166 2.4057798 3.0377226
1.388641 2.4000087 3.0416567
1.4225596 2.4105992 3.0440383
1.4709949 2.4140747 3.0293586
1.5203546 2.4094698 3.0218718
1.5505373 2.4037628 3.0205171
1.6716952 2.4026723 3.0263078
1.7265987 2.404258 3.0235322
1.7801803 2.4043858 3.0260773
1.8330957 2.4029188 3.0258491
1.880758 2.406404 3.0363581
1.9048734 2.400439 3.0130436
1.9712557 2.4037132 3.0277305
2.0225804 2.4083936 3.0219057
2.0653276 2.403703 3.0201833
2.1354499 2.4082146 3.0343976
2.1798317 2.408752 3.0199876
2.2199512 2.4052935 3.0257344
2.3734143 2.4104338 3.0197849
2.40855 2.4052794 3.0032058
2.4836378 2.4089878 3.0115361
2.5079529 2.4020901 3.035413
2.5819283 2.4138167 3.0053837
0.23725769 -0.058341358 3.0534143
0.23052582 -0.043848105 3.0610929
-0.52800912 0.20686865 3.0620623
-1.1613885 2.3875337 3.0647843
-1.1117635 2.397423 3.069113
-1.0710306 2.3870559 3.0540509
-1.0368516 2.3916438 3.0703971
-0.97348517 2.3916867 3.0877407
-0.9242087 2.3903008 3.0800734
-0.8692522 2.3947248 3.0691106
-0.82090539 2.3963261 3.0763435
-0.77196431 2.3926265 3.06394
-0.7451973 2.3926933 3.0695248
-0.66639304 2.395535 3.0618234
-0.63008016 2.396616 3.0725472
-0.59227777 2.3968229 3.0848145
-0.5194689 2.3984773 3.0803323
-0.46424657 2.3886151 3.0746195
-0.42414564 2.3912029 3.0741425
-0.37499997 2.3921332 3.0720513
-0.33034471 2.3883135 3.071249
-0.28147763 2.3938119 3.0789557
-0.22472258 2.3912368 3.0794213
-0.18006054 2.3902373 3.0669687
-0.11870277 2.3925724 3.0723908
-0.074699327 2.392653 3.0736413
-0.039617598 2.397562 3.080483
0.027922859 2.3906448 3.0829623
0.074855022 2.3948026 3.0763943
0.12770824 2.3957055 3.0761433
0.18045418 2.3945758 3.0725412
0.22191237 2.3929677 3.0796061
0.27264163 2.3932691 3.0789387
0.31682193 2.3901155 3.066303
0.39295524 2.3935833 3.0722079
0.42469278 2.3951907 3.0673623
0.47701797 2.3900962 3.0664053
0.51874399 2.3889596 3.0795183
0.5905962 2.3985891 3.0700278
0.72499532 2.3846846 3.0628607
0.75272399 2.3880768 3.0619054
0.80922276 2.3971398 3.0621886
0.85231972 2.399894 3.0923598
0.90606284 2.3989346 3.0783162
0.98251325 2.3975763 3.0814037
1.1120411 2.3974521 3.0566068
1.1878513 2.3918259 3.0754282
1.2244468 2.3918629 3.0633004
1.2678318 2.3982935 3.0837927
1.3298899 2.3938677 3.0549307
1.3619126 2.3994412 3.0912173
1.4323239 2.3990197 3.0836978
1.5559784 2.3985453 3.0728359
2.0676343 2.3981271 3.0574236
-1.1409317 2.4019971 3.0920069
-1.0151203 2.404475 3.0944941
-0.96105564 2.4013288 3.067513
-0.88062012 2.4034507 3.0905149
-0.71860719 2.4021976 3.0697989
-0.6854732 2.4022887 3.0938468
