ply
format ascii 1.0
comment PCL generated
element vertex 1537
property float x
property float y
property float z
element camera 0
property float view_px
property float view_py
property float view_pz
property float x_axisx
property float x_axisy
property float x_axisz
property float y_axisx
property float y_axisy
property float y_axisz
property float z_axisx
property float z_axisy
property float z_axisz
property float focal
property float scalex
property float scaley
property float centerx
property float centery
property int viewportx
property int viewporty
property float k1
property float k2
end_header
-1.156101 2.4001935 3.362293
-0.97525239 2.4029891 3.3726707
-0.91660672 2.4003732 3.3820398
-0.87244779 2.4036481 3.35693
-0.81525975 2.4037476 3.3686762
-0.77681619 2.4027784 3.3745193
-0.70045394 2.4024298 3.3874035
-0.67644715 2.4039061 3.3550549
-0.63102138 2.4017138 3.3781066
-0.56274122 2.4031825 3.370785
-0.52516383 2.4042997 3.3771801
-0.44765586 2.404109 3.3670268
-0.26485381 2.4020808 3.3732736
-0.20850797 2.4030621 3.3777711
-0.17358726 2.4032791 3.3672581
-0.10777493 2.400795 3.3659587
-0.079837397 2.4066024 3.3747122
0.042348839 2.407407 3.3763955
0.061309651 2.4136374 3.3849065
0.15483013 2.4022298 3.366539
0.2109718 2.4005897 3.3618271
0.2885111 2.4030018 3.3979254
0.48745367 2.4047 3.382328
0.5718745 2.4014835 3.3671558
0.65970725 2.4022222 3.3745651
0.88096929 2.4053528 3.3840511
0.91007662 2.4082866 3.3953934
1.0296251 2.4014926 3.3674684
1.3146451 2.4053273 3.3642685
1.4451787 2.4078922 3.3669286
1.4785707 2.4040828 3.3706551
1.746353 2.4105096 3.3876352
1.7923621 2.4179788 3.3800921
1.8289108 2.4147327 3.3736944
1.8772408 2.4023707 3.3612995
1.9895715 2.4071958 3.3638232
2.0315635 2.4101336 3.3728313
2.0564876 2.4047863 3.3753932
2.1250134 2.4029953 3.3871164
2.1800234 2.4061475 3.3626366
2.4420862 2.427413 3.3854461
2.4563031 2.4094608 3.36847
2.6842422 2.4269259 3.3716466
2.7007792 2.4097834 3.3847427
-1.2227525 2.3874574 3.4275577
-1.1803176 2.3909247 3.4240458
-1.1182426 2.3935888 3.424366
-1.0725913 2.3886809 3.4079597
-1.0306492 2.3878446 3.4273489
-0.97697556 2.3923063 3.4366322
-0.92791593 2.3930337 3.4184475
-0.8731181 2.3934922 3.4206758
-0.82442904 2.3922024 3.4283755
-0.76203543 2.3972039 3.4080126
-0.73275578 2.3955455 3.410675
-0.66633296 2.3977497 3.4247596
-0.6278742 2.3973901 3.4299667
-0.57958448 2.3958459 3.4344506
-0.51853871 2.3985412 3.4077144
-0.47227228 2.3955812 3.4278562
-0.42379615 2.3912971 3.4266648
-0.37522426 2.3947868 3.4171004
-0.3359828 2.3859894 3.4076996
-0.28064063 2.3983848 3.4294302
-0.22338675 2.3965166 3.4300547
-0.166273 2.395642 3.4313765
-0.14712033 2.3932846 3.4286828
-0.03299889 2.3986461 3.401237
0.033317257 2.3963675 3.435451
0.080792785 2.3949163 3.4327376
0.12781765 2.3952088 3.4132926
0.17580438 2.3946898 3.4296322
0.22341709 2.3958454 3.4291356
0.27115384 2.3978922 3.4293582
0.33242005 2.3929613 3.4332108
0.36597276 2.395848 3.4195096
0.47713342 2.3928733 3.4196229
0.52551603 2.3940492 3.4291449
0.57908106 2.3934181 3.4310181
0.6179176 2.3955693 3.4288399
0.72232467 2.3901358 3.4306488
0.76593781 2.3927174 3.4138458
0.86512107 2.3978534 3.428977
0.92660713 2.392066 3.4207385
0.97579998 2.3891532 3.4321926
1.0381891 2.3987758 3.4322395
1.0848103 2.3941176 3.4133649
1.1193035 2.3924634 3.4293759
1.1702192 2.3901591 3.4258318
1.2224942 2.390069 3.42486
1.2782986 2.389523 3.435744
1.3293911 2.3927526 3.4249985
1.3921489 2.3987207 3.4141099
1.4230444 2.3975623 3.4456713
1.5768791 2.3989971 3.4374211
1.7886393 2.3995554 3.4453647
1.9240112 2.3945282 3.4232304
2.7130587 2.3985188 3.4139218
-1.1555958 2.4006081 3.4460804
-0.96353042 2.4024427 3.414659
-0.80152714 2.4006503 3.4058659
-0.78561848 2.4010627 3.4291801
-0.70625925 2.4031107 3.4262905
-0.68842554 2.4079535 3.4363105
-0.6060679 2.4060655 3.407162
-0.56830686 2.4016452 3.4187305
-0.54784817 2.4018953 3.4089451
-0.24108861 2.4025438 3.4001529
-0.17861022 2.4034579 3.4170294
-0.12438907 2.4060183 3.4250419
-0.076024488 2.4025028 3.434298
-0.020588545 2.4041698 3.4342048
0.018960375 2.4014115 3.4145956
0.071001381 2.4036961 3.4079387
0.30776131 2.4056175 3.4003136
0.38652822 2.405473 3.4315972
0.42556047 2.4105914 3.4353085
0.59614789 2.4042127 3.405946
0.6366027 2.4033458 3.418189
0.67647135 2.4186106 3.4149492
0.70042074 2.4158258 3.446075
0.89718693 2.4060867 3.4347792
1.0192513 2.4000826 3.4388189
1.060179 2.4044397 3.435523
1.3043797 2.4028509 3.4061649
1.4414389 2.4049129 3.4292951
1.4702797 2.4052303 3.4270766
1.5180831 2.4057672 3.4254847
1.5586078 2.4018822 3.4492009
1.7687697 2.4069738 3.4190917
1.8215017 2.4114816 3.4195671
1.8541796 2.4048424 3.4252698
1.9107622 2.4038 3.4463396
1.9768496 2.4086711 3.423177
2.0213993 2.4066644 3.4311771
2.0701976 2.412096 3.4333699
2.156302 2.4053636 3.4273858
2.2062619 2.4139204 3.4161904
2.4327178 2.4287903 3.4228604
2.4579973 2.4106555 3.4277847
2.6796131 2.4097903 3.4202759
-1.2720208 2.3953078 3.4898584
-1.2207189 2.3877082 3.4817472
-1.1719649 2.3942544 3.4737716
-1.1222024 2.3936274 3.4860132
-1.0843016 2.3958757 3.4713297
-1.0238944 2.3916533 3.4656539
-0.97287869 2.3865292 3.4694822
-0.92335045 2.3946669 3.4724717
-0.87637818 2.3911223 3.4726844
-0.81998992 2.3910081 3.4807501
-0.79432398 2.3984473 3.483346
-0.72787589 2.3967707 3.4684429
-0.66854459 2.3925228 3.471529
-0.63348305 2.3993988 3.4712069
-0.57521284 2.3984027 3.4777315
-0.39760247 2.3961399 3.4552538
-0.31216097 2.3928332 3.4765282
-0.2737619 2.3928459 3.4790895
-0.24515097 2.394908 3.4837732
-0.17739844 2.3985772 3.4731259
-0.12931599 2.3966167 3.4719284
-0.071874492 2.3979254 3.4751158
-0.023939889 2.3992777 3.4776258
0.023958785 2.3928678 3.4683208
0.081589952 2.3989885 3.4765401
0.12438557 2.3863344 3.4667237
0.17745487 2.3882325 3.4772403
0.22563693 2.390975 3.4790707
0.27309206 2.3862612 3.469517
0.31791228 2.3837552 3.4692643
0.36877874 2.3950427 3.4562159
0.44617885 2.3896332 3.4603891
0.47489154 2.3796835 3.4620466
0.52495533 2.3844297 3.4731364
0.57250631 2.3867302 3.4608579
0.61206925 2.3910241 3.4618874
0.72504836 2.3946831 3.4897251
0.94771498 2.3969443 3.4912772
0.98739707 2.3979299 3.4839976
1.015944 2.3957601 3.4740376
1.088784 2.3950224 3.4759808
1.1284236 2.3905945 3.4692662
1.1784396 2.3871861 3.4609571
1.2257462 2.3927283 3.4778295
1.269331 2.3900864 3.4823947
1.3203932 2.3924613 3.4707203
1.4234414 2.3950243 3.4857812
1.4746372 2.3965249 3.4707355
1.5464593 2.3941026 3.4863408
1.5756183 2.392215 3.47228
1.8455462 2.3997502 3.4691243
1.8800931 2.3967474 3.4976354
1.9820662 2.3963516 3.4741933
2.1822684 2.3915992 3.4941974
2.2261264 2.3929017 3.4727771
-1.2684882 2.4085674 3.4689777
-0.76817298 2.4044456 3.4837132
-0.614645 2.4013748 3.4768136
-0.57588601 2.4012303 3.4817879
-0.52627134 2.4052896 3.4745092
-0.48933947 2.4040027 3.4963207
-0.42098382 2.4010241 3.4989185
-0.21597797 2.4009299 3.4748292
-0.072003148 2.4023106 3.4815118
0.062440265 2.4004092 3.4789085
0.39064497 2.4117846 3.4787185
0.41908127 2.409018 3.4720745
0.64864796 2.4195611 3.4990311
0.67627829 2.4151118 3.461957
0.70319194 2.4059696 3.4704432
0.86826104 2.4141011 3.4931595
0.92970258 2.420836 3.490772
1.049394 2.4049418 3.4803133
1.069151 2.4050636 3.4756606
1.2154356 2.401866 3.4739268
1.3771234 2.4045081 3.4722967
1.4068582 2.4040208 3.4617076
1.4782611 2.4024439 3.4792514
1.5304627 2.405205 3.4651997
1.7688539 2.4144952 3.480195
1.8173796 2.4058268 3.4762077
1.8815734 2.4061837 3.4642453
1.9064195 2.4036911 3.4982007
1.970184 2.4050691 3.4705567
2.4400666 2.4251885 3.4688103
2.4555502 2.4077837 3.4818056
2.6974218 2.4242947 3.4815478
-1.3077819 2.3841987 3.5488133
-1.2709972 2.3921859 3.5286684
-1.209499 2.3897955 3.5422072
-1.1810575 2.3929083 3.5118036
-1.1309204 2.3922908 3.5240619
-1.0841537 2.3990002 3.5465155
-1.0151989 2.3977067 3.5186639
-0.96537048 2.3969562 3.5286815
-0.92289013 2.3894942 3.5260704
-0.87489641 2.39323 3.5415807
-0.84272575 2.3959394 3.5314381
-0.77969986 2.3939123 3.5193675
-0.73104191 2.3951821 3.5295582
-0.62486637 2.3946819 3.5288033
-0.57974696 2.3929272 3.5182509
-0.53120983 2.3986454 3.5229173
-0.47229338 2.3964181 3.5261612
-0.36421221 2.3901966 3.526917
-0.26670742 2.3868918 3.5287986
-0.23438156 2.39344 3.5273199
-0.16937542 2.3925011 3.5223737
-0.13049951 2.3989828 3.5137393
-0.024070412 2.3939939 3.5082881
0.014543177 2.3968844 3.5125666
0.072709322 2.3949747 3.5286248
0.12107202 2.3914385 3.5223575
0.17953378 2.3871796 3.5335071
0.2280726 2.387423 3.531713
0.27684763 2.390166 3.5330608
0.31541425 2.3877265 3.5269496
0.73854625 2.387372 3.5165195
0.99416524 2.3945665 3.5186989
1.0304723 2.3956599 3.5260706
1.0742825 2.3937106 3.5237396
1.1302699 2.390739 3.5219331
1.1687038 2.3878291 3.5071726
1.2271181 2.3928456 3.5250511
1.2775829 2.3855839 3.5161541
1.3260646 2.3906834 3.5320334
1.396124 2.39994 3.5029507
1.5354209 2.3983383 3.5206089
1.5784665 2.391582 3.5164583
1.8934907 2.392827 3.5346179
1.9314536 2.389529 3.5280962
1.9702337 2.3886077 3.5424609
2.1463757 2.3991525 3.5279171
2.2499089 2.3968618 3.5226443
-1.0701095 2.4098685 3.5247231
-1.0483075 2.4055209 3.523154
-0.98834705 2.4046817 3.5356743
-0.860425 2.4002106 3.5141203
-0.70396477 2.4031961 3.5460954
-0.69114673 2.4028172 3.5273905
-0.50230902 2.4002733 3.528681
-0.46109509 2.408318 3.505712
-0.43696287 2.4050951 3.5295353
-0.20803556 2.4008627 3.5136228
-0.13064978 2.4016073 3.5176244
-0.072647519 2.4051571 3.5241079
0.043661244 2.4042253 3.52315
0.063042752 2.4041419 3.5228007
0.37529877 2.4082179 3.5331423
0.42530894 2.4250412 3.533951
0.67403781 2.4261191 3.5349779
0.70739567 2.4008226 3.5018315
0.88817519 2.4196141 3.5248177
0.92088741 2.419008 3.5171926
1.3681037 2.4037971 3.5183034
1.4286962 2.4006279 3.5383308
1.48334 2.4067903 3.5301907
1.5121473 2.4040163 3.5154634
1.7788534 2.4073787 3.5118854
1.8273082 2.4095066 3.5441165
1.8656926 2.4050224 3.5191314
2.0239942 2.4080477 3.5184639
2.0861073 2.4004679 3.508074
2.4432156 2.428129 3.5313993
2.4753666 2.4051378 3.5231361
2.6882334 2.4136975 3.527626
2.7077749 2.4110546 3.5085959
-1.2706167 2.3903015 3.5697134
-1.2206694 2.3915761 3.5858226
-1.1784431 2.394695 3.5730908
-1.120387 2.3923666 3.5698051
-1.0736624 2.3940058 3.5731454
-1.0279849 2.3976965 3.5790939
-0.97231603 2.3942242 3.5647209
-0.91944402 2.3864136 3.5635686
-0.88268304 2.3945622 3.5836897
-0.82437956 2.3896303 3.570334
-0.77848482 2.3908134 3.5761631
-0.67888701 2.3992443 3.5845327
-0.56519276 2.3992562 3.559572
-0.52513009 2.3959291 3.5593088
-0.47504911 2.3907979 3.557075
-0.42700151 2.3960595 3.569756
-0.31700718 2.381079 3.5561364
-0.16197243 2.3966908 3.5876336
-0.11878129 2.3970799 3.563282
-0.092870265 2.3969488 3.5702519
-0.021097258 2.3973486 3.5651903
0.014726879 2.3970568 3.5713139
0.083199546 2.3972673 3.5709333
0.10926773 2.3931267 3.5707321
0.18166719 2.3960161 3.5859234
0.22053167 2.3910995 3.5768194
0.27926943 2.38638 3.5764823
0.33166727 2.3855989 3.5751715
1.026742 2.3946669 3.5747223
1.071231 2.3946369 3.5855792
1.1278745 2.3817344 3.5616965
1.1930155 2.3968182 3.5582542
1.2205873 2.3912687 3.5854874
1.2792374 2.3873618 3.5625668
1.3268577 2.3799481 3.5808806
1.769545 2.3953598 3.5925648
1.8929492 2.397701 3.5946221
1.9248166 2.38466 3.5561464
2.1575751 2.3901279 3.5587819
2.7220602 2.398365 3.5990601
-1.2454836 2.401103 3.5505333
-1.1460915 2.404134 3.582243
-0.72998405 2.4043541 3.5844934
-0.66652745 2.4102335 3.5624704
-0.64975923 2.4014916 3.5922153
-0.44737315 2.4000154 3.5737758
-0.25141424 2.4068043 3.5988264
-0.22099252 2.4071198 3.5810423
-0.19110052 2.4022269 3.575093
-0.13281152 2.4019823 3.5965042
-0.060305774 2.4025478 3.5725582
-0.034385547 2.401298 3.5972536
0.044169597 2.4026852 3.5795217
0.14271104 2.4012702 3.59516
0.16230807 2.4000835 3.5927389
0.22157587 2.4029615 3.5946085
0.38819426 2.417897 3.5661945
0.42587003 2.4207675 3.5804138
0.45720574 2.4191837 3.5617371
0.63868415 2.4264975 3.5709739
0.67762548 2.407789 3.5707395
0.87927508 2.4049518 3.5590379
0.92205286 2.4129055 3.5627849
0.98697883 2.4054613 3.5794175
1.0063657 2.4039097 3.5726736
1.1754434 2.4020469 3.571398
1.3784504 2.4016457 3.5562217
1.4192988 2.4055173 3.5799096
1.4747819 2.4056988 3.5771742
1.5156498 2.4053569 3.5625789
1.577698 2.4113634 3.5741959
1.7827827 2.4059157 3.5566418
1.8345492 2.4118192 3.5951371
1.8739394 2.4081266 3.571327
1.918749 2.4034665 3.5938053
2.0657728 2.4049435 3.5798628
2.4700749 2.4214025 3.5802639
-1.335737 2.3938773 3.6467702
-1.2688121 2.3856502 3.6070614
-1.2290204 2.3875456 3.6212287
-1.1749946 2.3864264 3.6226239
-1.1305734 2.388752 3.6157029
-1.066973 2.3876321 3.6183605
-1.0006971 2.3944752 3.6013658
-0.97304946 2.3954532 3.6375
-0.91979128 2.3933744 3.6165953
-0.87065494 2.3964257 3.6310077
-0.8164708 2.3851256 3.6230371
-0.789496 2.3945055 3.6424968
-0.71598363 2.3941059 3.6328645
-0.67240399 2.3916304 3.6147528
-0.57355356 2.3948154 3.6329069
-0.5190385 2.3953173 3.6264789
-0.47597152 2.3974857 3.6235332
-0.43030629 2.3948088 3.6076508
-0.31327531 2.3878756 3.646801
-0.2519922 2.3925645 3.6172798
-0.16324338 2.3955102 3.6256692
-0.11364507 2.3931866 3.6236212
-0.08408422 2.3962793 3.6289201
-0.024689246 2.3960862 3.6293173
0.014891249 2.3950796 3.6278358
0.12374159 2.3900776 3.6286821
0.17311868 2.3939667 3.6229966
0.2175796 2.3886425 3.6231036
0.26224399 2.3850498 3.6254749
0.32156518 2.3878806 3.6193306
1.0227796 2.3932495 3.6232727
1.0790076 2.3918037 3.6223831
1.1770128 2.3919098 3.6129122
1.2230483 2.3956532 3.6364355
1.2854342 2.3974795 3.6221938
1.3143644 2.3942223 3.6084146
1.4102864 2.3977535 3.6308436
1.862705 2.3920779 3.6485014
1.9258573 2.3910124 3.6190183
1.9524372 2.3974636 3.6191676
-1.3103381 2.4057565 3.6286399
-1.0745287 2.4044716 3.6438208
-0.9836399 2.4019377 3.6169829
-0.75686377 2.4067683 3.6252832
-0.73527801 2.4017506 3.6209521
-0.62430125 2.4081082 3.6264305
-0.5729531 2.4072504 3.6214266
-0.53040278 2.4000854 3.6053369
-0.41300607 2.4093111 3.6312971
-0.2727285 2.401089 3.6290581
-0.21943186 2.4032342 3.6217377
-0.19344114 2.4019158 3.6342454
-0.13392173 2.402216 3.6367702
-0.064167157 2.40259 3.6188118
0.044723798 2.4029958 3.6396506
0.071065784 2.4048846 3.6288364
0.42251936 2.4142385 3.6217771
0.4632113 2.4210091 3.6242042
0.6413241 2.4067054 3.6014788
0.673648 2.4256442 3.6053433
0.70300758 2.4136889 3.6031959
0.88914859 2.4118478 3.6096704
0.92616224 2.4298816 3.6306365
1.0830424 2.4006364 3.6358004
1.1237767 2.4007757 3.6261902
1.2564425 2.4007826 3.6358397
1.3797799 2.4063137 3.6241829
1.4295342 2.4056985 3.6151652
1.4750026 2.4022448 3.6175604
1.5345315 2.4040408 3.6240249
1.5765041 2.4064138 3.6213102
1.8163866 2.4062872 3.6263475
1.8553879 2.4039643 3.6224842
2.0672107 2.4101429 3.6427276
2.4615841 2.4237535 3.6301432
2.7029572 2.4245276 3.6056564
-1.3477466 2.3945723 3.6904602
-1.2292585 2.3873768 3.6657422
-0.96381599 2.3874249 3.6841078
-0.92867619 2.3961055 3.6619198
-0.87815738 2.3967562 3.6727452
-0.82613397 2.3930075 3.6761675
-0.76995379 2.3931592 3.6718194
-0.45767999 2.394923 3.6870158
-0.42605445 2.3968325 3.6723099
-0.39784542 2.3980873 3.6972847
-0.22501202 2.3912168 3.6773281
-0.19499844 2.3912072 3.6786594
-0.11481316 2.3978124 3.6709883
-0.074702196 2.3934956 3.6651461
0.0050456761 2.3972511 3.6715126
0.12429193 2.3861322 3.6528277
0.17405644 2.3869615 3.6525712
0.2247178 2.3908694 3.6700242
0.2787315 2.390399 3.6800737
0.3217068 2.3933864 3.679306
1.0255239 2.3883491 3.67259
1.0787323 2.3932621 3.6686311
1.1673732 2.3971717 3.6758561
1.2232784 2.3956158 3.6812391
1.2724109 2.3910024 3.6602144
1.3045862 2.3933301 3.655072
1.3671788 2.3920095 3.6805174
1.4446371 2.3893611 3.6755538
1.4686153 2.3944421 3.6767097
1.5827917 2.3986955 3.6694837
-1.3148328 2.4122734 3.6838284
-1.2793502 2.404197 3.6802752
-1.1033993 2.4026701 3.678122
-1.0339861 2.4049938 3.6539962
-0.72166359 2.4029651 3.6667314
-0.67280483 2.4087348 3.6830425
-0.63272536 2.4103398 3.6910708
-0.57025212 2.4029479 3.6874008
-0.50971872 2.4031777 3.6946087
-0.46746805 2.4033451 3.6785183
-0.16503739 2.4020329 3.6759725
-0.13517712 2.4047019 3.6810117
-0.024998613 2.4060616 3.6849313
0.035071436 2.4018741 3.6784582
0.075255848 2.406693 3.6853793
0.42765403 2.4153659 3.6801662
0.46791014 2.415401 3.6764631
0.64929193 2.4164584 3.6566577
0.67666167 2.4158385 3.6769366
0.89900929 2.4182639 3.6603298
0.9258343 2.4124608 3.6716065
0.96953326 2.4218752 3.6952
1.0327098 2.405138 3.698463
1.125605 2.4060249 3.6784334
1.1557115 2.4045541 3.6686101
1.3340187 2.4092455 3.673383
1.3628252 2.4051409 3.6579204
1.4174483 2.4067922 3.6905644
1.4888875 2.4039259 3.6628246
1.5260285 2.4024992 3.6717772
1.7955173 2.4091873 3.6570151
1.8497138 2.402921 3.6740723
1.9001192 2.4124901 3.6704161
2.443748 2.4168618 3.6862264
2.4826624 2.4218264 3.6741507
2.7199469 2.4149914 3.6812935
-0.96317369 2.3907309 3.7335205
-0.93064052 2.3967874 3.727922
-0.87438846 2.3939207 3.7120113
-0.82408494 2.3962855 3.7248032
-0.78339505 2.3970921 3.7329183
-0.73260099 2.3984327 3.7430716
-0.63694406 2.3958325 3.7310705
-0.56351197 2.3970571 3.7209215
-0.52300084 2.3974755 3.7261093
-0.42039034 2.391577 3.7268343
-0.39997941 2.3906877 3.7271605
-0.16596437 2.3954754 3.7067893
-0.095696174 2.3993981 3.7147789
0.02520624 2.3944671 3.7079861
0.075462922 2.3937001 3.7063103
0.12617065 2.3929791 3.7247813
0.17668438 2.3926039 3.7226603
0.23867528 2.3970122 3.7476721
0.27930546 2.3970737 3.7456243
0.32898369 2.3890333 3.7298937
1.0382481 2.3973601 3.728796
1.0870937 2.3912244 3.7076678
1.1334386 2.3917141 3.7200119
1.1679505 2.3884614 3.7287629
1.2773091 2.3989148 3.7179554
1.3400819 2.3993227 3.7009761
1.3712083 2.3964069 3.7336278
-1.3242862 2.4087181 3.721312
-1.2942944 2.4113069 3.7341313
-1.1192975 2.4164522 3.7418094
-1.0823281 2.4243557 3.7185595
-0.75386304 2.4008822 3.7437401
-0.72972089 2.4094622 3.7181807
-0.67723155 2.4042819 3.7176812
-0.6123293 2.409445 3.7204325
-0.5854032 2.4035568 3.7285881
-0.5414381 2.4095166 3.7010279
-0.4731971 2.402534 3.7392178
-0.44286969 2.4036112 3.7437794
-0.12613901 2.4034798 3.7203946
-0.065820605 2.4126472 3.7357874
-0.025199028 2.4035461 3.7220745
0.025286498 2.4027371 3.7208347
0.11629608 2.4061778 3.7248342
0.23733652 2.4038351 3.7168026
0.41911319 2.4039154 3.7045846
0.46147925 2.4142303 3.7167752
0.66715205 2.4042683 3.7191548
0.70100927 2.4156432 3.7323968
0.91563123 2.4215617 3.7491868
0.95853049 2.4254122 3.7470467
1.060562 2.4011102 3.7300563
1.1915493 2.404546 3.7271762
1.2261238 2.4007459 3.734694
1.2573885 2.4006875 3.7263517
1.3060249 2.4134531 3.7346964
1.398764 2.4076762 3.7449336
1.433105 2.412149 3.7422512
1.4999186 2.4006684 3.7010796
1.5185332 2.4029613 3.7230353
1.5729455 2.4125612 3.7297823
1.6023266 2.4069905 3.7260289
1.8473696 2.4063241 3.7330332
1.8732163 2.411716 3.7324536
2.4706583 2.4095094 3.7159407
2.5091159 2.4137602 3.7027421
-0.96018887 2.388371 3.7746496
-0.93305224 2.3986068 3.7969165
-0.88367808 2.398638 3.7617517
-0.82053757 2.3953447 3.7674677
-0.77775514 2.390728 3.7669253
-0.72737074 2.394489 3.7808356
-0.63530129 2.3974233 3.798347
-0.56774884 2.394609 3.7589929
-0.52562356 2.3891389 3.7549708
-0.4658924 2.3969171 3.7734034
-0.44427729 2.3908136 3.7656839
-0.22008885 2.3965919 3.7899282
-0.18869276 2.3976526 3.7718549
-0.12801272 2.3980246 3.7954106
-0.097094178 2.3935595 3.7890487
0.045799565 2.3996372 3.7573671
0.08635097 2.3965788 3.7520366
0.1172795 2.3968577 3.7728291
0.17869359 2.3893933 3.7801909
0.21998897 2.3941884 3.7861381
0.27090466 2.3922889 3.7805939
0.32293889 2.3991518 3.788394
0.35068375 2.3787794 3.7541583
1.0359002 2.3951037 3.7703521
1.1376045 2.3911669 3.7863593
1.1780434 2.3882225 3.7715735
1.2235132 2.3951786 3.7720671
1.2884954 2.3988721 3.7612362
1.3099446 2.3996379 3.7566633
1.3816757 2.3935101 3.7729051
-1.3465173 2.4087744 3.7619042
-1.1119694 2.4168499 3.7743862
-1.0726799 2.4287069 3.7727907
-0.90637398 2.4040101 3.7663434
-0.8675642 2.411303 3.7853618
-0.78408629 2.4102037 3.7976608
-0.71396595 2.4046898 3.7559047
-0.68037182 2.4078078 3.7765265
-0.61057395 2.4020977 3.7658026
-0.57344091 2.4185443 3.796519
-0.51009649 2.4122503 3.7934659
-0.41557297 2.4020252 3.786016
-0.38505486 2.4036992 3.7911556
-0.2198205 2.4141273 3.7753718
-0.1786669 2.4042022 3.7754867
-0.12718795 2.4029016 3.7610316
-0.076389782 2.4055381 3.7661943
-0.025382722 2.4015975 3.760571
0.015343174 2.4054694 3.7666774
0.066703141 2.4204211 3.7896791
0.13789648 2.4007545 3.7784395
0.20939994 2.4106255 3.77036
0.428774 2.4123676 3.7730148
0.46714032 2.4129677 3.7775803
0.67274463 2.4038692 3.7605362
0.70589876 2.4118681 3.7686913
0.93691391 2.4271705 3.783741
0.96661484 2.4249539 3.7891626
1.0839736 2.4094453 3.7837324
1.1138798 2.4061909 3.7714732
1.1868389 2.4059739 3.7996521
1.2473193 2.4005797 3.7751303
1.2723064 2.4080379 3.7812886
1.3422061 2.4198735 3.7824066
1.4210662 2.4064121 3.7837787
1.476655 2.4103289 3.7735376
1.5257982 2.4063892 3.7834072
1.5742035 2.407778 3.7863514
2.5048759 2.4087646 3.7563715
-1.3439218 2.3995781 3.8420024
-1.1804996 2.3936951 3.826601
-0.95893371 2.3902867 3.8231301
-0.93975657 2.3948288 3.8344321
-0.80749619 2.3972569 3.8169117
-0.78717154 2.3988242 3.8227646
-0.72358412 2.3954303 3.8268216
-0.67242122 2.3986175 3.83922
-0.40787014 2.3965268 3.8207362
-0.38746101 2.3980448 3.8247945
-0.22102766 2.3862455 3.8159423
-0.067071274 2.3966596 3.8370242
-0.036041562 2.3934395 3.8321972
0.046570227 2.3985655 3.8403234
0.13919057 2.3916311 3.8275113
0.18085158 2.3972731 3.8352337
0.29417968 2.3948565 3.8260381
0.41789195 2.3941326 3.8161085
0.4590883 2.3937666 3.8119094
1.1474549 2.3907063 3.8295417
1.1729786 2.3996608 3.8388603
1.3193138 2.3936157 3.8384423
1.3757994 2.3989866 3.8321998
1.5385846 2.3977246 3.8296931
-1.3582073 2.4083676 3.8053575
-1.328437 2.4230189 3.8152237
-1.1131282 2.4064574 3.81779
-1.0879459 2.4272046 3.827668
-0.91460341 2.4049199 3.810853
-0.87433416 2.4092445 3.825285
-0.84106791 2.4143589 3.8171825
-0.66824228 2.4044366 3.8053513
-0.61906046 2.4146655 3.8282933
-0.57649827 2.4106324 3.826844
-0.52391231 2.4077873 3.8280594
-0.47691643 2.411546 3.8279715
-0.43059564 2.4081101 3.8374701
-0.2020824 2.4055383 3.8476646
-0.17050651 2.4087613 3.8325288
-0.06681478 2.4076948 3.8119221
-0.02224333 2.4037688 3.820318
0.02588103 2.4098511 3.8263865
0.077147529 2.4065399 3.8099532
0.14888954 2.4024549 3.8018765
0.21215567 2.4009223 3.8398783
0.2750842 2.4083781 3.8488107
0.32660347 2.405498 3.841115
0.3568908 2.4001801 3.830533
0.42908719 2.4092555 3.8179045
0.68593407 2.4106984 3.8278387
0.71417683 2.4088264 3.8281746
0.92854428 2.4137163 3.8229222
0.96029305 2.4144347 3.8180056
1.0370237 2.4010026 3.8254344
1.0705062 2.4052672 3.8254228
1.1130562 2.4060507 3.8172488
1.2164799 2.4017341 3.8317966
1.2713263 2.4050078 3.8234019
1.3249286 2.4057438 3.8102424
1.3623601 2.4049015 3.8223302
1.4651378 2.4050789 3.8165693
1.5215 2.4048412 3.8479621
1.5918144 2.4129689 3.8398139
-0.91660833 2.3956592 3.8857694
-0.86448663 2.3980334 3.8989708
-0.82509971 2.3972616 3.8587928
-0.79413986 2.3990107 3.8667073
-0.73958814 2.3927217 3.8645468
-0.67556667 2.3889318 3.8672316
-0.62474352 2.3948767 3.8835638
-0.55749267 2.3975551 3.8515584
-0.45362762 2.3993969 3.8649333
-0.20325674 2.3986619 3.8798645
0.026135618 2.3996291 3.8854012
0.18222173 2.394752 3.8743305
0.21350513 2.3953493 3.8741024
0.35967395 2.3875597 3.8751488
0.44339937 2.399863 3.8666487
1.0427902 2.3931665 3.856976
1.1703448 2.3947673 3.8781521
1.2214707 2.3902376 3.8579428
-1.3136625 2.4167306 3.8641989
-1.292835 2.4242477 3.8989408
-1.1004845 2.4038153 3.8625469
-1.0831269 2.4231548 3.8760347
-0.90094882 2.4033439 3.8558698
-0.86079592 2.4089315 3.8722675
-0.77489001 2.404557 3.878927
-0.71037233 2.4003015 3.8813269
-0.6225968 2.4076149 3.860347
-0.58163732 2.4112449 3.8711879
-0.5275532 2.4036489 3.8647008
-0.48650026 2.4071755 3.8745489
-0.43298855 2.4006152 3.868717
-0.39368695 2.4155705 3.8962176
-0.17167115 2.4043045 3.8684525
-0.13039263 2.4115672 3.8813601
-0.092202298 2.4098461 3.8866427
-0.015637055 2.407335 3.8979192
0.019212464 2.4042838 3.8784809
0.078062698 2.4137506 3.8642464
0.10961641 2.4213076 3.8757808
0.15167326 2.4054987 3.8927464
0.23355128 2.4081736 3.8505642
0.26953414 2.4065599 3.8751068
0.33940676 2.4021363 3.8783185
0.47978055 2.4149179 3.8732002
0.67507809 2.4076915 3.8538222
0.71243715 2.4068966 3.8920496
0.9302094 2.4244065 3.8858585
0.97104347 2.4201908 3.8710482
1.0798039 2.4048622 3.869
1.1368583 2.413101 3.8703611
1.2918414 2.4020987 3.8606503
1.4257966 2.4160564 3.8641768
1.4680324 2.4059398 3.8664355
1.5565544 2.4038672 3.8852878
1.6129705 2.4065986 3.8718185
-1.3218244 2.3942692 3.9360621
-0.9222666 2.3890696 3.9197433
-0.86003006 2.3939846 3.9389639
-0.75741279 2.394871 3.9106915
-0.56717026 2.3967471 3.9382856
-0.45772105 2.3999932 3.9096839
-0.43955863 2.3946528 3.9471347
-0.37350366 2.3998084 3.9161596
0.0053197285 2.3988996 3.9281154
0.19444653 2.3962593 3.9201722
0.21500148 2.3911467 3.9109819
0.33093989 2.395658 3.9122698
0.70582098 2.3991559 3.925323
1.0979182 2.3999357 3.9035327
1.2577579 2.3973963 3.9093916
1.4652091 2.3973446 3.9016244
-1.3193263 2.4115412 3.9182827
-0.82448131 2.4050868 3.917465
-0.78168637 2.4043648 3.9229984
-0.56523782 2.4097228 3.9150393
-0.52304012 2.4099929 3.9199123
-0.48010641 2.406702 3.9186938
-0.42331156 2.410795 3.9155619
-0.39575818 2.4071615 3.9265912
-0.20632401 2.4136887 3.9482598
-0.17024465 2.4091928 3.927475
-0.10020322 2.4069004 3.9402533
-0.068388082 2.4105201 3.9246516
-0.036822636 2.4242723 3.9252362
0.078747839 2.4139166 3.9079947
0.11764763 2.4157929 3.9249897
0.16334674 2.4025612 3.9315557
0.23686765 2.4002306 3.9249251
0.27234891 2.4107773 3.9257183
0.30034953 2.4029014 3.9260302
0.47036907 2.4103272 3.9255848
0.68424767 2.4085283 3.9212267
0.7302655 2.409781 3.9397392
0.7506609 2.406821 3.9318438
0.93596125 2.4178944 3.9199657
0.97996116 2.4210086 3.9169426
1.0673101 2.4033697 3.9160099
1.1224875 2.4066913 3.9097803
1.218122 2.4043818 3.9314554
1.4078127 2.4109559 3.9427845
-1.3118645 2.3940246 3.9878414
-1.291365 2.3967235 3.9979155
-0.85813046 2.3970873 3.9913743
-0.81529194 2.3980827 3.9999263
-0.76532853 2.3984809 3.9615128
-0.41865361 2.3962629 3.9515293
0.18565241 2.3974252 3.9668815
0.28124875 2.3986282 3.964659
-1.3070599 2.4071445 3.9629252
-1.2901927 2.4165208 3.9839675
-0.83134055 2.4036479 3.9601448
-0.74447453 2.400269 3.9675746
-0.61641628 2.4021797 3.9874494
-0.59618568 2.4070711 3.998039
-0.51802945 2.4149408 3.9737282
-0.47345743 2.4053164 3.9619114
-0.38814849 2.404387 3.9673727
-0.17588168 2.4106367 3.9890895
-0.12725946 2.4090412 3.9654319
-0.065459751 2.4086137 3.9733303
-0.026480407 2.4117022 3.971314
0.040828478 2.4122305 3.9795735
0.079839684 2.4150319 3.9762688
0.13314866 2.4067829 3.9839768
0.21799393 2.4031456 3.9751399
0.34634948 2.408618 3.9773695
0.36778378 2.4094348 3.9772763
0.47361717 2.4056418 3.9624765
0.69251704 2.4054279 3.9835467
0.71325517 2.4029613 3.9765849
0.93160313 2.4129894 3.9590962
0.97761995 2.4202716 3.9630067
1.0672957 2.4060364 3.9681811
1.4672161 2.4146926 3.9831049
0.48923829 -0.019302588 4.041625
0.5089798 -0.019315077 4.0429988
0.48664567 0.0096724192 4.0202036
0.52592868 0.019359995 4.0224643
-1.3039751 2.3979194 4.0472317
-0.90841877 2.3942313 4.0254736
-0.8666513 2.3990755 4.040925
-0.73904061 2.3959579 4.007514
0.069581255 2.396275 4.012867
0.21941766 2.3974209 4.0107508
0.69713151 2.3998268 4.0199246
-1.2818863 2.4203241 4.0428071
-0.67955971 2.4146235 4.0474424
-0.64459634 2.4058766 4.0368195
-0.56462717 2.4099774 4.0063972
-0.51122808 2.4117239 4.0147653
-0.48983648 2.4123936 4.0179057
-0.44708601 2.4141045 4.0245419
-0.3823736 2.4136937 4.028872
-0.17745668 2.4106178 4.0343919
-0.080455884 2.4053891 4.0279722
-0.016104935 2.4150074 4.044663
0.019721568 2.4104984 4.0219026
0.12012605 2.4155843 4.0291476
0.15559909 2.4033308 4.0228868
0.3378292 2.4024236 4.0129685
0.73606807 2.4165478 4.0276456
0.98743623 2.422745 4.0130253
0.47152475 -0.019372199 4.0573959
0.58030164 0.019542579 4.0611062
0.6147036 0.0099169239 4.0927963
-0.64814508 2.3973248 4.06879
-0.36186546 2.399019 4.05162
0.048699088 2.3998783 4.0649524
-1.2874763 2.4085724 4.0707283
-0.77129734 2.4077778 4.0706701
-0.71655142 2.4075494 4.0778461
-0.69656789 2.4141238 4.0918484
-0.4508889 2.4128985 4.0685306
-0.38376129 2.4008224 4.053174
-0.13546449 2.4179065 4.0708718
-0.059574131 2.418576 4.0733986
-0.037830018 2.4149091 4.0674047
0.027145142 2.4053354 4.0743451
0.09230753 2.4205515 4.0762987
0.12501711 2.4131141 4.0861554
0.15752906 2.4113977 4.0824199
0.63872123 -0.019719038 4.1188893
0.66302127 -0.019851694 4.1449633
0.59865296 0.039654497 4.1194596
0.63659817 0.0099530285 4.1051941
0.65942329 8.5698222e-05 4.122489
-1.2846235 2.416292 4.1196251
-0.53142369 2.4114676 4.1058702
-0.45455086 2.4105783 4.111269
-0.43415853 2.4190288 4.1274567
-0.36914062 2.4252017 4.142797
-0.082493886 2.4223082 4.1494946
0.016456909 2.4051304 4.1206446
0.071446933 2.4165254 4.1397471
0.1149886 2.4084604 4.1251984
0.20362718 2.4212861 4.1446457
0.6870898 -0.030016225 4.1678596
0.70975214 -0.030123215 4.1809998
0.68648356 8.8704823e-05 4.1642413
-0.3715395 2.4187696 4.1793637
-0.038759511 2.4188976 4.1917357
0.73483449 -0.040443495 4.207026
-0.3962307 2.4341645 4.2044392
-0.10651657 2.4239526 4.2480869
-0.016731765 2.4197967 4.2417703
-0.40083709 2.4172773 4.2725525
0.6946702 0.04186964 4.3426819
0.8216821 0.12569956 4.3360381
-0.43957889 2.4217026 4.327795
-0.085385919 2.4388938 4.3241673
0.73506957 0.035191398 4.3722739
0.77432704 0.031707071 4.3714809
0.73241866 0.073852494 4.3774323
0.77305162 0.073711969 4.3640299
0.80611521 0.073833749 4.3685026
0.73690301 0.11264843 4.3822227
0.77330655 0.12634932 4.3646741
0.80901837 0.1314216 4.3541684
0.77904195 0.1759388 4.3757286
0.81580287 0.17904642 4.3605719
0.82358056 0.21877562 4.3817277
-0.40892905 2.4199781 4.3778744
2.5279913 -0.30442291 4.4401321
2.5755045 -0.30586946 4.4464812
2.5419335 -0.28120285 4.4401994
2.5694838 -0.26987499 4.4377394
2.4829266 -0.20976704 4.44104
2.4835272 -0.17475942 4.4431877
2.5151699 -0.16359878 4.4484811
2.5743005 -0.18791842 4.4491463
2.4818635 -0.1279287 4.44134
2.5021634 -0.1277557 4.4262819
2.4660971 -0.08109428 4.4394903
2.5118551 -0.081417486 4.4441991
2.465791 -0.03443516 4.4393473
2.5213802 -0.03454601 4.4358363
2.4788752 0.0005402118 4.4372454
2.5170565 0.00055778783 4.4283261
2.5552125 0.00057580468 4.4189095
0.63116336 0.063721791 4.4169354
0.67580485 0.074581727 4.4272194
0.7045697 0.074245065 4.4042635
0.67823493 0.1068846 4.4427681
0.72179097 0.13486481 4.4209785
3.8820589 0.10686806 4.4092865
0.74850452 0.16995095 4.4070859
3.8996558 0.18680505 4.4269419
3.9291377 0.18697867 4.4104624
0.79324305 0.21303129 4.4136362
3.8175259 0.21161349 4.4308848
3.8770645 0.22180645 4.4328842
3.9178257 0.226831 4.4209371
0.84000421 0.2676166 4.4285316
0.86075002 0.26743191 4.4224653
3.7104158 0.28818709 4.4489532
3.7878196 0.29017508 4.4419003
3.8280802 0.26491198 4.4406929
3.8665464 0.2657738 4.4353838
3.9233682 0.2802738 4.4245186
3.9949646 0.29594451 4.4288249
0.84339863 0.30091146 4.445056
0.86449045 0.32228565 4.4392786
3.6621711 0.32530218 4.4377279
3.7315116 0.32801992 4.4471116
3.7735548 0.32942781 4.4474583
3.8374119 0.33161971 4.4476976
3.8745718 0.33257475 4.4407258
3.9120855 0.32024777 4.4344592
3.9699757 0.33100963 4.4322124
3.8383298 0.3977612 4.4441414
3.8819609 0.38629663 4.4455061
3.9871294 0.37551519 4.4148474
3.7809703 0.43920052 4.4399033
3.9205313 0.41414094 4.4373665
3.9524469 0.40139091 4.4243045
3.7932763 0.47468743 4.4347873
3.8358939 0.46352917 4.4358358
3.8892992 0.45351046 4.4485445
3.922894 0.45435232 4.4366937
3.9581738 0.46873653 4.4250317
4.0101614 0.47174901 4.4325294
3.7627602 0.50039786 4.4460802
3.8848093 0.50611961 4.4384952
3.9276087 0.5216108 4.4357004
3.968847 0.51015598 4.4331532
4.0051804 0.52483356 4.4217963
3.9020038 0.5884133 4.4497013
-0.43625441 2.4439735 4.4196339
2.3387368 -0.31445426 4.4842086
2.3698664 -0.31390807 4.4635191
2.4313898 -0.31584236 4.4727855
2.3322952 -0.27183589 4.4916878
2.3765624 -0.26808074 4.478323
2.4255404 -0.26833564 4.4642286
2.4696393 -0.26930723 4.466538
2.548234 -0.2583614 4.4522395
2.3441114 -0.22164699 4.4984779
2.3776174 -0.22148786 4.4821644
2.4219716 -0.22124502 4.4594936
2.4608417 -0.22158273 4.4524727
2.5081787 -0.23550513 4.4853621
2.5688565 -0.2274009 4.4553299
2.3413382 -0.17467976 4.4946051
2.3760138 -0.17463289 4.4805813
2.4219186 -0.17455553 4.4608865
2.4590058 -0.17468807 4.4506359
2.3418136 -0.12799534 4.4966173
2.3767185 -0.12797742 4.4830232
2.4205265 -0.12780279 4.4594202
2.4622817 -0.12812704 4.4576902
2.3416893 -0.08127296 4.4971256
2.3748631 -0.081192307 4.4802842
2.4187601 -0.081079394 4.4569397
2.3304701 -0.03063046 4.4938273
2.3726625 -0.034488339 4.4765134
2.4210289 -0.034489416 4.4615264
2.3254013 0.00047202807 4.4930625
2.371547 0.0004919332 4.4744945
2.4207656 0.00051323161 4.4610991
2.4579933 0.00052976864 4.4511747
0.62954134 0.08617074 4.4820189
0.63065451 0.10787383 4.4892702
0.6713118 0.12179336 4.4687314
0.67517322 0.15851827 4.4934263
0.75840575 0.21522518 4.4641309
0.80552143 0.25957471 4.4804163
3.575577 0.28564858 4.4808426
3.6034846 0.285835 4.4663792
0.83018088 0.32563823 4.4914284
0.89256579 0.34629413 4.4684715
3.587775 0.31257606 4.4946842
3.6246593 0.32147154 4.4741588
3.7138543 0.31456402 4.4515767
3.8064628 0.34438345 4.4605494
0.88900542 0.37669858 4.4862723
3.5901852 0.37771118 4.4935341
3.6192021 0.37805265 4.480197
3.6697185 0.37929109 4.4680119
3.7200532 0.38048843 4.4546723
3.7652082 0.38243532 4.4588952
3.81756 0.37979329 4.4544187
0.89883083 0.41409135 4.4961305
3.5917108 0.42985651 4.4915571
3.6234434 0.43055254 4.4815245
3.6723404 0.43174511 4.4672241
3.7312376 0.4209666 4.465096
3.7625239 0.42156053 4.4527178
3.595438 0.48230407 4.491828
3.627372 0.48312074 4.4819527
3.6799159 0.48493677 4.4719386
3.7285795 0.4862113 4.4562731
3.7646155 0.47436121 4.4507113
3.5981796 0.5217157 4.4916434
3.6238639 0.54032171 4.4887366
3.6752007 0.53280395 4.4699035
3.7355733 0.52651107 4.4608741
3.7704976 0.52775156 4.4526477
3.8177068 0.51746309 4.4595671
3.8555722 0.51902467 4.4535828
3.5999186 0.57405311 4.4885345
3.6350996 0.57552582 4.4825182
3.6853912 0.56790584 4.4621453
3.7358973 0.5659579 4.4571724
3.7880442 0.56990802 4.4692159
3.8253126 0.55826342 4.4643936
3.8656905 0.56030184 4.4611654
3.9968233 0.5676806 4.4587674
0.73577833 0.76306039 4.487422
0.72434413 0.80607677 4.4802756
-0.41629237 2.440089 4.4662027
3.6322818 -0.41918007 4.5444965
4.0085211 -0.40685353 4.5393472
3.5949559 -0.3917293 4.5494461
3.6286469 -0.37939337 4.5427184
3.965389 -0.37814799 4.5432425
4.0096092 -0.37973735 4.5425396
2.3330245 -0.31686628 4.5271358
2.2994909 -0.28037804 4.5177774
2.3126669 -0.25713679 4.5173693
2.3149233 -0.22223009 4.5230823
2.3137836 -0.17526571 4.5223122
2.3106194 -0.12822047 4.5172057
2.3140953 -0.081560709 4.5247688
2.2932682 -0.02288227 4.5115438
2.3091586 -0.046302594 4.5154247
2.2936463 0.000458116 4.51231
0.5797804 0.086764656 4.5179157
0.58197933 0.11973296 4.5345244
0.61337835 0.11952166 4.5225878
0.62420404 0.17873493 4.5361495
0.66884369 0.18497169 4.5241752
0.70137691 0.19580132 4.5200529
0.71617383 0.22490585 4.5196419
0.75016087 0.26289886 4.5453596
0.81596869 0.32865217 4.5356646
3.5808589 0.33082262 4.5179601
0.83008015 0.38488245 4.5487456
0.86603421 0.38661477 4.5210013
3.5637951 0.36598355 4.5356131
0.87151349 0.42763668 4.5277247
0.90126073 0.43705869 4.5069056
3.5722799 0.43058485 4.516736
3.5716915 0.48258179 4.5116301
3.5665793 0.53581703 4.5252042
3.5790701 0.57486242 4.5121136
3.8972843 0.6228109 4.5423698
3.9897964 0.62893766 4.5466576
4.0208111 0.62955463 4.5304465
0.75512463 0.68351704 4.5464778
4.0427265 0.68790615 4.5482931
4.0755868 0.67512351 4.5351596
4.1167512 0.66359502 4.5307574
0.71678632 0.7259832 4.5357189
0.75299799 0.71455866 4.530282
4.0232029 0.74173832 4.5446072
0.68979299 0.77259725 4.5493202
0.70994258 0.78152704 4.533534
0.77227879 0.7887609 4.5035276
0.71086121 0.8155961 4.5355272
3.9319494 0.87372255 4.5484161
4.019423 0.85352051 4.5497217
4.0569539 0.85567343 4.5401511
4.0311661 1.2227789 4.5445986
3.9807875 2.2479296 4.5454192
4.0219307 2.2259881 4.5496793
4.0684252 2.2647414 4.5342898
4.0027642 2.3182936 4.5450063
4.0994887 2.3405433 4.5428548
4.1351504 2.3442352 4.5266604
4.0666313 2.3968723 4.5350208
4.1014385 2.3709264 4.5316739
3.5830255 -0.41961265 4.5825768
3.6040392 -0.41897506 4.5590663
3.8774433 -0.41673505 4.5654473
3.9291883 -0.40435347 4.5505877
3.4676423 -0.36326757 4.5868559
3.5623527 -0.3793878 4.5839353
3.6864371 -0.39587945 4.563601
3.8649659 -0.37637755 4.5791364
3.9161654 -0.37736788 4.5628061
2.3232481 -0.30691904 4.5633717
2.2893934 -0.1407889 4.5573497
2.2981389 -0.070436724 4.5758786
2.3011174 -0.094188735 4.5815234
2.2936146 -0.046714388 4.5670681
0.58973646 0.18018799 4.5764604
0.64360499 0.22009321 4.5787954
0.67596507 0.23090567 4.5710416
0.68987191 0.26497 4.58813
0.72262758 0.28691167 4.5817337
0.73603296 0.3099708 4.5943785
0.7677753 0.33148444 4.5811391
3.5431643 0.3285622 4.5866628
3.5586436 0.32759821 4.5564537
0.7900359 0.3536604 4.5786138
0.81873626 0.38023025 4.5738449
3.5423665 0.3677811 4.5831881
3.5603633 0.39453059 4.5794683
0.83782333 0.42727557 4.5682883
3.5653358 0.43289921 4.557807
0.85056287 0.46704769 4.5939531
3.5751765 0.48654988 4.5660276
3.5590372 0.5142405 4.5933104
3.5245028 0.56554353 4.5939636
3.530921 0.60603553 4.5982299
3.5696681 0.63457602 4.5948453
3.6169398 0.62277412 4.5807858
3.6865363 0.62787557 4.5921168
3.7301366 0.62853634 4.5698261
3.7785571 0.63590729 4.5689402
3.8369961 0.64871716 4.5701561
3.9525867 0.6273303 4.5553341
0.72511321 0.67531866 4.570435
0.75703555 0.66314399 4.5601587
3.6155584 0.66458094 4.599761
3.6810157 0.68626052 4.5952582
3.7328825 0.68484592 4.5922146
3.7796955 0.67265427 4.5745115
3.8786678 0.6782949 4.5650759
3.9721262 0.66537756 4.5562167
3.5833397 0.74300021 4.5993838
3.6190889 0.71836281 4.5976572
3.6738567 0.73466837 4.5885053
3.7427404 0.72697914 4.5991869
3.7758873 0.71476853 4.5903234
3.8212903 0.71206707 4.5774875
3.8767588 0.72474647 4.5739646
3.9649248 0.72484982 4.5574365
4.0030632 0.71315873 4.5514026
0.69106257 0.79613304 4.5551562
3.7182832 0.76501191 4.5890918
3.7788153 0.76920176 4.5865774
3.8192205 0.77195072 4.5841351
3.8731058 0.77103537 4.5805111
3.9279168 0.78385061 4.5749183
4.0131712 0.79729885 4.5511866
0.69255233 0.82001078 4.5623569
3.7478867 0.80873877 4.5942364
3.7753954 0.82880682 4.5909243
3.8228374 0.82682741 4.5805192
3.8759937 0.8350541 4.5744901
3.9359534 0.84731984 4.5574446
0.69516373 0.86759311 4.574079
3.6367857 0.88205874 4.5970817
3.7157886 0.88823473 4.593492
3.7764192 0.87956691 4.5929699
3.8379958 0.89804614 4.5879188
3.8700767 0.87200356 4.5789971
3.986047 0.87967759 4.5590324
3.7227716 0.93031484 4.5954266
3.7607532 0.93308914 4.5906811
3.8196321 0.92405117 4.5870628
3.9086151 0.91551888 4.565958
3.950603 0.93265605 4.5607247
3.6926563 0.99675429 4.5977039
3.7263217 0.98511314 4.5904064
3.7621207 0.97395015 4.5853004
3.8026223 0.96388096 4.5853286
3.8754382 0.96860236 4.5690541
3.9229085 0.95994395 4.5755029
3.9674115 0.99164689 4.5702248
3.7315068 1.0269809 4.5893779
3.7754776 1.0316485 4.5916185
3.8238022 1.0201778 4.5750184
3.8839829 1.0116922 4.5716133
3.5871177 1.0967331 4.5982866
3.7064936 1.0815274 4.5996366
3.7851357 1.0750747 4.5954733
3.8193841 1.077112 4.5850744
3.8590021 1.0806038 4.5805817
3.9432044 1.0750493 4.5783043
3.6222425 1.1126907 4.588954
3.6729152 1.1334984 4.5985332
3.7095478 1.1364899 4.5925026
3.7679391 1.1147749 4.5922155
3.8318205 1.1215957 4.5917192
3.9432764 1.130141 4.5670414
3.9772897 1.1044384 4.5599236
4.0220141 1.1369019 4.5528531
3.7568784 1.1834841 4.5903192
3.8246572 1.1677235 4.5907798
3.9200306 1.172702 4.5832334
3.7261393 1.2230443 4.5954823
3.7717304 1.2290825 4.5994306
3.8337097 1.2253038 4.5895109
3.886502 1.2396753 4.5806518
3.9252243 1.2156533 4.580111
3.9634619 1.2466377 4.5657434
3.6960895 1.2763299 4.5977855
3.7298889 1.2650645 4.5907931
3.7715368 1.2699594 4.5897737
3.8490396 1.2639028 4.5820765
3.8897679 1.2820561 4.5747671
3.9275467 1.2992337 4.5633197
4.0198369 1.2835164 4.5711279
3.7874722 1.3438348 4.5926843
3.8284516 1.3486501 4.5897799
3.8826146 1.3256012 4.5824189
3.793757 1.3735163 4.5934215
3.8163235 1.3717947 4.5683117
3.8683951 1.353036 4.5849924
3.9417658 1.3593798 4.5659919
3.7960026 1.401798 4.5890946
3.8798032 1.4262191 4.5805726
3.90889 1.4129226 4.565855
3.7324252 1.4670167 4.5981908
3.769768 1.4709188 4.5914421
3.8105361 1.476109 4.5882554
3.8814523 1.4821856 4.5674467
3.7847071 1.5236534 4.5780544
3.8724799 1.5728285 4.585834
3.9169931 1.5711931 4.5688291
3.9878771 1.5716108 4.5651264
3.7810812 1.6190146 4.5920277
3.8363128 1.6110129 4.5834045
3.8697088 1.6134003 4.5701184
3.9196734 1.6226137 4.5757256
3.9887679 1.6000162 4.5577083
3.6962068 1.6809372 4.5990529
3.8297939 1.683614 4.5806551
3.8918788 1.6785697 4.5789924
3.9311283 1.6553993 4.5804429
3.7483783 1.7475473 4.5928268
3.7842233 1.7235533 4.5922956
3.8213389 1.7278092 4.5838475
3.8661852 1.7354753 4.5840201
3.9080381 1.7416991 4.5799241
3.7840221 1.7512487 4.5830402
3.878206 1.7829838 4.5843258
3.8426065 1.8214629 4.5813751
3.8942893 1.8326435 4.5889802
3.7426093 1.8972887 4.5919404
3.8145442 1.8774234 4.5818968
3.9167926 1.8765268 4.5842452
3.9174724 1.9286127 4.5861206
3.6833415 1.9790211 4.5957937
3.7693067 1.9810705 4.5992036
3.881753 1.9815161 4.5772719
3.9207635 1.9727818 4.5742216
4.0048308 1.9721535 4.5681162
3.6916904 2.0114384 4.5958176
3.8223991 2.0365605 4.5934596
3.8644364 2.0438819 4.5893993
4.0087056 2.0026634 4.5616732
3.7696609 2.0732412 4.5945883
3.8151553 2.0827208 4.5953875
3.9407609 2.0541713 4.5702567
3.7160184 2.1090429 4.593585
3.9075251 2.1086297 4.5633492
3.6571429 2.1917238 4.5949392
3.7797818 2.1859376 4.5944729
3.8136063 2.1748967 4.5865726
3.9471896 2.1875944 4.5861063
3.9798341 2.1753802 4.5748596
4.0215931 2.1679957 4.5736737
3.7491994 2.2413509 4.5881371
3.8674054 2.2322273 4.5781822
3.9242182 2.2237942 4.5798111
3.6354237 2.2518249 4.5987182
3.6832747 2.2922804 4.5920081
3.7152534 2.2946 4.5768571
3.7775693 2.2640326 4.5892148
3.8294804 2.2799926 4.58571
3.886313 2.2718966 4.5882449
3.9235184 2.2768517 4.5768118
3.9567606 2.2794528 4.5602803
3.6907446 2.3252866 4.5889745
3.7320921 2.3334572 4.5851274
3.7706137 2.3254879 4.583478
3.8765328 2.3196743 4.5740347
3.9371529 2.3281665 4.5735922
3.9685969 2.3152101 4.5611606
4.0599904 2.334594 4.5542812
3.6685288 2.3717599 4.5973845
3.7145875 2.3722918 4.5832863
3.7905753 2.3808234 4.5885534
3.8191586 2.3521268 4.5806861
3.8757901 2.3604839 4.5651984
3.9722302 2.3713617 4.5619836
1.5432062 2.4548612 4.5947981
3.5352995 -0.42023656 4.6218605
3.5717213 -0.42140442 4.6185446
3.5273712 -0.37989867 4.6141882
1.7900716 -0.11556681 4.6308074
1.9493648 -0.11673934 4.6402164
1.9769959 -0.11698146 4.6432157
1.8984915 -0.093140945 4.6441641
0.57986027 0.22094715 4.6024475
0.62693369 0.23863861 4.6196518
0.63994026 0.26716471 4.6314673
0.6723578 0.28348348 4.6212144
3.4194589 0.28758937 4.626781
0.69767922 0.31261584 4.6381955
0.72432679 0.32611158 4.614655
3.3976934 0.34010708 4.6450138
3.4218354 0.32689857 4.627871
3.4733591 0.32810199 4.6210384
3.5191455 0.32874471 4.6057601
0.73164749 0.3686873 4.6352024
0.77000052 0.37115994 4.6150441
3.398638 0.37934378 4.6438417
3.4245698 0.37935829 4.6283388
3.474606 0.38057274 4.6194277
3.5216703 0.38145733 4.6057453
0.74441522 0.40304762 4.6421094
0.77963775 0.42065984 4.6336985
0.81604528 0.43876871 4.6146779
3.4168758 0.43220007 4.639554
3.4763973 0.43314639 4.6180544
3.5299537 0.43494284 4.6127634
3.563508 0.4358511 4.6057882
0.7900703 0.47074017 4.6382284
0.82117194 0.46931362 4.6202836
3.4171445 0.48451725 4.635735
3.4809036 0.48617402 4.6198063
3.5275342 0.47405928 4.6064353
3.5629051 0.47529545 4.6018109
3.4230838 0.52462554 4.6403527
3.4701965 0.52584702 4.6274767
3.5239108 0.51859421 4.6146593
3.439949 0.56453681 4.6339955
3.4845715 0.56542313 4.6173735
3.4328709 0.61287528 4.6364579
3.4781082 0.6131863 4.6122828
3.5187788 0.63250804 4.6047564
3.6542757 0.64019942 4.6010485
3.4283979 0.66967106 4.6325426
3.4772372 0.67155915 4.6216373
3.5231802 0.66926223 4.614934
3.5708492 0.68046093 4.6080594
3.6208346 0.69212997 4.6032395
3.6568534 0.66729879 4.6011581
3.4264572 0.72171694 4.6235476
3.4931941 0.7274822 4.6363511
3.5235193 0.72829288 4.6253157
3.5642021 0.72500628 4.6108818
3.6253884 0.74622619 4.6021605
3.4322722 0.77545583 4.6244998
3.4911699 0.77984416 4.6266708
3.5253904 0.78160304 4.6207089
3.5761433 0.78406209 4.6100674
3.6672831 0.77609962 4.6003804
3.4404936 0.84310794 4.6263094
3.4690881 0.81734133 4.6172609
3.5217378 0.84016067 4.6246953
3.5798235 0.82472312 4.6091204
3.6393027 0.81588644 4.6104441
3.6770897 0.81837106 4.6068873
3.7167966 0.82125914 4.6051412
3.4350443 0.88454145 4.6385908
3.479888 0.89914382 4.6196699
3.5299873 0.87863845 4.6386771
3.5766335 0.86702442 4.6246176
3.6172688 0.86382979 4.609139
3.6811109 0.87291765 4.6037388
3.7191162 0.86212277 4.6018791
3.4205031 0.92374802 4.6383467
3.4621513 0.92434102 4.6174397
3.5326777 0.92252284 4.6266313
3.5812163 0.92149609 4.6220503
3.6236713 0.92775059 4.6072507
3.6790898 0.92383647 4.6102796
3.4407172 0.95207077 4.6356502
3.4645793 0.98152113 4.6374416
3.5338008 0.97278178 4.6284513
3.5921769 0.9778583 4.6271367
3.6288741 0.97368073 4.6062636
3.6758499 0.98238081 4.6047792
3.4210646 1.0333583 4.6468272
3.4700184 1.0228741 4.6376586
3.529047 1.021505 4.6221728
3.5773506 1.0341215 4.6147346
3.6406207 1.0241122 4.6303883
3.6701798 1.024876 4.6161504
3.7005682 1.0258592 4.6026068
3.43454 1.0701262 4.6413307
3.4773705 1.0813063 4.628231
3.5222123 1.0798098 4.6196327
3.576766 1.0708878 4.6158333
3.6394486 1.0641515 4.6213217
3.6703377 1.0653396 4.6087055
3.7242033 1.0557125 4.6009259
3.4330013 1.1166663 4.6480556
3.4811528 1.1326885 4.6323185
3.5351892 1.123891 4.6288128
3.5768859 1.116892 4.6158752
3.6711273 1.1059946 4.6017714
3.4317174 1.1826358 4.632894
3.4616194 1.1705214 4.6240683
3.5346396 1.1712347 4.6362224
3.5796165 1.1698172 4.6266041
3.6243236 1.1682317 4.6157875
3.6770706 1.182651 4.6114664
3.7259622 1.19583 4.6012654
3.4410849 1.2258193 4.6370778
3.477083 1.2024531 4.6391206
3.5214982 1.2219903 4.6431527
3.5691147 1.2245417 4.6273994
3.6153564 1.2265812 4.6090822
3.6790643 1.2344595 4.6117287
3.4475942 1.2548199 4.6400113
3.4563649 1.2847621 4.6458225
3.5289783 1.2783663 4.6410799
3.5735939 1.2738563 4.6134872
3.6305723 1.2993809 4.6130624
3.6683309 1.2760825 4.6150699
3.5349588 1.334434 4.6364045
3.5777125 1.321846 4.6169882
3.674475 1.3190047 4.6131778
3.7229812 1.3188372 4.6051121
3.543345 1.3780898 4.6376171
3.5797846 1.3602897 4.6196737
3.6291702 1.3743929 4.6110988
3.6817665 1.3760692 4.6089821
3.7195303 1.3663517 4.6071649
3.7597637 1.3710973 4.6043892
3.482094 1.4290748 4.6480551
3.527406 1.414905 4.6426125
3.5741532 1.4282397 4.6314158
3.6202917 1.4277151 4.622067
3.6770186 1.4339831 4.6151805
3.7643666 1.4002137 4.6030421
3.4842749 1.4704282 4.6405163
3.5188527 1.473652 4.6337609
3.5756712 1.4804169 4.6290708
3.62905 1.4720258 4.6225405
3.6631553 1.4748195 4.6132221
3.7008049 1.4789894 4.607852
3.4960327 1.5159715 4.6453929
3.5323875 1.547132 4.6332293
3.5593829 1.5199736 4.6233134
3.6369948 1.5162185 4.6215315
3.6663733 1.5034361 4.6098514
3.7188194 1.5191259 4.6025653
3.7562585 1.5453243 4.6084585
3.5746026 1.5673604 4.6316695
3.6207983 1.5671043 4.6219611
3.6740532 1.5835079 4.6164098
3.7239029 1.570856 4.6135077
3.7607512 1.5747867 4.6060281
3.5399027 1.627079 4.6399589
3.583545 1.6259049 4.6274796
3.6208165 1.63042 4.6224108
3.6761808 1.6367831 4.613028
3.7295952 1.6284336 4.6043139
3.5229158 1.6639677 4.6422939
3.581362 1.6883165 4.6244678
3.6288931 1.6752247 4.6203384
3.6785614 1.6653929 4.6077132
3.7458966 1.6632603 4.6160297
3.7704148 1.6957843 4.610877
3.4814484 1.7341007 4.6360121
