ply
format ascii 1.0
comment PCL generated
element vertex 1564
property float x
property float y
property float z
element camera 0
property float view_px
property float view_py
property float view_pz
property float x_axisx
property float x_axisy
property float x_axisz
property float y_axisx
property float y_axisy
property float y_axisz
property float z_axisx
property float z_axisy
property float z_axisz
property float focal
property float scalex
property float scaley
property float centerx
property float centery
property int viewportx
property int viewporty
property float k1
property float k2
end_header
3.4249296 0.56785542 4.6302428
3.4683399 0.56489968 4.6212177
3.5194473 0.56684142 4.6126194
0.78576028 0.60191309 4.6025972
3.424638 0.61655688 4.6333456
3.4761825 0.61877871 4.6261978
3.5271735 0.62082934 4.6171832
3.5780234 0.63606137 4.6056004
3.4311271 0.67020935 4.6362343
3.4773197 0.67155606 4.6217489
3.5279627 0.6737411 4.6121831
3.5828357 0.67666721 4.6071224
3.6183922 0.69166315 4.6001344
3.4315066 0.72279936 4.630352
3.4738348 0.72341669 4.6106606
3.521451 0.7278626 4.6226006
3.5727718 0.73028767 4.6128983
3.6267877 0.73320615 4.6056871
3.4226649 0.7762512 4.6371078
3.4767995 0.77957439 4.6330833
3.5236971 0.78123152 4.6184893
3.5738995 0.78357738 4.6071844
3.6285794 0.77351981 4.6025767
3.4303274 0.83065522 4.64011
3.4742632 0.83173805 4.6222191
3.5316629 0.82275558 4.623302
3.5816844 0.82515258 4.6115227
3.6334167 0.81456923 4.6029863
3.7587225 0.83807528 4.6034746
3.4278836 0.88270503 4.6289196
3.4711342 0.88042551 4.6192975
3.5384698 0.8641957 4.6262445
3.5757203 0.86681426 4.623435
3.6180689 0.87292928 4.6087527
3.682111 0.87317216 4.6049871
3.7235963 0.89010113 4.6031437
3.7605755 0.86550033 4.6015592
3.4277823 0.92216879 4.6225491
3.4709079 0.9266789 4.6291184
3.5214047 0.91630673 4.6210775
3.5769305 0.92039335 4.616519
3.6122108 0.92261517 4.610538
3.6707327 0.92732292 4.6075974
3.7268527 0.9178431 4.602747
3.4253817 0.96468425 4.6383486
3.4796054 0.96877265 4.6340675
3.5324237 0.97240597 4.626657
3.5806606 0.97470802 4.6123047
3.6209955 0.97841859 4.6126199
3.6564014 0.98075998 4.6060839
3.4476953 1.0069532 4.6359549
3.470439 1.0261328 4.6288896
3.5106809 1.0231657 4.6144371
3.5721619 1.0294497 4.6174054
3.6254816 1.033282 4.6086369
3.6636562 1.0365 4.6054268
3.4753017 1.0745491 4.6443863
3.5186894 1.0859121 4.6313415
3.5745411 1.0804662 4.6198382
3.6359313 1.0765734 4.6142845
3.6664593 1.0776709 4.6012449
3.4367659 1.1444881 4.6478834
3.4686482 1.1329463 4.6415653
3.515424 1.1321465 4.6355023
3.5794642 1.1118238 4.6114569
3.632798 1.1231834 4.6185956
3.6737673 1.120285 4.6023383
3.4409277 1.1858172 4.6453266
3.470443 1.1735049 4.6358552
3.5247693 1.1649253 4.632781
3.5708981 1.1743585 4.6316266
3.6260731 1.1687895 4.618032
3.6827888 1.1845083 4.6186481
3.7223108 1.167529 4.602603
3.4368429 1.2375956 4.6284542
3.4816961 1.2174351 4.642396
3.5160527 1.2200987 4.635973
3.5711176 1.2252235 4.629962
3.6248727 1.2298229 4.6212115
3.6625376 1.2334228 4.6169968
3.4888926 1.2735277 4.6401863
3.5238729 1.2765309 4.6343632
3.577853 1.2814677 4.6266036
3.6290479 1.285321 4.6142654
3.6790395 1.2751007 4.6024246
3.4883149 1.3347549 4.6433387
3.532707 1.3335683 4.6334553
3.5672584 1.3364455 4.6263413
3.6037128 1.3264748 4.6244545
3.6685114 1.3168526 4.6056938
3.4314935 1.3657337 4.6457615
3.4812183 1.3802556 4.6405511
3.5362437 1.3753279 4.6283231
3.5990674 1.3788037 4.6052904
3.6215487 1.3551487 4.6145563
3.6769755 1.3742812 4.602984
3.4760013 1.4265742 4.6399221
3.5186517 1.4113737 4.631062
3.5719893 1.4273863 4.6286268
3.6240788 1.4301776 4.6081991
3.6916113 1.4480097 4.6037207
3.7716196 1.4304023 4.604753
3.4726827 1.4737991 4.6413541
3.5191889 1.4737936 4.634203
3.5693586 1.475144 4.6308784
3.7388129 1.4832418 4.6023583
3.7780235 1.4603689 4.6052418
3.4773719 1.5137142 4.6468258
3.5253613 1.538949 4.6440167
3.5832012 1.5243466 4.6278019
3.6378331 1.516573 4.6225958
3.6787493 1.5359249 4.617805
3.7580249 1.546051 4.6106257
3.5454371 1.5800788 4.6426964
3.5752144 1.5676171 4.6324654
3.6094189 1.570699 4.6237421
3.6751618 1.5813792 4.627903
3.7279055 1.5725443 4.6184664
3.5145736 1.6192259 4.6433115
3.5845778 1.6263661 4.6288157
3.6191404 1.6159657 4.6243377
3.6746578 1.6223848 4.6152163
3.7318206 1.6018004 4.6152716
3.7658265 1.6045636 4.604126
3.5199134 1.6625496 4.6383376
3.5763888 1.6835736 4.6282663
3.6244969 1.6731952 4.6147413
3.676749 1.6508205 4.609632
3.7071037 1.6858928 4.6126113
3.4989805 1.7201121 4.6472549
3.5681422 1.7272314 4.6315227
3.6416192 1.7086483 4.6280322
3.6796365 1.7411863 4.6140685
3.7304802 1.7179347 4.6062512
3.5293961 1.7626376 4.6403584
3.5722575 1.7704062 4.6237493
3.6319473 1.7795 4.6203456
3.6812813 1.7696058 4.6071916
3.4836621 1.835572 4.6453624
3.5158072 1.8243819 4.6389103
3.5665696 1.8363066 4.6323724
3.6794217 1.8192959 4.607306
3.7696331 1.8132293 4.6003909
3.4934375 1.8819401 4.6445446
3.5242636 1.8700064 4.6362834
3.59517 1.8783947 4.6212106
3.6214297 1.8501211 4.6107259
3.6673803 1.8872052 4.6057653
3.7036438 1.8776996 4.6023021
3.751132 1.8736521 4.612215
3.4671168 1.9237267 4.6491323
3.5247452 1.9210676 4.6389794
3.5680351 1.9062326 4.6302843
3.6210704 1.9262841 4.6128759
3.715147 1.9253664 4.6018319
3.4413669 1.9796392 4.6491537
3.4746432 1.9692118 4.6446629
3.5182188 1.9685031 4.6320844
3.5709133 1.9984109 4.6312494
3.6279738 1.9715815 4.6067491
3.6935792 1.9565761 4.6187825
3.4525943 2.0412593 4.6442513
3.520467 2.0210481 4.636354
3.5551934 2.0250986 4.6276879
3.625246 2.0194464 4.6148744
3.6669371 2.0410979 4.6083179
3.4986198 2.0798426 4.6410213
3.5314853 2.0690348 4.6352663
3.5655515 2.0727434 4.625432
3.6000912 2.0627074 4.6211085
3.673351 2.0726731 4.605659
3.7602565 2.0899296 4.604785
3.8079503 2.0723233 4.619483
3.483501 2.1206589 4.6321621
3.5198374 2.1258876 4.6257534
3.5754189 2.1203055 4.6220913
3.6336813 2.1159871 4.6206331
3.6753438 2.1258981 4.6079063
3.7216411 2.1122341 4.6005354
3.446105 2.1647999 4.6477418
3.4699526 2.1988897 4.6412745
3.5167747 2.1742535 4.6325359
3.5783684 2.1742392 4.6255455
3.6797316 2.1686711 4.6074262
3.7402906 2.1794209 4.6008053
3.7950296 2.1947558 4.6130071
3.8226767 2.1658185 4.6033459
3.4791701 2.2326336 4.6422677
3.5284142 2.2094159 4.6365991
3.5764751 2.2254889 4.6222939
3.6348927 2.2233534 4.6098208
3.6750746 2.2307053 4.6057734
3.7523263 2.2148268 4.6038861
3.835788 2.2018392 4.607368
3.4704914 2.2779686 4.640872
3.5139301 2.2773421 4.6270823
3.5666947 2.2719612 4.6084461
3.6206045 2.2636468 4.6123996
3.6896052 2.2820692 4.6059618
3.8176374 2.2938447 4.6041245
3.431134 2.3369951 4.6358523
3.4793925 2.3258185 4.6350141
3.5308743 2.318068 4.6262627
3.5643511 2.3216207 4.6148024
3.6224089 2.3319001 4.6067667
3.6594379 2.3233666 4.6047869
3.7245548 2.3233824 4.6095867
3.1973569 2.3942471 4.6388416
3.2335923 2.3731577 4.6472893
3.2694206 2.3791871 4.6427631
3.323926 2.3746879 4.642004
3.3729334 2.3799515 4.6267028
3.4204674 2.3700945 4.6145411
3.4793983 2.3678603 4.6167498
3.5168476 2.3742688 4.6109676
3.5539095 2.3662274 4.6103935
3.0225406 2.419318 4.6347518
1.609672 2.4558403 4.6406698
1.6882857 2.4609065 4.6298089
1.6383448 -0.25627109 4.6980004
2.0279243 -0.26820269 4.6748791
1.6360867 -0.22099152 4.6926999
2.033658 -0.2249292 4.6793637
2.04497 -0.17745355 4.6759138
1.8176177 -0.11658773 4.6687131
1.8652719 -0.11662976 4.6581736
2.0328367 -0.12583376 4.6696858
1.6358469 -0.081249438 4.6949787
1.6720278 -0.081302144 4.6900702
1.7195585 -0.081330828 4.6810751
1.7697284 -0.081479982 4.678484
1.8210696 -0.081670478 4.6780152
1.8689717 -0.081701934 4.6679192
1.9060184 -0.081781164 4.6627111
1.9695214 -0.081956364 4.6572351
2.0311873 -0.078448303 4.6665587
1.6364152 -0.046338234 4.6969185
1.6731621 -0.03471569 4.693624
1.721771 -0.034742732 4.6874604
1.7712564 -0.034788869 4.6829038
1.8201118 -0.034826618 4.6759396
1.8705311 -0.034874771 4.6721754
1.9074049 -0.034888487 4.6664753
1.9726737 -0.034987554 4.6650581
2.0263612 -0.035086378 4.6660943
1.6767267 0.018932508 4.6965227
1.7250968 0.023657151 4.6964822
1.7731571 0.02368813 4.6879425
1.8204063 0.023727009 4.6766806
1.8683766 0.023745053 4.6667905
1.9108855 0.00032035823 4.675065
1.9724593 0.023871804 4.6645007
2.0254087 0.023956997 4.6639075
1.6791776 0.085865714 4.6981025
1.723417 0.082054868 4.6914587
1.7719624 0.082152791 4.6842961
1.8188939 0.082166359 4.6723127
1.8713285 0.082438007 4.6736336
1.9062061 0.082415663 4.6630411
1.9735121 0.086561702 4.656034
2.0239563 0.082959302 4.6600127
1.6726484 0.12844194 4.6908913
1.7242491 0.12885238 4.6929617
1.772583 0.12897888 4.6851816
1.8207408 0.1290936 4.6762652
1.8703848 0.12929344 4.6705475
1.9206887 0.12954843 4.6655884
1.9718955 0.12983218 4.661921
2.0252304 0.13025111 4.6621666
1.6888359 0.18725166 4.6993651
1.7235632 0.1755365 4.6900287
1.7722335 0.17574807 4.6831622
1.8239388 0.17623311 4.6834388
1.870255 0.1761909 4.6691003
1.9229093 0.17673346 4.6698575
1.9728384 0.17701617 4.6630583
2.0268579 0.1776222 4.6648135
1.6792316 0.225963 4.6949935
1.7237022 0.22229806 4.6889839
1.7751062 0.22289422 4.6893363
1.8222963 0.22294173 4.6777849
1.8734949 0.22347917 4.6757822
1.9234234 0.22382781 4.6696534
1.9751842 0.2243824 4.6671419
2.0239034 0.22457455 4.6565542
0.60919732 0.29066977 4.6535506
1.6644229 0.25720832 4.6998115
1.7244438 0.26915973 4.6893263
1.7731853 0.26947236 4.6825399
1.8231194 0.26994985 4.6781702
1.8727731 0.27035165 4.6722126
1.9213572 0.27059951 4.6629152
1.9733131 0.27129436 4.6608882
2.0257602 0.27651176 4.6690955
2.0511024 0.2619459 4.686851
0.63418162 0.32558313 4.6695013
0.66357207 0.32904482 4.6628375
1.6810789 0.31970474 4.6963601
1.7260033 0.31620955 4.6914835
1.7759176 0.31676978 4.6877275
1.8231616 0.31684786 4.6762047
1.8741089 0.31755388 4.6734643
1.9233586 0.31794566 4.6656723
1.975853 0.31881481 4.6647305
2.0285077 0.31969771 4.6631961
3.4015956 0.31438029 4.6518364
0.67440826 0.36825594 4.6836734
0.70910579 0.37426129 4.6607728
1.6831123 0.36844203 4.6936255
1.7269007 0.37491658 4.6909156
1.777449 0.37573233 4.6887383
1.8226836 0.37116218 4.6788092
1.8789721 0.36549798 4.6831636
1.9288615 0.36604494 4.6765833
1.974867 0.36583689 4.6600261
2.0279148 0.36691275 4.6593676
0.684187 0.40716386 4.6964078
0.71506798 0.41672567 4.6726861
0.76943684 0.44936341 4.6529264
1.6917098 0.42171538 4.6968069
1.7432227 0.43460637 4.6969209
1.7792639 0.43482816 4.6899781
1.8296496 0.42802367 4.6799994
1.8777386 0.42412534 4.6765966
1.9295683 0.42096463 4.6814346
1.9823891 0.42118245 4.6682401
2.0342031 0.41549379 4.6709557
0.72824049 0.45734221 4.6813741
0.77203625 0.4734495 4.6674194
1.745168 0.47034532 4.6998105
1.787614 0.47907093 4.6976686
1.8294241 0.4826543 4.6824279
1.8812013 0.48387617 4.6812029
1.9351984 0.47790766 4.6784387
1.9817345 0.47888532 4.6753511
2.0304997 0.4693861 4.6743207
2.0516357 0.48799691 4.6751661
3.4145899 0.4991051 4.6566668
0.71874166 0.53298944 4.6637745
0.75258982 0.53192031 4.6847968
1.7968545 0.53050232 4.6954422
1.8313109 0.53025502 4.6836867
1.8821715 0.53132737 4.6800189
1.9334939 0.53247845 4.6765828
1.9832158 0.53314078 4.6684184
2.0223026 0.53410643 4.665967
2.0520663 0.5356946 4.6724405
3.4147027 0.52534074 4.6544938
0.748119 0.5625425 4.654346
1.7460954 0.56466389 4.6950974
1.7805591 0.573506 4.6944675
1.8322922 0.56589067 4.6833162
1.8795363 0.57498974 4.6807771
1.9254327 0.58092362 4.6851702
1.9758365 0.58184737 4.6785469
2.0186021 0.58671999 4.6737022
2.0579596 0.5849483 4.6817918
3.4052227 0.71236032 4.67314
0.71388894 0.95949686 4.6882591
3.4173975 0.9793582 4.6511288
3.4293766 1.0226089 4.6604767
3.4361281 1.0778084 4.6599197
3.434767 1.1172407 4.6504469
3.4116981 1.1981949 4.6549082
3.4645088 1.2877892 4.6567688
3.4445405 1.3306344 4.6729574
3.4661496 1.3152252 4.6528239
3.447665 1.4259534 4.6544018
3.4597981 1.4039851 4.6775055
3.4316986 1.4709444 4.6751795
3.4538257 1.4554412 4.6558595
3.4687724 1.5429112 4.6544394
3.4674621 1.5755169 4.6717134
3.4387763 1.6155035 4.6745992
3.4680176 1.6300704 4.6569428
3.4564011 1.6717545 4.6559629
3.4421194 1.7189145 4.6777983
3.472034 1.7339154 4.6604309
3.4660013 1.7787409 4.6662493
3.5149953 1.7828255 4.6512537
3.4529831 1.8201077 4.6623707
3.4609556 1.8791862 4.6549339
3.438307 1.9229465 4.6643071
3.4378569 1.9501575 4.6541409
3.4361038 2.0755036 4.6661444
3.4348896 2.126591 4.6651897
3.4743166 2.1096129 4.6525521
3.4307947 2.2283475 4.6597395
3.4364483 2.2847049 4.6667323
3.0291288 2.3292327 4.6851311
3.0707061 2.3287003 4.6754608
3.1868253 2.3415685 4.6749392
3.2233453 2.3343155 4.6779151
3.2702274 2.3244276 4.6674767
3.3247569 2.3336258 4.6610832
3.3769684 2.3409894 4.6503458
3.4107065 2.3171458 4.6530147
2.9421067 2.3793476 4.6968117
2.9725342 2.3955777 4.6821575
3.0208545 2.374279 4.6836734
3.0847173 2.367826 4.6740675
3.1308689 2.3832388 4.6757321
3.1726398 2.3825498 4.6646242
3.2007091 2.369206 4.6555734
3.2700601 2.3519802 4.655551
1.9879488 2.4454751 4.6993923
2.0168519 2.4493363 4.6983032
2.2416337 2.4439187 4.6745682
2.2871404 2.4248748 4.6837869
2.7781072 2.4227159 4.6885762
2.8194096 2.4094071 4.6876559
2.8691931 2.4045405 4.677104
3.023715 2.4038451 4.6765494
3.0635316 2.4029961 4.6527071
1.5650882 2.4645162 4.6700835
1.6444384 2.4704423 4.66155
1.6730924 2.450294 4.6745114
1.9291041 2.4617839 4.6876254
1.9626162 2.455627 4.6635303
2.0336959 2.4643157 4.6586719
2.0768247 2.4577124 4.6739774
1.5845253 -0.26871178 4.7244992
1.6272844 -0.27258426 4.7140384
2.005594 -0.28529802 4.7055154
2.059407 -0.2861447 4.7052965
1.5828876 -0.22170427 4.7212205
1.6157417 -0.22139746 4.7067614
1.5823404 -0.17492445 4.7208934
1.6147616 -0.17463262 4.7052088
1.5809864 -0.12810412 4.7178421
1.6138272 -0.12792833 4.7034731
1.5831813 -0.081542782 4.7250867
1.6133573 -0.081297413 4.7027755
1.5821617 -0.034793414 4.7223692
1.6227231 -0.03084684 4.7059636
1.5825297 0.023601666 4.7235017
1.6269926 0.02357476 4.7061186
1.6636314 0.046949755 4.7023659
2.1015763 0.048546024 4.7449026
1.5849845 0.082107641 4.7303638
1.6267692 0.081868082 4.7050133
1.6634488 0.070290171 4.7016344
2.103673 0.072704554 4.7494025
1.5842482 0.12883662 4.7273779
1.6281526 0.12863314 4.7082868
1.6759894 0.12873183 4.7003069
2.1019526 0.13287048 4.7445459
2.2129364 0.13378789 4.745018
1.5827732 0.17544238 4.7219338
1.6294999 0.17544937 4.7110882
1.6740781 0.17174828 4.7058868
2.1012254 0.16894908 4.7420802
0.0057692346 0.24949181 4.7487578
1.5951624 0.22224474 4.7199802
1.628397 0.22203664 4.7065325
1.6653942 0.21061139 4.7041759
1.5861478 0.26946491 4.7289486
1.6295426 0.2689032 4.7081685
1.6857017 0.2737177 4.7113338
1.5873309 0.31652093 4.7304611
1.6302649 0.31577104 4.7082486
1.6673123 0.30445603 4.706027
0.66176295 0.38465661 4.7011456
1.5891371 0.35206434 4.734149
1.6256233 0.37810647 4.7191668
1.6699147 0.38698006 4.7091846
0.68562788 0.43068486 4.7049594
1.5903909 0.43451118 4.7332172
1.6332186 0.43341726 4.7103052
1.6815451 0.43873572 4.7148757
1.7204983 0.43479645 4.7049236
1.5877829 0.48065931 4.7222872
1.6327883 0.48012048 4.7059374
1.6846223 0.48157635 4.7086449
1.7299193 0.48612809 4.7037978
1.7729652 0.49505547 4.7034626
2.1096711 0.47187972 4.7465501
0.7796762 0.52363241 4.7101316
1.5809298 0.51740396 4.7369704
1.6249803 0.52821404 4.7165713
1.6861905 0.52902371 4.7095618
1.7366105 0.53007799 4.7070775
1.7732606 0.53048491 4.7015495
1.5837831 0.57720453 4.7408304
1.6170434 0.5764997 4.7266369
1.6652017 0.57689363 4.718574
1.7219505 0.58015144 4.712203
1.8172307 0.592219 4.7096415
1.8587184 0.59414166 4.7152185
1.5832936 0.61235392 4.7363224
1.6255953 0.61500347 4.7485285
1.6722661 0.614779 4.7354259
1.7238204 0.61633736 4.7356539
1.775544 0.6178562 4.7351093
1.8262322 0.61894143 4.7307796
1.8969917 0.62266994 4.742816
1.9293218 0.62152237 4.7238665
1.9794697 0.62229121 4.7157388
2.0208182 0.62398893 4.717813
2.0711389 0.62835395 4.7396708
0.64854079 0.94125432 4.7210565
0.69402421 0.9865706 4.7075629
0.64775866 1.0089079 4.7058568
0.69438487 1.0100386 4.7067513
2.6673319 2.3274002 4.7358694
2.7204187 2.3251462 4.7455206
2.7711213 2.3346412 4.7329845
2.8071208 2.330256 4.7178521
2.8697026 2.3348675 4.7402539
2.9284098 2.3248301 4.7257829
2.9801435 2.3334453 4.7223873
3.0042222 2.3310251 4.7031569
3.1474526 2.3429534 4.7010384
2.4772279 2.3918221 4.7478056
2.5249209 2.3862152 4.7392201
2.582212 2.3763218 4.7410407
2.6272521 2.3675318 4.7379055
2.6722956 2.3719237 4.728591
2.7235801 2.3816648 4.7294922
2.7677546 2.3849943 4.717031
2.8304074 2.3789222 4.7112293
2.876415 2.37288 4.7269459
2.9124074 2.3772626 4.7066054
2.9787543 2.3733084 4.7033911
1.3664358 2.4437244 4.7355795
2.0723372 2.4434233 4.7341671
2.1063747 2.4377055 4.7097239
2.1694565 2.4373541 4.7211027
2.2155271 2.4320352 4.7271004
2.2703419 2.4219162 4.7306314
2.3233473 2.4229486 4.7365575
2.372093 2.419138 4.732667
2.4284368 2.4094877 4.7359376
2.483964 2.4120619 4.7191286
2.5306537 2.4187162 4.7152538
2.5802405 2.4148014 4.7093124
2.6239703 2.4046576 4.7157698
2.6675122 2.4078183 4.7037745
1.3953544 2.4502854 4.742795
1.4291817 2.45891 4.7324519
1.4710209 2.4501493 4.7253408
1.5265878 2.458334 4.7289987
1.6275588 2.4620829 4.7324185
1.7250586 2.4595072 4.7219853
1.7778769 2.4653032 4.7408476
1.9458907 2.4573336 4.7388291
1.598417 -0.42755544 4.7964945
2.0433619 -0.41192648 4.7879996
2.080265 -0.41201779 4.7781916
2.1297698 -0.41219431 4.7653694
2.1816492 -0.41280559 4.757082
2.2373967 -0.41638511 4.7864337
2.0433354 -0.37554491 4.7899923
2.0813153 -0.37582353 4.7826643
2.1326165 -0.37629172 4.7738156
2.181088 -0.37625444 4.7579899
2.2214377 -0.37690896 4.7544069
1.646281 -0.30877802 4.7926354
2.0411158 -0.32668701 4.7872362
2.0785203 -0.32685578 4.7786989
2.1308889 -0.32742834 4.7724094
2.1828022 -0.32790771 4.7642365
2.2213502 -0.32820553 4.756743
2.1304162 -0.27879697 4.7734814
2.1830394 -0.27930734 4.7669063
2.2196848 -0.27931625 4.7553406
2.1274846 -0.22992626 4.7686553
2.1824031 -0.23059243 4.7673192
2.2203212 -0.23072495 4.7585144
2.1266403 -0.18137091 4.7682028
2.1840522 -0.18210423 4.7723556
2.2218046 -0.18218035 4.7631531
2.1251183 -0.13281414 4.765914
2.1835568 -0.13340326 4.7723536
2.2255645 -0.13372028 4.7723188
2.1228402 -0.084288754 4.7615209
2.1822588 -0.084696338 4.7702799
2.221067 -0.08477582 4.7634268
2.1249082 -0.035944317 4.7664928
2.1829257 -0.036084533 4.7721434
2.2224691 -0.03611654 4.7668333
2.1263318 0.019759193 4.7635341
2.1817172 0.024704924 4.769484
2.221091 0.024745056 4.7638631
2.1264067 0.089040332 4.7590013
2.1798697 0.085399404 4.7649155
2.2191753 0.085515752 4.7592273
2.1363635 0.13353017 4.7599926
2.1792469 0.13394535 4.7627459
2.1303031 0.18613023 4.7656755
2.1818357 0.18272439 4.7672234
2.2179623 0.18271476 4.7546086
-0.10868108 0.22908047 4.7961125
-0.074356839 0.22917293 4.7984753
-0.039969396 0.22904022 4.7959781
1.5812159 0.22359262 4.7536345
2.1268787 0.23063037 4.7669258
2.1831813 0.23147994 4.7686176
2.2217219 0.23171055 4.7611284
-0.15341206 0.25023454 4.7612572
-0.11978249 0.26267111 4.7804918
-0.074123286 0.25130194 4.7828221
-0.02834804 0.25032896 4.7646275
2.1253498 0.27891642 4.7616768
2.1825855 0.28005105 4.7654314
2.2232513 0.28060129 4.7625113
2.1271465 0.32762319 4.7634554
2.1796849 0.33293638 4.7668343
2.2152672 0.32527843 4.7634387
1.5844445 0.37718987 4.7566733
2.1273437 0.37613949 4.761302
2.185286 0.37779555 4.7665095
2.222702 0.37796891 4.7564759
1.5835935 0.40053514 4.7527919
2.1272693 0.42460802 4.758285
2.1848953 0.42642057 4.7627096
2.2232056 0.4267793 4.7545881
2.1701427 0.47317567 4.7701373
2.2187576 0.48036578 4.7615294
1.5910977 0.54439169 4.7656169
2.1353824 0.52358115 4.7695251
2.1790354 0.52533251 4.7735548
2.2175782 0.52579367 4.7656913
1.5721718 0.59349263 4.7814755
2.115983 0.57030845 4.7531652
2.1669092 0.57416975 4.7735891
2.2200971 0.57531273 4.7670541
1.8745695 0.62316585 4.7532711
2.1305525 0.62307417 4.7815342
2.1678448 0.62327653 4.7713103
2.2195015 0.62408292 4.7613163
1.8666208 0.65271324 4.7986989
1.9375824 0.66303104 4.7962604
1.986568 0.66860574 4.7940979
2.0240917 0.66898048 4.7859612
2.0635891 0.66997159 4.781991
2.1171837 0.67153442 4.7780061
2.1705542 0.67296916 4.7725043
2.225523 0.67482591 4.7694206
1.9762745 0.70571631 4.7984738
2.0168347 0.719347 4.7961903
2.0690961 0.72059524 4.7897129
2.1201656 0.72137493 4.7796726
2.1716015 0.72223473 4.7696657
2.2282634 0.72476166 4.7701273
2.0062065 0.76869142 4.7981901
2.073458 0.77104217 4.7943993
2.1265314 0.7725715 4.7885351
2.1770167 0.77311385 4.7760839
2.2252319 0.77014017 4.7686634
2.2507188 0.78973264 4.7806578
2.0371659 0.83236301 4.7992249
2.0746529 0.82044864 4.7913771
2.129782 0.82284868 4.7900047
2.1799269 0.82326305 4.7765822
2.2169652 0.82335794 4.7648683
2.2514596 0.81466854 4.779242
1.9834732 0.87918538 4.7959952
2.0112472 0.88066602 4.7968502
2.077858 0.87075561 4.7926102
2.1336021 0.87352526 4.7923679
2.1842952 0.87414652 4.7798557
2.2212467 0.87416941 4.7677517
1.9859346 0.9047212 4.7987251
2.0276356 0.91924691 4.798111
2.0810971 0.92124379 4.7935171
2.133388 0.92262363 4.7853117
2.1811688 0.91967672 4.7772269
2.2203968 0.93060941 4.779048
2.0432067 0.96983337 4.7953978
2.0840192 0.97170222 4.7933016
2.1267431 0.9744035 4.7949657
2.1644666 0.97476935 4.7847462
2.2239211 0.9792183 4.7903056
2.0457747 1.0079167 4.7960129
2.0738661 1.0096382 4.7966461
2.1170123 1.0249723 4.7973318
2.1702325 1.0268127 4.7900238
2.2206492 1.0272691 4.7757692
2.0777493 1.0855238 4.7940459
2.1180096 1.074867 4.7918005
2.1715848 1.0769527 4.7851624
2.2240138 1.0783991 4.7750616
2.0793905 1.1110662 4.7937732
2.1260939 1.1222535 4.791925
2.1759121 1.1287119 4.7864332
2.2243297 1.1260825 4.7784019
2.1420379 1.1801252 4.7973118
2.1828671 1.1820707 4.7930212
2.2250748 1.1846895 4.7911859
2.2511144 1.1852846 4.7850924
2.1367311 1.2356445 4.7968135
2.1849904 1.2205749 4.7909164
2.2156198 1.2380768 4.7815533
2.2504306 1.2223339 4.7767763
2.0955486 1.2938399 4.7995615
2.1294611 1.277716 4.7938838
2.16504 1.2857567 4.7982097
2.2059188 1.2752914 4.7957969
2.082283 1.3306108 4.7941146
2.1254661 1.3218651 4.7981386
2.1799631 1.3371918 4.7895565
2.2157598 1.320195 4.7831497
2.1854038 1.3781117 4.793745
2.2222626 1.365185 4.7822361
2.1353433 1.4282206 4.799531
2.1748328 1.4169624 4.794138
2.2320838 1.4215043 4.7925434
2.1376274 1.4548286 4.7991619
2.195446 1.4725391 4.7965679
2.2223508 1.4737022 4.7918315
2.2512155 1.4635105 4.7939034
2.1168244 1.5331544 4.7998104
2.1985149 1.5123981 4.7946339
2.2242777 1.5127933 4.7873096
2.2400539 1.6250817 4.7966518
2.2327533 1.8175237 4.7967181
2.2248652 1.8856766 4.7931576
2.2424994 1.9025891 4.7951617
2.1690283 2.0345187 4.7900305
2.2302768 2.0434842 4.793129
2.2192459 2.0711031 4.7932792
2.1851275 2.1274586 4.7999454
2.2255821 2.1159778 4.7940021
2.1803982 2.1746099 4.7967377
2.2249739 2.1671999 4.7872829
2.2205582 2.2147825 4.7843318
2.2208285 2.2805333 4.7988253
2.1704581 2.3217256 4.7944384
2.2299764 2.3204792 4.7945685
2.2790899 2.3347349 4.7865663
2.3179266 2.3253345 4.7986145
2.3740821 2.3286395 4.7852168
2.4329669 2.3343923 4.7761097
2.4691522 2.3216789 4.7806225
2.523607 2.3313992 4.7696643
2.5691309 2.336513 4.7631578
2.6134052 2.3269682 4.7587709
2.761061 2.3233063 4.762157
2.12006 2.3762655 4.7970977
2.1691294 2.3822203 4.7939315
2.2314477 2.3836474 4.7870541
2.2838304 2.3833787 4.7671008
2.3297663 2.3636074 4.775701
2.3740904 2.3683438 4.769907
2.4317944 2.3730435 4.7583165
2.4778609 2.3658471 4.7595611
2.5059984 2.3673415 4.7515211
1.3440058 2.4487393 4.7506795
1.380361 2.4431717 4.7935715
1.4078753 2.446779 4.7951255
1.4855481 2.4488313 4.7818661
1.5227412 2.4471481 4.7695332
1.647365 2.4363911 4.7796135
1.6757852 2.4404502 4.7808323
1.7006416 2.439276 4.7716656
1.8735561 2.4382489 4.7862234
1.9146576 2.4410732 4.7799492
1.970746 2.4332352 4.7789736
2.0267961 2.422936 4.7858229
2.0842202 2.418179 4.7767792
2.1235411 2.4183249 4.7637157
2.1649001 2.4212468 4.7675748
2.2246699 2.4158077 4.7571006
2.3293178 2.4027662 4.7592816
2.3581777 2.4052958 4.7540503
1.5829074 2.4614375 4.7848415
1.6157211 2.4529173 4.7586093
1.6833088 2.4583731 4.752368
1.7363929 2.4535315 4.7925177
1.7761667 2.4550028 4.7845783
2.0389285 2.4500771 4.7601857
1.4769973 -0.42117921 4.8418469
1.5219986 -0.41754317 4.8369122
1.5736728 -0.41857785 4.8386974
1.6200603 -0.41318059 4.8110342
1.6602683 -0.41328701 4.8030624
1.7117338 -0.40811822 4.8270469
1.473752 -0.3696894 4.8478684
1.5202155 -0.37432304 4.847168
1.5740466 -0.37080842 4.8424702
1.6164612 -0.36954635 4.815454
1.6671255 -0.37018019 4.8128099
1.7067566 -0.3710041 4.814961
1.4350258 -0.33322009 4.846962
1.5199517 -0.32645682 4.8486338
1.5739706 -0.32291827 4.844512
1.6151577 -0.32158858 4.8138418
1.6702877 -0.32621738 4.811657
1.7061045 -0.32297868 4.8154459
1.4852836 -0.26222801 4.8487778
1.5105467 -0.28634679 4.8474178
1.56916 -0.27421209 4.8317385
1.5102348 -0.23853798 4.8481288
1.5689421 -0.22644503 4.8326998
1.5708538 -0.17893897 4.8398685
1.5091405 -0.1190761 4.8475022
1.5756999 -0.13522272 4.842567
1.5754055 -0.07943403 4.8424478
1.5699091 -0.035583764 4.8390017
1.5704132 0.02410757 4.8405585
1.5807214 0.083732158 4.8324318
1.570174 0.13156581 4.8385839
1.5755936 0.1755112 4.8411345
-0.15498368 0.22982177 4.8107967
-0.13185784 0.22955987 4.8057685
-0.017127005 0.22978123 4.8115859
0.00586225 0.23047087 4.826045
1.5359349 0.23926574 4.8484778
1.5710033 0.23060632 4.8254428
1.5706457 0.27494028 4.8358817
1.5766205 0.31914371 4.8392067
1.5884323 0.37185791 4.8466353
1.5782195 0.4152056 4.8391709
1.5768375 0.46787971 4.8447833
1.5920843 0.52891338 4.8478136
1.5343633 0.58527678 4.8232508
1.5699121 0.57324517 4.8155146
1.5428265 0.62454569 4.8467746
1.5808381 0.62533784 4.8449273
1.629004 0.65907699 4.8442535
1.686408 0.65955019 4.8343358
1.7321604 0.66416955 4.827498
1.7813561 0.66451883 4.8178558
1.8307439 0.66492915 4.808136
1.8883249 0.67081714 4.8069768
1.923445 0.67989701 4.8043027
1.6233346 0.72439969 4.8468289
1.6996602 0.70189393 4.8433981
1.7296321 0.71680844 4.8374252
1.7846351 0.71413755 4.8219051
1.8322757 0.71138996 4.8194146
1.8750343 0.71633935 4.8142328
1.917545 0.72117144 4.807878
1.9614643 0.72245365 4.8048301
1.6252408 0.79775596 4.8446608
1.6525887 0.79930109 4.8483849
1.7222412 0.76140583 4.8416739
1.7672545 0.76777333 4.8290277
1.8157135 0.76544774 4.8287678
1.8663049 0.76628858 4.8210773
1.9180032 0.76753265 4.8154645
1.9679649 0.76803184 4.8047662
2.0347848 0.77028483 4.8008447
1.612983 0.83391398 4.8426657
1.6621023 0.8323102 4.8468914
1.7170558 0.81329459 4.8435822
1.7657378 0.81337619 4.8318748
1.8185823 0.81531191 4.8308287
1.8690879 0.81613314 4.8226709
1.9200823 0.81711841 4.8150411
1.9722447 0.81855392 4.8095112
2.0192006 0.81537634 4.8021111
1.6272862 0.87135786 4.8421106
1.6803821 0.88595051 4.8427458
1.716436 0.87001675 4.8424964
1.7689381 0.86347961 4.8347631
1.8191711 0.86425447 4.8264713
1.8700932 0.86531425 4.8193088
1.9195755 0.8656677 4.8077493
1.9670544 0.8628366 4.8024092
2.0305107 0.86563522 4.801064
1.6840553 0.93653893 4.8469744
1.7228978 0.92920971 4.8382678
1.7705438 0.91294181 4.832902
1.8216913 0.91419941 4.8268652
1.8733445 0.91563988 4.8213282
1.9234399 0.91627288 4.8110585
1.9733766 0.92276639 4.8102794
2.0295105 0.92008471 4.802578
1.6879948 0.999663 4.8498588
1.7241701 0.97507572 4.8432932
1.774004 0.96349978 4.8357248
1.8248405 0.96461028 4.8285456
1.876285 0.96596867 4.8221803
1.9276023 0.96720481 4.8147149
1.9791329 0.96848023 4.8069286
2.0189817 0.96997756 4.8035116
1.6892211 1.0369897 4.8480129
1.7258422 1.0126189 4.8427377
1.7751622 1.0129349 4.8319049
1.8256348 1.0138793 4.8236165
1.8771455 1.0153368 4.8172874
1.9301307 1.0175046 4.8138738
1.9825312 1.0192549 4.807971
2.0221801 1.0206983 4.8038611
2.0665064 1.0367346 4.808166
1.7327814 1.059106 4.8430672
1.7782143 1.0635757 4.8328438
1.82944 1.0649509 4.8262405
1.8825076 1.0673016 4.8235693
1.9347887 1.0691046 4.817935
1.9740258 1.0704048 4.813201
2.0144892 1.0723145 4.8108392
2.0630112 1.0699495 4.8056931
1.680562 1.1247301 4.8478584
1.7453477 1.1148763 4.8450003
1.7820896 1.1148918 4.8356218
1.8341622 1.1167768 4.8308711
1.8826061 1.1147527 4.8282599
1.92553 1.1200018 4.8210692
1.9681697 1.1250468 4.8126349
2.0163488 1.1226442 4.8072462
2.066366 1.1293949 4.8040257
2.1121988 1.1401474 4.8003597
1.6973376 1.1767884 4.8498034
1.7339022 1.1644075 4.8421965
1.7857124 1.1662483 4.8372869
1.8252585 1.1680183 4.8348894
1.8662739 1.1706239 4.8356776
1.9164604 1.1711992 4.8243775
1.9667945 1.1718225 4.8128085
2.0202656 1.1742518 4.8081341
2.0740652 1.1767546 4.8032103
2.1154423 1.1791327 4.8012352
1.6979889 1.2017632 4.8474445
1.7244976 1.215444 4.8448029
1.7759131 1.2170542 4.8386974
1.8188032 1.2224327 4.8323445
1.8667338 1.2201935 4.828239
1.9180098 1.221483 4.8195438
1.9724225 1.2246765 4.8178077
2.0244856 1.2262512 4.8092928
2.0793772 1.2294328 4.806571
2.1182816 1.2179869 4.8009734
2.1788914 1.2491159 4.8043752
1.768054 1.2693896 4.8450699
1.8190024 1.2705728 4.8366332
1.8691236 1.2711265 4.8253551
1.9235638 1.2745072 4.8243394
1.9793485 1.2785976 4.8254752
2.0307662 1.2797458 4.8149414
2.0782871 1.2768353 4.8063583
2.238533 1.2796568 4.8037353
1.7050941 1.3052961 4.8498201
1.7699286 1.3200754 4.8408761
1.821123 1.3214371 4.8328619
1.8729334 1.3231699 4.825727
1.9256916 1.3254607 4.820137
1.9817691 1.3298742 4.8217239
2.0346894 1.3320012 4.8145185
2.1692519 1.3132821 4.8026381
1.7354305 1.3713937 4.8476171
1.7740211 1.3725899 4.8423033
1.8253183 1.3740022 4.8341875
1.8797146 1.3776121 4.8332801
1.9322455 1.3796999 4.8265562
1.9833729 1.3807008 4.8155737
2.0348139 1.3818746 4.8046532
2.0780892 1.38585 4.8068948
2.1239061 1.367766 4.8075981
2.1595309 1.3650539 4.8027563
2.2490494 1.3864868 4.8058133
1.7379924 1.4229033 4.8446589
1.7748553 1.421898 4.8476396
1.8304976 1.4275464 4.8376403
1.8833596 1.4299939 4.832293
1.9322408 1.4283174 4.8285861
1.9677085 1.4382852 4.8227153
2.0110364 1.4312567 4.8164182
2.0671434 1.4243486 4.8063984
2.1161661 1.4098579 4.8028374
1.7824551 1.4785008 4.8445196
1.8296553 1.4757175 4.8377361
1.8742292 1.4823675 4.8335624
1.9144926 1.4846089 4.8303766
1.9668331 1.4739916 4.824748
2.0251429 1.4687387 4.8204331
2.0711117 1.4646418 4.8074107
2.1219447 1.4722618 4.803103
2.1687548 1.4714941 4.801548
1.7831006 1.5287465 4.8352213
1.8261724 1.5336341 4.8406854
1.8655269 1.5227702 4.8383789
1.9227544 1.5169548 4.8329778
1.9719465 1.5153953 4.8288517
2.025578 1.5180798 4.8223286
2.0761187 1.5183775 4.807683
2.1369123 1.5187818 4.8057332
2.1754811 1.5265214 4.8048773
2.2195039 1.5434388 4.8025837
2.2789516 1.5070822 4.8471599
1.7732 1.5682645 4.836864
1.8317324 1.5758164 4.8467879
1.8696753 1.5636921 4.8405147
1.9196174 1.5636375 4.8261976
1.9742162 1.5672894 4.8227897
2.0288754 1.5708075 4.8184361
2.0814428 1.5799537 4.8182106
2.1167135 1.5727973 4.8133368
2.168427 1.5810163 4.8093433
2.225317 1.5855243 4.8059702
1.7546045 1.6238637 4.8489594
1.8362517 1.6173232 4.849813
1.8742224 1.6176621 4.8404026
1.9256542 1.6187577 4.829391
1.9826473 1.6243577 4.8312831
2.0287466 1.6201304 4.8182654
2.0675695 1.6326948 4.8180184
2.121397 1.6343179 4.8214884
2.1727064 1.6221482 4.8095288
2.2130711 1.6238964 4.8018851
1.7842622 1.6531924 4.8490891
1.8299025 1.665105 4.8461318
1.8810482 1.6738734 4.845613
1.9327435 1.6750935 4.8346982
1.981801 1.6733451 4.8292251
2.0217073 1.6870117 4.8319569
2.0702901 1.68459 4.8237433
2.1255941 1.6756229 4.8214302
2.1785319 1.6646192 4.8127689
2.2290065 1.6633209 4.8064952
2.2605863 1.6912229 4.8274851
1.8442817 1.7251425 4.8459096
1.8831182 1.7261114 4.8380685
1.9253577 1.7301427 4.8385258
1.9667759 1.7332749 4.8361092
2.016474 1.7319177 4.8312311
2.0768805 1.7280817 4.8292365
2.1292288 1.716638 4.8197346
2.1826692 1.7186971 4.8086262
2.2286067 1.7247216 4.8124371
2.2592931 1.728671 4.8145442
1.8479533 1.7790407 4.8422937
1.8769505 1.7826253 4.8449802
1.9178016 1.7853703 4.8415475
1.9691448 1.7733554 4.8318624
2.0276618 1.768099 4.8261604
2.0792308 1.7682052 4.8244829
2.1206512 1.7709612 4.8196764
2.1708884 1.7720115 4.8149791
2.2208693 1.7806944 4.8019528
1.8261659 1.820302 4.8481493
1.8669362 1.823086 4.8449869
1.9224455 1.8277665 4.8428974
1.9733225 1.8152093 4.831708
2.0291822 1.8197968 4.8283644
2.0820348 1.821005 4.8293386
2.1176147 1.8308777 4.8195395
2.167393 1.8291302 4.8117957
2.2183485 1.8367829 4.8034511
1.7780344 1.8987162 4.8471894
1.8708338 1.8649821 4.8445425
1.9244127 1.8677577 4.8371496
1.9763876 1.8688734 4.8249006
2.0277545 1.8690386 4.823205
2.0728605 1.8877033 4.8360806
2.121953 1.8724973 4.830719
2.1785259 1.8819685 4.8120446
2.2115214 1.8723992 4.8002715
1.836789 1.9326122 4.8475671
1.877465 1.9225109 4.8470764
1.9306604 1.9248202 4.8381066
1.9746413 1.9304471 4.8408775
2.0179238 1.9351969 4.8410039
2.0708916 1.9368201 4.8289528
2.1259184 1.914566 4.8285055
2.1745799 1.9202399 4.8149414
2.2242701 1.9347883 4.8125701
2.2556705 1.939626 4.8155212
1.7285278 1.9505897 4.8489585
1.8255714 1.97237 4.8437128
1.8806546 1.976804 4.8401971
1.9257545 1.9838815 4.8463984
1.9701134 1.989881 4.8365979
2.018393 1.9740913 4.8305664
2.0700467 1.9744992 4.8153467
2.1275578 1.9674716 4.8167019
2.1701345 1.9711434 4.8127337
2.2183213 1.9796751 4.8202085
1.8308349 2.0163374 4.8460898
1.9154 2.0248322 4.8445196
1.9675685 2.025816 4.8315811
2.0254741 2.0196276 4.8356237
2.0776157 2.0203438 4.8209591
2.1305757 2.0217898 4.8074965
2.1700144 2.0096774 4.8004208
2.2131586 2.0263278 4.8049302
1.8804692 2.079973 4.8486333
1.9379278 2.0865779 4.848937
1.9735692 2.0705926 4.834106
2.0285327 2.0742037 4.8265753
2.0825343 2.0767207 4.8158937
2.1354387 2.0779359 4.8144231
2.1813135 2.0848989 4.8045025
1.8831459 2.1215191 4.8430786
1.9244796 2.124577 4.8386946
1.9798971 2.1288404 4.832828
2.0273852 2.1247523 4.8199916
2.0667455 2.138521 4.8177242
2.1122577 2.1323245 4.8119636
2.1584077 2.113708 4.8114176
1.9319134 2.1715753 4.8445845
1.983536 2.1715236 4.8287501
2.0316927 2.1816239 4.8390303
2.0692949 2.1802359 4.8234439
2.1272051 2.1733496 4.8116879
2.1596258 2.1538262 4.8010144
1.7864053 2.2448583 4.8497143
1.8393128 2.2206597 4.8476844
1.8821354 2.2255082 4.8470883
1.9370458 2.2162521 4.8442488
1.9671284 2.2204065 4.8332186
2.018611 2.2204721 4.8294129
2.0746784 2.2249413 4.8224154
2.1290765 2.2274375 4.8105083
2.1818297 2.2282412 4.8067889
2.2024615 2.2489474 4.8015528
2.2671165 2.2087195 4.8279057
1.8809112 2.2637525 4.8443027
1.918821 2.2763817 4.8395357
1.9691473 2.2752407 4.8333554
2.0223756 2.276654 4.8200545
2.079931 2.2827444 4.8160143
2.1354046 2.2732584 4.8108315
2.1769166 2.2757123 4.8025389
2.2346792 2.2550917 4.8053532
1.739637 2.328717 4.8498502
1.7790515 2.3165882 4.8455772
1.8362217 2.3234525 4.8454118
1.8682507 2.3299837 4.8396659
1.9174768 2.3276258 4.8312173
1.9719658 2.3305788 4.8214293
2.020627 2.3273582 4.8102493
2.0822756 2.324491 4.807107
2.1240959 2.3143604 4.8048754
2.1508687 2.3019691 4.8022151
2.2162223 2.3419509 4.8024516
1.7437724 2.3731785 4.8471942
1.7839801 2.374933 4.8400888
1.8243165 2.3767924 4.8329339
1.8653402 2.3794391 4.8270216
1.9215912 2.3847456 4.8222423
1.9699763 2.3811734 4.8107295
2.0351934 2.3689384 4.8083701
2.0818985 2.3638508 4.8047161
2.1914096 2.3698697 4.8050523
0.10586526 2.4396925 4.8102741
0.18116729 2.4482434 4.8255262
0.66165864 2.445199 4.8483553
0.72275293 2.4387617 4.829052
0.81436419 2.4496987 4.8404989
0.98876154 2.4439311 4.8050056
1.0728021 2.4379997 4.8407736
1.1753788 2.440134 4.8276277
1.3925332 2.4390364 4.8455153
1.4333141 2.4429295 4.8448696
1.4721582 2.4434118 4.8372126
1.524946 2.4391985 4.8321114
1.5686113 2.4296515 4.8282533
1.620949 2.4300237 4.8247747
1.675862 2.4205337 4.8360896
1.7324038 2.4272573 4.8357348
1.785205 2.428509 4.8239317
1.8268592 2.4191234 4.8250132
1.860428 2.4263561 4.8087254
1.919925 2.421736 4.8031931
1.989565 2.401232 4.8040318
0.84077531 2.4530933 4.8440566
1.2325464 2.4527702 4.8432393
1.274742 2.4605825 4.8304672
1.3231912 2.4550867 4.830287
1.3599515 2.4522417 4.8167877
1.4386456 2.455816 4.8071766
1.4666432 2.4598875 4.8093605
1.4298637 -0.41853783 4.8680534
1.4628007 -0.40575847 4.8516798
1.4280868 -0.37025693 4.8645616
1.5381393 -0.3588464 4.8508797
1.4222578 -0.3180407 4.8614349
1.4748958 -0.32220733 4.8538961
1.5375299 -0.31084856 4.8511586
1.4272159 -0.27447236 4.8657508
1.470924 -0.2784279 4.8565326
1.5287069 -0.27082273 4.8517308
1.4261557 -0.22654045 4.8637586
1.4740127 -0.22654569 4.8545494
1.5280329 -0.2228943 4.8511996
1.4267499 -0.17887688 4.8670855
1.4746045 -0.17887856 4.8578072
1.5247705 -0.17915192 4.8555441
1.4246554 -0.13093466 4.8609171
1.4745743 -0.13111396 4.8586807
1.5288318 -0.1353112 4.8558664
1.5619088 -0.11945204 4.8529973
1.4256817 -0.083312124 4.8651075
1.4725158 -0.083243102 4.8525882
1.5246027 -0.083483025 4.8566866
1.5618923 -0.095515572 4.8532887
1.4279182 -0.035638742 4.8731098
1.4744209 -0.035600681 4.8592415
1.5243317 -0.035644174 4.8561926
1.4277693 0.024081742 4.8725572
1.4770907 0.024127029 4.8680329
1.5253175 0.024144379 4.8593278
1.4274484 0.083809875 4.8709936
1.4765834 0.083894081 4.8658857
1.5264156 0.08402133 4.8623362
1.5617216 0.083988123 4.852767
1.4283845 0.13167386 4.8734684
1.4767764 0.13173619 4.8657665
1.5266664 0.13191825 4.8624229
1.4289095 0.17955345 4.8742003
1.4769995 0.17959014 4.8654385
1.5254774 0.17967775 4.8575463
1.5627637 0.19182034 4.853869
1.4307249 0.22766596 4.8790112
1.477352 0.22748309 4.8652391
1.5213505 0.22352259 4.8566689
1.5631031 0.21581687 4.8542256
1.4318373 0.27577701 4.8811221
1.479728 0.27578193 4.8713431
1.5265456 0.2755864 4.8578644
1.4342141 0.32422936 4.8872347
1.4793804 0.32360923 4.8681693
1.5288286 0.32395786 4.8631148
1.5657384 0.33615819 4.8577094
-0.040881563 0.398211 4.8984065
0.029376075 0.37476104 4.8993025
1.433544 0.37207165 4.8826208
1.4787648 0.3713859 4.8638287
1.5297821 0.37216222 4.8637609
1.5651422 0.37200332 4.8540459
-0.01746209 0.43335915 4.8966255
0.0059590782 0.44512224 4.8966231
1.4349294 0.42046794 4.8846865
1.4827135 0.42039633 4.8741078
1.5328822 0.42100784 4.8709593
1.5649348 0.43191987 4.8500013
-0.017459564 0.46841282 4.8937645
0.0059624035 0.48053941 4.897274
1.4333408 0.46796247 4.8762331
1.482058 0.46821064 4.8689957
1.5308599 0.46847484 4.8614902
-0.01748888 0.51610899 4.898828
1.4369226 0.51723778 4.8851619
1.4847914 0.51717299 4.8746629
1.5338182 0.51749647 4.8675227
1.5792023 0.51391149 4.8622093
-0.11147542 0.58733886 4.8999548
1.4401324 0.57622993 4.8698707
1.4825354 0.56441325 4.8636131
1.5297494 0.56157857 4.8648505
1.568357 0.55304646 4.8522363
1.4379443 0.62590754 4.8799648
1.484867 0.62540966 4.8661981
1.5274138 0.63162744 4.8583241
1.4280663 0.66300309 4.8864851
1.4704742 0.68426281 4.8724842
1.5250574 0.68739021 4.8662629
1.585786 0.6755473 4.8556509
1.6495466 0.6769771 4.8521647
1.675182 0.67757666 4.8507385
1.4236645 0.73011595 4.8867931
1.4661227 0.73627502 4.8784723
1.5140101 0.73610193 4.8672423
1.567135 0.72846597 4.859386
1.6129254 0.72515094 4.854538
1.6653284 0.71482891 4.8565149
1.4228147 0.78102452 4.8858838
1.4673415 0.78519261 4.8773785
1.5162973 0.78554946 4.8694019
1.566726 0.7866146 4.8654885
1.6160394 0.77495241 4.858736
1.6675301 0.76428127 4.8578186
1.4334841 0.83487427 4.8873138
1.4675229 0.83361346 4.8724909
1.5184199 0.83504325 4.8706818
1.5679988 0.83568835 4.8638902
1.616396 0.83568621 4.85287
1.6799594 0.80081278 4.8517842
1.4225984 0.87191343 4.8895588
1.471773 0.88448632 4.8807726
1.5206418 0.88473344 4.8719292
1.5716418 0.88617909 4.8692493
1.618116 0.89132714 4.864687
1.66511 0.87428445 4.8507247
1.4310527 0.9393838 4.8956609
1.4738703 0.93427056 4.8815317
1.5228046 0.93453372 4.8726311
1.5718009 0.93480939 4.8634863
1.6236601 0.93673849 4.8624287
1.6606991 0.93707097 4.8555765
1.4279177 0.98455709 4.89362
1.47528 0.98373973 4.8796167
1.5247948 0.98435462 4.8724232
1.5733079 0.98433244 4.8615026
1.6259654 0.98679554 4.8626552
1.6713597 0.98318237 4.8549304
1.4293339 1.0341997 4.891582
1.4778323 1.0340993 4.8811474
1.5258942 1.0337119 4.8689718
1.576229 1.0348303 4.8635492
1.6268221 1.036064 4.8581939
1.664039 1.0364884 4.8515558
1.43241 1.0851882 4.8948431
1.4790546 1.0836426 4.8778791
1.5282259 1.084002 4.8690867
1.5783832 1.0850146 4.8628197
1.6295207 1.0866158 4.8588266
1.6756798 1.0834568 4.8529625
1.7189643 1.0769358 4.8516026
1.4324927 1.1340241 4.8875279
1.4812671 1.13404 4.8775043
1.5313487 1.1350323 4.8713288
1.5811726 1.1357675 4.8636832
1.631142 1.136569 4.8558655
1.6942766 1.1012584 4.8531208
1.720692 1.1147667 4.8506565
1.4360087 1.1857064 4.8915076
1.4851214 1.1858909 4.8821669
1.5350921 1.1867371 4.8751516
1.5825549 1.1734307 4.8619046
1.6368591 1.1825687 4.8523049
1.6795317 1.1594311 4.8522606
1.4380465 1.2240989 4.8921995
1.4746997 1.2363005 4.8822923
1.5126033 1.2372804 4.8783722
1.5669222 1.2178487 4.874208
1.6199468 1.2167757 4.8647842
1.6737432 1.2142193 4.8520336
1.428686 1.26336 4.8980579
1.4653041 1.2754792 4.8877583
1.5195212 1.2682337 4.8814907
1.5652714 1.2647629 4.8747215
1.6161819 1.2661972 4.8689995
1.6647758 1.2657766 4.8557787
1.7169689 1.2680373 4.8523936
1.4306529 1.3142331 4.8958359
1.466679 1.3135073 4.885561
1.5180084 1.3154577 4.8823514
1.5671413 1.3154457 4.8714466
1.6186185 1.3173363 4.8671823
1.6675041 1.317086 4.854538
1.7247435 1.3242036 4.8516765
1.4719132 1.3674793 4.8935795
1.5211881 1.3674948 4.8831372
1.5701222 1.3672223 4.8712239
1.6199014 1.3676697 4.8614807
1.6720145 1.3700114 4.8580275
1.7110982 1.371678 4.8548536
1.4377211 1.431803 4.8983645
1.4785904 1.4233245 4.8906074
1.5233437 1.4187807 4.8802042
1.573627 1.4196448 4.8721628
1.6241828 1.4206986 4.8643675
1.6757199 1.4225224 4.858757
1.713222 1.4228735 4.8507924
1.7963961 1.442454 4.853406
1.4385095 1.4696522 4.8933687
1.4754151 1.4695197 4.8852139
1.526494 1.4711586 4.8799911
1.5783319 1.4734144 4.8763962
1.62808 1.4736457 4.8656487
1.6786735 1.4745935 4.8568459
1.7318263 1.477687 4.8546314
1.442803 1.5235815 4.8973699
1.4788961 1.5224942 4.8860993
1.5305302 1.5246286 4.882205
1.5795785 1.5241431 4.869504
1.6324492 1.5272603 4.8678498
1.6833494 1.5284054 4.8594828
1.7314183 1.5265064 4.8561492
1.7506328 1.5454109 4.8554673
1.4453205 1.5758684 4.8948879
1.4820424 1.5753547 4.8854218
1.5326252 1.5763723 4.8777685
1.5830667 1.5771914 4.8690596
1.6354448 1.5798166 4.8655081
1.6826348 1.5771862 4.8600574
1.7204088 1.5897174 4.8628125
1.75264 1.5846187 4.8523893
1.8069041 1.575963 4.8539801
1.4792101 1.6325496 4.8902211
1.5324486 1.6260749 4.8807254
1.5747832 1.6311496 4.8731089
1.6169244 1.6359568 4.8644147
1.6618582 1.6310111 4.8664565
1.7178297 1.6245096 4.8604851
1.7847483 1.6160507 4.859499
1.8105688 1.6167619 4.8549247
1.4647033 1.6831572 4.8922558
1.5148021 1.6834509 4.8823204
1.5602938 1.6790428 4.8724113
1.6176131 1.6741738 4.8719244
1.6745228 1.6686271 4.8689885
1.7234043 1.6673893 4.8671083
1.7703791 1.6725482 4.8570037
1.8151555 1.6836768 4.8518395
1.4292523 1.722894 4.8975487
1.4677792 1.7241549 4.8932581
1.5193056 1.7259712 4.8875647
1.5735726 1.7177185 4.8776708
1.6206976 1.7149302 4.871871
1.6743231 1.7186034 4.8701396
1.7264192 1.7205422 4.86304
1.7794747 1.7232972 4.8577394
1.8188195 1.7248551 4.8520217
1.4322376 1.7640331 4.8982954
1.4712782 1.7658508 4.8954043
1.5220615 1.766698 4.8868427
1.5727525 1.7673612 4.8772907
1.6259074 1.7706766 4.8746591
1.6777782 1.7724249 4.8672395
1.7318037 1.7763169 4.865159
1.7787924 1.7813231 4.8541932
1.8170404 1.7774869 4.8599315
1.4351259 1.8177425 4.8951364
1.4612093 1.8190142 4.8932734
1.52649 1.8221142 4.8878894
1.5785254 1.8241502 4.8819079
1.62875 1.8240923 4.8698597
1.6830529 1.8284348 4.8690743
1.7368959 1.8320638 4.865901
1.7751609 1.8324659 4.857029
1.8114457 1.8393153 4.8537521
1.4836882 1.8722788 4.8962631
1.5290624 1.8755066 4.8823891
1.5827196 1.8794818 4.8811684
1.6349282 1.8815265 4.8744678
1.6814657 1.8776045 4.8649883
1.7250677 1.8708351 4.8609834
1.7649505 1.8729417 4.8565311
1.8198098 1.8773341 4.8542595
1.4454085 1.9443995 4.8990273
1.488669 1.9375347 4.8962555
1.5332181 1.9310993 4.881525
1.5859895 1.9339218 4.8769913
1.624203 1.9216471 4.8725486
1.6658998 1.9260159 4.8743095
1.7171719 1.9140366 4.8668976
1.7636923 1.9183353 4.8537307
1.8187193 1.9144716 4.8541408
1.5141032 1.9769559 4.8960948
1.5683215 1.9814448 4.8956528
1.620615 1.969684 4.8769336
1.6677625 1.9662366 4.8687119
1.7167302 1.9733167 4.8626728
1.7729325 1.9704078 4.8527317
1.9545075 1.9742733 4.8505726
1.4792442 2.0319705 4.899929
1.5229486 2.0253494 4.8975167
1.5694835 2.0210528 4.8879657
1.6189976 2.0194318 4.8719506
1.6723986 2.0225964 4.8670144
1.7291119 2.0294721 4.8705416
1.7814116 2.0309453 4.8605108
1.8215582 2.045773 4.8510351
1.8628054 2.03618 4.85182
1.4287243 2.0831513 4.8962831
1.4730104 2.0774651 4.8963046
1.517041 2.0696793 4.8789248
1.571743 2.074873 4.8794088
1.6242564 2.0769634 4.8721361
1.6782993 2.0807972 4.8684626
1.7315466 2.0834608 4.8615189
1.7749238 2.0765889 4.8692846
1.8126721 2.07581 4.8569775
1.8662428 2.0655947 4.8527379
1.9185518 2.0670149 4.8538609
1.4302757 2.1108484 4.8937073
1.4716172 2.1282072 4.8921156
1.5258591 2.132808 4.891284
1.5731592 2.1292384 4.8833675
1.6251721 2.130461 4.8739057
1.6828046 2.124774 4.8693466
1.7251178 2.1296453 4.8706069
1.7671391 2.120234 4.8600316
1.8179332 2.1203899 4.8586912
1.8590629 2.1233697 4.8546824
1.4888892 2.1730628 4.8919992
1.5282891 2.1745718 4.8867235
1.5859302 2.1691225 4.8834691
1.6372074 2.16921 4.8712144
1.6714952 2.1651149 4.8644819
1.7146351 2.1710985 4.8679891
1.7701727 2.1762385 4.8658323
1.8240319 2.179085 4.8580499
1.8756994 2.179898 4.85747
1.492444 2.2038815 4.8953013
1.5320528 2.2184236 4.8860888
1.580346 2.2159691 4.8805208
1.619615 2.2314956 4.8846397
1.665904 2.2260275 4.8717585
1.7189639 2.2280908 4.862978
1.7679433 2.2260463 4.8567939
1.814225 2.2215395 4.8568711
1.8969374 2.2018144 4.8570065
1.9235129 2.2026021 4.851099
1.4468315 2.2896652 4.8997464
1.4898329 2.2813118 4.8936787
1.5363317 2.2760677 4.8823404
1.5751166 2.276381 4.8739548
1.6177276 2.2820878 4.8767662
1.6697162 2.2826998 4.8651543
1.7200871 2.2825263 4.8632016
1.7763231 2.2742515 4.8519039
1.8320101 2.2663326 4.8527064
1.3962454 2.3425467 4.895802
1.430631 2.3255129 4.8947701
1.4646356 2.3490567 4.8954935
1.5110441 2.3304803 4.8880496
1.5660098 2.3205328 4.8752432
1.6205181 2.3247647 4.8715911
1.671617 2.3240314 4.8570385
1.7253764 2.3139939 4.8541727
1.8224492 2.3094687 4.8516741
1.2383417 2.3872759 4.8941903
1.264941 2.38905 4.8930044
1.3331206 2.3961926 4.8950415
1.3846445 2.3833489 4.889195
1.4244288 2.3852768 4.8849487
1.4602717 2.3833766 4.8839073
1.5227995 2.3697979 4.8839421
1.5694382 2.3643765 4.8720441
1.6215751 2.3650763 4.8608689
1.675725 2.3685749 4.8549051
1.7180774 2.3734851 4.8547916
0.15785156 2.4490201 4.8866415
0.64070404 2.4361327 4.8923764
0.71497422 2.4298797 4.8721876
0.84785497 2.4482398 4.8941932
0.88616109 2.4484036 4.8895731
0.93495858 2.4426911 4.8712444
0.98660117 2.4446101 4.8677349
1.1219692 2.4366975 4.8921762
1.1742926 2.4388041 4.8875532
1.2278079 2.426168 4.8724265
1.276018 2.4241996 4.8697557
1.3299301 2.4290097 4.8692875
1.3784453 2.4272053 4.8661156
1.4364823 2.4225473 4.8651714
1.4765246 2.4119496 4.8659639
1.5114173 2.408457 4.8613133
1.570327 2.4045014 4.8606639
1.6091042 2.4045222 4.8512306
-0.4736782 2.4514329 4.8766971
-0.42420939 2.4576054 4.8923435
-0.3461417 2.4681451 4.8583021
-0.031502232 2.4514737 4.8932796
0.069419116 2.4570944 4.8745937
0.13206057 2.464052 4.8578577
0.28456962 2.4533799 4.8912272
0.33482036 2.45101 4.8841972
0.61254412 2.4503574 4.8633885
1.0286635 2.4538312 4.8803082
1.1335132 2.4595602 4.8750377
1.4097879 -0.41120657 4.931004
1.4090919 -0.3747279 4.9304771
1.4090651 -0.32637411 4.9326577
1.4106374 -0.27829212 4.9401197
1.4077002 -0.24145126 4.9310999
-0.42901504 -0.046951305 4.916419
-0.158905 0.08251515 4.9358134
-0.12331657 0.082344368 4.9261575
-0.076254733 0.082290679 4.924057
-0.029264348 0.082291186 4.9245834
0.013786963 0.086136036 4.920979
-0.17078026 0.12968208 4.9373922
-0.12340015 0.12945065 4.9289193
-0.076208353 0.12919953 4.9201355
-0.0292226 0.12909073 4.9163795
0.017668108 0.12893228 4.9103727
-0.15867105 0.17648247 4.9268818
