ply
format ascii 1.0
comment PCL generated
element vertex 934
property float x
property float y
property float z
element camera 1
property float view_px
property float view_py
property float view_pz
property float x_axisx
property float x_axisy
property float x_axisz
property float y_axisx
property float y_axisy
property float y_axisz
property float z_axisx
property float z_axisy
property float z_axisz
property float focal
property float scalex
property float scaley
property float centerx
property float centery
property int viewportx
property int viewporty
property float k1
property float k2
end_header
-0.052485574 -0.30242503 0.39543658
-0.051459689 -0.28043491 0.40932319
-0.049220193 -0.28056473 0.40972894
-0.045343623 -0.21765481 0.4216263
-0.56702155 0.18748386 0.42618036
0.42705587 -0.5554651 0.49748462
-0.46221331 -0.53111261 0.4969967
-0.4230009 -0.53504807 0.49129331
-0.38486144 -0.53447789 0.49430004
-0.63175261 -0.20617527 0.47665304
-0.61423862 0.1961666 0.4638148
-0.65767157 0.20254637 0.49885869
-0.63851929 0.20028442 0.48324853
0.39893603 -0.55079037 0.50729263
0.42698953 -0.55228937 0.50821579
0.46840417 -0.55287284 0.51650614
0.5060159 -0.55055904 0.52576679
-0.5132007 -0.50942963 0.51833546
-0.47283906 -0.51514238 0.52006608
-0.42406377 -0.5173223 0.5261355
-0.37520063 -0.52216339 0.52545023
-0.32700431 -0.52304226 0.5316214
-0.27896217 -0.52281177 0.54091233
-0.2411155 -0.52326614 0.54777867
0.28483582 -0.53696543 0.54686278
0.32893375 -0.53956527 0.53802222
0.37675375 -0.54317582 0.52896619
0.42322567 -0.54473352 0.53228551
0.47412214 -0.54550314 0.53644335
0.5223375 -0.54563272 0.54002631
0.55767244 -0.54355294 0.54772282
-0.60197353 -0.4547134 0.53101301
-0.56945342 -0.46834952 0.53147149
-0.52393961 -0.47593424 0.53463638
-0.47761893 -0.48425418 0.54193801
-0.4407492 -0.49277237 0.54729623
-0.61669755 -0.41970178 0.5355652
-0.57473588 -0.4249078 0.54063189
-0.53261817 -0.42904979 0.54624337
-0.49544743 -0.43765941 0.54880977
-0.65775865 -0.36488232 0.53410673
-0.62425673 -0.37497732 0.53843981
-0.57934439 -0.37620124 0.5457949
-0.54204679 -0.39059713 0.54935044
-0.66771901 -0.3222197 0.53393042
-0.62517989 -0.32488033 0.54153442
-0.58510363 -0.32694903 0.54761606
-0.67290664 -0.27447906 0.53363633
-0.62519526 -0.2742286 0.54379594
-0.59047759 -0.27386644 0.54792506
-0.67344946 -0.22505762 0.53490043
-0.62543976 -0.2248392 0.54519624
-0.59417093 -0.2263694 0.54907048
-0.6710909 -0.17604733 0.53764683
-0.62413281 -0.17487159 0.5456841
-0.58949941 -0.16862163 0.54916668
-0.66627121 -0.12620851 0.53817397
-0.62592512 -0.12473173 0.544617
-0.59277785 -0.12267485 0.54856944
-0.44516778 -0.10866517 0.54446745
-0.66273868 -0.076972581 0.53781831
-0.62585175 -0.07444559 0.54381657
-0.58786935 -0.076826386 0.54807121
-0.4423793 -0.097976282 0.53902173
-0.65881693 -0.026026363 0.53722179
-0.62491482 -0.025203044 0.54270875
-0.58783489 -0.025636965 0.54721755
-0.44487125 -0.020545416 0.54899645
-0.65935826 0.024845479 0.537049
-0.62488675 0.024349254 0.54178518
-0.5883854 0.024788097 0.54596543
-0.43465242 0.039586227 0.54736698
-0.66055685 0.076021172 0.53453577
-0.62456954 0.075081959 0.53980494
-0.58280241 0.076397784 0.54569727
-0.43274581 0.063201539 0.54572964
-0.66300046 0.12618846 0.53181082
-0.62399369 0.12526637 0.53776926
-0.57638437 0.12708491 0.54391861
-0.54448599 0.13320619 0.54780108
-0.66631252 0.17625564 0.52686357
-0.62458903 0.1750374 0.534518
-0.5754084 0.17665935 0.54093432
-0.53914148 0.17727287 0.54535645
-0.66523129 0.22416514 0.5218665
-0.62455899 0.22467053 0.53060728
-0.57516724 0.2252913 0.53685385
-0.52800655 0.22868755 0.54180568
-0.47090471 0.23881061 0.5479421
-0.44408891 0.22774516 0.54955763
-0.66122687 0.27266097 0.5173462
-0.62504715 0.27487886 0.5248065
-0.57528389 0.27455878 0.53190762
-0.5256089 0.27551442 0.5372591
-0.47602028 0.28128377 0.54410416
-0.44514287 0.27800119 0.54807919
-0.65655446 0.31107965 0.51420301
-0.6243853 0.32425624 0.51788527
-0.57473487 0.32466942 0.52519417
-0.52411962 0.32537457 0.53198928
-0.47301289 0.32601744 0.54051614
-0.4397237 0.32659587 0.54645908
-0.61365718 0.36885804 0.51286507
-0.57520235 0.37560511 0.51825523
-0.52446663 0.37503892 0.52606547
-0.47270054 0.37462443 0.53643525
-0.4284566 0.37852564 0.54518145
-0.60118729 0.40065724 0.50947481
-0.57102269 0.42292005 0.51430255
-0.52512556 0.4245055 0.52229953
-0.47399214 0.42449662 0.53298044
-0.42488876 0.42535594 0.54411399
-0.39522603 0.43228567 0.54885441
-0.55823648 0.46275061 0.51424325
-0.52373755 0.47392756 0.51983565
-0.47382221 0.4743073 0.53143942
-0.42369124 0.47479558 0.54311305
-0.39448762 0.47322649 0.54902422
-0.51264215 0.51780766 0.52114975
-0.47506845 0.52379197 0.53069168
-0.4262391 0.51849306 0.54236406
-0.39431459 0.51424772 0.54844904
-0.49590772 0.55130291 0.52378756
-0.40527278 -0.50199181 0.55254519
-0.37022161 -0.50537068 0.55560237
-0.32319432 -0.50817066 0.5600878
-0.27358121 -0.51019609 0.56571543
-0.22456405 -0.51244605 0.56941682
-0.1757212 -0.51203114 0.58025026
-0.12644021 -0.5134939 0.58732212
-0.073888153 -0.51741993 0.59053737
-0.025498951 -0.51905549 0.59255928
0.02351083 -0.52125394 0.59400302
0.073877513 -0.52298939 0.59285611
0.12556726 -0.52478135 0.59018618
0.17648947 -0.52644563 0.58563453
0.22621934 -0.52880335 0.57976061
0.27537692 -0.53126806 0.57553232
0.32440645 -0.53275889 0.57494003
0.37432861 -0.53437543 0.57522106
0.42527318 -0.53443867 0.5747745
0.4749431 -0.53498179 0.57555431
0.52405876 -0.53538805 0.57369608
0.57291889 -0.53475213 0.57707119
0.62043816 -0.5322507 0.58645904
0.6614539 -0.53067803 0.59873372
-0.50200456 -0.47321069 0.55351543
-0.47177154 -0.46354279 0.55636466
-0.42321435 -0.47228253 0.56134427
-0.37522349 -0.47483876 0.57067114
-0.32416147 -0.47523203 0.58148164
-0.27591193 -0.47891071 0.58939075
-0.2266655 -0.48783329 0.59281492
-0.18698645 -0.49508974 0.59597909
-0.089862287 -0.49619952 0.57350683
0.44505331 -0.48735172 0.599231
-0.51483995 -0.41629753 0.55301541
-0.47509643 -0.42466176 0.56163353
-0.42529157 -0.42409989 0.57123834
-0.37647465 -0.42950323 0.58201134
-0.32515332 -0.43903112 0.59250528
-0.29471076 -0.44326413 0.59850103
-0.55786324 -0.36929935 0.55137986
-0.52285296 -0.37414646 0.55564356
-0.47483671 -0.37434071 0.56635314
-0.42890218 -0.37756172 0.57617015
-0.39114073 -0.38302872 0.5851723
-0.56427455 -0.32198617 0.55217326
-0.52450156 -0.32458758 0.5577485
-0.47669709 -0.32524481 0.56796116
-0.4388679 -0.33102629 0.57652801
-0.56870586 -0.27488786 0.55267078
-0.52560949 -0.27498353 0.5582571
-0.48037225 -0.27615851 0.56807899
-0.44394708 -0.29692769 0.57601953
-0.60315442 -0.22279789 0.55088741
-0.57122296 -0.22479135 0.55293381
-0.52959865 -0.22581035 0.55827188
-0.47074828 -0.22779824 0.5705936
-0.60597134 -0.17839324 0.55035412
-0.57221901 -0.17707446 0.55287403
-0.53515339 -0.17894529 0.557078
-0.46362722 -0.17597352 0.56886947
-0.60448033 -0.12849167 0.55031013
-0.57197392 -0.1264977 0.55209559
-0.54027939 -0.12983193 0.55694795
-0.45861918 -0.13268019 0.56195629
-0.44983578 -0.10034902 0.55425292
-0.56537592 -0.079629429 0.55194086
-0.54622328 -0.08016891 0.55474961
-0.457607 -0.075964302 0.56047136
-0.56985301 -0.025272531 0.55199265
-0.45502457 -0.029305261 0.55976957
-0.4474819 -0.017378569 0.55931878
-0.56097603 0.024855783 0.55204433
-0.45192486 0.021271557 0.56118631
-0.44339371 0.022911672 0.55861276
-0.022262091 0.033372343 0.57203621
-0.55965948 0.062372025 0.5514431
-0.54311407 0.094367772 0.55264628
-0.45102245 0.075284287 0.56156594
-0.44094783 0.081658728 0.55729389
-0.017530324 0.071535416 0.58495253
-0.56958109 0.10723229 0.55086643
-0.52920932 0.13912146 0.55166334
-0.45165038 0.12833288 0.55941892
-0.44359967 0.12075115 0.55895633
-0.51482391 0.17674266 0.55090505
-0.4561851 0.17605606 0.56021899
-0.445784 0.17490231 0.55558014
-0.45999044 0.22316276 0.55423027
-0.44788983 0.22294198 0.55252123
-0.45540252 0.27203581 0.55148208
-0.44680467 0.27581355 0.55149037
-0.45605466 0.31416076 0.55045176
-0.41934919 0.32719788 0.55320889
-0.38806182 0.33794206 0.56086946
-0.04677378 0.31755224 0.59317911
-0.40517634 0.37413701 0.55195051
-0.37852636 0.38487157 0.55623335
-0.33565593 0.38826668 0.56798446
-0.40404117 0.41503501 0.55135536
-0.37542951 0.42740566 0.55484712
-0.32891101 0.43105522 0.56622088
-0.28449959 0.4379136 0.57758486
-0.21495703 0.4439868 0.59538448
-0.37049913 0.47562954 0.55554527
-0.32547945 0.47577778 0.56648082
-0.27764875 0.47763193 0.57789278
-0.22459757 0.48049852 0.59133488
-0.19242077 0.48646072 0.59787875
-0.37265408 0.51223683 0.55512255
-0.32673815 0.50724846 0.56668454
-0.28211918 0.50292295 0.57662886
-0.22018819 0.50039804 0.59571618
-0.15662368 -0.50102079 0.60117477
-0.11896491 -0.50321704 0.60470986
-0.07290829 -0.50951928 0.61148268
-0.024511611 -0.50848532 0.61247814
0.025086062 -0.51014781 0.61717314
0.075523801 -0.51151299 0.62054306
0.12481234 -0.5121749 0.62482458
0.17418328 -0.51424456 0.62536466
0.2243911 -0.51622891 0.62523806
0.27426907 -0.51791769 0.62521541
0.32432264 -0.52013367 0.62425137
0.37453279 -0.52149087 0.62483269
0.42615739 -0.52040207 0.62340868
0.47420394 -0.51587546 0.61534661
0.52488768 -0.52198762 0.62400657
0.57327515 -0.52281362 0.62447727
0.6246326 -0.52244323 0.62461722
0.67380846 -0.52215427 0.62602186
0.72331232 -0.51669061 0.63747323
-0.26497695 -0.45716795 0.60289657
-0.22238587 -0.46417347 0.60831052
-0.17427552 -0.4759995 0.61077976
-0.12529711 -0.47850594 0.61902034
-0.074511565 -0.47673693 0.63015962
-0.027822008 -0.47960708 0.63603479
0.023257988 -0.48612565 0.64081794
0.068886489 -0.49280629 0.64488041
0.11717945 -0.49786687 0.64764005
0.44463921 -0.4937093 0.6081053
0.45723847 -0.49097043 0.61685246
-0.31374693 -0.43019733 0.60563707
-0.27257001 -0.4413006 0.60467076
-0.22780834 -0.44183713 0.61448997
-0.18363449 -0.4447557 0.62489295
-0.11763649 -0.44528076 0.63818526
-0.078017071 -0.44088751 0.64438468
-0.04749687 -0.44804898 0.64945894
-0.073522091 -0.38229197 0.64919519
-0.072703131 -0.31753552 0.64744049
-0.063063845 -0.23348944 0.64676636
-0.058604412 -0.17484823 0.64384484
-0.057014417 -0.12082814 0.63331223
-0.048874281 -0.1227958 0.64602041
-0.052480206 -0.085220456 0.63270146
-0.044396359 -0.074736133 0.63807446
-0.036566865 -0.029239416 0.63869554
-0.025211789 0.02235209 0.63772607
-0.018353112 0.075418025 0.63673711
-0.018832823 0.12691359 0.63473189
-0.030709714 0.22500344 0.6295718
-0.039869741 0.27596045 0.62779367
-0.053663071 0.32904533 0.62948465
-0.045250725 0.31636518 0.62118483
-0.057381429 0.37537825 0.62420207
-0.042110413 0.36343059 0.6247263
-0.20104583 0.4422985 0.60066831
-0.18267362 0.44858393 0.60249901
-0.10284172 0.43228775 0.61981934
-0.059664015 0.42580521 0.62743491
-0.012293771 0.44383401 0.63439023
0.028611271 0.43521237 0.64011234
0.074326813 0.43652073 0.6466921
0.10559637 0.43795976 0.64941883
-0.16356407 0.47825727 0.60534137
-0.12399787 0.48242104 0.61287451
-0.069249533 0.4779312 0.62401497
-0.02704896 0.47723821 0.62878323
0.024997037 0.47908404 0.63495493
0.075593829 0.4771291 0.64390063
0.10607652 0.48142689 0.64874566
-0.063190915 0.50568026 0.63304341
-0.020338094 0.50124836 0.62969697
0.028846562 0.50456804 0.63510716
0.077906668 0.50844181 0.6432249
0.10933604 0.51356745 0.64848453
0.18096268 -0.50191641 0.65332073
0.22785671 -0.50344926 0.65661913
0.2761687 -0.50522858 0.66074783
0.32611215 -0.50670284 0.66389024
0.37536946 -0.50743783 0.66672915
0.42439124 -0.50792897 0.66918623
0.47136766 -0.50624621 0.67066467
0.52549767 -0.50828433 0.67227751
0.57465762 -0.50928622 0.67377424
0.6239208 -0.50965697 0.67364985
0.67598557 -0.50955522 0.66885144
0.72173995 -0.50761056 0.67153692
0.77260977 -0.51251185 0.67742473
0.81287342 -0.50760484 0.68296647
-0.07263574 -0.45442951 0.65213674
-0.017144965 -0.45671427 0.65302569
0.026870506 -0.46213731 0.65739369
0.07702405 -0.46927479 0.66112983
0.12487122 -0.47406223 0.66631418
0.17399783 -0.47626019 0.67301798
0.22398145 -0.47637486 0.68106472
0.27357683 -0.48087484 0.68624192
0.32277605 -0.48786098 0.68937516
0.37137672 -0.49342722 0.69183213
0.42379364 -0.49594912 0.69404131
0.47615927 -0.49616575 0.69114202
0.51992184 -0.49772054 0.69540083
0.56301522 -0.49981448 0.69736671
0.62785149 -0.49543265 0.69526762
0.67093927 -0.49488151 0.67692691
0.7100811 -0.49926627 0.65847504
0.83880407 -0.49549752 0.68845195
-0.071520329 -0.41917381 0.65806651
-0.021888124 -0.44197753 0.65605164
0.027707264 -0.44230253 0.66383749
0.075779565 -0.43982089 0.67226732
0.12665501 -0.43590012 0.68229026
0.17553274 -0.4270575 0.69188285
0.21723282 -0.4327122 0.69669801
0.25829068 -0.41966426 0.69722056
-0.07116247 -0.37271404 0.65883899
0.13781373 -0.38464442 0.69737601
0.1559201 -0.39387217 0.69900697
-0.066641882 -0.31992558 0.65842855
-0.062998444 -0.27753603 0.66048026
-0.059508231 -0.22375405 0.65390158
-0.053651925 -0.19062074 0.65213966
-0.039688081 -0.054482218 0.65049213
-0.032232396 -0.019324036 0.65227616
0.29514924 0.13413386 0.69664651
0.31675479 0.13534197 0.69875616
0.29141679 0.18375215 0.69353449
0.31972799 0.17532602 0.69768775
0.28346118 0.23206563 0.68987465
0.32147628 0.2269709 0.6963352
0.23902991 0.283692 0.6813935
0.2790601 0.2776607 0.68731111
0.32121584 0.27545616 0.69503891
0.35013217 0.25166544 0.69982016
0.19196625 0.33904555 0.67118734
0.23367937 0.32909966 0.67724138
0.27647015 0.32510343 0.68515337
0.323226 0.32521689 0.69438201
0.35086912 0.33308449 0.69953614
0.13321942 0.38725019 0.65950811
0.18321967 0.37805632 0.66733032
0.22703588 0.37736097 0.67420304
0.27453604 0.374856 0.68334532
0.32383555 0.37472391 0.69338405
0.35416254 0.38231966 0.6995315
0.093426935 0.42359766 0.65059102
0.12761332 0.42718643 0.65508878
0.17591891 0.42531949 0.66395658
0.22444074 0.42456308 0.67209285
0.27432767 0.42460921 0.68212575
0.32480064 0.42465949 0.69293457
0.35694951 0.43324241 0.6990847
0.099227495 0.46076038 0.65093863
0.12937796 0.47326559 0.65378338
0.17440236 0.4742347 0.66243291
0.22432025 0.47461304 0.67133266
0.27457362 0.47411409 0.68143064
0.32410333 0.47529066 0.69190556
0.35577592 0.47409284 0.69820708
0.13243975 0.51417303 0.65339392
0.17606264 0.52175725 0.6620968
0.2249648 0.5244301 0.67111611
0.27464542 0.5241102 0.68069273
0.32462588 0.52525121 0.69098687
0.35867238 0.52672619 0.69784635
0.22918317 0.5559665 0.67161685
0.27777645 0.56557941 0.68062979
0.32537225 0.57389319 0.69021839
0.36083877 0.57558006 0.69696766
0.34224355 0.60450399 0.69300079
0.36684719 0.60892606 0.69733012
0.55221009 -0.5006243 0.70022237
0.68380243 -0.50160986 0.71065456
0.72726297 -0.50369781 0.7139582
0.77764291 -0.50447929 0.71856016
0.82532233 -0.50526756 0.72332656
0.86229122 -0.5035457 0.73747289
0.24663866 -0.45183927 0.70021915
0.28217772 -0.4569518 0.70408201
0.32740587 -0.46284381 0.70739686
0.37587449 -0.46922529 0.71159106
0.42522407 -0.47259882 0.71770269
0.47503531 -0.4738819 0.72323895
0.52527893 -0.47745547 0.72689402
0.5747084 -0.48478341 0.72678524
0.6218608 -0.48862147 0.72938877
0.67329812 -0.49449009 0.7344175
0.72279358 -0.49647173 0.73824412
0.76938307 -0.49855819 0.74167764
0.82398593 -0.4988279 0.73347569
0.86488992 -0.49801722 0.72701341
0.90162992 -0.48507708 0.71982443
0.19429709 -0.40423813 0.70084238
0.23085584 -0.41894504 0.70340538
0.27512687 -0.42414227 0.70893973
0.32476813 -0.4245587 0.71710247
0.37486139 -0.42460072 0.72575033
0.42496213 -0.42465106 0.7341215
0.47394529 -0.42476133 0.74240702
0.51456481 -0.43392804 0.74724954
0.18779562 -0.38358542 0.70219398
0.22713023 -0.37858149 0.70704275
0.27481657 -0.37485352 0.71431458
0.32449365 -0.37483758 0.72235644
0.37488309 -0.37479377 0.7311846
0.42482102 -0.374928 0.73981154
0.46616352 -0.37639996 0.74668288
0.1898502 -0.33888507 0.70679975
0.23583217 -0.3324182 0.70969319
0.27715352 -0.32591999 0.71501797
0.32427484 -0.32519743 0.72253036
0.3738907 -0.32475692 0.73111147
0.42460787 -0.32502341 0.7402342
0.46305794 -0.32411298 0.74668759
0.24651411 -0.28999767 0.71048927
0.28075629 -0.27816516 0.71406442
0.3250052 -0.27547637 0.72096235
0.37486237 -0.27470222 0.72989815
0.42462674 -0.27514797 0.73914862
0.46635783 -0.27513492 0.74646819
0.28668603 -0.22942653 0.71267158
0.32458809 -0.22566491 0.71820128
0.37405923 -0.22479944 0.72725064
0.42418399 -0.22456509 0.73682863
0.47089845 -0.22374089 0.74550718
0.29635811 -0.18045416 0.71221232
0.32827058 -0.17521398 0.71618128
0.37484884 -0.17459226 0.72458982
0.42468604 -0.17457829 0.73417377
0.47459483 -0.17473319 0.74381346
0.50426733 -0.1650327 0.74860829
0.28953192 -0.13342799 0.70959318
0.33271956 -0.12730266 0.71406031
0.37489679 -0.12455849 0.7212534
0.42393231 -0.12416752 0.73094207
0.47447509 -0.12503023 0.74138248
0.50848335 -0.12641369 0.74784654
0.33565748 -0.072873332 0.7105208
0.37445256 -0.074847743 0.71792054
0.4244642 -0.074632481 0.7281329
0.47315687 -0.074659728 0.7383154
0.51385522 -0.075747102 0.74712497
0.33777454 -0.025160423 0.70876485
0.37507257 -0.026174027 0.71571958
0.42443267 -0.02584295 0.72571462
0.47433659 -0.025701385 0.73622751
0.51725078 -0.024689751 0.74534792
0.33530036 0.024659384 0.70734626
0.37444222 0.024277642 0.71368748
0.42316094 0.024228819 0.72345781
0.47293434 0.02421524 0.73370123
0.52045256 0.024775375 0.74405533
0.33549628 0.076950438 0.70466292
0.37432581 0.075259872 0.71151924
0.42412883 0.074868448 0.72174269
0.47319645 0.074621879 0.73172188
0.52472955 0.075714633 0.74316555
0.55640954 0.084828064 0.74847353
0.33645838 0.12362558 0.70286232
0.37507874 0.12509902 0.70993692
0.42527723 0.12500167 0.72003496
0.47516131 0.12475035 0.73046893
0.52331716 0.12515642 0.74078435
0.5565061 0.12423176 0.74770391
0.34073281 0.17362034 0.70196217
0.37441045 0.17474504 0.70856112
0.42410323 0.17520109 0.71852863
0.47433329 0.17393662 0.72903591
0.52430201 0.17478952 0.74033701
0.558882 0.17534207 0.74795586
0.34435591 0.21938178 0.70156878
0.3742688 0.2240787 0.70726621
0.42399549 0.22463934 0.71762824
0.47424707 0.22503452 0.72844225
0.52530462 0.22437915 0.74022186
0.56161958 0.22546485 0.74790543
0.3456881 0.27354434 0.70091736
0.37476781 0.2748903 0.70627427
0.42439029 0.27484405 0.71719342
0.47440815 0.27507687 0.72802311
0.52423465 0.27506256 0.73929811
0.56145096 0.27620536 0.74723309
0.34539849 0.31160498 0.70065314
0.37534451 0.32441354 0.70545429
0.42403784 0.3245489 0.71631896
0.4737168 0.32496276 0.72705323
0.52481341 0.3247216 0.73863554
0.56253648 0.32761982 0.74673873
0.34766313 0.35461298 0.70087415
0.37632468 0.37381563 0.70489693
0.42424375 0.37496072 0.71524179
0.47402245 0.37447971 0.72647351
0.52410412 0.37472707 0.73728895
0.56518644 0.37656689 0.7456907
0.37785578 0.4227761 0.7045024
0.42490348 0.42462018 0.71474737
0.47535086 0.4249281 0.72543681
0.52504331 0.42442793 0.73653007
0.57082957 0.42473295 0.74577111
0.3809303 0.47372898 0.70439821
0.42424193 0.47467554 0.71347672
0.47444206 0.47473353 0.72400355
0.52402383 0.47414491 0.73442852
0.57244492 0.47490349 0.74410176
0.60476649 0.49286121 0.74991381
0.38249803 0.52360731 0.70378923
0.42461538 0.52385253 0.71218121
0.47443548 0.52496898 0.72235912
0.52437288 0.52472925 0.73294926
0.57505232 0.52492869 0.74304914
0.60629004 0.530343 0.74862248
0.38566953 0.57395446 0.70267278
0.42506588 0.57333666 0.71059716
0.47515279 0.57449418 0.72065735
0.52490664 0.57404745 0.73108244
0.57488751 0.57559437 0.7411564
0.61066508 0.57947439 0.74761921
0.38913399 0.61667848 0.70223606
0.42509842 0.62205529 0.7089504
0.47379014 0.62474769 0.71870345
0.52426594 0.62418211 0.72920531
0.57373923 0.62588423 0.73881936
0.61217719 0.62450731 0.74720377
0.4448179 0.6551671 0.71283114
0.48056644 0.66232985 0.71803874
0.52627474 0.67272526 0.72710782
0.57491493 0.67553902 0.73692727
0.61855471 0.67629588 0.74594009
0.54179376 0.70419568 0.7288484
0.58049089 0.7146436 0.73662764
0.62188375 0.72307104 0.74425632
0.63454968 0.75209022 0.7467702
0.65079433 0.7546609 0.74856257
0.87880534 -0.50157911 0.76060122
0.9329114 -0.50410646 0.78264427
0.9672575 -0.52385724 0.79341769
0.54655075 -0.45498234 0.75003999
0.57951057 -0.45965144 0.75531459
0.62689656 -0.46435592 0.76074815
0.67621237 -0.47071004 0.76667678
0.72608989 -0.47327736 0.77266002
0.77511352 -0.47762918 0.77719122
0.8239969 -0.48468682 0.77972937
0.87237799 -0.48962888 0.78106409
0.92030132 -0.49004626 0.78852129
0.97054178 -0.4902699 0.79601109
0.49404541 -0.40415081 0.75105876
0.52895862 -0.4201864 0.75409895
0.57245803 -0.42513856 0.76085693
0.62362641 -0.42384216 0.77125514
0.67325896 -0.42512861 0.78042799
0.72361469 -0.42348799 0.78990453
0.76749992 -0.42784235 0.79671603
0.48866829 -0.37076232 0.75181079
0.52506822 -0.37519419 0.75781977
0.57512861 -0.37433937 0.76694083
0.62522846 -0.37541053 0.77592593
0.67517346 -0.37497252 0.78474605
0.72595549 -0.3751328 0.79424232
0.75813663 -0.37251788 0.79840517
0.48668474 -0.32638338 0.75177568
0.52328861 -0.32478794 0.75808191
0.57403362 -0.3239741 0.7675277
0.62499106 -0.32640353 0.77671689
0.67572182 -0.3246046 0.78568357
0.72552323 -0.32520089 0.79479772
0.75451368 -0.32950467 0.79813319
0.48917502 -0.27456039 0.75154006
0.52424181 -0.27537999 0.75780028
0.57456082 -0.27472728 0.76687157
0.62396628 -0.27533427 0.77579546
0.67358083 -0.27395847 0.78476673
0.72444898 -0.27383083 0.79383945
0.75828326 -0.28075677 0.79833782
0.49527648 -0.23417281 0.75154978
0.52416867 -0.2247515 0.7560454
0.57452524 -0.22474268 0.76551747
0.62466919 -0.2247038 0.77471489
0.67457747 -0.22373663 0.78392118
0.72489291 -0.22467804 0.79324853
0.75724447 -0.22714962 0.79814571
0.52678972 -0.17617978 0.75482738
0.57363671 -0.17468797 0.76360619
0.62414199 -0.17444 0.77326185
0.67420381 -0.17433095 0.78247315
0.72477025 -0.17508166 0.79234684
0.75674325 -0.17557564 0.79804921
0.53285617 -0.12442701 0.75353354
0.57525861 -0.1252678 0.76217288
0.62391716 -0.12505212 0.7715618
0.67353696 -0.12388015 0.78114164
0.72406876 -0.12414252 0.79135412
0.75755227 -0.1291825 0.79769194
0.53913999 -0.076419562 0.75301427
0.57455045 -0.074032702 0.75994837
0.62490982 -0.075717367 0.77027482
0.67368698 -0.074876465 0.77966017
0.72306877 -0.074346557 0.78989971
0.76257569 -0.075317897 0.79767686
0.54169619 -0.030226368 0.75171882
0.57463658 -0.025581567 0.75838554
0.62314802 -0.026542336 0.76804024
0.67364889 -0.025026476 0.77843243
0.72558922 -0.02612556 0.78905082
0.76777649 -0.029210972 0.79767406
0.5463261 0.018286621 0.75134176
0.57530844 0.023922436 0.75613678
0.62498999 0.024840029 0.76677793
0.67550999 0.02275279 0.77725899
0.72543335 0.024253778 0.78704274
0.76723903 0.022538694 0.79572868
0.54982501 0.055037159 0.75167012
0.57523137 0.074031383 0.75460821
0.6228385 0.07582508 0.7642777
0.67465693 0.074103408 0.77503556
0.72629946 0.075033762 0.7859081
0.7731632 0.076470248 0.79520273
0.58167303 0.12511469 0.75415671
0.62415677 0.12503241 0.76282138
0.67366809 0.1239145 0.77345222
0.72349906 0.12539877 0.78382927
0.77316022 0.12607227 0.79425412
0.80578578 0.13425137 0.79902184
0.58314461 0.17508407 0.75337404
0.62482232 0.17439857 0.76235884
0.67422169 0.17401236 0.7724672
0.72396535 0.17488861 0.78311473
0.77430373 0.1752492 0.79381973
0.81066561 0.19084263 0.79884231
0.58403325 0.22578184 0.75333422
0.62469906 0.22430161 0.76161611
0.67455697 0.22381105 0.77214921
0.72439003 0.22467101 0.78235608
0.7734983 0.22474153 0.79263896
0.80160332 0.22437218 0.79881918
0.58557206 0.27387688 0.7527743
0.62501198 0.27445912 0.76070976
0.67469573 0.27345431 0.7710095
0.72373128 0.2759361 0.78170627
0.77297103 0.2737982 0.79193699
0.80830383 0.27810875 0.79785496
0.58678991 0.32299501 0.75217271
0.62437803 0.32452387 0.75969821
0.67447174 0.32530496 0.7701292
0.72480935 0.3241618 0.78093582
0.7727744 0.3241072 0.79108256
0.81011897 0.3310011 0.79814243
0.59041119 0.37115467 0.75179267
0.62461728 0.37497073 0.7582444
0.67541242 0.37422955 0.76906991
0.7256878 0.3755002 0.7796101
0.77483135 0.3746314 0.79008937
0.81392425 0.37683234 0.79750144
0.59522194 0.42314744 0.75123864
0.6252206 0.42533049 0.75676221
0.67593968 0.42502576 0.76743692
0.72502089 0.42516237 0.77755094
0.77402407 0.42463151 0.78843099
0.81603956 0.42373931 0.79635489
0.59767783 0.47036874 0.75052917
0.62457478 0.47397405 0.75518817
0.67569053 0.47395003 0.76560432
0.72545534 0.47573119 0.77604324
0.77475923 0.47360212 0.78587979
0.81681997 0.47620678 0.79486072
0.6297195 0.52225262 0.75488925
0.67450494 0.52493614 0.76381713
0.72542089 0.52442938 0.77437764
0.77481663 0.52312011 0.78506649
0.82190967 0.52582419 0.79408985
0.85761791 0.54755771 0.7992214
0.63230914 0.57217324 0.75360328
0.67512339 0.57400674 0.76212764
0.72408676 0.57477421 0.7722888
0.77426392 0.57392597 0.78247005
0.82449508 0.57329434 0.7929067
0.8591373 0.57921183 0.79887503
0.63657618 0.6245575 0.7521773
0.67465967 0.62348104 0.76003551
0.72644305 0.62348294 0.77060878
0.77706039 0.62543368 0.78111762
0.82422149 0.62398374 0.79042649
0.86025202 0.63014394 0.79911143
0.64100802 0.67100728 0.75165319
0.67331618 0.67417771 0.75740212
0.72302341 0.67350316 0.76816177
0.77302188 0.6745919 0.77838522
0.82553142 0.67741877 0.78991598
0.86029667 0.67491043 0.79638839
0.64417058 0.71924907 0.75112057
0.67472327 0.72330493 0.75623745
0.7244637 0.72607124 0.76859623
0.77303368 0.72448689 0.77942348
0.82378858 0.72364593 0.7903384
0.86511695 0.71485806 0.79672354
0.64721334 0.76243156 0.75016683
0.68057287 0.76852381 0.7585507
0.72728437 0.77546132 0.76733577
0.76946157 0.76364475 0.77216792
0.81685597 0.75510675 0.78738689
0.72595966 0.80239987 0.76311922
0.98784554 -0.55057645 0.81483471
1.002082 -0.55881476 0.81139857
0.9806844 -0.52784848 0.80850494
1.0233968 -0.52412534 0.82011855
1.0536635 -0.52914631 0.83095813
0.79577208 -0.45347905 0.8005988
0.82665777 -0.45893088 0.80439454
0.87530756 -0.46454239 0.80890411
0.92408335 -0.46748471 0.81369972
0.97504425 -0.47192043 0.81842828
1.0253783 -0.47675169 0.8230601
1.0684677 -0.46933681 0.8353138
1.1068156 -0.46313465 0.8468951
0.7837379 -0.41652939 0.80232066
0.8220579 -0.42470664 0.80709821
0.8740682 -0.42452085 0.81600946
0.92432451 -0.4250994 0.82467616
0.97710758 -0.42486453 0.83472908
1.0262655 -0.42677608 0.84175891
1.0712816 -0.43067965 0.84710389
1.1175728 -0.4345822 0.84943879
0.7794382 -0.37684691 0.80362427
0.82420111 -0.37360504 0.81053036
0.87501609 -0.37641457 0.81964773
0.92486757 -0.37370178 0.82825172
0.9733839 -0.3751387 0.83605289
1.0200239 -0.37715644 0.84440815
1.0567515 -0.37635955 0.84912658
0.78134066 -0.32467365 0.80458415
0.82500571 -0.32510704 0.81177008
0.87379748 -0.32648209 0.82009774
0.92489415 -0.32393199 0.82880098
0.97794336 -0.32457313 0.83753413
1.0158165 -0.33112213 0.84357965
1.0541029 -0.3316929 0.84944057
0.77616405 -0.27535436 0.8040477
0.82059681 -0.27505592 0.81154794
0.87076491 -0.27630731 0.8195709
0.92439163 -0.27420101 0.82887495
0.97510302 -0.27305886 0.83747345
1.0169718 -0.27585807 0.84495807
0.77977043 -0.22324961 0.80354244
0.82383156 -0.22630054 0.81127501
0.87399554 -0.22553627 0.82047433
0.92481726 -0.22432251 0.82852608
0.97464073 -0.22485384 0.83703071
1.0235837 -0.2243423 0.84622508
0.7815963 -0.1748337 0.80314821
0.82650894 -0.17534262 0.81171769
0.87473726 -0.17637676 0.82040215
0.92510986 -0.17574188 0.82849735
0.97697735 -0.17396529 0.83735144
1.0214022 -0.17654392 0.84451199
1.0507355 -0.19231677 0.84640068
0.78306323 -0.1241388 0.80374295
0.8245635 -0.1246549 0.81058091
0.87480086 -0.1255006 0.81972665
0.92440647 -0.12440263 0.82823938
0.97434419 -0.12653373 0.83706874
1.0229862 -0.1261809 0.8449266
1.054003 -0.11364925 0.84935927
0.78952509 -0.075555548 0.80343384
0.82573831 -0.07450442 0.80999213
0.87490594 -0.074797899 0.8190102
0.92369729 -0.076786749 0.82867694
0.97138864 -0.073842205 0.83644259
1.019032 -0.074244849 0.84434551
0.78645152 -0.024459241 0.80253142
0.82274002 -0.025394944 0.80865282
0.87390852 -0.026283331 0.818546
0.92457014 -0.026202817 0.82753003
0.97532219 -0.025828684 0.83598959
1.0276415 -0.024123469 0.84478205
0.78994542 0.027581088 0.80202132
0.82239687 0.023644663 0.80709684
0.87417418 0.024905995 0.81729817
0.92604274 0.021738037 0.82666177
0.97641546 0.023949172 0.83513021
1.0263721 0.024381705 0.84429157
0.78811413 0.06443426 0.80062401
0.82250309 0.075046912 0.80553597
0.87395281 0.074704051 0.81623858
0.92354274 0.075182393 0.82518983
0.97474045 0.073698178 0.83399779
1.0277872 0.075035103 0.84358168
0.79579747 0.11692911 0.80092829
0.82728952 0.12362771 0.80573398
0.87342644 0.12424532 0.8146621
0.92292905 0.12615761 0.82360464
0.97118098 0.12424894 0.83199203
1.0220301 0.12351137 0.8420794
1.0548373 0.12705432 0.84794223
0.79896951 0.1818924 0.80085564
0.82802266 0.1731472 0.80550045
0.8761875 0.1754138 0.8144151
0.92529762 0.17379299 0.82368058
0.97240525 0.17314224 0.83199221
1.0260166 0.1754844 0.84278619
1.0617807 0.1721742 0.84868944
0.79623061 0.2157771 0.80043185
0.8243556 0.22423406 0.80443776
0.87307829 0.22473767 0.81333959
0.92396247 0.22508748 0.8230862
0.97478229 0.22541383 0.83239734
1.0257123 0.22342496 0.84247363
1.0606961 0.22876471 0.84779567
0.82799405 0.27397588 0.80397695
0.87519246 0.2746731 0.8128649
0.92385626 0.27638224 0.82226104
0.97548401 0.2747176 0.83214527
1.027603 0.2744312 0.84197271
1.0646458 0.27248889 0.84753573
0.83249617 0.32009673 0.80359578
0.87398112 0.32545203 0.81131899
0.92475563 0.32466882 0.82105345
0.97227138 0.32573712 0.82988375
1.0218668 0.32393819 0.84083384
1.0588759 0.32417846 0.84727269
0.83268178 0.37320682 0.80284095
0.87244213 0.37522471 0.80969596
0.92482454 0.3755407 0.82018608
0.97556567 0.37464404 0.82991314
1.0249631 0.37531102 0.83908957
1.0618864 0.37552837 0.84578097
0.84121901 0.41692176 0.80296785
0.87372011 0.42691842 0.8084538
0.92497271 0.42380214 0.81890577
0.97375923 0.42477104 0.82780725
1.0227109 0.42451623 0.83718854
1.068089 0.42821267 0.84752274
0.84258574 0.46745923 0.80259049
0.87292349 0.47387508 0.80695218
0.92522168 0.47522238 0.81769222
0.97615272 0.47532263 0.82805938
1.0209478 0.47350466 0.83625197
1.0665673 0.47776076 0.84644842
0.84534222 0.525567 0.80147219
0.87446463 0.52384233 0.8053242
0.92238069 0.52509773 0.81437117
0.9739092 0.52464515 0.8259629
1.0251707 0.52499104 0.83653784
1.06999 0.52519959 0.84698331
0.87756974 0.57545644 0.80445468
0.92214251 0.5748533 0.81360549
0.97444594 0.57755011 0.82499272
1.023396 0.57240754 0.83581114
1.0559119 0.55904907 0.84036809
0.87831515 0.62085891 0.80331415
0.92433226 0.62641406 0.81274712
0.97766733 0.62357086 0.82484102
1.0150104 0.61146182 0.83250147
0.88520652 0.67496186 0.80363792
0.92318904 0.67413872 0.81191003
0.96030229 0.66192627 0.82108301
0.87738222 0.72710955 0.80276674
0.91237026 0.70721292 0.81072199
1.0923969 -0.46115905 0.85194457
1.1121479 -0.45629779 0.85238677
1.08171 -0.41662115 0.85327941
1.1212122 -0.41868049 0.85623527
1.1577318 -0.40871015 0.87015069
1.0422876 -0.36572707 0.85091645
1.0774097 -0.3733497 0.85506296
1.126478 -0.37731615 0.86340886
1.0382714 -0.3223443 0.85184073
1.0757163 -0.32549047 0.85836232
1.1142825 -0.32443905 0.86394018
1.0451758 -0.27473235 0.8515535
1.0776212 -0.27848211 0.85911709
1.1093618 -0.27784163 0.86612803
1.0409365 -0.23510206 0.8516677
1.0713418 -0.22722001 0.85519636
1.039951 -0.17946289 0.85061276
1.0636748 -0.17389789 0.8534143
1.0445423 -0.12130923 0.85152715
1.0604665 -0.12647808 0.85312754
1.0440381 -0.059121128 0.85108072
1.0544367 -0.082411945 0.85254222
1.0358026 -0.038044617 0.85075498
1.0502061 -0.041332852 0.85150629
1.0483259 0.030523883 0.85020447
1.0539877 0.078865767 0.852009
1.0615644 0.1844499 0.85043263
1.0785372 0.22953603 0.85386306
1.0839874 0.27576953 0.85383981
1.1054602 0.2877675 0.85914415
1.0842195 0.32680559 0.85395062
1.1156242 0.32734948 0.86121267
1.0833564 0.37306365 0.85267276
1.1248016 0.37561673 0.86198074
1.154952 0.38970071 0.87197262
1.082141 0.42051148 0.85198647
1.1216574 0.4242754 0.85935658
1.1558872 0.41702822 0.86673695
1.0887604 0.47590941 0.85229927
1.1195811 0.46988323 0.85756189
1.0911722 0.51324809 0.85152161
1.1012794 0.50517488 0.85260409
0 0 0 1 0 0 0 1 0 0 0 1 0 0 0 0 0 934 1 0 0
