ply
format ascii 1.0
comment PCL generated
element vertex 945
property float x
property float y
property float z
element camera 1
property float view_px
property float view_py
property float view_pz
property float x_axisx
property float x_axisy
property float x_axisz
property float y_axisx
property float y_axisy
property float y_axisz
property float z_axisx
property float z_axisy
property float z_axisz
property float focal
property float scalex
property float scaley
property float centerx
property float centery
property int viewportx
property int viewporty
property float k1
property float k2
end_header
-0.046165701 -0.22193401 0.43225175
-0.56487262 0.18520257 0.42505842
0.4255937 -0.55436158 0.49721599
-0.46170905 -0.53208274 0.49701133
-0.42351419 -0.5351128 0.49176925
-0.38531348 -0.53434712 0.49429825
-0.65293366 -0.20756391 0.49429855
-0.62871969 -0.20344007 0.47489575
-0.60346264 -0.19869743 0.45477459
-0.041620098 -0.13454255 0.46428892
-0.63391161 0.19699755 0.48030964
-0.59606349 0.19036211 0.45009068
0.39876989 -0.55128014 0.51205605
0.42732483 -0.55261785 0.5090788
0.46869156 -0.55321318 0.51657456
0.51093507 -0.5509451 0.52772218
-0.51275343 -0.50953674 0.51833123
-0.47268394 -0.51525766 0.52012271
-0.42439461 -0.51724988 0.52658063
-0.37507796 -0.52211934 0.52567959
-0.32698432 -0.52323443 0.53176719
-0.278979 -0.52277249 0.54060692
-0.24287251 -0.52337468 0.54748756
0.28975633 -0.53772712 0.54579091
0.32926571 -0.53968185 0.53807032
0.37613389 -0.54311579 0.5287531
0.42267454 -0.54493254 0.53183651
0.47398266 -0.5459249 0.53601933
0.52200466 -0.54518217 0.54042387
0.55795854 -0.54382509 0.54799789
-0.60328484 -0.45570648 0.53216821
-0.56899226 -0.46819049 0.53170991
-0.52380347 -0.47658074 0.53465718
-0.47647575 -0.48453286 0.54222208
-0.43954691 -0.49256504 0.54755032
-0.61646074 -0.41953787 0.53535843
-0.5747478 -0.4245607 0.54069459
-0.53199399 -0.43070757 0.546565
-0.49338272 -0.43694577 0.54885584
-0.65807217 -0.3644428 0.5339368
-0.62456101 -0.37485459 0.53869772
-0.57757175 -0.37560624 0.5461629
-0.54356539 -0.38532284 0.5495683
-0.66764081 -0.32352266 0.53432846
-0.62419832 -0.32491708 0.54150891
-0.58478141 -0.32730967 0.54786533
-0.67159724 -0.27508354 0.53427047
-0.62454462 -0.2755383 0.54396486
-0.58988148 -0.27415949 0.54843879
-0.67359239 -0.22491655 0.53532898
-0.62611544 -0.22529081 0.54515171
-0.59368461 -0.22401373 0.54911572
-0.67137879 -0.17604725 0.53761458
-0.62534046 -0.17444588 0.54588509
-0.59415442 -0.17488307 0.54908955
-0.66658235 -0.12627199 0.53842711
-0.6257028 -0.12461615 0.54503465
-0.59087551 -0.12184412 0.5487712
-0.44468287 -0.12483262 0.54356152
-0.66317362 -0.077021569 0.53817058
-0.62690294 -0.07507211 0.54371881
-0.58825588 -0.074429244 0.54797375
-0.44427094 -0.097576924 0.5435099
-0.0439483 -0.081346251 0.54509753
-0.65940225 -0.026041487 0.53770012
-0.6253885 -0.025221746 0.54312646
-0.58769143 -0.026535507 0.54742634
-0.44066197 -0.025081079 0.54364717
-0.65874666 0.024888158 0.53707993
-0.62430608 0.02432367 0.54211247
-0.58792686 0.025833251 0.54638904
-0.43545616 0.038077656 0.54848945
-0.6606555 0.076036505 0.53461587
-0.62473309 0.075319558 0.54017109
-0.58522421 0.075313121 0.5457105
-0.54678518 0.097915053 0.54937261
-0.43212375 0.076020882 0.54695129
-0.66356593 0.12668304 0.53219867
-0.62514591 0.12543231 0.53811485
-0.57614541 0.12637171 0.54420191
-0.54588395 0.13471128 0.54618859
-0.66611099 0.17647773 0.52642071
-0.62549704 0.1753431 0.53486884
-0.57625598 0.1764259 0.54113096
-0.53749621 0.17938408 0.54541206
-0.66465092 0.22463554 0.52217638
-0.62363398 0.22458111 0.53104502
-0.57474256 0.22514163 0.537534
-0.52818877 0.22732814 0.5422889
-0.46428385 0.23920789 0.54843318
-0.44533402 0.24677032 0.54916024
-0.66065997 0.27236 0.51773494
-0.62439996 0.27541634 0.52512187
-0.57505226 0.27502018 0.5321787
-0.52501374 0.27521983 0.53760093
-0.47397396 0.28023413 0.54459405
-0.44467959 0.28044802 0.54796886
-0.65631986 0.31097233 0.51402026
-0.6243242 0.32467437 0.51839328
-0.57393152 0.32481343 0.52553576
-0.5245254 0.32560387 0.53228092
-0.47452861 0.32582152 0.54020888
-0.44000918 0.33093545 0.54669029
-0.61404395 0.37026548 0.51335871
-0.57485765 0.37443438 0.51898021
-0.52393222 0.37488952 0.52669472
-0.47242853 0.37422922 0.53675658
-0.42984873 0.37818095 0.54524422
-0.60158628 0.40657052 0.51199025
-0.57094473 0.42272684 0.51489079
-0.52464145 0.42481118 0.52274406
-0.47365114 0.42415556 0.53344733
-0.42465723 0.42515221 0.54431021
-0.39588326 0.43717733 0.54927623
-0.5578208 0.46320081 0.51440513
-0.52412194 0.47514215 0.52046841
-0.47448501 0.47451282 0.53153872
-0.4240917 0.47451872 0.54327977
-0.39496896 0.47449064 0.54879701
-0.51288497 0.51904649 0.52181679
-0.47471127 0.52416289 0.53098512
-0.42687199 0.51834947 0.54229885
-0.39484605 0.51612306 0.54856092
-0.49670011 0.55218285 0.52462304
-0.40513104 -0.50181609 0.55235213
-0.36982986 -0.50542206 0.55589962
-0.32312959 -0.50805438 0.56022573
-0.27366179 -0.51046759 0.56533051
-0.2249434 -0.51242375 0.56902105
-0.17645174 -0.5122354 0.57979745
-0.12600714 -0.51317596 0.58744961
-0.074232832 -0.51641738 0.58990663
-0.025986912 -0.51862973 0.59263486
0.023821676 -0.52111542 0.59400463
0.073877491 -0.52301723 0.59288639
0.12609787 -0.52525604 0.59019792
0.17669864 -0.52657664 0.58573502
0.22597177 -0.52873391 0.58059853
0.27476469 -0.53132147 0.57511359
0.32420078 -0.53261918 0.57545918
0.37439275 -0.53446782 0.57461983
0.42445236 -0.53473032 0.57468939
0.47427109 -0.53515267 0.57514602
0.52443808 -0.5355379 0.57391745
0.57298684 -0.53494638 0.57666856
0.62057364 -0.53236502 0.58658975
0.65977883 -0.52933317 0.5972175
-0.50427401 -0.46212843 0.55055571
-0.4728823 -0.46323484 0.55651337
-0.4228155 -0.47236365 0.56149757
-0.37489304 -0.47446585 0.57106549
-0.3243987 -0.47514492 0.5813688
-0.27630374 -0.47881094 0.58923393
-0.22655989 -0.48758474 0.59278619
-0.18544969 -0.49510926 0.59616381
-0.089751467 -0.49827242 0.58882666
-0.51694369 -0.41579857 0.55318701
-0.4750354 -0.42442635 0.56158805
-0.42556918 -0.42344311 0.5713712
-0.37788489 -0.42941156 0.58156008
-0.32609794 -0.4393988 0.59235334
-0.2964896 -0.43967152 0.59793568
-0.55791861 -0.3699311 0.55153
-0.52324623 -0.37415832 0.555888
-0.47558308 -0.37449718 0.56639361
-0.42870805 -0.37819955 0.57636321
-0.38990626 -0.38362917 0.5863325
-0.56577611 -0.32210356 0.55228609
-0.52470106 -0.32536846 0.55776596
-0.47663301 -0.32578194 0.56839597
-0.43763921 -0.33378524 0.57678467
-0.56820029 -0.27523044 0.55242145
-0.52603507 -0.27547291 0.55823618
-0.47907922 -0.2766352 0.56806099
-0.43631321 -0.29477566 0.58061397
-0.60368872 -0.22631916 0.55077028
-0.57320029 -0.22591351 0.55313677
-0.52972257 -0.22477745 0.55818069
-0.47130939 -0.22818938 0.57082999
-0.60381681 -0.18790792 0.5510782
-0.57347363 -0.17588028 0.5529319
-0.53496677 -0.17929623 0.55737776
-0.46405613 -0.17552456 0.56923199
-0.60658288 -0.13251062 0.55030715
-0.57223421 -0.12697619 0.55223078
-0.53639024 -0.1291741 0.55771226
-0.45840594 -0.1306465 0.56197232
-0.44939283 -0.13359676 0.55424362
-0.56593949 -0.081915759 0.55253494
-0.54587108 -0.087194055 0.55469108
-0.45802996 -0.075916044 0.56053555
-0.44949198 -0.067868941 0.55751294
-0.56847751 -0.025659578 0.55232358
-0.54968673 -0.0067339209 0.5534597
-0.45733678 -0.026687117 0.56020123
-0.44723266 -0.022314539 0.55813795
-0.55588686 0.020562148 0.55269027
-0.45127958 0.016749531 0.56098968
-0.44329846 0.026401039 0.55838478
-0.021348665 0.038613323 0.57685632
-0.55948728 0.074187674 0.55205119
-0.54165566 0.087323114 0.55373931
-0.44141674 0.077917166 0.55731475
-0.01784591 0.068548411 0.5958457
-0.52841055 0.12808888 0.55465853
-0.45248327 0.12819609 0.56120098
-0.44520676 0.119468 0.56063658
-0.51552987 0.17871815 0.55116844
-0.45648915 0.17621082 0.56138068
-0.4451265 0.17657976 0.55525488
-0.45955086 0.22178014 0.5545665
-0.44741556 0.22209558 0.55238485
-0.4544903 0.2682389 0.55231118
-0.4421238 0.28621343 0.55141127
-0.038845547 0.27125174 0.59676194
-0.45221156 0.31949079 0.55068046
-0.42391777 0.32479608 0.55310756
-0.34317732 0.34756964 0.56973881
-0.045138843 0.31140757 0.59815049
-0.40645623 0.37435803 0.55158687
-0.38344079 0.38457575 0.5550167
-0.33832803 0.38800731 0.56622028
-0.40385494 0.41868019 0.55141795
-0.37466946 0.42702663 0.55536002
-0.32962394 0.43215424 0.56654072
-0.28184706 0.43794653 0.57857031
-0.21405295 0.44252449 0.59568632
-0.37207615 0.47506094 0.55520803
-0.32466248 0.4756895 0.56723911
-0.27716953 0.47715414 0.57820868
-0.2254108 0.48070008 0.59141117
-0.19199713 0.48587996 0.59757078
-0.4119294 0.50413638 0.5504117
-0.37333581 0.5121823 0.55524284
-0.32744098 0.50685793 0.56653649
-0.27942082 0.50280941 0.57750833
-0.15653838 -0.50074178 0.600833
-0.11998092 -0.50355846 0.60431021
-0.072985649 -0.50924391 0.61150366
-0.02433195 -0.50850785 0.61288756
0.025415421 -0.50979865 0.61727351
0.075794831 -0.5114457 0.62079322
0.12525201 -0.51237136 0.62468219
0.17421301 -0.51444101 0.62539393
0.22443655 -0.51632434 0.62547129
0.27455565 -0.51788145 0.62525916
0.32502162 -0.51970077 0.62623173
0.37496784 -0.52200103 0.62385494
0.42661682 -0.52050269 0.6234414
0.47415417 -0.51600361 0.61548996
0.52510542 -0.52219242 0.6234023
0.57492232 -0.52293575 0.62482005
0.62392896 -0.52260023 0.62466133
0.6727376 -0.5223406 0.62633693
0.72225398 -0.51685745 0.63712525
0.77069527 -0.51561534 0.64978957
-0.26614168 -0.45678499 0.60295188
-0.22218832 -0.46377638 0.60864556
-0.17444634 -0.47611162 0.6107344
-0.12516208 -0.47850406 0.61900723
-0.074311741 -0.47652614 0.63021946
-0.027852191 -0.47979251 0.6361022
0.023095593 -0.48609519 0.64074498
0.069575675 -0.49315408 0.64495748
0.11033676 -0.49847665 0.64724219
0.44499549 -0.49354914 0.60901129
0.45788071 -0.49193341 0.6162625
-0.31234956 -0.42828131 0.60293967
-0.27320665 -0.44179741 0.60445654
-0.22881858 -0.4413805 0.61389512
-0.1818421 -0.44430381 0.6246109
-0.11779332 -0.44535086 0.63767534
-0.07762678 -0.44056907 0.64457142
-0.046108872 -0.44137999 0.64921933
-0.078933172 -0.39374679 0.64587712
-0.062043495 -0.30111575 0.64618266
-0.064671375 -0.23887667 0.64718199
-0.057697091 -0.17966057 0.64475572
-0.056680009 -0.12105658 0.63312638
-0.048702478 -0.12560695 0.64613944
-0.052166946 -0.085798249 0.63256669
-0.043928869 -0.074534133 0.63860279
-0.035547253 -0.026805336 0.63891977
-0.024383184 0.024731791 0.63620698
-0.017757775 0.077957205 0.63611299
-0.018606834 0.12772124 0.63704807
-0.030823333 0.22617514 0.63144082
-0.03982459 0.27680027 0.62880874
-0.05361383 0.32946706 0.62971735
-0.045408662 0.31771177 0.62233239
-0.057068836 0.37569731 0.62387484
-0.048546527 0.35727638 0.62124658
-0.20404141 0.42399648 0.60077012
-0.17691246 0.44985932 0.60336256
-0.10308599 0.43332052 0.6212883
-0.059594631 0.42584193 0.62764925
-0.012295043 0.44517651 0.63457263
0.031343006 0.43818074 0.63959444
0.075364061 0.43631402 0.64657915
0.10337456 0.44145077 0.64949197
-0.16400087 0.47935244 0.6055364
-0.12101949 0.4827013 0.61428005
-0.06741289 0.4768807 0.62480694
-0.026154937 0.47925159 0.62902892
0.025031654 0.47863692 0.63522542
0.076087818 0.47676888 0.64388496
0.10652005 0.48032209 0.64897436
-0.063770644 0.50418431 0.63345408
-0.019959662 0.50153941 0.6300844
0.029153919 0.50408208 0.63503981
0.07793317 0.50862777 0.6434589
0.10894811 0.51156139 0.64887446
0.18044931 -0.50229126 0.65323395
0.22770929 -0.50408459 0.6564604
0.27746016 -0.50571096 0.66007936
0.32574373 -0.50629705 0.66468692
0.37497473 -0.50783193 0.66681236
0.42532617 -0.50813287 0.66904706
0.47159711 -0.50620097 0.67130876
0.52655041 -0.50833362 0.67296171
0.57541245 -0.50932914 0.67452085
0.6241641 -0.50950742 0.67463225
0.67452151 -0.50969273 0.66936296
0.72301334 -0.50839049 0.67037737
0.77417994 -0.51245391 0.67743129
0.81421196 -0.50868291 0.68613613
-0.071568809 -0.45651698 0.65283632
-0.015982814 -0.45669472 0.65306211
0.026248483 -0.46205291 0.65716469
0.076712154 -0.46926841 0.66099721
0.1248922 -0.47450459 0.66610378
0.17418408 -0.47629696 0.67278224
0.22443403 -0.47611302 0.68139917
0.27365604 -0.48181608 0.68561119
0.32212123 -0.48766804 0.68953454
0.37177861 -0.49369949 0.69213074
0.42074713 -0.49622807 0.69375473
0.47595093 -0.49611709 0.69195282
0.5151614 -0.49765402 0.69520903
0.55520886 -0.49921983 0.69513208
0.63277173 -0.49552968 0.69346869
0.67353445 -0.49500626 0.67493492
0.7073012 -0.499008 0.66009963
0.83135855 -0.49630636 0.68486023
0.8513062 -0.49711239 0.6964013
-0.070658676 -0.41994891 0.65802389
-0.021373305 -0.44311178 0.65604836
0.029030629 -0.44249848 0.66447878
0.075763635 -0.43976668 0.6721819
0.12615567 -0.43594575 0.68198401
0.17545481 -0.42755973 0.69152319
0.21683551 -0.43341127 0.69683814
0.26106742 -0.42100102 0.69886124
-0.071728803 -0.37694201 0.66082889
0.14621152 -0.39101279 0.69951534
0.16639438 -0.39356583 0.69908428
-0.066899285 -0.32154828 0.65877497
-0.06303744 -0.27878681 0.6604054
-0.05816219 -0.22119375 0.65405428
-0.059154879 -0.19452286 0.65115201
-0.039681129 -0.054473042 0.65037817
-0.033391491 -0.026409099 0.65041047
0.29410011 0.12620951 0.69681168
0.31792286 0.13935004 0.69851297
0.2905502 0.18336754 0.69358045
0.32024285 0.17807718 0.69760597
0.28352356 0.23219974 0.68985808
0.32057354 0.22661331 0.6959039
0.24072911 0.27823356 0.68127531
0.27829391 0.27794644 0.68702072
0.32185811 0.27499774 0.69502652
0.35231915 0.28071621 0.69948357
0.18517977 0.34057841 0.67043769
0.23176947 0.32882109 0.67697603
0.27552274 0.32500988 0.68492043
0.3229678 0.32473725 0.69437796
0.35073575 0.33193079 0.69898111
0.13417679 0.38673896 0.65992117
0.18270458 0.37712359 0.66728932
0.22572754 0.37692192 0.67387426
0.27391809 0.37423217 0.68320775
0.32374752 0.37487981 0.69358897
0.35376453 0.37541902 0.69926786
0.09391471 0.43071285 0.65177196
0.12737101 0.42735612 0.65531623
0.17576171 0.42508644 0.66385913
0.22486503 0.42446771 0.67237669
0.27505806 0.42408633 0.68249041
0.32464108 0.42425513 0.6927312
0.35347524 0.42270041 0.69887686
0.092740111 0.47757962 0.6500867
0.12973994 0.47340062 0.65403879
0.17486127 0.4740693 0.66259557
0.22452812 0.47414893 0.671345
0.27455008 0.47426084 0.68156362
0.32456028 0.47469929 0.69210958
0.35810545 0.47525448 0.69886166
0.1326137 0.51550275 0.65367991
0.17606905 0.521339 0.66217965
0.22491515 0.52454543 0.67124498
0.27451828 0.52450347 0.68080062
0.32512784 0.52450293 0.69106436
0.35995579 0.52632993 0.69849032
0.19624557 0.55008346 0.66785532
0.22879229 0.55654681 0.67174131
0.2773701 0.56572223 0.68095869
0.32484302 0.57331252 0.69031328
0.36169267 0.57632351 0.69748956
0.34230077 0.60376835 0.69321698
0.36675516 0.60993123 0.69731683
0.57131076 -0.50082427 0.70018476
0.68184495 -0.50203872 0.71280521
0.72627276 -0.50374895 0.71390873
0.77582812 -0.50465089 0.71884954
0.82423681 -0.50477374 0.72394878
0.8629536 -0.5048309 0.7399537
0.27985966 -0.45634705 0.70347923
0.32806751 -0.46299198 0.7074393
0.3757048 -0.46916899 0.71168673
0.42517966 -0.47260299 0.71759814
0.47534305 -0.47368714 0.72293723
0.52558023 -0.4766652 0.72760892
0.57400954 -0.48463446 0.72677338
0.62262803 -0.48896748 0.72814047
0.67358285 -0.49408156 0.7354669
0.72335082 -0.49611032 0.73998553
0.77271932 -0.49823818 0.74265099
0.83754569 -0.49893188 0.74966496
0.86003089 -0.49728113 0.71648753
0.90430462 -0.48651761 0.72195911
0.19827026 -0.40589821 0.70020419
0.23038416 -0.41873881 0.70342577
0.27539709 -0.42406973 0.70887166
0.32536989 -0.42467019 0.71692437
0.37538633 -0.4242897 0.72586298
0.42610741 -0.42459202 0.73455602
0.47481039 -0.42488718 0.74213308
0.51358896 -0.43252438 0.7477504
0.18824278 -0.38047293 0.70237786
0.22659348 -0.37830693 0.70681059
0.27461112 -0.37476933 0.71374905
0.32466429 -0.37490565 0.72208112
0.37474445 -0.37468895 0.73111695
0.423287 -0.37474337 0.73920268
0.46555611 -0.37594131 0.74660021
0.18975835 -0.33871651 0.70647174
0.23742418 -0.33270282 0.70977485
0.27726191 -0.32573086 0.7146194
0.32474974 -0.32465649 0.72256023
0.37441015 -0.32541692 0.73113745
0.42480853 -0.32448763 0.7401036
0.46433383 -0.32599223 0.74701726
0.24646723 -0.28994182 0.71036088
0.28018615 -0.2777319 0.71379107
0.32524061 -0.27545655 0.72105336
0.3745172 -0.27468577 0.72964889
0.42420322 -0.27521563 0.73880613
0.46537 -0.27477115 0.74656361
0.28552714 -0.23087333 0.71232587
0.32414556 -0.225638 0.71765387
0.37413058 -0.2248446 0.72699064
0.42453814 -0.22455873 0.73667234
0.4717046 -0.2235292 0.74535364
0.50335127 -0.23620673 0.74986774
0.29046506 -0.1846751 0.71164751
0.32784349 -0.17555872 0.71567965
0.37480366 -0.17451234 0.72435832
0.42508397 -0.17436618 0.73422694
0.47415313 -0.17532551 0.74363226
0.50472093 -0.17348033 0.74870718
0.29068542 -0.13395958 0.71242017
0.33277458 -0.12686031 0.71356571
0.37540781 -0.12447218 0.72131705
0.42394561 -0.124748 0.7310372
0.47412026 -0.12489574 0.74108332
0.5105285 -0.12306023 0.74776673
0.33565965 -0.072784796 0.71030343
0.37377146 -0.074690416 0.71763921
0.42402735 -0.074624598 0.72789168
0.47340798 -0.074727453 0.73812592
0.51483375 -0.07685522 0.74725926
0.33855948 -0.023336899 0.70884508
0.37504423 -0.026171908 0.71566069
0.42426863 -0.02583243 0.72542912
0.47424307 -0.025653526 0.73608381
0.51771235 -0.024949212 0.74532664
0.33494577 0.025779003 0.70693636
0.37440786 0.024303803 0.71362424
0.42329234 0.024338812 0.72332948
0.47407749 0.024415683 0.73386276
0.52202797 0.024563709 0.74436462
0.5536893 0.03602051 0.74965405
0.33434963 0.076360539 0.70426482
0.37419924 0.075086579 0.7114529
0.42468864 0.074565336 0.72174329
0.47329268 0.075432852 0.73132527
0.52421123 0.075297736 0.74276227
0.55810761 0.079303131 0.74916798
0.33646846 0.12319288 0.70256889
0.37512556 0.1245067 0.70980072
0.4249576 0.12514824 0.71974736
0.47531435 0.12494647 0.73037374
0.52470964 0.12415488 0.74096453
0.5580588 0.12700391 0.74809527
0.34080496 0.17260911 0.70172209
0.37435085 0.17443125 0.70846653
0.42408234 0.17508635 0.71852398
0.47359538 0.17485483 0.72887999
0.52346432 0.17423055 0.73996961
0.55966485 0.17678162 0.74793917
0.34242973 0.22134787 0.70116305
0.37396187 0.22421578 0.70701742
0.42410696 0.22471283 0.71743155
0.47456372 0.22458494 0.72835249
0.52538788 0.22501138 0.74009567
0.56368095 0.22566669 0.74819738
0.34600949 0.27000937 0.70074803
0.37504625 0.27493131 0.70625502
0.42462242 0.27437839 0.7170341
0.47469819 0.27521184 0.7280829
0.52419502 0.2746796 0.7391668
0.56262749 0.27457201 0.74740279
0.34759587 0.32158044 0.70078886
0.37478051 0.3252717 0.70536071
0.42421141 0.32354581 0.71623272
0.47424001 0.32521373 0.72719246
0.52478355 0.32428831 0.73860854
0.5650093 0.32475129 0.74695665
0.34735656 0.35429701 0.70026559
0.37658969 0.37398538 0.70479292
0.42471594 0.37420177 0.71535683
0.47490376 0.37470326 0.72658849
0.52463669 0.37414813 0.73723918
0.56512111 0.37584049 0.74563909
0.37831551 0.42475653 0.70452958
0.42439136 0.42493787 0.71466851
0.47442862 0.42453218 0.72515088
0.52379161 0.4242408 0.73595595
0.56925648 0.42546692 0.74554831
0.38128278 0.47411075 0.70427239
0.42526758 0.47461799 0.71364421
0.47504836 0.47531646 0.72383434
0.52555555 0.47405449 0.73477089
0.57506496 0.47462595 0.74493146
0.60359627 0.48048258 0.74908197
0.38292933 0.52408755 0.7037943
0.42470044 0.52333003 0.71202922
0.47499976 0.5254395 0.72253782
0.52461457 0.52421832 0.73283988
0.57410914 0.52541625 0.74308419
0.60422355 0.51975888 0.74876785
0.3864758 0.57337195 0.7028988
0.42503709 0.57387567 0.71091628
0.47432977 0.57522357 0.72064519
0.52419734 0.57427108 0.73119545
0.57526439 0.5747453 0.74155694
0.60997379 0.57034349 0.74844646
0.38978994 0.61647779 0.70229751
0.42603108 0.62227839 0.70928741
0.4749538 0.62491357 0.71891052
0.52484858 0.62450385 0.72936976
0.57382601 0.62506914 0.73915476
0.61359423 0.62389141 0.74714857
0.44446415 0.65465868 0.71228266
0.47947779 0.66170269 0.71837902
0.52662808 0.67366529 0.72748137
0.57563204 0.67572045 0.73726445
0.61961734 0.67594522 0.74604195
0.5424552 0.70506686 0.72975564
0.57968026 0.71537644 0.73625916
0.62118763 0.72349823 0.74395376
0.64072293 0.75509757 0.74735731
0.65089375 0.75477618 0.7486769
0.81475788 -0.5004006 0.75487465
0.88025701 -0.50242609 0.75620735
0.91540712 -0.50768638 0.76746541
0.96752328 -0.50909138 0.79664564
0.54595762 -0.45217821 0.75042832
0.58226949 -0.45972675 0.75445598
0.62706196 -0.46528435 0.76037323
0.67635202 -0.47080585 0.76683247
0.7257157 -0.4738732 0.77276242
0.77418298 -0.47683287 0.77843285
0.82504803 -0.48453569 0.77914083
0.87327904 -0.48943546 0.78104401
0.91930586 -0.49044904 0.78913015
0.97072285 -0.49215794 0.79766881
1.001565 -0.49322352 0.7969718
0.49087998 -0.40130475 0.75000048
0.53105855 -0.41969162 0.75411177
0.57254577 -0.42520356 0.76029325
0.62365288 -0.42466384 0.77096629
0.67348456 -0.42451015 0.78037792
0.7234773 -0.42388386 0.78982359
0.76324612 -0.42610541 0.79661816
0.48869276 -0.37267485 0.75157326
0.52496302 -0.37483791 0.75766909
0.57537055 -0.37485817 0.76653874
0.62497681 -0.37525174 0.77565396
0.67342883 -0.3737911 0.78458422
0.72362602 -0.37537643 0.79315734
0.75449049 -0.37301588 0.79789519
0.48831514 -0.32384783 0.75183451
0.52419454 -0.32508963 0.758093
0.57490003 -0.32435951 0.76751757
0.62441343 -0.32558951 0.77624679
0.67514336 -0.32455418 0.7854948
0.72411913 -0.32621914 0.79428595
0.7574268 -0.32650724 0.79890698
0.49004832 -0.27545589 0.75142729
0.523736 -0.27501115 0.75752282
0.5733999 -0.27480209 0.76659149
0.62463158 -0.27464443 0.77591783
0.67417341 -0.2752631 0.78451562
0.72352767 -0.27523819 0.79375863
0.75498617 -0.28251633 0.79833257
0.49538019 -0.23209542 0.75090712
0.52397394 -0.2252364 0.75584984
0.57449478 -0.22479184 0.76546258
0.6240834 -0.22451137 0.77444607
0.67495465 -0.22510301 0.784042
0.72550857 -0.22459519 0.79295093
0.75819588 -0.23207626 0.79850411
0.5263319 -0.17554732 0.75439835
0.57335037 -0.17447866 0.7635653
0.62371552 -0.17539892 0.77290398
0.6741972 -0.17405483 0.78242117
0.72495162 -0.17545436 0.7920745
0.76103711 -0.17782332 0.79800361
0.53250563 -0.12718706 0.75353444
0.57497907 -0.12457363 0.76177645
0.62475842 -0.12554492 0.77169776
0.67363161 -0.12364337 0.78086591
0.72593874 -0.12530632 0.79162848
0.7602424 -0.12364627 0.79789954
0.53950983 -0.074158356 0.7527861
0.57433772 -0.07413616 0.75969726
0.62501156 -0.076329187 0.77005619
0.67445225 -0.07379742 0.78002679
0.72201866 -0.074605733 0.78924394
0.76136929 -0.074635088 0.79722643
0.54027706 -0.028514957 0.75127792
0.57275003 -0.026293617 0.75777018
0.62266946 -0.026259076 0.76777476
0.67421144 -0.025203679 0.77833813
0.72585219 -0.026289629 0.78881639
0.76558506 -0.026503678 0.79694265
0.54590744 0.01545677 0.75144786
0.57621843 0.023757296 0.75638121
0.62371701 0.024599412 0.76623756
0.67419374 0.022535754 0.77691168
0.72564882 0.02425863 0.78727555
0.76895595 0.024307063 0.79569805
0.54926789 0.061306812 0.75051045
0.57713711 0.073727295 0.75458068
0.62436503 0.074561417 0.7645601
0.67480946 0.074925698 0.77512497
0.72518998 0.075345971 0.78557533
0.7722556 0.074925296 0.79513729
0.80369341 0.091770105 0.79992712
0.58331752 0.124749 0.75422144
0.62440997 0.12468404 0.76273572
0.67338377 0.12412299 0.77309221
0.72210091 0.12546861 0.7833246
0.77278441 0.12503222 0.79405552
0.80367649 0.12498895 0.79822189
0.58385026 0.17409095 0.75379068
0.6248548 0.17430909 0.76241958
0.67564487 0.17435536 0.77283478
0.7244184 0.17510033 0.78312194
0.77315938 0.17521001 0.79331023
0.8125003 0.15953849 0.79944062
0.58440739 0.22451241 0.75329828
0.6236307 0.2246604 0.76144022
0.67390782 0.22428595 0.77149343
0.72481811 0.22531115 0.78276139
0.77502948 0.22561613 0.79314935
0.80797088 0.23165949 0.7988804
0.58588451 0.27453744 0.75295162
0.62535191 0.27406403 0.76081634
0.67281884 0.2752845 0.77063465
0.72301835 0.27496296 0.78191054
0.77388233 0.27596486 0.79204887
0.80647123 0.28378212 0.79786116
0.58680111 0.32594723 0.7522167
0.62371123 0.32426339 0.75978291
0.67461532 0.3257983 0.77016473
0.72462571 0.32462063 0.78079087
0.77481949 0.32452646 0.79125375
0.80888057 0.32742175 0.79774529
0.59064609 0.3730363 0.75218582
0.62465233 0.37535617 0.75820082
0.67513037 0.37472832 0.7688306
0.7240172 0.37450019 0.77894503
0.77445638 0.37527335 0.78952599
0.81171644 0.37344575 0.79691315
0.59365815 0.42095998 0.75098389
0.62480944 0.425677 0.75685042
0.67425865 0.42531759 0.7668575
0.72512579 0.42469633 0.77790385
0.77470648 0.42491901 0.78790575
0.81444108 0.42326495 0.79606974
0.59877467 0.45088491 0.75157773
0.6251691 0.47568285 0.75522989
0.67325556 0.47495055 0.76520365
0.72505099 0.47554955 0.775769
0.77665949 0.47422159 0.78640079
0.82193673 0.47662756 0.79565734
0.62915134 0.52541333 0.75506616
0.67483133 0.52603185 0.76375896
0.7250284 0.52309334 0.77426481
0.77658099 0.52480698 0.78578073
0.82299173 0.52538723 0.79475981
0.85575688 0.53320992 0.79854691
0.63186055 0.57749248 0.75348246
0.67193919 0.57431489 0.76154017
0.72302443 0.57330775 0.77233577
0.7724719 0.5733465 0.7821449
0.82337874 0.5748207 0.79296583
0.85465139 0.57009596 0.79717875
0.63721895 0.62555432 0.7527625
0.67741311 0.62385553 0.76081514
0.72790998 0.62613773 0.7712698
0.77421707 0.62501371 0.78107977
0.82340086 0.62546146 0.79159254
0.86137748 0.64024776 0.79888964
0.64362162 0.67120278 0.75227284
0.67486691 0.67408395 0.75790709
0.72299361 0.67407393 0.76762861
0.77447778 0.6764003 0.77857471
0.82402033 0.67487073 0.78911781
0.86213326 0.67459631 0.79626608
0.64549351 0.72628736 0.75209081
0.67489123 0.72333324 0.75621885
0.72678488 0.72383004 0.76924962
0.77500737 0.72463018 0.78111172
0.8251431 0.72482127 0.79053169
0.86218178 0.7121194 0.79539484
0.6794275 0.76871783 0.75752139
0.72761089 0.77700102 0.76801544
0.7706272 0.7621482 0.77325702
0.8162747 0.75569814 0.78583038
0.72953081 0.80266547 0.76225859
0.98451477 -0.55481637 0.80916303
1.0053871 -0.56616676 0.81444383
0.98392189 -0.53332013 0.81075627
1.0272902 -0.52556711 0.82313293
1.0536755 -0.53046459 0.82939917
0.79143637 -0.4525466 0.80122608
0.82854778 -0.45820802 0.80555069
0.87732852 -0.46405491 0.80838084
0.92549688 -0.4688862 0.81276238
0.97542918 -0.4722665 0.81768107
1.024525 -0.47420827 0.8241055
1.0735632 -0.46755099 0.83819515
1.1099248 -0.45985425 0.84510696
0.78704762 -0.42184255 0.80276203
0.82443911 -0.42452112 0.80774957
0.87643111 -0.42543748 0.81658667
0.92421883 -0.42464545 0.82343417
0.97485787 -0.42452562 0.83253062
1.0267127 -0.42429128 0.84221619
1.0704534 -0.43104836 0.84765655
1.1169627 -0.43538037 0.8486076
0.74933684 -0.37106073 0.80034798
0.78027612 -0.37462875 0.80374217
0.82384139 -0.37457943 0.81013519
0.87462884 -0.37548998 0.81900585
0.92426497 -0.3753601 0.82716095
0.97446573 -0.37647679 0.83667147
1.0221425 -0.37546828 0.84525424
1.0506438 -0.39656463 0.84818739
0.74710494 -0.30407128 0.80110586
0.778395 -0.32318938 0.80393034
0.8242358 -0.32535481 0.81156653
0.87414253 -0.32387799 0.82014906
0.92421222 -0.32634118 0.82798654
0.97509921 -0.32452759 0.83653545
1.0183024 -0.32626665 0.84566379
1.0554978 -0.33829018 0.8486982
0.77570552 -0.27243564 0.80344254
0.82495022 -0.274483 0.81130624
0.87543738 -0.27427989 0.81995124
0.92423093 -0.27575791 0.82833612
0.97274363 -0.2741788 0.8366136
1.0222663 -0.27383563 0.84569246
0.77977872 -0.22215037 0.80350399
0.82516468 -0.22570387 0.8115012
0.87476796 -0.22583653 0.82039982
0.92421347 -0.22522447 0.82839841
0.97285938 -0.22553504 0.83603221
1.0199857 -0.22545546 0.84451288
1.0518609 -0.24219525 0.84837532
0.78003192 -0.17476222 0.80335188
0.82433337 -0.173333 0.81117773
0.87603033 -0.17461182 0.82077169
0.9255566 -0.17586507 0.82834798
0.97436875 -0.17465931 0.8363536
1.0206491 -0.17577913 0.84468526
1.0564101 -0.19941516 0.84986293
0.78367054 -0.1265735 0.80335432
0.82259423 -0.12453472 0.81009525
0.87221092 -0.12419938 0.81886446
0.92607671 -0.12520327 0.82860363
0.9760465 -0.12475215 0.83664417
1.0200306 -0.12421588 0.84409195
1.0543543 -0.12172074 0.84872454
0.78786236 -0.076138049 0.80308264
0.82461417 -0.075000986 0.80938756
0.8752014 -0.07386376 0.81888282
0.9256345 -0.07627365 0.82828265
0.97643679 -0.073075548 0.83680481
1.0222685 -0.07465522 0.84426868
1.051622 -0.089387178 0.84974009
0.78887141 -0.027156543 0.80244124
0.82273012 -0.024818605 0.80799526
0.87424815 -0.026890717 0.81842715
0.92305332 -0.025765551 0.82680833
0.9750042 -0.026285751 0.8362897
1.0259888 -0.026360122 0.8443976
0.79120064 0.023693163 0.80189455
0.82282078 0.023919081 0.80672514
0.87284458 0.023706123 0.81672913
0.92662346 0.023311563 0.82662404
0.97889596 0.023414265 0.83539873
1.0271107 0.02370701 0.84458846
0.79084396 0.075123563 0.80095261
0.82533699 0.073954284 0.8059299
0.87611824 0.076716818 0.81631714
0.92524105 0.07451877 0.82539135
0.97493619 0.072857834 0.83473468
1.0266798 0.075926416 0.84359545
1.0506911 0.084559672 0.84902072
0.79694903 0.11438239 0.80007684
0.82816786 0.12613295 0.80537128
0.87518263 0.12379257 0.81510711
0.92382962 0.1246284 0.82386428
0.97342461 0.12634404 0.83325601
1.0230302 0.12469088 0.84166199
1.0545899 0.12342057 0.84817755
0.82421935 0.17557329 0.80406219
0.8725583 0.17436402 0.81374544
0.92458439 0.17570484 0.82350796
0.97507489 0.17529686 0.83242345
1.0233047 0.17684661 0.84151143
1.0589827 0.17320061 0.84836173
0.82794696 0.22409423 0.80494881
0.87455285 0.22289705 0.81361902
0.92494029 0.22542627 0.82393926
0.97423625 0.22570552 0.83221966
1.0237225 0.22585815 0.84091169
1.0621539 0.21481608 0.84881622
0.82915461 0.27181125 0.8045904
0.87418407 0.27589247 0.8124696
0.9282285 0.27436706 0.82326812
0.97640848 0.27539524 0.83153898
1.0272858 0.27452192 0.84207857
1.0650578 0.27160251 0.84828252
0.8350687 0.32370347 0.80408937
0.87539136 0.32800916 0.81183541
0.92450792 0.32294622 0.82066768
0.9770481 0.32506281 0.83094788
1.0263613 0.32599351 0.84054786
1.0616183 0.32645103 0.84727949
0.83270085 0.37471414 0.80294156
0.87625611 0.37422764 0.8097322
0.92585582 0.37542409 0.81989652
0.97378391 0.37350771 0.83002132
1.0213648 0.37554118 0.83874947
1.0618461 0.37316349 0.84638268
0.83786267 0.42452729 0.80219036
0.87328887 0.42498347 0.80837309
0.92470998 0.42383322 0.81841528
0.97475368 0.42592281 0.82820457
1.0263121 0.42567202 0.83866924
1.0665551 0.42639637 0.84647727
0.84276015 0.46482387 0.80167574
0.87677956 0.47636071 0.80756384
0.92469817 0.47272071 0.81708521
0.97473323 0.47710627 0.82769078
1.0231527 0.47410369 0.83682168
1.0688256 0.47432226 0.84571397
0.84617805 0.52106839 0.80096155
0.87656236 0.52396828 0.80556679
0.92580897 0.52413732 0.81606126
0.97348005 0.52324915 0.82616132
1.0242143 0.5259977 0.8362264
1.0679971 0.52346319 0.84550464
0.84382236 0.56795591 0.80068403
0.877469 0.57497489 0.80496633
0.92169261 0.57501155 0.81335491
0.97269118 0.57143587 0.82463855
1.0219344 0.57464719 0.83492786
1.0551778 0.55732584 0.84142113
0.87603396 0.62385386 0.80295688
0.92199033 0.62655544 0.81201369
0.97379994 0.62387788 0.82425427
1.0107353 0.61143613 0.83185023
0.87773073 0.671363 0.80207217
0.92131031 0.6748246 0.81096137
0.95964718 0.65692991 0.81881791
0.87842101 0.72394323 0.80285656
0.90376198 0.70291686 0.80820853
1.1133053 -0.45157894 0.85125893
1.0823313 -0.41330931 0.85271311
1.1200527 -0.42020082 0.85524172
1.1507578 -0.40952766 0.8638379
1.0421442 -0.36466539 0.85111552
1.0753912 -0.3757523 0.85469282
1.1234909 -0.37674257 0.86223245
1.1512133 -0.39328468 0.86945552
1.0411614 -0.32580438 0.8528257
1.0751725 -0.32474777 0.85707855
1.1166763 -0.32831118 0.86490434
1.0744966 -0.27733624 0.85824382
1.1094697 -0.27786496 0.86621332
1.0393171 -0.21783133 0.85107785
1.0729138 -0.22683793 0.85557866
1.0452662 -0.17081395 0.85096264
1.0638773 -0.17628267 0.85318035
1.0412163 -0.12937318 0.85104501
1.0592231 -0.1239094 0.85239279
1.0393029 -0.082899742 0.85103965
1.0533508 -0.07601846 0.85208273
1.0489769 -0.017343437 0.8511368
1.0517415 -0.026402421 0.85310072
1.0484756 0.030531473 0.85030878
1.06024 0.13979308 0.85079378
1.0649952 0.1771417 0.85114527
1.0771364 0.23209244 0.85357326
1.0499405 0.26887012 0.8504855
1.081971 0.27550134 0.8536213
1.1053618 0.29089728 0.85826534
1.0884697 0.3212975 0.85495216
1.1145228 0.32931688 0.85971874
1.0868717 0.37772679 0.8522526
1.1247813 0.37674859 0.86159682
1.15898 0.39768052 0.87288898
1.0843776 0.41721326 0.85159254
1.1221461 0.42631787 0.86026025
1.1558566 0.42002597 0.86748296
1.0872387 0.48166162 0.85203159
1.1174301 0.46991122 0.85675287
1.0837121 0.51606327 0.85106897
1.1011229 0.5083577 0.85113931
0 0 0 1 0 0 0 1 0 0 0 1 0 0 0 0 0 945 1 0 0
