ply
format ascii 1.0
comment PCL generated
element vertex 945
property float x
property float y
property float z
element camera 1
property float view_px
property float view_py
property float view_pz
property float x_axisx
property float x_axisy
property float x_axisz
property float y_axisx
property float y_axisy
property float y_axisz
property float z_axisx
property float z_axisy
property float z_axisz
property float focal
property float scalex
property float scaley
property float centerx
property float centery
property int viewportx
property int viewporty
property float k1
property float k2
end_header
-0.052295066 -0.29187754 0.41221219
-0.049634442 -0.25784135 0.42554072
-0.045030881 -0.21679705 0.42898285
-0.042000923 -0.16690178 0.43533567
-0.041044306 -0.14010628 0.44340557
-0.56838799 0.18311569 0.42870432
0.43037838 -0.55692142 0.49761391
-0.46130618 -0.53161436 0.49657604
-0.42278191 -0.53538668 0.49154291
-0.38548943 -0.53426611 0.49538708
-0.62924665 -0.2017927 0.47583896
-0.041070089 -0.13568835 0.46665537
-0.62759697 0.19319117 0.47606859
0.39587152 -0.55042577 0.50858206
0.42940289 -0.5531857 0.50863218
0.47199917 -0.55271411 0.51892895
0.51128197 -0.55132157 0.52808112
-0.51377267 -0.50983608 0.51899683
-0.4732677 -0.515567 0.52029324
-0.42479685 -0.518031 0.5260092
-0.37542459 -0.52244848 0.52614057
-0.32694697 -0.52354485 0.5318315
-0.27820852 -0.52327341 0.54158604
-0.24228966 -0.52363718 0.54802412
0.28850928 -0.53754395 0.54634839
0.328666 -0.54013228 0.53848726
0.3760533 -0.543715 0.52906066
0.42245921 -0.54523432 0.53152055
0.47328386 -0.54607719 0.53747547
0.52170503 -0.54587096 0.54083425
0.55614519 -0.54411006 0.54807663
-0.60310376 -0.45556712 0.53200996
-0.56965417 -0.46781343 0.5318737
-0.52372456 -0.4761737 0.53514963
-0.47706532 -0.48561022 0.54191536
-0.4410598 -0.49405175 0.54742312
-0.61679745 -0.41994584 0.53570074
-0.57422012 -0.42371628 0.54117256
-0.53177118 -0.43164563 0.54622233
-0.49585199 -0.43801454 0.54926324
-0.65832227 -0.36451206 0.53474963
-0.62464917 -0.37442422 0.53904593
-0.58000022 -0.37580162 0.54591525
-0.54426771 -0.39125133 0.54928988
-0.66822511 -0.32249928 0.53413534
-0.62447041 -0.32473719 0.54219019
-0.58551061 -0.32516834 0.54803616
-0.67148316 -0.27506799 0.53487349
-0.62403262 -0.27459881 0.54415554
-0.5894509 -0.2743859 0.54890013
-0.67316139 -0.22495256 0.53543657
-0.62612212 -0.22531772 0.54550332
-0.59247357 -0.22410116 0.5487023
-0.67207348 -0.17611483 0.53766024
-0.62630516 -0.17484429 0.54604697
-0.59367526 -0.17573848 0.54924834
-0.66636068 -0.12641847 0.53882509
-0.62486792 -0.12476841 0.54541653
-0.58891171 -0.11749446 0.54909348
-0.44532549 -0.13400772 0.54890549
-0.042858128 -0.10498615 0.50773138
-0.66257179 -0.07705424 0.53874671
-0.62511176 -0.074918509 0.54448563
-0.58954209 -0.073767625 0.54824889
-0.44484544 -0.094089642 0.54575372
-0.66013736 -0.026782606 0.53789729
-0.62619871 -0.02495713 0.54323322
-0.58879668 -0.025715888 0.54779452
-0.43986538 -0.028183108 0.54254109
-0.65886623 0.024897899 0.5371753
-0.62460929 0.024334693 0.54237241
-0.5900712 0.026742067 0.54666609
-0.66060543 0.076618798 0.53518093
-0.6244427 0.074866332 0.5409655
-0.58633101 0.075837664 0.54564989
-0.43250191 0.066605397 0.54842412
-0.66271293 0.12555227 0.5327397
-0.62409437 0.12587041 0.53894663
-0.57632136 0.1270449 0.54450667
-0.54333436 0.13516824 0.54817253
-0.66570985 0.17554668 0.52708721
-0.62460864 0.175285 0.53543669
-0.57708573 0.17630455 0.54168755
-0.53638536 0.17859973 0.54564071
-0.66402507 0.22417478 0.52238852
-0.62434721 0.22481498 0.53165787
-0.57410896 0.22555867 0.53809416
-0.52760494 0.22744265 0.54301423
-0.46526456 0.24204604 0.54909998
-0.4435617 0.24077193 0.54889458
-0.66117996 0.27296531 0.51786017
-0.62511843 0.27491325 0.52557135
-0.57529938 0.27503708 0.53273803
-0.52402949 0.27557087 0.53831416
-0.4753215 0.27758536 0.54502833
-0.44579443 0.27777117 0.54833817
-0.65592426 0.31058559 0.51485473
-0.62456077 0.32470715 0.51888049
-0.57474214 0.32491183 0.52595848
-0.52491683 0.32487494 0.53273559
-0.47407791 0.32584557 0.54092145
-0.44009373 0.32824793 0.54714245
-0.61416125 0.37004802 0.51316476
-0.57574672 0.37515604 0.51919818
-0.52437973 0.37471882 0.52727109
-0.47320217 0.37513521 0.53754771
-0.43005264 0.37768039 0.54547691
-0.60271645 0.40167636 0.51077074
-0.57109964 0.4227283 0.51510751
-0.52455252 0.42492336 0.52318347
-0.47411698 0.4241077 0.53378522
-0.42522269 0.42475501 0.54477757
-0.3960554 0.44344777 0.54955882
-0.55821627 0.46384758 0.51501137
-0.52429986 0.47454131 0.52090448
-0.47338375 0.47384432 0.53257072
-0.42417508 0.47569561 0.54387856
-0.39607301 0.47026211 0.54941005
-0.513744 0.51849008 0.52238679
-0.47497311 0.52428073 0.53175128
-0.42589122 0.51825947 0.54297513
-0.39509496 0.51430392 0.5490334
-0.50073683 0.55444705 0.52544069
-0.49239606 0.55183411 0.52695
-0.40725932 -0.5028072 0.55187148
-0.36999431 -0.50594682 0.55610222
-0.32257992 -0.50820595 0.5608865
-0.27322567 -0.51052433 0.56602883
-0.22427504 -0.51251686 0.56983924
-0.17599806 -0.51169288 0.58132458
-0.12560137 -0.51369631 0.58788621
-0.074612737 -0.51724261 0.59062034
-0.025725992 -0.51920593 0.59302157
0.023981366 -0.52160347 0.5943808
0.073917933 -0.52329379 0.59319979
0.12559719 -0.52519405 0.59066075
0.17642415 -0.52694702 0.58614254
0.22624239 -0.52952188 0.58089823
0.27503723 -0.53178054 0.57532227
0.32441986 -0.53316963 0.57544863
0.37512055 -0.53499937 0.57504475
0.42494443 -0.53513992 0.57550746
0.47423944 -0.53558433 0.57541537
0.52423429 -0.53573728 0.57432204
0.57301003 -0.53546405 0.57691741
0.62109751 -0.53290266 0.58664703
0.66443193 -0.53047788 0.59809852
-0.47242838 -0.46429902 0.55681467
-0.42334798 -0.47329479 0.56117254
-0.37484986 -0.47444457 0.57155126
-0.32469472 -0.47520366 0.58175689
-0.27650195 -0.47901964 0.58954161
-0.22712037 -0.48765743 0.59339994
-0.18970035 -0.49376735 0.59664416
-0.51783389 -0.41519761 0.55287945
-0.47505265 -0.42441618 0.56171936
-0.42500988 -0.42440397 0.57150888
-0.37862474 -0.42897052 0.58158141
-0.32557642 -0.43941537 0.59265584
-0.29516181 -0.43721363 0.59850401
-0.55825168 -0.37074447 0.55140543
-0.52425033 -0.3733235 0.55591172
-0.47614318 -0.37483591 0.56651372
-0.42976296 -0.3777009 0.57635307
-0.3889747 -0.38682315 0.58640301
-0.56422645 -0.32355687 0.55224586
-0.52449763 -0.32435644 0.55815941
-0.47658092 -0.32544598 0.56862062
-0.43671784 -0.33572769 0.5766052
-0.60416865 -0.27068609 0.55039775
-0.5692476 -0.27475888 0.55289847
-0.52586013 -0.27551562 0.5585916
-0.48032793 -0.2759136 0.56839496
-0.43696603 -0.29403144 0.57803208
-0.60325867 -0.21918479 0.55077153
-0.57213324 -0.22610088 0.55342704
-0.52844715 -0.22621068 0.55871373
-0.46985498 -0.22826447 0.57162315
-0.60471195 -0.18602701 0.55070382
-0.57395023 -0.17550762 0.55313861
-0.53447837 -0.17730796 0.55780166
-0.46342915 -0.17462511 0.56972593
-0.60261673 -0.13401106 0.55091882
-0.57275313 -0.12780416 0.55259085
-0.54373091 -0.13055564 0.55640453
-0.45852053 -0.12755139 0.56219625
-0.44773066 -0.12659399 0.55345792
-0.56857562 -0.079541415 0.55208004
-0.54657286 -0.080221251 0.55510902
-0.45798725 -0.071729034 0.56105977
-0.44897497 -0.063767731 0.55739689
-0.039191816 -0.06643603 0.55369294
-0.56857687 -0.027664252 0.55194521
-0.45639035 -0.025312178 0.56005615
-0.44639423 -0.022112332 0.55738294
-0.56861579 0.018270697 0.55188614
-0.45161727 0.016415128 0.56249183
-0.44234616 0.02636897 0.55777752
-0.021577716 0.0361204 0.58252484
-0.55946946 0.071497187 0.55144989
-0.53930658 0.091740251 0.55453521
-0.44172916 0.077972196 0.55841076
-0.015828252 0.063370951 0.57502061
-0.56302375 0.10311179 0.55174023
-0.53389728 0.13612369 0.55188674
-0.45334268 0.12661099 0.56413257
-0.44446549 0.1196091 0.56090039
-0.51007843 0.17629078 0.55227518
-0.45665088 0.17816071 0.56100732
-0.44477877 0.17122921 0.55642581
-0.50100797 0.21482702 0.55021095
-0.45947134 0.22584067 0.55465347
-0.44741905 0.22086002 0.55349976
-0.45654842 0.27374133 0.5529719
-0.44464254 0.27422044 0.55204433
-0.042284556 0.29227784 0.59680885
-0.45234123 0.31944433 0.55099863
-0.42456588 0.32655108 0.55340868
-0.38790223 0.3378031 0.56063884
-0.046111755 0.31890064 0.59792173
-0.40751815 0.37351784 0.5518738
-0.38065782 0.38589418 0.55615652
-0.33752784 0.38678339 0.5700314
-0.40443558 0.4223063 0.55087847
-0.37564784 0.42722526 0.55564266
-0.32972082 0.42987835 0.56732202
-0.28577343 0.43499678 0.57818604
-0.22427465 0.43352088 0.59477204
-0.1934631 0.44435638 0.59851348
-0.4014698 0.46773148 0.55084157
-0.37258857 0.47531277 0.55583984
-0.32554147 0.47486889 0.56753039
-0.27701041 0.47810978 0.57890332
-0.22503513 0.48042145 0.59183061
-0.19330506 0.48403361 0.59807783
-0.40306103 0.50629658 0.55045706
-0.37389547 0.51194531 0.55558705
-0.32821336 0.50721502 0.56677151
-0.28281492 0.5035944 0.57727551
-0.24587543 0.50105304 0.58785558
-0.15454859 -0.50009823 0.60045302
-0.11889872 -0.50353897 0.60491532
-0.073727384 -0.50944513 0.61175662
-0.024978809 -0.50883329 0.61332899
0.025203433 -0.51030457 0.61707884
0.075883679 -0.51155931 0.62151676
0.12515339 -0.51253366 0.62540191
0.17404017 -0.51469898 0.62579334
0.22406103 -0.51659644 0.62532932
0.27379963 -0.51837957 0.62544119
0.32534271 -0.52071804 0.62533355
0.37477756 -0.52198517 0.62538731
0.42648914 -0.52110356 0.62376434
0.47287458 -0.51613468 0.61386353
0.52509099 -0.52257764 0.62378246
0.57407171 -0.52321118 0.62459558
0.62423837 -0.52352506 0.62392902
0.67337996 -0.52288306 0.6265099
0.72297478 -0.51724797 0.63712782
-0.26563945 -0.4574433 0.60264605
-0.2224777 -0.46343637 0.60892421
-0.17481831 -0.47593024 0.61096942
-0.12546991 -0.47857493 0.61925477
-0.074660048 -0.47591755 0.63059926
-0.027685065 -0.47975901 0.63639361
0.023110677 -0.4869518 0.64064968
0.069202214 -0.49222183 0.64557862
0.11036831 -0.49859679 0.64739966
0.4444766 -0.49468696 0.60949373
0.45697948 -0.49193388 0.61727184
-0.27280435 -0.44233498 0.60472608
-0.2266423 -0.44149277 0.61517251
-0.18391262 -0.44337177 0.62437791
-0.11715136 -0.4468275 0.63877302
-0.078192964 -0.43705678 0.64490825
-0.045502473 -0.44067058 0.64937562
-0.067367129 -0.25323284 0.64618868
-0.05986654 -0.21089478 0.64542377
-0.057345245 -0.18536088 0.64598054
-0.049769472 -0.15327829 0.6496731
-0.056353901 -0.12143833 0.63220912
-0.04823694 -0.12621641 0.64572453
-0.051542789 -0.085680023 0.63048637
-0.043051902 -0.071719989 0.6393525
-0.035560854 -0.028535971 0.63945377
-0.024454482 0.022650354 0.63642752
-0.017872004 0.075548604 0.6358794
-0.018621394 0.12975784 0.63641977
-0.030274831 0.22608925 0.63046342
-0.039481338 0.27836972 0.62829667
-0.053009927 0.32891536 0.63136274
-0.045715157 0.31903225 0.62357152
-0.056941632 0.37407541 0.62586826
-0.048497785 0.35691592 0.62062353
-0.2048934 0.43276861 0.60174251
-0.18980674 0.44045067 0.60094172
-0.10330022 0.434237 0.62257057
-0.05944556 0.42452461 0.62792194
-0.012305406 0.44466588 0.63558912
0.029861283 0.43737489 0.64022875
0.073612899 0.43640947 0.64669782
0.10235748 0.43579474 0.6490044
-0.20707916 0.45840099 0.60059386
-0.16416544 0.47796193 0.60621822
-0.12082072 0.48416141 0.61480629
-0.067706659 0.47795063 0.62513
-0.026188651 0.47779447 0.6293928
0.025033571 0.48018157 0.63578105
0.075016856 0.47695041 0.64433903
0.10484023 0.48469028 0.64942425
-0.0654338 0.50709975 0.63817608
-0.02210064 0.50223589 0.63088727
0.030289505 0.50477624 0.63571727
0.07755769 0.50839847 0.6436519
0.10956131 0.5123384 0.64910442
0.14779598 -0.50062162 0.65311587
0.17973714 -0.50216621 0.65340114
0.22761565 -0.50426126 0.65743369
0.276914 -0.5055002 0.66106254
0.32532322 -0.5069989 0.66445792
0.37502432 -0.50778121 0.66757417
0.42454845 -0.50848627 0.66948503
0.473398 -0.50722635 0.67051983
0.52592576 -0.50865394 0.67341667
0.57539648 -0.50957531 0.67529392
0.62438017 -0.51002443 0.67394471
0.67361116 -0.50990158 0.66891301
0.72332871 -0.50938767 0.67163545
0.77442557 -0.51329911 0.67794037
0.8131057 -0.50887346 0.68464279
-0.071704671 -0.45556715 0.65505803
-0.015798833 -0.45674083 0.65281069
0.026563175 -0.46280074 0.65720522
0.076687552 -0.46870202 0.6614418
0.12479859 -0.47449365 0.66637558
0.17422396 -0.47577012 0.67361236
0.22443269 -0.47605199 0.68194932
0.27377969 -0.48120573 0.6866588
0.32323304 -0.48852688 0.68982673
0.37243268 -0.49337083 0.69234866
0.4243103 -0.49650636 0.69465315
0.47723359 -0.49661931 0.69139659
0.51661593 -0.49803829 0.69587445
0.63110316 -0.49576753 0.69294262
0.6695208 -0.49455431 0.67744863
0.70666778 -0.49856111 0.65950847
0.83850652 -0.4968797 0.68912983
-0.068490013 -0.42269924 0.65648776
-0.023831196 -0.44224277 0.65557641
0.0290126 -0.44316721 0.66441494
0.076299012 -0.43949884 0.67213696
0.12592168 -0.435231 0.68250763
0.17562076 -0.42774159 0.69186556
0.21612498 -0.43217862 0.6967029
0.25217944 -0.42111403 0.69718313
-0.072075419 -0.3791866 0.65941882
0.14606807 -0.39806852 0.69569248
0.17730281 -0.39475223 0.69888383
-0.066903584 -0.32289883 0.65973759
-0.062664129 -0.27996999 0.66004312
-0.059616443 -0.22953497 0.65451485
-0.063457578 -0.19439653 0.65293336
-0.03984078 -0.057819143 0.65282124
-0.031880256 -0.021769099 0.65152246
0.30795455 0.098239914 0.69955468
0.29358333 0.12599871 0.69558984
0.31793207 0.13899224 0.69853926
0.29127929 0.18337525 0.69375092
0.31945303 0.17698444 0.69780487
0.28389901 0.23281488 0.69003963
0.31964773 0.22655453 0.69613445
0.24284275 0.2833603 0.68242121
0.27903575 0.27774414 0.68754375
0.32227769 0.27452043 0.69539738
0.35046652 0.2556653 0.69945806
0.18415429 0.33641693 0.67129397
0.23240261 0.33001933 0.67724389
0.27508047 0.32458216 0.68510592
0.32380748 0.32468367 0.69484961
0.35526499 0.32592332 0.69979256
0.13293545 0.38621995 0.66007793
0.18277906 0.37763742 0.66783267
0.22679612 0.37669224 0.67431664
0.27456492 0.37399355 0.68382025
0.32424861 0.37515438 0.69394922
0.35382906 0.370711 0.69951457
0.093186289 0.42975089 0.65149283
0.1266503 0.42685843 0.65558457
0.17583598 0.4252629 0.66429955
0.22460602 0.4239507 0.67258179
0.27458039 0.42398289 0.68264472
0.32435277 0.42575741 0.69313782
0.35312766 0.42932796 0.69876254
0.099162839 0.45983759 0.65087348
0.12792636 0.47356597 0.65410119
0.17451091 0.47410399 0.66287911
0.22450709 0.47460204 0.67194897
0.27480987 0.47537297 0.68204641
0.32435578 0.47527522 0.69244373
0.35626748 0.47629657 0.69862825
0.13305227 0.51549906 0.65433168
0.17624761 0.52176595 0.66273171
0.22473493 0.52455777 0.67155492
0.27434659 0.52552718 0.6809662
0.32513866 0.52492976 0.69147277
0.35841271 0.52566195 0.69808847
0.23020206 0.55637455 0.67225933
0.27799118 0.56601453 0.68114495
0.32505834 0.57329738 0.69050992
0.36192983 0.57762897 0.69767481
0.34247136 0.60407066 0.69356394
0.36801609 0.60882318 0.69740242
0.56292152 -0.50176132 0.70165372
0.68056011 -0.50210649 0.71367431
0.7249338 -0.50400168 0.71521002
0.77456838 -0.50455701 0.72075456
0.82433748 -0.5057236 0.72487587
0.86698312 -0.50350535 0.73625505
0.24886701 -0.45231923 0.70041531
0.28246015 -0.45701429 0.70335263
0.32763445 -0.46360379 0.70715243
0.37530753 -0.46949714 0.71175951
0.42413899 -0.47258988 0.71784812
0.47477174 -0.47431186 0.72324389
0.52524424 -0.47749585 0.72743499
0.57377344 -0.48540795 0.72639751
0.62214643 -0.48964462 0.72796458
0.67207831 -0.49449489 0.73599821
0.7235899 -0.49654138 0.74007803
0.76761639 -0.49812093 0.74237669
0.82633829 -0.49891579 0.73626781
0.87717706 -0.48855713 0.71643656
0.90569431 -0.49303457 0.73098743
0.1942625 -0.40468302 0.70054257
0.23188747 -0.41923222 0.703574
0.27547413 -0.42502275 0.7088204
0.32463145 -0.4247559 0.71698076
0.3747485 -0.42420766 0.72554851
0.42501566 -0.42394474 0.73421741
0.47459242 -0.42498001 0.74252164
0.51411831 -0.43450803 0.74698973
0.1463463 -0.39137322 0.70016015
0.18762995 -0.37836188 0.70271379
0.22612859 -0.37834951 0.70705694
0.27416223 -0.37500694 0.71394628
0.32403523 -0.37483799 0.72205532
0.37436604 -0.37425995 0.73062891
0.42458495 -0.37501845 0.73952973
0.46656108 -0.37608424 0.74678415
0.18978421 -0.33876684 0.7065618
0.23686472 -0.33186033 0.70960295
0.27681944 -0.32637724 0.71456879
0.32476506 -0.32443121 0.72225046
0.37469965 -0.32410362 0.73090267
0.4251745 -0.32449585 0.73996562
0.46450359 -0.32261059 0.74688458
0.24255881 -0.29061028 0.71035981
0.28000295 -0.27854884 0.71389729
0.32475126 -0.27460319 0.72069496
0.37476128 -0.2742632 0.72962457
0.42479676 -0.27477291 0.73902136
0.46803457 -0.27445123 0.74663579
0.28675696 -0.22715664 0.71251851
0.32483524 -0.2255917 0.7178787
0.37420771 -0.22465548 0.72717106
0.42399946 -0.22446808 0.7365039
0.47154194 -0.22377877 0.74532652
0.29592595 -0.18146287 0.71226853
0.32705978 -0.17526793 0.71573085
0.37426886 -0.17441069 0.72446734
0.42461804 -0.17456098 0.73414665
0.47420162 -0.17417216 0.74354655
0.50497305 -0.16831023 0.74911541
0.29503143 -0.13974398 0.71233332
0.3326456 -0.12687817 0.71373016
0.37527019 -0.12422989 0.72129387
0.42484888 -0.12458032 0.7314294
0.47512636 -0.1251471 0.74128449
0.50916803 -0.12428417 0.74789137
0.33612356 -0.07249058 0.71061593
0.37464637 -0.074977733 0.71800905
0.42450452 -0.074545309 0.72817355
0.47306705 -0.074730746 0.73794901
0.5148322 -0.074366853 0.74728417
0.3392024 -0.026623953 0.70925343
0.37524635 -0.026009213 0.71570855
0.42443624 -0.025840936 0.72571307
0.47433582 -0.025620306 0.73622608
0.51808006 -0.026289107 0.74537343
0.33492506 0.025654055 0.70709103
0.37468538 0.024135772 0.71387577
0.42317477 0.024013912 0.72349513
0.47396025 0.02411804 0.73396784
0.52158046 0.025643572 0.74417204
0.56014657 0.046757616 0.74967778
0.33470258 0.075838208 0.70471227
0.37419266 0.075077303 0.7113688
0.42396587 0.074843585 0.7214731
0.47337678 0.074683033 0.73162186
0.52389795 0.076100253 0.74275631
0.55901396 0.083092444 0.74925822
0.33601657 0.1220853 0.70297128
0.3743073 0.12487003 0.70991993
0.42511222 0.12540168 0.72004932
0.47498918 0.12535977 0.73021615
0.52424717 0.12453404 0.74101615
0.55619675 0.12526114 0.74806386
0.34000954 0.17303447 0.70179147
0.37466624 0.17481701 0.70872712
0.4247869 0.17546675 0.71899664
0.4748551 0.17380212 0.72919351
0.5245232 0.17470638 0.74029589
0.55934405 0.17508374 0.74752235
0.34379262 0.22090623 0.70144379
0.37409225 0.22496854 0.70743072
0.42405972 0.2249604 0.71775675
0.47405741 0.22516842 0.72847939
0.52452368 0.22461416 0.73974574
0.5598169 0.22468401 0.74774259
0.34517777 0.27746639 0.70091099
0.37464413 0.27501696 0.70657933
0.42442077 0.27490181 0.71723229
0.4747628 0.27485934 0.72828418
0.52442455 0.27456984 0.73943526
0.56018007 0.27554691 0.74725485
0.34466854 0.30563208 0.7010445
0.3748664 0.32513276 0.70577967
0.42386377 0.32425898 0.71636087
0.47446799 0.32483476 0.72772437
0.52418941 0.32366717 0.73880488
0.56435251 0.32641107 0.74710423
0.34833452 0.35919946 0.70066965
0.37593052 0.37477967 0.70505846
0.4240081 0.37435943 0.71560705
0.47444358 0.37453607 0.72672695
0.52453983 0.37444329 0.73753333
0.56471109 0.37769687 0.74571383
0.37714568 0.42369834 0.70456886
0.42530265 0.42489392 0.71511757
0.47489575 0.42482013 0.72558111
0.52471745 0.42511547 0.73661804
0.57068974 0.42574152 0.74598318
0.38019791 0.47435677 0.70431983
0.4244999 0.47534302 0.71375322
0.47430116 0.47493038 0.72408408
0.52530283 0.47585845 0.7350499
0.57263988 0.47585484 0.74452692
0.60330933 0.48926795 0.74948514
0.38157439 0.52491927 0.70366049
0.42485267 0.52488184 0.71248507
0.47405973 0.52523994 0.72248256
0.52393961 0.52557349 0.73290795
0.57559997 0.52565944 0.74351853
0.60277778 0.52398014 0.74765134
0.38527235 0.57238257 0.70286506
0.42427093 0.57465309 0.71115279
0.47306272 0.57426494 0.72018433
0.52380204 0.57512546 0.73108941
0.57444483 0.57490891 0.74160618
0.60779268 0.57306224 0.74811375
0.38945758 0.61579949 0.70283759
0.42606017 0.62288296 0.70948702
0.47524023 0.62450188 0.71936911
0.52387351 0.62649149 0.72911537
0.57357401 0.62418914 0.73941171
0.6120519 0.62340903 0.74736333
0.4444268 0.65458584 0.71219683
0.47924483 0.6621924 0.71875072
0.52541965 0.67472154 0.72731405
0.57367426 0.67374349 0.73677379
0.61962789 0.67577851 0.74666339
0.5451147 0.70264864 0.73038208
0.57820916 0.71389574 0.73649305
0.62239152 0.72407919 0.74497002
0.63158387 0.75364083 0.74687785
0.65045214 0.75426406 0.74816895
0.88007563 -0.5017786 0.75681353
0.91345119 -0.50658792 0.76583219
0.97065943 -0.52179825 0.79800433
0.54275888 -0.45143688 0.75062138
0.58017814 -0.46018827 0.75427037
0.62716395 -0.46583515 0.75963718
0.67620075 -0.47102201 0.76626766
0.72605437 -0.47438207 0.77266598
0.77452588 -0.47825572 0.7777189
0.8254959 -0.48589656 0.77809948
0.87454408 -0.48858768 0.78292722
0.92085624 -0.49137548 0.7885226
0.95974886 -0.49167863 0.79442376
1.0273284 -0.4937636 0.79960328
0.49713358 -0.40279314 0.7503615
0.53158122 -0.41969439 0.75410199
0.57409161 -0.42520005 0.76100534
0.62316722 -0.42521173 0.77053159
0.67389125 -0.42393062 0.78012294
0.72359842 -0.42491567 0.78969628
0.76928383 -0.4262571 0.79721242
0.80205703 -0.44856304 0.79945534
0.48981515 -0.37091407 0.75174987
0.52476448 -0.37506908 0.75740111
0.57473785 -0.37539032 0.766478
0.62437302 -0.37561154 0.77554011
0.67364043 -0.37349948 0.78430372
0.72390747 -0.37524435 0.79335445
0.75782388 -0.37675095 0.79784745
0.48932752 -0.32742858 0.75199205
0.52457237 -0.32441434 0.75830591
0.57553589 -0.32506219 0.76751888
0.62520707 -0.32523674 0.77632242
0.67409205 -0.3254078 0.78496486
0.72355419 -0.32464656 0.79392409
0.75650507 -0.32524171 0.79820061
0.49175534 -0.27534845 0.75159401
0.52398956 -0.27507484 0.75739121
0.57251263 -0.27450976 0.76627904
0.62324655 -0.27435356 0.77543491
0.67354393 -0.27624413 0.78453374
0.72291225 -0.27487248 0.79364985
0.75433958 -0.27128646 0.79838085
0.49445418 -0.22220658 0.75099409
0.52499127 -0.22580436 0.75610644
0.5749563 -0.22452301 0.76529491
0.62492448 -0.22478805 0.77459443
0.67486787 -0.22478475 0.78351957
0.72434294 -0.22518921 0.79269701
0.76178789 -0.21856849 0.79886216
0.49874532 -0.1789812 0.75041133
0.52708477 -0.17649205 0.75463027
0.57417327 -0.1741769 0.76360691
0.62373924 -0.17541024 0.77293527
0.67444652 -0.17413908 0.78227335
0.72517967 -0.17522956 0.79233283
0.75874621 -0.17784356 0.7983638
0.53349262 -0.12620643 0.75372404
0.57476872 -0.12473764 0.76179385
0.62400478 -0.12509033 0.77113652
0.67393053 -0.12369525 0.7812053
0.72330564 -0.12503055 0.79098171
0.76081842 -0.12556876 0.79853159
0.53801924 -0.078529231 0.7524702
0.574705 -0.074237749 0.75979364
0.62467647 -0.075386427 0.76957607
0.67385411 -0.074732758 0.77986455
0.72307992 -0.074621566 0.78989452
0.76235205 -0.075800426 0.79740191
0.54416215 -0.023803335 0.75212336
0.57438171 -0.02610166 0.75803524
0.62280571 -0.026879864 0.76806009
0.67282116 -0.024770094 0.77823681
0.72427285 -0.02647825 0.78849775
0.76569957 -0.026856108 0.79677957
0.54574162 0.015687859 0.75125986
0.57587576 0.023261229 0.75635463
0.62480533 0.025454722 0.76654643
0.67425555 0.022960708 0.7766037
0.72573739 0.024266366 0.78737444
0.7687251 0.023350293 0.79603124
0.54925317 0.059198309 0.75062293
0.57588947 0.073905043 0.75455409
0.62278908 0.075357527 0.76425821
0.67497861 0.074996211 0.77497399
0.72679543 0.074546516 0.78614378
0.77339363 0.075121209 0.79522526
0.58202994 0.12512195 0.75401688
0.62436259 0.12546994 0.76279926
0.67357087 0.12389597 0.77333617
0.72418773 0.12419198 0.78398359
0.77431083 0.12489132 0.79427797
0.80806857 0.12809271 0.7996968
0.58295852 0.17598952 0.75342435
0.624439 0.17508334 0.76200968
0.67500681 0.17420357 0.77260393
0.72506148 0.17485324 0.78338027
0.77232713 0.17625022 0.79337341
0.80159843 0.16093802 0.7977761
0.58340216 0.22505379 0.75287449
0.62402397 0.22545032 0.76140714
0.67374617 0.22476175 0.77165306
0.72328842 0.22456336 0.78257293
0.77352673 0.22551018 0.79297638
0.80516487 0.24080437 0.7986294
0.58478314 0.27490565 0.75278836
0.62443221 0.27496988 0.76074392
0.67556763 0.2745173 0.7718097
0.72298551 0.27478755 0.78150547
0.77224344 0.27468807 0.79213738
0.80704105 0.28744775 0.79837543
0.58806175 0.32417244 0.752226
0.62402201 0.32438064 0.75974107
0.67328089 0.32437551 0.76972181
0.72349179 0.32462877 0.78049541
0.77484608 0.32525843 0.7912848
0.80963963 0.32875225 0.79769629
0.58857 0.3719649 0.75178796
0.62532353 0.37395188 0.75836295
0.67633355 0.37570921 0.76917201
0.72604519 0.37326297 0.77961266
0.77576792 0.37594929 0.79032731
0.8122229 0.37545356 0.79780644
0.59343618 0.41795132 0.75124121
0.62463117 0.42403492 0.7572152
0.67467368 0.42468593 0.76751053
0.72446799 0.42437431 0.77777117
0.77345443 0.4253428 0.78786355
0.81649154 0.42332879 0.79676133
0.59750557 0.46909556 0.75089943
0.62431192 0.47329682 0.75547564
0.67361897 0.4741216 0.76567298
0.72443599 0.47353852 0.77615476
0.7760244 0.47495651 0.78671968
0.82007581 0.47626448 0.79559696
0.85057193 0.49545923 0.79992324
0.6282357 0.5242241 0.75460654
0.67360485 0.52330458 0.76377875
0.7226457 0.52338427 0.77419907
0.7727077 0.52612901 0.78494221
0.82093179 0.52503788 0.79413617
0.85540688 0.54330146 0.79872286
0.63109261 0.57383412 0.75382566
0.67316115 0.57445657 0.76242661
0.72329581 0.57540619 0.77220285
0.77458793 0.57330471 0.78277493
0.82523346 0.5763666 0.79324847
0.85497397 0.57599229 0.79838032
0.6364218 0.62610191 0.75262779
0.6737833 0.62532014 0.76027685
0.72242564 0.62627792 0.77061695
0.77283382 0.6252135 0.78100961
0.82445562 0.62627482 0.79170233
0.8602742 0.63579655 0.79759187
0.64305586 0.67016751 0.75172758
0.67553443 0.67594731 0.7582376
0.72399724 0.67430258 0.76797634
0.77588326 0.67522198 0.77911997
0.82486844 0.67563653 0.78935218
0.85984325 0.67618549 0.7964381
0.64422083 0.72114682 0.75101036
0.67408055 0.72358584 0.75605577
0.72480553 0.72301018 0.76811701
0.77568102 0.72820115 0.78124768
0.82614613 0.72582924 0.79170465
0.85487723 0.70997745 0.79456055
0.64742076 0.76267594 0.75040722
0.67996848 0.76978099 0.75931627
0.72707587 0.77623135 0.76812714
0.76869494 0.76344281 0.77167571
0.81831282 0.75525433 0.78671813
0.7292363 0.80233783 0.76194543
0.99892598 -0.55330366 0.81360376
1.0036191 -0.56094509 0.8110587
0.97986782 -0.52860749 0.80969602
1.0240395 -0.5228461 0.82070637
1.0578045 -0.53255564 0.832654
0.79638052 -0.45382577 0.80121088
0.8248142 -0.46004945 0.80362535
0.87640303 -0.46264276 0.81032556
0.92481309 -0.46856174 0.81216979
0.97713244 -0.47383934 0.81803358
1.0248202 -0.47479451 0.82322723
1.0735804 -0.46663648 0.83841401
1.1095828 -0.45650139 0.84603399
0.78688192 -0.41769004 0.8020578
0.82607841 -0.42423704 0.80786622
0.87478316 -0.4244048 0.81567627
0.92456245 -0.42467639 0.8239519
0.97470009 -0.42362267 0.83271426
1.0230157 -0.4237228 0.84101021
1.0655965 -0.42720488 0.84671587
1.1159554 -0.43286085 0.84859294
0.77881366 -0.37287444 0.80335236
0.82368273 -0.37434939 0.8102054
0.87376124 -0.37580293 0.81887096
0.9243899 -0.37422326 0.8273946
0.97296351 -0.37521172 0.83543116
1.0221701 -0.37341547 0.84408009
1.0565116 -0.39136875 0.84963584
0.77748775 -0.32403937 0.80365872
0.82560319 -0.32518864 0.81157136
0.87467325 -0.32484195 0.81976986
0.92316937 -0.32370001 0.82712913
0.97485286 -0.32454336 0.83654165
1.0174062 -0.32705534 0.84401447
1.0724809 -0.3479417 0.84948236
0.77901351 -0.27533591 0.80423063
0.82413048 -0.27451485 0.81155795
0.87501812 -0.27576864 0.82018727
0.92414832 -0.27495268 0.82771873
0.97372115 -0.27374899 0.83644658
1.0221325 -0.27423936 0.8452214
0.77767068 -0.22622213 0.80328405
0.82414919 -0.22560161 0.81149232
0.87332988 -0.22492477 0.81959504
0.92340559 -0.22509328 0.82821208
0.97329134 -0.22447422 0.83681017
1.022841 -0.22464179 0.84582937
0.7827996 -0.17427109 0.8030892
0.82469422 -0.17461973 0.81044602
0.87569481 -0.17494021 0.81977904
0.92498803 -0.1773563 0.82800132
0.97518057 -0.17272975 0.83666521
1.0242652 -0.17534737 0.84499151
1.0558767 -0.17458393 0.84805
0.78395355 -0.12711731 0.80307215
0.82305312 -0.12408341 0.80954242
0.87353796 -0.12563433 0.8185029
0.92499858 -0.12471732 0.82819098
0.97465867 -0.12575606 0.83678168
1.0235963 -0.12536591 0.84408844
1.0523492 -0.1094712 0.8484354
0.78776079 -0.076457739 0.80266613
0.8267929 -0.074697867 0.81004393
0.87629879 -0.073450521 0.81927079
0.92383462 -0.077525124 0.82808059
0.97467428 -0.073183343 0.83689207
1.0215902 -0.07515166 0.84331203
0.7884264 -0.028029038 0.80220634
0.82254386 -0.025390668 0.80845743
0.8730557 -0.026249019 0.81775463
0.92450786 -0.028469181 0.82740653
0.97486961 -0.024403665 0.83621269
1.0282679 -0.025976703 0.84474629
0.7889486 0.025953691 0.8015154
0.82219124 0.023755781 0.80688769
0.87219161 0.024092834 0.81610537
0.92396849 0.025536232 0.82570708
0.97701621 0.021683557 0.83590382
1.0257843 0.024152605 0.84350103
0.7942704 0.078633294 0.80115461
0.82303101 0.074612871 0.80550122
0.87510222 0.075681567 0.81637388
0.92492127 0.073018186 0.82514518
0.97570902 0.076302245 0.83368325
1.0285147 0.072779231 0.84297556
1.0529794 0.096763566 0.84979844
0.79955065 0.12238354 0.80169731
0.82481861 0.12626097 0.80470645
0.87459064 0.12303279 0.81472367
0.9235245 0.12630495 0.8235786
0.97334164 0.12399387 0.83230978
1.0239701 0.1257302 0.84209114
1.0531788 0.12484097 0.84685737
0.79680347 0.16866736 0.80107123
0.8260172 0.17580155 0.80487502
0.875323 0.1743716 0.81470692
0.92485684 0.17430133 0.8233043
0.97475469 0.17455493 0.83228886
1.022169 0.17610019 0.84066606
1.0622227 0.18366742 0.84872687
0.82650882 0.22288187 0.80428439
0.87556678 0.22510287 0.81346381
0.9224804 0.22403099 0.82233077
0.97300953 0.22350715 0.8321681
1.0237399 0.22493587 0.84092385
1.0596418 0.22399339 0.84774369
0.79506022 0.28573412 0.80012739
0.82902992 0.27300051 0.80418402
0.87449527 0.27532893 0.81276155
0.92465228 0.2744163 0.82242233
0.97400737 0.27334523 0.83159584
1.0232202 0.27590021 0.84075075
1.0601561 0.27630726 0.84770763
0.83231539 0.32238719 0.80355728
0.87534255 0.32581139 0.81191617
0.92575234 0.32525006 0.82041013
0.97596449 0.3235746 0.83068365
1.0257463 0.32519343 0.84117573
1.0607101 0.32470015 0.84825152
0.83391994 0.37272459 0.80265081
0.87397099 0.37412223 0.80972695
0.92524493 0.37589496 0.81907457
0.97608846 0.37382936 0.82932049
1.0277435 0.37395528 0.84055144
1.0634267 0.37570134 0.84729636
0.84303176 0.42598036 0.80353868
0.87409568 0.42497823 0.80815947
0.92376167 0.4279097 0.81877363
0.97417766 0.42506236 0.82771063
1.0290334 0.42341402 0.83951491
1.0669584 0.43180895 0.84703499
0.84361273 0.47309908 0.80253261
0.8758381 0.47612217 0.80730385
0.92479575 0.47438297 0.81600362
0.97437638 0.47694546 0.82738006
1.0245867 0.47475198 0.83798534
1.0699986 0.47893676 0.84585142
0.84466004 0.52416182 0.80137914
0.87544823 0.52443743 0.80539572
0.9241693 0.52631456 0.81500918
0.97493452 0.52519321 0.82683635
1.0256031 0.52460068 0.83715719
1.0701717 0.52117825 0.84542316
0.87727755 0.57665145 0.80478549
0.920847 0.57569647 0.81266981
0.97486132 0.57364154 0.82541066
1.0246445 0.57290983 0.83596855
1.0570524 0.55833322 0.84290862
0.88059556 0.61895066 0.80404359
0.92362428 0.62626457 0.8142336
0.97458774 0.62572449 0.82569391
1.010434 0.61274672 0.83293265
0.88593215 0.67002833 0.80431962
0.9236663 0.67315882 0.81152314
0.96177703 0.6583845 0.82063645
0.87847829 0.72274011 0.80376023
0.90378708 0.70602334 0.80634737
1.1018342 -0.45598161 0.85087174
1.0841161 -0.41799712 0.85265887
1.1228812 -0.42074117 0.85598218
1.1550164 -0.40116775 0.87023234
1.0433087 -0.3857055 0.85087097
1.0772647 -0.37504038 0.85432398
1.1225684 -0.3734608 0.86180031
1.0429856 -0.32812402 0.85187882
1.0741272 -0.32420957 0.85681874
1.1161393 -0.32637087 0.86454332
1.0459584 -0.279762 0.8528443
1.074048 -0.27642527 0.85741967
1.1105689 -0.27814522 0.86707032
1.0491511 -0.22341438 0.85012788
1.0714495 -0.22659327 0.85467225
1.0384989 -0.16722293 0.85141242
1.0662136 -0.17887682 0.85413045
1.0609356 -0.13135764 0.85297203
1.0370113 -0.070815615 0.85008603
1.0536821 -0.082064949 0.85196751
1.0491381 0.00061335368 0.85137516
1.0501395 0.048555404 0.85095292
1.0427727 0.090374306 0.8529796
1.0595102 0.13969685 0.85020816
1.0620141 0.16755097 0.85084283
1.0778855 0.23147723 0.85296673
1.0811446 0.27383608 0.85415107
1.1011046 0.2876825 0.85548544
1.0834304 0.32504341 0.8538599
1.1134951 0.32775685 0.85988718
1.088765 0.37680104 0.8541519
1.1253114 0.3756668 0.86167723
1.1521679 0.39534312 0.86775845
1.0818141 0.42414322 0.8513937
1.1228892 0.42562503 0.85861981
1.1584077 0.41074562 0.86810738
1.0872277 0.47193623 0.85250586
1.1165763 0.47147626 0.85633284
1.0907919 0.53569686 0.85372156
1.1041646 0.50976205 0.85349059
0 0 0 1 0 0 0 1 0 0 0 1 0 0 0 0 0 945 1 0 0
