ply
format ascii 1.0
comment PCL generated
element vertex 1492
property float x
property float y
property float z
element camera 0
property float view_px
property float view_py
property float view_pz
property float x_axisx
property float x_axisy
property float x_axisz
property float y_axisx
property float y_axisy
property float y_axisz
property float z_axisx
property float z_axisy
property float z_axisz
property float focal
property float scalex
property float scaley
property float centerx
property float centery
property int viewportx
property int viewporty
property float k1
property float k2
end_header
1.0221061 0.12303437 2.272845
-1.9967473 0.16291332 2.2503669
0.99288285 0.1806944 2.2964025
1.0193896 0.17530504 2.2722387
-2.0021741 0.23112231 2.251339
0.99110377 0.23090489 2.2951949
1.0190721 0.22464877 2.269856
-1.9897692 0.27870819 2.2581854
1.0731626 0.25753179 2.2768326
1.2019295 0.27600449 2.2962818
1.277191 0.29151851 2.2990763
-1.9904336 0.32628107 2.2534957
1.2960356 0.30240077 2.2782726
1.354368 0.31685016 2.2727964
-2.0009439 0.39618793 2.2560399
-1.9946256 0.36776003 2.2528477
-2.0023208 0.42375046 2.2532883
-1.9996248 0.42318571 2.2502911
-1.9891231 0.48527098 2.2534819
-2.0003071 0.54977292 2.2539544
-1.993451 0.52053857 2.2517996
-2.0132267 0.58293849 2.275614
-1.9822993 0.59581864 2.2895355
-2.0088654 0.60727674 2.2513711
-1.9773235 0.62194866 2.2774007
-2.0006795 0.65044457 2.2582538
-1.9782149 0.6587286 2.2754598
-1.9487214 0.66534406 2.2997115
-2.0065274 2.2849922 2.2712798
-1.9693693 2.2932532 2.2796185
-1.9671335 2.307405 2.2641506
-1.9260353 2.3081036 2.2922401
2.0792644 2.3687625 2.285418
2.127809 2.3848097 2.2780163
2.1675751 2.3914957 2.2818403
2.2171252 2.3900928 2.2865276
-1.805344 -0.50850409 2.3102334
-1.776193 -0.51241934 2.3179612
-1.7255124 -0.51526201 2.3235464
-1.6807969 -0.51518917 2.3220317
-1.5701947 -0.50611192 2.314559
-1.5222819 -0.51316261 2.3287137
-1.4702144 -0.52670348 2.317955
-1.4221723 -0.52233946 2.3318639
-1.3675327 -0.52835047 2.3235641
-1.3191764 -0.53165931 2.3239031
-1.2744435 -0.53538269 2.3224413
-1.2260897 -0.54193497 2.331146
-1.162284 -0.5416407 2.3320153
-1.0598572 -0.53122216 2.3354907
-1.014876 -0.53867006 2.325043
-0.99360842 -0.54013711 2.338721
0.47396651 -0.53990251 2.3369217
0.52206469 -0.54195863 2.3286541
0.58029938 -0.54260361 2.3328099
0.63468862 -0.54471314 2.3326724
0.69056696 -0.54066557 2.3217514
0.73059648 -0.53600597 2.3287463
0.77677029 -0.53127903 2.3245835
0.82810283 -0.52382731 2.3248577
0.87525648 -0.51696169 2.3262539
0.92742729 -0.50942099 2.3276927
0.95737427 -0.50644779 2.3039427
-1.9002324 -0.47523224 2.3066456
-1.869119 -0.47537839 2.3199275
-1.8291891 -0.48981959 2.3298795
-1.782087 -0.49799967 2.3471301
-1.6547787 -0.48909193 2.3155401
-1.6228902 -0.47142616 2.3169062
-1.5830276 -0.47762686 2.3406181
0.93135375 -0.49967879 2.3392711
0.97798473 -0.47640491 2.3323452
1.0050749 -0.47217357 2.3119485
-1.9090692 -0.40623385 2.302289
-1.876976 -0.42701975 2.3244588
-1.8444569 -0.44096673 2.3465729
-1.6509857 -0.43586558 2.3184571
-1.6210848 -0.41903302 2.322139
-1.5915449 -0.42552876 2.3427846
0.98880547 -0.42617631 2.3411534
1.0115759 -0.42489427 2.315676
-1.9152962 -0.36813614 2.3065012
-1.8808631 -0.3748548 2.3311234
-1.6243988 -0.37564752 2.327204
-1.5936021 -0.37604737 2.3471727
0.99331915 -0.37118727 2.338305
1.011776 -0.37355521 2.3168089
-1.9169316 -0.32504609 2.3095109
-1.8846509 -0.32536322 2.3345284
-1.6228642 -0.32994843 2.3303599
-1.5931451 -0.34998843 2.3496227
-1.4266545 -0.30663571 2.3475482
0.99192059 -0.32606879 2.3414874
1.0148394 -0.32530123 2.3176694
-1.9179003 -0.27510521 2.3116693
-1.8873539 -0.28054637 2.3374329
-1.6761909 -0.26850289 2.3482475
-1.6203767 -0.27770349 2.3320279
-1.4345133 -0.27079919 2.3460617
0.99149501 -0.27660763 2.3388379
1.0149843 -0.27636257 2.3105505
-1.9227482 -0.2231463 2.3135278
-1.8919647 -0.22355448 2.3403893
-1.6630963 -0.22738861 2.3330941
-1.6202004 -0.22704345 2.3334351
-1.4269981 -0.21566539 2.3467429
0.98764086 -0.22160302 2.3363392
1.0070925 -0.22883901 2.3113139
-1.9179573 -0.18266526 2.3235202
-1.6562859 -0.17457682 2.3270121
-1.6221271 -0.17342407 2.3334479
-1.5999331 -0.15471625 2.3497255
-1.422051 -0.169182 2.3458123
0.98566496 -0.16924965 2.3336067
1.0071752 -0.18014674 2.3106577
-1.6518329 -0.12237427 2.3233013
-1.6232605 -0.12218335 2.3336282
-1.5991246 -0.14171641 2.3491576
-1.4214058 -0.12150989 2.3450272
0.98541373 -0.12337424 2.328265
1.0089239 -0.12264785 2.3058331
-1.6516268 -0.090037145 2.3241754
-1.6273803 -0.069222763 2.3309517
-1.4198993 -0.079067037 2.3457434
0.98211211 -0.075846165 2.3264558
1.0056794 -0.058120009 2.3001585
-2.0191789 -0.013029997 2.3066659
-1.9929616 -0.013068857 2.3281963
-1.6504152 -0.025376035 2.3236644
-1.6270504 -0.025354236 2.332052
-1.4243716 -0.02726548 2.3460381
0.97773027 -0.029198701 2.3277977
1.0059173 -0.028978812 2.3010211
-2.0200679 0.014610466 2.3378713
-1.6500267 0.026295144 2.3230565
-1.628118 0.019380113 2.3326471
-1.4227406 0.019134587 2.346875
0.97622031 0.02361873 2.3242033
1.0061125 0.00017731159 2.3016198
-1.6507143 0.090916172 2.3226774
-1.6286526 0.070167221 2.3326018
-1.4241959 0.065566942 2.3450987
0.94740433 0.094599575 2.3486803
0.97487372 0.076067731 2.3234897
-1.6506344 0.12105986 2.3214083
-1.6257763 0.12362166 2.3329902
-1.4251387 0.12083352 2.3449633
0.94733602 0.12410232 2.3475106
0.97402132 0.12286957 2.3200114
-1.6533415 0.17519602 2.3224607
-1.624791 0.17489304 2.3329256
-1.4220365 0.16986379 2.3454452
0.94630051 0.17113414 2.3428497
0.97261047 0.17370765 2.3204322
-1.6575842 0.2275579 2.324821
-1.6222335 0.22858132 2.33288
-1.4249583 0.22310105 2.3449934
0.94364017 0.22905505 2.3450058
0.96890891 0.22606775 2.3205831
-1.6648871 0.27419725 2.3311503
-1.6225841 0.27899978 2.3345723
-1.4252369 0.27094039 2.3435121
1.0672759 0.26036429 2.307826
1.1916027 0.27638477 2.3040283
1.2221841 0.28875232 2.3341093
-1.6735207 0.31490636 2.3392768
-1.623837 0.3245962 2.331733
-1.429157 0.32216758 2.3450863
1.1988028 0.31748688 2.3426723
1.226019 0.32016861 2.3420956
1.2551651 0.31943199 2.3381016
1.3259528 0.323814 2.329334
1.3591577 0.32849583 2.3195572
-1.626394 0.3705655 2.3300118
-1.4288783 0.37498674 2.3453307
-1.6533511 0.44401139 2.31972
-1.6276844 0.42189243 2.3275769
-1.4254832 0.42484722 2.3466969
-1.6556617 0.47730646 2.3177156
-1.6195987 0.47628412 2.3310747
-1.4247532 0.47637334 2.3447449
-1.6812582 0.51784319 2.347904
-1.6245822 0.52537018 2.3290555
-1.5132142 0.53895468 2.3484614
-1.4242694 0.53093565 2.3431814
-2.0073671 0.58030307 2.3098743
-1.9823892 0.58728915 2.3269134
-1.9291643 0.59323198 2.3297772
-1.6525855 0.59192187 2.3186207
-1.6260545 0.57047009 2.3276188
-1.5992762 0.58504021 2.348058
-1.5153024 0.55616152 2.3441334
-1.4820464 0.55338538 2.3452606
-1.4250559 0.56149799 2.3446195
-1.9255056 0.62298924 2.3212478
-1.8910862 0.62300485 2.3452361
-1.6608515 0.62795556 2.3231506
-1.6206987 0.62594366 2.3255255
-1.5945326 0.62518507 2.3461659
-1.9258283 0.65769625 2.3194585
-1.8991764 0.66733688 2.345655
-1.6229246 0.67870092 2.3228478
-1.5928507 0.67328042 2.3467705
-1.6559135 0.73066449 2.3188369
-1.6198559 0.72887772 2.3252921
-1.5967827 0.71463197 2.3431566
-1.6738523 0.77885813 2.3332827
-1.6218752 0.77670491 2.3242664
-1.5933346 0.78558642 2.3477547
-1.6510487 0.84114558 2.3088293
-1.6266004 0.82525289 2.3219314
-1.5945452 0.83120763 2.3442054
-1.6802835 0.88324732 2.3413737
-1.6216624 0.87665719 2.3235421
-1.5918207 0.87190908 2.3496294
-1.6616132 0.9346692 2.3247991
-1.6233301 0.9253813 2.3194857
-1.5971329 0.9219014 2.3428068
-1.6761844 0.97027659 2.3358445
-1.6242687 0.97331351 2.3215101
-1.5940722 0.97261339 2.3409188
-1.6667349 1.018452 2.3260469
-1.6246294 1.0245708 2.325527
-1.597597 1.011433 2.343442
-1.6544049 1.0899491 2.3169715
-1.620362 1.0751723 2.3299246
-1.5954403 1.0733974 2.3479171
-1.6649066 1.1175553 2.3234105
-1.6217316 1.1253134 2.3256872
-1.6604865 1.179383 2.321774
-1.6251975 1.1739444 2.3274133
-1.5973983 1.1599269 2.3488822
-1.6686285 1.2286117 2.3301744
-1.6228006 1.2204787 2.328918
-1.5985858 1.2405921 2.3491826
-1.6829991 1.2763373 2.3499887
-1.623487 1.2716545 2.3300211
-1.6710563 1.3148932 2.3272829
-1.6272244 1.322312 2.3296766
-1.6655228 1.3712976 2.3269844
-1.6256452 1.3750259 2.3350794
-1.6530339 1.4361258 2.3192992
-1.6292753 1.4269913 2.3327751
-1.6711516 1.477113 2.3309042
-1.629124 1.4756173 2.3362935
-1.6673881 1.5125552 2.3283179
-1.6327212 1.5236484 2.3358104
-1.6755121 1.577535 2.3336339
-1.6299907 1.5715965 2.3331134
-1.6806387 1.6262472 2.3375165
-1.6396492 1.6260026 2.3279223
-1.6615658 1.681131 2.3300705
-1.6310465 1.6712635 2.3420584
-1.6683804 1.7216836 2.3313413
-1.6386545 1.7254047 2.3376305
-1.6657237 1.7681363 2.3257189
-1.6381991 1.7751325 2.3387942
-1.6579759 1.8215392 2.32495
-1.6364228 1.8303255 2.335341
-1.6656226 1.8764745 2.324477
-1.6335052 1.879385 2.341985
-1.666775 1.9336274 2.3295441
-1.6348101 1.9317607 2.3398561
-1.6674677 1.9831481 2.3319819
-1.6398901 1.9696714 2.338809
-1.6623894 2.0269384 2.3329976
-1.6479079 2.0115039 2.3415122
-1.6675016 2.0657737 2.3307612
-1.6443088 2.0783796 2.3403711
-1.6693952 2.1188951 2.3333569
-1.6419008 2.131151 2.3413033
-1.6669979 2.1673748 2.3294077
-1.6403481 2.1726 2.3412807
-1.6622337 2.2151341 2.3367133
-1.6385374 2.2237713 2.3454006
-1.969822 2.2866912 2.3083858
-1.9243469 2.2909062 2.3254035
-1.8939328 2.2995205 2.3000007
-1.8061004 2.2935669 2.3473623
-1.8775804 2.3110464 2.3380368
2.0253787 2.3758721 2.3320231
2.0681508 2.3764465 2.3180046
2.1271327 2.3816712 2.3237102
2.1719463 2.3796635 2.3208008
2.2224081 2.3832097 2.3230598
2.2732046 2.3819695 2.3277891
2.3183589 2.3788919 2.3441138
-1.5066755 -0.50289124 2.3542409
-1.4780388 -0.50872242 2.3690503
-1.4217961 -0.50706804 2.3717341
-1.3737121 -0.51757777 2.375653
-1.3187075 -0.53096151 2.3730078
-1.2750874 -0.53609562 2.3716993
-1.2249411 -0.53858751 2.3811107
-1.1716443 -0.53866518 2.374347
-1.1393533 -0.54319483 2.3694563
-1.0354627 -0.5405767 2.3902092
-0.98731917 -0.53779536 2.3907285
0.44903544 -0.53986156 2.3939481
0.48422119 -0.53981048 2.389112
0.52029425 -0.54055846 2.3691719
0.6279633 -0.54262125 2.368263
0.67660624 -0.53362674 2.3691685
0.72111362 -0.53071356 2.3742881
0.77710068 -0.52785611 2.3838172
0.82598662 -0.51645756 2.3826375
0.87161523 -0.50962287 2.3793225
0.90568507 -0.50196052 2.3581433
-1.8192583 -0.47158584 2.3616493
-1.7775331 -0.47826788 2.379462
-1.7279217 -0.47980291 2.3762436
-1.6994357 -0.49168286 2.3528993
-1.5631392 -0.46949753 2.3677297
-1.5276259 -0.47980109 2.381706
-1.48001 -0.49403211 2.3944709
0.93698466 -0.48006266 2.3844829
0.96000022 -0.47312146 2.3678825
-1.8245062 -0.42624444 2.3679607
-1.7858446 -0.43355158 2.3925836
-1.7190747 -0.42338419 2.3913641
-1.5675857 -0.42134619 2.3650351
-1.5406765 -0.42712179 2.3889349
0.94553775 -0.43349904 2.3920197
0.96766537 -0.42565963 2.3690469
-1.8606942 -0.35996157 2.3524356
-1.8275354 -0.37377226 2.3734055
-1.7956185 -0.37425029 2.3971939
-1.7074709 -0.3737658 2.381398
-1.5690575 -0.36892653 2.3713894
-1.5442846 -0.38484842 2.3904645
0.94720972 -0.37506759 2.3962448
0.96925038 -0.37656611 2.3702002
-1.8596646 -0.32577303 2.3551345
-1.8279215 -0.32620201 2.3795638
-1.6916826 -0.32397485 2.3647101
-1.574656 -0.3257806 2.3690317
-1.5496485 -0.31931341 2.3927445
-1.4825662 -0.30971277 2.3945823
-1.4237847 -0.31608343 2.3574193
-1.3794802 -0.30913207 2.3786366
0.94452536 -0.31968015 2.3948932
0.96756619 -0.3253336 2.3716528
-1.8637279 -0.27357656 2.3569481
-1.8317033 -0.28062966 2.3835342
-1.6846273 -0.28962675 2.358242
-1.5743693 -0.28024754 2.3718319
-1.5489187 -0.27352074 2.3958969
-1.4768634 -0.29565233 2.3865936
-1.414896 -0.27066278 2.3535187
-1.3766114 -0.27192059 2.3801591
0.94217563 -0.26474771 2.3935273
0.96527618 -0.27886811 2.3678491
-1.8676416 -0.2239248 2.361798
-1.835701 -0.22421448 2.3860345
-1.6025358 -0.20676416 2.3505061
-1.5755376 -0.22698906 2.3740506
-1.5473224 -0.22763619 2.3970184
-1.4800404 -0.20600927 2.398803
-1.4109758 -0.22418334 2.3550241
-1.3756154 -0.22061692 2.3791246
0.94395006 -0.22093923 2.3865569
0.96576381 -0.22722016 2.3628967
-1.8743619 -0.1830917 2.360112
-1.8351599 -0.18328702 2.3881428
-1.6018038 -0.18725701 2.3506699
-1.5745276 -0.17490035 2.3758688
-1.5456299 -0.17532395 2.3976912
-1.4776024 -0.17349985 2.3967094
-1.4041042 -0.16929105 2.3557935
-1.3726621 -0.17026395 2.3802173
0.94149709 -0.17156097 2.3863173
0.96051598 -0.17231353 2.3619373
-1.7204441 -0.11978678 2.3937635
-1.6009374 -0.1160081 2.3528764
-1.5742685 -0.12294142 2.3779359
-1.4716276 -0.12149641 2.3893545
-1.4018337 -0.12512589 2.3540094
-1.3759632 -0.11934062 2.3774326
0.93638301 -0.12549724 2.386488
0.95879686 -0.12449934 2.3597512
-1.7145565 -0.072768487 2.3869863
-1.578781 -0.07090871 2.3732312
-1.4678761 -0.070023805 2.3847613
-1.4045153 -0.079959914 2.3545945
-1.3748735 -0.070220426 2.3796563
-1.3477528 -0.0817708 2.397676
0.93459255 -0.077489868 2.383321
0.95645511 -0.077759482 2.3576429
-1.7117177 -0.026098974 2.3837638
-1.6002957 -0.012504919 2.3540392
-1.5773402 -0.0264566 2.3754671
-1.4604689 -0.025105307 2.3733721
-1.407699 -0.033736918 2.35463
-1.3766879 -0.026799658 2.3775892
0.93143189 -0.031061707 2.3811529
0.95105541 -0.029480278 2.3589942
-1.712394 0.020443616 2.3846843
-1.6007277 0.019826844 2.3545692
-1.5740401 0.019886421 2.3798311
-1.46066 0.019451104 2.3736672
-1.4073429 0.019163342 2.3566496
-1.3750836 0.01918634 2.3779259
-1.34843 0.038191866 2.3995869
0.92865658 0.023963265 2.3781183
0.95054787 0.023847306 2.3577521
-1.713165 0.073701814 2.3848743
-1.6003134 0.052155927 2.3535795
-1.5785437 0.072807737 2.3754485
-1.4610544 0.07038258 2.3735366
-1.4083798 0.072068155 2.3550398
-1.3757511 0.069574855 2.378356
-1.3484148 0.050823517 2.3993769
0.92972261 0.076549023 2.3744195
-1.7154646 0.12040768 2.3865492
-1.6004901 0.13623446 2.3511395
-1.5775963 0.12230773 2.3754685
-1.458963 0.1211189 2.3685465
-1.4087251 0.11873607 2.3541505
-1.3766718 0.12003535 2.378432
0.92452133 0.12499963 2.3728933
-1.7247858 0.17465508 2.3968508
-1.6029873 0.17531645 2.3527436
-1.5761024 0.17590614 2.3778651
-1.4581629 0.17191911 2.3648269
-1.4047154 0.17005047 2.3564796
-1.376071 0.17096594 2.3790185
0.91898614 0.17264919 2.3735261
-1.7287388 0.22205174 2.3992338
-1.6039636 0.21430159 2.3516636
-1.5766375 0.22798452 2.3752053
-1.5363487 0.23096626 2.3982124
-1.4608884 0.22316852 2.3659894
-1.4081594 0.21668759 2.3540025
-1.3758026 0.22268528 2.3789263
0.89518589 0.21870165 2.3945148
0.91932017 0.22120768 2.3695152
-1.579703 0.2757737 2.3728538
-1.5492573 0.27438363 2.3958282
-1.4751422 0.27681538 2.3849316
-1.4069673 0.27105054 2.3531022
-1.375633 0.27230853 2.3808441
-1.6848172 0.34340215 2.3521271
-1.573442 0.32099932 2.3780048
-1.4797392 0.32922289 2.3873529
-1.4099774 0.32209784 2.353312
-1.377547 0.32336199 2.3793855
1.2460793 0.30793807 2.3501189
-1.7017502 0.38682345 2.3708193
-1.69556 0.36551428 2.3647203
-1.6007936 0.39169431 2.355232
-1.5760808 0.37175253 2.376287
-1.4872888 0.37628374 2.394418
-1.4114377 0.37072372 2.354157
-1.3752525 0.37499756 2.3794551
-1.7109489 0.42242014 2.3790166
-1.6018821 0.42459425 2.3523335
-1.5752337 0.42619991 2.3784513
-1.4744457 0.41970897 2.381285
-1.4059902 0.42109385 2.356451
-1.3766198 0.42638677 2.3794446
-1.5776757 0.47729889 2.3755281
-1.4707086 0.4723717 2.3813927
-1.4068221 0.47673893 2.3553283
-1.3763694 0.47982931 2.3791437
-1.6909531 0.54085994 2.3578053
-1.5740893 0.52022809 2.3738561
-1.5326067 0.52765948 2.3841224
-1.4825218 0.53124225 2.3707144
-1.4078201 0.51521146 2.3508906
-1.3774748 0.52552283 2.3765492
-2.0083766 0.58167571 2.3658328
-1.9313442 0.58957881 2.3773735
-1.8810441 0.59548008 2.3764389
-1.7112122 0.58111328 2.379586
-1.5765216 0.5699361 2.3625157
-1.5281781 0.58531749 2.3812687
-1.4701982 0.57375002 2.3744671
-1.4199345 0.57355833 2.3755836
-1.3801008 0.55754942 2.3793075
-1.8697948 0.62510598 2.3716595
-1.8460385 0.62643856 2.3947346
-1.7217032 0.61182338 2.3887033
-1.5683224 0.62444448 2.3663692
-1.5326446 0.62542272 2.3913119
-1.900196 0.65379477 2.3502066
-1.8753691 0.66176611 2.3708153
-1.8419231 0.66370362 2.3900797
-1.6976186 0.68232644 2.3654447
-1.5684018 0.6741004 2.3637125
-1.5408064 0.67646021 2.3891485
-1.7164035 0.72410858 2.3833399
-1.5690153 0.72367954 2.3671761
-1.5358911 0.73019439 2.3924832
-1.7342601 0.7729485 2.3975649
-1.5695051 0.77098858 2.3646562
-1.5426071 0.7785182 2.3892603
-1.8009777 0.81198478 2.3987992
-1.7154241 0.83943468 2.3796432
-1.6960419 0.81634903 2.3566644
-1.5673256 0.8226679 2.3674419
-1.541302 0.82114565 2.3918798
-1.7215053 0.87460881 2.3784578
-1.5714376 0.8739754 2.3683224
-1.5432867 0.88001871 2.3919988
-1.7298546 0.93344969 2.3877485
-1.5698593 0.92620063 2.3675189
-1.540561 0.92261779 2.3910489
-1.7541181 0.9709084 2.3980248
-1.7344141 0.96516895 2.3894365
-1.6891701 0.97770572 2.3540142
-1.5725529 0.97574818 2.3680937
-1.5441582 0.98355746 2.3916245
-1.7203103 1.0377957 2.3824861
-1.5703746 1.0225731 2.3697786
-1.5410665 1.0257019 2.395257
-1.7542961 1.0639418 2.39607
-1.7255702 1.0783052 2.3836026
-1.6981221 1.0746782 2.3638594
-1.5738806 1.0743423 2.3679318
-1.5472488 1.071012 2.3901739
-1.7189894 1.123211 2.3791337
-1.5727724 1.1285231 2.3696644
-1.5430217 1.1190819 2.3967371
-1.7266102 1.1759945 2.3829353
-1.6992568 1.1546936 2.3655908
-1.6024642 1.1774578 2.3505704
-1.571209 1.1799821 2.3749213
-1.7240876 1.2144279 2.3820431
-1.6926429 1.2305108 2.3543618
-1.5777001 1.2268875 2.3715136
-1.5482407 1.2309005 2.3943837
-1.7315223 1.2877138 2.3953631
-1.6922778 1.2976348 2.3562803
-1.5759495 1.2765627 2.3738515
-1.724038 1.3193437 2.3787906
-1.6057465 1.3277228 2.3559666
-1.5782285 1.3258121 2.379564
-1.6029627 1.3869717 2.3565257
-1.5782807 1.3749596 2.3787749
-1.7123671 1.4301027 2.372642
-1.6060832 1.4316697 2.3574743
-1.575076 1.4219662 2.3831673
-1.545223 1.4348633 2.3992801
-1.6978927 1.4552046 2.3567338
-1.6050186 1.4730308 2.3516126
-1.5798441 1.4732831 2.3825736
-1.7026584 1.5454962 2.3522115
-1.6066419 1.5170928 2.358408
-1.5784295 1.5249048 2.3817785
-1.6048106 1.5753956 2.3562908
-1.5827419 1.5727087 2.3830512
-1.6090244 1.6283797 2.3595088
-1.5834769 1.6175315 2.382977
-1.610624 1.6775646 2.3592196
-1.5830373 1.6724644 2.3840749
-1.614593 1.7237612 2.3587754
-1.5805486 1.7240865 2.3876081
-1.6134287 1.7776079 2.35851
-1.5874914 1.7702588 2.3803892
-1.6112558 1.8281409 2.3594108
-1.5839394 1.8206018 2.3869994
-1.6105494 1.8827008 2.3599379
-1.5877576 1.8706844 2.3842745
-1.6124713 1.9331142 2.3620219
-1.588619 1.9167377 2.3854961
-1.6159552 1.9775918 2.3605156
-1.5870072 1.9723587 2.3875868
-1.621986 2.0258496 2.3621728
-1.5913467 2.0358734 2.3906167
-1.6146867 2.0702746 2.3676991
-1.5846952 2.0791531 2.3896763
-1.7333782 2.1448181 2.392633
-1.6181625 2.1218958 2.3654304
-1.5892082 2.118561 2.3871686
-1.7261872 2.1703067 2.3799286
-1.618659 2.1757114 2.3738306
-1.5967212 2.1623306 2.3886936
-1.7261173 2.2283151 2.3746681
-1.619274 2.2224543 2.3733783
-1.5955893 2.2150266 2.3948073
-1.9015998 2.2785842 2.3806522
-1.8786759 2.2880685 2.370656
-1.8297042 2.2877312 2.3819342
-1.7861767 2.2923563 2.3839979
-1.7394327 2.2731473 2.3709486
-1.8667471 2.3005643 2.3583264
-1.8224453 2.3143272 2.3685768
1.9364862 2.3721125 2.3843403
1.9882308 2.3740926 2.3737769
2.0183561 2.379616 2.3692877
2.0748878 2.3793893 2.3693111
2.1296904 2.3821416 2.3739948
2.1736917 2.3831809 2.3664954
2.2237685 2.3814323 2.3713329
2.2779725 2.3832986 2.3794706
2.3309994 2.3738952 2.3697462
2.3734598 2.3834894 2.3851659
2.404593 2.3752847 2.3857107
-1.4116378 -0.50356901 2.4025273
-1.3702064 -0.50850582 2.4234583
-1.3275322 -0.52336949 2.4248798
-1.2765797 -0.53140801 2.4335229
-1.2377738 -0.53705949 2.4378021
-1.1571252 -0.54205948 2.4237523
-1.1308349 -0.5415464 2.4299707
-1.0744501 -0.53958803 2.4161313
-1.0269389 -0.53954148 2.4198778
-0.97766352 -0.53921771 2.4005947
0.43431485 -0.5434525 2.4120393
0.46774474 -0.54802775 2.4286466
0.52476794 -0.54151469 2.4287512
0.57670569 -0.54364401 2.4211023
0.62531149 -0.53684974 2.422998
0.67079377 -0.53223425 2.4238656
0.73068619 -0.52600974 2.4118431
0.78060085 -0.51734024 2.4291797
0.82353801 -0.50951809 2.4285202
0.86572564 -0.50150347 2.4309554
-1.7482175 -0.4611302 2.4002497
-1.5108362 -0.46930891 2.410295
-1.4686565 -0.47135368 2.4184821
-1.4222333 -0.4830431 2.4271216
-1.3906341 -0.49469185 2.4384315
0.88598716 -0.48470134 2.4303322
0.91311276 -0.47262955 2.4140425
-1.7669327 -0.42160505 2.4051809
-1.7497698 -0.42530599 2.4076345
-1.516528 -0.42397034 2.4118578
-1.4743249 -0.42668211 2.4268939
-1.4184668 -0.42356944 2.4402561
0.88937759 -0.44296142 2.4491122
0.92130649 -0.42383045 2.4231846
-1.7745084 -0.3741256 2.4084587
-1.7476826 -0.37278867 2.4115856
-1.5212656 -0.37139091 2.4157159
-1.4760798 -0.37455598 2.4319677
-1.4392318 -0.35864535 2.4415071
0.92380732 -0.37180725 2.4231939
-1.7783792 -0.32639325 2.4112139
-1.7471349 -0.32517314 2.4162493
-1.5244727 -0.32146454 2.4109437
-1.4746581 -0.33664966 2.4060509
-1.4249799 -0.33571449 2.4193549
-1.357408 -0.31908864 2.4146233
-1.3265685 -0.3114028 2.4304163
0.92568177 -0.3224937 2.4231565
-1.8103272 -0.26536965 2.4019909
-1.7808715 -0.27869242 2.4140012
-1.7437073 -0.27713662 2.4161389
-1.5250897 -0.27393836 2.4121847
-1.4873182 -0.27184018 2.4057693
-1.3545167 -0.26616049 2.4000483
-1.3230622 -0.27390072 2.4271936
0.89632821 -0.26292616 2.4489779
0.91992223 -0.2746731 2.4253039
-1.8110468 -0.22455816 2.4062188
-1.7818061 -0.2243278 2.419744
-1.7370579 -0.22207981 2.4112902
-1.5230336 -0.22792929 2.4124844
-1.4845252 -0.23250453 2.4042938
-1.353294 -0.22155297 2.4011655
-1.3256236 -0.22369242 2.4255447
-1.2994777 -0.21684472 2.4450185
0.89374226 -0.23777571 2.4436107
0.91806012 -0.22406846 2.420377
-1.8115112 -0.16795431 2.4148886
-1.7815291 -0.17522171 2.4255114
-1.734171 -0.17462493 2.4103136
-1.5205187 -0.17544293 2.4117599
-1.3511801 -0.1642504 2.4007459
-1.3251315 -0.1713201 2.4235272
-1.2981316 -0.1719636 2.4450183
0.89209008 -0.17645787 2.4425707
0.91509002 -0.17645898 2.41868
-1.8168858 -0.12751943 2.4171689
-1.7780421 -0.12630178 2.4353659
-1.7275399 -0.14710343 2.4025064
-1.5271326 -0.12335655 2.411165
-1.3513066 -0.12628996 2.4026134
-1.3255529 -0.11923596 2.4223752
-1.2968795 -0.12081902 2.4448361
0.88988572 -0.12499267 2.4387021
0.91213882 -0.1286007 2.4151852
-1.8154885 -0.074681051 2.4194162
-1.7766184 -0.074515991 2.4331532
-1.5268255 -0.071246356 2.412221
-1.3262763 -0.068099171 2.4214227
-1.2973588 -0.069851622 2.4471412
0.88923639 -0.077021904 2.4349549
0.91136825 -0.078065157 2.4087398
-1.8158853 -0.026808476 2.4206936
-1.7741003 -0.026728772 2.4304502
-1.5263195 -0.02565854 2.41208
-1.3290523 -0.025093075 2.4207978
-1.2982427 -0.018871147 2.4494612
0.88635033 -0.030119808 2.4310386
0.90864986 -0.027300309 2.4047608
-1.863793 0.014384816 2.4309199
-1.8215538 0.021122262 2.428159
-1.7760917 0.02097057 2.4331627
-1.5266495 0.019910948 2.4125798
-1.3503642 0.02559635 2.403163
-1.3273568 0.017928913 2.4239798
-1.2981628 0.00026927461 2.4493535
0.87977439 0.024318451 2.4310961
0.90319252 0.024146672 2.4052186
-1.8161348 0.075780869 2.4200592
-1.7769527 0.075554289 2.4334154
-1.5270247 0.072008118 2.4123816
-1.3516992 0.076278664 2.4046903
-1.3244245 0.070165358 2.4257085
-1.2977778 0.076795049 2.4476745
0.87760943 0.079772756 2.429631
0.90333325 0.07816495 2.4047809
-1.8161153 0.12366879 2.4184275
-1.7775507 0.1233514 2.4326515
-1.7260922 0.14796908 2.4001393
-1.5263577 0.12405609 2.4096687
-1.3515184 0.12057906 2.4029808
-1.3252146 0.121058 2.425657
-1.2990974 0.12370282 2.4487097
0.87548554 0.12697883 2.4271295
0.90251482 0.12607136 2.4011662
-1.8161163 0.17156696 2.4160297
-1.7787335 0.17123923 2.4319057
-1.5276035 0.17627448 2.4091206
-1.3513685 0.16910057 2.4005094
-1.3238068 0.17309457 2.4249148
-1.2993089 0.16628383 2.4472625
0.8723647 0.17521837 2.4245114
-1.8113018 0.22654818 2.4191923
-1.7799933 0.22602117 2.4300389
-1.7343329 0.22277793 2.4069369
-1.520541 0.22523412 2.4043667
-1.4993585 0.22706406 2.4012539
-1.3528619 0.20941702 2.4008274
-1.3220232 0.22330403 2.4286656
0.87031651 0.22369228 2.4241142
-1.8150649 0.27505258 2.4201908
-1.7847257 0.27459237 2.4325192
-1.738251 0.27731726 2.4079018
-1.5221701 0.27419838 2.406961
-1.3233694 0.27455589 2.4272637
0.93303114 0.25378743 2.4047539
-1.8179278 0.32360011 2.4191382
-1.7776142 0.32472652 2.4257255
-1.7492826 0.313016 2.419893
-1.5258594 0.32060978 2.4084291
-1.3247249 0.32591814 2.4250674
-1.8191972 0.37957209 2.4209774
-1.777222 0.37583658 2.4246097
-1.748238 0.36715215 2.4123077
-1.5302192 0.37396392 2.4094923
-1.326733 0.37758237 2.4232154
-1.2950681 0.39878768 2.4488132
-1.8132159 0.42419794 2.4213364
-1.773487 0.42592275 2.4263706
-1.5341001 0.4274874 2.40885
-1.4971445 0.43748602 2.4026475
-1.3509624 0.42830542 2.4039056
-1.3267561 0.42746454 2.4274747
-1.8110676 0.4766461 2.4163156
-1.7795279 0.47556543 2.4273956
-1.7350804 0.47592583 2.405416
-1.5500449 0.47433874 2.4000733
-1.5254415 0.47666478 2.4098299
-1.4998642 0.4578855 2.4042087
-1.3531845 0.46739966 2.4025216
-1.3253285 0.47370446 2.4235351
-1.2986689 0.47080088 2.4462767
-1.8148636 0.52604395 2.413182
-1.7864257 0.52579957 2.4287777
-1.7437249 0.51926041 2.410579
-1.5220112 0.51103085 2.4043477
-1.32221 0.52308285 2.4269896
-1.8665757 0.59136796 2.4091191
-1.8247161 0.58059859 2.42115
-1.7759469 0.57152981 2.4218352
-1.4959581 0.59224313 2.4031348
-1.4186007 0.59013832 2.4280045
-1.3587227 0.56320375 2.4069097
-1.328405 0.56114829 2.4292774
-1.8195882 0.62689006 2.4139037
-1.7740644 0.62307346 2.4203084
-1.7334114 0.63650703 2.4006023
-1.5129024 0.63288122 2.4063907
-1.476272 0.62007719 2.4263823
-1.4403439 0.60965437 2.4483671
-1.816646 0.66460395 2.4108527
-1.7794464 0.67356992 2.4169948
-1.7452434 0.67529684 2.4093397
-1.5122583 0.67583859 2.4134843
-1.4866527 0.67208141 2.4385655
-1.8125677 0.72287911 2.424526
-1.7683079 0.73092949 2.412771
-1.7431272 0.71760064 2.4056911
-1.5148468 0.72490752 2.4125731
-1.4869767 0.72554147 2.4385331
-1.8045077 0.77850074 2.4130588
-1.7809279 0.7799316 2.4196045
-1.7425952 0.77664536 2.4091315
-1.5201702 0.77791393 2.4126387
-1.4867574 0.77120757 2.4385052
-1.8032529 0.84760517 2.421289
-1.7737217 0.82229465 2.4140065
-1.7475083 0.83444351 2.4006219
-1.517912 0.82597154 2.4132841
-1.4881452 0.82387561 2.4399118
-1.7753557 0.87704772 2.4174004
-1.7486355 0.89775568 2.4131432
-1.5186642 0.87646562 2.4153538
-1.489808 0.87595582 2.4405961
-1.7774198 0.92218888 2.4074833
-1.5157484 0.92288947 2.4148626
-1.488201 0.92682171 2.4419203
-1.7816795 0.97357863 2.4091492
-1.5190244 0.97200102 2.4156969
-1.4870899 0.97144616 2.4419687
-1.7741842 1.0236627 2.416065
-1.7489892 1.0041606 2.4092083
-1.5170316 1.023782 2.4188232
-1.4928964 1.0265539 2.4411645
-1.7605143 1.0677489 2.4045033
-1.5211791 1.0767668 2.4166481
-1.4933286 1.0756545 2.4430079
-1.7648476 1.1212351 2.4067461
-1.5184597 1.1247751 2.421232
-1.494945 1.1279097 2.446481
-1.5528003 1.1539574 2.4011469
-1.5228816 1.171572 2.4214027
-1.492859 1.175335 2.4468985
-1.7585602 1.2285491 2.4007857
-1.5241426 1.2214214 2.4176686
-1.4991872 1.2154343 2.4432983
-1.5273571 1.274102 2.4215188
-1.496051 1.2739071 2.4476383
-1.5225215 1.3209755 2.4264596
-1.5528716 1.3858483 2.4024997
-1.5306916 1.3713616 2.4243541
-1.5585498 1.4052575 2.4042511
-1.5266949 1.4238423 2.4275098
-1.4950269 1.4273126 2.4483938
-1.5564475 1.4669739 2.4055729
-1.527737 1.4807942 2.4282081
-1.5554136 1.5307726 2.4073679
-1.5308356 1.5316685 2.4275544
-1.5570683 1.5762727 2.4050684
-1.5293508 1.5780222 2.4334404
-1.5572735 1.6283402 2.405302
-1.5292366 1.630132 2.4338906
-1.5552691 1.6712692 2.4058113
-1.5320035 1.6783199 2.4323809
-1.5587339 1.7232389 2.4092762
-1.5349444 1.7254642 2.4314408
-1.5610346 1.7771541 2.4085596
-1.5329412 1.7799916 2.4356918
-1.5596769 1.8308645 2.4100895
-1.5323712 1.8265671 2.4316959
-1.5675739 1.8847413 2.4107366
-1.5372728 1.8867193 2.433723
-1.5639629 1.9242254 2.4126673
-1.5370591 1.9292198 2.4363203
-1.5610129 1.9736311 2.4122186
-1.5261872 1.9737213 2.439327
-1.5666435 2.0272543 2.4156735
-1.5289035 2.0135825 2.4368372
-1.5660353 2.0734892 2.4161665
-1.5475943 2.0673137 2.4353597
-1.5647454 2.1248231 2.4159856
-1.539469 2.129544 2.4375186
-1.5775232 2.1820393 2.4148993
-1.5290027 2.1683888 2.4363306
-1.7653717 2.2175341 2.4109533
-1.5703131 2.2249825 2.4240556
-1.5365883 2.219101 2.4433737
-1.8736473 2.2855446 2.4099238
-1.8101345 2.2680986 2.4098437
-1.785289 2.2676868 2.4182761
-1.5790889 2.2537513 2.4244831
-1.5485562 2.2567849 2.4460886
1.8799852 2.376611 2.4274547
1.9248824 2.3809366 2.4256034
1.9676383 2.3778832 2.4235916
2.0215683 2.3772655 2.4178524
2.0812542 2.3789206 2.4362392
2.1184239 2.3814392 2.4222603
2.1766336 2.388046 2.4144716
2.2354641 2.3827493 2.4224534
2.2688406 2.3838758 2.4299951
2.3258996 2.3842361 2.4272187
2.3744938 2.3723834 2.4241874
2.4291759 2.3809085 2.44505
2.4542992 2.3970141 2.4101582
2.5264707 2.3936536 2.4434252
-1.3546697 -0.50890791 2.4584563
-1.3257835 -0.50969958 2.4748857
-1.2792062 -0.51615149 2.4783187
-1.223343 -0.52905858 2.4716809
-1.1813787 -0.53729898 2.4770477
-1.127417 -0.53632069 2.4721508
-1.0285733 -0.54416049 2.4753938
-0.99767888 -0.54458147 2.4864438
0.39255726 -0.54759365 2.4923937
0.42676249 -0.54462224 2.47487
0.47422391 -0.5435611 2.4641464
0.52373827 -0.53889668 2.4945393
0.57376444 -0.53418463 2.4646282
0.62051845 -0.53160781 2.4751456
0.67670614 -0.52576721 2.4828908
0.72598553 -0.52500123 2.4853227
0.77456868 -0.51463467 2.479239
0.81769472 -0.50587821 2.4652979
-1.4244781 -0.46578947 2.4774704
-1.3763866 -0.49241194 2.4715524
0.82979405 -0.49383864 2.4796329
0.8660289 -0.47156912 2.4692769
-1.4596874 -0.42140174 2.4550421
-1.4324199 -0.42575097 2.47908
0.87075567 -0.42714515 2.4787552
0.90294868 -0.40660384 2.4538305
-1.456229 -0.38753918 2.4532833
-1.4313444 -0.37811399 2.4742243
0.87687504 -0.3778677 2.4783654
0.90174985 -0.37530389 2.4539125
-1.4104805 -0.34161472 2.4788017
-1.3089966 -0.32454434 2.4842262
-1.2713584 -0.30874044 2.472611
0.87677228 -0.32820657 2.4790378
0.90045869 -0.32558861 2.45521
-1.2747897 -0.27745265 2.4713366
-1.2434696 -0.27335852 2.4929118
0.87691808 -0.27903235 2.4767962
-1.2737285 -0.22434369 2.4687417
-1.2455304 -0.2268035 2.494247
0.84606409 -0.21679641 2.4991806
0.87392497 -0.2261316 2.4719203
-1.2729846 -0.17290384 2.4702535
-1.2471825 -0.17379202 2.4944689
0.84444636 -0.17308418 2.4966629
0.86905694 -0.17797831 2.4712214
-1.272676 -0.12156218 2.4718091
-1.2466993 -0.12217039 2.4956563
0.84396082 -0.12764509 2.4970338
0.86435705 -0.12925294 2.4729648
-1.2718179 -0.070226774 2.4715357
-1.246671 -0.070625432 2.4969859
0.84461612 -0.077885225 2.4872825
0.86389774 -0.082184426 2.4650209
-1.2745328 -0.02635823 2.4717021
-1.2447929 -0.025494397 2.4938238
0.83794653 -0.030664315 2.4891791
0.85957968 -0.030371264 2.4596312
-1.2760795 0.020481421 2.4686823
-1.2453371 0.017403606 2.4949083
0.83729255 0.024661472 2.4793594
0.85635316 0.024510339 2.4578691
-1.2739784 0.069623321 2.471266
-1.245785 0.07107316 2.4950876
0.83002472 0.081011556 2.4824033
0.85529882 0.073176183 2.4541762
-1.2740766 0.12166458 2.4699552
-1.2457294 0.12257443 2.4935012
0.8307575 0.12888037 2.4773848
0.8547076 0.12787572 2.4509196
-1.2730116 0.1734217 2.4699852
-1.2465174 0.17419127 2.4928343
0.82688624 0.1778273 2.4747066
-1.2741657 0.22494896 2.4691794
-1.2475095 0.22590876 2.4917998
0.82462329 0.22698565 2.4739623
-1.2734909 0.27837479 2.4722013
-1.2448293 0.26278648 2.4940057
-1.2723153 0.32884973 2.4720414
-1.2395803 0.31097162 2.4999139
-1.2740636 0.37727085 2.4686382
-1.241816 0.38287395 2.4972105
-1.2739786 0.42376933 2.4700632
-1.2433026 0.42230421 2.4955926
-1.2726874 0.47313368 2.4707956
-1.2465124 0.47547716 2.4951911
-1.2723923 0.52799118 2.4742429
-1.2486582 0.50889367 2.4948101
-1.3887707 0.59699231 2.4763691
-1.3139063 0.57415801 2.4595318
-1.2806398 0.56645542 2.4761198
-1.4623075 0.63997322 2.4518211
-1.4251577 0.62804139 2.4721298
-1.3984905 0.6145162 2.491226
-1.4615794 0.67606312 2.4579184
-1.4347746 0.67451149 2.4823406
-1.4614871 0.72615904 2.4618309
-1.4351832 0.72122395 2.4863157
-1.4606243 0.77633464 2.4636409
-1.4391569 0.77252364 2.4870148
-1.4634999 0.82876128 2.4622586
-1.4379212 0.82311374 2.48786
-1.4634802 0.86906874 2.4642074
-1.4369034 0.87422413 2.4883268
-1.4640884 0.92570561 2.4663117
-1.4376625 0.92671734 2.4875233
-1.4633969 0.97327423 2.4653387
-1.4354116 0.97811204 2.4877691
-1.4696124 1.0187776 2.4625685
-1.4426361 1.0245709 2.4871404
-1.4694115 1.0714614 2.4649994
-1.4392517 1.0756441 2.4937744
-1.4683213 1.123642 2.4695814
-1.4402168 1.1156874 2.4937189
-1.4690989 1.1746209 2.4722729
-1.4419773 1.1733086 2.4917665
-1.4711691 1.2283998 2.4695985
-1.4395928 1.2244538 2.4955015
-1.4741908 1.2794945 2.472398
-1.4458228 1.2723773 2.4890847
-1.473618 1.327306 2.4728551
-1.4420385 1.3174571 2.4987948
-1.5038595 1.3789674 2.4525728
-1.4727859 1.3803365 2.4749513
-1.5013734 1.447853 2.4516723
-1.4706515 1.4235864 2.4784162
-1.5048337 1.4657044 2.4500799
-1.4752115 1.4723531 2.4795189
-1.4441428 1.4923968 2.4993825
-1.5045698 1.5309927 2.4546127
-1.4754316 1.5263815 2.478905
-1.5026193 1.573431 2.457401
-1.4756203 1.5772036 2.4802947
-1.5051321 1.6132205 2.4510946
-1.475031 1.623781 2.4799881
-1.5049233 1.6738735 2.4571397
-1.4754117 1.679376 2.4829898
-1.5069892 1.7221324 2.4544249
-1.4810274 1.7249405 2.4812083
-1.5104144 1.7688247 2.4553688
-1.4829572 1.7716255 2.476284
-1.5075896 1.8253696 2.4570494
-1.4759904 1.8261032 2.4851351
-1.5112021 1.8698442 2.4594207
-1.4838195 1.8741008 2.4812775
-1.5104873 1.9281836 2.4601712
-1.4790791 1.9206927 2.4820001
-1.5097456 1.9672668 2.4597962
-1.4900852 1.9774373 2.4796317
-1.5064187 2.0228124 2.4604228
-1.4833077 2.0280273 2.487175
-1.5254738 2.0775745 2.4601583
-1.4921472 2.0742865 2.4857826
-1.5143912 2.1218867 2.4690113
-1.4862242 2.1347253 2.4939947
-1.5131464 2.1721809 2.4690771
-1.4884267 2.1726196 2.4890623
-1.512289 2.2238297 2.4691882
-1.4893217 2.2291777 2.4929833
-1.5157845 2.2688498 2.4815023
-1.4874266 2.2631774 2.4883447
1.7817684 2.371676 2.4811594
1.826182 2.3753023 2.4727132
1.8734449 2.3826275 2.4710712
1.9251517 2.3809752 2.4764528
1.9806647 2.3733478 2.4802821
2.0288992 2.3799822 2.4800632
2.0673664 2.3840926 2.46804
2.1317234 2.3895726 2.4906321
2.1763265 2.3860784 2.4717181
2.2314003 2.3829303 2.4764478
2.2762737 2.3771651 2.487107
2.3151076 2.3859351 2.4748008
2.3799942 2.3777475 2.4746797
2.4251018 2.3764896 2.4859409
2.484128 2.379379 2.4717369
2.5143616 2.3811016 2.47611
2.5668929 2.3858061 2.4699125
2.2261045 2.4044373 2.450454
-1.3079331 -0.50048232 2.5067227
-1.2684762 -0.50488931 2.5210242
-1.2215985 -0.51458091 2.522295
-1.1719483 -0.52858418 2.5234892
-1.1211581 -0.53594124 2.5287929
-1.0826691 -0.5388419 2.5276866
-1.026642 -0.53883874 2.516165
-0.99010873 -0.54452223 2.5219631
0.3971895 -0.5417425 2.5235798
0.43059674 -0.54509586 2.5357909
0.47643244 -0.54086912 2.5102625
0.52734029 -0.53899115 2.5312054
0.5811348 -0.53438157 2.525645
0.6301403 -0.53068984 2.5152915
0.65846467 -0.52414739 2.5256863
0.7276274 -0.50910139 2.5299871
0.77057952 -0.50392783 2.5191779
-1.4071541 -0.45874333 2.5030198
-1.3779839 -0.4690046 2.524128
-1.3280114 -0.48776919 2.5279217
0.78371423 -0.48792318 2.5368209
0.82095921 -0.47053304 2.5196087
-1.4070033 -0.42543712 2.5070746
-1.3824191 -0.42355427 2.533679
0.82723963 -0.42133424 2.5264466
-1.4129009 -0.37867355 2.5084465
-1.3876941 -0.37651476 2.5342479
0.83347768 -0.37098238 2.5301816
0.85324258 -0.38113442 2.5072286
-1.3783222 -0.34512234 2.5232008
-1.2835674 -0.32802582 2.5255613
-1.2200544 -0.31211409 2.5228257
-1.1996931 -0.30051422 2.5447588
0.83107638 -0.32189855 2.5311282
0.85472298 -0.32950473 2.5086105
-1.2210252 -0.27895218 2.5184941
-1.1945186 -0.27066714 2.5441074
0.83067113 -0.27122879 2.5301776
0.8511247 -0.28667149 2.5094688
-1.220408 -0.22619531 2.5173671
-1.1932755 -0.23180036 2.5425174
0.82927394 -0.22637773 2.5234158
-1.2205737 -0.17460525 2.5174663
-1.1944795 -0.17553259 2.5418055
0.82391971 -0.17651261 2.5288584
-1.2208409 -0.1228327 2.5201766
-1.1944903 -0.12347197 2.5439606
0.82283896 -0.13000894 2.523967
-1.2197342 -0.070948988 2.519244
-1.1913593 -0.070061326 2.5451012
0.79377365 -0.062632091 2.5496626
0.81773889 -0.080732793 2.5198877
-1.2199813 -0.025657341 2.5203569
-1.1900699 -0.022537235 2.5445375
0.79216862 -0.024946496 2.5449162
0.81155962 -0.030980879 2.522043
-1.2218728 0.020035401 2.519664
-1.1940014 0.019746751 2.5448773
0.79107213 0.020916305 2.5366936
0.81254429 0.025955753 2.514725
-1.2197508 0.071418405 2.5191851
-1.1937082 0.071786091 2.5435479
0.78739536 0.076646812 2.5319259
0.80736953 0.074356876 2.5082331
-1.2206273 0.12328368 2.5195127
-1.1951598 0.12398878 2.5451782
0.78118771 0.12916648 2.5325744
0.80646509 0.12988469 2.5038388
-1.2213569 0.17519145 2.5187693
-1.1923504 0.17736308 2.5433326
0.7804575 0.17598158 2.5259836
0.80694163 0.1794295 2.5032349
-1.2221912 0.22719038 2.5175073
-1.1940387 0.22979577 2.5439219
0.68546402 0.24821374 2.5320749
0.77960259 0.22640637 2.5261796
-1.2224873 0.28072226 2.5173414
-1.1984477 0.27455071 2.5437143
0.77113479 0.25471348 2.5399122
0.82452613 0.27603301 2.5310607
0.8741383 0.27564335 2.5158105
0.90409774 0.28794536 2.5056658
-1.2237445 0.32652247 2.5171037
-1.1952138 0.32493383 2.5433044
0.83844978 0.30587244 2.5405166
0.87387723 0.3218061 2.5287237
0.90383804 0.32382563 2.5095694
-1.2199357 0.37124181 2.5199559
-1.1914425 0.36968261 2.5459991
0.8935371 0.35627618 2.5475016
0.91285634 0.37548208 2.5415854
-1.2173766 0.4245753 2.5206954
-1.1915362 0.42699152 2.5463207
0.9237619 0.40928459 2.5491605
-1.2203151 0.47796443 2.5199625
-1.1935563 0.47375396 2.5447712
-1.2245898 0.52697045 2.5181653
-1.1952213 0.52052104 2.5417814
-1.2729243 0.58528924 2.5327492
-1.2241682 0.56046832 2.5227311
-1.1989088 0.56176829 2.5435264
-1.4084929 0.64581054 2.5039093
-1.3741885 0.62824619 2.5199106
-1.3397179 0.61475235 2.5394413
-1.408128 0.67783242 2.5091972
-1.3780442 0.67388606 2.53424
-1.410857 0.72445786 2.5075166
-1.3847542 0.72601473 2.5334938
-1.4144503 0.77735096 2.5090294
-1.3855581 0.77377105 2.5344524
-1.4119138 0.82417387 2.512496
-1.3878149 0.82283527 2.5361745
-1.4140941 0.87699586 2.5083249
-1.3847728 0.87324786 2.533716
-1.4127481 0.92170185 2.5096986
-1.3875306 0.92386085 2.5350342
-1.4129078 0.97468483 2.5110314
-1.3903245 0.97129726 2.5342326
-1.4121959 1.0258025 2.5139713
-1.3847444 1.022248 2.5391469
-1.4164438 1.0734857 2.513325
-1.3915405 1.07688 2.5406301
-1.413946 1.1233003 2.5159101
-1.3897283 1.1327876 2.5419116
-1.420418 1.1722263 2.5160084
-1.3913873 1.1759818 2.5389745
-1.415678 1.2211404 2.5190184
-1.3904841 1.2306247 2.544064
-1.4195405 1.2731451 2.5199585
-1.3884583 1.2639083 2.5422204
-1.419024 1.3226775 2.5219829
-1.3948504 1.3270024 2.5431859
-1.4507854 1.3542441 2.5014236
-1.4217132 1.3753973 2.5240889
-1.4274925 1.4252509 2.5195577
-1.3994942 1.4330407 2.5462718
-1.4214227 1.4727077 2.5256248
-1.451026 1.5142139 2.5039358
-1.4226553 1.5245686 2.5314038
-1.4520271 1.5902117 2.5076482
-1.4283917 1.5709296 2.525291
-1.4550402 1.6084086 2.5048456
-1.4289241 1.6246223 2.5285714
-1.4257163 1.6724805 2.5282283
-1.4583318 1.7357448 2.504981
-1.4289427 1.7232101 2.5268807
-1.4582617 1.7751871 2.5034027
-1.4236517 1.7749504 2.5309193
-1.4523594 1.817337 2.5083146
-1.4317559 1.8287803 2.5264194
-1.4626869 1.8858384 2.5063295
-1.4292383 1.8756537 2.5298355
-1.4537762 1.9264461 2.5125709
-1.4273919 1.924147 2.5339689
-1.4626224 1.969507 2.5065713
-1.4312881 1.9776554 2.5319657
-1.458691 2.0251112 2.507453
-1.4334627 2.0179198 2.5305176
-1.4572104 2.0771527 2.5176408
-1.4330176 2.0688677 2.5349669
-1.4699165 2.1183205 2.513932
-1.4381413 2.1200824 2.5388837
-1.4647504 2.1760213 2.5186863
-1.4327523 2.1685784 2.5420074
-1.4677787 2.2254276 2.5170476
-1.4409304 2.2151177 2.5399871
-1.4636649 2.2631702 2.512871
-1.4382825 2.267911 2.5386333
1.6709652 2.3726742 2.5480168
1.7212204 2.3709695 2.5163488
1.7719345 2.3757532 2.5332487
1.8240571 2.377701 2.5180781
1.8769946 2.3775051 2.5222545
1.9237951 2.3789985 2.5260222
1.9713665 2.3720486 2.5263226
2.0329313 2.3788362 2.5395265
2.0828681 2.384958 2.516135
2.1363463 2.3822336 2.5299611
2.1780171 2.3747556 2.5218489
2.2351501 2.3785474 2.5183902
2.2709155 2.3693731 2.5376801
2.3262274 2.3791087 2.5154426
2.375576 2.373235 2.5157986
2.4568386 2.3796694 2.5152948
2.5322275 2.3784413 2.5293462
2.5783396 2.3767004 2.5162382
1.7770593 2.4000549 2.5266032
-0.96898293 -0.55166119 2.5984869
0.42964524 -0.55179226 2.5676897
-1.2199144 -0.50500989 2.5653408
-1.1761556 -0.51280379 2.5726614
-1.1303304 -0.52366751 2.5717611
-1.0719016 -0.53187358 2.5849071
-1.0375651 -0.54205507 2.5769787
-0.98467171 -0.54578364 2.563952
0.43726954 -0.54722679 2.5761435
0.48275858 -0.53940463 2.5797493
0.52669084 -0.53581953 2.5724638
0.57539052 -0.5340451 2.5758998
0.62684518 -0.52714539 2.5725026
0.67724854 -0.51650476 2.574451
0.70753491 -0.50748944 2.5642729
-1.3529816 -0.46300381 2.5532036
-1.3227149 -0.47032288 2.5760145
-1.2782103 -0.48846221 2.5796196
-1.2227045 -0.49553576 2.5893819
0.73447484 -0.48784953 2.5856047
0.77101022 -0.47241712 2.5679224
-1.3573824 -0.42046812 2.5566533
-1.3298187 -0.42614442 2.5803173
0.7767399 -0.42818752 2.5811641
0.80302393 -0.42513397 2.5562706
-1.3596381 -0.37570834 2.5608971
-1.3312359 -0.37263012 2.5870874
0.78105587 -0.37847021 2.5850713
0.80930746 -0.37435389 2.5600982
-1.3442907 -0.34836328 2.5651755
-1.2627878 -0.33119428 2.5618331
-1.243829 -0.33322823 2.5868087
-1.1723361 -0.30848271 2.5667179
-1.138283 -0.30334318 2.591918
0.78315538 -0.32368976 2.5860026
0.80786705 -0.32301307 2.5602109
-1.1692618 -0.27652314 2.5669954
-1.1375588 -0.27017948 2.5927744
0.78322458 -0.27265319 2.5830677
0.80687577 -0.27832255 2.5605726
-1.1683233 -0.22783367 2.5670519
-1.136247 -0.22376114 2.5928564
0.78412074 -0.22211555 2.5781283
0.80929154 -0.21399997 2.5509455
-1.1679525 -0.17645882 2.5657375
-1.1422106 -0.17756525 2.5918534
0.78072065 -0.17060804 2.5760705
-1.1676484 -0.12408441 2.5672123
-1.1407501 -0.12472659 2.5906549
0.77880198 -0.11888357 2.5716598
-1.1659987 -0.072164737 2.5682325
-1.1406199 -0.072120413 2.5917215
0.77330911 -0.070748255 2.5762591
-1.1652865 -0.027127502 2.5684569
-1.1402568 -0.026084984 2.5914862
0.7675457 -0.025182122 2.5739453
-1.166991 0.019825382 2.5677199
-1.1412594 0.019932678 2.5937555
0.74472517 0.031790301 2.5871997
0.7656644 0.015846863 2.5675623
-1.1671246 0.072146766 2.5673103
-1.1383715 0.076497689 2.5932033
0.74233013 0.070492662 2.5860817
0.76415682 0.069289975 2.5617964
-1.1681285 0.12456632 2.5680492
-1.1368828 0.12080717 2.5931346
0.73789412 0.12043978 2.5849009
0.75867385 0.11973047 2.5644691
-1.1674908 0.17658792 2.5677757
-1.1428596 0.17807314 2.5930357
0.73410493 0.17288484 2.5829797
0.75656462 0.17588402 2.5551178
-1.1684325 0.229165 2.5668445
-1.1429911 0.22421031 2.590795
0.72891146 0.22268187 2.5791223
0.7563774 0.21351345 2.5525255
-1.1708072 0.2757293 2.5655065
-1.1422443 0.27210134 2.5926623
0.66313863 0.25390878 2.5969441
0.72714931 0.2541101 2.5874529
0.77782404 0.27678525 2.571579
0.87314546 0.2795282 2.5547125
0.94172555 0.28391248 2.5817134
-1.1693294 0.32014915 2.5656681
-1.1398423 0.32401872 2.5932193
0.78760689 0.31954041 2.5867412
0.82383347 0.3292087 2.5685365
-1.168759 0.37557855 2.5685694
-1.1411121 0.37730333 2.5910096
0.83648682 0.36228645 2.5820646
0.87536037 0.37901884 2.5681248
-1.1686385 0.42947897 2.5674691
-1.1431525 0.42222506 2.5942798
0.95255125 0.40327737 2.5908723
-1.1681142 0.47726068 2.567364
-1.1400672 0.46861938 2.5903947
-1.1689241 0.52349722 2.5673537
-1.139358 0.53034019 2.5922735
-1.2573963 0.59045213 2.5648851
-1.2430332 0.59319907 2.5839975
-1.1744367 0.56590283 2.5733883
-1.1377788 0.56081641 2.5946379
-1.3150365 0.6264894 2.5685203
-1.290653 0.61568975 2.5861442
-1.3556815 0.67992073 2.5533068
-1.327823 0.67626083 2.5797546
-1.3590125 0.72772115 2.5582128
-1.3314112 0.72577047 2.5816338
-1.3601394 0.77470022 2.5582583
-1.3317453 0.77318597 2.5808275
-1.3644913 0.82530451 2.5550642
-1.3317411 0.82427365 2.5854061
-1.3597044 0.87774187 2.5600741
-1.334951 0.87423921 2.5837891
-1.3622739 0.92615163 2.5604656
-1.3346807 0.9246254 2.584095
-1.3636953 0.97752959 2.5592606
-1.3347338 0.97483116 2.5866182
-1.3608861 1.0220265 2.561868
-1.3363935 1.0249921 2.5875041
-1.3639919 1.0708283 2.5606513
-1.3370899 1.0726539 2.5891287
-1.3672937 1.1197963 2.5616615
-1.3386687 1.122569 2.5900471
-1.3663255 1.1783086 2.5665672
-1.3384951 1.1668277 2.5869265
-1.3674172 1.2232002 2.5664554
-1.3405312 1.224046 2.5924001
-1.3667346 1.2766801 2.5706151
-1.3409083 1.2800281 2.5952969
-1.3718655 1.3254292 2.5696399
-1.3435941 1.3260399 2.5930982
-1.372435 1.3730812 2.5705614
-1.3444599 1.3926891 2.5975618
-1.3732909 1.4229218 2.5708172
-1.3486414 1.4190872 2.5960398
-1.3759246 1.4762373 2.5730684
-1.3456182 1.4908488 2.598114
-1.3793254 1.523711 2.5654504
-1.3483157 1.5161306 2.592839
-1.3760018 1.5733247 2.5768299
-1.4040078 1.6106892 2.552465
-1.3730389 1.6258831 2.5775013
-1.401273 1.6777871 2.5533917
-1.3788681 1.6747581 2.5716188
-1.3419839 1.6804549 2.5971639
-1.3733608 1.7243938 2.5761671
-1.3452562 1.7484772 2.5995626
-1.3766261 1.7725095 2.5741692
-1.3498125 1.769794 2.5996275
-1.4065862 1.8283087 2.5560529
-1.3771862 1.8217034 2.5782487
-1.406243 1.8604054 2.5512769
-1.3767703 1.8762419 2.5784085
-1.4043841 1.9256576 2.5536492
-1.3773403 1.9237479 2.5812833
-1.3449998 1.9144856 2.5985818
-1.4080244 1.9819854 2.5600939
-1.385537 1.9732121 2.5805271
-1.4091569 2.035764 2.5611916
-1.3843155 2.0276344 2.5841849
-1.4118825 2.0741751 2.5597241
-1.3859795 2.0796261 2.585326
-1.4100236 2.126266 2.5621092
-1.3830631 2.1345165 2.5874643
-1.4079549 2.1804411 2.571851
-1.3882198 2.1878867 2.5923204
-1.4170978 2.2274847 2.5637624
-1.3835375 2.2240367 2.5856791
-1.4122289 2.2718217 2.5631359
-1.3899699 2.2769954 2.5690768
1.6302464 2.3759336 2.5756392
1.6705322 2.3756499 2.5723317
1.7207745 2.3871646 2.5706081
1.7797604 2.374656 2.5754566
1.8240896 2.3771918 2.5717578
1.868518 2.3773487 2.5723295
1.9219736 2.3808911 2.5722399
1.9866499 2.3779736 2.582993
2.0315981 2.3802652 2.5862014
2.0799816 2.3849895 2.5765018
2.1216259 2.3919551 2.574784
2.1754975 2.3835621 2.5835006
2.2265403 2.3898888 2.5817738
2.2777228 2.3864489 2.585892
2.3362293 2.3850064 2.5767093
2.3645744 2.3807976 2.5841198
2.4217546 2.3815017 2.5917072
2.5308707 2.3855557 2.5676513
2.5631883 2.3876653 2.5968473
2.6380906 2.3840654 2.5841112
2.6892378 2.3757312 2.5801344
2.7171533 2.3832054 2.5736361
-0.95745939 -0.55259764 2.6062806
-0.94199038 -0.55125105 2.6032474
0.34874651 -0.55014586 2.6302643
0.39025462 -0.55702519 2.6175258
0.4144322 -0.55243212 2.6350186
0.45787239 -0.55056602 2.6211867
-1.1245841 -0.51232278 2.6210954
-1.0722073 -0.52195412 2.6304739
-1.0256319 -0.53827828 2.6277442
-0.97909009 -0.54416049 2.6275704
0.35887158 -0.54608035 2.6096928
0.43482104 -0.5409559 2.641432
0.47265691 -0.54005116 2.6326103
0.52611363 -0.53371948 2.6225746
0.57883817 -0.51960045 2.6265936
0.62287432 -0.51355684 2.6189837
0.67189735 -0.50511378 2.6165009
-1.2718096 -0.46772259 2.6265218
-1.2383132 -0.48830423 2.6243739
-1.1762346 -0.4985866 2.6230078
-1.127736 -0.49801517 2.6346288
0.6898303 -0.49211344 2.6267135
0.72100568 -0.47144577 2.6240714
0.75004667 -0.45051163 2.6035559
-1.3106667 -0.41968891 2.6019213
-1.2840413 -0.42707759 2.6250231
0.73051256 -0.42192972 2.6345727
0.75105846 -0.41888157 2.6106615
-1.3101645 -0.37213245 2.6060889
-1.2822192 -0.37389711 2.6303613
0.73478669 -0.37211004 2.6338155
0.75712442 -0.37358472 2.6127298
-1.2265157 -0.33766136 2.6325419
-1.1508106 -0.3181743 2.6021514
-1.1189167 -0.31367415 2.6233315
-1.0918503 -0.3070038 2.6410134
0.73654705 -0.3276352 2.6370711
0.75867641 -0.33037269 2.6141443
-1.1122512 -0.27116916 2.617707
