ply
format ascii 1.0
comment PCL generated
element vertex 1475
property float x
property float y
property float z
element camera 0
property float view_px
property float view_py
property float view_pz
property float x_axisx
property float x_axisy
property float x_axisz
property float y_axisx
property float y_axisy
property float y_axisz
property float z_axisx
property float z_axisy
property float z_axisz
property float focal
property float scalex
property float scaley
property float centerx
property float centery
property int viewportx
property int viewporty
property float k1
property float k2
end_header
1.6960204 0.22150856 1.5466294
1.7205088 0.22141777 1.5208218
1.3964828 -0.55897403 1.5976278
1.4289721 -0.55846798 1.5787956
1.4706832 -0.55382413 1.5744395
1.5216235 -0.55232793 1.5561351
1.4874594 -0.54929626 1.5823758
1.5279273 -0.54809135 1.5795259
1.5677626 -0.54469377 1.5691768
1.6208993 -0.53857797 1.5775257
1.6719631 -0.5243358 1.5775366
1.7187357 -0.51052588 1.5674444
-0.68811661 -0.45996207 1.5809464
-0.56752682 -0.45553958 1.5977335
-0.52853787 -0.45710835 1.57582
-0.47531712 -0.46374747 1.5767077
-0.41964132 -0.46521759 1.5745087
-0.37316063 -0.4663499 1.570909
-0.32571706 -0.46799466 1.5681666
-0.27503744 -0.46797583 1.5746276
-0.22345397 -0.47022685 1.5737683
-0.17222613 -0.4705506 1.5746688
-0.12826142 -0.47134557 1.5764263
-0.076566413 -0.47062913 1.5793771
-0.0250853 -0.46696356 1.5733193
0.023415336 -0.46566197 1.5709295
0.076758742 -0.46336535 1.571766
0.12349895 -0.46202528 1.5723633
0.17465034 -0.46179569 1.5783416
0.22700058 -0.46217164 1.5717012
0.26685196 -0.46248752 1.5744988
0.32430539 -0.4671956 1.5763444
0.37545663 -0.47201157 1.5802286
0.42500567 -0.47451559 1.5842675
0.47422421 -0.48016086 1.5697484
0.52526468 -0.48579523 1.5731891
0.55145556 -0.48559642 1.5562084
1.7277212 -0.47816059 1.5805941
1.7538238 -0.47132087 1.5543387
-0.62466538 -0.44727355 1.5704707
-0.58493793 -0.44526953 1.5734721
1.7332045 -0.42129338 1.5824049
1.7580618 -0.42464566 1.5581254
1.7353113 -0.37573755 1.581935
1.7605642 -0.37071785 1.5568166
1.7332805 -0.32626086 1.5862929
1.7578722 -0.32587287 1.5594789
1.7369378 -0.27274993 1.5824693
1.7569542 -0.27599993 1.560201
1.7331823 -0.22463351 1.5815134
1.7566662 -0.22096227 1.5575613
1.7326903 -0.17584907 1.578034
1.7573092 -0.18998887 1.5534599
1.7280676 -0.12426876 1.576412
1.6977115 -0.068534307 1.5997596
1.7235243 -0.071955591 1.5749755
1.6945043 -0.025159301 1.5977788
1.718856 -0.02508631 1.5719078
1.6934367 0.025361482 1.5894028
1.7165135 0.018287374 1.5661383
1.6866436 0.074552216 1.5874153
1.710417 0.073069714 1.5627186
1.6811701 0.12574998 1.5831033
1.7059741 0.12210849 1.5569701
1.6789654 0.17564306 1.5743229
1.6476281 0.22181186 1.5971141
1.6706773 0.22261578 1.5737083
1.3801286 -0.55483544 1.629438
1.4321693 -0.55423009 1.6238571
1.476685 -0.55254513 1.6254126
1.4937623 -0.54527324 1.6110599
1.5282465 -0.54394436 1.6245015
1.5751492 -0.53501564 1.6259568
1.622622 -0.52594042 1.6217049
1.6667318 -0.51063401 1.6228437
-0.61270446 -0.45128492 1.625646
-0.56395435 -0.45297238 1.6276103
-0.52201527 -0.4571119 1.6221002
-0.46975785 -0.46131772 1.6267773
-0.42375952 -0.4657414 1.6312685
-0.3746064 -0.46550116 1.6235995
-0.32295343 -0.46764633 1.6210752
-0.27444261 -0.46726644 1.6192527
-0.22753936 -0.46776214 1.6175714
-0.17334877 -0.47008705 1.6267128
-0.12228626 -0.46993986 1.6272322
-0.074107774 -0.47064438 1.6346183
-0.025875548 -0.46686819 1.6298662
0.023175471 -0.46504518 1.6235255
0.073679633 -0.46238458 1.625494
0.12379712 -0.46075556 1.6244513
0.17310722 -0.45963258 1.6239716
0.22233282 -0.46321672 1.6217978
0.27671811 -0.46332732 1.6220005
0.32941234 -0.46944249 1.621542
0.3767623 -0.47432923 1.6290338
0.42055568 -0.47769785 1.6161608
0.46918944 -0.48750129 1.6264507
1.6789074 -0.47674525 1.6302061
1.7028756 -0.47200292 1.6062615
-0.60539818 -0.44315639 1.6066571
-0.57785302 -0.44789919 1.6212317
1.6830742 -0.42594281 1.6365877
1.7073559 -0.42399183 1.6120329
1.6885787 -0.3743839 1.6360641
1.7099305 -0.37502879 1.6098578
1.6862359 -0.32959047 1.6370714
1.7082148 -0.32656524 1.612216
1.6877873 -0.27089208 1.6340452
1.7103729 -0.27392048 1.609146
1.6846203 -0.22524716 1.633839
1.7090238 -0.22495529 1.6080933
1.6827966 -0.17564042 1.6306554
1.7072201 -0.18178807 1.6068205
1.6799457 -0.12466331 1.6286074
1.7052014 -0.12454677 1.6039699
1.676471 -0.072623089 1.6234418
1.6469066 -0.025312638 1.6486875
1.670185 -0.025228674 1.6229751
1.6413378 0.021444079 1.6430658
1.6663358 0.021470958 1.6191766
1.6409888 0.075764157 1.6363524
1.6638131 0.071255334 1.6127957
1.6336862 0.12596874 1.6335069
1.658663 0.12231074 1.6087575
1.6272898 0.17607252 1.6301988
1.6506948 0.17586043 1.6051422
1.6221701 0.22157548 1.627002
1.7176256 0.2648764 1.645312
1.7237663 0.42774999 1.6415675
1.7610537 0.4368479 1.6437992
1.6947281 0.4896588 1.6434857
1.7174348 0.47245491 1.6367285
1.7788217 0.48419032 1.6417478
1.8221039 0.49174476 1.6184683
1.6935409 0.52544636 1.6382933
1.7194138 0.526389 1.6245401
1.7544422 0.52170324 1.6365376
1.6910133 0.56982416 1.6393983
1.716308 0.57468075 1.6248791
1.3242331 -0.55519563 1.6790943
1.3762416 -0.55297959 1.6833894
1.4113415 -0.55288619 1.6583337
1.4791385 -0.55115885 1.6524669
1.3820252 -0.54519451 1.6932373
1.4264069 -0.5486151 1.6787771
1.4760089 -0.54367971 1.6787747
1.5230011 -0.5359149 1.6748962
1.5726064 -0.52188188 1.6792043
1.6216074 -0.5090217 1.6723589
1.6574734 -0.50098348 1.6548344
-0.65430152 -0.45893705 1.6746564
-0.61577404 -0.45474118 1.6858928
-0.58146048 -0.45567772 1.6802135
-0.52006501 -0.45626521 1.6674412
-0.47998208 -0.4600994 1.6780287
-0.42890924 -0.46538737 1.6766719
-0.37350076 -0.46639836 1.6807773
-0.32613596 -0.46742076 1.6747357
-0.2743541 -0.46894726 1.6816392
-0.22539638 -0.46995735 1.6738664
-0.17495063 -0.4689897 1.6767279
-0.12446477 -0.4692221 1.680521
-0.077354498 -0.46720153 1.6668452
-0.023397967 -0.46322653 1.6697258
0.024176639 -0.46252933 1.6719067
0.073563136 -0.46113095 1.6715107
0.12730736 -0.45976153 1.6773906
0.17884289 -0.45903742 1.6716409
0.22628273 -0.4641386 1.6732892
0.27197614 -0.4656159 1.6684391
0.3201274 -0.46948299 1.6692767
0.37713405 -0.47470328 1.6695639
0.40552023 -0.47892314 1.6858449
0.45019245 -0.49020675 1.6868004
1.631923 -0.47545153 1.6833146
1.6531792 -0.47309083 1.6572866
1.6352679 -0.42813301 1.6864929
1.6589119 -0.42297217 1.6619613
1.6366681 -0.3750045 1.6884294
1.6618789 -0.378057 1.6651689
1.6383939 -0.33068925 1.6863941
1.6626142 -0.32489446 1.6622519
1.6392866 -0.27164793 1.6863366
1.6616862 -0.27618632 1.6607985
1.6359125 -0.22586353 1.6836147
1.6596042 -0.2254689 1.6584007
1.6340196 -0.17612912 1.6820157
1.657654 -0.18171702 1.6585537
1.6326799 -0.12512381 1.6792809
1.6558564 -0.12485655 1.6538519
1.6263056 -0.070206203 1.6774694
1.6515399 -0.077562965 1.6519923
1.5987312 -0.020230522 1.6965632
1.6222878 -0.026323885 1.6751478
1.5959346 0.021449339 1.6934865
1.6189909 0.021447109 1.6688702
1.5890818 0.075734042 1.693435
1.6144739 0.071571238 1.6661637
1.5900987 0.12514453 1.6832403
1.6110971 0.12254259 1.6579049
1.582782 0.17778455 1.6794491
1.6037254 0.1762767 1.6546103
1.5750835 0.22306013 1.6777242
1.6947751 0.26083162 1.6720451
1.7118998 0.28210646 1.6658323
1.7220325 0.30655682 1.6721587
1.7547625 0.31643146 1.6686769
1.7185241 0.38149953 1.6677344
1.753294 0.37488899 1.6633731
1.6963969 0.44311714 1.6672219
1.7070664 0.42353728 1.670586
1.7582639 0.40979862 1.6541559
1.6938928 0.47537431 1.6756474
1.7691039 0.47268024 1.6502328
1.8142276 0.47884324 1.650694
1.6826849 0.51979238 1.6673093
1.6765097 0.5696398 1.6649015
1.7020535 0.60000938 1.6511155
1.2739969 -0.55561954 1.7205935
1.3213449 -0.5532254 1.7205975
1.3589771 -0.55171555 1.7270744
1.2772714 -0.54944146 1.7304671
1.3320811 -0.54756451 1.7372824
1.3761895 -0.54431385 1.7318699
1.4300786 -0.54222876 1.730635
1.4734499 -0.53446245 1.7245837
1.5247016 -0.52270961 1.723847
1.5670964 -0.5081898 1.7236878
1.6046062 -0.5012247 1.7005556
-0.62282366 -0.45766065 1.7332207
-0.57176453 -0.45950302 1.7212172
-0.52319485 -0.46189857 1.7309561
-0.47274473 -0.46321923 1.7353219
-0.42127922 -0.46415541 1.7168612
-0.37509298 -0.46337742 1.722379
-0.32516506 -0.46466425 1.721656
-0.27151081 -0.46728662 1.7217417
-0.2222894 -0.46948895 1.7284751
-0.17321739 -0.46907136 1.7266133
-0.12779395 -0.46739149 1.7198129
-0.076117694 -0.46774423 1.7263825
-0.027015002 -0.46440279 1.7274628
0.020986065 -0.46319568 1.7172173
0.077016369 -0.46019465 1.7241912
0.1290516 -0.46256822 1.7294291
0.17260885 -0.46209717 1.7267069
0.2225249 -0.46328905 1.7274003
0.27211449 -0.46974349 1.7273804
0.32856733 -0.47461253 1.7139109
0.35769415 -0.47396982 1.7075939
1.5771247 -0.47517699 1.7350177
1.6067587 -0.4764154 1.712077
1.5844612 -0.42685881 1.7362599
1.6114812 -0.42353305 1.7107981
1.5873578 -0.3705776 1.7375073
1.61106 -0.37347612 1.713732
1.5878468 -0.3238517 1.738596
1.616933 -0.3219938 1.7121216
1.5855913 -0.27337483 1.7383426
1.6130639 -0.27481714 1.7130737
1.5874146 -0.22148435 1.7346743
1.6114056 -0.22816603 1.7104843
1.5861453 -0.17552024 1.7331074
1.6083091 -0.17835788 1.7088578
1.5828651 -0.12439593 1.7322301
1.6066362 -0.1278713 1.7097983
1.5776297 -0.071992263 1.7297297
1.6054083 -0.083168268 1.702095
1.5722547 -0.025568862 1.7265438
1.5692303 0.021474989 1.7231758
1.5448283 0.076055877 1.74264
1.5671048 0.072235972 1.7171907
1.5380117 0.12829356 1.7382332
1.5629883 0.12542716 1.7124313
1.5348897 0.17680429 1.7293502
1.5589468 0.17583528 1.7065727
1.5317597 0.22411001 1.7299595
1.5507815 0.23438975 1.7086425
1.7808617 0.33423856 1.7123305
1.7178475 0.37221903 1.7046072
1.7173556 0.43499246 1.7263254
1.7149891 0.47107285 1.7278931
1.711328 0.50005424 1.7329482
1.2152244 -0.55541229 1.792366
1.2782412 -0.55252391 1.7764446
1.314782 -0.55097771 1.7638738
-2.2721109 -0.53654569 1.7809398
-2.2448864 -0.53317702 1.7824073
1.2995524 -0.54510295 1.795961
1.3337537 -0.54470313 1.782218
1.3763825 -0.54006046 1.7771949
1.4210126 -0.53165555 1.7747588
1.4777685 -0.52119684 1.77803
1.5175118 -0.50950521 1.7683705
-0.57297248 -0.45886904 1.7756343
-0.52629596 -0.45881829 1.7654121
-0.46784735 -0.45986587 1.7702024
-0.42273852 -0.46249771 1.7737041
-0.37186334 -0.46184129 1.7778834
-0.32279935 -0.46364301 1.7719707
-0.27437159 -0.46589839 1.7740608
-0.22816929 -0.46720201 1.7730647
-0.17511512 -0.46619189 1.780363
-0.12459353 -0.46588576 1.7701342
-0.071453288 -0.46370488 1.7772207
-0.029135708 -0.46175992 1.7748797
0.023825334 -0.46223029 1.7723918
0.072577804 -0.46236345 1.7778307
0.12093454 -0.46399429 1.7740568
0.18216845 -0.46545821 1.768253
0.22337683 -0.46703255 1.7815951
0.27756327 -0.47193933 1.7776959
0.32293379 -0.48315975 1.7803612
1.5289065 -0.47558427 1.7815078
1.5541945 -0.47017348 1.7537268
1.53581 -0.42773768 1.7837747
1.5604908 -0.42764506 1.7599787
1.5346043 -0.3757253 1.7892827
1.5618589 -0.37317359 1.7617276
1.5380728 -0.32296032 1.7870998
1.561842 -0.32681748 1.7654123
1.5366237 -0.27640817 1.7877721
1.5635457 -0.2774145 1.7613404
1.5347795 -0.22065672 1.7872664
1.5611873 -0.22428094 1.7588035
1.5345476 -0.17437555 1.7858965
1.562732 -0.17393832 1.7584307
1.5308043 -0.12637123 1.7848179
1.5577884 -0.12595594 1.7562149
1.5296429 -0.07234697 1.7776064
1.5549953 -0.094146863 1.754752
1.5279365 -0.025767829 1.7750015
1.4980189 0.025076756 1.7992398
1.5244725 0.021525368 1.7709492
1.495805 0.074106395 1.7953869
1.5180181 0.072881915 1.7697576
1.4882324 0.12827159 1.7908806
1.5131874 0.12297231 1.7658404
1.4903146 0.17861634 1.7825016
1.5107422 0.17796721 1.7572451
1.4841847 0.22422931 1.7824695
1.5077807 0.22182834 1.7554747
1.7251346 0.44396925 1.7720337
1.6992991 0.48385563 1.7888869
1.7163469 0.48956159 1.7736365
1.7053394 0.50317156 1.7581458
1.1828414 -0.55415988 1.8271954
1.2198533 -0.5519917 1.8222202
1.2672632 -0.55480415 1.8091663
-2.3241458 -0.51596624 1.8314965
-2.2873011 -0.52510852 1.8322515
-2.2215676 -0.53261203 1.8220303
-2.1823292 -0.54345173 1.8208284
-2.1220345 -0.54434788 1.8378844
-2.0751977 -0.54971015 1.8286551
1.1302342 -0.54840308 1.8281835
1.1752048 -0.54684401 1.8382581
1.2253487 -0.54648721 1.8432667
1.2782778 -0.54534769 1.8283038
1.3290732 -0.53953975 1.8301839
1.3797609 -0.53150505 1.8254904
1.4252497 -0.51741093 1.8275185
1.4643308 -0.51033831 1.816339
-0.56697488 -0.4565421 1.8198218
-0.52609205 -0.45994887 1.8226887
-0.47537106 -0.45698947 1.8216187
-0.42408133 -0.46009022 1.8217856
-0.37578097 -0.46311593 1.8303776
-0.32241592 -0.46386537 1.8273988
-0.2736682 -0.46235424 1.8232719
-0.22575116 -0.46680799 1.8224403
-0.17284553 -0.46461889 1.823716
-0.12414106 -0.46593583 1.8214678
-0.073786683 -0.46034002 1.8274379
-0.026398387 -0.45856979 1.8275931
0.023747876 -0.45905665 1.8184531
0.0707772 -0.46304551 1.8342904
0.12730184 -0.4657954 1.8308926
0.17260961 -0.46778557 1.821447
0.22492513 -0.47197163 1.8184078
0.2649152 -0.47987416 1.8456213
0.32105276 -0.48486263 1.8224322
1.4786305 -0.47348958 1.8272644
1.5071574 -0.46151301 1.8029011
1.485216 -0.42612377 1.8327596
1.5109713 -0.42139521 1.8068537
1.4871616 -0.37598041 1.8358691
1.5117222 -0.37306073 1.8122483
1.483698 -0.32681856 1.8391992
1.5116657 -0.32587692 1.8122059
1.4869701 -0.2757622 1.8359292
1.5121601 -0.27904847 1.8117867
1.4863441 -0.2236618 1.8345162
1.5093414 -0.22308758 1.8119634
1.4848542 -0.17403531 1.8339062
1.5065836 -0.17704466 1.8113668
1.4843298 -0.1269767 1.8293276
1.5074787 -0.12665837 1.8072436
1.4768509 -0.072831497 1.830803
1.503637 -0.073485792 1.8050016
1.4763035 -0.025016678 1.8273187
1.5014548 -0.03643515 1.8033147
1.4731621 0.021211401 1.8244087
1.4441299 0.079652674 1.8414335
1.471792 0.07324969 1.8183781
1.4421251 0.12904827 1.8392657
1.4658092 0.12679818 1.8161532
1.4381509 0.17461888 1.8384471
1.4647837 0.17404996 1.8116163
1.437785 0.22207475 1.8337251
1.459736 0.22142728 1.8110632
1.1444062 -0.55018449 1.8521816
-2.3197834 -0.50588274 1.8641425
-2.2819779 -0.51345378 1.879264
-2.2168105 -0.52429724 1.8683784
-2.1817162 -0.53358579 1.8794274
-2.1221981 -0.54231989 1.8798647
-2.0766392 -0.54586947 1.8914759
-2.0158455 -0.54729933 1.8676265
-1.9803392 -0.5444389 1.8806459
1.1379305 -0.53980595 1.8887058
1.1713537 -0.5419994 1.871241
1.2264273 -0.53985822 1.8766912
1.2756245 -0.53538173 1.8763604
1.3280541 -0.52776742 1.8787212
1.3727368 -0.51760799 1.8754214
1.4151071 -0.51162368 1.8624526
-2.3738613 -0.47796357 1.881424
-2.3338325 -0.49551979 1.8782448
-0.50298834 -0.4584662 1.8818511
-0.42640305 -0.46104392 1.8714461
-0.37003636 -0.46338534 1.8768576
-0.32151875 -0.46342072 1.8773438
-0.2767157 -0.46367073 1.8719279
-0.22594959 -0.46416399 1.8682905
-0.17985182 -0.46601826 1.8770428
-0.12505433 -0.46227327 1.8669586
-0.07773234 -0.45691913 1.8747398
-0.028093228 -0.45789936 1.8710409
0.024122242 -0.46056038 1.8639476
0.079725981 -0.46437889 1.870661
0.12333999 -0.46743137 1.8813893
0.16948316 -0.4691478 1.8764319
0.23451386 -0.48280743 1.8975194
0.31953102 -0.48724276 1.868632
1.3904988 -0.49826795 1.8962066
1.4257385 -0.47678429 1.8779689
1.4514567 -0.47880468 1.8544508
-2.3888807 -0.42666027 1.887965
1.4280379 -0.42678684 1.8853815
1.4574767 -0.42440617 1.8590851
-2.3864384 -0.37192538 1.8949924
1.4340435 -0.37470153 1.8843139
1.4614797 -0.37971726 1.8598639
1.4355947 -0.32441685 1.8840736
1.461182 -0.32016066 1.8604554
1.4346671 -0.27410254 1.8866186
1.4597787 -0.27313584 1.8613055
1.4335951 -0.22319885 1.8856021
1.4607384 -0.22689284 1.86022
1.4333198 -0.17638449 1.8836828
1.4609631 -0.17581335 1.8578501
1.4310848 -0.12796539 1.8838005
1.4575193 -0.12744907 1.8565819
1.4314171 -0.073364876 1.8779511
1.4558587 -0.095353574 1.856039
1.4283191 -0.02543281 1.8760473
1.3991082 0.03771659 1.8957853
1.4239349 0.020543847 1.8739249
1.3944418 0.077976935 1.8942993
1.4200275 0.073668808 1.868893
1.3926228 0.12822618 1.8940369
1.417284 0.12654957 1.8670002
1.3920602 0.17608348 1.8901702
1.4133873 0.17544945 1.8672667
1.3912134 0.21853918 1.8854309
1.4138963 0.22328918 1.8637712
-2.41629 0.63216466 1.8780468
-2.3872952 0.63449097 1.8950093
-2.4176269 0.67663127 1.8739799
-2.3978059 0.66401297 1.8899016
-2.0494056 -0.55060446 1.9494053
-1.9954401 -0.5520696 1.91838
-2.2717645 -0.51055592 1.9207118
-2.2150218 -0.50930071 1.9197563
-2.1804376 -0.51909059 1.9304254
-2.1277568 -0.53545249 1.9213028
-2.0655558 -0.54489177 1.9258146
-1.9612422 -0.5495761 1.9319938
-1.9192979 -0.54481506 1.9368284
1.0363688 -0.53893524 1.9285408
1.0736163 -0.54034656 1.9162691
1.1182278 -0.53730673 1.9305633
1.1733506 -0.53397143 1.9218725
1.2255642 -0.52976441 1.9238036
1.2718214 -0.52166897 1.9233061
1.3234984 -0.51191473 1.9256569
1.3588198 -0.50401253 1.9151604
-2.3610749 -0.46735007 1.9070184
-2.3261082 -0.47529683 1.9256614
-2.2875974 -0.49581394 1.9254534
-0.52780282 -0.46382049 1.9003117
-0.47125763 -0.46397933 1.9282286
-0.42443556 -0.46204382 1.9283966
-0.37982839 -0.46022159 1.9245183
-0.32466397 -0.46448573 1.9336098
-0.27071118 -0.46532959 1.925142
-0.21276088 -0.46294561 1.9170858
-0.17311685 -0.4653213 1.9195499
-0.13196501 -0.46469158 1.9320371
-0.090140067 -0.45314613 1.9026315
0.077486411 -0.46585727 1.9292523
0.12326887 -0.46486109 1.9100733
0.16926292 -0.47283426 1.9009001
1.3436384 -0.47784925 1.9468977
1.3752993 -0.47573298 1.9219033
1.4038501 -0.45571807 1.9019175
-2.3666034 -0.4275437 1.9107306
-2.3398976 -0.42573389 1.9361674
1.3774831 -0.4259299 1.9314928
1.4057759 -0.41813776 1.9052763
-2.3693461 -0.37248841 1.9180419
-2.3401556 -0.37639868 1.9387246
1.3786627 -0.37484273 1.9344491
1.4070446 -0.37368411 1.9098032
-2.3766255 -0.32495838 1.9185244
-2.3440497 -0.32428995 1.9413756
1.3829587 -0.32453641 1.9323149
1.4108905 -0.32507762 1.9075902
-2.372602 -0.27691707 1.9212317
-2.344259 -0.28361619 1.946751
1.382723 -0.27559903 1.9317119
1.4111253 -0.27477738 1.9074318
-2.3731215 -0.22266555 1.9272866
1.3804189 -0.22652452 1.9334246
1.4079751 -0.22571643 1.9081771
-2.3755152 -0.18891333 1.9321362
1.3790091 -0.17113984 1.9333171
1.4056973 -0.17697923 1.909128
1.3803018 -0.12338106 1.9298853
1.4079691 -0.12831445 1.9047902
1.3781669 -0.074837297 1.9287797
1.4059479 -0.07456734 1.9042692
1.3476596 -0.031912234 1.9499859
1.3758647 -0.02643469 1.926519
1.4035658 -0.031676937 1.9019784
1.3469985 0.016498342 1.9491007
1.3736589 0.021801 1.9234236
1.3430986 0.077295884 1.9457873
1.3694519 0.074295096 1.9201043
1.3449023 0.1238506 1.9429425
1.3671941 0.12494529 1.9198308
1.3399154 0.17222592 1.9434494
1.3655293 0.17264271 1.9180377
1.3396356 0.22050723 1.9391952
1.36762 0.2264816 1.9173902
1.4091837 0.24830815 1.9071026
-2.3590808 0.59380662 1.938356
-2.4634497 0.61839944 1.9067372
-2.371361 0.62401313 1.9125043
-2.3443654 0.63198084 1.9368647
-2.4008048 0.69646996 1.9090211
-2.3710148 0.67599982 1.9141672
-2.3425021 0.67665845 1.9336953
-2.3601747 0.70441693 1.9092994
-2.3491402 0.70726526 1.9373881
-1.9375349 -0.55358946 1.9787775
-1.8590027 -0.55410427 1.9643593
-2.2420058 -0.50968611 1.9698528
-2.1711485 -0.51317161 1.9740661
-2.1224275 -0.52833855 1.972831
-2.0769024 -0.53357643 1.9771705
-2.0269942 -0.54335219 1.9652925
-1.9950333 -0.54808736 1.9803276
-1.905012 -0.54787987 1.9688777
-1.1694806 -0.52905703 1.9942439
-1.147974 -0.52663988 1.992238
0.97102726 -0.54414862 1.9912907
1.0059547 -0.54322892 1.9745804
1.0713234 -0.53666085 1.9746884
1.1182573 -0.53201681 1.9679205
1.1735833 -0.52538157 1.9805759
1.2220315 -0.51683003 1.9756432
1.2728307 -0.50890607 1.9716095
1.3072226 -0.50174677 1.9609287
-2.3025293 -0.47341719 1.9559679
-2.2681754 -0.47870472 1.9748663
-2.2411942 -0.4990826 1.9969685
-0.47706753 -0.45988157 1.9795811
-0.43204376 -0.46337068 1.9575313
-0.36070755 -0.45927718 1.9603243
-0.32501239 -0.46224815 1.9664567
-0.28021958 -0.46646976 1.9806722
-0.23479658 -0.46972275 1.9856876
-0.17488533 -0.46630833 1.9682025
-0.14091651 -0.45864338 1.9654377
0.050006282 -0.46629143 1.9588605
1.2925525 -0.49568802 1.9965788
1.3230125 -0.47725493 1.9713497
-2.3142064 -0.42644003 1.9582604
-2.2851131 -0.42578989 1.9800094
1.2960116 -0.42948318 1.9946036
1.3270471 -0.42644677 1.9714293
1.3560498 -0.40885633 1.9510672
-2.3164451 -0.36947876 1.9664304
-2.2824736 -0.37457022 1.9921404
1.3257022 -0.37477243 1.9805977
1.3551202 -0.3758705 1.9548559
-2.3171968 -0.32439801 1.9686565
-2.2855728 -0.32382187 1.9915646
1.3258828 -0.32543907 1.9816123
1.3571252 -0.32370344 1.9552958
-2.3223581 -0.27754799 1.9698586
-2.292037 -0.26978463 1.9939215
1.3248947 -0.27471235 1.9818021
1.3580599 -0.27980953 1.9541798
-2.3249519 -0.22212939 1.9719536
-2.2997863 -0.22907855 1.9899075
1.3305181 -0.22605792 1.9771216
1.3571789 -0.2271708 1.9538323
-2.3244929 -0.18875122 1.9769762
1.3279377 -0.17345335 1.9801722
1.354067 -0.17260733 1.95362
1.3252701 -0.12432233 1.9789963
1.3526173 -0.12382331 1.9543726
1.3244724 -0.075421579 1.9771202
1.350548 -0.075114131 1.9532298
1.3257657 -0.026445221 1.9739989
1.2938728 0.04372697 1.9996582
1.3222108 0.022782626 1.9746655
1.2937926 0.079764679 1.9949187
1.3190551 0.074458033 1.9714262
1.2920653 0.12401705 1.9910177
1.3198779 0.12548527 1.9657912
1.2870218 0.17374006 1.9945393
1.3142164 0.17306229 1.9701738
1.2865938 0.22455056 1.9936578
1.3166074 0.22337236 1.9666131
2.3995876 0.34767807 1.9716995
2.4127364 0.34761271 1.9572374
2.4336987 0.37067536 1.9883715
2.4583201 0.38947594 1.9887781
2.4722004 0.41295475 1.996505
-2.3243351 0.59190738 1.9594275
-2.2824726 0.58987945 1.9864222
-2.3206296 0.62214696 1.964071
-2.2856133 0.63237727 1.9819754
-2.3225303 0.67783803 1.9606962
-2.2833431 0.67716682 1.9823494
-2.328918 0.70737243 1.9580259
-2.2817519 0.70342517 1.9807053
-1.9778278 -0.55224371 2.0230072
-1.9256814 -0.55293387 2.0274014
-1.8884768 -0.55592597 2.033993
-1.8257606 -0.56295085 2.0451508
0.92061108 -0.55160242 2.0402768
-2.1571572 -0.50569278 2.0172749
-2.1293547 -0.51482326 2.0284488
-2.0649848 -0.52258486 2.0219371
-2.0243766 -0.53350449 2.0230875
-1.986822 -0.54416108 2.0284209
-1.9362006 -0.54417962 2.0041261
-1.3945857 -0.54490507 2.01776
-1.2101432 -0.53750509 2.0161848
-1.1448078 -0.52430034 2.0362227
-1.0922316 -0.52010381 2.0376716
0.93943501 -0.54711586 2.0149548
0.98479062 -0.54418427 2.0344925
1.0259651 -0.54003972 2.0197818
1.0726175 -0.53285092 2.0292177
1.1310756 -0.52377433 2.0180736
1.1738504 -0.51208752 2.0268092
1.2162281 -0.50511366 2.0130577
-2.222981 -0.47529221 2.020189
-2.1868942 -0.49257651 2.0321019
-0.32451865 -0.46818498 2.025645
-0.2702401 -0.46760583 2.0322487
-0.21815465 -0.46744934 2.0133767
-0.17677085 -0.4665651 2.0196559
1.2381843 -0.48991889 2.03776
1.2719347 -0.48861298 2.016449
1.3079708 -0.4716593 2.0141649
-2.2619131 -0.42606953 2.0048547
-2.2324908 -0.42569172 2.0287831
1.2444123 -0.41539022 2.048892
1.2714239 -0.42124486 2.0206151
-2.2630532 -0.36751452 2.0106144
-2.2372985 -0.37380943 2.0335233
1.2750847 -0.37420368 2.0233204
-2.2653332 -0.32388154 2.0114436
-2.238235 -0.32393208 2.037499
1.2498671 -0.3142125 2.0479238
1.2750857 -0.32500932 2.0245476
-2.2695775 -0.27747652 2.0169022
-2.2430718 -0.2807 2.0398064
1.2490332 -0.29194826 2.0490041
1.2759461 -0.27407804 2.0253448
1.3025267 -0.25087148 2.0016828
-2.274555 -0.2225464 2.0186739
-2.2440009 -0.22226776 2.0417397
1.2745723 -0.22444148 2.02774
1.3021995 -0.22351624 2.0036054
-2.2731612 -0.1885398 2.0204046
-2.2430725 -0.18834458 2.0438397
1.275684 -0.17361785 2.025934
1.3006959 -0.1905379 2.0038743
1.2755743 -0.12533221 2.0243905
1.240621 -0.076387219 2.0494275
1.2743651 -0.076104119 2.0242796
1.2733291 -0.026957275 2.0235372
1.2452813 0.025301607 2.044769
1.2752446 0.020358931 2.01981
1.2436757 0.076826245 2.0427556
1.2712705 0.076529905 2.0191813
1.2431276 0.12597044 2.0399964
1.2684426 0.12427089 2.0151091
1.2393911 0.17264315 2.0391753
1.2653381 0.17446944 2.0162883
1.2446719 0.22213171 2.034636
1.2641176 0.22192413 2.012814
2.3954394 0.35207748 2.0321741
2.419405 0.38212889 2.0264118
2.4387639 0.42450315 2.0382791
2.4592416 0.43117198 2.0190616
2.4364955 0.47710738 2.0243022
2.463758 0.45786852 2.0207026
-2.2608845 0.59133577 2.0181017
-2.2483222 0.59161246 2.0322869
-2.2642019 0.62458742 2.0178802
-2.2413192 0.62781459 2.0424917
-2.2582185 0.67262763 2.0094175
-2.2318981 0.6752519 2.0333493
-2.2572238 0.70429766 2.0098372
-2.2383347 0.70481801 2.0311222
-1.9229997 -0.55135363 2.0620947
-1.8690052 -0.55524731 2.0784514
-1.818789 -0.55598682 2.0876193
-1.7809477 -0.55213088 2.09149
-1.729701 -0.56034142 2.0988722
-1.4432497 -0.55216509 2.0906558
-1.3515644 -0.55056143 2.0690126
-1.3326062 -0.5522337 2.0868487
0.89828974 -0.55007255 2.0885279
0.92064565 -0.55052936 2.0835211
0.96460623 -0.55095077 2.0709829
-2.1159103 -0.50707471 2.0651522
-2.075181 -0.50998896 2.0811
-2.0245626 -0.5191977 2.0811503
-1.9733351 -0.5343377 2.0753999
-1.924418 -0.54255384 2.0907211
-1.8948214 -0.5487994 2.0677481
-1.4830747 -0.54204696 2.0797169
-1.3826916 -0.54684925 2.0952382
-1.2512462 -0.53710645 2.0511968
-1.2262411 -0.53844833 2.0691812
-1.1942153 -0.5316819 2.0505717
-1.147819 -0.53075206 2.0659068
-1.0991566 -0.52865398 2.075516
0.86644948 -0.54701102 2.0849566
0.93127978 -0.54571855 2.0690913
0.98092711 -0.54105043 2.077935
1.0290366 -0.53534782 2.0735826
1.081865 -0.5243122 2.0773139
1.126399 -0.51579207 2.0732663
1.1716119 -0.50408733 2.0722175
-2.1727972 -0.47469455 2.0647812
-2.1337154 -0.48419142 2.0866289
-0.32893911 -0.46200264 2.055074
-0.2590867 -0.4628391 2.0654747
-0.22794828 -0.46596798 2.0587149
1.1906201 -0.4917925 2.0840755
1.2145774 -0.48657745 2.0705957
-2.205327 -0.42575288 2.0543437
-2.1779478 -0.42574248 2.0790837
-2.1493678 -0.44578767 2.0985765
1.2168052 -0.41579691 2.0790589
1.2539809 -0.43730164 2.0739164
-2.2119286 -0.36877921 2.0591474
-2.1769795 -0.37302887 2.0845335
1.1995733 -0.37438846 2.0983372
1.2256485 -0.37628782 2.0704968
-2.2102168 -0.32384655 2.0622001
-2.1826849 -0.32382965 2.0867913
1.2232653 -0.32597834 2.0750535
-2.2174785 -0.27483913 2.064728
-2.1839192 -0.27939838 2.0916779
1.2252433 -0.27447289 2.0719295
-2.2175326 -0.222372 2.0678625
-2.1908259 -0.22245766 2.0933311
1.2242912 -0.22633822 2.0724232
-2.2201509 -0.18535405 2.0735114
-2.1859787 -0.18819024 2.0915878
1.2230515 -0.17642091 2.0738592
1.1993874 -0.12714034 2.095288
1.2250803 -0.12635419 2.0682023
1.1984285 -0.077224925 2.0953486
1.2231078 -0.076736473 2.0685806
1.1982174 -0.027406786 2.0958703
1.2237169 -0.027220849 2.0685554
1.1969882 0.022381438 2.0937049
1.2203034 0.022267533 2.0691509
1.1938049 0.082407311 2.0938346
1.2183478 0.077291653 2.070143
1.1913927 0.12742418 2.0930691
1.2178993 0.12674317 2.0675287
1.1918262 0.17724326 2.0910964
1.2147441 0.178139 2.0654888
1.1928482 0.22168107 2.0897515
1.2243725 0.22644545 2.0661516
1.2785314 0.25769818 2.0772359
2.3790157 0.37177688 2.0804069
2.4058738 0.39819226 2.0603738
2.3883483 0.43101805 2.0896666
2.4185159 0.42880186 2.0662744
2.3402023 0.45169473 2.0845222
2.3805568 0.45541775 2.0807734
2.4213204 0.45782822 2.0634825
-2.2306283 0.59415823 2.0672598
-2.187485 0.59175223 2.0909452
-2.2157519 0.63032663 2.0643106
-2.1861997 0.62617016 2.0902765
-2.2135034 0.68041211 2.0602357
-2.1833951 0.67386329 2.0815213
-2.2220609 0.70617944 2.0546849
-2.1829891 0.70244789 2.0694277
-1.858161 -0.55125087 2.1114273
-1.8306623 -0.5507319 2.128257
-1.7690699 -0.55433798 2.113256
-1.6636174 -0.5591433 2.1356163
-1.643543 -0.55656922 2.1336355
-1.475814 -0.55260593 2.1402886
-1.4417295 -0.55842292 2.1239769
-1.3564786 -0.55041033 2.126606
-1.3089763 -0.55443883 2.1092072
0.84582734 -0.55105811 2.1082401
-2.0245335 -0.51004255 2.123879
-1.9707787 -0.52100044 2.1281056
-1.9283235 -0.53498328 2.1271577
-1.881555 -0.53923094 2.1370072
-1.8263977 -0.54944998 2.1233728
-1.7975953 -0.54849863 2.1379642
-1.5207654 -0.5437333 2.1350281
-1.4866182 -0.54770696 2.1081676
-1.3366592 -0.54950005 2.13164
-1.2613325 -0.5340749 2.1194165
-1.227039 -0.53560239 2.1243787
-1.1851428 -0.53400975 2.1226096
-1.1354661 -0.52941751 2.1203756
-1.077854 -0.53443259 2.1385577
-1.0265719 -0.53683585 2.140698
0.83339149 -0.54628426 2.1398611
0.87883884 -0.54437011 2.1269562
0.93065548 -0.54545975 2.1293409
0.97369063 -0.53737909 2.1308293
1.0291384 -0.52898729 2.1273513
1.0756948 -0.51567185 2.120697
1.1230899 -0.50653344 2.1178663
1.1567349 -0.50383645 2.1005657
-2.1167927 -0.46768388 2.1169722
-2.0814033 -0.48418576 2.1315784
-0.28487697 -0.47222576 2.1055877
1.1448605 -0.4800728 2.1393161
1.1704619 -0.47275466 2.1206644
-2.1502125 -0.43242306 2.1018519
-2.1253636 -0.42343017 2.1221368
-2.0938773 -0.43882701 2.1456475
1.1487821 -0.44220555 2.147671
1.1758264 -0.42222616 2.1266212
-2.1617193 -0.35082638 2.1008263
-2.1279502 -0.37119028 2.1277094
1.1752547 -0.37739331 2.1290891
1.2001129 -0.35777512 2.1014543
-2.1624725 -0.32388279 2.1052811
-2.1314034 -0.32508665 2.1300883
1.1815444 -0.32529119 2.1216683
-2.1620376 -0.27420542 2.1108847
-2.1342173 -0.27595845 2.1361284
1.17939 -0.27427965 2.1230433
-2.1692314 -0.22236815 2.1104765
-2.1393795 -0.22461632 2.1357093
1.1765025 -0.22442172 2.1241195
-2.166132 -0.18826173 2.1103268
-2.1398191 -0.18836945 2.1349797
1.1764342 -0.17416601 2.122992
1.1731675 -0.1244504 2.1251514
-2.255723 -0.054389793 2.1391034
1.1456847 -0.072588995 2.1480491
1.1741731 -0.074693061 2.1220496
-2.2606421 -0.012735459 2.118377
-2.2306716 -0.0245519 2.134063
1.1724764 -0.02759872 2.1231484
-2.2558167 0.014849107 2.1137698
-2.2347176 0.021712691 2.1323538
1.1453041 0.019838147 2.1480417
1.1716094 0.02252169 2.1215694
1.1454036 0.073051944 2.1473682
1.1702986 0.071720868 2.1209571
1.1451496 0.12343929 2.1451564
1.1663965 0.12273987 2.1218455
1.1456188 0.17390819 2.1434648
1.1678832 0.17455804 2.1196735
1.1431938 0.21896462 2.1443548
1.1684449 0.22548954 2.1180201
1.2174762 0.24657324 2.1066451
1.3122921 0.27375522 2.1474168
2.2794595 0.34913874 2.1108842
2.2837064 0.37184995 2.1247234
2.3311212 0.36798939 2.1169486
2.3657801 0.39417934 2.1092913
2.2859454 0.41546223 2.1330009
2.333189 0.43154475 2.1419153
2.3662264 0.42434764 2.1225159
2.2952249 0.45382079 2.148591
2.3344934 0.45602286 2.1319788
-2.1605372 0.59184539 2.1162748
-2.1339164 0.59203684 2.1413882
-2.1608777 0.62364495 2.1104403
-2.133472 0.62926275 2.1359677
-2.1574395 0.67552018 2.104291
-2.1289444 0.6751523 2.1276929
-2.1592669 0.70587176 2.1110554
-2.1156361 0.70279866 2.1323464
-1.7145088 -0.55510765 2.1547685
-1.4521952 -0.55278438 2.153923
-1.4339924 -0.55902958 2.1744764
0.7642979 -0.55164915 2.1808748
-2.0175838 -0.50772297 2.1528099
-1.9726961 -0.50782794 2.1688037
-1.9216416 -0.52009302 2.1756504
-1.8730841 -0.53307372 2.173816
-1.8273664 -0.53808528 2.1774247
-1.7784821 -0.54438168 2.175014
-1.7274978 -0.54659408 2.1736567
-1.6734269 -0.54993242 2.1508617
-1.5843204 -0.54387558 2.1946707
-1.5209255 -0.54006326 2.1670725
-1.4862204 -0.54663217 2.1699922
-1.3118244 -0.53893644 2.1723664
-1.2696887 -0.53054017 2.1691511
-1.2111717 -0.53414404 2.1714587
-1.1208409 -0.5386464 2.170687
-1.0726628 -0.52950847 2.1673846
-1.0388923 -0.52913892 2.1832099
-0.96492207 -0.52868074 2.1774642
0.63954955 -0.54879844 2.1963513
0.67469943 -0.54559261 2.187659
0.7278111 -0.54910034 2.1786265
0.7803582 -0.54545891 2.1800494
0.82298177 -0.544231 2.1776352
0.87890768 -0.54236513 2.1823361
0.92847818 -0.53530365 2.1724322
0.96953601 -0.52591515 2.179698
1.0219229 -0.51799589 2.1739848
1.0702049 -0.50749028 2.172029
1.1235304 -0.50032282 2.15557
-2.0618126 -0.46754846 2.161979
-2.0318966 -0.4809455 2.1791348
-1.9787369 -0.49472108 2.1886761
1.0901868 -0.4918597 2.1853919
1.1217947 -0.47515026 2.1711202
-2.0717514 -0.42362252 2.1687589
-2.0362887 -0.42928305 2.1932695
1.1301293 -0.42538756 2.1763725
1.1500289 -0.40861723 2.1549385
-2.0739045 -0.37128034 2.1737602
-2.0391567 -0.38468558 2.1983979
1.1329836 -0.37371913 2.1779778
1.1525416 -0.37731051 2.1573343
-2.1065331 -0.3169328 2.1516881
-2.0743728 -0.32400554 2.1807606
1.1354696 -0.32417622 2.1767678
1.1562891 -0.32202983 2.1514978
-2.1078606 -0.27654055 2.157804
-2.0784569 -0.2781021 2.1816776
1.1325421 -0.2765007 2.1781368
1.153457 -0.27611989 2.1507852
-2.113023 -0.21944448 2.1578178
-2.0804653 -0.22242136 2.1853416
1.1313244 -0.22522064 2.1756182
1.1522291 -0.22512004 2.1527514
-2.1137047 -0.1817293 2.1597319
-2.0846751 -0.18330121 2.1878164
1.1277599 -0.17427467 2.1779857
1.1509312 -0.17421827 2.1537247
1.1259005 -0.12375671 2.1776786
1.1508254 -0.12918389 2.1557746
-2.2407715 -0.054387536 2.1507556
1.1255078 -0.074013166 2.1769853
-2.2184582 -0.026603797 2.1554828
1.125486 -0.027982393 2.1745911
-2.214107 0.007884887 2.1513205
1.1208882 0.023220548 2.1756682
-2.0609281 0.081779897 2.1979868
1.1190343 0.073515967 2.1742516
-2.0639794 0.13594365 2.1988854
1.0923505 0.14207566 2.1984143
1.118673 0.12420902 2.1718047
1.092818 0.1762049 2.1975369
1.1193173 0.1750423 2.1705022
1.088762 0.22534569 2.1950715
1.1175458 0.22030044 2.169836
1.1578941 0.24937701 2.1611214
1.0951817 0.25054416 2.1970949
1.1230736 0.25043008 2.1855536
1.1558751 0.25139564 2.1830971
1.2463747 0.27062634 2.1844473
1.2753928 0.27382767 2.1647325
1.3045686 0.28614298 2.1579115
-2.0528674 0.33903641 2.1931882
-2.0548322 0.35290492 2.1934235
2.295965 0.43981096 2.1518731
2.3207774 0.42764679 2.151036
-2.0572736 0.49215728 2.198756
-2.1108539 0.59324229 2.1696358
-2.0838137 0.59334314 2.1932511
-2.1091871 0.62491608 2.1599286
-2.0814042 0.62950939 2.1852829
-2.1066096 0.67677802 2.1568453
-2.0760207 0.67575115 2.1768868
-2.045603 0.67476225 2.196496
-2.0703225 0.72196001 2.1783333
-2.0413761 0.74701267 2.1984527
-2.072103 0.78174663 2.1852632
-2.0418565 0.77488506 2.190516
-2.0652227 0.82016307 2.1759405
-2.0404601 0.81797522 2.1862178
-2.0640392 0.87413943 2.1842625
-2.0407438 0.87506306 2.1910772
-2.0754728 0.91409981 2.1837835
-2.0473266 0.9078269 2.1803889
-2.101712 2.2919245 2.1890018
-2.0669439 2.2836578 2.1865885
-2.0355344 2.2812388 2.1783652
-1.6750977 -0.55459261 2.2230816
-1.6484412 -0.55001658 2.2431335
-1.4713739 -0.55249006 2.2094989
-1.4372802 -0.55731982 2.2188745
-1.3799812 -0.55039603 2.2435272
-1.9252851 -0.50643802 2.2139812
-1.8762071 -0.51514155 2.2282372
-1.8249724 -0.52655119 2.2176423
-1.7691841 -0.53472441 2.2209001
-1.7258885 -0.53699607 2.2295375
-1.6937027 -0.54363525 2.2305629
-1.630865 -0.54842228 2.2441144
-1.568264 -0.53378659 2.2326267
-1.5213262 -0.53741616 2.2297571
-1.4781674 -0.54083759 2.235379
-1.4146993 -0.54581475 2.23645
-1.3866022 -0.54816741 2.2286735
-1.3256376 -0.53589541 2.2144101
-1.2751007 -0.53319097 2.2226365
-1.2174942 -0.53737086 2.234266
-1.1697637 -0.53618896 2.2136576
-1.1367109 -0.53431916 2.2317755
-1.0238223 -0.53039229 2.2227373
-0.99163997 -0.52867126 2.2249115
0.5228036 -0.54198027 2.2368741
0.58241868 -0.54600763 2.2441874
0.61917949 -0.54407197 2.2291291
0.66759551 -0.5441829 2.2301335
0.72930199 -0.54418522 2.2151508
0.78010422 -0.54122126 2.2225678
0.82920331 -0.53748679 2.2302902
0.87409288 -0.53329039 2.2260053
0.92413384 -0.52470583 2.2268124
0.97819537 -0.51178443 2.2266614
1.0205749 -0.50573319 2.2097788
-2.0078866 -0.47020069 2.2112222
-1.9752007 -0.47795749 2.2317986
-1.9306445 -0.49619389 2.2353585
1.0358787 -0.49606216 2.2259622
1.0746434 -0.47085634 2.2234516
-2.012439 -0.42377532 2.2163129
-1.9838353 -0.430554 2.240536
1.0852737 -0.42511666 2.2290158
1.1074936 -0.42547494 2.2031932
-2.0179317 -0.36962152 2.2209792
-1.9887043 -0.37191209 2.2463956
1.0877514 -0.37765747 2.2326767
1.1103687 -0.36956498 2.2071488
-2.0230622 -0.32545927 2.2235734
-1.9975764 -0.31020117 2.2387567
1.0872909 -0.32660019 2.231554
1.1109712 -0.32701698 2.208617
-2.0543764 -0.26992893 2.2039244
-2.0220082 -0.27811453 2.2287183
-1.9995751 -0.25638637 2.2467356
1.0841388 -0.27423808 2.2331002
1.1083374 -0.27471086 2.2083974
-2.0542526 -0.22254893 2.2082496
-2.0251887 -0.22311862 2.2311893
-1.9995557 -0.24285243 2.247972
1.0804708 -0.22236657 2.232332
1.1052845 -0.2225429 2.2064567
-2.0592501 -0.17242745 2.2072494
-2.0261862 -0.17512374 2.2320049
1.0813391 -0.17763005 2.2290697
1.1078478 -0.18203962 2.200752
-2.0595217 -0.13053586 2.205584
-2.0267682 -0.12612066 2.231456
1.0801157 -0.12526597 2.2266986
-2.0680468 -0.069472715 2.201041
-2.0296545 -0.07352452 2.2277656
1.0774765 -0.0741079 2.2251468
1.1053046 -0.056607038 2.2004814
-2.0721221 -0.029656565 2.2048378
-2.0312726 -0.027461182 2.2269535
1.0488616 -0.045780793 2.2493806
1.0763955 -0.028352227 2.2236228
-2.0628834 0.018214593 2.2122195
-2.0351474 0.025122037 2.2346258
1.048183 0.040397074 2.2479258
1.0753069 0.023022048 2.2213669
-2.0649176 0.054890335 2.2030263
-2.0289311 0.075041085 2.2267265
1.0480993 0.069112204 2.24722
1.0747923 0.074331433 2.2194664
-2.0604579 0.13335678 2.2053308
-2.026581 0.12717235 2.227489
-1.9942687 0.12221463 2.2498004
1.0482051 0.12654428 2.2456024
1.0741425 0.12432384 2.2212658
-2.0685365 0.17379153 2.2077146
-2.0283155 0.17766394 2.2244194
-1.9977641 0.19004181 2.2496789
1.0479875 0.17820868 2.2426219
1.0708183 0.17725259 2.2207518
-2.0513096 0.22386342 2.2043133
-2.0263257 0.22405769 2.2278566
-1.9963903 0.24396622 2.2436278
1.044996 0.22816075 2.2424538
1.0695584 0.22156337 2.2212143
-2.05688 0.27871051 2.2049022
-2.0235891 0.27990764 2.229528
-1.9974561 0.25761771 2.2435231
1.0769144 0.25294036 2.228318
1.2816552 0.2932421 2.2361124
1.3008095 0.29527435 2.2091765
-2.0592875 0.31973362 2.2027001
-2.0228088 0.32607472 2.2258174
-2.0611618 0.38489813 2.2059677
-2.0244751 0.37242264 2.2269313
-1.9930731 0.39462951 2.2471657
-2.0548513 0.42338836 2.2084875
-2.0211444 0.42396134 2.2278085
-1.9976716 0.41596591 2.2491753
-2.0586073 0.46517143 2.2053316
-2.0256586 0.47223896 2.2323687
-2.0629153 0.526609 2.2068508
-2.0279074 0.52647173 2.2270894
-2.0715489 0.57957417 2.206692
-2.0336041 0.57846278 2.2298679
-2.0629649 0.61393607 2.2050591
-2.0306025 0.62740523 2.2258577
-2.0258579 0.6750204 2.2302947
-2.0285482 0.72310501 2.2225611
-1.9992145 0.70523769 2.2421875
-2.075134 0.77516115 2.2018685
-2.0310967 0.77778918 2.2243369
-2.0405533 0.82511258 2.219589
-2.0367045 0.86734509 2.2102113
-2.056776 2.2624416 2.2113888
-2.0295715 2.2799087 2.2250597
-1.9808975 2.2847838 2.2201297
-2.0113599 2.3007395 2.2246151
2.1512694 2.3726857 2.243602
-1.8603306 -0.50699908 2.2637482
-1.8233184 -0.51580334 2.2686732
-1.7836878 -0.5243417 2.2836685
-1.7278688 -0.53053486 2.2800951
-1.6691641 -0.53532279 2.2701972
-1.6215571 -0.51962644 2.2749431
-1.5761975 -0.51535988 2.2738056
-1.5230879 -0.52515727 2.2769778
-1.4632059 -0.53850394 2.277611
-1.4233942 -0.54034394 2.2716713
-1.3804339 -0.53742236 2.2644727
-1.3268411 -0.5335564 2.2724407
-1.2772856 -0.53316331 2.2813733
-1.2097912 -0.53069139 2.2792978
-1.1689248 -0.53785306 2.2681198
-1.1227875 -0.53867704 2.2891567
-1.0810418 -0.53582817 2.2894955
-1.0066422 -0.52806437 2.2755909
0.47171217 -0.53579104 2.2675142
0.51601249 -0.54223758 2.2790813
0.57661092 -0.54520857 2.2923987
0.6274249 -0.54134953 2.2750211
0.66711944 -0.53974712 2.2644937
0.72426152 -0.54115838 2.2749627
0.77733934 -0.54053843 2.2731056
0.82059973 -0.53392106 2.282223
0.86847633 -0.52838856 2.2881732
0.91590762 -0.51899314 2.2683897
0.97138977 -0.50570244 2.2784264
1.0102308 -0.50050795 2.2573309
-1.9617071 -0.46003601 2.2530563
-1.9273567 -0.47711635 2.2721076
-1.8842027 -0.49480644 2.2830486
0.98636407 -0.49442616 2.2958393
1.0277137 -0.47689709 2.2790155
1.0538793 -0.47463802 2.2542896
-1.9649028 -0.42352894 2.259073
-1.9306314 -0.42803794 2.2831113
1.0377162 -0.42670122 2.2850947
1.0588257 -0.42345434 2.2597842
-1.9662931 -0.37272844 2.2632608
-1.9381112 -0.37464139 2.2870867
1.0428013 -0.37293199 2.2863615
1.0616149 -0.37424329 2.2632818
-1.9749587 -0.32448006 2.2623932
-1.9411097 -0.3245199 2.2869995
1.0399058 -0.32201192 2.2870388
1.0636548 -0.32424286 2.2631278
-1.9742326 -0.27696255 2.2668035
-1.9420103 -0.27723435 2.2931988
1.0357742 -0.27392951 2.2872229
1.0582159 -0.27292174 2.2640443
-1.977936 -0.22082302 2.268868
-1.9485523 -0.22297241 2.2930052
1.0349561 -0.2262422 2.2841232
1.0580279 -0.23024176 2.26122
-2.0009675 -0.16854322 2.2552226
-1.9795933 -0.18046135 2.2714612
-1.9474561 -0.18221262 2.2946982
1.0320786 -0.17425795 2.280925
1.054687 -0.17895183 2.2572603
-2.0004733 -0.14819698 2.2558551
-1.9928278 -0.11828919 2.2587905
1.0305237 -0.12173421 2.2798388
1.0553712 -0.12871397 2.2563381
-1.9958566 -0.069593057 2.258779
1.0273629 -0.074268103 2.2781415
1.050609 -0.08039891 2.2524555
-2.0098724 -0.019666713 2.2703414
-1.9992584 -0.040004741 2.2709146
1.0262647 -0.027942874 2.2760639
1.0503472 -0.022825481 2.2527969
-2.0261257 0.022639271 2.2782826
-1.9998641 0.041340228 2.2587152
1.0252894 0.022105323 2.2756293
-1.9979475 0.075104505 2.2557254
1.0214627 0.075422972 2.2757287
1.0500237 0.092249595 2.2507575
-1.9952499 0.13128574 2.2504122
0.99312353 0.13413918 2.2992518
1.021601 0.12297215 2.2717276
-1.9983063 0.16980167 2.2516828
0.99387926 0.18670897 2.2983875
1.0205859 0.17478935 2.2722805
-2.0017304 0.22429949 2.2514453
-1.9904705 0.22076793 2.2580588
0.99060071 0.23079729 2.2940335
1.0194564 0.22474067 2.270705
-1.9888365 0.27857849 2.2571273
1.0590019 0.25692314 2.275372
-1.9966942 0.32729959 2.2605848
-1.9966316 0.36810645 2.2551167
-2.0064545 0.46883854 2.2768645
-1.9967668 0.48713502 2.2621417
-1.996209 0.52124935 2.2549169
-2.0145583 0.57889622 2.2713122
-1.9868467 0.59718394 2.2947783
-2.0096583 0.60751647 2.2522597
-1.9817125 0.6239934 2.2785943
-2.0061886 0.67997855 2.257376
-1.9790491 0.65703636 2.2769368
-2.0117435 2.277194 2.2652292
-1.9782506 2.2882993 2.2790089
-1.9688276 2.3093886 2.2660997
-1.9363998 2.3105168 2.289171
2.0792122 2.368685 2.285327
2.1287909 2.3737147 2.2734344
2.1677513 2.3735104 2.2734935
2.2135835 2.3682401 2.2744026
-1.8184009 -0.50839609 2.3011386
-1.772225 -0.51050442 2.3137119
-1.7257965 -0.51598424 2.3293388
-1.6757448 -0.51761305 2.3143868
-1.572616 -0.50421304 2.312418
-1.526421 -0.51370424 2.3297975
-1.4723386 -0.52706575 2.3136086
-1.4200084 -0.52951097 2.3206918
-1.3725971 -0.52988774 2.3202636
-1.3217677 -0.53126472 2.3264
-1.2760392 -0.53856593 2.3272963
-1.210124 -0.53891659 2.321748
-1.1741341 -0.53554708 2.3178563
-1.1186686 -0.53044152 2.3116994
-1.0620571 -0.53834635 2.333086
-0.97051829 -0.53990644 2.3147011
0.43734241 -0.53723425 2.3298666
0.48076263 -0.53891951 2.3315988
0.52751052 -0.54051942 2.3213902
0.57592332 -0.54393119 2.3394821
0.62125134 -0.54307723 2.3277774
0.68423104 -0.53969026 2.313977
0.71822488 -0.53341949 2.3305287
0.77525234 -0.53360152 2.3236864
0.82568163 -0.52534878 2.329951
0.8782016 -0.51992333 2.3251114
0.92254889 -0.50849998 2.3245115
-1.8717548 -0.47489205 2.3145401
-1.8332065 -0.48599082 2.3282778
-1.7923231 -0.4970924 2.3345513
-1.6635756 -0.48745731 2.3218801
-1.6192182 -0.47120634 2.3150063
-1.5852828 -0.47566748 2.3381758
0.942357 -0.49920246 2.3337286
0.97972935 -0.47761822 2.3306637
1.0058228 -0.45970306 2.3123345
-1.9090147 -0.41300368 2.3012166
-1.8773005 -0.42709243 2.3248529
-1.8452461 -0.44115442 2.3475771
-1.6538324 -0.44313803 2.3214872
-1.6231061 -0.41972491 2.3219991
-1.5892959 -0.42582127 2.3428853
0.98986936 -0.42557165 2.3407071
1.0134814 -0.42161369 2.3160961
-1.914971 -0.36806956 2.3061044
-1.8806971 -0.37482414 2.3309257
-1.6239616 -0.37554958 2.3265541
-1.5930406 -0.37592307 2.3463449
0.99442452 -0.37872669 2.3401105
1.0155045 -0.37121779 2.3148377
-1.9166483 -0.32499751 2.3091719
-1.8850714 -0.32543647 2.3350565
-1.6782097 -0.30165857 2.3479667
-1.6216424 -0.32969952 2.3286049
-1.5922647 -0.34979501 2.3483243
-1.4268373 -0.30667937 2.3478575
0.99557245 -0.32444432 2.3412497
1.0166177 -0.32589737 2.3145728
-1.9171429 -0.27757731 2.3148346
-1.886939 -0.27775675 2.3371773
-1.6757693 -0.27499473 2.3470519
-1.6201862 -0.27767244 2.331775
-1.4321518 -0.2746141 2.3471491
0.98982894 -0.27613643 2.3348989
1.0138444 -0.27687275 2.3106692
-1.9224638 -0.22312357 2.3131804
-1.8909466 -0.22344328 2.3391299
-1.6657749 -0.22775736 2.3368516
-1.618782 -0.22573741 2.3340681
-1.4293797 -0.22121601 2.3467708
0.98505551 -0.22465037 2.3379188
1.0110672 -0.22894046 2.3112674
-1.9244825 -0.18262887 2.3185589
-1.8888775 -0.18250515 2.3394463
-1.6591678 -0.17488661 2.3310604
-1.6217933 -0.17536758 2.3328643
-1.4268507 -0.17306872 2.3455849
0.98215413 -0.17089075 2.3341615
1.0067341 -0.17593631 2.3136828
-1.6509664 -0.13523373 2.3215604
-1.6266512 -0.1203234 2.3312449
-1.4220068 -0.11976915 2.3460774
0.9837541 -0.12180894 2.3310878
1.0061359 -0.12669778 2.3094501
-1.6288848 -0.070516497 2.3305049
-1.4215889 -0.077426739 2.3459551
0.98214734 -0.075156607 2.3265383
1.0062404 -0.075652048 2.3010929
-2.0236099 -0.013058591 2.3117278
-1.9822289 -0.012998476 2.3156581
-1.6284374 -0.025349578 2.3305595
-1.4221245 -0.02683828 2.3458545
0.97744048 -0.029196074 2.3271241
1.005802 -0.034805495 2.3007514
-2.0256679 0.017427403 2.3399773
-1.9964249 0.00070075318 2.3322546
-1.6285353 0.01979902 2.330698
-1.4195735 0.019138413 2.3460605
0.976318 0.023621455 2.3244522
-1.6287414 0.071409836 2.3301487
-1.419142 0.069258809 2.3445983
0.97555113 0.076339237 2.3217945
-1.6510044 0.11678216 2.3221321
-1.6255946 0.12460354 2.3326991
-1.4219457 0.11865546 2.3458097
0.94747776 0.1300199 2.3476481
0.97314262 0.12194247 2.3216515
-1.6551062 0.17540848 2.3249383
-1.6243786 0.17484306 2.3323281
-1.421262 0.16977011 2.3441706
0.94739842 0.16937894 2.3456614
0.97297406 0.17310083 2.317873
-1.6581916 0.22763969 2.3256729
-1.6226332 0.22493695 2.3337281
-1.4224762 0.22016835 2.3429887
0.94436675 0.22959627 2.3438535
0.96803564 0.22586434 2.3184862
-1.6646706 0.27414095 2.3308487
-1.6228102 0.28011984 2.3322206
-1.425972 0.2710821 2.3447144
1.2240623 0.28540543 2.3324625
-1.6749456 0.32174069 2.3405366
-1.624349 0.32469943 2.3324745
-1.4259665 0.32262552 2.3441865
1.1915131 0.31555629 2.3284271
1.2289737 0.31708556 2.3410649
1.2768161 0.31407732 2.3371625
-1.665334 0.35246924 2.323374
-1.626132 0.3705053 2.3296356
-1.427817 0.36714822 2.347399
-1.651625 0.43703112 2.3182821
-1.6271782 0.42158541 2.32988
-1.4219559 0.42719337 2.34531
-1.6577474 0.47138679 2.3217244
-1.620504 0.47654739 2.3323638
-1.4240551 0.47613668 2.3435955
-1.6737231 0.51555896 2.3373528
-1.6249211 0.52843881 2.3273516
-1.51528 0.54322642 2.3464653
-1.4919573 0.54179043 2.3499355
-1.4274447 0.52575898 2.3431928
-2.007709 0.58040267 2.3102674
-1.9780992 0.5868333 2.3271406
-1.9224864 0.59651214 2.3369467
-1.6508553 0.58473855 2.3175287
-1.6209335 0.57506269 2.33091
-1.599191 0.57843941 2.3492353
-1.5023736 0.5537793 2.3373544
-1.4828666 0.55369103 2.3465552
-1.4240566 0.56110674 2.3430178
-1.9564199 0.61019325 2.3087182
-1.9267597 0.62526041 2.3260825
-1.8964895 0.6386463 2.3488317
-1.6570029 0.61991233 2.3192203
-1.6180464 0.62412685 2.3277197
-1.5909871 0.64612693 2.3499584
-1.9521623 0.65958416 2.3054659
-1.923314 0.65917498 2.3237631
-1.8993206 0.66043824 2.3474789
-1.671775 0.65198892 2.3340409
-1.6222444 0.67764926 2.3248227
-1.5922284 0.67960894 2.344348
-1.6614943 0.7397697 2.3249521
-1.6250988 0.72296804 2.3191767
-1.5956681 0.72075075 2.3398719
-1.6772121 0.78042156 2.3379662
-1.6204715 0.77603459 2.3222549
-1.5911162 0.77784854 2.3462481
-1.6595097 0.83877409 2.3226442
-1.622497 0.82414466 2.3204601
-1.593168 0.83049005 2.3421817
-1.6698236 0.87096894 2.3289161
-1.620735 0.87678254 2.3191376
-1.5917417 0.86669087 2.3437726
-1.6578989 0.93934852 2.317327
-1.6228912 0.92800939 2.3237998
-1.5979818 0.9156599 2.3462288
-1.673028 0.96836251 2.3315187
-1.6213969 0.97147632 2.3215408
-1.592532 0.97440624 2.3477576
-1.6598319 1.0300016 2.3182402
-1.6226375 1.0253328 2.3234737
-1.5939761 1.0188074 2.3448732
-1.6679171 1.0767677 2.3238056
-1.6238767 1.0795058 2.3266604
-1.5939496 1.065582 2.3482575
-1.6646016 1.1242626 2.3201594
-1.6241046 1.1269559 2.3290827
-1.5931122 1.143043 2.3482122
-1.6654691 1.1657044 2.3253338
-1.6202965 1.1752717 2.3299859
-1.6500615 1.2374536 2.3103931
-1.6272991 1.2222776 2.3307066
-1.5945036 1.2235196 2.3493168
-1.6713848 1.2745657 2.3304834
-1.6280376 1.2750114 2.3321269
-1.6711599 1.3170042 2.3322029
-1.6248944 1.3240888 2.3313704
