ply
format ascii 1.0
comment PCL generated
element vertex 1540
property float x
property float y
property float z
element camera 0
property float view_px
property float view_py
property float view_pz
property float x_axisx
property float x_axisy
property float x_axisz
property float y_axisx
property float y_axisy
property float y_axisz
property float z_axisx
property float z_axisy
property float z_axisz
property float focal
property float scalex
property float scaley
property float centerx
property float centery
property int viewportx
property int viewporty
property float k1
property float k2
end_header
0.52577949 0.72479153 2.1626668
0.56538737 0.72270191 2.1861887
0.4794808 0.77651167 2.1871424
0.52211165 0.77101266 2.1603937
0.55917406 0.77082813 2.176018
0.47832152 0.82525682 2.1875694
0.52498496 0.82506466 2.1618893
0.55818212 0.82773554 2.1782875
0.47650129 0.87516099 2.1875412
0.52209347 0.87503093 2.163826
0.56239909 0.86751413 2.1855235
0.47936818 0.92529088 2.187582
0.52355796 0.92506206 2.1629093
0.56359458 0.92443371 2.1866999
0.47892052 0.97559333 2.1862915
0.52547342 0.97830003 2.1615214
0.55649096 0.9719255 2.179491
0.47950807 1.0259635 2.1864338
0.52306402 1.0260737 2.1630855
0.56349128 1.0184816 2.1955724
0.47730002 1.0755352 2.1864247
0.51794332 1.0735703 2.162379
0.55312127 1.0778192 2.1818841
0.47879988 1.1247135 2.1877003
0.52463371 1.1261556 2.1639447
0.55900013 1.1297991 2.1899824
0.48353544 1.1733539 2.1854568
0.5202769 1.1732684 2.1642613
0.55893588 1.1706167 2.19275
0.47716346 1.2263243 2.1894419
0.51945817 1.2224604 2.1652272
0.5550608 1.2220223 2.1921177
0.48670152 1.2760599 2.1872673
0.5246768 1.274895 2.1693118
0.56229079 1.2914715 2.1974654
0.48504695 1.3249468 2.1880956
0.5181191 1.3237194 2.1681406
0.55083525 1.3222964 2.1879709
0.48326218 1.375355 2.1896148
0.52208954 1.37331 2.1721964
0.55620217 1.3652771 2.1950572
0.48618454 1.4257423 2.1912684
0.52407181 1.423265 2.1719494
0.48629761 1.4710474 2.1900313
0.52154994 1.4796245 2.1771281
0.55489564 1.4841888 2.1939931
0.48588747 1.5261623 2.1909864
0.52120709 1.5246606 2.1766675
0.4884178 1.5742388 2.1925192
0.52567363 1.5723037 2.1795914
0.55366361 1.5894901 2.1990912
0.48669189 1.6265262 2.1938732
0.52055222 1.62551 2.183322
0.55535311 1.6069022 2.1984155
0.48721921 1.6805153 2.1941574
0.52195907 1.6767548 2.17927
0.4896729 1.7192215 2.1932046
0.5178839 1.7270772 2.1771994
0.49244159 1.770775 2.1929262
0.52454561 1.7682377 2.1876049
2.1900928 -0.26537725 2.231534
2.170563 -0.2244415 2.2086539
2.2007687 -0.23696809 2.218854
2.170769 -0.18856569 2.2095416
2.2131023 -0.16797897 2.2367024
2.1929662 -0.12455928 2.2186897
2.2471087 -0.14102182 2.2461338
2.0688376 -0.053727195 2.2331903
2.119379 -0.054286472 2.2357359
2.1671293 -0.059328947 2.2292633
2.2100511 -0.076348945 2.237844
2.0952022 -0.040462796 2.2489634
2.1284969 -0.026809424 2.2431252
2.165132 -0.026912423 2.232023
2.2103035 -0.027146051 2.2389977
2.1738367 0.020101696 2.2376814
2.2107074 0.029054986 2.239326
2.1825035 0.061577845 2.2448604
2.211935 0.07832028 2.2393816
2.1895261 0.1200324 2.241231
2.2179751 0.12415301 2.2370265
2.2243738 0.18484595 2.2464938
0.32178369 0.33357942 2.2355344
0.38467482 0.33578986 2.2412436
0.42134464 0.33769679 2.2217517
0.45369288 0.34366706 2.2027304
0.32395831 0.3793329 2.2460716
0.3846685 0.37652215 2.2450578
0.4261041 0.37501168 2.2228277
0.45464915 0.38206321 2.2031868
0.58555776 0.37107593 2.2167678
0.60083956 0.38771921 2.2471399
0.7259056 0.36724529 2.2352879
0.32424635 0.42100409 2.2431266
0.38647142 0.42520446 2.2452419
0.42535058 0.42453346 2.223356
0.45558429 0.42599022 2.2023969
0.58393061 0.42228118 2.2221365
0.60159087 0.42146909 2.2458808
0.33155501 0.48227343 2.2473805
0.39051366 0.47927412 2.2445817
0.42831317 0.4749442 2.2217462
0.45675072 0.47572985 2.2013023
0.58757961 0.47457457 2.2291896
0.60192007 0.45498589 2.242692
0.38891628 0.52127224 2.2449434
0.42762539 0.52509171 2.2211039
0.45805103 0.51502025 2.2018266
0.58758432 0.53167284 2.2293684
0.69439471 0.53988409 2.2443566
0.70042443 0.52894497 2.2463121
0.38750944 0.57562751 2.2433445
0.42614782 0.57525843 2.2220275
0.45490503 0.57212222 2.2045434
0.59318835 0.57381868 2.2352438
0.68796223 0.5560931 2.240026
0.71318787 0.55262583 2.2448621
0.38046616 0.62653536 2.2438066
0.42231607 0.6242137 2.2224987
0.45314229 0.625534 2.2046654
0.58910608 0.62813801 2.2261357
0.38084456 0.67280263 2.243444
0.42098001 0.67570734 2.2214859
0.45499736 0.67187458 2.2029443
0.58358324 0.67663276 2.2139649
0.60145801 0.67780191 2.2479081
0.38676921 0.72115022 2.2417293
0.42421168 0.72658753 2.2203567
0.45449838 0.72177637 2.2011552
0.58346164 0.7203986 2.2134233
0.60322416 0.73079753 2.2433252
0.38233009 0.77785832 2.243804
0.42603964 0.77428567 2.2195191
0.45658022 0.76935017 2.200861
0.58576071 0.77661735 2.2190707
0.60731077 0.7813648 2.2477722
0.38349196 0.83160895 2.2441483
0.427836 0.82230139 2.2176695
0.45425385 0.82509303 2.2046199
0.58624214 0.82707691 2.2227697
0.38290071 0.87858355 2.2438018
0.42346117 0.87394905 2.2213917
0.4512049 0.88010818 2.2041066
0.58120728 0.88328618 2.2237113
0.60200357 0.88730693 2.2472205
0.38193074 0.92815781 2.2444324
0.4217301 0.92293674 2.2211967
0.45369449 0.93005157 2.2031548
0.58769947 0.9302451 2.235167
0.60285938 0.90010941 2.2471397
0.38451052 0.97432154 2.2454886
0.42399302 0.97343415 2.219285
0.45514435 0.96129519 2.2015786
0.58385533 0.97224349 2.2212863
0.38742456 1.0191579 2.2440922
0.42796633 1.0247266 2.2191138
0.45783478 1.0068064 2.2018247
0.57812756 1.0205436 2.2200718
0.38721839 1.0760589 2.2428658
0.42574835 1.0729008 2.2188597
0.45088735 1.0799913 2.203692
0.58155972 1.0756022 2.2298822
0.38731852 1.1212287 2.2449713
0.42260388 1.1269819 2.2256787
0.45391145 1.1277363 2.2036276
0.57995862 1.1189543 2.2266219
0.38789201 1.1746684 2.2460711
0.42610413 1.1743193 2.2219768
0.45715347 1.1765821 2.203665
0.58149117 1.1809514 2.2322094
0.39218014 1.2295612 2.2431095
0.42410189 1.2239687 2.2259605
0.45621803 1.2194605 2.2044508
0.57416332 1.223446 2.2241399
0.39188623 1.2785951 2.2463093
0.42626467 1.2744703 2.2222021
0.45749393 1.2742894 2.2059076
0.57311666 1.2721668 2.2222486
0.39139426 1.3219757 2.2459202
0.42335603 1.3274058 2.226321
0.46185812 1.3232857 2.2053015
0.57447588 1.3319042 2.2267013
0.38544878 1.3720983 2.2472835
0.42585531 1.3752418 2.2261729
0.46344647 1.3756436 2.2030308
0.57577956 1.3712308 2.2276561
0.23247027 1.4010137 2.2341161
0.39243317 1.4280126 2.2450669
0.42227995 1.4250507 2.2297864
0.45760247 1.4246531 2.2070277
0.57463676 1.4199384 2.230161
0.39330649 1.4797127 2.2446785
0.42730084 1.4760293 2.2290199
0.46086589 1.4768898 2.2069497
0.56514573 1.4702594 2.2217698
0.38256556 1.5180962 2.2489717
0.42793542 1.5262992 2.2278225
0.46454683 1.5279148 2.2059407
0.57256424 1.5188755 2.2285552
0.39218453 1.5691098 2.2475872
0.42121327 1.5764649 2.2326663
0.46207684 1.5818142 2.2099345
0.57612932 1.5919532 2.24983
0.39556965 1.6206676 2.2455351
0.42859259 1.6265137 2.2287002
0.46117282 1.6192845 2.2082036
0.56733501 1.6167197 2.2230127
0.39290643 1.6744208 2.245079
0.42274868 1.6735892 2.2332575
0.46988234 1.6684306 2.2067671
0.54989028 1.6660573 2.2066169
0.56254345 1.678503 2.2212563
0.42132282 1.7245469 2.2328687
0.46038964 1.721431 2.2115393
0.55594754 1.7166035 2.2106462
0.39413846 1.7725233 2.2494018
0.42768088 1.7762632 2.2288444
0.46839988 1.7724507 2.2088583
0.56845117 1.7815176 2.2432444
0.39664668 1.8100232 2.2465138
0.4149698 1.804181 2.2363076
0.56417298 1.8151126 2.2360234
2.2354705 -0.1696344 2.259351
2.255851 -0.15582398 2.2540753
2.2497118 -0.11275531 2.2500882
2.0277715 -0.054152861 2.2903967
2.0562427 -0.054147698 2.2707145
2.2261412 -0.098149411 2.2534616
2.0339925 -0.040553018 2.2976418
2.0741229 -0.026797378 2.2778087
2.1151793 -0.022281973 2.2619064
2.080024 0.010694641 2.2843518
2.1236119 0.024542537 2.2742717
2.1535311 0.021794042 2.2590542
2.2618744 0.036701232 2.2642221
2.1380363 0.073651753 2.2808862
2.1702111 0.085040182 2.2620013
2.2212508 0.085960358 2.2618511
2.1414187 0.12371743 2.2891769
2.173059 0.13053925 2.2673962
2.1796374 0.16645278 2.2810791
2.2172196 0.17104118 2.262202
0.28485209 0.32912219 2.291537
0.3353231 0.33533093 2.2528207
0.36279887 0.33813852 2.265481
0.28085923 0.38374764 2.2990534
0.33638647 0.37379625 2.2559967
0.36105371 0.37301248 2.2680047
0.61929959 0.37542519 2.2677581
0.68864018 0.38552883 2.2871056
0.72224265 0.38662505 2.2687788
0.76396608 0.38821307 2.2634096
0.34422112 0.4300701 2.2798047
0.36395553 0.42882144 2.2722468
0.61885154 0.42720014 2.2749991
0.69116157 0.42674667 2.2906199
0.72366303 0.42383379 2.2727911
0.75764841 0.42774302 2.2675121
0.34047541 0.4761495 2.2710385
0.36656609 0.47348371 2.2650328
0.6176002 0.4769873 2.2712889
0.69276643 0.47336107 2.2897902
0.72384429 0.47133473 2.2726626
0.75859725 0.47176501 2.2670264
0.33592695 0.52182341 2.2716017
0.36496782 0.52670056 2.2696786
0.61951089 0.52621865 2.2767253
0.68751144 0.5252167 2.2812691
0.7263481 0.5209558 2.2666731
0.76091093 0.52445894 2.2660639
0.36473155 0.57370037 2.2678809
0.62196767 0.57373333 2.2782016
0.68521082 0.57397848 2.2791417
0.73248148 0.56383735 2.2584484
0.75952405 0.56283844 2.2616322
0.33923939 0.60560125 2.281369
0.35949233 0.62358874 2.2805293
0.62088287 0.62460709 2.2746031
0.36104414 0.67171347 2.2622635
0.61940277 0.67505389 2.2720039
0.36435303 0.72695559 2.2645257
0.62442368 0.72528714 2.2810822
0.33661973 0.78888923 2.2789717
0.36004594 0.77275467 2.2667022
0.62692291 0.77257466 2.2894177
0.34632015 0.8014403 2.2905471
0.3600862 0.8190791 2.2745154
0.6160726 0.82158464 2.2729557
0.34501541 0.88036042 2.2890985
0.35999572 0.87286067 2.2732294
0.6149984 0.86979908 2.2721941
0.35793549 0.92233098 2.2706103
0.6146605 0.92742175 2.2711561
0.36286914 0.96924919 2.2591414
0.61889714 0.97743797 2.291049
0.36432016 1.0302719 2.2619007
0.61317581 1.0250152 2.2778096
0.36177602 1.0754678 2.2663362
0.5908379 1.0584048 2.2501268
0.61627895 1.0716281 2.2808459
0.34778872 1.1237493 2.2940423
0.36115125 1.1269171 2.2643511
0.61499888 1.1162398 2.2813969
0.34860161 1.168107 2.28427
0.36529902 1.1765488 2.2583566
0.61221451 1.1702455 2.2806923
0.3655425 1.2259167 2.2658155
0.59498507 1.244591 2.2547889
0.61493242 1.230134 2.2940609
0.34209198 1.2898337 2.2815251
0.36554146 1.2741915 2.2639534
0.59627938 1.2594119 2.254621
0.61050624 1.2641823 2.2890346
0.34563389 1.3337907 2.2920229
0.36465827 1.3258882 2.2590673
0.60743552 1.3261939 2.2780468
0.34227538 1.3791741 2.2853863
0.36213756 1.3757811 2.2563865
0.59624696 1.3720394 2.2652521
0.61431992 1.3848974 2.2839911
0.22475475 1.4102213 2.2879634
0.25056773 1.4231386 2.2940066
0.34514752 1.4220494 2.2827158
0.36530668 1.4223697 2.2601287
0.5987969 1.4088948 2.2602444
0.60036749 1.4312749 2.2570503
0.23368409 1.4708941 2.294189
0.34072426 1.4881939 2.2851934
0.36692187 1.4759758 2.2605202
0.59198719 1.4788023 2.2562046
0.61285287 1.4864608 2.29124
0.3431758 1.5241452 2.2887251
0.36708954 1.5270854 2.2618287
0.6093986 1.5191277 2.2903051
0.34504214 1.5704142 2.2810793
0.36862904 1.5757365 2.2604349
0.58603716 1.5801651 2.2563481
0.6080578 1.5704522 2.2901275
0.34463257 1.6182641 2.2805371
0.37162679 1.626725 2.2573922
0.58667344 1.6349488 2.2584221
0.34439951 1.6677511 2.2803938
0.36936441 1.6760714 2.2590671
0.59294409 1.6908777 2.2847939
0.60293967 1.6561147 2.2858288
0.34164068 1.7183825 2.2864559
0.36919028 1.7229433 2.2584977
0.584194 1.7301496 2.2622683
0.61002737 1.7019868 2.2969811
0.34094101 1.7741131 2.277667
0.36939672 1.7789108 2.2611434
0.58534282 1.7797456 2.2635975
0.60323143 1.7602465 2.2997639
0.34240124 1.8149134 2.2770708
0.37121248 1.8138808 2.2549953
0.59275252 1.8223914 2.2789977
0.59131181 1.8589969 2.2871699
2.186687 2.3937013 2.2791359
2.1646948 2.4066656 2.2873216
1.9850254 -0.05435136 2.3316514
2.0056477 -0.054134972 2.3038986
1.9901849 -0.040696051 2.3379517
2.0242515 -0.025369277 2.3226631
2.0518959 -0.013083206 2.3051236
2.0396535 0.01700747 2.3345959
2.0656207 0.028658684 2.3202956
2.1024995 0.042779867 2.3087428
2.0444973 0.056651365 2.3483527
2.0792379 0.07241042 2.3318114
2.116997 0.081117138 2.3123622
2.0764244 0.1224307 2.3385148
2.1225314 0.1296287 2.3245227
2.09302 0.18432413 2.3449357
2.1305659 0.17798591 2.3316422
2.159277 0.17955412 2.3117125
2.0973539 0.21299687 2.3477437
0.26458061 0.33158833 2.3211942
0.24959722 0.37578517 2.322324
0.26892409 0.37239236 2.3138099
0.3617233 0.39258561 2.3105288
0.63882542 0.38621539 2.3013952
0.67097527 0.38383317 2.3393381
0.24965641 0.40392163 2.3197775
0.26567361 0.42193702 2.317713
0.64194143 0.42807037 2.3078027
0.67354977 0.4245418 2.3302824
0.78842562 0.42176726 2.3082013
0.26209405 0.47696084 2.3209054
0.64502633 0.47597092 2.3127642
0.67728788 0.47192129 2.316283
0.79073286 0.45197117 2.3111806
0.26280066 0.52558213 2.3202667
0.64895785 0.52502555 2.3200254
0.68003428 0.51084119 2.3030517
0.26538074 0.57394892 2.320107
0.64951217 0.55434579 2.3174138
0.65974653 0.5784139 2.3285141
0.78306431 0.58233994 2.3055484
0.80167741 0.55220681 2.3290081
0.26457161 0.60309583 2.3238475
0.3440634 0.63128746 2.3106942
0.3542254 0.63479453 2.3006206
0.63737071 0.62882948 2.3042002
0.66130012 0.62925202 2.3365481
0.35524204 0.6707229 2.3006537
0.64055276 0.68994212 2.3041866
0.65866405 0.66754323 2.3309033
0.34613043 0.73233736 2.3050349
0.35758367 0.73236406 2.3039238
0.64262515 0.72126818 2.3054183
0.66581792 0.71624923 2.3476887
0.24523142 0.79049051 2.3220015
0.2566461 0.79011416 2.3200326
0.64932626 0.78754777 2.3160245
0.65471631 0.77036804 2.3408096
0.24373341 0.83139753 2.3207967
0.25752795 0.8275857 2.3196602
0.63832742 0.8238073 2.312371
0.6563741 0.82581496 2.3338602
0.24287383 0.87822777 2.3278995
0.2597588 0.87562269 2.3294361
0.64667034 0.87631679 2.3317564
0.65784538 0.85742748 2.3315215
0.24223873 0.92214328 2.3271887
0.260039 0.90575343 2.3242114
0.6351853 0.92321229 2.3101883
0.65210783 0.94375306 2.3346758
0.24352071 0.97579861 2.3256209
0.25016272 0.97122812 2.3254526
0.34265494 0.97239923 2.3040102
0.35476255 0.98131728 2.3029563
0.63712084 0.97528583 2.3155832
0.65680146 0.98691368 2.3406858
0.23992847 1.0249102 2.3269725
0.25170964 1.0305365 2.3236656
0.34645471 1.0246592 2.3168635
0.35693634 1.0207361 2.3068264
0.64333773 1.0210782 2.3268847
0.24128753 1.0783799 2.3248754
0.25283644 1.0708688 2.3226097
0.34660047 1.0724972 2.3024955
0.63963401 1.0597969 2.3163342
0.6541639 1.093549 2.347882
0.23868498 1.1327757 2.3314521
0.25535378 1.123647 2.3315344
0.33719587 1.1340566 2.3020635
0.63407588 1.1250676 2.3196263
0.65549827 1.1204365 2.3441217
0.23995622 1.1778175 2.3339996
0.25793406 1.1774746 2.3400519
0.64366794 1.1643944 2.3328655
0.23952869 1.2260828 2.3312964
0.25911054 1.2133222 2.3394501
0.34189251 1.2224898 2.307111
0.63128424 1.2258731 2.311512
0.65164751 1.2349657 2.3403318
0.24079858 1.2762308 2.326391
0.34362897 1.2652078 2.3043296
0.62806892 1.2750298 2.3060796
0.2422442 1.3186766 2.3155217
0.6385203 1.327569 2.3309023
0.24115469 1.3698709 2.3176055
0.25100547 1.38222 2.3179309
0.63224006 1.3654565 2.3157077
0.23920463 1.416726 2.3105047
0.25175452 1.4112202 2.3135502
0.63718504 1.4212633 2.328459
0.63479739 1.4733123 2.3290038
0.63280636 1.526843 2.3250425
0.63311797 1.5671736 2.3231525
0.62746465 1.6297781 2.3223526
0.63226444 1.6585979 2.3190181
0.629466 1.7306793 2.3473337
0.62340653 1.7662046 2.3306434
0.62156743 1.8277231 2.333786
0.62771624 1.8734999 2.3387566
2.0287836 2.369777 2.3203752
2.0838268 2.3936889 2.3209352
2.1365247 2.3966019 2.3306999
2.1517708 2.3941603 2.3166575
2.1260111 2.4033413 2.3281035
2.1765137 2.4117546 2.3279071
2.2244139 2.4081533 2.3306816
2.2625024 2.4116211 2.3311338
1.966862 -0.054639481 2.3621826
1.9857575 -0.027114833 2.3746803
2.0046737 -0.022519937 2.3638999
1.9945416 0.00067577697 2.3958881
2.0171473 0.021707812 2.3696978
2.0258853 0.077955134 2.3788927
2.0643721 0.088033333 2.3596826
2.0387542 0.12566563 2.3846874
2.0645294 0.13089582 2.3553872
2.1389618 0.10112345 2.374002
2.0413294 0.16073544 2.3846681
2.0758462 0.17346318 2.3687108
2.0767674 0.20023233 2.3921511
0.6815818 0.39207876 2.3673239
0.68558437 0.42969534 2.3770278
0.67940819 0.47847152 2.3675053
0.68038774 0.52437067 2.367553
0.67752939 0.57329249 2.3550272
0.67853034 0.61929178 2.3674636
0.71134251 0.61240828 2.3962202
0.68286616 0.67410928 2.3731389
0.70236987 0.68341082 2.3961959
0.67543411 0.71629971 2.3679049
0.70387852 0.71306688 2.3956492
0.67537177 0.76215613 2.3616934
0.67828405 0.82008886 2.3709428
0.66942412 0.89070117 2.3677478
0.67521149 0.93346173 2.3712375
0.67577744 0.98047447 2.3841212
0.67386699 1.0278152 2.3705525
0.67966861 1.0747098 2.3840783
0.6778881 1.1248029 2.3813031
0.67564213 1.176607 2.3766828
0.66783452 1.2184099 2.3690197
0.26276514 1.2551647 2.3629837
0.67150152 1.2784905 2.374506
0.64824295 1.303089 2.3556232
0.66949683 1.3200893 2.3687863
0.66311097 1.3790849 2.365392
0.67249376 1.4350864 2.3822286
0.67206556 1.4821877 2.3831575
0.67078012 1.5199696 2.3840394
0.66851211 1.5769603 2.383786
0.66896749 1.6274993 2.3929677
0.66775197 1.6817203 2.3918905
0.63601285 1.7167437 2.3532796
0.65891403 1.7416797 2.384474
0.64756191 1.7959148 2.3668416
0.66274285 1.7724314 2.3859534
0.64053631 1.8090715 2.359015
0.64514059 1.8697695 2.3854098
0.63636315 1.9414001 2.3704016
0.65637565 1.9449553 2.3985844
1.9785867 2.39189 2.3873444
2.0392766 2.3935533 2.3704276
2.1364973 2.3986316 2.3749042
2.1673048 2.395581 2.3908451
2.2211163 2.3977015 2.39979
2.0237043 2.4044394 2.3771777
2.0905287 2.4139948 2.3886492
2.1219163 2.410851 2.3834412
2.183135 2.402389 2.3702199
2.2263021 2.4023745 2.3756897
2.2679517 2.4091704 2.3723006
2.308378 2.4143507 2.3670499
1.9845971 -0.013386878 2.4104238
1.9985253 0.014726429 2.4006193
2.0016069 0.035859291 2.4041023
2.0122423 0.078488484 2.415957
2.0204263 0.13098335 2.4131293
2.029254 0.17308076 2.4129596
2.0386229 0.20063952 2.4281893
2.0570714 0.20037197 2.4095747
0.71894342 0.63806838 2.427357
0.71200794 0.6645084 2.4190826
0.69435912 0.73390478 2.4031467
0.72059506 0.7423746 2.4499462
0.71139956 0.77523237 2.4295411
0.71167463 0.81986684 2.4285214
0.69100189 0.88464898 2.4029999
0.71125555 0.86922091 2.4244063
0.69458282 0.92009997 2.4072199
0.71080101 0.9127264 2.4211922
0.70938718 0.98690522 2.4248238
0.68668532 1.0069062 2.4022615
0.70768464 1.0255872 2.4271669
0.69416636 1.0932857 2.404531
0.71433949 1.0605946 2.442121
0.69890904 1.1197413 2.4145746
0.71302843 1.1307768 2.4313357
0.70762956 1.16574 2.4336202
0.69438154 1.2290214 2.4113746
0.71686125 1.2264287 2.4488051
0.6957556 1.2571152 2.4062617
0.71085632 1.2727032 2.4346118
0.69118714 1.3372406 2.4118428
0.70540583 1.3070717 2.4266748
0.69617224 1.3665278 2.4208884
0.70185077 1.3974338 2.4320698
0.6837709 1.4267682 2.4000361
0.70791036 1.4139396 2.4309318
0.69037318 1.4736177 2.4077926
0.71293426 1.4663956 2.4493494
0.69402593 1.5013313 2.4109905
0.70722443 1.5291195 2.4357955
0.68025851 1.5686376 2.4106531
0.69314384 1.6030793 2.4204121
0.68189442 1.6560056 2.4060416
0.70658463 1.6686927 2.4489202
0.68173981 1.7308029 2.4341023
0.67832994 1.8352225 2.4290919
0.67611867 1.9180861 2.4437954
0.67115432 2.0032761 2.4426289
1.9243263 2.3889558 2.4179919
1.9758972 2.3922565 2.4302952
2.0237992 2.3945367 2.4333622
1.9172987 2.4017897 2.4421108
1.9726521 2.4057736 2.4125261
2.0374658 2.4032207 2.406976
2.0873246 2.412941 2.4305954
2.1305051 2.4132354 2.4301529
2.1949482 2.4081376 2.434792
2.2056968 2.4003348 2.4146731
1.9975106 -0.013583897 2.4530125
0.73179245 0.68561614 2.4547715
0.76131749 0.67997599 2.489785
0.73582733 0.7266103 2.4608207
0.74000871 0.76829028 2.4668491
0.72786903 0.84359956 2.4533529
0.73339474 0.88782406 2.4625363
0.75333035 0.89017534 2.485718
0.73616141 0.9330163 2.473038
0.75596499 0.90605062 2.4911342
0.73674148 0.97058696 2.4723115
0.73062831 1.0275654 2.4632626
0.75181192 1.0198474 2.4941425
0.73387039 1.0751851 2.4737084
0.7357502 1.118354 2.4748569
0.72628802 1.183699 2.4610319
0.7277866 1.2273041 2.4647968
0.75493771 1.2002375 2.4998689
0.73463845 1.271806 2.4755955
0.72898477 1.3323005 2.4713109
0.72353572 1.3743472 2.4602845
0.73019356 1.4405395 2.474683
0.73411489 1.468593 2.4787889
0.73060471 1.5183796 2.481622
0.72365499 1.5779245 2.4748917
0.73057127 1.6260041 2.4929926
0.71151137 1.6664335 2.4734976
0.71372867 1.7296503 2.4772499
0.69360214 1.7891108 2.4600346
0.7137599 1.7831781 2.4903331
0.69724756 1.8126843 2.4645252
0.71358854 1.830345 2.4862978
0.69007117 1.8884668 2.4576654
0.70227027 1.8542883 2.464895
0.69016451 1.9210176 2.4637001
0.69726658 2.0224302 2.4905908
1.8233004 2.3810909 2.4698424
1.8525443 2.3854961 2.4583037
1.9313231 2.3887103 2.4674149
1.9806242 2.3909893 2.466476
2.0379515 2.3891671 2.4676244
2.0617454 2.3912783 2.483427
1.8938279 2.416158 2.4789138
1.9178269 2.4068165 2.4903307
1.9620681 2.4004571 2.493428
2.0313148 2.4021971 2.4928555
2.0898547 2.408293 2.463614
2.1260977 2.4101198 2.4635015
2.1568174 2.4055829 2.4566486
0.10894812 0.37255165 2.540571
0.11344018 0.4209373 2.545001
0.1133602 0.47778249 2.5365272
0.77066308 0.67484158 2.5151517
0.77389747 0.7367577 2.5296857
0.77130908 0.7736451 2.521847
0.76427102 0.82518911 2.5163333
0.76998204 0.87170017 2.5220265
0.7715047 0.93236899 2.5236781
0.76598483 0.96982199 2.5102618
0.77094764 1.0225837 2.525775
0.77019304 1.0796686 2.5237217
0.77226818 1.1190038 2.5267971
0.76704895 1.1770222 2.5235839
0.76934093 1.2332689 2.5218575
0.74890161 1.2783999 2.5024247
0.76629019 1.292641 2.5283756
0.7621839 1.3203417 2.5202708
0.74710405 1.3931109 2.5066116
0.76434684 1.3728043 2.5270593
0.74846452 1.4092017 2.5054126
0.76763266 1.4280343 2.5367706
0.7547943 1.4552708 2.5116873
0.7519753 1.5389897 2.5229897
0.74020922 1.5989918 2.5062661
0.76422143 1.5732015 2.5383747
0.75438577 1.6579695 2.5398569
0.74231982 1.7124116 2.5240912
0.73636925 1.7965534 2.5199184
0.75064147 1.7531953 2.5405831
0.74226248 1.8326849 2.5273767
0.73016268 1.8750314 2.517307
0.72926009 1.9208016 2.5228832
0.73051465 1.9808284 2.5309479
0.75027502 1.9864633 2.5490327
0.71821082 2.0250809 2.5188842
0.72533846 2.0602288 2.5336623
1.8260252 2.3985906 2.5148621
1.8819156 2.396904 2.5184281
1.9195702 2.3935044 2.5306978
2.0230026 2.3955574 2.5302434
1.7770345 2.4118028 2.5441847
1.8833725 2.4076114 2.5133119
1.9267113 2.4002917 2.5159202
1.9783913 2.4026182 2.5282085
2.0139055 2.4026058 2.5049932
0.11364828 0.34390312 2.5573788
0.1011963 0.37398648 2.5505109
0.10474004 0.42807391 2.5568848
0.10206411 0.45756349 2.5638227
0.80167031 0.68268329 2.5575209
0.79121947 0.72355241 2.5607302
0.81111169 0.71678811 2.5826695
0.79921341 0.79610342 2.5730813
0.81431723 0.77194184 2.5823081
0.79868078 0.8216579 2.5655634
0.81988847 0.82992953 2.5884912
0.80340916 0.86588287 2.5716114
0.79326403 0.93498433 2.5677667
0.81368035 0.91681314 2.5947211
0.79553074 0.97728306 2.5645568
0.81632054 0.96644896 2.5910552
0.79998612 1.0225899 2.5677838
0.80321819 1.0267258 2.578126
0.78564107 1.0676291 2.5535545
0.81185287 1.0782057 2.5939548
0.7914992 1.1357161 2.5537248
0.81443077 1.1086627 2.5939372
0.79740471 1.1643906 2.566124
0.80987465 1.1794622 2.5805879
0.81149834 1.2329236 2.595062
0.79336739 1.273793 2.5665877
0.80790633 1.2547439 2.5738704
0.793971 1.3209896 2.569732
0.80596423 1.3424233 2.5889881
0.78556842 1.3656318 2.5571241
0.80800509 1.3666558 2.5873308
0.79681903 1.4199728 2.579447
0.78298557 1.4689251 2.5620792
0.80509192 1.4769517 2.588165
0.78185892 1.5232556 2.5695355
0.78410041 1.5898526 2.5730267
0.77771282 1.6293806 2.5690625
0.77951968 1.6743701 2.5762699
0.77172345 1.7142454 2.5657053
0.7660228 1.7720579 2.5662217
0.77973109 1.8015988 2.577781
0.77676511 1.8737259 2.5950596
1.9176406 2.3932796 2.5525045
1.9537877 2.3981814 2.5795538
1.6895009 2.4113677 2.5945034
1.7473835 2.4312332 2.5906408
1.7736274 2.4118397 2.5765982
1.8329921 2.4132483 2.573822
1.885108 2.4163206 2.5810416
1.9235256 2.4229789 2.5955064
1.9911864 2.4110541 2.576031
3.1703582 -0.36522979 2.6358337
3.178175 -0.34126112 2.6394165
3.2252407 -0.32679063 2.6214135
3.1964633 -0.29337254 2.6481791
3.2294729 -0.27531636 2.6262465
3.1846149 -0.20957214 2.6447277
3.2267702 -0.21970969 2.6281986
3.2197614 -0.17315158 2.6252584
3.222255 -0.1271897 2.6293473
3.2259343 -0.071983762 2.6339586
3.227854 -0.025832888 2.636142
3.2259738 0.020335702 2.6345589
3.2232265 0.072015844 2.6348586
3.2592936 0.094900161 2.6433251
3.2325535 0.13136236 2.6370592
3.2245758 0.17718461 2.6282582
3.2288783 0.22363327 2.6287422
3.2244415 0.27946085 2.6375058
3.2656336 0.28145674 2.637217
3.2234566 0.32316279 2.6438277
3.2591488 0.31808177 2.6284187
0.83492935 0.69976866 2.618614
0.83735985 0.7283327 2.6211636
0.85862839 0.70843476 2.6480393
0.83836758 0.76864898 2.6280689
0.8325749 0.8115918 2.6193764
0.85059392 0.82050067 2.6459467
0.83402038 0.87776214 2.6253014
0.83987504 0.9311828 2.6321869
0.83413136 0.95920891 2.6297927
0.83640593 1.0233492 2.6287825
0.85107327 1.0255983 2.6455233
0.83392161 1.0757762 2.6219516
0.85411924 1.0635815 2.6452022
0.82907605 1.1261786 2.6151438
0.82870799 1.183146 2.6217008
0.83470184 1.2332708 2.6265821
0.85443974 1.2278711 2.6463404
0.82570636 1.2963308 2.6254916
0.83542532 1.3182464 2.6351931
0.8336522 1.3650664 2.6294096
0.81663907 1.4093025 2.6036434
0.83059287 1.4761331 2.6301546
0.82464147 1.5416356 2.6382551
0.8109954 1.5721202 2.6150661
0.8188383 1.6259857 2.6166224
0.81131643 1.6740549 2.6151664
0.79660082 1.7478732 2.6136479
0.78496891 1.7989473 2.603348
0.80076599 1.7791669 2.6153669
0.77752811 1.8606722 2.606292
0.79291439 1.9430604 2.6309023
0.81468129 1.9589171 2.6485498
0.78686845 2.0350304 2.6223512
0.78805178 2.0891528 2.6336896
0.76089644 2.1173515 2.6001425
1.7643366 2.3950913 2.6076908
1.57234 2.4056506 2.6499135
1.6284809 2.4114277 2.628392
1.6836137 2.4191685 2.6293654
1.730849 2.4194813 2.6130302
1.7660137 2.4214988 2.6468215
1.8277905 2.423789 2.6345737
1.8843371 2.4202862 2.6298556
1.9334255 2.4174125 2.623105
1.9872187 2.42099 2.6379399
3.0784142 -0.36321181 2.6923907
3.1225908 -0.36402956 2.6630182
3.0978088 -0.32781267 2.6963141
3.1267085 -0.32829961 2.6776683
3.1669998 -0.31997344 2.6547947
3.206372 -0.31278518 2.6546676
3.1322823 -0.27345982 2.6803389
3.1763554 -0.27046499 2.6535659
3.1348729 -0.22215489 2.6830945
3.1737399 -0.22361939 2.6600246
3.1244712 -0.17697906 2.6887736
3.1741958 -0.17493244 2.6650953
3.1280334 -0.12656714 2.6856909
3.1811075 -0.12711726 2.6628954
3.1270633 -0.075284161 2.6898119
3.1719501 -0.069151215 2.66414
3.135601 -0.022772089 2.6888249
3.1780665 -0.025817413 2.6626117
3.1309078 0.020011744 2.6903512
3.1795776 0.020172659 2.6638043
3.1343923 0.071415521 2.6891022
3.174129 0.070775606 2.666878
3.2017775 0.084966108 2.6642208
3.0800481 0.14720251 2.6935034
3.1482604 0.12120499 2.6858289
3.1778481 0.13692234 2.6705189
3.200726 0.11265475 2.6624439
3.1261697 0.18529876 2.6976538
3.1734006 0.1767903 2.6704063
3.1265223 0.22205441 2.695483
3.1772256 0.2209782 2.6750293
3.2009563 0.24201356 2.6551664
3.173831 0.2789551 2.6802902
3.2036834 0.26996377 2.6551297
3.1403913 0.32451677 2.6985033
3.1690567 0.32468167 2.6717937
3.210243 0.33538523 2.6542969
0.85859126 0.6950388 2.6503999
0.86817676 0.72154111 2.6608851
0.87217218 0.78071254 2.6777964
0.86621368 0.84256613 2.6687086
0.86591506 0.87398309 2.6686027
0.86233377 0.92729551 2.6601543
0.8638432 0.99128503 2.6733198
0.88176358 1.0318422 2.6982107
0.8704915 1.1189841 2.6854954
0.84958535 1.1515161 2.6541731
0.8624807 1.1718837 2.6756675
0.86414027 1.2206349 2.6835463
0.84851968 1.2818636 2.6601624
0.86722344 1.2868398 2.6852579
0.85365343 1.3321427 2.6606963
0.85765439 1.3669032 2.6623027
0.8492614 1.4193518 2.6672852
0.85461503 1.4427303 2.6782506
0.85867774 1.4713539 2.6819844
0.86469752 1.503556 2.6915565
0.85629618 1.5733557 2.6888714
0.84134293 1.6096224 2.6748128
0.86632967 1.6364176 2.6998217
0.83568096 1.7339907 2.6773739
0.8274107 1.7751521 2.665894
0.82757163 1.8921643 2.6730642
0.83448988 1.923378 2.6865151
0.83192939 2.0160289 2.6950641
0.81854707 2.0842836 2.6667032
1.396265 2.3727317 2.6891847
1.4253244 2.3639569 2.6633799
1.4712723 2.3828847 2.6681597
1.5210221 2.3895741 2.6917176
1.5596374 2.3954272 2.6807764
1.5290506 2.4059925 2.6725597
1.5782675 2.4088018 2.6644351
1.6261775 2.4120107 2.6801217
1.6723621 2.4165785 2.6759763
1.733287 2.420979 2.6750913
1.7796307 2.4222119 2.6813898
1.8303105 2.4219506 2.6792548
1.8791865 2.4287562 2.6746469
1.9144814 2.409467 2.6653166
1.9749088 2.4281905 2.657424
2.0863442 2.4366655 2.6881881
2.1081152 2.4296925 2.6620908
2.9326954 -0.36684909 2.7448866
2.9731634 -0.36582804 2.7379181
3.0214965 -0.36195388 2.726459
3.050519 -0.36320847 2.7186103
2.9826248 -0.32444668 2.7454991
3.0372841 -0.32630375 2.7275884
3.0750923 -0.32739067 2.7103615
2.9971826 -0.26151907 2.7478569
3.0331318 -0.27131751 2.7289226
3.0797987 -0.26865196 2.7063205
3.1011987 -0.29152495 2.7028468
3.0333805 -0.22585879 2.7326756
3.0826514 -0.22672975 2.7086713
2.9910259 -0.17953807 2.7477686
3.0308318 -0.18034405 2.7365575
3.0790846 -0.18109302 2.7156546
3.0332115 -0.12582377 2.7378924
3.0784714 -0.12611194 2.7104273
3.0318327 -0.071209356 2.7382469
3.0797999 -0.071397416 2.713212
3.0251667 -0.022705816 2.7385337
3.0794497 -0.027663628 2.72368
3.1225479 -0.035021268 2.7001855
3.029911 0.023340158 2.7404437
3.0785396 0.017230883 2.719969
3.0492334 0.065346457 2.7368917
3.0745077 0.074611492 2.719496
3.1190834 0.093520232 2.7127528
3.0263784 0.12893979 2.7481065
3.0638936 0.12939197 2.7308779
3.1188347 0.12651359 2.7078848
3.029556 0.17462763 2.7487636
3.0698752 0.17329413 2.7237859
3.1154265 0.17599142 2.7058573
3.0312052 0.21119678 2.7479701
3.0764489 0.22102004 2.7197185
3.0352206 0.26625153 2.7473788
3.0767586 0.27672365 2.7326353
3.1302223 0.27828726 2.7112229
3.0442481 0.33114588 2.7494028
3.0745926 0.31959689 2.732332
3.1151621 0.32746783 2.7218692
3.1246228 0.35244793 2.7160559
0.92087179 0.69851822 2.7088408
0.89413023 0.72642452 2.7121465
0.90724188 0.73147869 2.7293715
0.89921719 0.75812382 2.7222953
0.90849435 0.78683251 2.7462273
0.88713843 0.83555377 2.7150235
0.90574968 0.81924665 2.7307205
0.91358918 0.86127019 2.7468016
0.89530504 0.91289067 2.7241557
0.90343595 0.94229966 2.7438018
0.88833761 0.96161842 2.7136922
0.90256792 0.96949655 2.7341638
0.88513213 1.0217861 2.7123411
0.91009837 1.0342599 2.7420986
0.89172757 1.078774 2.7187419
0.91266799 1.0656011 2.7419698
0.89404321 1.1310523 2.7112064
0.88703257 1.1767038 2.7076628
0.90109456 1.1827221 2.7193096
0.88687044 1.21838 2.7112365
0.90921891 1.2149695 2.7368579
0.89596683 1.2596605 2.729383
0.90027857 1.2874341 2.7350392
0.88654584 1.3246832 2.7093313
0.91020221 1.3189534 2.7406132
0.88780868 1.3628286 2.7184737
0.90365326 1.3503503 2.7243919
0.88292122 1.4364599 2.7292945
0.90003204 1.4109945 2.7446964
0.88808829 1.4817747 2.7303076
0.90636224 1.4653326 2.7464252
0.87197632 1.5383161 2.7046595
0.87014407 1.5777409 2.7106287
0.8642813 1.6177019 2.7003949
0.85959882 1.6971326 2.707655
1.2712331 2.3639393 2.7308612
1.3269825 2.371686 2.7183075
1.3748325 2.3788328 2.7298031
1.4294733 2.3744876 2.7204344
1.4759587 2.3784361 2.7170291
1.5289656 2.388947 2.7161026
1.5761142 2.3897426 2.7330682
1.5976797 2.4089532 2.720504
1.6333352 2.4134979 2.728725
1.6821196 2.4236827 2.7382293
1.7213135 2.4181356 2.7221613
1.7750252 2.4224024 2.7261498
1.8178971 2.4223366 2.722549
1.8676591 2.4309523 2.7279651
1.9085268 2.4272928 2.7192478
1.9946258 2.438005 2.7495029
2.0266302 2.4429798 2.7374001
2.0683107 2.4482813 2.719311
2.8442173 -0.36485434 2.7939367
2.8737702 -0.36515307 2.7725666
2.9035208 -0.3654778 2.7508993
2.8320327 -0.32773256 2.7857606
2.8736525 -0.32043967 2.7771664
2.927675 -0.3223986 2.7617013
2.9720297 -0.33330259 2.7517881
3.0057192 -0.31681913 2.7507913
2.8775082 -0.2761431 2.7850273
2.9277265 -0.26845643 2.7667055
2.9717467 -0.2699565 2.7574329
3.0059745 -0.2895624 2.7536023
2.8748128 -0.23120129 2.7858713
2.9234123 -0.22316438 2.7660592
2.9792454 -0.22785212 2.7563407
3.0023277 -0.21654886 2.75594
2.8675175 -0.17708118 2.7821476
2.9177105 -0.17790832 2.7634132
2.9787583 -0.17948875 2.7566359
2.8475537 -0.11422284 2.7821593
2.8719609 -0.12801051 2.7803793
2.925503 -0.12446406 2.7732642
2.9785485 -0.12520239 2.7589514
3.0007689 -0.125651 2.7592525
2.8475981 -0.069809683 2.783392
2.8852596 -0.07027033 2.7866421
2.9268677 -0.070584208 2.7761109
2.980469 -0.070939198 2.758956
2.849822 -0.034297001 2.7861216
2.8728533 -0.022506112 2.78637
2.921267 -0.025567923 2.7714391
2.9780416 -0.025669366 2.757329
2.869561 0.019145621 2.7886713
2.9223468 0.019326108 2.7723849
2.9858694 0.019563032 2.7645423
2.8735106 0.076306038 2.7882273
2.9224107 0.073206611 2.7715733
2.9833369 0.073907174 2.7646699
3.0226388 0.074322432 2.7550473
2.8676913 0.12618504 2.7842448
2.9207973 0.12699251 2.7682583
2.9728963 0.12814654 2.7667265
3.0107272 0.12882167 2.7592857
2.8844669 0.18495405 2.7892299
2.9269092 0.17772415 2.774929
2.9790452 0.17373618 2.7702367
3.0042102 0.17417708 2.7595873
2.8979921 0.22598332 2.7912738
2.9337964 0.22115222 2.7719283
2.9810028 0.21922517 2.7691495
3.0170817 0.2248275 2.7595828
2.8761861 0.26994744 2.7889473
2.9202027 0.27561575 2.7884195
2.9702132 0.27351594 2.7716701
3.0207524 0.27987242 2.7584734
2.9282694 0.33065441 2.7908688
2.9785557 0.32542473 2.7779899
3.0235541 0.33084965 2.7646327
0.93307233 0.73400015 2.7630072
0.93472534 0.77614641 2.7837784
0.92876595 0.826442 2.7785442
0.92736816 0.8955794 2.7834363
0.92293239 0.91965407 2.7635067
0.95146984 0.94808507 2.7991145
0.92834866 0.98199022 2.7755878
0.92580098 1.025208 2.766053
0.93899822 1.079532 2.7743638
0.92208099 1.1196939 2.7578423
0.93318081 1.1767472 2.7778683
0.92667961 1.2284732 2.7656384
0.92266226 1.2839926 2.7601836
0.91142076 1.3950884 2.7635167
0.91763836 1.4231199 2.7657735
0.91204977 1.4745803 2.763593
0.91523337 1.5095752 2.761024
0.87245095 2.220839 2.7573717
0.8881402 2.2858214 2.7897956
0.88755631 2.3010068 2.7762978
1.147818 2.3564024 2.7679136
1.1825935 2.374824 2.7801366
1.229857 2.369499 2.7695458
1.2788939 2.3772268 2.770587
1.3245699 2.3723013 2.7759559
1.3710406 2.3688917 2.7701802
1.4221685 2.3769836 2.7820807
1.4766166 2.3813925 2.7790556
1.527643 2.3878934 2.7741377
1.5760504 2.3831458 2.7831244
1.6161276 2.3876605 2.7595394
1.6557621 2.3885095 2.780947
1.7298751 2.3986952 2.7986228
1.6312948 2.4147956 2.7519047
1.6767558 2.4134736 2.7804997
1.7192959 2.4143667 2.7700193
1.7680308 2.4133518 2.7722208
1.8183359 2.4243755 2.778815
1.8767701 2.4270253 2.7814631
1.9152712 2.4299207 2.7704468
1.9519066 2.4310722 2.7647266
2.8685648 0.054980874 2.8040173
2.8694928 0.17139895 2.800621
2.8768783 0.22571343 2.8044105
2.8397803 0.27852827 2.8139219
2.8627267 0.27006447 2.8037491
2.7892821 0.32251355 2.8425815
2.823926 0.32345131 2.8273449
2.8738821 0.32515362 2.8096044
2.9148431 0.30865097 2.8005908
1.4724694 0.58933365 2.8347423
1.5246235 0.58342463 2.8427522
1.4690365 0.6133604 2.8418047
1.5401309 0.6028536 2.8416719
0.95587415 0.76772839 2.8038216
0.94563174 0.81377828 2.8105607
0.94852006 0.85922384 2.8101139
0.95477074 0.87449318 2.826493
0.95631498 0.92405909 2.8202007
0.91627204 2.1898611 2.820688
0.9073146 2.2419019 2.8271234
0.9165976 2.2677643 2.8257034
0.92291737 2.3228502 2.8179839
0.94472063 2.3605664 2.8386576
0.98206097 2.3681269 2.8377659
1.0274215 2.3738792 2.8316312
1.0754654 2.3705478 2.8260233
1.126282 2.3706422 2.8202748
1.1765695 2.3714719 2.8321533
1.2180164 2.3727148 2.8223269
1.2761164 2.3698602 2.8256841
1.3211241 2.3711822 2.8320818
1.3655791 2.37222 2.8151731
1.4185579 2.3816476 2.8347709
1.4795011 2.3825989 2.8185756
1.5217974 2.3798571 2.8244958
1.5726835 2.3834553 2.8288574
1.6307156 2.3953958 2.8249235
1.6730938 2.3907995 2.8270164
1.7193582 2.3956594 2.8311286
1.6484917 2.4040635 2.8084438
1.7812322 2.4151821 2.8246009
1.8219069 2.4183736 2.821167
1.8672379 2.4209807 2.8284912
1.9118266 2.4203851 2.8160143
1.9655089 2.4385071 2.8284233
2.678611 0.31984547 2.8929882
2.7254305 0.32122505 2.8763456
2.7678013 0.32206941 2.8539622
1.39862 0.55523628 2.8870156
1.4277222 0.57778817 2.8778944
1.472935 0.56651139 2.8701141
1.5172138 0.56782806 2.8729548
1.5738612 0.57681435 2.857358
1.441872 0.62386829 2.881341
1.4736631 0.63351578 2.8657429
1.5342497 0.64313108 2.8944919
3.6035352 0.63969737 2.8658047
1.4717622 0.65108371 2.8771617
1.501295 0.6573959 2.8992422
1.5720114 0.87767327 2.8858554
1.5588735 0.90230453 2.8911364
1.3691961 1.0205433 2.883759
1.4454322 1.0234318 2.8932045
0.95612335 2.2359819 2.8918786
0.93642926 2.2720082 2.8603144
0.96319211 2.2868104 2.8908005
0.94311941 2.3223834 2.857702
0.9681142 2.3415117 2.8764112
0.98883748 2.3585441 2.8757055
1.027184 2.3672783 2.8759556
1.069717 2.3690605 2.8710763
1.1157808 2.3692405 2.880374
1.1717508 2.3662462 2.8723426
1.2339307 2.367866 2.8706222
1.2905898 2.378233 2.8920407
1.3230731 2.3728201 2.8715596
1.3806843 2.3827443 2.8777192
1.4262611 2.3797379 2.8773363
1.477053 2.3806031 2.8759749
1.5343409 2.3909883 2.8853893
1.5946159 2.3908975 2.8769746
1.624691 2.3904696 2.8718338
1.6767029 2.3873813 2.8790798
1.7228916 2.3904028 2.873903
1.7637379 2.3959754 2.8609142
1.8176498 2.4094071 2.8745251
1.870955 2.4195998 2.8719416
1.9309576 2.4215353 2.8783021
1.9728063 2.4237788 2.8753481
2.5943625 0.30048087 2.9341583
2.6224542 0.32135129 2.9265096
2.6620126 0.31997934 2.9081755
1.3926779 0.57398552 2.9090042
1.4106523 0.59027219 2.9074996
1.3936212 0.63411856 2.9401245
1.4201734 0.62474191 2.9224567
1.5494566 0.63404715 2.9257014
1.5755424 0.6275124 2.923032
1.6149926 0.61524928 2.9284391
3.5191469 0.6310215 2.9348004
3.5831299 0.64330721 2.9237978
1.3980289 0.67441303 2.9432151
1.4246953 0.66960156 2.917295
1.490669 0.67056048 2.930737
1.5264158 0.66682529 2.9112988
1.5823555 0.65675277 2.9495964
3.4777868 0.66588628 2.9430747
3.5292692 0.65964627 2.9318733
3.583209 0.66401386 2.9200528
1.4313885 0.71569014 2.931154
1.4583722 0.71604419 2.9310856
1.5712308 0.79971802 2.93818
1.5412703 0.83181208 2.9467099
1.5701004 0.82733756 2.9302301
1.5403503 0.88462049 2.9333034
1.5655773 0.86730492 2.9200208
1.5352644 0.92296505 2.9292839
1.5519613 0.90734625 2.9136353
1.4320856 0.97680146 2.9424887
1.3797747 1.017972 2.9362822
1.4231277 1.0087783 2.9198792
3.6400645 1.5697117 2.9401243
3.6851578 1.5705082 2.901334
3.8061135 1.6349841 2.9497705
3.8214424 1.675298 2.9483058
3.8301165 1.7128828 2.9414639
0.97268265 2.2166452 2.9242363
0.98606211 2.2571042 2.9311209
0.99573332 2.3314676 2.9255064
1.0242069 2.3543639 2.9128649
1.0778847 2.3625212 2.9166238
1.1245837 2.3642788 2.9130685
1.1722646 2.3675675 2.9293528
1.2198337 2.3696599 2.9250047
1.2718781 2.3796306 2.9296331
1.3275079 2.374433 2.9199831
1.3707743 2.3785214 2.9280529
1.4419928 2.3788209 2.9283793
1.4609098 2.3711081 2.9286036
1.5155264 2.3859558 2.9268258
1.5765135 2.3864839 2.9199574
1.6244128 2.3806353 2.9085898
1.6668673 2.3898983 2.9301338
1.7153062 2.3999183 2.9356809
1.7725838 2.3959317 2.9427552
1.8279505 2.3964031 2.9246721
1.882453 2.3980951 2.9305873
1.736143 2.4030411 2.9298966
1.7827466 2.4031672 2.9053893
1.9228227 2.401422 2.9130204
1.9777311 2.4121368 2.914119
2.2619631 2.4666824 2.9336443
2.3039944 2.45941 2.9173169
2.5314019 0.31787398 2.9760351
2.5739648 0.31882825 2.9590228
3.7109554 0.47871631 2.9792655
3.6871777 0.52063239 2.9926019
3.7271028 0.52329212 2.9863853
1.3887359 0.59013271 2.9748564
1.4069694 0.57847631 2.9774618
3.6921315 0.5637396 2.9902818
3.7228079 0.56522077 2.976614
1.3436903 0.63165969 2.9863997
1.3734229 0.62182969 2.9693372
1.5822049 0.64106107 2.9518754
3.3978524 0.63163555 2.9925921
3.4734221 0.62605524 2.9657366
3.5749164 0.62474149 2.9584558
1.3346109 0.67550856 2.9701478
1.3727189 0.67608041 2.9602604
1.6042222 0.65932453 2.9548287
3.4356847 0.66556954 2.9822307
3.4539495 0.6651957 2.9603214
1.3362768 0.70478892 2.957509
1.3815336 0.71622902 2.9782197
1.4180048 0.72909123 2.9696736
1.4872277 0.70295918 2.9747
1.4512575 0.76291925 2.9649792
1.5230993 0.78582734 2.9789517
1.5587082 0.78562194 2.9535682
1.4922335 0.83948791 2.9980373
1.5196079 0.82365924 2.9767613
1.4318975 0.88541937 2.9870198
1.468686 0.87445658 2.9796865
1.5133688 0.87483901 2.9644494
1.3933735 0.94235349 2.9794197
1.4229196 0.92229331 2.9688547
1.4727981 0.92706311 2.96876
1.5110027 0.92356908 2.9601765
1.3765563 0.97288644 2.9692004
1.4111323 0.96979696 2.9514847
1.492097 0.95893192 2.9842598
1.5199162 0.95980555 2.9769013
1.5505278 0.95703083 2.9758236
1.3421594 1.0206784 2.9770927
1.3715024 1.0049136 2.9593356
1.4712055 1.0101173 2.953058
3.5700989 1.5736234 2.9730735
3.6309719 1.5751461 2.9705987
3.6328661 1.6026362 2.9823346
3.6684682 1.6039226 2.9542456
3.732214 1.6221607 2.9673667
3.7670186 1.627682 2.9569957
3.7879167 1.6640081 2.9834943
3.8102372 1.6914438 2.9728897
3.7797952 1.7379596 2.9875546
3.808727 1.7245767 2.9579618
3.7793872 1.769641 2.9809504
3.8146801 1.7776453 2.9627612
3.7919521 1.8168433 2.987469
3.8155749 1.8173676 2.9680128
3.7873933 1.8825549 2.9972148
3.8067858 1.8695437 2.9794271
3.8003485 1.9233284 2.9922237
3.7491524 1.9889708 2.9965913
3.7652023 1.9626459 2.9818335
-0.012741128 2.2831621 2.9987416
0.021248719 2.2914476 2.9767504
1.021345 2.2714372 2.9956589
0.99832022 2.3026199 2.9562621
1.0280102 2.3303835 2.9868441
1.035028 2.3615985 2.9556293
1.0733302 2.3695109 2.9770217
1.1260877 2.3687594 2.9741738
1.169062 2.3658516 2.9746368
1.2374176 2.3767819 2.9856963
1.2783401 2.3860183 2.9842873
1.3255817 2.3806658 2.9782233
1.383873 2.3786199 2.9719026
1.4232165 2.3837121 2.9634595
1.4749535 2.3904238 2.9919121
1.52997 2.3903031 2.9676588
1.5699544 2.3922567 2.9801245
1.6203667 2.384016 2.9744051
1.6793028 2.3962264 2.9907498
1.7253907 2.3952987 2.9662492
1.7745185 2.392422 2.9798596
1.8312922 2.3947001 2.9682875
1.5408753 2.4073167 2.9888422
1.8873721 2.4095378 2.9922733
1.9716271 2.4095788 2.9674306
2.0133653 2.4155815 2.9765527
2.7686484 2.4491627 2.9951191
2.2223334 2.4566536 2.9669225
3.6814833 0.48198661 3.0061474
3.6240649 0.51904595 3.0370002
3.6608484 0.51986718 3.0095797
1.3821254 0.58422506 3.0201938
1.4109768 0.57088792 3.0264692
3.6310318 0.57291573 3.0347641
3.6653574 0.55224109 3.0085838
1.3374361 0.62653303 3.0298593
1.3533401 0.60519558 3.0124662
3.3933599 0.61413115 3.0300677
3.4288187 0.62370151 3.0222523
3.4857912 0.60272455 3.0389047
1.3298029 0.66515535 3.0204952
3.3841429 0.65319121 3.0144067
3.4180772 0.65584075 3.0066078
1.3967806 0.75151002 3.006237
1.415372 0.75308144 3.0071757
1.4313524 0.82827997 3.0225308
1.4745607 0.82172984 3.0083971
1.4215388 0.87311244 3.0244935
1.3471092 0.94842815 3.0172348
1.3843405 0.9281857 3.0198133
1.4124947 0.90242988 3.0113988
1.3446246 0.9796648 3.021277
1.3609922 0.96288282 3.0041144
1.5996648 0.99360448 3.0284503
1.3268842 1.0204316 3.0384138
3.6350012 1.6402892 3.0328031
3.6798382 1.6505352 3.0311115
3.7272022 1.6730273 3.0264201
3.7828603 1.6942 3.008615
3.7334769 1.7259614 3.0320749
3.7805505 1.7208315 3.0167115
3.6943376 1.7571527 3.043925
3.7240362 1.7792314 3.0357683
3.7610688 1.7788457 3.0157905
3.6856394 1.831515 3.0458381
3.7271233 1.8221035 3.0347118
3.7684243 1.835162 3.0132492
3.6919909 1.8573203 3.0408869
3.7255719 1.8818274 3.0356405
3.7603796 1.8803463 3.0140274
3.7298872 1.9277211 3.0266042
3.7723057 1.9206181 3.0082192
3.699569 1.9638834 3.0440619
3.7282929 1.9785343 3.0234728
3.7323563 2.0326786 3.0244317
3.7244937 2.081007 3.0299444
3.7546203 2.0731177 3.0067282
3.6945767 2.1356878 3.0453711
3.7218041 2.1497102 3.0232983
3.7070813 2.1776729 3.0383122
1.0225389 2.238903 3.0210083
-0.064473577 2.2714105 3.0488381
-0.03335318 2.2854073 3.0213406
0.021429529 2.2868512 3.0200424
1.0498071 2.2509768 3.0496576
1.0510225 2.2713387 3.0422931
3.70681 2.261076 3.0413077
1.0582843 2.3317666 3.0351138
1.0795989 2.3660834 3.0220134
1.1315209 2.372071 3.0333228
1.1970347 2.3859744 3.0128751
1.2193986 2.3807857 3.0264728
1.271468 2.3758655 3.0202875
1.3222214 2.3846049 3.0341909
1.3802143 2.3854511 3.0231674
1.4278059 2.3873622 3.020467
1.4670032 2.3890171 3.0338166
1.516489 2.3865108 3.0364869
1.5754023 2.394603 3.0369556
1.6408081 2.3894958 3.0413659
1.6701247 2.3910942 3.0300069
1.7032537 2.3980334 3.0250931
1.7534014 2.3961208 3.0409002
1.8087095 2.3939092 3.0087807
1.972954 2.3940282 3.0100133
1.5391426 2.4005089 3.0205307
2.5981822 2.4799433 3.0422049
2.6539679 2.5036678 3.0202284
3.5195081 0.44115126 3.0930469
3.5302191 0.47398475 3.0983882
3.5675659 0.47880283 3.0784805
3.536098 0.51681185 3.0977023
3.5790224 0.51854038 3.0764768
1.3755169 0.58165109 3.0871747
1.4090135 0.5718205 3.0822952
3.5425458 0.58093512 3.093641
3.5788276 0.57121485 3.0682402
1.3376006 0.62227362 3.083823
1.3636184 0.60105258 3.0778425
3.4461989 0.60295695 3.0808499
3.4870694 0.60650462 3.078547
1.4192939 0.82856154 3.084053
1.3939826 0.89502352 3.0543466
1.4101015 0.86585093 3.0808859
1.3801944 0.91991282 3.0767188
1.3780789 0.95406324 3.0902905
1.5274562 0.99958408 3.0782509
1.5747662 0.99844736 3.0561118
1.3248262 1.0230836 3.0776634
1.5317837 1.0206556 3.0685279
1.5854938 1.0217513 3.0727792
1.6140022 1.0241456 3.0703394
1.5613093 1.0550221 3.0749621
3.3737149 1.5633397 3.0681593
3.6261244 1.6462464 3.064435
3.591857 1.6954025 3.0950711
3.6222153 1.6660517 3.0811031
3.6704981 1.6786828 3.0530195
3.6220531 1.7175738 3.0880053
3.6775918 1.720771 3.0641634
3.6274655 1.7687097 3.0785785
3.6655679 1.7653303 3.0542045
3.6418052 1.8151643 3.0730584
3.6705327 1.8182976 3.0578847
3.5831437 1.8701227 3.095758
3.6312313 1.8663197 3.082823
3.6701996 1.8690078 3.0566626
3.6450651 1.9170719 3.081743
3.6832142 1.9384065 3.0607462
3.6329687 1.968195 3.0892479
3.6641643 1.9745538 3.0677984
3.6187992 2.0202301 3.0860326
3.6731238 2.0314546 3.07286
3.6326413 2.0803113 3.0948367
3.6726 2.0835397 3.0694978
3.6334522 2.1334624 3.0920219
3.6711221 2.123836 3.0706553
3.6702323 2.1647253 3.0720057
1.0319366 2.22404 3.0701299
1.0536077 2.2413263 3.0714595
3.6409016 2.2141969 3.0823865
3.6749697 2.2208674 3.0718133
3.7076459 2.2265854 3.0599248
-0.11686962 2.26952 3.0786023
-0.076593511 2.2799413 3.0825462
-0.03613228 2.2871187 3.0815356
0.021682471 2.2882702 3.0719376
3.6357279 2.2717667 3.0929914
3.6789126 2.2769678 3.0704846
3.6346259 2.3250809 3.0868649
3.664356 2.3306549 3.0641587
1.0868828 2.3640354 3.0543075
1.1205214 2.3722532 3.0811672
1.1783583 2.3850427 3.0789394
1.2208197 2.3785281 3.0708961
1.2689011 2.3830085 3.0608888
1.3239695 2.381341 3.0781353
1.372875 2.3861337 3.066998
1.425108 2.3890688 3.0781677
1.4769498 2.3865173 3.0668666
1.5268674 2.3876884 3.0893242
1.5712874 2.3838143 3.0640025
1.622627 2.3878758 3.0686154
1.6887976 2.3853579 3.0551369
1.7356793 2.3978779 3.0526233
1.7884462 2.3986163 3.0718668
1.8243589 2.398447 3.075779
1.8984882 2.3973725 3.0574851
3.5970898 2.3583858 3.0949161
3.615792 2.376087 3.0761759
3.6533067 2.3647206 3.0642204
1.8435465 2.4012573 3.093322
2.771837 2.4494476 3.0521407
2.826725 2.4480824 3.0669394
3.5767865 2.407079 3.0910623
3.6009185 2.4076762 3.0725141
2.5712092 2.4735935 3.0773318
2.6269093 2.4656875 3.0776639
2.6760786 2.4614055 3.0710487
2.7550097 2.4533727 3.0732183
3.3595161 2.4669106 3.067637
3.2091537 0.44479391 3.1471205
3.2744808 0.44828901 3.1347299
3.3006821 0.44912755 3.1216602
3.4954386 0.4407092 3.1106164
3.3399251 0.45172137 3.1204259
3.4773958 0.4724156 3.129298
3.5036201 0.48364964 3.1124499
3.4712343 0.52535415 3.1358969
3.5202734 0.53255546 3.1106405
1.3467489 0.59170109 3.1240289
1.3607762 0.57829082 3.1376715
3.4308572 0.5866009 3.1479335
3.473321 0.57806695 3.1297183
3.5199456 0.58064538 3.1128178
1.3262479 0.62143344 3.1263332
3.1993256 0.63831735 3.1460917
3.2260318 0.63766032 3.1153717
3.4405565 0.60738873 3.1338542
1.3828981 0.88295513 3.1282525
1.4034688 0.87900418 3.1229749
1.3667253 0.92682427 3.1206617
1.3670617 0.9715699 3.1265774
1.3622966 1.0066552 3.1293659
1.5735133 1.0466485 3.1032267
1.3401704 1.0740931 3.1269081
3.3122649 1.5644963 3.1292262
