ply
format ascii 1.0
comment PCL generated
element vertex 1437
property float x
property float y
property float z
element camera 0
property float view_px
property float view_py
property float view_pz
property float x_axisx
property float x_axisy
property float x_axisz
property float y_axisx
property float y_axisy
property float y_axisz
property float z_axisx
property float z_axisy
property float z_axisz
property float focal
property float scalex
property float scaley
property float centerx
property float centery
property int viewportx
property int viewporty
property float k1
property float k2
end_header
-0.31921825 0.075025976 0.58166909
-0.2966111 0.07759206 0.557253
-0.6161449 0.10159188 0.56575781
-0.58244336 0.10509751 0.56607044
-0.3192811 0.12393496 0.58124727
-0.29504901 0.12679394 0.55518198
-0.3195481 0.17436786 0.58116305
-0.29449865 0.17426568 0.55494922
-0.31860057 0.2243699 0.58021843
-0.29464349 0.22494288 0.55522537
-0.31918418 0.27471831 0.58049089
-0.29427457 0.27383053 0.55446315
-0.45485136 0.31838202 0.59529811
-0.44692206 0.34247684 0.58739668
-0.31960192 0.32400256 0.58051294
-0.29515895 0.32732615 0.55550534
-0.051880438 0.3346495 0.5849188
-0.040496644 0.33551997 0.59538031
-0.45416081 0.37323046 0.59540421
-0.44621387 0.36238372 0.59335405
-0.31843543 0.37487623 0.57916629
-0.29430896 0.374854 0.55434942
-0.054489475 0.38217303 0.58086151
-0.042519055 0.37733024 0.59262979
-0.45236772 0.41534287 0.5976063
-0.44490877 0.41313666 0.58479333
-0.31900468 0.42652777 0.57915252
-0.29073897 0.42518213 0.55562449
-0.056645539 0.42511749 0.57965165
-0.042380378 0.4242743 0.59196514
-0.45212924 0.47522771 0.5989536
-0.44708988 0.45028073 0.59001303
-0.31982496 0.47536093 0.57855314
-0.27095351 0.47185045 0.55726361
-0.23863967 0.48248145 0.58275658
-0.058965579 0.45747694 0.57841009
-0.042545903 0.4620811 0.59214854
-0.60460776 0.54498547 0.57429808
-0.57595557 0.53760344 0.58632803
-0.54109734 0.52553457 0.59954596
-0.32833788 0.5173198 0.5861938
-0.22669587 0.50278753 0.59679824
-0.60203254 0.55307806 0.57828981
-0.57243043 0.57212842 0.58649617
-0.52146882 0.57916254 0.57679307
-0.49091911 0.58545256 0.59242296
-0.45262045 -0.50167084 0.60501778
-0.4210676 -0.50399965 0.60990471
-0.37530819 -0.50311553 0.61201459
-0.34517431 -0.50464892 0.60759097
-0.16512857 -0.50313306 0.61432892
-0.12466419 -0.50454962 0.62367547
-0.074869312 -0.50308847 0.61588126
-0.02920286 -0.50147611 0.61193323
0.022691527 -0.50121218 0.60862261
0.078433976 -0.50202954 0.61523819
0.1260443 -0.50319028 0.62108868
0.17442517 -0.50309741 0.62297016
0.22421823 -0.50286359 0.62235719
0.275374 -0.50284898 0.62199998
0.3247622 -0.50235909 0.6221469
0.37369964 -0.50212872 0.61890179
0.42360708 -0.50191408 0.61876065
0.4747574 -0.50165457 0.61385053
0.52561462 -0.50120634 0.61608183
0.57211679 -0.50045037 0.60886049
0.62172908 -0.50057155 0.60631686
0.66467136 -0.50074542 0.60889167
-0.46478412 -0.46998286 0.61198884
-0.42782995 -0.47856155 0.63377023
-0.37587753 -0.48952335 0.63405907
-0.33795017 -0.48307395 0.61099255
-0.21656063 -0.47114927 0.61713326
-0.18316154 -0.4876197 0.6332531
-0.12184119 -0.49867415 0.64634937
-0.07767912 -0.49114636 0.63785577
-0.023261657 -0.4981907 0.63163048
0.024339031 -0.49788478 0.62866265
0.071362607 -0.49871773 0.63093925
0.11386187 -0.4989661 0.64177227
0.17480698 -0.49933782 0.64249647
0.22819065 -0.49909115 0.64408964
0.27500886 -0.49894184 0.64493811
0.32317409 -0.49908581 0.63765341
0.37324783 -0.49835184 0.6408959
0.42726389 -0.49888626 0.63541692
0.47556078 -0.4985449 0.63390642
0.52552968 -0.49842992 0.63455838
0.57431847 -0.49772528 0.62901962
0.62436849 -0.49750978 0.62566066
0.67749387 -0.49731311 0.62634057
0.72150719 -0.49606681 0.63179213
0.76230198 -0.49775091 0.64432263
-0.50001371 -0.40283614 0.6001901
-0.47288254 -0.42331725 0.62016022
-0.44131467 -0.429133 0.64343095
-0.3630529 -0.42873439 0.63822764
-0.33792025 -0.42635602 0.61583364
-0.22287896 -0.44026497 0.62452382
-0.19868977 -0.43804395 0.64890856
-0.084950514 -0.44167158 0.6478349
-0.50321686 -0.36896905 0.60320657
-0.4753392 -0.37473583 0.62657607
-0.44676971 -0.38443688 0.64819342
-0.36088291 -0.37369666 0.64116436
-0.3361235 -0.37299901 0.61668599
-0.083188087 -0.3828465 0.64196938
-0.039465472 -0.35276636 0.64024979
-0.50529122 -0.323715 0.60507536
-0.47697085 -0.32547802 0.63038689
-0.36007783 -0.32440281 0.64147699
-0.33727306 -0.32667097 0.61870277
-0.057966899 -0.34941533 0.61854303
-0.02899316 -0.32629085 0.64336592
-0.50624293 -0.27434185 0.60643774
-0.48111242 -0.27876064 0.62901288
-0.36128843 -0.27562419 0.64136827
-0.33810201 -0.2734029 0.61819512
-0.02160299 -0.28009087 0.64730859
-0.61572957 -0.20130908 0.60645759
-0.50846893 -0.23628032 0.60614371
-0.48942864 -0.23923416 0.62372071
-0.36101139 -0.22483762 0.63931721
-0.33865777 -0.22448473 0.61715299
-0.62244231 -0.19109716 0.61759132
-0.57809603 -0.18669458 0.63285172
-0.52349633 -0.18314047 0.6210078
-0.47795129 -0.17229912 0.64181918
-0.36340344 -0.17419514 0.63821918
-0.3381803 -0.17531526 0.61369765
-0.61176324 -0.12851417 0.61182433
-0.56233591 -0.12992263 0.60944098
-0.51951832 -0.12337077 0.62488699
-0.48127657 -0.12602811 0.64575535
-0.3672311 -0.12465548 0.63751662
-0.33912092 -0.12686272 0.61031324
-0.6148321 -0.067395508 0.60608399
-0.57538766 -0.067791104 0.61279893
-0.51909167 -0.072212376 0.63663304
-0.47225428 -0.073994055 0.64419103
-0.36725971 -0.074666493 0.63452137
-0.34082803 -0.073423162 0.60851258
-0.80288196 -0.02693421 0.64672184
-0.78137231 -0.022023072 0.63487506
-0.74880862 -0.0080787651 0.603513
-0.61944264 -0.038063869 0.61452299
-0.57535052 -0.022789141 0.61678714
-0.53726006 -0.015061001 0.63614881
-0.47053435 -0.034422807 0.64242047
-0.36735925 -0.026165128 0.632393
-0.34177682 -0.025504269 0.60772574
-0.60296273 0.044761937 0.60322672
-0.57430446 0.023452032 0.62229079
-0.54516506 0.0063349335 0.64172
-0.46903887 0.043515716 0.6448372
-0.37024951 0.022344045 0.63407326
-0.34385905 0.024128076 0.60792273
-0.60692161 0.060684424 0.6026985
-0.58422792 0.065835021 0.6139279
-0.50074989 0.093066737 0.64763737
-0.47310925 0.078242958 0.6442979
-0.36671489 0.075257242 0.62973768
-0.34309042 0.070682362 0.60619593
-0.56810999 0.11710256 0.61050087
-0.50148541 0.12984936 0.64801574
-0.47552603 0.12466858 0.6430068
-0.36799464 0.12481631 0.63047874
-0.34351486 0.12247958 0.606206
-0.5004884 0.17737612 0.64758205
-0.47409728 0.17453861 0.64173698
-0.36928543 0.17484137 0.63135332
-0.3443611 0.17310265 0.60667676
0.0039557912 0.19875887 0.64104307
-0.47229752 0.22423753 0.63819748
-0.36898637 0.22570179 0.63075876
-0.34402496 0.22352627 0.60626155
-0.020898096 0.24476227 0.61730146
0.0075771729 0.22677191 0.6455273
-0.46943921 0.27521631 0.63608229
-0.36973324 0.27527875 0.63086885
-0.34515935 0.27103439 0.60726917
-0.01273708 0.28367886 0.6242587
0.0062897741 0.2750985 0.6437034
-0.46559972 0.32428133 0.63321894
-0.36890423 0.32523027 0.62990713
-0.34506974 0.31925407 0.60647577
-0.017175462 0.32709929 0.61908847
0.0060666092 0.32454342 0.64290607
-0.46276775 0.37416005 0.63508946
-0.3679885 0.37396091 0.62876928
-0.34284675 0.3748979 0.6044699
-0.11056086 0.38841939 0.63279098
-0.090546571 0.38754198 0.61733913
-0.01860946 0.37437513 0.61716247
0.0059535331 0.37438953 0.64244413
-0.46088547 0.4234423 0.63652885
-0.36865252 0.425338 0.62872982
-0.34406921 0.42049727 0.60432804
-0.11126146 0.42592305 0.6335327
-0.086999215 0.42551205 0.61866128
-0.018044483 0.42444974 0.61752963
0.0062378044 0.42380154 0.64257932
-0.45886141 0.4750334 0.6315468
-0.44504398 0.4795334 0.64665955
-0.37162519 0.47652504 0.63052893
-0.34568024 0.47294918 0.60496855
-0.21458222 0.48631507 0.61502236
-0.19434564 0.49402753 0.63697869
-0.10975137 0.47558081 0.63353175
-0.087367378 0.47242779 0.61822808
-0.016874369 0.47158703 0.61879963
0.0063998979 0.47427529 0.64266902
-0.55797392 0.54385 0.60362977
-0.52154464 0.53573298 0.61727291
-0.4678992 0.52759832 0.62874293
-0.44111967 0.52475697 0.64340013
-0.37188777 0.52522838 0.6288954
-0.3453055 0.51510042 0.60379618
-0.21109323 0.51060194 0.61699498
-0.19175082 0.51912659 0.63889551
-0.11127605 0.50738168 0.63489622
-0.097287923 0.50209647 0.62491626
-0.0045494232 0.50375664 0.6332016
0.0072277086 0.50592911 0.64363694
-0.55940962 0.56293738 0.60573691
-0.52612662 0.57226706 0.62089813
-0.46998569 0.5766654 0.62192392
-0.43672588 0.57550442 0.64030331
-0.3805418 0.56557894 0.6357879
-0.45243737 0.60220832 0.62988377
-0.43577632 0.60325837 0.64138216
-0.11951539 -0.50130922 0.66612732
-0.082845002 -0.50082195 0.69633675
0.13221855 -0.50078827 0.65764111
0.17185102 -0.50068724 0.66469139
0.22043814 -0.50033551 0.65917128
0.27299973 -0.5008406 0.65708667
0.32205892 -0.50050396 0.65489042
-0.40750906 -0.46101335 0.65707159
-0.39171395 -0.47310513 0.65681624
-0.16757631 -0.47072875 0.66723204
-0.13353068 -0.48827025 0.68245083
-0.065624356 -0.4863916 0.67030531
-0.026564853 -0.4924936 0.67188025
0.024480373 -0.4954924 0.67333227
0.075388253 -0.49576032 0.67329872
0.12424614 -0.49755237 0.6761598
0.17592983 -0.49865785 0.67700821
0.22483556 -0.49805328 0.67520255
0.27407706 -0.49768087 0.67604494
0.32427514 -0.49715257 0.67576712
0.37447694 -0.49663293 0.67532736
0.42468303 -0.49609879 0.67470115
0.47502688 -0.49589813 0.67468715
0.52394795 -0.49514416 0.67534572
0.57334268 -0.49518183 0.67411625
0.62342483 -0.49527693 0.67510986
0.67378479 -0.49417263 0.67340708
0.72532409 -0.49376771 0.67685163
0.77489579 -0.49388546 0.67419457
0.82020485 -0.49386784 0.6850751
0.85503495 -0.49773151 0.69503635
-0.41794947 -0.42382711 0.66025376
-0.3873724 -0.42211634 0.6589219
-0.17262459 -0.43646207 0.67540884
-0.11579635 -0.43378571 0.69389242
-0.078415334 -0.42708522 0.68299943
-0.42430291 -0.37517151 0.66434002
-0.38650545 -0.37455514 0.66291022
-0.1377331 -0.36131671 0.68657684
-0.064744808 -0.39497662 0.67550802
-0.015698656 -0.35286707 0.6657095
0.011717103 -0.35445684 0.69561726
-0.45242062 -0.31817576 0.65142375
-0.42634758 -0.32616454 0.6679641
-0.3848756 -0.3255128 0.6624856
-0.11657265 -0.32107186 0.66685796
-0.012183639 -0.32441664 0.66083735
0.011935745 -0.32317263 0.68519437
-0.4538638 -0.2893346 0.65359133
-0.41810027 -0.27676457 0.67547429
-0.38534626 -0.27532914 0.66276288
-0.0086026751 -0.28045627 0.66094404
0.015335557 -0.2737712 0.6840207
-0.5604617 -0.20265554 0.69130808
-0.54195642 -0.20089932 0.68333179
-0.41535714 -0.22531025 0.67786223
-0.38550577 -0.22412921 0.66098046
-0.0024604166 -0.24068958 0.66293919
0.021444848 -0.22407404 0.68356842
-0.5583505 -0.18940096 0.66708237
-0.5253607 -0.18335789 0.67401886
-0.46681213 -0.16757998 0.65730178
-0.42872098 -0.17271706 0.67576218
-0.38809586 -0.17521885 0.6598289
0.030811304 -0.17678025 0.68765688
-0.85941994 -0.11256808 0.69437283
-0.84290904 -0.10501391 0.6870898
-0.50211757 -0.11843362 0.65110356
-0.4681187 -0.12499715 0.65856433
-0.43049216 -0.12560922 0.67748928
-0.39142358 -0.12634926 0.65862995
0.036533419 -0.12603618 0.69078606
-0.85665077 -0.087358057 0.68834394
-0.83043379 -0.073937953 0.6823929
-0.78564984 -0.069298171 0.673141
-0.73660702 -0.069876112 0.65397304
-0.50431687 -0.075765781 0.65684026
-0.46557197 -0.075150229 0.65765846
-0.43115839 -0.074601911 0.67491144
-0.39133766 -0.078306541 0.65602875
0.041321803 -0.077883728 0.69277173
0.051085904 -0.050222799 0.69965506
-0.81366128 -0.03939816 0.65658182
-0.79717004 -0.036029927 0.65006948
-0.570894 -0.026399216 0.65264881
-0.51629937 -0.021569274 0.66410941
-0.46547744 -0.02712038 0.65640843
-0.43203306 -0.02536761 0.67371881
-0.3938539 -0.028867211 0.65692753
0.042803679 -0.026601505 0.69164729
0.051016252 -0.010023146 0.69977677
-0.56516463 0.026052941 0.65633774
-0.52933943 0.021576026 0.66832811
-0.46163452 0.025736539 0.65600199
-0.43267524 0.023934579 0.67211938
-0.39418265 0.029061856 0.65685749
0.042379323 0.025449837 0.68837076
0.051240768 0.024319964 0.69711256
-0.51020199 0.069330603 0.65956223
-0.46201536 0.073387317 0.65485132
-0.43151134 0.075218067 0.67196786
-0.39380869 0.07419093 0.65578783
0.040056463 0.076589108 0.68355387
0.053020075 0.077494644 0.69666177
-0.5707466 0.10343921 0.66740781
-0.50758666 0.11629806 0.65629601
-0.45551202 0.12604021 0.65442103
-0.43185338 0.12527905 0.67114347
-0.39435977 0.12734555 0.65608776
0.037238251 0.12598097 0.67889333
0.053718943 0.1263236 0.69513768
-0.45497638 0.17519085 0.65511942
-0.43121523 0.17443602 0.67091084
-0.39391029 0.17503601 0.65492332
0.034706607 0.17653492 0.67497939
0.054880332 0.1753085 0.69497561
-0.45488867 0.22356845 0.65511608
-0.43145907 0.22462933 0.67094082
-0.395145 0.22242881 0.65592635
0.031325296 0.22474074 0.67012286
0.055024832 0.22434399 0.69468504
-0.45510998 0.27549046 0.65500426
-0.43099904 0.2744709 0.67002887
-0.39468488 0.27129003 0.65481734
0.031274464 0.27472252 0.66928118
0.055134282 0.27468598 0.69464183
-0.45481473 0.32461184 0.65386218
-0.4308764 0.32456422 0.66888535
-0.39396128 0.32651979 0.6547159
0.030949472 0.3245866 0.66884947
0.055293422 0.32598984 0.69391686
-0.45284811 0.37380084 0.65214968
-0.43086022 0.37447062 0.66707784
-0.39279604 0.37487116 0.65321815
-0.12960653 0.38495135 0.65425682
0.030769095 0.37490872 0.66870326
0.055909775 0.37542582 0.69442731
-0.45332006 0.42899355 0.65171885
-0.43100354 0.4240256 0.66510051
-0.39577916 0.42238861 0.65499032
-0.16002029 0.4381012 0.67932492
-0.13216218 0.42603472 0.65666455
0.031879406 0.42477456 0.6695655
0.056637544 0.4239625 0.69530207
-0.45025545 0.45975953 0.65412164
-0.42736697 0.47455418 0.66350961
-0.394714 0.47235304 0.65267879
-0.16348056 0.48464403 0.67173237
-0.13442646 0.47412729 0.66175294
0.031044405 0.4746618 0.66886622
0.055296823 0.47647494 0.69346023
-0.42251053 0.52364898 0.66130954
-0.39719185 0.52127355 0.65299445
-0.16385436 0.52283323 0.66769564
-0.13741919 0.52024984 0.66621661
0.033533391 0.51895213 0.67146969
0.055875953 0.52082813 0.69438815
-0.49230191 0.57827437 0.65051353
-0.41828257 0.57367033 0.66049242
0.049195908 0.5543083 0.69533771
-0.41664636 0.60473591 0.66005307
-0.077474177 -0.50167882 0.71097183
-0.1238152 -0.47125033 0.71112776
-0.077642843 -0.48564112 0.73256028
-0.025776891 -0.495819 0.72530019
0.024892215 -0.49576774 0.72377467
0.075733185 -0.49452722 0.72353905
0.12557398 -0.49428499 0.72320718
0.17582509 -0.49540746 0.72334433
0.22539648 -0.49540186 0.72440279
0.27453893 -0.4942545 0.72500783
0.32444048 -0.49347681 0.72552574
0.37484005 -0.49320081 0.72416681
0.42428985 -0.49222568 0.7261247
0.47421366 -0.49187726 0.72353184
0.52505243 -0.49138874 0.72458577
0.57531536 -0.4922078 0.7234391
0.62453902 -0.49148646 0.72462243
0.67591143 -0.49135077 0.72325879
0.72489983 -0.49184754 0.72519106
0.7739175 -0.49287909 0.72665823
0.82120532 -0.49365532 0.72369003
0.87123841 -0.49532822 0.72656304
0.91630942 -0.49733451 0.73841858
-0.1546476 -0.42495754 0.70017129
-0.12799078 -0.42632559 0.71772063
-0.063299917 -0.42773017 0.71998525
-0.047082324 -0.42522556 0.72333461
-0.15289409 -0.37888888 0.70983499
-0.1318513 -0.39087677 0.72312951
0.02644301 -0.35154098 0.70654172
0.058164477 -0.35432935 0.74232477
0.037717175 -0.32529515 0.71205354
0.062893115 -0.32405204 0.73697609
0.040044859 -0.27662486 0.70955259
0.064604498 -0.27397457 0.73402584
0.043441799 -0.22564664 0.70622468
0.06750109 -0.22513531 0.73067313
-0.86218739 -0.15641385 0.74353552
-0.83110809 -0.1610174 0.73898864
0.046723235 -0.1778509 0.70456654
0.070802502 -0.17431824 0.72859484
-0.85829324 -0.13317482 0.73094678
-0.83792263 -0.11076684 0.72497982
-0.79972881 -0.10365617 0.72958362
0.047245052 -0.131231 0.70240617
0.072139531 -0.12474883 0.7268647
-0.85117096 -0.098054573 0.70742279
-0.82857376 -0.092702553 0.710186
-0.79677534 -0.089829959 0.70597929
0.048025616 -0.092644095 0.70126373
0.07289651 -0.074719638 0.72465646
0.074525379 -0.026292928 0.72373158
0.10154745 -0.0089715477 0.74888802
0.075934067 0.024179358 0.72228032
0.10138676 0.026191909 0.74732494
0.077323034 0.074649386 0.72189212
0.10217133 0.074009463 0.74623346
0.078185663 0.1243732 0.72113544
0.10338695 0.12646417 0.74626839
0.079719558 0.17437097 0.72132194
0.10430823 0.17563958 0.74598157
0.079599991 0.22437428 0.72016466
0.10500704 0.22924642 0.74624783
0.078482933 0.27494437 0.71847308
0.10399847 0.273994 0.74474043
0.080602162 0.32481226 0.72039092
0.10517655 0.32251278 0.74570608
0.080103911 0.37420189 0.71980035
0.10395619 0.37155244 0.744084
0.081053592 0.42451647 0.72059292
0.10508318 0.42480174 0.74494076
0.080079094 0.47445881 0.7194739
0.1047973 0.47423759 0.7450757
0.080361612 0.52260351 0.72017914
0.10433539 0.52359194 0.7447232
0.072089389 0.55857629 0.72375649
0.92826396 -0.50012374 0.77386028
0.96989822 -0.50218016 0.77873927
1.0098286 -0.50183678 0.79584873
-0.076517895 -0.46378654 0.75474012
-0.027622962 -0.4844833 0.77615666
0.023612419 -0.4948993 0.77420199
0.073913895 -0.49474886 0.77572519
0.12499815 -0.49373448 0.77230608
0.17414987 -0.49274981 0.7746861
0.22431707 -0.49183553 0.77402443
0.2756229 -0.49096516 0.77571458
0.32446238 -0.48995507 0.77486187
0.3745178 -0.489829 0.77429557
0.42535385 -0.48909163 0.77608675
0.47568563 -0.48873189 0.77389568
0.52384692 -0.48896617 0.7758112
0.57438225 -0.48936731 0.77372324
0.62324697 -0.48850796 0.77557433
0.67328203 -0.48919812 0.77553838
0.72431582 -0.49051425 0.7743603
0.77618545 -0.49249879 0.77727079
0.82283717 -0.49373707 0.77227736
0.87329227 -0.49535477 0.77308351
0.92616868 -0.49739355 0.77638483
0.96598476 -0.49736613 0.77495569
-0.081607819 -0.44728923 0.75561726
-0.037634291 -0.44338831 0.79590476
0.083170213 -0.35188857 0.76414186
0.10997554 -0.350795 0.78978443
0.087887935 -0.32420096 0.7624982
0.1135654 -0.32325694 0.78775716
0.089159407 -0.27649391 0.75927997
0.11410952 -0.27349672 0.78352225
0.093200929 -0.22566211 0.75700444
0.11764484 -0.22394316 0.78132504
-0.86456043 -0.15865462 0.76118517
-0.83630657 -0.15459283 0.7544651
0.095015034 -0.17870978 0.7535606
0.11982121 -0.1741471 0.77876794
-0.85663134 -0.13595419 0.75819361
-0.83325779 -0.13252729 0.75948542
0.097952157 -0.12438218 0.75347883
0.12229556 -0.12462996 0.77792215
0.098701254 -0.081698194 0.75203884
0.12326748 -0.074428618 0.77575159
0.1242542 -0.026156595 0.77405846
0.12510936 0.023969404 0.77220291
0.15122409 0.027413923 0.79782987
0.12579224 0.075035572 0.77134365
0.15139769 0.074378341 0.79675579
0.12738115 0.12430434 0.77192271
0.15223224 0.12415746 0.79703224
0.12871338 0.17453839 0.77213097
0.15396604 0.17563337 0.79814756
0.12812237 0.22429974 0.77060139
0.15280817 0.22684613 0.79634464
0.12893918 0.27515179 0.77097809
0.15364672 0.27133471 0.79602402
0.12910062 0.324386 0.77044147
0.15462594 0.32708025 0.79607022
0.12872867 0.37544116 0.77009988
0.15473919 0.37370992 0.79633123
0.12928517 0.42532012 0.77065307
0.15409563 0.41906896 0.79576159
0.12939511 0.47432956 0.77049106
0.15419436 0.47533447 0.79608738
0.12902921 0.52348864 0.77079678
0.15465991 0.52103829 0.79782975
0.12174951 0.55598027 0.77230442
0.92747837 -0.50143868 0.83295876
0.98104727 -0.50202507 0.82843763
1.0298038 -0.50453144 0.83024752
1.0601534 -0.50633949 0.83041412
-0.015036651 -0.46735132 0.81331694
0.02153847 -0.48260933 0.82682389
0.074985124 -0.49294946 0.82741922
0.12606846 -0.49358144 0.8243019
0.17554238 -0.49168423 0.82451814
0.22495015 -0.48939815 0.8245309
0.27373829 -0.48837262 0.82502437
0.32438719 -0.4869892 0.82492393
0.37502965 -0.48577628 0.82547516
0.42508137 -0.48528573 0.82534367
0.47389501 -0.48553738 0.82227343
0.52442372 -0.48532391 0.82687587
0.57445705 -0.48599559 0.82467067
0.62525666 -0.48620442 0.82385224
0.67490441 -0.48778063 0.82700616
0.72380006 -0.48981854 0.8237921
0.7744475 -0.49159387 0.82435668
0.82629979 -0.49436033 0.82462162
0.86915803 -0.49545893 0.82355058
0.92206645 -0.49835151 0.82336223
0.96903688 -0.49956444 0.81826603
-0.017891584 -0.44484296 0.81638652
0.0067561483 -0.44480446 0.84014565
0.1389011 -0.35060349 0.81867647
0.16999365 -0.35071188 0.84966737
0.1371823 -0.32394677 0.81088448
0.16338028 -0.32305056 0.83578151
0.13998465 -0.27720287 0.80928236
0.16554533 -0.27331087 0.83397543
0.14263122 -0.22517359 0.80659366
0.16753419 -0.22512132 0.83098346
0.14558205 -0.17941636 0.80502105
0.17063053 -0.17413047 0.82945323
0.14711858 -0.12299602 0.80277091
0.17207994 -0.12517035 0.82739991
0.14847907 -0.079855517 0.8020829
0.17423677 -0.074460745 0.82655537
0.17488551 -0.025944855 0.82437259
0.2033512 -0.01132859 0.84957522
0.17575672 0.023830136 0.82287645
0.20320773 0.029938793 0.84859961
0.17640895 0.075188227 0.8225078
0.20345744 0.075786047 0.84768099
0.17724591 0.12505701 0.82330495
0.20231503 0.12384588 0.84809405
0.177045 0.17453274 0.82188064
0.2016027 0.17748331 0.84620804
0.17783384 0.22479688 0.82204872
0.20373273 0.22491285 0.84950137
0.17779195 0.27477452 0.82109338
0.20214559 0.28041017 0.84565163
0.17915198 0.32537052 0.82229966
0.20388196 0.32660171 0.84697837
0.1783226 0.37453768 0.82085735
0.20269886 0.37532669 0.84599698
0.1790449 0.42451492 0.82165748
0.20263349 0.42139271 0.84439099
0.1787926 0.47364232 0.82084876
0.20376191 0.47337019 0.84635073
0.17906684 0.52250302 0.82175213
0.20341372 0.51736432 0.84655654
0.16957784 0.55299217 0.81951714
0.89532071 -0.50196892 0.86645836
0.92413235 -0.50109571 0.87395233
0.97945648 -0.50525194 0.87503582
1.0241421 -0.50735146 0.88103366
1.0769509 -0.51106232 0.87450594
1.1085745 -0.51320523 0.86285287
0.03484029 -0.46662143 0.86208665
0.071165092 -0.47988737 0.87767392
0.12410983 -0.49189699 0.87507498
0.17509606 -0.49123347 0.87452477
0.22445759 -0.48855028 0.87296325
0.2752291 -0.48587772 0.87524635
0.32538033 -0.48446509 0.87548816
0.37568599 -0.48250815 0.87473196
0.42500162 -0.48151034 0.87431961
0.47456086 -0.48178658 0.87273121
0.52482355 -0.48256749 0.87544119
0.57509792 -0.48275989 0.8751002
0.62432784 -0.48505661 0.87535888
0.67296767 -0.48676544 0.87476361
0.72686344 -0.48914465 0.87445915
0.77367032 -0.4906207 0.87461555
0.82555676 -0.49451995 0.87396479
0.86739004 -0.496185 0.87669736
0.91612273 -0.49825263 0.87094468
0.032181013 -0.44435635 0.86389041
0.059133437 -0.44275078 0.88888425
0.18688402 -0.35148454 0.86759794
0.18940939 -0.32270625 0.86097175
0.21573316 -0.3236821 0.88635832
0.19022228 -0.27633065 0.85833567
0.21615332 -0.27451375 0.8830663
0.19277787 -0.22654662 0.85580492
0.21973589 -0.22346248 0.88141358
0.19635911 -0.1762529 0.85445398
0.22311908 -0.17439553 0.87969983
0.19607197 -0.13199104 0.85107505
0.22289154 -0.12431905 0.87576181
0.19981706 -0.080719583 0.8503294
0.22440991 -0.074887797 0.87477827
0.25196493 -0.052774478 0.89855862
0.22513758 -0.026443625 0.87267202
0.25165167 -0.027453182 0.89811867
0.22515622 0.023334445 0.87071794
0.25134447 0.026013512 0.89570534
0.2262297 0.074523926 0.87144315
0.25424352 0.07630755 0.89653701
0.22676091 0.12526733 0.87360007
0.25302514 0.11273835 0.89850909
0.22794424 0.1746023 0.87344807
0.25427216 0.15992269 0.89812821
0.22647405 0.22414228 0.87160224
0.25258717 0.22577673 0.89723134
0.2267271 0.27452043 0.87101901
0.25286669 0.28286082 0.8968541
0.22721042 0.32551336 0.87104577
0.25274527 0.32720444 0.89626855
0.22749828 0.3751922 0.87079859
0.25360185 0.38194907 0.89607716
0.22725815 0.42549616 0.87047106
0.25859839 0.42647675 0.89666218
0.22843412 0.47488678 0.87172693
0.25604054 0.47242448 0.89674073
0.2289478 0.52523392 0.87200117
0.25484148 0.52141565 0.89622712
0.22224993 0.55275148 0.87360948
0.075805284 0.68612236 0.85971594
0.091423541 0.70688915 0.89208531
0.87545699 -0.50063616 0.93151343
0.92087871 -0.50253427 0.92169595
0.97202712 -0.50706083 0.92140996
1.0241683 -0.5100041 0.93112057
1.0733877 -0.51408184 0.92788762
1.1083455 -0.51679504 0.9397921
0.086489879 -0.46619686 0.91086376
0.12169929 -0.47864115 0.92677683
0.17571381 -0.48974639 0.92534405
0.22527987 -0.48824477 0.92461509
0.27547941 -0.48456249 0.92618734
0.32598174 -0.48204041 0.92300379
0.37606809 -0.4802185 0.92527395
0.42504168 -0.47822767 0.92400521
0.47512925 -0.47784781 0.92294377
0.52463555 -0.479065 0.9237029
0.57305163 -0.48165143 0.92716229
0.62492454 -0.48378539 0.92606562
0.67486203 -0.48570395 0.92710847
0.72399545 -0.48813686 0.92484808
0.77489126 -0.49096137 0.92450446
0.82228214 -0.49410516 0.92424995
0.87150645 -0.49795949 0.92398542
0.085535459 -0.44395271 0.91431618
0.11103246 -0.44222513 0.93813407
0.24002361 -0.32362068 0.90912402
0.26635763 -0.32318985 0.93397731
0.24196456 -0.27555233 0.9075008
0.2680943 -0.27512014 0.93298018
0.24406098 -0.22757357 0.905316
0.26698816 -0.22449809 0.92648172
0.24736385 -0.18711218 0.9038946
0.26776627 -0.17391534 0.92097366
0.24948657 -0.12414827 0.9017204
0.26779994 -0.12504065 0.91778994
0.26635721 -0.076238945 0.91412205
0.26669422 -0.026638024 0.91225362
0.26727894 0.024097297 0.91118449
0.26837867 0.075954303 0.91176987
0.26809853 0.12695751 0.91195661
0.26789168 0.17712063 0.90720236
0.27024025 0.22671653 0.91147542
0.26930094 0.27482119 0.91221714
0.26962206 0.32377997 0.91041094
0.2697095 0.37264854 0.91013736
0.26955411 0.42387334 0.90985829
0.27024519 0.47535282 0.91046679
0.26869178 0.52135092 0.90858912
0.13338214 0.69744748 0.9286626
0.15403023 0.69398499 0.94757789
0.095646158 0.72341287 0.90518886
0.12038066 0.72369266 0.92903894
0.12879547 0.7550292 0.94449228
0.87593633 -0.50220084 0.98737317
0.92557406 -0.5051654 0.9774726
0.9749431 -0.50915235 0.97086436
1.0130248 -0.50984991 0.97170502
1.0749607 -0.51721239 0.97147393
0.13880588 -0.46603635 0.96087325
0.17172246 -0.47654316 0.9764452
0.22439416 -0.48654604 0.9779774
0.27478331 -0.48441425 0.97632587
0.32534987 -0.48165679 0.97298354
0.37431404 -0.47853824 0.97582531
0.42470688 -0.47595796 0.97461689
0.47432402 -0.47423404 0.97334427
0.52490675 -0.47691408 0.97425991
0.5731923 -0.47890365 0.97546738
0.62437063 -0.48237067 0.97624916
0.67389745 -0.48574442 0.97610837
0.72387487 -0.48917803 0.97795266
0.77370822 -0.49038997 0.97384322
0.82414109 -0.49531999 0.97321898
0.86734229 -0.4981553 0.96668565
0.13543619 -0.4417879 0.96069008
0.1630993 -0.44201228 0.98658764
0.28569174 -0.32465079 0.95422012
0.28546402 -0.29862267 0.95156473
0.28847757 -0.24411125 0.95502287
0.14159179 0.73580563 0.95636594
0.16771236 0.72794712 0.98026812
0.1432586 0.7623592 0.96009755
0.16664994 0.77213061 0.98580122
0.17535387 0.80019462 0.99316323
0.83983976 -0.50005424 1.0026368
0.87905437 -0.50238127 1.0179011
0.92488068 -0.50612825 1.0221051
0.98114365 -0.51356274 1.0200505
1.0112966 -0.51236182 1.0208478
1.0621448 -0.52036196 1.0043525
0.18955369 -0.46403903 1.0093566
0.22288628 -0.47249362 1.0270321
0.27555686 -0.48335281 1.0251613
0.32382545 -0.48049137 1.0224935
0.37381151 -0.47835916 1.0252008
0.42344117 -0.47456393 1.026114
0.47412527 -0.47210374 1.0241582
0.52312142 -0.47420067 1.0206345
0.57443261 -0.4770267 1.0271511
0.62562436 -0.4809204 1.0237681
0.67821121 -0.48611572 1.0215999
0.72489429 -0.48896444 1.0255386
0.77128661 -0.49198335 1.0263549
0.82697684 -0.49716479 1.0268873
0.86166734 -0.49860832 1.0208684
0.18850906 -0.44161019 1.0114611
0.21239744 -0.44158319 1.0342249
0.19310507 0.73349822 1.0092638
0.21778797 0.72508246 1.03082
0.19051507 0.77316451 1.010638
0.2135794 0.77504086 1.0347983
0.19280525 0.81280231 1.0142102
0.21621333 0.82124293 1.038187
1.4039174 -0.56461853 1.0902119
0.79994029 -0.50020134 1.0527993
0.83909559 -0.50145179 1.0774217
0.87336063 -0.50303298 1.0756391
0.91915172 -0.5096994 1.0740131
0.97102523 -0.51826227 1.0639861
0.24160124 -0.46315289 1.0585195
0.27349058 -0.4712905 1.0745496
0.3236399 -0.47854519 1.0737795
0.37511316 -0.47750044 1.0748003
0.4244768 -0.4740251 1.0791146
0.47409037 -0.47048172 1.0714817
0.52423286 -0.47157651 1.0715365
0.5741843 -0.47653243 1.0765102
0.62249655 -0.4795506 1.0721051
0.67637503 -0.48490372 1.0752972
0.7260828 -0.4899686 1.0731955
0.77476579 -0.49344119 1.0785302
0.81903613 -0.49777997 1.0744189
0.23903878 -0.44563976 1.0610492
0.26774821 -0.43869257 1.0834107
0.24136867 0.73572278 1.060673
0.2665202 0.72867787 1.0840179
0.23772843 0.77641648 1.0606605
0.26102009 0.77329242 1.0847324
0.24030741 0.82512832 1.066734
0.26234725 0.82310843 1.088526
0.24188189 0.86116689 1.0680426
0.2634286 0.86980551 1.089589
1.3942779 -0.56591856 1.1425169
1.4180883 -0.56704718 1.1255478
1.481143 -0.57759833 1.1331334
1.5150273 -0.58305192 1.1458678
0.828421 -0.5019753 1.1234678
0.8768602 -0.50569171 1.1268886
0.91045958 -0.50821644 1.1009371
0.29058683 -0.4592033 1.1066782
0.32355681 -0.46960798 1.1221142
0.37372953 -0.47653261 1.1263051
0.42297944 -0.47417876 1.1258308
0.47301582 -0.47295186 1.1247702
0.52277458 -0.472664 1.1225237
0.57632345 -0.47609392 1.1279455
0.62328088 -0.480124 1.1218711
0.67956644 -0.48750219 1.1296664
0.72500038 -0.49161232 1.1247755
0.77303034 -0.49567917 1.1208644
0.81154299 -0.4971748 1.1224957
0.29046819 -0.44333783 1.1093041
0.30685163 -0.44071954 1.1243767
0.28831676 0.73258775 1.1088122
0.30516031 0.73488575 1.1241467
0.2871505 0.77531916 1.11356
0.30743888 0.77410901 1.1310619
0.28809458 0.8256923 1.1142797
0.30588537 0.82093191 1.1294333
0.28814521 0.87560606 1.1171969
0.30701953 0.87409222 1.1284345
0.28685576 0.90856802 1.1150209
0.30534908 0.91469735 1.128747
1.38535 -0.56752115 1.1744913
1.4291368 -0.56981564 1.166795
1.4673177 -0.5737682 1.1693974
1.5207728 -0.57935685 1.1762497
1.5682616 -0.58374882 1.1847463
0.74543941 -0.50006318 1.1971502
0.78291595 -0.5030098 1.1811895
0.82261473 -0.50310189 1.1653475
0.87698781 -0.50804591 1.1616957
0.90186119 -0.50898141 1.1619048
0.33607286 -0.46351683 1.1752602
0.37505683 -0.47462124 1.1743408
0.4282836 -0.47647104 1.1780484
0.47289255 -0.47495657 1.1730886
0.52234381 -0.47487861 1.1712908
0.57315385 -0.47751969 1.175299
0.63179618 -0.4847579 1.1726022
0.67122424 -0.49124178 1.1725941
0.73264569 -0.49589291 1.1720726
0.76488966 -0.49791744 1.1687695
1.248522 -0.55779117 1.2031279
1.2717161 -0.55809993 1.2210525
1.3741127 -0.56907552 1.22255
1.4262804 -0.57333165 1.2261664
1.4829869 -0.57681382 1.2245451
1.5329586 -0.5794546 1.2238328
1.5791712 -0.58253163 1.22806
1.6243356 -0.57889515 1.2333292
0.72927713 -0.50185436 1.2223107
0.76048034 -0.50325835 1.223578
0.37618721 -0.47147515 1.2233486
0.42254415 -0.47928509 1.2254615
0.47531265 -0.47695121 1.2179539
0.5245595 -0.47858405 1.2239642
0.57574356 -0.48321 1.2262367
0.62440139 -0.48671225 1.2207989
0.67924929 -0.4952856 1.2243948
0.72835553 -0.49779201 1.2264056
0.76898021 -0.4998076 1.2083249
1.1918893 -0.55934221 1.2935603
1.2301842 -0.56265789 1.2756979
1.2791787 -0.56749719 1.2796625
1.3181369 -0.56993949 1.268802
1.3724577 -0.57457936 1.2691759
1.4150069 -0.57311523 1.2778816
1.4794241 -0.57659227 1.269212
1.5275303 -0.57609534 1.2765298
1.5800257 -0.574992 1.2771345
1.6221923 -0.57422733 1.2745291
1.673836 -0.57237655 1.2812475
0.68263113 -0.50001538 1.2723545
0.71476054 -0.50304753 1.2682122
0.38942507 -0.47169012 1.2579626
0.42351159 -0.48059118 1.2757118
0.47546503 -0.48313791 1.2750741
0.52785057 -0.48407063 1.2789587
0.5725587 -0.48488751 1.2702758
0.63016492 -0.48835823 1.2603461
0.66010052 -0.49475703 1.2729942
1.2291576 -0.56833911 1.3370914
1.2726749 -0.56972766 1.3267312
1.3219121 -0.57233077 1.3158484
1.3944756 -0.57932979 1.3243226
1.4350048 -0.57724434 1.3332015
1.4720025 -0.57583964 1.3223004
1.5218925 -0.57216173 1.3258029
1.5718322 -0.57202852 1.3230565
1.6269758 -0.56879365 1.3289187
1.6665705 -0.56378442 1.3247591
1.7204692 -0.56152856 1.3252982
0.66608846 -0.50155288 1.3075799
1.7552264 -0.54458356 1.3423803
0.42838764 -0.48212072 1.3248705
0.47059059 -0.48741969 1.3267356
0.51567209 -0.48627153 1.3175421
0.57690376 -0.49041563 1.322852
0.61529213 -0.49539047 1.3166137
1.1793139 -0.57100165 1.3855839
1.2216965 -0.56739205 1.3674376
1.327196 -0.57907587 1.3883128
1.3781991 -0.57869905 1.375536
1.423501 -0.57655519 1.3677742
1.4774134 -0.57094342 1.376865
1.5243872 -0.56452549 1.3676168
1.573912 -0.56391239 1.3775969
1.617546 -0.56157029 1.3683031
1.6724429 -0.55592364 1.371266
1.7303717 -0.55308545 1.354596
1.6893802 -0.54240948 1.3827728
1.7318976 -0.53800642 1.3808192
1.7661601 -0.52269703 1.3763051
0.44215927 -0.48793492 1.36668
0.47667575 -0.49102169 1.37236
0.52574927 -0.49522442 1.3716238
0.57097793 -0.49473706 1.3712977
1.7460387 -0.47764748 1.395014
1.7647507 -0.47345224 1.3791718
1.7474633 -0.44268084 1.3999121
1.7634914 -0.4226988 1.3905716
1.7643763 -0.37140617 1.3933805
1.7586702 -0.32505459 1.3976495
1.7538652 -0.29415008 1.3990682
1.7249404 0.040381186 1.3992292
1.7241119 0.086263724 1.3967122
1.7258446 0.12905774 1.3953201
1.7187896 0.18019384 1.3927988
1.7173967 0.21724384 1.3882993
1.7722931 0.44869849 1.3991488
1.7700622 0.48125634 1.3967466
1.7747395 0.52304107 1.3961703
1.7752365 0.57229388 1.3932472
1.0929949 -0.56835473 1.434198
1.1309439 -0.56674469 1.4209026
1.1795485 -0.56987506 1.4220892
1.2297049 -0.57254922 1.4208173
1.2762547 -0.57524675 1.4163908
1.3291353 -0.57781118 1.4282869
1.3732266 -0.57433885 1.4297229
1.4263568 -0.57507181 1.4258696
1.4780524 -0.56914681 1.4273164
1.5260823 -0.56141895 1.4226085
1.5794328 -0.55834424 1.4227928
1.6236097 -0.55417746 1.4142346
0.49341035 -0.50248843 1.4370017
0.52232307 -0.50297648 1.4353853
0.56093276 -0.5000639 1.4115219
1.587589 -0.54874194 1.4374425
1.6319698 -0.54551035 1.4348112
1.6808923 -0.53448659 1.4252137
1.7201866 -0.51578671 1.4179429
0.44283611 -0.48785883 1.4156659
0.4619464 -0.49274457 1.4225222
0.53833741 -0.49904937 1.4398344
0.56482518 -0.49701378 1.4007941
1.6855175 -0.47555041 1.4414209
1.7191832 -0.47092316 1.4176983
1.6937231 -0.42371711 1.4461163
1.7240915 -0.42179063 1.4218683
1.6972922 -0.37509504 1.4462919
1.7263169 -0.37164178 1.4232687
1.7535546 -0.37628293 1.4017071
1.6931401 -0.34917194 1.4479835
1.7241325 -0.32623306 1.4261847
1.7508014 -0.34053597 1.4065957
1.6981825 -0.27835196 1.4464667
1.7264811 -0.27883774 1.4244494
1.7542095 -0.26920393 1.4032927
1.6948407 -0.24295893 1.448895
1.7255861 -0.22819649 1.4233251
1.7520453 -0.22888078 1.4071919
1.6938994 -0.1731801 1.4431788
1.7265587 -0.1778702 1.4192959
1.6898822 -0.12335581 1.443962
1.7215526 -0.12782721 1.4194903
1.6888434 -0.074694067 1.4405973
1.7202371 -0.079250723 1.4182347
1.6876643 -0.026356919 1.4381117
1.7207011 -0.028653981 1.4140778
1.6833776 0.022411134 1.4383405
1.7170593 0.019284697 1.4124193
1.6796172 0.077879041 1.4350698
1.7139728 0.072533593 1.4106208
1.6740355 0.12827624 1.4311659
1.7071186 0.12867832 1.4059517
1.6439592 0.18651108 1.447059
1.6743858 0.17853332 1.424811
1.704837 0.16556954 1.4063394
1.6445371 0.21591623 1.4440025
1.6718917 0.21634485 1.4223322
1.7019086 0.21711569 1.4024963
1.7599496 0.24277917 1.4200397
1.7755587 0.27545065 1.427982
1.8135637 0.32542565 1.4416112
1.7726756 0.37890014 1.4203166
1.8099613 0.36261201 1.4315361
1.7632837 0.42729834 1.4167548
1.8109467 0.42489725 1.4187917
1.7553585 0.4773511 1.4165432
1.816349 0.4728134 1.4116367
1.7492666 0.51187509 1.4186187
1.7597612 0.52641684 1.4070566
1.8208107 0.52618623 1.4136328
1.7654208 0.57006353 1.420985
1.030097 -0.56499577 1.4933981
1.0786284 -0.56848234 1.4682913
1.1252637 -0.5697723 1.4722492
1.1648626 -0.56848419 1.474748
1.2306032 -0.57514971 1.4741522
1.2750845 -0.57418704 1.4751811
1.323882 -0.57613778 1.4747603
1.3773267 -0.57454962 1.472137
1.4312032 -0.57150054 1.4777325
1.4743743 -0.56121349 1.4754437
1.5262716 -0.5552913 1.4658816
1.5650429 -0.55274385 1.4610319
0.49481535 -0.50025642 1.4547211
0.52182513 -0.50287408 1.4735078
0.56004232 -0.50443757 1.4772545
1.5359068 -0.54966992 1.4892493
1.5741394 -0.54283696 1.4820654
1.6276468 -0.52666289 1.4779474
1.6680164 -0.51776141 1.4608659
0.47541401 -0.49588045 1.4677689
1.6346463 -0.47088534 1.486336
1.6639128 -0.47051284 1.4620506
1.6406044 -0.42703843 1.4893289
1.6736625 -0.42170507 1.4645557
1.6415843 -0.38388342 1.4929886
1.6698918 -0.37765667 1.4700727
1.64196 -0.32420379 1.494586
1.6733081 -0.32952774 1.4696796
1.6430281 -0.28116682 1.492726
1.6704829 -0.27793887 1.4684567
1.6424265 -0.22354186 1.4903765
1.6731541 -0.2277045 1.4669684
1.639801 -0.17726749 1.4909298
1.6707543 -0.17917161 1.4661926
1.6358712 -0.12560469 1.4892526
1.6663013 -0.13048486 1.4651293
1.6362808 -0.077940412 1.4856693
1.6670113 -0.078767136 1.4608694
1.626668 -0.02865028 1.4874806
1.662012 -0.031113097 1.4596907
1.6252912 0.02602792 1.4826189
1.6579167 0.023428051 1.4588404
1.5910745 0.093340293 1.4977074
1.6253028 0.079009168 1.4752692
1.6599962 0.069521487 1.4520993
1.5903442 0.12739834 1.4947165
1.6235585 0.12777248 1.4706224
1.5880307 0.17532319 1.4927508
1.6223541 0.17560557 1.4670054
1.5867385 0.21525307 1.4915184
1.6179734 0.21557742 1.4656731
1.7648717 0.24552293 1.4516358
1.7900336 0.27491695 1.4684453
1.7978873 0.30202419 1.4707052
1.82956 0.33468542 1.477903
1.8514583 0.34115776 1.4895393
1.7936324 0.38637766 1.4700176
1.8209538 0.36164176 1.4841815
1.7884566 0.42882252 1.4713713
1.8039725 0.40664804 1.4940927
1.7819557 0.47737244 1.4769106
1.7787977 0.52725339 1.4689423
1.776706 0.573241 1.4640719
0.93230665 -0.5543468 1.538473
0.96615922 -0.55914032 1.539332
1.0343269 -0.56578994 1.5283267
1.0793878 -0.57202929 1.5323478
1.1188972 -0.57123214 1.5273906
1.181488 -0.57470453 1.5189295
1.2325591 -0.57445431 1.5307572
1.274217 -0.57069331 1.5203545
1.33472 -0.57252407 1.5313576
1.3772346 -0.56930697 1.5170826
1.4270568 -0.56231391 1.5256066
1.468763 -0.55464965 1.5195642
1.5211293 -0.5514701 1.5114694
0.48862109 -0.50198305 1.513773
0.53750849 -0.51174504 1.5338461
1.4781178 -0.54838037 1.5323029
1.531876 -0.54088289 1.529072
1.5768734 -0.52518654 1.5297298
1.6106938 -0.51331031 1.5182568
1.5790918 -0.47256711 1.5317459
1.6108801 -0.46675766 1.5069084
1.5829324 -0.42668131 1.5374807
1.6150506 -0.42371911 1.5116825
1.5871685 -0.37917 1.5400203
1.6156484 -0.37748316 1.5146207
1.5874516 -0.32948354 1.5392696
1.6189007 -0.32847193 1.514957
1.5855716 -0.27554014 1.5384423
1.618479 -0.27766293 1.5138465
1.5865415 -0.22698194 1.5368652
1.6172761 -0.2270821 1.51059
1.5811695 -0.17690095 1.5372335
1.6133766 -0.17712511 1.5126187
1.5815903 -0.12719584 1.5325581
1.6137441 -0.12735271 1.5080303
1.575882 -0.078715406 1.5319439
1.6092037 -0.077869281 1.5066168
1.5458438 -0.01398975 1.5476307
1.5784729 -0.028656038 1.5245398
1.5436562 0.025050038 1.5451869
1.5756068 0.025132718 1.5217093
1.5386333 0.082878262 1.5423676
1.5713093 0.076938249 1.5176468
1.535717 0.1308689 1.5393869
1.5667076 0.12565991 1.5147309
1.53635 0.17741534 1.5349319
1.5644963 0.17590789 1.511212
1.5325472 0.21384373 1.5355778
1.5688272 0.22363184 1.5206476
1.626901 0.2399686 1.5172151
1.7877446 0.2765578 1.5389669
1.8111206 0.27523121 1.5153637
1.7984424 0.31447232 1.5472484
1.8239018 0.33123165 1.5268924
1.7990366 0.39433169 1.5321368
1.8171043 0.37317061 1.5276823
1.7958813 0.4246797 1.528133
1.8031346 0.42473879 1.5089242
1.7958347 0.47856605 1.5089879
1.8043652 0.46978125 1.529127
1.8024049 0.50843203 1.5170395
0.8946715 -0.55538553 1.5811402
0.91478658 -0.55423737 1.5791324
0.96132535 -0.56116402 1.5743451
1.0329624 -0.56779903 1.5835522
1.0704201 -0.56720197 1.5673897
1.1260005 -0.57053155 1.58006
1.1777145 -0.57157838 1.5716101
1.2250712 -0.57031608 1.5731455
1.275123 -0.56838089 1.5677198
1.3278946 -0.56516838 1.5720098
1.3806367 -0.56109571 1.5768811
1.4195015 -0.55298865 1.563997
0.49271944 -0.50382024 1.5647625
0.53596938 -0.51759547 1.5814486
0.57289338 -0.51955831 1.5691286
0.62358809 -0.52544308 1.5847019
1.4299419 -0.54671502 1.5835701
1.474005 -0.53972405 1.577711
1.5253642 -0.52270859 1.5756691
1.5599856 -0.51166177 1.558314
1.5267284 -0.47193974 1.5770696
1.5544058 -0.45981777 1.5545083
1.5266016 -0.42746991 1.5850209
1.5586332 -0.42458114 1.5579522
1.5316905 -0.37757388 1.585174
1.5623028 -0.38049465 1.5606269
1.5345939 -0.3299118 1.5852237
1.5631152 -0.32628056 1.5612949
1.5341147 -0.27565506 1.5847087
1.5622255 -0.27982399 1.5596999
1.5312105 -0.22694707 1.583275
1.5608387 -0.22689247 1.5578864
1.5272107 -0.1754083 1.5804315
1.5565091 -0.18048859 1.5563955
1.5263035 -0.127187 1.5783484
1.5549783 -0.1270722 1.5524381
1.494383 -0.058107067 1.5942163
1.5236377 -0.077787183 1.5745999
1.5513982 -0.077753223 1.5516396
1.4918851 -0.023144016 1.5935287
1.5243731 -0.031064136 1.5693583
1.490221 0.024966568 1.5903258
1.519472 0.025011951 1.5661696
1.4836464 0.079892643 1.5894872
1.5148449 0.076841712 1.5647213
1.4835966 0.12716193 1.5857328
1.5097744 0.12555119 1.5609812
1.4808177 0.17533118 1.5826294
1.5102546 0.17574114 1.5572083
1.478693 0.216307 1.5813422
1.5144597 0.2246971 1.5627116
1.7477463 0.26372507 1.5691441
1.7715824 0.28069732 1.5656279
1.7923317 0.31648543 1.5748024
1.8178614 0.32431129 1.5728927
1.7942383 0.38183895 1.5707042
1.8113211 0.36523458 1.5694157
1.7944584 0.42261976 1.5701659
1.8020184 0.42784315 1.5779738
0.93609959 -0.56314111 1.618737
0.97693574 -0.56432569 1.6290457
1.0128715 -0.56868839 1.6158164
1.0899788 -0.57111228 1.6278355
1.133088 -0.57020414 1.6249779
1.1740341 -0.5661782 1.6244227
1.2200792 -0.56427592 1.629586
1.2731624 -0.56266439 1.6298138
1.3219602 -0.55923599 1.616336
1.3741584 -0.55447459 1.6173255
1.4082025 -0.55182463 1.6045934
0.53027362 -0.51565361 1.6200638
0.56260324 -0.51900643 1.6162963
0.60854453 -0.53079414 1.6268383
0.66560507 -0.53461921 1.627799
0.70881587 -0.54271287 1.6486685
1.3459796 -0.54863912 1.6342645
1.3824984 -0.54200166 1.6391792
1.4273831 -0.53670144 1.6278634
1.4761169 -0.51780623 1.625385
1.5114121 -0.50789475 1.6055416
1.4474454 -0.4660041 1.6462752
1.4767016 -0.47071624 1.6208606
1.4771458 -0.42208689 1.6302673
1.5042408 -0.42484164 1.6050057
1.4756562 -0.37695378 1.6346753
1.5069857 -0.38132396 1.6067039
1.4801898 -0.32982031 1.6317585
1.5097024 -0.32421803 1.6047789
1.4785306 -0.27774015 1.6319135
1.5069144 -0.27743638 1.6068338
1.4769884 -0.22635061 1.6290083
1.505867 -0.23044258 1.605769
1.4759582 -0.17601219 1.6255159
1.5037661 -0.19199437 1.6047314
1.4491333 -0.12248921 1.6426528
1.4749528 -0.12768601 1.6215624
1.4406955 -0.07802365 1.6445062
1.4727966 -0.07872802 1.6174027
1.4391706 -0.028905045 1.6440451
1.4668489 -0.029284758 1.6176934
1.4399576 0.026413176 1.6367511
1.4663547 0.023678904 1.6121051
1.4368093 0.079280257 1.6349021
1.4620678 0.076811068 1.6106678
1.4335082 0.12751524 1.6333659
1.4605544 0.12735595 1.6087039
1.4324222 0.17730241 1.6303149
1.4569954 0.1728311 1.6071949
1.4315062 0.21810614 1.6309978
1.4674386 0.22773434 1.6106757
1.7925905 0.32394946 1.6143683
1.8046031 0.34935594 1.6175358
0.73915577 -0.55395442 1.6887938
0.81375688 -0.56466597 1.6898971
0.87839586 -0.56628293 1.6771526
0.9258073 -0.56570971 1.6692966
0.97212505 -0.56692791 1.6696585
1.029083 -0.56866443 1.6729592
1.0760494 -0.56869817 1.6682072
1.12901 -0.56411922 1.6730417
1.1698471 -0.5595817 1.657696
1.2223364 -0.55948615 1.6771379
1.2778697 -0.5569995 1.6803396
1.322503 -0.55452687 1.6635849
0.53478724 -0.51540399 1.6795027
0.57495219 -0.52646542 1.6808982
0.62079626 -0.53624141 1.6832943
0.67671084 -0.54193765 1.6811817
0.71246606 -0.54683113 1.6941276
1.3299578 -0.54382485 1.6854111
1.3783224 -0.53366989 1.6768064
1.4228723 -0.51686239 1.6727062
1.4555635 -0.50567698 1.656224
1.3901455 -0.47544557 1.6962023
1.4214576 -0.47244477 1.6719644
1.4579242 -0.49463314 1.6519669
1.3994455 -0.40147972 1.6992668
1.4248693 -0.42208582 1.6759217
1.4245561 -0.3740775 1.678893
1.4530281 -0.36956844 1.6541535
1.4242289 -0.32725698 1.6788431
1.4538891 -0.32886124 1.6546812
1.4265113 -0.27931631 1.6777529
1.4545593 -0.27793866 1.6518739
1.4254258 -0.22679213 1.6747202
1.4514158 -0.24259931 1.6529408
1.3996747 -0.1630221 1.6937231
1.4245005 -0.17871933 1.6716969
1.393977 -0.12668136 1.6946322
1.4237132 -0.12781876 1.6686211
1.3948354 -0.078539059 1.6926721
1.4161203 -0.078324959 1.6715019
1.3911326 -0.027147468 1.6912968
1.4141352 -0.03063486 1.6673084
1.3902104 0.025943901 1.6893249
1.4143586 0.024243547 1.663357
1.3879261 0.080365635 1.6863146
1.4119823 0.078127638 1.6600306
1.3830748 0.12820968 1.6848869
1.408936 0.12791264 1.6602118
1.3838429 0.17744705 1.6820753
1.4088707 0.17481229 1.657539
1.3835356 0.21894535 1.6789438
1.4140731 0.22678278 1.6572682
0.73797965 -0.55439973 1.7381196
0.77008432 -0.55980378 1.7214956
0.83712822 -0.57085085 1.7291036
0.87745911 -0.57172489 1.7262231
0.92389905 -0.57110345 1.7056166
0.98067838 -0.57239336 1.73397
1.0231913 -0.56675702 1.7210993
1.0746198 -0.56601858 1.7248533
1.1241657 -0.56045324 1.7282097
1.1745592 -0.55889213 1.7163355
1.2214971 -0.55485904 1.7248633
1.2592715 -0.55555785 1.7058735
0.54557288 -0.51254338 1.7318318
0.57533097 -0.52232289 1.7374746
0.62361109 -0.53504908 1.7337637
0.67279601 -0.54116738 1.7272308
0.70651281 -0.54804522 1.716805
1.2387921 -0.54792947 1.746151
1.2827001 -0.54403526 1.7294067
1.3302654 -0.53031039 1.7281157
1.3722647 -0.51456231 1.721576
0.5464828 -0.48705661 1.7399735
0.55862236 -0.48560306 1.7494321
1.3383967 -0.4714157 1.739706
1.3722384 -0.47293991 1.7173491
1.4022911 -0.496474 1.701962
1.3477274 -0.42434034 1.746166
1.3741441 -0.42310655 1.7215565
1.3423252 -0.37227643 1.7485486
1.3747791 -0.3710461 1.7240267
1.4010817 -0.39189053 1.7032011
1.3471026 -0.31062147 1.7449087
1.3724675 -0.32417494 1.7246312
1.3454423 -0.27015704 1.7480974
1.3743782 -0.27691969 1.7216576
1.4007887 -0.27916661 1.7017258
1.3423601 -0.22954851 1.7487119
1.3738381 -0.22894286 1.7218711
1.3463089 -0.15884233 1.7408938
1.371022 -0.17929107 1.7214377
1.3442168 -0.12894498 1.7432871
1.3693531 -0.1289181 1.7184089
1.3394248 -0.081290364 1.7446165
1.3686697 -0.07876531 1.7166711
1.3411667 -0.025741013 1.739709
1.3675454 -0.030285155 1.7164679
1.3396001 0.025174089 1.7376024
1.3657199 0.025133327 1.7141893
1.3367534 0.08078488 1.7348655
1.3629831 0.077937625 1.7107652
1.3338047 0.129097 1.7357394
1.3586191 0.12865809 1.7107859
1.3329631 0.17909881 1.7332712
1.3593359 0.17807189 1.7080094
1.331598 0.21840607 1.7323627
1.3618158 0.21960752 1.7071633
0.72708488 -0.55026704 1.7699108
0.76782531 -0.55770743 1.7742745
0.82304573 -0.5698278 1.7700344
0.87308002 -0.57397544 1.7719032
0.93067193 -0.57591772 1.7634059
0.97488421 -0.57094961 1.7660204
1.0278651 -0.56688058 1.7703779
1.0765824 -0.56055731 1.7752657
1.1146609 -0.5557372 1.7775569
1.1734359 -0.5551874 1.7788538
1.2357448 -0.55102402 1.7616911
1.25635 -0.55125117 1.7509713
0.58346409 -0.51143575 1.7708061
0.62984717 -0.53012681 1.7784184
0.67585367 -0.54105473 1.7745266
0.71686977 -0.54601115 1.775216
1.1835651 -0.54857033 1.7791089
1.2273109 -0.54278469 1.777042
1.276193 -0.52936852 1.7762032
1.318117 -0.51208186 1.77159
1.3510333 -0.50008631 1.7547852
0.54911745 -0.46296433 1.7533573
0.57461721 -0.47893018 1.783106
1.2860677 -0.47401893 1.7870117
1.3133398 -0.4686951 1.7627214
0.54952133 -0.4368265 1.7593074
0.5634225 -0.42104194 1.7882587
1.2898703 -0.43039119 1.7935901
1.3197309 -0.42512107 1.7680244
0.5614332 -0.39352295 1.789993
1.2934355 -0.37050584 1.7958111
1.3236579 -0.37502027 1.7706373
1.2958019 -0.32672369 1.7948083
1.3230767 -0.32217655 1.770027
1.2952526 -0.27231112 1.7978405
1.3199244 -0.27113122 1.7725302
1.2933606 -0.21669789 1.7954222
1.3187315 -0.22308293 1.7726543
1.2921946 -0.17024666 1.793451
1.3246685 -0.17797634 1.7661704
1.2904787 -0.12492215 1.7939715
1.3203424 -0.12948038 1.7678317
1.2894876 -0.079754338 1.7945595
1.3152231 -0.078457415 1.769069
1.2902154 -0.029621182 1.7899443
1.3171252 -0.030016478 1.7653921
1.2901109 0.020326877 1.7868403
1.3148158 0.020269236 1.7623709
1.2866452 0.072289847 1.7860348
1.3120883 0.07336849 1.7586436
1.2834674 0.12497222 1.7838784
1.3080659 0.12946768 1.759111
1.2822849 0.17898375 1.7820958
1.308972 0.17819482 1.7579477
1.2780815 0.21858275 1.7813945
1.3137583 0.2267589 1.7620808
0.74143833 -0.55062348 1.8210703
0.77944672 -0.55700958 1.8221642
0.82227224 -0.56700873 1.8194304
0.87984276 -0.57825947 1.8223372
0.93611532 -0.58305103 1.8323617
0.97233862 -0.57664263 1.814456
1.0240252 -0.56914669 1.825538
1.0648316 -0.55940628 1.8213248
1.1265963 -0.55496901 1.8276056
1.1555703 -0.5510959 1.8044704
