ply
format ascii 1.0
comment PCL generated
element vertex 1500
property float x
property float y
property float z
element camera 0
property float view_px
property float view_py
property float view_pz
property float x_axisx
property float x_axisy
property float x_axisz
property float y_axisx
property float y_axisy
property float y_axisz
property float z_axisx
property float z_axisy
property float z_axisz
property float focal
property float scalex
property float scaley
property float centerx
property float centery
property int viewportx
property int viewporty
property float k1
property float k2
end_header
0.2700268 0.32410806 0.91106021
0.26929781 0.37503555 0.91022438
0.26923218 0.42628476 0.90939206
0.26958007 0.47485876 0.90961385
0.26792982 0.51983577 0.9084754
0.11869781 0.69670367 0.91388118
0.095446713 0.7219044 0.9033013
0.12154341 0.72409368 0.93067223
0.12416583 0.75330728 0.94018614
0.84763503 -0.50095648 0.99988955
0.87598419 -0.50264484 0.9812724
0.92559171 -0.50689811 0.98129916
0.97396374 -0.51038373 0.97284096
1.0228156 -0.51263505 0.97327036
1.0671444 -0.51673782 0.9767434
0.13714889 -0.46436408 0.96112311
0.1716077 -0.47652388 0.97645193
0.22410919 -0.48700467 0.97298455
0.27570459 -0.4840655 0.97549105
0.32529488 -0.48164415 0.97297466
0.37501526 -0.47864559 0.9741438
0.42470339 -0.47623193 0.97284818
0.47609648 -0.4753004 0.97662479
0.52712595 -0.47650215 0.97496349
0.57487839 -0.48045838 0.9749909
0.62512875 -0.48307115 0.97572291
0.68022531 -0.48698154 0.9786393
0.72523153 -0.48929045 0.97191536
0.77457446 -0.49251628 0.97768772
0.82490718 -0.4957701 0.97045624
0.88180965 -0.49850765 0.9541437
0.13511118 -0.44218722 0.96103001
0.16229412 -0.4412328 0.98581147
0.28404787 -0.35099185 0.95245427
0.28565785 -0.32112503 0.95494735
0.28641787 -0.28195402 0.95231646
0.28765714 -0.24819027 0.95145881
0.18600591 0.69420886 0.98151743
0.1425065 0.73644829 0.95711881
0.16753525 0.72660899 0.97904015
0.14141743 0.7646656 0.9602195
0.16555312 0.77149856 0.9842571
0.17533863 0.80012512 0.99307698
0.79712117 -0.50077564 1.0342336
0.84592533 -0.50301319 1.0308526
0.8762117 -0.50295049 1.0166668
0.92288423 -0.50661319 1.0255201
0.98400551 -0.51351279 1.0219694
1.0232952 -0.51537138 1.0242925
0.18929513 -0.46493918 1.008725
0.2238293 -0.47419173 1.0252163
0.27506804 -0.48288849 1.0263172
0.32592648 -0.48045462 1.0242844
0.37321606 -0.47841778 1.0224726
0.42384061 -0.47553366 1.0245054
0.47350332 -0.47360575 1.0254645
0.52464575 -0.47484946 1.023477
0.57519042 -0.47785124 1.0240133
0.6230303 -0.48197332 1.0205611
0.67413509 -0.48578823 1.0244981
0.72453541 -0.48993838 1.0261409
0.76804364 -0.4918353 1.0296173
0.81949764 -0.49699634 1.0263854
0.86331618 -0.49793082 1.0373827
0.18507928 -0.44503602 1.0101719
0.21286502 -0.44336927 1.0356574
0.21711363 0.69833624 1.0167264
0.19153675 0.73218644 1.0068325
0.21621498 0.73159307 1.0335203
0.19025394 0.77282572 1.0103388
0.21315905 0.77741969 1.0355809
0.19131528 0.81093413 1.0125866
0.21395428 0.82106739 1.0360922
0.83463764 -0.50094771 1.0826758
0.87789327 -0.50461209 1.0810652
0.92709267 -0.51104665 1.0726002
0.24281386 -0.46280757 1.0606863
0.27475324 -0.47145778 1.0752339
0.32446554 -0.47904694 1.0762795
0.37514824 -0.4774197 1.072602
0.42584291 -0.47478598 1.0737957
0.47436753 -0.47273061 1.0741208
0.5226115 -0.4722839 1.0697995
0.57516712 -0.47643739 1.0736934
0.62540281 -0.48126879 1.0706562
0.66958374 -0.48473623 1.0733739
0.72722745 -0.48983771 1.0744339
0.77746779 -0.49364725 1.0717317
0.8169055 -0.49667844 1.0664485
0.85602301 -0.49800792 1.0547011
0.23732756 -0.44462073 1.0588201
0.26924115 -0.44012254 1.0865692
0.2412973 0.73445588 1.0608877
0.26690471 0.72837788 1.0858166
0.23814654 0.77031773 1.0611787
0.26189199 0.7750805 1.0881059
0.23730727 0.82488912 1.0625728
0.26192275 0.82521588 1.088573
0.24252248 0.86231339 1.0686209
0.263118 0.87222266 1.0907347
1.3693231 -0.56301969 1.1403161
1.4200592 -0.56616306 1.1199738
1.4599819 -0.57270956 1.1312897
1.5146482 -0.58290005 1.1455551
0.79100251 -0.50046045 1.1391631
0.82104588 -0.50166756 1.1286677
0.8769601 -0.50643235 1.1253972
0.91431791 -0.51037014 1.1056026
0.29198682 -0.46067169 1.1065879
0.32381487 -0.47039759 1.1187241
0.37528825 -0.47722381 1.126538
0.42290759 -0.47448456 1.123256
0.47198677 -0.47239211 1.1236255
0.52422029 -0.4735482 1.1215219
0.57238275 -0.47645739 1.125333
0.62258899 -0.48077109 1.1222934
0.67308193 -0.48643664 1.1243093
0.71999633 -0.49204341 1.1241033
0.77280051 -0.49741271 1.1177415
0.81538314 -0.49838281 1.106137
0.29142016 -0.44336596 1.1091951
0.30629861 -0.43991953 1.122352
0.29019254 0.73285115 1.1112047
0.30634168 0.73818296 1.1261125
0.2870954 0.77400398 1.1140032
0.30683348 0.77606541 1.1302662
0.28675207 0.82487577 1.1134394
0.30622903 0.82660276 1.1329385
0.28629383 0.87761897 1.1153202
0.30587792 0.87173575 1.1296169
0.28736538 0.9101755 1.1169918
0.30560446 0.91546744 1.1297008
1.3755693 -0.56642973 1.1883289
1.4271532 -0.5741877 1.1876998
1.4718977 -0.57700759 1.1725248
1.5301286 -0.58210891 1.1814153
1.5825217 -0.58285916 1.1894778
0.77689618 -0.50093126 1.1600351
0.82436198 -0.50281417 1.1741724
0.86565751 -0.50905323 1.1591852
0.33611712 -0.46691361 1.1659722
0.37385261 -0.47425869 1.1758208
0.42657819 -0.47576275 1.1721123
0.47496405 -0.47476524 1.1762466
0.52342302 -0.47551939 1.1717643
0.57769024 -0.47995722 1.1771332
0.62134445 -0.48386669 1.1764439
0.67275369 -0.49092188 1.1785419
0.73181796 -0.49572748 1.1719726
0.77606636 -0.49781573 1.1723496
1.2872342 -0.55946189 1.2129953
1.3196343 -0.56824791 1.2341272
1.3791156 -0.57110351 1.2322136
1.4144869 -0.56921303 1.218634
1.4667782 -0.57515121 1.2178262
1.5280427 -0.58257771 1.2248297
1.5659174 -0.5791955 1.229158
1.6219822 -0.58517289 1.2316351
1.6559528 -0.58459544 1.2446134
0.72823507 -0.50134182 1.2188158
0.77233475 -0.50386941 1.2287605
0.34687677 -0.46236387 1.2021192
0.37657097 -0.47106257 1.2210664
0.42282215 -0.47917059 1.2207583
0.47446519 -0.47785836 1.2203734
0.52608877 -0.47895601 1.2219992
0.57180828 -0.4819012 1.2229326
0.62526333 -0.48745236 1.2226169
0.67203116 -0.4947497 1.2280891
0.72849917 -0.49904278 1.225755
1.2314229 -0.56228685 1.2731833
1.2730068 -0.56663769 1.2813185
1.3243229 -0.57171941 1.2709334
1.3736033 -0.57426995 1.2854995
1.418308 -0.57264924 1.2727661
1.4872338 -0.57944077 1.276608
1.5272424 -0.5763967 1.2731806
1.57428 -0.57489574 1.2740906
1.6278149 -0.57836103 1.2683088
1.6730829 -0.57286167 1.282653
1.7108542 -0.56496745 1.2982079
0.65548337 -0.50051945 1.2847259
0.75345594 -0.50554752 1.2586237
0.39332083 -0.47377643 1.2631168
0.42466465 -0.4807156 1.2757684
0.47076148 -0.48266557 1.2726656
0.52215534 -0.48373699 1.2737476
0.57229114 -0.4872902 1.2744048
0.61722749 -0.49110878 1.2723824
0.66814303 -0.49584863 1.2692143
1.1898128 -0.56225765 1.3068602
1.2288797 -0.56881487 1.3244114
1.2746208 -0.57098264 1.3343861
1.3261061 -0.57414562 1.320019
1.3653913 -0.57370871 1.3252419
1.4323741 -0.57842243 1.3299907
1.4779885 -0.57651573 1.3246254
1.5158466 -0.56836134 1.3211097
1.579847 -0.57291615 1.3259302
1.6271143 -0.56830275 1.3256352
1.6787497 -0.56327653 1.326175
1.7239357 -0.55775046 1.3294797
0.61705285 -0.50059664 1.3464705
0.65262103 -0.50125015 1.3238435
1.7435485 -0.5475207 1.3405303
1.7593796 -0.54087186 1.3470176
0.43289217 -0.48581189 1.3310649
0.47779557 -0.48772353 1.3238068
0.52167135 -0.48983952 1.3289031
0.56804228 -0.49079767 1.3228199
0.60994774 -0.49488738 1.3311183
0.65631223 -0.49864507 1.3143544
1.1826857 -0.56770688 1.38248
1.2236907 -0.56906146 1.3738526
1.2588651 -0.56943727 1.3562731
1.3349955 -0.57761282 1.380515
1.3779387 -0.57762134 1.3817633
1.4228953 -0.57789046 1.3762919
1.4778241 -0.57174408 1.374969
1.5302659 -0.56530374 1.3800665
1.5770333 -0.56547982 1.3740095
1.622818 -0.56034857 1.3747714
1.6701338 -0.55385363 1.3712841
1.7054174 -0.55328333 1.3508137
0.61398596 -0.502653 1.3784406
1.686439 -0.54532719 1.3823328
1.7314759 -0.53766704 1.3802468
1.7694134 -0.52172929 1.379397
0.43596599 -0.48617449 1.3700377
0.4791804 -0.49381289 1.379182
0.51503229 -0.49514237 1.3844717
0.56021941 -0.4938826 1.367811
0.61241031 -0.49742961 1.3625045
1.7442786 -0.477171 1.3936098
1.7647913 -0.47348014 1.3791959
1.7463522 -0.44239935 1.399022
1.7626851 -0.42250848 1.3899342
1.7633663 -0.37118956 1.392584
1.7534626 -0.32409769 1.3934827
1.7255903 0.0699386 1.3987391
1.7238439 0.12889554 1.3937035
1.7208934 0.18184774 1.3930935
1.6999977 0.22668196 1.3996369
1.7169453 0.21719091 1.3879275
1.7635636 0.48398927 1.3964264
1.7688981 0.52817804 1.3960344
1.8003812 0.53853554 1.398946
1.7726625 0.56563145 1.3949243
1.126611 -0.56815952 1.4292095
1.1701666 -0.56992018 1.4194292
1.2453709 -0.57868731 1.4439588
1.2724251 -0.57655662 1.4247715
1.3222277 -0.57839239 1.4243523
1.3703821 -0.57547551 1.4260194
1.4231323 -0.57411718 1.4318749
1.4799503 -0.57040167 1.4295217
1.5231737 -0.56192237 1.4287169
1.5720043 -0.55790722 1.4185088
1.6225343 -0.5532257 1.4102539
1.6866727 -0.55030054 1.4092896
0.49491808 -0.50027561 1.429775
0.53650349 -0.5022167 1.4334641
0.55657923 -0.50279528 1.421333
1.5945421 -0.54943651 1.43468
1.6275173 -0.54562193 1.4303616
1.6820642 -0.53282011 1.4306413
1.71933 -0.51744616 1.4185637
1.7511878 -0.51734185 1.4020902
0.44803336 -0.48994294 1.4331651
0.46874133 -0.49470693 1.4299891
0.52003568 -0.49848762 1.4177995
1.6878124 -0.47397184 1.4410228
1.7184274 -0.47072542 1.4170738
1.6905055 -0.42604864 1.4473797
1.7228614 -0.42086348 1.4225684
1.6976714 -0.3701677 1.4477011
1.7263042 -0.37167057 1.4243697
1.7535613 -0.37628585 1.4017122
1.6936057 -0.3442682 1.44937
1.7224958 -0.32485086 1.4282343
1.7569739 -0.32448179 1.4036537
1.697513 -0.27824584 1.4458958
1.7276909 -0.27788013 1.4234217
1.7563995 -0.27953574 1.4035026
1.6937975 -0.23783667 1.4486794
1.7238399 -0.22731198 1.4254577
1.7536602 -0.23577566 1.4075694
1.6963683 -0.17514946 1.444466
1.7245811 -0.17880693 1.4217108
1.6947644 -0.12774125 1.4426134
1.7235689 -0.12798011 1.4211482
1.6905718 -0.078060731 1.4419345
1.7176363 -0.078108117 1.4191608
1.6898252 -0.026183894 1.4382097
1.7211362 -0.028644081 1.4144477
1.6835204 0.022418695 1.43846
1.7180198 0.020702008 1.4118863
1.6804761 0.076891996 1.4358492
1.7156391 0.075149991 1.4093137
1.6733308 0.12868464 1.4305288
1.7077867 0.12762126 1.4065922
1.6445779 0.18169662 1.4481306
1.6739817 0.17820664 1.4264816
1.7061853 0.16972126 1.4055232
1.6405768 0.21814266 1.4447247
1.6756711 0.21583867 1.4221631
1.7001116 0.21688072 1.4010351
1.7672882 0.24447636 1.4351236
1.7777004 0.27579522 1.4296952
1.8093716 0.32468963 1.4382757
1.771693 0.37903041 1.4215811
1.8117726 0.36548644 1.4362274
1.7653332 0.42686769 1.4160079
1.804319 0.42333037 1.4135886
1.7495618 0.47344226 1.4105746
1.766374 0.47555751 1.4160193
1.8155109 0.47263008 1.4109763
1.7498981 0.5018357 1.4220653
1.7593437 0.52348578 1.4204899
1.8046293 0.52944028 1.4052289
1.7651637 0.57226348 1.4255196
1.8316222 0.55840176 1.420145
0.99786204 -0.56027538 1.4608781
1.0413281 -0.56643885 1.4923877
1.0899018 -0.56936246 1.4747262
1.1233972 -0.56824589 1.4804118
1.1635753 -0.56711149 1.4551239
1.2269278 -0.57586843 1.4765799
1.2803844 -0.57504481 1.4799259
1.3280717 -0.57690442 1.4719313
1.3750153 -0.57438356 1.4788179
1.4295254 -0.57231712 1.4810482
1.4734375 -0.56306916 1.4752541
1.5271635 -0.55506629 1.4780205
1.574053 -0.552652 1.4704592
0.49489653 -0.50033849 1.4549598
0.52304858 -0.50494921 1.4781026
0.56916964 -0.5065906 1.4553572
0.89095724 -0.54291594 1.4855061
0.91656739 -0.54838032 1.4925774
1.5874673 -0.54235578 1.4780269
1.6288496 -0.52677208 1.4804294
1.6655384 -0.51797801 1.4663709
0.46378276 -0.49179879 1.4735583
1.6356087 -0.47244823 1.4836632
1.6666168 -0.46941987 1.4590942
1.6418736 -0.42451873 1.4898764
1.6693052 -0.42062229 1.4658358
1.6405946 -0.38114837 1.4935532
1.6705036 -0.37616271 1.4683001
1.6436831 -0.32627881 1.4928256
1.6736535 -0.32838026 1.4679718
1.6432451 -0.28121322 1.4929223
1.670295 -0.27792042 1.4682859
1.6395555 -0.22596367 1.4920411
1.6702671 -0.22757392 1.4681209
1.6393116 -0.17721662 1.4904858
1.6707046 -0.17690443 1.4647493
1.6354529 -0.12747173 1.4912599
1.6672804 -0.12757131 1.4645791
1.6313822 -0.077230498 1.4869536
1.6675937 -0.079249114 1.4608269
1.6280252 -0.027620792 1.4872887
1.6648885 -0.03095879 1.4604672
1.6277266 0.02625706 1.4806705
1.6581173 0.02704074 1.4577334
1.5916473 0.078748256 1.499012
1.6261809 0.079054557 1.4760739
1.6598481 0.076049253 1.4516503
1.591778 0.12751138 1.4960642
1.6240463 0.12780398 1.4710628
1.5903586 0.17954661 1.4930016
1.6192082 0.17560336 1.4692597
1.5863886 0.21520938 1.491187
1.6167759 0.21470231 1.4671931
1.7593302 0.24614738 1.4657048
1.7855253 0.2668263 1.470704
1.8000903 0.29199955 1.4742448
1.8313857 0.33052954 1.4801592
1.7919296 0.39370382 1.4734508
1.8252867 0.36560878 1.4918582
1.7871774 0.42900684 1.4741355
1.8033444 0.41178468 1.4923847
1.7813139 0.4734683 1.4733931
1.8010581 0.45599362 1.4995449
1.7728626 0.52343124 1.4657028
1.7719734 0.57173967 1.460164
0.92747533 -0.55357039 1.5299577
0.98500174 -0.56007546 1.5332943
1.0216945 -0.56555814 1.5170141
1.0774132 -0.57078028 1.5371089
1.1211179 -0.57085997 1.5276791
1.1779786 -0.57612127 1.5190835
1.2238847 -0.57374883 1.5236491
1.2734202 -0.57120275 1.5304865
1.3317767 -0.57206315 1.5336567
1.3763258 -0.56893915 1.5277282
1.4243977 -0.56348521 1.5220418
1.4745674 -0.55342692 1.5308447
1.5112553 -0.55148774 1.5200796
0.49236763 -0.50586367 1.5345834
0.5210219 -0.51097095 1.5299485
0.57812661 -0.51636541 1.5384461
0.89722759 -0.54859638 1.5342706
1.4985083 -0.54419464 1.5472288
1.5314436 -0.54203147 1.5314367
1.576701 -0.52649832 1.524675
1.6135294 -0.51172757 1.5142298
1.580678 -0.47146887 1.5327886
1.6110427 -0.46679348 1.5070608
1.5855993 -0.42505682 1.5376657
1.6155949 -0.42386419 1.5121964
1.5870055 -0.37912926 1.5398608
1.6154571 -0.37744182 1.5144469
1.5873289 -0.32945776 1.5391473
1.6180235 -0.32829276 1.5141418
1.5875459 -0.27549067 1.5378624
1.618472 -0.27766311 1.5138397
1.5850108 -0.22545314 1.5368866
1.6161251 -0.22719663 1.5132158
1.5816917 -0.17695689 1.5377396
1.6136955 -0.17716625 1.512918
1.5814222 -0.12718253 1.5324103
1.6140646 -0.12738574 1.5083269
1.5485958 -0.067830406 1.5492394
1.5764377 -0.077750713 1.5303688
1.6059412 -0.076533921 1.5058964
1.5464033 -0.013991693 1.5481908
1.5774788 -0.027838832 1.5251265
1.6056627 -0.048267052 1.5043824
1.5439196 0.025039628 1.5454508
1.5758466 0.025140699 1.5219368
1.610898 0.005672073 1.5006971
1.5381272 0.082255334 1.5446789
1.5721065 0.078745291 1.51818
1.536962 0.12721266 1.540557
1.5666107 0.12734413 1.5160978
1.5326439 0.17736343 1.5372804
1.5680611 0.17305724 1.5114985
1.5322375 0.21379825 1.535269
1.5675871 0.22088727 1.5182663
1.6254592 0.24048568 1.525185
1.7848834 0.27497905 1.5391504
1.8114049 0.283411 1.5213293
1.7980514 0.31439751 1.5469131
1.8250977 0.33323044 1.5275787
1.7939863 0.38183105 1.5236079
1.825069 0.37194124 1.5222416
1.7939051 0.42258465 1.5211148
1.7980198 0.47559622 1.5117089
1.8050314 0.47034481 1.5194925
1.7996703 0.50086963 1.5064974
0.893929 -0.55381948 1.5868937
0.92373484 -0.55478418 1.5771401
0.98371917 -0.56621617 1.584757
1.0324904 -0.56822574 1.5806367
1.066839 -0.57102692 1.5813437
1.1231961 -0.57369328 1.5812165
1.1783068 -0.57368535 1.5776931
1.2203543 -0.56992084 1.5703681
1.2765394 -0.56573224 1.5747728
1.3253984 -0.56456757 1.563128
1.3767545 -0.55988777 1.5750859
1.4213917 -0.55572736 1.5704014
0.48942491 -0.50313973 1.5585308
0.52256787 -0.51239127 1.5731256
0.56974798 -0.51886213 1.577323
0.90269142 -0.54861224 1.5644742
1.4415424 -0.54639173 1.5781052
1.4775798 -0.53943634 1.5745406
1.5243516 -0.51993024 1.5763867
1.5571154 -0.51463526 1.555636
1.4965514 -0.49066359 1.5996368
1.5268298 -0.47121528 1.5782856
1.5561919 -0.4653638 1.5549827
1.5309951 -0.426009 1.5839653
1.5601226 -0.42498448 1.5594432
1.5320181 -0.37765935 1.5855144
1.5618469 -0.38038144 1.5601721
1.5340246 -0.32804033 1.5849394
1.5630261 -0.32626277 1.5612065
1.5330007 -0.27545151 1.5835639
1.5636437 -0.27974832 1.5598329
1.5318756 -0.22704995 1.5839651
1.5611846 -0.22694401 1.5582321
1.5264366 -0.17585011 1.5815966
1.5577134 -0.17920111 1.5590304
1.5263377 -0.12718718 1.5783786
1.5560607 -0.12716572 1.5535185
1.4909582 -0.063067995 1.5995729
1.5231807 -0.077055983 1.5756904
1.5525774 -0.087626986 1.5523793
1.4937663 -0.027677175 1.5951856
1.5229548 -0.02915697 1.569783
1.5511625 -0.043440558 1.5525274
1.4906951 0.024979688 1.5908332
1.519497 0.025009707 1.5661937
1.483901 0.079909571 1.5897634
1.5147046 0.076833002 1.5645794
1.4821432 0.12713981 1.5864605
1.5109501 0.12714849 1.5620829
1.4779724 0.17632939 1.5855284
1.5058671 0.17577939 1.5617936
1.4790692 0.2150287 1.5840441
1.5100502 0.22456284 1.5648998
1.5584869 0.23780072 1.553375
1.7471513 0.26363525 1.5686098
1.7704201 0.28079063 1.5713761
1.8016801 0.28841174 1.5544865
1.7897261 0.31096885 1.5767502
1.8233117 0.33695164 1.5857145
1.7996536 0.39795995 1.562171
1.8091722 0.37090644 1.5562181
1.7987434 0.41091168 1.5788636
0.94639492 -0.56351221 1.6328784
0.97929448 -0.56397116 1.6314249
1.0197942 -0.56735623 1.626148
1.0817074 -0.57163912 1.6342264
1.1288139 -0.57211369 1.6234719
1.1692971 -0.56470132 1.6264501
1.2314253 -0.56583655 1.6230409
1.275525 -0.56316632 1.6230975
1.3237367 -0.55954963 1.6255072
1.3646616 -0.55607045 1.6194741
1.4074084 -0.55151099 1.6036767
0.52713639 -0.5152542 1.6194797
0.57051992 -0.52188921 1.6164703
0.62792486 -0.5326373 1.6378638
0.66841829 -0.53795749 1.6445289
1.3867266 -0.54519111 1.6317073
1.4293722 -0.53513879 1.6274642
1.4739624 -0.51895398 1.6237967
1.5060401 -0.508901 1.6057
1.4491733 -0.4715817 1.6470412
1.4755499 -0.47099668 1.6233884
1.5051609 -0.45013466 1.6001389
1.4768997 -0.42266834 1.6306393
1.5059733 -0.4217627 1.6037648
1.4788675 -0.37600258 1.6330415
1.5068238 -0.37919736 1.6080109
1.4797373 -0.32791036 1.6312613
1.5105256 -0.3306812 1.6074597
1.4787505 -0.2766158 1.630061
1.5068364 -0.27952296 1.6054003
1.4783406 -0.22725523 1.6288518
1.506861 -0.22704427 1.6041393
1.4734828 -0.17714684 1.6286598
1.5016363 -0.17693803 1.6038539
1.4488412 -0.12245995 1.6423469
1.4772729 -0.12811911 1.6202877
1.4468677 -0.078087494 1.6423134
1.4722847 -0.079206578 1.618502
1.4390198 -0.028907388 1.6438723
1.4661981 -0.028828835 1.619173
1.4389876 0.026611686 1.6382434
1.465681 0.023820795 1.6146566
1.4347197 0.079717815 1.635915
1.4619099 0.076801814 1.6104938
1.433036 0.12746739 1.6328251
1.4595151 0.12726581 1.6075552
1.4310966 0.17767285 1.6307368
1.4565873 0.17441256 1.6066014
1.4322311 0.21721932 1.6330329
1.4669212 0.22914264 1.6152699
1.7874182 0.31038907 1.6118783
1.8075327 0.33800447 1.6120665
0.79752207 -0.56271785 1.6888199
0.84307063 -0.56776786 1.6734016
0.87163281 -0.56245899 1.6603633
0.92084885 -0.56626183 1.6714249
0.97693145 -0.56605583 1.6734639
1.0397217 -0.5716306 1.6858011
1.0748411 -0.56863528 1.6744261
1.1269033 -0.56459838 1.6745592
1.1722406 -0.56176901 1.6760933
1.2169096 -0.56222248 1.6682544
1.2759426 -0.55841863 1.6729597
1.321457 -0.55301505 1.6630273
0.5328142 -0.51497722 1.6678807
0.57159144 -0.52659959 1.6703684
0.62606281 -0.53702497 1.684593
0.6718576 -0.53899181 1.6788062
0.70558089 -0.54589689 1.6768415
1.3326746 -0.54508841 1.6853939
1.3752615 -0.53646743 1.6794789
1.4218416 -0.51701659 1.6729082
1.3952346 -0.47886091 1.6969886
1.4227589 -0.47171196 1.6714683
1.3998923 -0.41165802 1.6978101
1.42616 -0.42257211 1.6755959
1.4567316 -0.40559882 1.6514175
1.4247996 -0.37316501 1.6801525
1.4548497 -0.375043 1.6552583
1.4260901 -0.32716909 1.6782235
1.4556187 -0.33235285 1.6542125
1.3999186 -0.28897262 1.6993132
1.4271817 -0.27845657 1.6764766
1.4545022 -0.27793238 1.6518085
1.4250212 -0.22707559 1.674198
1.450598 -0.23750499 1.6525929
1.3969797 -0.17467363 1.6957121
1.4243702 -0.17870133 1.6715449
1.397824 -0.12817949 1.6938632
1.4232968 -0.12777509 1.6681321
1.3952796 -0.078561746 1.6932113
1.4208606 -0.078310169 1.6677607
1.389634 -0.026916869 1.6917585
1.4145136 -0.030060932 1.6693863
1.3895826 0.025057008 1.6874757
1.4152782 0.02501265 1.6624773
1.3878763 0.080369644 1.6862521
1.4100313 0.077099077 1.6616561
1.3834677 0.12824652 1.6853588
1.4084759 0.12786007 1.6596737
1.3842227 0.17749569 1.6825345
1.4071043 0.17317855 1.6568848
1.3816996 0.2176937 1.6821891
1.416716 0.22509837 1.6587231
0.73410976 -0.55362815 1.7247479
0.78105658 -0.55822062 1.7235616
0.83926272 -0.57305783 1.7333101
0.87676668 -0.57298273 1.7354895
0.91952884 -0.57227242 1.7188103
0.97476572 -0.57211292 1.7247366
1.020166 -0.56667727 1.7156681
1.0794597 -0.56425774 1.7289565
1.1222892 -0.55884928 1.7224691
1.1838208 -0.55966866 1.7257065
1.2255839 -0.55685842 1.7236502
1.2631013 -0.55563039 1.7100681
0.54437238 -0.51303506 1.7172753
0.57245332 -0.52294546 1.7283902
0.62311333 -0.534401 1.7230726
0.67936176 -0.54380673 1.7359273
0.71767682 -0.54820281 1.7196263
1.2439251 -0.54798949 1.743475
1.2796327 -0.54481471 1.7293211
1.3267915 -0.53419751 1.7243437
1.3725988 -0.51730645 1.7198484
0.54636705 -0.4869518 1.7396054
1.3407999 -0.47145477 1.7403022
1.3718227 -0.47449401 1.7174497
1.3470722 -0.42413583 1.7453169
1.3735847 -0.42293316 1.7208498
1.4002429 -0.40170851 1.700235
1.3448436 -0.38811153 1.7491539
1.3752639 -0.37117505 1.7246389
1.4001095 -0.39161858 1.7020193
1.3491923 -0.31110355 1.7476152
1.3732263 -0.32336271 1.7254442
1.4032617 -0.30966911 1.7004659
1.3469261 -0.28550044 1.7481428
1.3774594 -0.2759774 1.7212759
1.40238 -0.29947767 1.7008748
1.3439951 -0.24484344 1.7492191
1.3736339 -0.2289117 1.7216219
1.3463228 -0.17104276 1.7437931
1.3730212 -0.17858639 1.7199554
1.3429958 -0.12752415 1.7440449
1.3718914 -0.12856314 1.7183189
1.3402197 -0.080327891 1.7443485
1.3692511 -0.078800298 1.7174016
1.3403598 -0.027922112 1.7400023
1.3684361 -0.030337431 1.7154961
1.3398069 0.025171194 1.7378753
1.3643422 0.025109626 1.7124615
1.3366762 0.079611599 1.7369108
1.363546 0.077972353 1.7114693
1.3369755 0.13028289 1.7326716
1.3581967 0.12862045 1.7102543
1.3335435 0.17855798 1.7318075
1.3584006 0.17794605 1.7068336
1.3318433 0.21915781 1.7326114
1.3594191 0.21547498 1.7093195
0.73685372 -0.55159366 1.7789268
0.77935523 -0.55943519 1.7693073
0.82042372 -0.57012862 1.7765503
0.86983567 -0.57489508 1.7764091
0.93623054 -0.57803768 1.7627356
0.97393399 -0.57587022 1.7773906
1.0263377 -0.56840241 1.77649
1.0763098 -0.56416661 1.7738034
1.1215098 -0.55668378 1.7781541
1.1732842 -0.55689406 1.767485
1.2036781 -0.55013716 1.7753713
0.58361334 -0.51673073 1.772892
0.6176523 -0.52945745 1.7781559
0.66832381 -0.53875393 1.7799339
0.71158856 -0.54554796 1.7838582
1.179715 -0.54832035 1.7800635
1.2226753 -0.54433823 1.7759503
1.2782859 -0.52916616 1.7780375
1.3201103 -0.51590598 1.765129
0.54964256 -0.46340489 1.7550343
0.57219648 -0.47828284 1.7810773
1.2850695 -0.47393218 1.7888649
1.3168663 -0.47634625 1.7652829
1.3503793 -0.49984428 1.7539358
0.54905719 -0.44968489 1.7555439
0.56002849 -0.43060553 1.7811904
1.2905439 -0.43061319 1.7945251
1.3200585 -0.42522988 1.7684755
0.54926729 -0.37046945 1.7688807
0.55910677 -0.38736585 1.7832086
1.2940633 -0.37213656 1.7964464
1.3217843 -0.37324163 1.770211
1.297067 -0.32324404 1.7937425
1.323284 -0.3222248 1.7703007
1.2942017 -0.27208838 1.7963822
1.3214543 -0.27151051 1.7715244
0.56130964 -0.2188195 1.7944418
1.2951893 -0.21879566 1.7946358
1.3231347 -0.22413847 1.7684253
1.2932039 -0.17038217 1.7948534
1.3230319 -0.17870219 1.7655619
1.2920457 -0.12491202 1.7928705
1.319492 -0.12991917 1.7684327
1.2890656 -0.079732224 1.7939713
1.3163753 -0.078950554 1.7685074
1.2901832 -0.027313361 1.7899276
1.3152375 -0.031268071 1.7674001
1.2868577 0.020890968 1.7869014
1.3150595 0.020269446 1.7626959
1.2884191 0.071349226 1.784541
1.312149 0.074253187 1.7599628
1.2836775 0.12499123 1.7841805
1.3134359 0.12815402 1.7581462
1.2820625 0.17674804 1.7828454
1.3098149 0.17935008 1.7579218
1.2788507 0.21770176 1.7835919
1.3123282 0.2217416 1.7593323
0.74118215 -0.55158615 1.8062941
0.77396315 -0.55493408 1.808725
0.82322305 -0.57005441 1.8209205
0.86812103 -0.57690692 1.821483
0.93153661 -0.58077615 1.8190851
0.97494876 -0.57761091 1.8228805
1.0254991 -0.56872064 1.8283885
1.0783982 -0.55806464 1.8152215
1.1290324 -0.55285084 1.824908
1.1632459 -0.55235887 1.8060772
0.59708655 -0.50771159 1.8075364
0.62322414 -0.51602268 1.8189049
0.66618598 -0.53120393 1.8307437
0.72181249 -0.54447931 1.8346683
0.76035851 -0.54933101 1.8291796
1.1456363 -0.5483346 1.8435168
1.1828092 -0.54349321 1.8247755
1.2295996 -0.52781188 1.8297887
1.2659743 -0.51315814 1.8169696
0.59437031 -0.47167075 1.8107876
0.61663705 -0.48302934 1.8337023
1.2329793 -0.47234452 1.8353277
1.2615045 -0.47362566 1.80809
0.58494264 -0.42501116 1.8145387
0.60394329 -0.42562494 1.8438581
1.2396753 -0.42678127 1.8384539
1.2668982 -0.42678678 1.8148977
0.58183396 -0.37287 1.8217281
0.60176557 -0.37800443 1.8440739
1.2432686 -0.37747335 1.8400732
1.2693536 -0.37609866 1.8169693
0.58138794 -0.32916984 1.8244129
1.2404222 -0.32567045 1.8434031
1.270734 -0.32430142 1.8165516
0.57805067 -0.27417058 1.8241327
1.2431703 -0.27422339 1.8436584
1.2680516 -0.27299824 1.8192188
0.58657569 -0.22932789 1.8367403
1.2422349 -0.2196283 1.841706
1.2687988 -0.22280276 1.8179134
0.57209355 -0.19731781 1.8154051
1.2421616 -0.17169864 1.8414046
1.2671783 -0.17095907 1.8175266
1.2383628 -0.1190216 1.8416691
1.2671061 -0.1218439 1.817124
1.2344648 -0.072598785 1.8419285
1.2643692 -0.076482609 1.8166636
1.2397912 -0.02698705 1.8351108
1.2661932 -0.02974641 1.8121076
1.234545 0.020439973 1.8359778
1.2628752 0.019601714 1.8104608
1.2339001 0.070688412 1.8340057
1.263152 0.071134977 1.8081597
1.2323258 0.12140122 1.8319563
1.2590101 0.12049626 1.8086303
1.2318037 0.17262715 1.8301421
1.257441 0.17050892 1.8056682
1.2292856 0.21652576 1.8282303
1.2552208 0.21582498 1.8061075
1.3314499 0.2457366 1.8107748
1.4523042 0.25628939 1.8488853
1.3181115 0.30818409 1.8455679
0.77649832 -0.55610716 1.8688836
0.82193869 -0.56509 1.8759166
0.87691253 -0.57889742 1.881017
0.9300642 -0.58235633 1.8759543
0.97558999 -0.57720357 1.8752311
1.0265311 -0.57182622 1.8828049
1.0728624 -0.55811507 1.868503
1.116996 -0.55177027 1.8718382
0.64298338 -0.50854832 1.8569618
0.67664564 -0.52561778 1.8721725
0.72058588 -0.54038745 1.8701224
0.76428366 -0.54817152 1.8812289
1.0907685 -0.54887307 1.8711642
1.1259987 -0.54496175 1.8756237
1.1782584 -0.52803528 1.873657
1.2153466 -0.51290423 1.8622515
0.63067293 -0.46717584 1.8577914
0.6569708 -0.47762632 1.889371
1.1811557 -0.47029269 1.8816999
1.2094703 -0.47666559 1.8637389
0.62509626 -0.42385104 1.8684459
0.65099871 -0.44814783 1.8919721
1.1850964 -0.42421257 1.8867836
1.2135059 -0.42383006 1.8619777
0.62844098 -0.37642956 1.8805659
1.1873248 -0.3757011 1.8909817
1.2184246 -0.37796474 1.8632997
0.62278718 -0.32470021 1.8773788
1.1882461 -0.33044651 1.890992
1.2147049 -0.32700211 1.8665289
0.61794913 -0.27568409 1.8735875
1.1908777 -0.27628234 1.8881258
1.2213258 -0.27504879 1.8621897
0.5988102 -0.21096703 1.8529307
0.62070996 -0.22485426 1.8768177
1.1886951 -0.22465904 1.8897749
1.2182263 -0.22418018 1.8642536
0.69214809 -0.16523519 1.8935937
0.70126963 -0.16515224 1.8903221
1.1857944 -0.17312388 1.8892001
1.2159132 -0.17230611 1.863211
0.69473153 -0.12034598 1.8904101
0.70025545 -0.14134489 1.8889056
1.1837635 -0.12189954 1.8889232
1.2130758 -0.12239504 1.8634495
0.6934253 -0.075106874 1.8868592
1.1837255 -0.070915915 1.8881531
1.2108037 -0.068688691 1.8642482
0.69202995 -0.028039813 1.8839066
1.1852392 -0.025089942 1.8835372
1.2141503 -0.024498703 1.8579272
0.69341725 0.023626687 1.887678
1.1824788 0.021971695 1.8838744
1.2107065 0.020527342 1.8610392
0.69347513 0.075337365 1.8868853
1.1808975 0.069963239 1.8825042
1.209685 0.071013965 1.8584716
0.69439238 0.12250191 1.8876522
1.1790953 0.12200937 1.8812304
1.2079664 0.120292 1.8549756
0.69314116 0.17147335 1.8916243
0.70066732 0.17941055 1.8875334
1.1777835 0.17231336 1.8785125
1.2085388 0.16826957 1.8543898
0.69452441 0.22766742 1.8953794
0.70511025 0.22805262 1.8959439
1.1784452 0.21289246 1.8779424
1.2051833 0.217612 1.8529828
1.2803344 0.24866806 1.8704202
1.3109291 0.24957943 1.8630409
0.69691837 0.27127841 1.8980178
0.70681 0.2618944 1.89755
1.2871162 0.27632394 1.8763877
1.3177452 0.28031752 1.8641298
1.4847103 0.28346163 1.8840261
1.5087688 0.297308 1.8956258
0.69857234 0.3148315 1.8979182
1.2959471 0.30284122 1.8767167
1.3092149 0.31792009 1.8626802
1.4787335 0.32185179 1.8852729
1.5111015 0.30877945 1.8970976
1.4847165 0.37319165 1.8916953
1.5020781 0.36431101 1.8987029
1.4916426 0.40856984 1.8991662
0.79172367 -0.55075264 1.9233785
0.82403344 -0.55742586 1.9250015
0.87425148 -0.5751344 1.9249238
0.92460501 -0.581873 1.9315052
0.97468799 -0.5785315 1.9228026
1.028753 -0.56794709 1.9275621
1.0647504 -0.55571026 1.9193739
0.68614948 -0.51453239 1.9103134
0.7235809 -0.53050631 1.9319884
0.7692793 -0.54358393 1.9273064
1.086995 -0.54273111 1.9322912
1.1262431 -0.52871341 1.9276872
1.1674513 -0.51144969 1.9150034
0.68328559 -0.47533888 1.9212613
0.70115113 -0.47216684 1.942965
1.1282002 -0.47262612 1.9287043
1.1563635 -0.46774802 1.9049731
0.67148501 -0.42422131 1.9237465
1.1292266 -0.42680293 1.934649
1.1603904 -0.42188284 1.9105784
0.66616505 -0.37474489 1.9248289
1.1328385 -0.37441957 1.9378664
1.160848 -0.37199819 1.913588
0.64902687 -0.33270305 1.902378
0.67126256 -0.32218775 1.9335307
1.1333357 -0.3218089 1.9389266
1.163842 -0.3256045 1.9117248
0.64724725 -0.26542556 1.9042755
0.66422981 -0.27716452 1.9271469
1.1361794 -0.27665874 1.9367687
1.1653601 -0.27754501 1.911146
0.64696091 -0.23056734 1.9064865
0.66734523 -0.22387218 1.9338695
1.1324503 -0.22673984 1.9376094
1.1629901 -0.22564055 1.9123168
0.686939 -0.15895304 1.9375068
0.70169282 -0.17469329 1.9484212
1.1321387 -0.17335182 1.9360867
1.1612852 -0.17617758 1.9100178
0.67381519 -0.12302221 1.9374506
1.1299618 -0.12350404 1.9351361
1.158866 -0.12156402 1.9091645
0.67087185 -0.070410401 1.9284843
1.1315886 -0.071104549 1.9319844
1.1610804 -0.071180925 1.9072349
0.67554897 -0.028654464 1.9308292
0.70013696 -0.028961962 1.9491909
1.1299496 -0.025368983 1.93183
1.1594343 -0.025209686 1.9053774
0.67786765 0.024041593 1.9306326
1.1289693 0.020736046 1.9301506
1.1576645 0.016830217 1.9051603
0.67850649 0.078097068 1.9357094
1.1256704 0.073011637 1.9283862
1.1566657 0.075955011 1.9042871
0.6725226 0.12403717 1.9387531
1.1240163 0.12316672 1.9297309
1.1545893 0.12261353 1.9051311
0.68218803 0.17046247 1.9378805
1.1244406 0.17444173 1.9274734
1.1539621 0.17605706 1.9008901
0.69614649 0.22283597 1.9243895
1.1255125 0.21563302 1.9262327
1.1696843 0.22691928 1.9155202
1.2151186 0.23970404 1.9196908
0.69369334 0.27199012 1.9120944
0.70973802 0.28643405 1.9175432
1.274478 0.26737484 1.9196364
1.339098 0.26555037 1.9019192
1.4844862 0.27920464 1.9161978
0.69497025 0.32717797 1.9155438
0.70665693 0.32317665 1.9192542
1.5278234 0.33452329 1.9149466
0.69365942 0.36013523 1.9077526
0.70581257 0.38153708 1.9205542
1.4816794 0.37780136 1.9074054
1.5073266 0.37664941 1.9035496
1.5518372 0.36799014 1.9407878
0.70699435 0.42055446 1.9247921
1.4850861 0.43103543 1.9169124
1.4922985 0.47157589 1.9246415
0.82797515 -0.55426532 1.9789425
0.8761431 -0.56458104 1.9777906
0.9241066 -0.57128406 1.9800534
0.97165078 -0.57294852 1.9779248
1.0179912 -0.56280881 1.9718016
1.0612221 -0.55327618 1.9777737
0.73489314 -0.5190264 1.9646208
0.76656371 -0.52750283 1.9849797
0.81125432 -0.54574281 1.9891239
1.0838256 -0.53442657 1.983284
1.1127245 -0.51424879 1.9727551
0.72536701 -0.47771016 1.9745747
0.75409979 -0.49238861 1.9965765
1.0906947 -0.46619076 1.9660827
1.107585 -0.48803073 1.9616375
0.7165454 -0.42621472 1.9774842
1.0938179 -0.4267002 1.982576
1.1057036 -0.42759019 1.959709
0.69151908 -0.37392613 1.9608178
0.71309412 -0.37564585 1.9800653
1.0942444 -0.37759358 1.9787241
1.1085254 -0.37506491 1.9617755
0.68512303 -0.30219528 1.9507818
0.71246481 -0.32752222 1.9803088
1.0961887 -0.32032567 1.9829931
1.1086569 -0.325151 1.9614525
0.68764323 -0.27706856 1.9544384
0.70727658 -0.27821347 1.9758695
1.097194 -0.27656835 1.9870059
1.1073928 -0.27751231 1.9635127
0.69237167 -0.212919 1.9612805
0.71341974 -0.23210704 1.9856741
1.0972195 -0.22908516 1.977388
1.1077212 -0.22804172 1.9618444
0.67599261 -0.17629983 1.9565758
0.7051788 -0.19507933 1.9568478
1.0962892 -0.1768374 1.9795945
1.1058691 -0.17585763 1.9624583
0.67070001 -0.1451655 1.9516326
0.70374715 -0.11267088 1.9721761
1.0959727 -0.12624405 1.9779884
1.1046741 -0.12271675 1.9619956
0.68221802 -0.082426734 1.9569111
0.70409572 -0.077882633 1.9593041
1.0965619 -0.069126278 1.9810661
1.1060525 -0.075260982 1.9629112
0.6944505 -0.029094428 1.9628237
1.0960294 -0.02916277 1.9770012
1.104362 -0.022114994 1.9616022
1.0955251 0.02485197 1.9751351
1.1029979 0.016421633 1.9581014
0.69133598 0.072880447 1.9532042
0.70147371 0.068067998 1.9521797
1.0959437 0.072786495 1.9721226
1.1035632 0.061974961 1.9519482
0.67918015 0.12309035 1.9566418
0.70659292 0.1256828 1.9703817
1.0950911 0.12449618 1.9686232
0.67671365 0.1800136 1.9567585
0.70268285 0.15571567 1.9520496
1.0946014 0.17620622 1.9647768
0.68270153 0.22175631 1.9727119
1.0951046 0.21770859 1.9626112
1.1243263 0.24249615 1.989866
1.1530442 0.24301247 1.9827994
0.6895445 0.26548579 1.9900514
1.5091513 0.29275468 1.961448
1.3065209 0.30457157 1.9791795
1.5091534 0.30399826 1.9600483
1.5063658 0.42443597 1.9600867
1.5213772 0.48366922 1.9920208
1.5018001 0.51720059 1.9580722
0.88062668 -0.55715144 2.0208762
0.92769957 -0.55645907 2.0304592
0.9763546 -0.55731046 2.0194802
1.0248451 -0.55341482 2.0115552
0.78427273 -0.51895314 2.0214748
0.82140285 -0.53482413 2.0306091
0.87049264 -0.54676622 2.0356143
1.029004 -0.54368806 2.0286067
1.073649 -0.52807814 2.0299723
1.1050363 -0.51289862 2.0342321
0.74300432 -0.45627734 2.0026031
0.77820915 -0.47470114 2.0345633
0.80755675 -0.49113274 2.0492344
1.0958022 -0.47830781 2.0358737
1.102674 -0.4634138 2.030098
0.74601942 -0.42755365 2.0153677
0.77082306 -0.42896029 2.0392134
1.0969684 -0.42282614 2.040771
1.1054473 -0.42676806 2.041291
0.74219495 -0.3772985 2.0167835
0.76584101 -0.37425756 2.0402393
1.1035788 -0.3756533 2.0328052
0.74332607 -0.32461247 2.021142
0.7588641 -0.32689553 2.0329847
1.1066476 -0.32524425 2.039643
0.7338199 -0.27298865 2.0114498
0.75809646 -0.27662995 2.030916
1.0997851 -0.2634806 2.0024955
1.1075977 -0.26960814 2.0355771
0.73749208 -0.22642054 2.0142279
0.76033241 -0.22382566 2.033484
1.1058143 -0.22357687 2.029098
1.1060232 -0.17893891 2.0286982
1.1081101 -0.12375641 2.0364485
0.7081573 -0.099275321 2.0001259
1.1073968 -0.074476093 2.039824
1.1076701 -0.026455559 2.041162
1.1065013 0.021567341 2.0389955
1.1072702 0.0749477 2.0394542
1.1067924 0.12825191 2.0365913
1.094993 0.17692633 2.0480809
1.1063876 0.17618239 2.0332046
1.0967355 0.22816633 2.0476005
1.1067308 0.22426358 2.0303311
1.0984055 0.27416682 2.0466027
1.1181928 0.27377844 2.0349476
1.3137883 0.27475324 2.0333652
1.0988914 0.30115744 2.0447416
1.1184669 0.32456407 2.0400462
1.3357825 0.30279395 2.0474668
1.0943401 0.38934356 2.0498497
1.1204845 0.37739149 2.0408738
1.0960903 0.42246842 2.0483057
1.1164899 0.42740488 2.0364985
1.0992293 0.46709335 2.0471826
1.1193669 0.47383162 2.0380654
1.0928148 0.52897155 2.0489662
1.1198974 0.52269232 2.0407271
1.0965258 0.57452095 2.0470812
1.119382 0.57205045 2.0366008
1.0919517 0.62312937 2.0468817
1.1174638 0.62631536 2.0376539
1.0946891 0.67862713 2.0457113
1.1194443 0.67518413 2.0352206
1.1508389 0.69138759 2.0473027
1.0937654 0.72765934 2.042556
1.1193348 0.7244463 2.029597
1.0946138 0.76975 2.0426457
1.1194435 0.77255684 2.0295451
1.0943156 0.82498997 2.0429039
1.1204365 0.8239817 2.0295503
1.0904671 0.87611985 2.0439503
1.1176931 0.87063754 2.030108
1.093502 0.92153811 2.0396795
1.1202289 0.92029256 2.0247548
1.0942206 0.97788751 2.0412867
1.1155279 0.97119242 2.0249293
1.0932658 1.0221393 2.0400834
1.1131301 1.0254873 2.0254238
1.0960448 1.0762746 2.0458164
1.1183534 1.0754352 2.0341251
1.0969256 1.1177694 2.0457256
1.1181321 1.1246812 2.0325217
1.1537826 1.1161333 2.04844
1.0962949 1.1820242 2.0474577
1.1151645 1.173654 2.0302362
1.0944165 1.2251287 2.0472803
1.1197823 1.225572 2.0333943
1.1599212 1.2230966 2.044054
1.0941483 1.2766111 2.0464313
1.1189452 1.2769049 2.0331068
1.0966592 1.3225889 2.0459659
1.1184658 1.3237995 2.032373
1.094691 1.3834045 2.0434132
1.1146307 1.3735242 2.030663
1.1523814 1.3822732 2.0442014
1.0938587 1.4211515 2.0442903
1.1211625 1.4279397 2.0301559
1.0979419 1.4584394 2.04548
1.1170444 1.4805223 2.0313866
1.1506073 1.4974438 2.0447638
1.0960209 1.5096698 2.0476305
1.118812 1.5298438 2.0306811
1.1662948 1.5015936 2.0443263
1.0926964 1.5738771 2.047415
1.1180788 1.5728098 2.0327077
1.158349 1.5939175 2.041564
1.0945675 1.6173774 2.0443497
1.1227549 1.6201017 2.0281093
1.0943824 1.674461 2.0469587
1.1204836 1.6736343 2.0260911
1.157774 1.6557362 2.0383081
1.0934106 1.7232573 2.0420074
1.1211917 1.7286978 2.0259295
1.0921905 1.7745665 2.0457318
1.1160331 1.7753863 2.0259335
1.1558082 1.785742 2.0458794
1.0934911 1.8135984 2.0433118
1.1151296 1.8061134 2.0223503
1.1604433 1.8061101 2.0438504
0.98518044 -0.55036104 2.0613775
0.83590156 -0.52133656 2.0692039
0.87484342 -0.52959847 2.0780516
0.9270227 -0.54211652 2.0776131
0.9762516 -0.54122406 2.0786092
1.0261226 -0.52907902 2.0753109
1.0691026 -0.51149929 2.0687356
1.1036336 -0.50111014 2.0506096
0.79623449 -0.46972007 2.0533068
0.82977647 -0.47570637 2.0818398
0.85984707 -0.48730466 2.0938823
1.0429012 -0.47813329 2.0946467
1.0708498 -0.47351098 2.0707574
0.78786987 -0.42546937 2.0580614
0.81707889 -0.4234044 2.081609
1.043414 -0.43245721 2.0975533
1.0715101 -0.42376217 2.0742171
0.77922863 -0.37262702 2.0521886
0.80754304 -0.37655032 2.0829136
1.0742234 -0.37506768 2.0765574
0.78936696 -0.32493356 2.0678849
0.81748629 -0.32214347 2.0896306
1.0754236 -0.32678109 2.0777192
1.1031531 -0.31621447 2.0516274
0.78433567 -0.27552792 2.0611641
0.81621897 -0.27357343 2.091126
1.0754523 -0.2760857 2.0774562
1.1011649 -0.27437496 2.0522552
0.78816497 -0.23105443 2.0685484
0.81065536 -0.22543488 2.0892878
1.0780817 -0.22674659 2.0743065
1.0767268 -0.1724913 2.0754013
1.1086725 -0.16082166 2.0506651
1.0749505 -0.12371842 2.0744617
1.1078045 -0.13923964 2.0502009
1.0742401 -0.075171635 2.0747027
1.0731961 -0.026679099 2.0735214
1.0729969 0.021726916 2.0731413
1.0420086 0.081396878 2.0991073
1.0726098 0.075493813 2.0714319
1.0430585 0.13024627 2.099467
1.0728769 0.12391708 2.0702145
1.0432224 0.17362532 2.0974693
1.0700568 0.17170312 2.0718107
1.044664 0.22813609 2.0965867
1.0714982 0.22627194 2.0707719
1.0460508 0.2773526 2.0950949
1.0719435 0.27565312 2.0701745
1.1699089 0.27758235 2.0697906
1.2498425 0.2699255 2.0996702
1.2756326 0.27936766 2.0775783
1.3163477 0.28662446 2.0650609
1.0472261 0.32662576 2.0922885
1.0736117 0.32475913 2.0681798
1.1676468 0.32449359 2.07113
1.2809098 0.32127059 2.0862367
1.3217909 0.32079428 2.0662224
1.3554292 0.33567378 2.0741515
1.0444551 0.37586081 2.0963619
1.0724634 0.37475699 2.069432
1.1793242 0.37213868 2.0862732
1.2842716 0.37091765 2.091521
1.3202274 0.37354347 2.0722668
1.3645365 0.37234089 2.083499
1.042886 0.42724362 2.0965059
1.0688611 0.42454585 2.0710828
1.1727614 0.42446226 2.0791135
1.2926781 0.42651001 2.0913932
1.3251806 0.42524135 2.0749249
1.369453 0.43022859 2.0904136
1.045334 0.47763959 2.0936208
1.0713952 0.47463027 2.0681365
1.1729077 0.46967155 2.0796685
1.2936976 0.47443801 2.0974214
1.3197489 0.47354916 2.0796831
1.3571949 0.47673744 2.0791843
1.0448084 0.52311385 2.0935221
1.0704639 0.52425861 2.0673056
1.1768681 0.52585971 2.0819345
1.279195 0.52799493 2.07165
1.3222765 0.52263206 2.0682008
1.3679782 0.52097917 2.0881217
1.0415113 0.5748775 2.0947142
1.067904 0.57604498 2.0708013
1.1718851 0.5784412 2.0729232
1.2708719 0.55761445 2.0799336
1.3539369 0.56622118 2.0807559
1.0422162 0.6309725 2.0934968
1.0696948 0.62319517 2.0676761
1.1786948 0.62484789 2.0773196
1.0444283 0.67428499 2.0928416
1.0719085 0.67441922 2.0655563
1.1722745 0.67401779 2.0717416
1.042869 0.72165871 2.0918186
1.067402 0.72719646 2.0693548
1.1753448 0.72534603 2.0722101
1.0435337 0.77282006 2.0918515
1.0696552 0.77894515 2.0670855
1.1835458 0.77223361 2.0818462
1.041371 0.82778043 2.0927427
1.0673997 0.82609826 2.0684216
1.179244 0.82282585 2.0768969
1.0425506 0.87529111 2.0905976
1.0687664 0.8749423 2.0664742
1.174768 0.87524748 2.072787
1.2008853 0.86107421 2.0957363
1.0392497 0.92435622 2.0922434
1.0661777 0.92725968 2.0663559
1.1786442 0.92100745 2.0764141
1.04164 0.97399211 2.0907352
1.072682 0.97625214 2.0633349
1.1779134 0.97678936 2.0779459
1.0424107 1.0263991 2.0941634
1.0671109 1.0226793 2.068248
1.1705258 1.0226625 2.0668838
1.043644 1.0703238 2.0934417
1.0716969 1.0726908 2.0664339
1.1718113 1.069211 2.0691395
1.2068857 1.0613403 2.0933278
1.045756 1.122594 2.0934541
1.0723504 1.1262438 2.069231
1.1818255 1.1255786 2.08216
1.2027491 1.1162636 2.092279
1.044227 1.1778189 2.090847
1.070169 1.1737995 2.0696487
1.1771436 1.1786602 2.0770454
1.2062219 1.191564 2.0977483
1.0420806 1.220736 2.093508
1.0699207 1.2255306 2.069145
1.1741273 1.2076373 2.0674028
1.2013826 1.2355633 2.0988517
1.0486335 1.2744876 2.0915234
1.0728768 1.2728361 2.0665386
1.1773342 1.2782453 2.0729101
1.0422865 1.3246043 2.0952277
1.0699464 1.325424 2.0714285
1.1747056 1.3229893 2.0660627
1.0443509 1.3909991 2.0937252
1.0707914 1.3742715 2.0702198
1.1712961 1.3686199 2.0621758
1.0429019 1.4267799 2.0957
1.0688345 1.4244648 2.0708628
1.179738 1.4263328 2.0677454
1.2138586 1.4257804 2.0962923
1.044017 1.4796581 2.0914106
1.0733917 1.4731172 2.0674403
1.1731163 1.4763176 2.0621419
1.0465808 1.5344048 2.0964048
1.0715865 1.5253421 2.0704401
1.1694009 1.5332791 2.0578465
1.2088194 1.5334523 2.0940728
1.0419884 1.577932 2.0979509
1.0670556 1.5760071 2.0721757
1.1780541 1.5747361 2.066705
1.2061914 1.59181 2.0891376
1.0464801 1.6102097 2.0903971
1.0705032 1.6310947 2.0697083
1.1772243 1.6175414 2.0559313
1.2029793 1.6439382 2.0863106
1.0464569 1.6751283 2.0910428
1.0665194 1.6727998 2.0704863
1.1940923 1.6758696 2.0819468
1.2004769 1.6980044 2.0837567
1.0454304 1.7334558 2.0930274
1.069079 1.7241833 2.0716333
1.172289 1.7239324 2.0582523
1.0402364 1.772892 2.0954282
1.067674 1.7743394 2.0730948
1.1890087 1.7629235 2.0695567
1.0498984 1.8158695 2.0951107
1.0688287 1.8171341 2.0719242
1.1661325 1.8454628 2.0532944
1.1954886 1.856927 2.0850065
0.88743687 -0.51254886 2.1083856
0.92782784 -0.51934338 2.1233323
0.97394055 -0.51875389 2.1244955
1.0183094 -0.51370806 2.1093156
0.8790586 -0.47226012 2.118139
0.92525458 -0.47803891 2.1417735
0.98068899 -0.47846639 2.1389165
1.0207489 -0.47282308 2.1132934
0.8411783 -0.41908026 2.1020844
0.87869775 -0.42655787 2.1280985
0.91009647 -0.43017048 2.1443164
0.98678619 -0.42545259 2.1416276
1.021783 -0.42227149 2.117053
0.84004724 -0.37461767 2.1067033
0.878308 -0.37526688 2.1323438
0.91047484 -0.36617881 2.1461978
0.99034977 -0.37495884 2.1421461
1.0233816 -0.37416658 2.1195977
0.84101725 -0.33622241 2.1120324
0.87713885 -0.32398325 2.1358919
0.90755457 -0.3050589 2.1458704
0.99142295 -0.32689807 2.1454499
1.0255857 -0.32394883 2.1218009
1.0504913 -0.3217341 2.1000433
0.83924156 -0.27645749 2.1096857
0.87613177 -0.27659628 2.1337898
0.99419135 -0.27519605 2.1473591
1.0259261 -0.27288279 2.1226497
1.0505358 -0.29446372 2.1030054
0.83686793 -0.22832108 2.1113989
0.87470567 -0.22490855 2.1354749
0.90552843 -0.22280747 2.1480029
0.99212122 -0.22516383 2.1469581
1.025072 -0.22395019 2.1226325
0.92283744 -0.17062783 2.14224
0.99334961 -0.17067042 2.1452916
1.0252664 -0.17563109 2.1214964
0.92421192 -0.1245116 2.1398628
0.99366796 -0.12573133 2.1422994
1.0270629 -0.1251182 2.1192575
0.9237808 -0.076398239 2.1360471
0.99329644 -0.076432034 2.1430907
1.0259413 -0.076003991 2.1185508
0.92268562 -0.028996527 2.1330154
0.9929803 -0.027172634 2.1432257
1.0253053 -0.027000254 2.1180606
0.92361146 0.022670696 2.1337335
0.99324018 0.02207504 2.14378
1.0250527 0.021949859 2.1175382
0.92561287 0.078665577 2.1373951
0.99430734 0.076879598 2.1451442
1.0235056 0.075886793 2.1179669
0.930668 0.12498227 2.1403785
0.99396479 0.12614048 2.1427293
1.0253178 0.12516108 2.1182189
0.93091881 0.17002267 2.1422982
0.99446839 0.17319301 2.1429629
1.0210484 0.17572895 2.1202943
0.9289301 0.22355647 2.144949
0.99136853 0.22536945 2.1449499
1.0187109 0.22416027 2.1222634
0.92850792 0.25611287 2.1413994
0.99131298 0.27897286 2.1448967
1.0198696 0.27364177 2.1204937
1.2274714 0.28277892 2.1231329
1.2612027 0.28453234 2.1257188
0.99107474 0.3253468 2.1443274
1.0226785 0.32471582 2.1186266
1.197396 0.30171657 2.102566
1.2237879 0.32319531 2.1283236
1.2584177 0.32266489 2.1086183
1.3908062 0.33578736 2.1054447
1.4002963 0.34972516 2.1183357
0.99182701 0.37594599 2.1446924
1.0198231 0.37307286 2.1196835
1.2203354 0.3701776 2.1258445
1.2677538 0.37939513 2.108171
0.99377638 0.42650601 2.1421976
1.0213391 0.42418531 2.1191814
1.1913346 0.42636275 2.1003265
1.2213224 0.42736828 2.1290848
1.2742993 0.42796198 2.1091821
1.3853426 0.4244976 2.1083455
0.99155021 0.47239009 2.1444881
1.0199599 0.47617555 2.1196523
1.1971787 0.47353217 2.1033561
1.2224346 0.48234925 2.1306212
1.2772772 0.47491667 2.1210365
1.4147121 0.4630695 2.1482778
0.98897648 0.52396095 2.1443582
1.0193871 0.52641332 2.1182163
1.2200654 0.52634054 2.1244893
1.2728574 0.51836836 2.1130271
0.99059826 0.57800508 2.142782
1.0201062 0.57392657 2.116015
1.2251668 0.56976098 2.1300449
1.2626346 0.55005795 2.1048357
1.3056091 0.56526506 2.1001973
0.98850697 0.62208319 2.1420569
1.018108 0.62346661 2.116425
1.2265282 0.61790907 2.1288905
0.99029237 0.67134678 2.140835
1.0171499 0.67695314 2.1189959
1.2268114 0.67436492 2.1275709
0.992212 0.72691363 2.1395769
1.0195457 0.72459835 2.1147106
1.2277113 0.72216755 2.1271977
0.98914063 0.77794892 2.1428773
1.0175328 0.7747823 2.1161203
1.2245865 0.77770531 2.1251843
0.99011528 0.83128208 2.1406167
1.0184152 0.82279211 2.1150396
1.2218184 0.82077813 2.1212041
0.98845512 0.87527788 2.1419191
1.0158945 0.87617916 2.1175025
1.2298726 0.88402766 2.1263006
0.9912194 0.92508036 2.1408644
1.0183185 0.92463255 2.1173787
1.2247751 0.92740995 2.1266532
0.98914105 0.96665603 2.1428499
1.0172896 0.97738069 2.1181288
1.2243614 0.97131121 2.1220016
0.99253303 1.0251068 2.14254
1.018608 1.0277545 2.1182902
1.2185783 1.0243617 2.1171284
0.9935137 1.0793982 2.1414902
1.0168912 1.0754066 2.1203864
1.2140957 1.0792953 2.1112645
0.99250138 1.123796 2.141048
1.0236287 1.1227443 2.1132731
1.2264246 1.1185879 2.1207259
0.99000567 1.1690551 2.1450973
1.0199897 1.1746736 2.121238
1.226252 1.1715376 2.1262543
0.99153125 1.2300965 2.1442857
1.018271 1.2252831 2.1219773
1.2355934 1.2330178 2.1317904
1.2512786 1.2237525 2.1484568
0.99357522 1.2750711 2.1439211
1.0236796 1.2748331 2.116996
1.2212542 1.2682668 2.1139321
1.2578076 1.2552494 2.1476743
0.99330205 1.3208331 2.1439729
1.0172288 1.3240603 2.1228116
1.2333337 1.3357247 2.1320517
0.99140418 1.3709118 2.1447015
1.0211308 1.3758763 2.1211338
1.2309237 1.3770602 2.1278539
1.255355 1.3869973 2.1435826
0.99761736 1.4239426 2.1425669
1.0207938 1.4260559 2.1202466
1.2273935 1.408779 2.1200333
1.2517505 1.4422964 2.1405602
0.99151134 1.4781654 2.1442935
1.0187256 1.4724406 2.1206765
1.2330983 1.4816527 2.1286125
1.2557054 1.480325 2.1465058
0.99226469 1.5269645 2.1418529
1.0206913 1.523894 2.1182625
1.2376287 1.5275429 2.1312065
1.253011 1.5108624 2.1407597
0.99281549 1.5794666 2.1403832
1.0211862 1.5734538 2.1164348
1.2269763 1.576004 2.1130877
1.2507017 1.5764787 2.1331573
0.98758298 1.6224606 2.1423085
1.0241271 1.62772 2.11555
1.235902 1.6339544 2.1248143
1.2589809 1.6219049 2.1447048
0.99284589 1.6691158 2.1382799
1.02194 1.6761419 2.1156023
0.9910084 1.7273715 2.1409283
1.0186427 1.7249311 2.1174884
1.2337452 1.7323729 2.1213968
0.98856127 1.7762766 2.1431384
1.0204936 1.7797277 2.1172106
0.99207562 1.8313719 2.1410611
