ply
format ascii 1.0
comment PCL generated
element vertex 1488
property float x
property float y
property float z
element camera 0
property float view_px
property float view_py
property float view_pz
property float x_axisx
property float x_axisy
property float x_axisz
property float y_axisx
property float y_axisy
property float y_axisz
property float z_axisx
property float z_axisy
property float z_axisz
property float focal
property float scalex
property float scaley
property float centerx
property float centery
property int viewportx
property int viewporty
property float k1
property float k2
end_header
1.0273572 -0.50577152 0.8732909
1.0761557 -0.51085311 0.87227666
1.1026806 -0.51381695 0.85284364
0.035627171 -0.46679854 0.86270463
0.072152942 -0.48042586 0.87788773
0.12342601 -0.49189463 0.87539238
0.17490961 -0.49126801 0.87395877
0.22581258 -0.48871595 0.87369823
0.27500701 -0.48617253 0.87307537
0.32473841 -0.48468652 0.8733142
0.37635446 -0.48275343 0.87516242
0.42538765 -0.48185211 0.87350982
0.47509417 -0.48166442 0.87257355
0.52414596 -0.48276323 0.87469655
0.57484037 -0.48331213 0.87545264
0.62384588 -0.4851853 0.8728618
0.67414486 -0.48679775 0.87623304
0.72674268 -0.48967373 0.87500697
0.77727854 -0.49146834 0.87637168
0.82365811 -0.49361408 0.87285489
0.87417459 -0.49707276 0.8736074
0.91065729 -0.49796113 0.87470341
0.033286542 -0.44299603 0.86379838
0.05905186 -0.44216526 0.88770193
0.1865662 -0.35089943 0.86614728
0.2039793 -0.35150871 0.88410586
0.18904208 -0.32137412 0.86056
0.21544483 -0.32300666 0.88576841
0.18970457 -0.27651751 0.85779506
0.21571715 -0.27370733 0.88252252
0.19283244 -0.22631623 0.85609591
0.2196891 -0.22392823 0.88115108
0.19615327 -0.1777741 0.85490251
0.22184294 -0.17483293 0.87850332
0.19668771 -0.1290233 0.85143012
0.22306345 -0.12411461 0.87580705
0.19915546 -0.073154412 0.85094482
0.22476682 -0.075230233 0.87509358
0.19978747 -0.041376594 0.85205299
0.2248016 -0.026086744 0.87278378
0.25141653 -0.019745618 0.89743245
0.22566982 0.022830838 0.87117261
0.25203159 0.027065815 0.89687663
0.22611082 0.075537711 0.87122834
0.25455353 0.071788751 0.89654475
0.22596948 0.1248179 0.87296021
0.25326771 0.12329685 0.8983826
0.22767496 0.17433833 0.87323463
0.25381175 0.18374014 0.89752662
0.22685491 0.22437336 0.87186295
0.25282016 0.22407092 0.89738482
0.22689016 0.27410534 0.87164712
0.25316319 0.27700916 0.89750952
0.22781374 0.32434267 0.87202948
0.25517604 0.32319742 0.89627552
0.22838017 0.37367621 0.87160552
0.25463328 0.37661555 0.89743936
0.22868417 0.42436591 0.87220728
0.25671878 0.42311856 0.89685667
0.22874367 0.47419187 0.87224507
0.2535536 0.47321105 0.89712542
0.22903354 0.52343154 0.87201041
0.25637966 0.52459294 0.89531821
0.23137343 0.55237317 0.88160658
0.081970975 0.693434 0.87332541
0.10383103 0.69236356 0.89457923
0.08875338 0.70829725 0.88997954
0.88617337 -0.50074959 0.93254125
0.92672539 -0.50214672 0.92159349
0.97775257 -0.50654089 0.92093778
1.0201396 -0.50894058 0.92341506
1.0754794 -0.51349169 0.91102672
1.102677 -0.51300073 0.90288866
0.086409129 -0.46503654 0.91178679
0.12256215 -0.47925931 0.9275046
0.17341946 -0.49011448 0.92426747
0.22443956 -0.48878306 0.92413294
0.27442366 -0.48513985 0.92397416
0.32489276 -0.48289907 0.92500645
0.37529829 -0.48056829 0.92506593
0.42462716 -0.47854683 0.92356968
0.47505477 -0.47817549 0.92438436
0.52451199 -0.47899824 0.92436266
0.57397097 -0.4817706 0.92481416
0.62530875 -0.48417056 0.92356008
0.67417717 -0.48720929 0.92938256
0.72445136 -0.48873171 0.92654258
0.77355129 -0.49178988 0.92596895
0.82767475 -0.49491113 0.92526507
0.87413526 -0.49723631 0.92408425
0.91416425 -0.49885046 0.91704077
0.084845498 -0.44401315 0.91284156
0.10976812 -0.4400197 0.93383569
0.25757477 -0.35124224 0.92873031
0.24089278 -0.32509977 0.91049755
0.26748705 -0.32396942 0.93545699
0.24153283 -0.27595842 0.90779275
0.26717585 -0.27609137 0.93186563
0.24535882 -0.22452933 0.90624565
0.26826176 -0.22563572 0.92795074
0.24644239 -0.18125056 0.90314811
0.26679119 -0.17329508 0.91990161
0.24938555 -0.12853073 0.90093958
0.26840049 -0.12498621 0.91848642
0.26627776 -0.076258287 0.91417146
0.26682952 -0.027968379 0.91268855
0.26759559 0.023904433 0.91091388
0.26840305 0.078444123 0.91100103
0.26815879 0.1262127 0.91235995
0.26717234 0.17481622 0.90668553
0.27065766 0.22667354 0.91161245
0.26958656 0.27633229 0.9118486
0.26889881 0.32470125 0.91059738
0.27020037 0.37401125 0.9115293
0.2693398 0.42405927 0.9100346
0.26971042 0.47453028 0.90984112
0.26853189 0.52238673 0.90895879
0.1359463 0.69442326 0.92943013
0.15135042 0.69664347 0.94632733
0.095906064 0.72537863 0.90764856
0.12045846 0.72420716 0.92969567
0.12872526 0.75462842 0.94398409
0.81726354 -0.50016075 0.99662554
0.87665051 -0.50363886 0.98231614
0.92657679 -0.50616479 0.97750914
0.97818613 -0.51139528 0.97412223
1.0247641 -0.51347965 0.97157562
1.0601778 -0.51772439 0.97545272
0.13717087 -0.46427169 0.96174544
0.17314328 -0.47671106 0.97658205
0.22467984 -0.48700607 0.97425902
0.27519315 -0.48452386 0.97520292
0.32539994 -0.48124376 0.97456783
0.37533799 -0.47836018 0.97501373
0.42709649 -0.47622228 0.97359651
0.4752135 -0.47442386 0.9757117
0.52569425 -0.4762229 0.97393185
0.57573718 -0.47988588 0.97491384
0.62563682 -0.48324651 0.97598314
0.67631632 -0.48624688 0.97301298
0.72619551 -0.48897338 0.97558326
0.77302271 -0.49112889 0.97212732
0.8241384 -0.49566483 0.97385746
0.8722412 -0.49834675 0.96608299
0.13380629 -0.44278127 0.96014059
0.16248281 -0.44170028 0.98687369
0.28478098 -0.35189775 0.95491254
0.28626716 -0.32483679 0.95570815
0.28633574 -0.29953459 0.95447057
0.28838322 -0.24642633 0.95428503
0.18031678 0.69912785 0.97835684
0.14133103 0.73773301 0.95646596
0.16752653 0.72857767 0.9806242
0.14442527 0.76672655 0.96341467
0.166894 0.77136087 0.98620844
0.17605002 0.80337143 0.99710613
0.79729688 -0.50088602 1.0344616
0.84159398 -0.5010832 1.0218505
0.87927043 -0.50337011 1.0197263
0.92407304 -0.50678754 1.0192478
0.97881824 -0.51479179 1.0186033
1.0194845 -0.51507741 1.0161512
1.0691481 -0.51751953 1.0066644
0.18932492 -0.46343225 1.0089278
0.22392206 -0.47440696 1.0262493
0.27454093 -0.4829576 1.0258659
0.32572249 -0.48058048 1.0242885
0.37509251 -0.47866645 1.0264685
0.42272225 -0.47526708 1.0251309
0.47663212 -0.4736622 1.0283759
0.52447176 -0.47490346 1.0247254
0.57494307 -0.47792047 1.0234678
0.6222828 -0.48173895 1.0260135
0.67289627 -0.48655751 1.0264112
0.72065485 -0.48884207 1.0252837
0.77457643 -0.49375308 1.0227078
0.8228851 -0.49696887 1.0255783
0.86085403 -0.49698877 1.0342588
0.18900612 -0.44189653 1.0108552
0.2145634 -0.44416624 1.0373242
0.22017209 0.69619608 1.0187982
0.19292368 0.73284823 1.0083433
0.21700644 0.72593987 1.0311874
0.18933955 0.77546805 1.009581
0.21078943 0.77520669 1.0326393
0.19269733 0.81234378 1.0136505
0.21371722 0.8233704 1.0350825
0.8351447 -0.50135875 1.0856253
0.87793648 -0.50562638 1.0892832
0.91952085 -0.51030016 1.0671353
0.24083336 -0.46068645 1.0591892
0.27502805 -0.4719533 1.0746571
0.32420796 -0.47888446 1.0766521
0.37433463 -0.47746506 1.0748829
0.42416692 -0.47399914 1.0745652
0.47312531 -0.47261119 1.0757318
0.52551669 -0.47304076 1.0736562
0.57556927 -0.47638559 1.0727249
0.62775087 -0.48131812 1.0719272
0.67590839 -0.48447323 1.0707132
0.72291034 -0.488754 1.0712332
0.77525151 -0.49486831 1.0737383
0.81857854 -0.49728134 1.0617005
0.8637625 -0.49976939 1.0795115
0.24096994 -0.4436529 1.0633491
0.26594719 -0.44131026 1.0833379
0.24039799 0.73848045 1.0609585
0.26789951 0.72827929 1.0863546
0.23723473 0.77776212 1.0620227
0.26068035 0.77311504 1.0853266
0.23714714 0.82353997 1.0622771
0.26096138 0.82571179 1.0869925
0.24187005 0.86111194 1.0679709
0.26313502 0.87158513 1.0912731
1.3878301 -0.56330758 1.1372656
1.4183372 -0.563766 1.1243411
1.4693528 -0.57170981 1.1283603
1.5204352 -0.58344096 1.1426729
0.8252272 -0.50293219 1.1285669
0.87445641 -0.50537908 1.1235
0.9037801 -0.50915998 1.1348619
0.29193425 -0.45811221 1.1070968
0.32562423 -0.4710997 1.1197118
0.37445492 -0.47741669 1.1266996
0.4247317 -0.47552735 1.1254119
0.47421715 -0.47355375 1.1260895
0.52581322 -0.47300202 1.1247755
0.57032973 -0.47622773 1.1223215
0.6229952 -0.48286957 1.1240026
0.66844624 -0.48627651 1.1190189
0.72380191 -0.49185997 1.1245331
0.77539128 -0.49663755 1.1205195
0.8134951 -0.49901402 1.1212356
0.28977802 -0.44302937 1.108628
0.30437967 -0.44279578 1.121911
0.29004049 0.73077768 1.1104077
0.30602676 0.74068666 1.1254041
0.28654554 0.7753734 1.1133606
0.3055619 0.77928352 1.129563
0.28513199 0.82409012 1.1126128
0.30488056 0.82691753 1.1308421
0.28621337 0.87634408 1.1148925
0.30661005 0.86928916 1.1292348
0.28710532 0.90934825 1.1159841
0.30582085 0.91611511 1.1304928
1.287377 -0.55594945 1.1979785
1.3450963 -0.56290704 1.174942
1.3762406 -0.56763095 1.1763263
1.4155277 -0.56781101 1.1706131
1.4702523 -0.57538885 1.1861427
1.5228751 -0.58060753 1.1777142
1.5698526 -0.57986021 1.1874835
0.74477118 -0.50181127 1.1797167
0.76639277 -0.50056154 1.1762884
0.83153039 -0.50457776 1.1721891
0.86756325 -0.50944632 1.1656846
0.90464115 -0.50858438 1.1587074
0.33476892 -0.46548665 1.1659969
0.37744009 -0.47609374 1.1756845
0.42582858 -0.47589386 1.1723218
0.47667456 -0.47528791 1.1760633
0.52304149 -0.47462538 1.1747264
0.57769042 -0.47905183 1.1695493
0.63100773 -0.48613849 1.1735535
0.67711377 -0.49028799 1.1699803
0.72160321 -0.49478742 1.1724323
0.77423137 -0.4985598 1.1697223
1.2868149 -0.56107759 1.2201953
1.3399218 -0.56924009 1.2166415
1.3745756 -0.56979513 1.2307004
1.4295117 -0.57524776 1.2315276
1.4701571 -0.57418048 1.2230918
1.5371115 -0.58208317 1.2274978
1.5665544 -0.57973725 1.224797
1.6241093 -0.58156157 1.2313603
1.6575398 -0.57570744 1.2488523
0.69656515 -0.50197095 1.2490392
0.72108763 -0.50174159 1.2279482
0.7726624 -0.50320834 1.2295833
0.81006247 -0.50618684 1.2073168
0.34666309 -0.46207905 1.2013786
0.37900224 -0.47331628 1.2231979
0.42190331 -0.47929943 1.2224263
0.47248012 -0.47882795 1.2240996
0.52548766 -0.47825515 1.223591
0.57263535 -0.48183379 1.2235469
0.62428015 -0.48816559 1.2236801
0.66824096 -0.49459183 1.2270099
0.72023541 -0.4981114 1.2165229
0.76073837 -0.49889731 1.2095478
1.2391173 -0.56773138 1.2890587
1.2647048 -0.56589842 1.2826986
1.3277214 -0.571935 1.2789278
1.3792347 -0.57211554 1.2778572
1.427577 -0.57278609 1.2648393
1.4794475 -0.57636845 1.2772179
1.521842 -0.57851106 1.2701064
1.575632 -0.57608253 1.2784549
1.6282765 -0.57725912 1.2765739
1.6713154 -0.57149118 1.2793263
0.69966573 -0.50226188 1.2722501
0.71413422 -0.50260621 1.2670993
0.38844025 -0.47091278 1.2627372
0.42622712 -0.48027053 1.2717893
0.47354826 -0.48263645 1.276294
0.52514845 -0.48306134 1.2721341
0.571531 -0.48478746 1.270317
0.62348902 -0.49293429 1.2804222
0.66490334 -0.49523181 1.2735083
1.2262821 -0.56656754 1.3196753
1.3161042 -0.5736233 1.326381
1.380783 -0.57922024 1.3359995
1.4305831 -0.57952148 1.3366206
1.4745075 -0.57863975 1.3238914
1.5305268 -0.57459956 1.3271234
1.568189 -0.56935936 1.3220676
1.6310322 -0.56768811 1.3240417
1.6765918 -0.56226414 1.3252765
1.7176747 -0.55879009 1.3257383
1.759418 -0.55091411 1.3441164
1.7433479 -0.54904449 1.3489735
0.42999005 -0.48330373 1.3182071
0.46900007 -0.48547968 1.3287791
0.52538168 -0.48997208 1.3297881
0.57747954 -0.49070993 1.3191277
0.62893504 -0.49431348 1.3137698
1.1815722 -0.56792241 1.3792193
1.2198192 -0.56840211 1.3716562
1.2795563 -0.57416207 1.3591911
1.3302028 -0.57762372 1.3809522
1.3754306 -0.57645422 1.3716168
1.4226247 -0.57555711 1.3704225
1.474551 -0.57336879 1.3771183
1.5212681 -0.56867927 1.3721881
1.5782686 -0.5642978 1.3732387
1.6276023 -0.5605582 1.3736038
1.6746435 -0.5553506 1.3749853
0.58292502 -0.50102484 1.3831958
0.61999154 -0.50231433 1.3630069
1.6848904 -0.54644567 1.3899122
1.7277952 -0.54115456 1.372545
1.7685103 -0.52263618 1.3783823
0.43805218 -0.488778 1.3686275
0.47375602 -0.49313748 1.3829945
0.52404821 -0.49355358 1.370392
0.56681442 -0.49962944 1.3837392
1.7441667 -0.47713605 1.3935183
1.7638962 -0.47322735 1.3785059
1.7464154 -0.44241536 1.3990725
1.7627945 -0.42254311 1.3900204
1.7650763 -0.37155816 1.3939325
1.7581257 -0.3199341 1.3981384
1.750156 -0.27854884 1.398531
1.7272793 0.086446308 1.3992769
1.7239243 0.12891437 1.3937674
1.7169729 0.18000621 1.3913335
1.7185941 0.21739423 1.3892599
1.7504119 0.44568822 1.3997719
1.7668945 0.47950089 1.3981563
1.7747542 0.52315313 1.3967646
1.7707895 0.56819189 1.3938111
1.0855898 -0.57114679 1.4492322
1.1238084 -0.56794804 1.4282975
1.1712343 -0.57058454 1.4183388
1.2327595 -0.57284409 1.4292835
1.2859703 -0.57768816 1.4251518
1.3249811 -0.57713872 1.4261056
1.3707563 -0.57462919 1.4221089
1.4275774 -0.57415831 1.4316137
1.4820812 -0.57122535 1.4315768
1.5295472 -0.56335759 1.4244174
1.5705684 -0.55882269 1.4208616
1.6133538 -0.55350041 1.4202644
0.49956772 -0.50497562 1.4432074
0.52225095 -0.50176263 1.4274342
0.57071716 -0.5021984 1.4154066
1.5712852 -0.54822057 1.4497318
1.6267692 -0.54540515 1.4249711
1.6792691 -0.53325021 1.4317248
1.7234842 -0.51910406 1.4192996
1.7505684 -0.51715887 1.4015944
0.44092146 -0.48936224 1.4086674
0.46307614 -0.49455938 1.4301671
0.50126195 -0.4992626 1.4250544
0.55639172 -0.49601564 1.4000949
1.6891538 -0.47434977 1.4421699
1.7181411 -0.47064134 1.4168404
1.6912174 -0.4362686 1.4455421
1.7224919 -0.42077121 1.4222697
1.6962371 -0.36984956 1.446479
1.7247077 -0.37374437 1.4243681
1.7536323 -0.3712776 1.4027977
1.6947106 -0.3494958 1.4493265
1.724704 -0.3269338 1.4264078
1.7654392 -0.34139672 1.4002583
1.6968533 -0.27813068 1.4453348
1.7272255 -0.27780858 1.4230376
1.7556773 -0.28610548 1.4018388
1.6937923 -0.23784414 1.4486643
1.725389 -0.22775479 1.4232091
1.7525069 -0.23893775 1.4062433
1.6964314 -0.16252223 1.4411988
1.7247933 -0.17932384 1.423628
1.6927944 -0.1310022 1.4437251
1.7236401 -0.1279798 1.4212121
1.6916083 -0.078030668 1.4397835
1.719154 -0.078144908 1.418965
1.6871828 -0.0263454 1.4377028
1.7194517 -0.028623097 1.4130665
1.6832731 0.022418166 1.4382484
1.7180873 0.020702077 1.4119523
1.6796917 0.077891454 1.4351313
1.7136784 0.072526135 1.4103771
1.6745428 0.12840416 1.4337585
1.7087333 0.12883429 1.4082911
1.6438733 0.1865039 1.4469832
1.6747674 0.17768219 1.4252301
1.704715 0.1704662 1.4057132
1.6467029 0.21619435 1.4459051
1.6730171 0.21648884 1.4232904
1.7016479 0.21707432 1.4022827
1.76275 0.24384999 1.4314575
1.7750094 0.27537563 1.427533
1.7922977 0.34886527 1.4196106
1.8170775 0.33297941 1.4431618
1.7721254 0.37910709 1.4219264
1.8125361 0.37346458 1.4314647
1.7672585 0.4253839 1.4152604
1.8052013 0.42352259 1.4142834
1.7587026 0.47339311 1.4207195
1.8211288 0.47588155 1.4148761
1.7486836 0.51170659 1.4181541
1.7649355 0.52753145 1.4111098
1.8429596 0.52185655 1.42115
1.7646533 0.57210207 1.4250828
0.93970406 -0.55219543 1.4947879
1.0271024 -0.55870062 1.472
1.0756191 -0.56792992 1.4778465
1.1302376 -0.57082897 1.4791592
1.1781838 -0.56987 1.4637451
1.225931 -0.57533878 1.4837393
1.2672884 -0.57525891 1.473932
1.3185487 -0.57465315 1.4748263
1.3758268 -0.57642919 1.4772187
1.4268466 -0.57125288 1.4782604
1.4691138 -0.56273174 1.4706002
1.5300102 -0.55552262 1.4712729
1.5814223 -0.55175275 1.4590271
0.4930563 -0.502285 1.4615207
0.52834308 -0.50447035 1.469381
0.55746543 -0.50906807 1.4928935
1.5438187 -0.54548299 1.4603577
1.5812979 -0.54252142 1.4845155
1.6289423 -0.52721322 1.4761748
1.6672056 -0.51537019 1.4633337
0.4721396 -0.49554205 1.4654742
0.5244242 -0.49964687 1.4711804
1.6355829 -0.47244385 1.4836413
1.6675 -0.46966541 1.4598647
1.6417816 -0.42449713 1.4897958
1.6731417 -0.41923174 1.4646559
1.6410774 -0.38125467 1.4939923
1.67124 -0.37493256 1.4698166
1.6421252 -0.32423875 1.4947385
1.6726017 -0.32940003 1.4690648
1.6379732 -0.27756789 1.4948217
1.6714036 -0.27810055 1.4692636
1.6406975 -0.22712369 1.4896951
1.673063 -0.22754364 1.4648449
1.6388203 -0.17715807 1.4900326
1.6726477 -0.17753738 1.4649538
1.6362537 -0.12487193 1.4875584
1.6677668 -0.12813275 1.4633588
1.6349379 -0.077864528 1.4844483
1.6684086 -0.077992551 1.459312
1.6305711 -0.027416974 1.4842186
1.6620522 -0.031115593 1.4597259
1.6252992 0.026405798 1.4826087
1.6574987 0.022451943 1.4585005
1.5891303 0.098094434 1.4956042
1.6257974 0.07903754 1.4757316
1.6596278 0.06950812 1.451777
1.5913613 0.1274811 1.4956725
1.6240602 0.12780583 1.4710716
1.5869613 0.17371324 1.4941952
1.6208961 0.17526688 1.4688624
1.5866245 0.21524085 1.4914113
1.6191441 0.21573345 1.4667183
1.7883905 0.27641347 1.4668154
1.8199224 0.27419862 1.4938214
1.8346653 0.33389795 1.4768252
1.7928365 0.39139739 1.4682503
1.8199286 0.36806634 1.486764
1.7863429 0.43299919 1.4724473
1.805961 0.41238931 1.4945289
1.7817786 0.46974373 1.4731117
1.7790276 0.52644986 1.4690602
1.7703724 0.57124096 1.4588389
0.88316143 -0.55036449 1.5467583
0.92381912 -0.5544098 1.5427028
0.97768992 -0.55912066 1.5334576
1.0396676 -0.57111019 1.545043
1.0760163 -0.57102352 1.5304718
1.1182479 -0.57151967 1.5223626
1.1775355 -0.57470417 1.5283024
1.2242105 -0.57328832 1.5299485
1.2704459 -0.57240236 1.5165671
1.3276116 -0.57429671 1.5243427
1.3750887 -0.57018131 1.5265669
1.4248486 -0.5634346 1.5233874
1.4776464 -0.55434108 1.5222278
1.5223614 -0.55398709 1.5055166
0.48797882 -0.50529051 1.5246162
0.51871049 -0.50882262 1.5181164
0.58469802 -0.51394552 1.5286957
1.4978262 -0.54394698 1.5465245
1.530268 -0.54158616 1.5311683
1.5792341 -0.52529037 1.5258932
1.6133785 -0.51295292 1.5137337
1.5803568 -0.47136262 1.5324683
1.6113017 -0.46687636 1.5073024
1.5869733 -0.42655393 1.5369788
1.61611 -0.42400131 1.5126728
1.5873399 -0.37706986 1.5380191
1.6169313 -0.37867558 1.5141339
1.5873882 -0.32876253 1.5393326
1.6170927 -0.32811373 1.513267
1.5868713 -0.27740464 1.5394636
1.6125447 -0.27750579 1.5175691
1.585502 -0.22682914 1.5358585
1.6169252 -0.22571443 1.5117778
1.5810581 -0.17688264 1.5371176
1.6126149 -0.17704637 1.5119177
1.5822828 -0.12724945 1.533236
1.6127245 -0.1272735 1.5070767
1.5770513 -0.07778351 1.5309575
1.6086107 -0.077828027 1.5060638
1.5472479 -0.023776721 1.5489211
1.5769014 -0.027385334 1.5262363
1.6082158 -0.036849301 1.5039544
1.543921 0.025046533 1.5454521
1.5756665 0.025135461 1.5217628
1.5377127 0.082229204 1.5442626
1.5715445 0.077897519 1.5176843
1.535138 0.13082013 1.5388077
1.5672004 0.12570061 1.5152059
1.5319365 0.17727351 1.5365727
1.565979 0.17538048 1.5126708
1.5347878 0.2140267 1.5348232
1.5675893 0.22398934 1.5178567
1.622023 0.23925333 1.5127201
1.7837892 0.27602059 1.5382588
1.8178653 0.28198397 1.5250325
1.8266209 0.330549 1.5294039
1.7982565 0.38276622 1.5272218
1.8265675 0.35838601 1.524078
1.7971928 0.42180195 1.526289
1.8019019 0.42614901 1.5209261
1.7973629 0.47587633 1.5143856
1.8056414 0.45179635 1.5449665
1.7955641 0.51034355 1.5001221
1.8027418 0.5138483 1.5158236
0.87664682 -0.55559301 1.5732584
0.92630851 -0.55827177 1.5760145
0.97773534 -0.56414342 1.5730325
1.0283997 -0.56703687 1.5661932
1.0663824 -0.56928068 1.5739009
1.1199045 -0.57303262 1.5806988
1.1712431 -0.57274437 1.5793352
1.2210791 -0.57027644 1.5760151
1.2717084 -0.56885087 1.572816
1.3234137 -0.56842214 1.569844
1.3741781 -0.55991203 1.5754991
1.4172403 -0.55626935 1.5691159
1.4658171 -0.55115485 1.5563725
0.49242699 -0.50611293 1.5536808
0.52137542 -0.51235831 1.5716952
0.5715096 -0.52048898 1.5822346
0.87675166 -0.54849404 1.5753005
1.4380966 -0.5468052 1.5777342
1.4780765 -0.53849852 1.5789994
1.5265087 -0.52083707 1.5742157
1.5613059 -0.51379234 1.5571607
0.49105689 -0.49691626 1.5800135
1.5254388 -0.47103927 1.5784
1.5557377 -0.46522552 1.5545294
1.5300318 -0.42734846 1.5833209
1.5612429 -0.42315903 1.5578197
1.5341719 -0.37725323 1.5839211
1.5641632 -0.38158271 1.5589203
1.535102 -0.3292827 1.5837836
1.5627145 -0.32710728 1.56073
1.5321614 -0.27600703 1.584669
1.5617987 -0.27869707 1.5596594
1.5312448 -0.22695005 1.5833094
1.5611328 -0.22693308 1.5581801
1.5278457 -0.17637712 1.5810039
1.5564941 -0.17802013 1.5566078
1.526221 -0.12717831 1.5782696
1.5555408 -0.12711373 1.5529999
1.4993373 -0.058103047 1.5903443
1.5241661 -0.077760845 1.5731723
1.5510193 -0.084274888 1.5509497
1.4936157 -0.018967053 1.594138
1.5219781 -0.030842125 1.5707364
1.4905787 0.024978789 1.5907089
1.519527 0.025008826 1.5662285
1.4844074 0.081070863 1.5878961
1.515606 0.075518444 1.5641674
1.4832876 0.12835404 1.5853126
1.5098631 0.12406118 1.5611871
1.4795744 0.17586643 1.5850747
1.5055985 0.17785531 1.5602975
1.4788063 0.21655348 1.5842831
1.5133358 0.22507282 1.568294
1.5648443 0.2395235 1.5690455
1.7458111 0.26343736 1.5674289
1.7676618 0.28701642 1.5718725
1.7870756 0.3125934 1.5733795
1.8122673 0.33040109 1.5668257
1.7990081 0.36455035 1.5584314
1.8282719 0.35855579 1.5759068
1.7955499 0.43172804 1.571101
1.7989281 0.49879047 1.567608
1.8005862 0.4531998 1.5603622
0.87113911 -0.55938941 1.6384454
0.92432356 -0.56261301 1.6222051
0.96410954 -0.56080914 1.6149019
1.0258282 -0.56962627 1.6240855
1.0803185 -0.5703811 1.6301218
1.1303171 -0.56952316 1.6217681
1.1738542 -0.56518066 1.6204134
1.2237221 -0.56443578 1.6179051
1.2751632 -0.56328028 1.6252391
1.3210182 -0.55839413 1.6221844
1.3689193 -0.55342054 1.6188601
1.4078439 -0.55168283 1.6041787
0.5317418 -0.5179075 1.6242634
0.58154476 -0.52538329 1.6155591
0.62454659 -0.5312627 1.6240495
1.384426 -0.54277152 1.6414847
1.4289844 -0.53568971 1.6280047
1.4755064 -0.51759893 1.6247317
1.5096908 -0.5117985 1.6041265
1.4486916 -0.47644269 1.6452765
1.4756494 -0.47152522 1.6216905
1.4752537 -0.423044 1.6312766
1.506827 -0.42200065 1.6046755
1.4787481 -0.37747347 1.6323481
1.5074188 -0.38143215 1.6071663
1.4810162 -0.32842445 1.63055
1.5102427 -0.32823527 1.6060919
1.4763675 -0.27755663 1.6317446
1.5062512 -0.27731031 1.6061252
1.4778568 -0.22718622 1.6283118
1.5062964 -0.22695518 1.6035389
1.4745765 -0.17592733 1.6258284
1.5022187 -0.186866 1.6035632
1.4487687 -0.11261697 1.6428719
1.4745915 -0.12836067 1.6211071
1.4431096 -0.078034543 1.6432917
1.4738501 -0.07791651 1.6170496
1.4386904 -0.028897991 1.6434965
1.4682721 -0.030159377 1.617244
1.4407095 0.024972007 1.636542
1.4677174 0.024978658 1.6116647
1.4393097 0.078717202 1.6334652
1.4621407 0.076813869 1.6107498
1.4333818 0.12749955 1.63322
1.4594208 0.1272482 1.6074556
1.4337577 0.1763923 1.6297365
1.4567304 0.17279822 1.6069025
1.4331536 0.21849301 1.6328076
1.4627208 0.22787373 1.6160811
1.7654103 0.28935418 1.6015801
1.794799 0.33763146 1.620844
1.7885911 0.40143374 1.6022631
0.74158043 -0.55432671 1.6783609
0.76883274 -0.56135333 1.6938156
0.87565446 -0.5689556 1.6819135
0.92253208 -0.56706738 1.6736872
0.97552598 -0.56553137 1.6733736
1.0205152 -0.56827998 1.6708853
1.0739512 -0.56774139 1.6789207
1.1261822 -0.56433833 1.6724697
1.1781756 -0.56194949 1.6699198
1.2274171 -0.561517 1.6705836
1.2749324 -0.55524498 1.674394
1.3243078 -0.55190408 1.6639472
0.53848171 -0.51771277 1.6762238
0.57455176 -0.52519327 1.672712
0.62657493 -0.53649491 1.6774082
0.67591029 -0.54262155 1.6837571
0.70550144 -0.54583669 1.6766369
1.3310351 -0.5432995 1.6805975
1.3793255 -0.53306448 1.6768755
1.4223309 -0.51617759 1.6688362
1.4617605 -0.50606388 1.6536976
1.3900664 -0.47071448 1.6961825
1.4216628 -0.4725028 1.6721972
1.4503009 -0.45687172 1.6519425
1.3998166 -0.4015862 1.6997174
1.4247307 -0.42204189 1.6757596
1.425374 -0.37429196 1.6798497
1.454334 -0.37490585 1.6546724
1.4247863 -0.32738298 1.6794946
1.4573009 -0.33067378 1.6551028
1.3973331 -0.26353711 1.6994989
1.4256994 -0.2791608 1.6767974
1.4542286 -0.27788496 1.6514838
1.4257452 -0.22683981 1.6750867
1.4507949 -0.24249679 1.6522335
1.3991187 -0.15800628 1.6934391
1.4234779 -0.1783314 1.6722565
1.3953052 -0.12810443 1.6939325
1.4236602 -0.12781517 1.6685536
1.3898752 -0.076317482 1.6950288
1.4183547 -0.078266852 1.668061
1.3897414 -0.026907347 1.6918895
1.4136786 -0.028479928 1.6684184
1.3898091 0.026510954 1.6888338
1.4146395 0.023722958 1.6636851
1.3863698 0.080844976 1.6864499
1.4138159 0.078902878 1.6593055
1.3838104 0.12827227 1.685779
1.4083211 0.127849 1.6594899
1.3847439 0.17756537 1.6831716
1.408567 0.17687678 1.6559532
1.38345 0.21852094 1.6811556
1.4108492 0.22051136 1.6561067
0.73049057 -0.55363542 1.725889
0.78246182 -0.56414652 1.7214106
0.82383168 -0.57084966 1.7309257
0.87902439 -0.57253987 1.7214215
0.97632927 -0.57142746 1.7322586
1.033428 -0.56665593 1.7290788
1.075618 -0.56437153 1.7222792
1.1251028 -0.55977458 1.7247727
1.1806433 -0.559322 1.7271271
1.2231183 -0.55573744 1.7202319
1.2581255 -0.5529269 1.7220595
0.54373646 -0.50641632 1.7268977
0.57360339 -0.52314657 1.735749
0.62932813 -0.53674841 1.7340361
0.6726979 -0.5428037 1.7294146
0.73559904 -0.5486753 1.727038
1.2783387 -0.54488283 1.7331508
1.3249767 -0.53351659 1.7293696
1.3679401 -0.51765484 1.7174708
1.4035472 -0.5070672 1.7009802
0.5486657 -0.48461589 1.7477813
1.3391646 -0.47388232 1.7405826
1.3698657 -0.47501525 1.7187582
1.4038675 -0.49703217 1.7038754
1.3454798 -0.42752755 1.7458267
1.3736169 -0.42294976 1.7208935
1.344538 -0.38802439 1.7487562
1.3750037 -0.3715581 1.7225102
1.3491423 -0.32113904 1.7460477
1.3750632 -0.32318881 1.7234811
1.3457816 -0.27523834 1.7479272
1.3748678 -0.27785024 1.7221688
1.4005722 -0.28910753 1.7001066
1.3455745 -0.2262115 1.7468144
1.3741109 -0.22953579 1.720498
1.3449491 -0.18281379 1.7444119
1.3748672 -0.17856143 1.7184662
1.3429295 -0.12752338 1.7439728
1.3700382 -0.12847258 1.7175821
1.3414896 -0.077687375 1.7444054
1.365895 -0.079762369 1.7203553
1.3398226 -0.027065314 1.7408881
1.3676305 -0.032369796 1.7165568
1.3391999 0.025167398 1.7370833
1.3649011 0.025111424 1.7131629
1.3379253 0.079550497 1.7340701
1.3612103 0.07701806 1.7101179
1.3369954 0.12973702 1.7348264
1.3590171 0.12869583 1.7112887
1.3337815 0.17858562 1.7321169
1.3586612 0.17798078 1.7071613
1.3318856 0.21916233 1.7326585
1.3612194 0.21784957 1.7066106
0.71839345 -0.55064172 1.7737807
0.77334887 -0.55840904 1.7675532
0.82173693 -0.56865335 1.7796474
0.87407285 -0.57506722 1.7651521
0.92861331 -0.57665861 1.7682251
0.97293055 -0.57543582 1.7761223
1.02508 -0.5682649 1.7713135
1.0778069 -0.56298518 1.7768929
1.123745 -0.55672556 1.7741573
1.1692728 -0.55535352 1.770532
0.58104306 -0.51240051 1.7705375
0.62261975 -0.52943856 1.7781793
0.67850929 -0.54182094 1.7732707
0.72279763 -0.54708284 1.7773165
1.184992 -0.54845631 1.7778728
1.2283036 -0.5435403 1.7712003
1.2792977 -0.53027976 1.7814368
1.3180778 -0.51410943 1.7684479
0.54899561 -0.46726862 1.7521644
0.56933272 -0.47665331 1.7764989
1.2852511 -0.47120947 1.7883891
1.314718 -0.47244903 1.7629608
0.55949384 -0.42690545 1.7782671
1.2896832 -0.43032533 1.7933302
1.3193039 -0.4244121 1.7692661
0.54841179 -0.37869343 1.7648619
0.56045151 -0.39280388 1.7868571
1.2940935 -0.37069625 1.796726
1.3222295 -0.3737604 1.7707386
1.2970736 -0.3232384 1.7937529
1.3233714 -0.322238 1.7704153
1.294522 -0.27214688 1.796828
1.3207227 -0.27028248 1.7714316
1.2944673 -0.21725598 1.7951512
1.3200026 -0.22291088 1.7699271
1.2916416 -0.17248334 1.7936126
1.3216693 -0.17619595 1.7677476
1.2903782 -0.12763309 1.7925783
1.3193783 -0.12990099 1.7682685
1.2893702 -0.079760119 1.7943943
1.3168344 -0.079812244 1.76717
1.2906061 -0.029590525 1.7874767
1.316036 -0.029470248 1.7639591
1.2899706 0.020331865 1.7866439
1.3149035 0.020273983 1.7624927
1.2852519 0.073942505 1.7854142
1.3139549 0.074898683 1.7599566
1.2834694 0.12618582 1.7842745
1.3136425 0.1289095 1.7599708
1.2816192 0.17713954 1.7822044
1.3095481 0.17931023 1.7575639
1.2795515 0.21782516 1.784552
1.3165306 0.22561191 1.7659464
0.74335176 -0.550776 1.8395652
0.76701117 -0.55474812 1.8225714
0.82463896 -0.57017833 1.8190588
0.87374097 -0.5760451 1.8271421
0.93291312 -0.58103973 1.8260751
0.97751385 -0.57691294 1.8247964
1.0242674 -0.56926161 1.8258976
1.0700344 -0.56114656 1.823863
1.1188321 -0.55445099 1.8216364
1.1577122 -0.55211741 1.8078152
0.59438819 -0.50085312 1.8002608
0.62661797 -0.51609635 1.8224237
0.67018878 -0.53489619 1.8163221
0.7231952 -0.54688466 1.8215942
1.135083 -0.54814184 1.8477056
1.1768486 -0.54457629 1.8305061
1.2276691 -0.52635211 1.8279947
1.270774 -0.512851 1.8127829
0.59308678 -0.46731415 1.8126839
0.61631131 -0.47823483 1.8346567
1.2337704 -0.47265276 1.8364955
1.261416 -0.47594675 1.8110199
0.5896759 -0.42770565 1.8207706
0.60987246 -0.41850525 1.8448128
1.2404399 -0.42930159 1.8374097
1.2679029 -0.42497754 1.8144041
0.57988429 -0.3704578 1.8203589
0.60288197 -0.38332075 1.8468642
1.2409748 -0.38011339 1.8413926
1.269379 -0.37611428 1.8170093
0.58080858 -0.32464692 1.8267049
1.2404125 -0.32567447 1.8433907
1.270593 -0.32425991 1.8163345
0.57762104 -0.27466321 1.8226758
1.2402588 -0.27259833 1.8420353
1.268836 -0.27382618 1.8185602
0.57780403 -0.22105171 1.8210913
1.2431705 -0.22455974 1.841339
1.2699883 -0.22183129 1.8173307
0.57423997 -0.19806199 1.8222542
1.2414949 -0.17162101 1.8404173
1.2660744 -0.17081541 1.8159447
1.2384487 -0.11903879 1.8417923
1.2644705 -0.12145343 1.8182675
1.2396978 -0.069390506 1.8377609
1.2657324 -0.077980079 1.8143617
1.2372563 -0.02546259 1.8362211
1.2653453 -0.029725267 1.8108977
1.2364043 0.022123368 1.8353623
1.2635175 0.020364173 1.8083291
1.2341659 0.070708632 1.8344043
1.2606359 0.068627305 1.8104248
1.2311114 0.12227295 1.832274
1.2581809 0.12040646 1.8074433
1.2282529 0.17113186 1.8304465
1.2573701 0.16924898 1.8056371
1.2300907 0.21569417 1.8273987
1.2603171 0.2218359 1.8129314
1.3227836 0.24601994 1.8188964
1.4507333 0.25601217 1.8468853
1.3267698 0.30676749 1.8477911
0.78858781 -0.55784571 1.8718905
0.82032073 -0.56265771 1.871873
0.87801039 -0.58341581 1.8806365
0.92255837 -0.58094436 1.8727312
0.97279358 -0.57871175 1.8682789
1.0228186 -0.57042992 1.8787304
1.0740446 -0.55744243 1.8770791
1.1093982 -0.55054176 1.8699853
0.64381546 -0.50920761 1.8593649
0.67617595 -0.52595788 1.8744789
0.72220111 -0.5420109 1.8759761
0.75843215 -0.54874897 1.8655928
1.1319838 -0.54315215 1.8803296
1.1787369 -0.52582574 1.8799195
1.2144037 -0.51469648 1.8634009
0.6408323 -0.47391862 1.8721811
0.65789229 -0.48032323 1.8864805
1.1802607 -0.47008204 1.882833
1.2099122 -0.47683021 1.8644217
0.62854451 -0.42391241 1.8700222
0.65172499 -0.43910125 1.8956183
1.1856128 -0.42439401 1.8875957
1.2137526 -0.42392036 1.8623568
0.62524039 -0.37125811 1.8773096
1.1866404 -0.37549117 1.8898978
1.216444 -0.37595034 1.8640745
0.61743557 -0.32642564 1.8710095
1.1894903 -0.32853073 1.8903202
1.2148789 -0.32705241 1.8667978
0.59993762 -0.27571571 1.850705
0.6219157 -0.27620941 1.8789012
1.1891087 -0.27388385 1.8888429
1.2176291 -0.27616698 1.8647215
0.59949595 -0.23877025 1.8527803
0.62218064 -0.22649844 1.8788791
1.1881328 -0.22454582 1.8888817
1.2178379 -0.22250125 1.863798
0.69216371 -0.16524337 1.893636
0.70180309 -0.1652897 1.8917593
1.1867194 -0.17324837 1.8906704
1.2165558 -0.17238936 1.8642105
0.69403553 -0.11991267 1.8930138
0.70104522 -0.12891847 1.8916192
1.1850048 -0.12252441 1.8882381
1.2145083 -0.12195204 1.8640448
0.69330168 -0.075108059 1.886512
1.1849662 -0.069171876 1.8857989
1.2144525 -0.07231877 1.8604417
0.69267356 -0.028064381 1.8856599
1.1832352 -0.023976674 1.8861754
1.2126746 -0.026658256 1.8606313
0.69303423 0.023615504 1.886631
1.1821263 0.020582067 1.88332
1.2123156 0.017984506 1.8583889
0.6930415 0.075282514 1.8857031
1.1792047 0.071295597 1.8834136
1.2087514 0.070961028 1.8570353
0.69336367 0.12231934 1.8848568
1.1799184 0.12274072 1.8800864
1.2073555 0.11415553 1.8546832
0.69326508 0.17344278 1.8888183
0.70105195 0.17714296 1.8887219
1.176953 0.17387173 1.8793302
1.2032355 0.17184713 1.8536743
0.69561779 0.22327182 1.8987933
0.70476681 0.22317737 1.8954272
1.1770954 0.21358967 1.8792191
1.211894 0.22396493 1.8628836
1.2688479 0.24843425 1.8741899
0.69519407 0.28008372 1.8923795
1.2923779 0.27990043 1.874264
1.3213797 0.28107423 1.8692662
1.4782879 0.28149098 1.8821056
1.5022447 0.29602242 1.887429
0.69960111 0.3391667 1.897851
1.2939181 0.30421481 1.8595618
1.3135173 0.31450534 1.8536942
1.4815913 0.32248259 1.8889232
1.5110841 0.3087759 1.8970758
1.4876746 0.37653303 1.8939471
1.485204 0.42485416 1.8984709
0.78211969 -0.5524286 1.9122353
0.82131171 -0.55674613 1.9309567
0.87508625 -0.57622159 1.9210616
0.92631596 -0.58213729 1.928395
0.9805249 -0.57770491 1.9213731
1.0242867 -0.56882054 1.9225962
1.0649877 -0.5541988 1.9281445
0.68890995 -0.51322347 1.9124645
0.72747344 -0.52919537 1.9324609
0.77502775 -0.5484556 1.9232922
1.0904049 -0.54270685 1.9307069
1.1258535 -0.52605486 1.9262508
1.1663009 -0.51207757 1.9148506
0.6797362 -0.47606373 1.9163533
0.70273304 -0.47817317 1.946579
1.1273087 -0.47323918 1.9306072
1.1549541 -0.46807772 1.9055002
0.672481 -0.42160934 1.9223984
1.1323016 -0.4265891 1.9349079
1.1601982 -0.42181501 1.9102616
0.66569835 -0.37527215 1.9233432
1.1354719 -0.37388155 1.9372004
1.1617315 -0.3705745 1.9125127
0.63793194 -0.31764853 1.9015391
0.66262835 -0.32780451 1.9237473
1.1322349 -0.3244116 1.9399291
1.1628368 -0.3245773 1.9123776
0.64871883 -0.27790672 1.9074285
0.67117268 -0.27422279 1.9347528
1.1353912 -0.27776122 1.9360062
1.1652064 -0.27750918 1.910902
0.6467222 -0.22969785 1.9058371
0.66538167 -0.22328381 1.9309943
1.1328703 -0.22666021 1.9365768
1.163045 -0.22564866 1.9124135
0.68342578 -0.16692843 1.9368311
0.70943129 -0.19357416 1.9393603
1.131012 -0.17534901 1.9373025
1.1601397 -0.17386866 1.9115969
0.67816734 -0.13005109 1.9406292
0.70020401 -0.11618041 1.9472187
1.1285479 -0.12313988 1.9377396
1.1587595 -0.12250672 1.9122635
0.67715824 -0.074239723 1.9366785
0.70011938 -0.077408865 1.9482729
1.1312606 -0.071574539 1.9332472
1.1615807 -0.071207032 1.9080566
0.67606241 -0.029187413 1.9298459
1.1298413 -0.025366023 1.9316536
1.1583691 -0.028628809 1.9071544
0.67883188 0.024091689 1.9332833
1.1290363 0.020740541 1.9302521
1.1583173 0.02066558 1.9062105
0.67180562 0.078682505 1.9352394
1.1283529 0.071900211 1.9281288
1.1538277 0.071586333 1.9058664
0.67519385 0.12023084 1.9353509
1.1268054 0.12382951 1.9260197
1.1540005 0.12254616 1.9041599
0.68129063 0.16790746 1.9383805
1.1264322 0.17468502 1.9247626
1.1536218 0.16326056 1.9012278
0.69107705 0.22360891 1.9183383
0.70403498 0.24033543 1.9207845
1.1251309 0.21555914 1.9255799
1.1553584 0.21451667 1.9002444
0.69463682 0.27673629 1.9152724
0.70784301 0.27466118 1.9085712
1.2663118 0.26365384 1.9218321
1.4752533 0.27518842 1.9187082
0.69410568 0.32671651 1.913167
0.71245497 0.31402907 1.9217261
0.69764239 0.37671345 1.916723
0.70551175 0.37577048 1.9094254
1.4848988 0.37544867 1.9088399
1.5216923 0.36768949 1.9127398
0.70757961 0.42323908 1.9230433
1.4841748 0.42540136 1.9153107
1.50269 0.42270902 1.9112229
0.71270329 0.48348519 1.9427255
1.4936919 0.45668459 1.9147472
1.5007124 0.46226394 1.9453639
1.4946132 0.50526458 1.9281875
0.84042537 -0.55664182 1.9739785
0.87589014 -0.56353837 1.974334
0.92587107 -0.57169074 1.9813871
0.97257674 -0.57269514 1.9728839
1.0221128 -0.56427217 1.9731482
1.0569597 -0.55497736 1.9740177
0.73836887 -0.51711303 1.9668278
0.77393699 -0.53181958 1.9771653
0.80598968 -0.54390556 1.9759753
1.0818262 -0.53617758 1.9786509
1.1124824 -0.51224256 1.9709704
0.72596258 -0.47205302 1.9757296
1.0907323 -0.4675374 1.9699075
1.1076628 -0.47863296 1.9634506
0.71509731 -0.42335996 1.9752388
1.0942222 -0.42883 1.9812833
1.1065253 -0.42617095 1.9571847
0.68917972 -0.36939371 1.954595
0.71377182 -0.37724683 1.9817381
1.0949003 -0.37781462 1.9799109
1.1093615 -0.37560698 1.9596201
0.69034612 -0.31537446 1.9582897
0.71276951 -0.32764995 1.9811172
1.0963572 -0.32038024 1.9832995
1.1088238 -0.32520184 1.9617476
0.69220179 -0.27224976 1.961908
0.71401155 -0.28169602 1.9856467
1.0972059 -0.27939552 1.9827254
1.1082873 -0.27486229 1.9584593
0.69136566 -0.22335951 1.9589659
0.71939826 -0.22502808 1.9893188
1.0980928 -0.22927412 1.9789616
1.1088018 -0.22797038 1.960664
0.6755656 -0.18217519 1.9560218
0.70622325 -0.19536826 1.959746
1.0957217 -0.17674637 1.9785696
1.106555 -0.17480791 1.960642
0.67826945 -0.10982127 1.9547459
0.70421892 -0.121775 1.9581441
1.095796 -0.1246904 1.9815681
1.1046233 -0.12392823 1.9631113
0.69682705 -0.078128584 1.9687072
0.70197773 -0.091429435 1.9729577
1.0951951 -0.072492234 1.9785162
1.1035247 -0.072075576 1.9617653
0.69229198 -0.024180509 1.9568012
0.70224649 -0.029049223 1.9550637
1.0971152 -0.025692655 1.975172
1.1048521 -0.025508825 1.9548934
1.096651 0.020980965 1.9755893
1.1049529 0.020884776 1.9588313
0.69349796 0.077988178 1.9591516
0.70337176 0.073122054 1.9573176
1.0960807 0.072783038 1.9723476
1.1045692 0.072325923 1.9534311
0.67171305 0.13268967 1.9549733
0.70668483 0.12238511 1.9648515
1.0957575 0.12466315 1.971077
1.1040225 0.11988162 1.9552431
0.67565638 0.17693639 1.9589626
1.0954357 0.17633559 1.9662809
1.1062912 0.17216724 1.9517685
0.67814678 0.22538328 1.9679344
0.70555526 0.22471175 1.9554144
1.0953647 0.21776347 1.9630765
1.1288573 0.24234223 1.9863943
1.1500374 0.24237876 1.9776288
0.68070662 0.27535406 1.9710503
1.2810526 0.25815636 1.9670711
0.6845243 0.31148091 1.9785819
0.73056304 0.33465245 1.9544257
1.5132278 0.37246197 1.955748
1.511351 0.42011699 1.9675637
0.72486943 0.48587713 1.9614114
1.5133162 0.4622559 1.9738551
1.4988499 0.53319156 1.950454
0.88091314 -0.55600703 2.0160191
0.92291647 -0.55508399 2.0308554
0.97430009 -0.56037718 2.0240958
1.022074 -0.55462676 2.0098498
0.78270769 -0.52182847 2.0211232
0.82481444 -0.53919876 2.0313411
0.86999762 -0.54644853 2.0344284
0.98514187 -0.54733378 2.0481572
1.0282508 -0.54473585 2.0352917
1.0736442 -0.53012186 2.0255053
1.107336 -0.51120269 2.0432103
0.77251244 -0.48042944 2.0258291
1.0983053 -0.47719899 2.036088
1.1039673 -0.46396264 2.0324781
0.74445236 -0.42664331 2.0111358
0.77017474 -0.42711782 2.0372584
1.0965767 -0.42121792 2.0336847
1.1054126 -0.42675489 2.0412266
0.73966515 -0.37205061 2.0140803
0.76291782 -0.37482262 2.038336
1.0995862 -0.3884396 2.0112655
1.1051496 -0.372628 2.0392478
0.74216127 -0.3241058 2.0179744
0.7593832 -0.32198787 2.0349526
1.1074183 -0.32701451 2.0408752
0.74046451 -0.27282378 2.0184872
0.7619257 -0.27441424 2.0379202
1.0995985 -0.26343587 2.0021555
1.1071656 -0.26948786 2.0347819
0.73540944 -0.23078942 2.0081618
0.76078933 -0.22254992 2.0377285
1.1064273 -0.22369678 2.0302231
1.1077576 -0.1759253 2.0360739
1.1078953 -0.12790939 2.0388722
1.1076205 -0.074500322 2.0402303
1.1077327 -0.026457567 2.0412757
1.1068035 0.021562394 2.0395505
1.0936918 0.085796908 2.0499904
1.1064417 0.074887842 2.0379181
1.106804 0.12824938 2.0366142
1.0955026 0.1716612 2.049355
1.1061755 0.17615986 2.0328255
1.0969522 0.22552291 2.0482287
1.1072792 0.22601706 2.0279427
1.098507 0.27420145 2.0467911
1.1176056 0.27363276 2.0338814
1.3186332 0.27797312 2.0349042
1.0997041 0.31213728 2.0450468
1.1199245 0.32518226 2.0381775
1.3320547 0.30194893 2.0417528
1.0928655 0.37083781 2.0495229
1.118085 0.37474382 2.0394638
1.0965235 0.42263445 2.0491149
1.1184558 0.42397833 2.0389194
1.5416242 0.42857659 2.0069969
1.0947293 0.47354111 2.0474901
1.1191584 0.47375053 2.0376787
1.0949073 0.54635715 2.0497024
1.1192305 0.52239168 2.0395303
1.0940617 0.57765853 2.0467453
1.1169113 0.57377404 2.0354397
1.0937538 0.63002408 2.04671
1.1168377 0.62596011 2.0365198
1.094759 0.67867172 2.0458412
1.1194146 0.67518151 2.035177
1.093521 0.72565204 2.0445497
1.1166276 0.72448713 2.0308869
1.156008 0.73369563 2.0459642
1.0931262 0.7735889 2.0439553
1.1231391 0.77276206 2.0344672
1.0929006 0.82212919 2.0428197
1.1194113 0.82386714 2.0296149
1.092579 0.87624532 2.0445931
1.1184074 0.87053925 2.0294938
1.0925505 0.91854948 2.04355
1.1178849 0.92235923 2.0301194
1.0956446 0.97915423 2.0439434
1.1188458 0.96942741 2.0302379
1.1560054 0.98060966 2.0485816
1.0934494 1.0223114 2.0404327
1.1182096 1.0232688 2.0285506
1.1519796 1.0334542 2.0489929
1.0924082 1.0715026 2.0426469
1.1168053 1.0797662 2.0288794
1.0938084 1.1239444 2.0421498
1.1166153 1.1258098 2.0276721
1.0937076 1.1792302 2.0426278
1.1165468 1.1736683 2.0306547
1.1516788 1.1729143 2.0495744
1.0925275 1.2201235 2.0468364
1.117397 1.2255781 2.0310946
1.1524802 1.245829 2.0486667
1.0993993 1.2637995 2.0486085
1.1187519 1.272207 2.0320299
1.1593745 1.2773916 2.0485606
1.0968248 1.3227811 2.046279
1.1187367 1.3202976 2.0314608
1.0936345 1.3699359 2.0483217
1.1207926 1.3729081 2.0345628
1.0961891 1.4283062 2.0461719
1.1219714 1.4283485 2.0319612
1.1632166 1.4199772 2.049052
1.0944786 1.4805719 2.0419898
1.1201961 1.4783578 2.0297797
1.1570048 1.4710243 2.0396707
1.0932655 1.5331806 2.0450468
1.1199567 1.5280324 2.0296509
1.1569521 1.530848 2.0399351
1.0957448 1.5768719 2.0437312
1.1266203 1.5730028 2.0299947
1.1637635 1.5862927 2.0410461
1.0941297 1.6167246 2.0435231
1.1217757 1.6186876 2.0263414
1.1637299 1.6204872 2.0379202
1.0926194 1.6862385 2.0442753
1.1197833 1.6740028 2.0296092
1.1593732 1.6580232 2.0411234
1.0910389 1.7426713 2.0430756
1.1183809 1.7300057 2.0282526
1.1641521 1.7292302 2.0458055
1.0891593 1.7630649 2.0449276
1.1206948 1.7814392 2.0255351
1.1617397 1.7847486 2.0414319
1.0917305 1.8106781 2.0400219
1.1200442 1.8141116 2.0313177
0.83341479 -0.51897645 2.0647914
0.87701678 -0.52833205 2.0817666
0.92838871 -0.54069352 2.0775409
0.97782373 -0.54095483 2.0773144
1.025968 -0.52733624 2.0783253
1.0724335 -0.51226085 2.0704463
1.1040678 -0.50130725 2.0514162
0.7960372 -0.46960816 2.052784
0.82889211 -0.47736928 2.0814033
0.86235112 -0.49409899 2.0990977
1.0432112 -0.47607937 2.0956314
1.0723217 -0.47451621 2.0708146
0.79466969 -0.42977583 2.0602868
0.82402486 -0.4290539 2.0867801
1.0448227 -0.43852162 2.0995753
1.0722066 -0.42404059 2.0755713
0.78876662 -0.37495771 2.0638373
0.81296927 -0.37948048 2.0849481
1.0745482 -0.37518319 2.0771832
0.78869581 -0.32466424 2.0661097
0.81226456 -0.32582003 2.0843322
1.0497658 -0.31605792 2.0991926
1.0746336 -0.32682696 2.0786846
1.1029346 -0.31255567 2.0516422
0.78881621 -0.27531847 2.0692432
0.81053895 -0.2726514 2.0851009
1.0747148 -0.27486911 2.0785341
1.1009083 -0.27430102 2.0517778
0.78609723 -0.22937426 2.0675128
0.81800789 -0.22604789 2.0932121
1.0782782 -0.22523962 2.074801
1.1005023 -0.2472962 2.0535252
1.0769603 -0.17252877 2.0758402
1.0753046 -0.12375641 2.0751441
1.0741463 -0.075164482 2.0745263
1.0730522 -0.026679622 2.0732565
1.0413187 0.024541941 2.0987904
1.072229 0.021715324 2.0716469
1.0444771 0.065081008 2.095993
1.072562 0.075101748 2.0713284
1.0432239 0.13568655 2.0995445
1.0733238 0.12396461 2.071101
1.043664 0.17912027 2.0980406
1.0692933 0.17261101 2.0731583
1.0442829 0.2226356 2.0962608
1.070578 0.22675194 2.0718415
1.0461814 0.27193588 2.095861
1.0717045 0.2755861 2.0697069
1.1732548 0.27836668 2.075712
1.2041967 0.26725709 2.0936351
1.2759742 0.27945521 2.0781302
1.3114825 0.28411832 2.0614655
1.0454006 0.32300392 2.0933208
1.0729138 0.32455051 2.0668375
1.1792622 0.31928527 2.0844452
1.2840159 0.31982538 2.086431
1.3227702 0.32472366 2.0662189
1.363812 0.33489791 2.0794637
1.0452139 0.37683946 2.0951571
1.0696999 0.37590241 2.0702116
1.1478398 0.3874279 2.0514598
1.1823616 0.36901814 2.0872004
1.2824439 0.37352115 2.090462
1.3189864 0.37605387 2.0725505
1.3658113 0.36691332 2.0862586
1.0428984 0.42724985 2.0965304
1.0686072 0.42444581 2.0705798
1.1758597 0.42406061 2.0830872
1.2912318 0.42386755 2.0911374
1.3247554 0.42742702 2.0750127
1.0451996 0.47757512 2.0933526
1.0688425 0.47336 2.069005
1.1671584 0.47160977 2.0738246
1.2933263 0.47428724 2.0968223
1.3197467 0.4735536 2.0796945
1.3592339 0.47743511 2.0823112
1.0426148 0.52292699 2.0934684
1.0731862 0.5241164 2.064985
1.1772285 0.52601659 2.0825729
1.2771314 0.52815622 2.0734174
1.3219687 0.52304786 2.0699873
1.3627393 0.51322091 2.0812597
1.042365 0.57067591 2.0928042
1.0670046 0.57607222 2.0692463
1.1693152 0.57522362 2.0706413
1.2790828 0.55870432 2.0812607
1.0422717 0.63100559 2.0936077
1.0710354 0.62342238 2.0657465
1.1762937 0.62156111 2.0754242
1.0440427 0.67403549 2.0920691
1.0712218 0.67569798 2.065959
1.1698847 0.67767709 2.0697811
1.0398937 0.72589153 2.0937521
1.0666308 0.72418261 2.0684998
1.1811837 0.72216463 2.0799096
1.0439392 0.7739628 2.0928628
1.0688437 0.77522314 2.0647259
1.1761922 0.77502471 2.0735767
1.0393293 0.82694638 2.0919418
1.065425 0.82683831 2.0681434
1.1800479 0.82830232 2.076818
1.0426046 0.87533003 2.0907075
1.0700982 0.8754577 2.0658674
1.1772423 0.87543511 2.0721381
1.040678 0.92561311 2.0951118
1.0671165 0.92808592 2.0681939
1.1687133 0.91807687 2.0687582
1.0426666 0.97119617 2.0911543
1.0700881 0.97540188 2.0628886
1.1792979 0.97530943 2.0769753
1.0418164 1.0257974 2.0930073
1.0666265 1.022222 2.0673218
1.1814599 1.0260599 2.0767858
1.0466195 1.073311 2.0912328
1.0676214 1.0739104 2.0681522
1.1703427 1.0679107 2.0665641
1.0420301 1.1217324 2.0930402
1.0703325 1.1245656 2.0673823
1.1728389 1.1228474 2.0715806
1.0422487 1.1759572 2.0953755
1.0708829 1.1724203 2.069231
1.1758692 1.173306 2.0712671
1.2051636 1.1905185 2.0959077
1.0437486 1.2202246 2.0962472
1.0684155 1.2269409 2.0726767
1.1778021 1.2195147 2.0754161
1.2004645 1.2346189 2.0972476
1.0461273 1.2763422 2.0961826
1.072598 1.2761053 2.0687127
1.1828437 1.2594242 2.0783727
1.0450529 1.3212466 2.0950232
1.069698 1.3250939 2.0709417
1.1655756 1.3215277 2.0603158
1.2106092 1.3450536 2.0979328
1.0463378 1.3672428 2.092958
1.0707002 1.3794303 2.0758977
1.1847552 1.3723359 2.0806797
1.2023948 1.381052 2.0942445
1.0432111 1.4227992 2.0961983
1.0730962 1.4249789 2.0723696
1.1727756 1.4054365 2.0627928
1.2060409 1.4240522 2.0967278
1.0445309 1.4818897 2.0949533
1.0706995 1.4734492 2.073606
1.1920375 1.4805092 2.0845916
1.2100427 1.4680126 2.0991681
1.0435802 1.530018 2.0903866
1.0690906 1.5230812 2.0703914
1.1844419 1.5194956 2.0666082
1.0425463 1.5851152 2.0950058
1.068153 1.5762297 2.0694544
1.193712 1.5689361 2.0717249
1.0469387 1.6254506 2.0926847
1.0711824 1.6282413 2.0649378
1.2035335 1.6316322 2.0961745
1.0446957 1.6807207 2.0931492
1.0711402 1.6747506 2.0668161
1.1898199 1.6698737 2.0744979
1.0413058 1.732015 2.0927014
1.0691195 1.7254978 2.0707443
1.1856103 1.7087003 2.0779171
1.0413297 1.7747314 2.0976942
1.0713964 1.7806492 2.0672352
1.1826611 1.7766167 2.0634646
1.045887 1.8254423 2.0911222
1.0691316 1.8160034 2.0694125
0.89435846 -0.51083255 2.1157849
0.92734379 -0.51907629 2.1221926
0.97524059 -0.51906532 2.1255012
1.0199918 -0.51111132 2.1122448
0.87733877 -0.47137299 2.1180348
0.92543477 -0.47714362 2.13941
0.98147202 -0.47916874 2.1386535
1.0211722 -0.47360253 2.1140809
0.84353858 -0.41312221 2.1039062
0.87931478 -0.42551225 2.1273637
0.91600257 -0.4298867 2.1462033
0.98679382 -0.42545712 2.1416361
1.0232341 -0.42202634 2.1166282
0.83831817 -0.37802598 2.1066594
0.87444949 -0.37377885 2.1295969
0.91161835 -0.38307899 2.1468663
0.99090272 -0.37517121 2.1433406
1.0236844 -0.37427786 2.1202314
0.83998531 -0.32515198 2.1105671
0.87931389 -0.32321993 2.1365211
0.90918583 -0.31652677 2.1486256
0.99010712 -0.32733676 2.1451638
1.0256044 -0.3239564 2.1218359
0.83860034 -0.27670473 2.1117892
0.87651491 -0.27491221 2.1321886
0.90696895 -0.25039709 2.1493855
0.99367046 -0.27505094 2.146234
1.0259436 -0.27288568 2.1226702
1.0500348 -0.29432327 2.1020024
0.84407258 -0.22885066 2.1146996
0.87412679 -0.22474857 2.1340675
0.90436286 -0.21708871 2.1456544
0.9925456 -0.22526184 2.1478763
1.0255903 -0.22406565 2.1236939
0.92102307 -0.16855179 2.1398642
0.99266547 -0.17054985 2.1438117
1.0251364 -0.17561093 2.1212137
0.92978877 -0.12454225 2.1385846
0.99389207 -0.1257568 2.1427836
1.0264695 -0.12504666 2.1180272
0.92384899 -0.078083269 2.1361825
0.99366635 -0.076460779 2.1438918
1.0254668 -0.075971238 2.1175568
0.92488265 -0.026247315 2.1343687
0.99314982 -0.027175508 2.143599
1.0247109 -0.026984612 2.1168289
0.92455679 0.020893181 2.1359344
0.99290484 0.022065507 2.1430542
1.0214833 0.02143668 2.1201565
0.92729157 0.07584779 2.1342368
0.9932785 0.076798879 2.1429219
1.0237992 0.077795029 2.1185253
0.92864466 0.12471802 2.1357539
0.994349 0.12619497 2.1435587
1.0244036 0.12428525 2.1194484
0.93077755 0.16512142 2.1434655
0.99472916 0.17323542 2.1435251
1.0221969 0.17466746 2.1196039
0.92494696 0.21508646 2.1434577
0.99146771 0.22539388 2.1451645
