ply
format ascii 1.0
comment PCL generated
element vertex 1527
property float x
property float y
property float z
element camera 0
property float view_px
property float view_py
property float view_pz
property float x_axisx
property float x_axisy
property float x_axisz
property float y_axisx
property float y_axisy
property float y_axisz
property float z_axisx
property float z_axisy
property float z_axisz
property float focal
property float scalex
property float scaley
property float centerx
property float centery
property int viewportx
property int viewporty
property float k1
property float k2
end_header
0.34707516 -0.52762687 2.3499391
0.37613645 -0.53148562 2.311532
0.42634705 -0.53247219 2.325145
0.48672953 -0.52942389 2.323638
0.5255881 -0.52836084 2.3310096
0.55439776 -0.52838928 2.3266683
-0.1216489 -0.45276728 2.3428607
-0.075674854 -0.46260601 2.3206925
0.22993451 -0.49943587 2.3380201
2.2885916 -0.45303386 2.3081052
-0.070154421 -0.42683557 2.3291817
2.2867849 -0.42342257 2.311044
-0.070168734 -0.39314398 2.3329539
2.2836437 -0.37433463 2.3289075
2.302855 -0.3577643 2.309438
2.3136966 -0.33317456 2.3329346
2.3505747 -0.31087923 2.3358879
2.3350995 -0.26457378 2.3251998
2.3325248 -0.23477685 2.3253222
2.3813572 -0.19334048 2.3494954
0.32407677 0.19945152 2.3016143
2.1793747 0.19997396 2.3051198
2.1420078 0.20754084 2.3444088
2.1690536 0.2165347 2.322823
1.3333257 0.2986685 2.3450344
1.3729004 0.27876884 2.3293338
1.2724081 0.33306426 2.3410797
1.3304492 0.32283422 2.3374927
1.3888683 0.32541046 2.3350914
2.7804482 0.32090166 2.3326228
2.8061061 0.33366382 2.3155112
1.3915632 0.35843185 2.3450742
1.4014597 0.38456404 2.345294
2.7977021 0.35689873 2.305542
2.8037293 0.3783806 2.3257046
1.3952093 0.41674113 2.3034878
1.4057696 0.42666668 2.34166
2.8108425 0.42592219 2.3368714
2.8153923 0.47566533 2.3327081
2.8160181 0.52968585 2.3311288
2.8144033 0.57230091 2.3320501
2.8206234 0.62760836 2.3379238
2.8223648 0.68255812 2.3344491
2.8173909 0.72472376 2.3350985
2.823616 0.7812745 2.3334982
2.8151007 0.82267249 2.3298738
2.8276253 0.87058192 2.3429201
2.8293109 0.92680836 2.3349948
2.8242562 0.97546417 2.3382683
2.8183165 1.0239968 2.3353169
2.8285944 1.0843129 2.3365176
2.8208187 1.1217996 2.3475323
2.8207173 1.184234 2.3299119
-0.11173677 1.2449868 2.3110185
-0.077813201 1.2470117 2.3249347
2.8164866 1.2291917 2.33394
-0.20234984 1.2568921 2.3013506
-0.11861347 1.2692046 2.3193343
-0.075545818 1.27384 2.3212659
-0.041052692 1.2787437 2.3421938
2.8117862 1.2611837 2.3160903
-0.10686445 1.3381083 2.3037968
-0.076559089 1.3246094 2.3209343
-0.04096337 1.3249245 2.3413594
2.8244936 1.3261743 2.3346527
-0.10731296 1.3682605 2.3026898
-0.077099435 1.3738173 2.3194559
-0.040402934 1.3753706 2.3426692
-0.10843784 1.4260041 2.3069837
-0.077821948 1.4241782 2.3244283
-0.038636353 1.42167 2.3451426
2.8301086 1.4150176 2.334929
-0.11406082 1.4694196 2.3038497
-0.078385912 1.4719163 2.323061
-0.033299156 1.4714696 2.3441391
2.8304546 1.4763105 2.3411789
-0.11454281 1.5351657 2.3060725
-0.079118416 1.52387 2.3263032
-0.041357197 1.5221344 2.3438561
-0.11734042 1.5739069 2.3041153
-0.081472918 1.5732219 2.3251631
-0.048098516 1.5662817 2.3460608
2.8257186 1.5706778 2.3254859
-0.11856022 1.628734 2.3070996
-0.079229884 1.6211567 2.3307157
2.839879 1.6416016 2.3408694
-0.11319906 1.6766993 2.311162
-0.077444889 1.671923 2.3362019
-0.048870053 1.6565582 2.3486555
2.8290644 1.6900735 2.3393683
-0.1185894 1.7244433 2.3125336
-0.080947302 1.7281342 2.3392124
2.8381031 1.7133279 2.3377283
-0.11956076 1.7710698 2.3122489
-0.0807992 1.7766503 2.3408272
-0.1561812 1.8351636 2.3024306
-0.12142361 1.828077 2.3182509
-0.082574293 1.8299509 2.3449225
-0.090973064 1.8609762 2.3377726
2.134125 2.4312613 2.3457177
2.1831982 2.4375224 2.332943
2.2302542 2.4322333 2.3237829
2.2845442 2.4441588 2.3473129
0.24504136 -0.50720632 2.3736298
0.26941594 -0.51153338 2.368541
0.3803229 -0.53678012 2.3878982
0.41677445 -0.53611374 2.3808494
0.47389635 -0.53183728 2.3679461
0.5280627 -0.52502 2.3703618
0.57343519 -0.52128971 2.3684878
0.060899831 -0.47515109 2.3988521
2.3189824 -0.46504694 2.3946981
-0.071344897 -0.43358141 2.3660467
0.049160488 -0.41016731 2.3994224
2.2949729 -0.40073517 2.3791754
2.3003249 -0.41387391 2.3546894
-0.061904758 -0.39249 2.375531
0.049025454 -0.37448382 2.3964839
2.2792602 -0.36103368 2.36796
0.048930168 -0.33924034 2.3951747
2.6442735 -0.30086342 2.3878236
2.7982686 -0.33341235 2.370405
2.8117325 -0.31461123 2.3638783
2.3649156 -0.28289348 2.3533902
2.5893519 -0.28250152 2.3982863
2.6111212 -0.29892033 2.387239
2.7979014 -0.26803058 2.3769512
2.8114274 -0.28038645 2.3646355
2.3640096 -0.20810497 2.3591497
2.7969408 -0.23528498 2.3789945
2.8142984 -0.22340856 2.3720329
2.7997708 -0.17831124 2.3855095
2.8118768 -0.17844205 2.3776243
2.799469 -0.14560148 2.3870714
2.8102405 -0.1260097 2.3789856
2.7966557 -0.080148555 2.3871365
2.8096721 -0.080010444 2.3680394
2.7948484 -0.031115254 2.3864686
2.8088493 -0.03106425 2.3682179
2.7926729 0.017821549 2.3846314
2.811969 0.017870244 2.3708665
2.7918129 0.074870475 2.3828149
2.8106077 0.07499487 2.3686328
2.7983606 0.13225144 2.386209
2.8100321 0.13206403 2.3659563
0.47044793 0.18552555 2.3949585
0.50086427 0.18534133 2.3884125
2.7925119 0.17273995 2.3789465
2.8093395 0.16466092 2.3636146
0.46952623 0.20743468 2.3788314
2.1229894 0.20673318 2.3717351
2.1589222 0.23073715 2.3611848
1.348536 0.2895008 2.3729587
1.3676264 0.28956002 2.3653264
1.3378518 0.30249649 2.38041
1.378834 0.32189283 2.3705359
2.4926019 0.31032357 2.3899586
2.5329301 0.3290436 2.3974931
2.77472 0.33564129 2.3787301
1.3184224 0.36530581 2.3806694
1.3880359 0.37720454 2.3804603
2.7829642 0.37724712 2.3767571
1.3927804 0.42743608 2.3798511
2.7845547 0.42681566 2.3747604
2.7858901 0.47457907 2.3769412
2.8049626 0.48482126 2.3525634
0.5448736 0.51254207 2.3929052
0.56877005 0.51873386 2.3896656
2.7842906 0.53022766 2.382323
2.807297 0.52176225 2.3581486
2.7918084 0.57398564 2.3778577
2.8069935 0.58695805 2.3655109
2.787735 0.63549381 2.3894656
2.8082047 0.6299274 2.3696897
0.69073051 0.68783194 2.3993158
2.7918537 0.6850965 2.3842199
2.8087287 0.67179883 2.363652
0.69133097 0.70050764 2.398968
0.70782602 0.73149252 2.3875492
2.7918694 0.73179346 2.380398
2.8057718 0.73112869 2.3618901
0.73098743 0.77663392 2.3869302
2.7876902 0.76838714 2.3984888
2.8082814 0.77555537 2.3681741
0.7443279 0.80828226 2.3810551
0.77292049 0.83081186 2.3697989
0.821446 0.83689088 2.3700678
2.7971733 0.82117629 2.3926771
2.811245 0.81508219 2.3677888
0.77149439 0.85404992 2.3739064
0.80198437 0.86055011 2.3861606
2.7918251 0.87516105 2.3844628
2.8107097 0.87047583 2.3589594
2.787344 0.92386317 2.384217
2.81025 0.92037982 2.3621864
2.7978969 0.96946919 2.3794656
2.8093791 0.98175573 2.362144
2.7986319 1.026394 2.3932576
2.8088434 1.0324482 2.3684266
2.8119214 1.0746826 2.3759141
2.8121333 1.1311852 2.3814361
2.7975152 1.1842786 2.3993359
2.8165226 1.1788294 2.3739953
2.8093266 1.2242155 2.3819375
-0.022877159 1.2740848 2.3670027
0.020564359 1.2724705 2.3807018
0.053255148 1.2836871 2.3985472
2.8195419 1.2716238 2.3795991
-0.014598233 1.3263986 2.3596756
0.023442464 1.3257667 2.3823366
0.056557704 1.3159446 2.3946862
2.8208849 1.3150949 2.3789551
-0.015604712 1.377811 2.3604581
0.022157984 1.3752532 2.3830774
0.05374305 1.3587114 2.3950245
2.8253424 1.3788835 2.3758233
-0.017799614 1.4260144 2.356926
0.020855011 1.4251933 2.3826466
0.054399628 1.4393473 2.396569
2.8268452 1.4264727 2.3774476
-0.018969312 1.4746549 2.3544335
0.022418777 1.472694 2.3777778
0.054729208 1.4802895 2.3963628
2.8253529 1.4755312 2.3762043
-0.019775506 1.5201041 2.359149
0.025413459 1.5255804 2.384928
2.8387332 1.5297577 2.3767486
-0.030201416 1.5672476 2.3579962
0.016319651 1.5697149 2.3880515
2.84113 1.5766693 2.3742917
-0.028025601 1.6288807 2.3711927
0.024256185 1.6163797 2.3842366
2.8341315 1.6264731 2.3830502
-0.028858121 1.682961 2.3718078
0.0033480264 1.6787375 2.3935423
2.8373981 1.6735129 2.3749561
-0.062720425 1.724458 2.3527169
-0.029829029 1.7278192 2.3707051
0.0033730518 1.7255459 2.3937736
2.8449593 1.7309996 2.3809733
-0.058920801 1.7760453 2.3576794
-0.027238477 1.7731038 2.3764575
0.0034055132 1.7767725 2.3983896
2.8390071 1.7755094 2.3899717
2.8563874 1.7713758 2.3641663
-0.055882595 1.8223461 2.361604
-0.023712149 1.8264327 2.3855784
0.0034231225 1.8138876 2.3954523
2.7757728 1.8358663 2.3917954
-0.061940275 1.8755925 2.3672729
-0.026248509 1.878601 2.3872917
2.7667603 1.8619536 2.3910367
2.7397883 1.9225316 2.3979871
2.7658682 1.9260592 2.3850474
2.7384982 1.9891557 2.3958793
2.7575233 1.9806658 2.3872509
2.751744 2.0171309 2.396754
2.0403965 2.4242721 2.3967855
2.0844269 2.4348042 2.3840559
2.1305726 2.428757 2.3714595
2.1832807 2.4298096 2.3652923
2.2200232 2.4198821 2.3662746
2.270448 2.4426782 2.3825643
2.4025731 2.4188633 2.395437
0.24208842 -0.50151443 2.4035873
0.27832684 -0.50374603 2.4117775
0.33909869 -0.52361757 2.4055185
0.37722287 -0.52772373 2.4209249
0.42952523 -0.53357506 2.4347599
0.47069409 -0.53100634 2.4253938
0.57601821 -0.53061533 2.447197
0.040653381 -0.42052472 2.4081492
0.06086655 -0.41117972 2.4052022
0.15600526 -0.44720653 2.4376767
2.3079767 -0.42968899 2.4315963
0.037684187 -0.3762629 2.4082787
0.060911305 -0.37672055 2.4106474
0.045496423 -0.32873473 2.4178317
0.06103801 -0.33100647 2.4200759
2.6281176 -0.26273644 2.4364953
2.6693389 -0.26976031 2.4224057
2.5763857 -0.21976425 2.4212282
2.6195166 -0.2299836 2.4312789
2.6775241 -0.22788799 2.4370196
2.7039394 -0.2330389 2.4183936
0.44495308 0.18616481 2.4066951
0.47979569 0.18614922 2.4020114
0.53073484 0.19944702 2.4150383
0.57226282 0.19236891 2.4194546
2.1451087 0.18890446 2.4033189
2.1604877 0.19153357 2.4480202
2.1254389 0.21341437 2.4247217
1.338233 0.33300471 2.4252501
1.3576711 0.336371 2.424124
2.4900439 0.31775692 2.4255853
2.5289865 0.34234095 2.4215214
2.7492368 0.34460196 2.41611
1.339342 0.36966306 2.4328921
1.3688288 0.38226375 2.4170837
2.7452033 0.37896943 2.4386742
2.7617741 0.37847325 2.4152114
0.3886379 0.42129022 2.4431238
0.42543495 0.43426716 2.4097328
1.3714921 0.42412147 2.4303327
2.7485561 0.44517541 2.4319835
2.7573383 0.42529163 2.4244878
0.43180534 0.4526819 2.4443593
0.54363829 0.49914008 2.4170284
0.56174588 0.49939412 2.4155006
1.3829753 0.45376581 2.4297318
2.7373204 0.46245831 2.4498856
2.7620161 0.47898555 2.4231169
0.53289229 0.51212811 2.4222667
0.5766232 0.52194124 2.4235723
0.60727668 0.53233135 2.4284644
2.7449844 0.52981859 2.4450483
2.7592731 0.52488387 2.4154823
0.62099952 0.57248819 2.4188173
2.7643976 0.58004802 2.4217925
0.63693672 0.61396056 2.4170187
0.65642995 0.63548458 2.4073009
2.7692192 0.62583059 2.4216726
0.67396468 0.67347944 2.4059024
2.7480741 0.68333513 2.4465332
2.7686346 0.67785186 2.4218602
0.6897099 0.71509004 2.4056256
2.7654979 0.72222841 2.4261074
0.71949387 0.77168506 2.4160447
2.7665336 0.76939029 2.4260957
0.742899 0.81395048 2.4201045
0.77586746 0.83516788 2.43766
2.7720771 0.8229897 2.428484
2.7672827 0.87154007 2.4227545
2.7700274 0.93006057 2.4210536
2.7823341 0.97626436 2.4207599
2.7823155 1.0174605 2.4225621
2.7773256 1.0722642 2.4257951
2.8003464 1.0929666 2.4039237
2.78653 1.1277081 2.4235768
2.8032796 1.1111958 2.4000547
2.7843237 1.172815 2.429671
0.036531352 1.2467774 2.4096563
0.073001616 1.238683 2.4167714
0.1142526 1.2367632 2.4369817
2.7788837 1.2266291 2.4263134
0.075412154 1.2728971 2.4109375
0.12231982 1.2759463 2.4383159
2.7812436 1.2735529 2.4306366
2.8026681 1.2629025 2.4063847
0.080834731 1.3276875 2.4155395
0.1227943 1.3255486 2.4367831
2.7910945 1.3188727 2.4251237
2.803695 1.3407892 2.408299
0.078585237 1.3761249 2.4137614
0.11883532 1.3740816 2.4343886
2.7934484 1.3746394 2.4343338
2.8062444 1.3594342 2.4027863
0.075620718 1.4234611 2.412714
0.12278492 1.4289851 2.4351742
2.7922413 1.429312 2.4396508
2.8092299 1.4220179 2.4124539
0.080919467 1.4751291 2.4143472
0.12022714 1.4687035 2.4298825
2.795897 1.4772651 2.4425342
2.8114538 1.4702061 2.4159212
0.068212382 1.5162677 2.4068046
2.7912731 1.5135657 2.4437535
2.8121912 1.5281911 2.414994
2.8166494 1.5747309 2.430701
0.029834535 1.6428516 2.4074335
2.8133366 1.6267096 2.4249816
-0.009944276 1.6764238 2.4034116
0.022081796 1.6798891 2.4082379
0.061589796 1.6838175 2.4311202
2.8107834 1.6767004 2.4256003
0.032000534 1.7239311 2.4144051
0.069460593 1.7255538 2.4359679
2.8211854 1.7224263 2.4274416
0.028615026 1.7715254 2.4117851
0.058295265 1.7896234 2.4417732
2.795388 1.7782931 2.4347181
2.8171825 1.7724864 2.4121537
0.030869046 1.8228129 2.4202435
0.065457135 1.8183687 2.4404702
2.7320578 1.8350477 2.4301639
2.768518 1.8133585 2.4201035
-0.010312372 1.888912 2.4005878
0.024288362 1.8716729 2.4246917
0.059163067 1.8720617 2.4447618
2.6868234 1.8897865 2.4437571
2.7262597 1.8685501 2.4190428
2.7741446 1.8911897 2.4025359
-0.010432104 1.9246492 2.4192472
0.026932772 1.9234987 2.4353912
0.059565447 1.9058495 2.4483006
2.6938293 1.9465916 2.4392359
2.719085 1.9217409 2.4207394
2.6814098 1.9872197 2.4375648
2.7147272 1.9767659 2.4181552
2.6873693 2.0099239 2.4320424
2.7292933 2.0299814 2.4176421
2.7377381 2.070847 2.4241049
1.9857912 2.4325023 2.4450374
2.0283451 2.4324749 2.4379187
2.0853312 2.43876 2.430831
2.1226733 2.4357526 2.4291501
2.1854999 2.4345727 2.4201667
2.2313557 2.4464076 2.4292877
2.2717934 2.432868 2.4225538
2.3251081 2.432596 2.4286807
2.3690977 2.4220166 2.4241869
2.4235039 2.4213946 2.4292428
2.4875698 2.4295082 2.4428303
2.5105877 2.4150238 2.4467094
2.0482621 2.4546983 2.438488
2.1644208 2.4501498 2.4379954
0.24274535 -0.50329494 2.4715767
0.27502552 -0.50376779 2.4716585
0.42599395 -0.52551919 2.4731333
0.47210917 -0.52909058 2.4548509
0.52129155 -0.53203762 2.479346
0.58795488 -0.52989239 2.472023
0.60392749 -0.52712798 2.4865165
0.14772497 -0.45802742 2.4971454
0.24419326 -0.49424189 2.4879136
0.27295393 -0.49623165 2.4836285
0.14730883 -0.42067757 2.4942553
0.16693828 -0.41754335 2.4669511
0.17345825 -0.37394443 2.4781773
0.1801562 -0.33241966 2.4867041
0.2069813 -0.3118439 2.4965732
0.16966395 -0.28025356 2.4802337
0.20668216 -0.29342675 2.4943721
0.16618326 -0.22242425 2.4772284
0.17392553 -0.17678747 2.4841864
2.6387796 -0.19271906 2.4822192
2.6521413 -0.19248605 2.4645381
2.7398593 -0.18429899 2.4926007
2.7734146 -0.17270565 2.4851689
2.7486353 -0.13090175 2.4957657
2.7672427 -0.13097899 2.4817321
0.18954916 -0.063461415 2.4904025
0.20607458 -0.059679177 2.4976146
2.7494063 -0.097864598 2.4977551
2.7621014 -0.081159621 2.478868
0.1764805 -0.028484847 2.4857953
0.20610958 -0.047744144 2.498198
2.7487533 -0.031708591 2.4985344
2.7648137 -0.031679075 2.4821894
0.17737031 0.021843584 2.4871709
0.20607384 0.023921235 2.4979043
2.7634256 0.022060275 2.4886227
0.19114302 0.071703464 2.4979663
0.20621723 0.071749851 2.4990427
2.7426703 0.059081938 2.4923973
2.7628069 0.059214778 2.4798048
2.7295516 0.13271894 2.4778416
2.7532623 0.11662538 2.4693696
2.5007436 0.33090031 2.4543235
2.6758945 0.34344378 2.4715679
1.3398879 0.38961053 2.4609272
2.6418669 0.35730973 2.4682438
2.7265182 0.38258824 2.4740427
0.38911435 0.43437916 2.4841039
0.41379839 0.44100827 2.4841413
1.3433187 0.42273116 2.4802907
1.3565241 0.42797667 2.4635887
2.7232704 0.42987433 2.4730561
0.22446184 0.47305515 2.4953687
2.7276459 0.48251814 2.4725301
0.22351901 0.52575845 2.4961033
2.7270002 0.53109628 2.4749825
2.7248876 0.57956845 2.4752636
0.22894168 0.64098108 2.4981949
0.63685614 0.61541891 2.4758162
2.7312109 0.62199134 2.480823
0.22857621 0.68174499 2.4967961
2.7318633 0.66791773 2.4756067
2.7507455 0.65068954 2.4567435
0.22400001 0.7118364 2.4993498
2.7281508 0.71953195 2.4782782
0.22884642 0.75934261 2.4983501
2.7320666 0.77030373 2.4821675
2.7510462 0.78037643 2.4564469
2.7380419 0.82588714 2.4795706
2.7582724 0.82443756 2.4511242
2.7322338 0.87578732 2.4794688
2.7505324 0.89456487 2.4550951
0.21522847 0.93572366 2.4937055
2.7363267 0.92354369 2.4810703
2.7551713 0.92141503 2.4512253
0.21597658 0.95149815 2.4991026
2.7334816 0.97357666 2.4866629
2.7590384 0.96942419 2.4641626
0.21104391 1.0331008 2.4942868
2.7390215 1.0211972 2.4877868
2.7589264 1.0277579 2.4606712
0.19277243 1.0744207 2.492312
0.21057968 1.0724611 2.4934115
2.738126 1.0840617 2.4861465
2.7527206 1.0771651 2.4616292
0.18820181 1.1264499 2.4891858
0.21317723 1.1263032 2.4943001
2.7409675 1.1238219 2.48841
2.7580554 1.1272336 2.4596674
0.17640266 1.1771184 2.4782138
0.21305232 1.1746693 2.4941735
2.7378526 1.1771444 2.4894035
2.763654 1.168341 2.4637179
0.066893488 1.248132 2.4606817
0.13861167 1.2251498 2.4576173
0.17556199 1.2253846 2.4714851
0.21468522 1.2264749 2.4933782
2.7451704 1.2208588 2.4830961
2.7559588 1.2279443 2.4629259
0.015947809 1.2727256 2.4501433
0.14341462 1.274688 2.4509232
0.17613789 1.2762642 2.4705749
0.21535321 1.2727505 2.4909878
2.7473319 1.2517083 2.4900475
2.7598629 1.2795937 2.4744325
0.14431316 1.3211733 2.4514515
0.17757423 1.3232918 2.4682844
0.2183681 1.3254744 2.4945252
2.7453089 1.3198774 2.4936719
2.769413 1.3233747 2.4623682
0.14550993 1.3774495 2.4534447
0.17908971 1.3736801 2.4737647
0.2133472 1.3786052 2.4952328
2.771754 1.3723941 2.4820232
0.14620736 1.41653 2.4515717
0.17375784 1.4248476 2.4740598
0.2080677 1.4267517 2.4945405
2.7726178 1.4265838 2.4759891
0.1750544 1.4689147 2.4778705
0.20929939 1.4618237 2.4979992
2.7685506 1.4769362 2.4775472
2.7736909 1.5246233 2.484612
2.7789969 1.5769311 2.472676
2.7867243 1.6268799 2.474386
0.093865156 1.6915983 2.4595187
0.12918666 1.6893994 2.4840941
0.15372482 1.6808023 2.4867525
2.7936878 1.677439 2.4863105
2.8106008 1.6767669 2.469527
0.09435939 1.7277726 2.4575641
0.12484708 1.7229424 2.475338
0.1620367 1.7204907 2.4964488
2.7856424 1.7283919 2.4764848
0.085893355 1.7748871 2.4565766
0.12787254 1.7694082 2.4790816
0.15618351 1.7632709 2.4965482
2.7449958 1.7989069 2.4743731
2.768055 1.7789572 2.4698043
0.076248735 1.826277 2.4574533
0.11814703 1.8202024 2.4802191
2.685817 1.8297563 2.4706376
2.72298 1.8144348 2.4760537
0.079034619 1.8714931 2.4623561
0.11353166 1.880945 2.4846382
2.6871614 1.8782587 2.470381
0.079095691 1.9314909 2.4716294
0.11366576 1.9182022 2.4897799
2.6823602 1.9331801 2.4710054
0.074812464 1.965353 2.4694846
0.10335132 1.9531161 2.480453
2.6900024 2.0394979 2.497596
2.6969593 2.0633776 2.4927108
1.8907888 2.4122806 2.4749358
1.9330553 2.4325047 2.4789245
1.9849913 2.4443035 2.4843755
2.0226417 2.4380791 2.4710484
2.0848303 2.4411495 2.476912
2.1304505 2.4298253 2.4816334
2.1709335 2.4340551 2.4790943
2.2297626 2.4417624 2.4768548
2.2838621 2.4280472 2.4717488
2.3140078 2.4313431 2.4783871
2.3719082 2.4251707 2.4720657
2.4252031 2.4230154 2.4759018
2.4694932 2.4236367 2.475992
2.5209558 2.4245067 2.4791389
2.5786843 2.4246035 2.4843404
2.6213737 2.4091833 2.4965184
0.47643444 -0.52852809 2.5117738
0.54177713 -0.53237104 2.5217047
0.5634498 -0.52942634 2.5041234
0.27769572 -0.47301733 2.5307996
0.31795976 -0.49258623 2.5274651
0.14912637 -0.41769245 2.5258887
0.28132319 -0.42720529 2.5442326
0.14886537 -0.31579852 2.5310099
0.17672984 -0.31496832 2.5231771
0.20867962 -0.32649603 2.5160592
0.14832743 -0.27228394 2.5250444
0.19071689 -0.26625621 2.5244484
0.21532227 -0.26916891 2.5167813
0.18372689 -0.22879727 2.5137393
0.2271205 -0.22397828 2.5254347
0.18820593 -0.17545117 2.5113285
0.23107782 -0.17335577 2.5312984
2.6449108 -0.19438635 2.5183532
2.7265191 -0.17244288 2.5197096
0.22883603 -0.12489886 2.5195372
0.25900498 -0.12182164 2.5440412
2.729866 -0.13123874 2.5248899
0.19197947 -0.084417649 2.5218387
0.22705026 -0.079430543 2.5162859
0.26386565 -0.076434262 2.5412047
2.7340839 -0.081654012 2.5305212
2.7540131 -0.07318069 2.5026226
0.22673708 -0.028812489 2.5135074
0.26808017 -0.030326892 2.5385354
2.7303579 -0.031830326 2.5279572
2.7528415 -0.031749628 2.5022025
0.16104974 0.036487363 2.543514
0.23186342 0.024134673 2.5168669
0.26443493 0.024369666 2.5388463
2.733058 0.017896483 2.5304899
2.754261 0.0096439403 2.5036139
0.18122773 0.078110822 2.5132618
0.23045906 0.079822831 2.5210292
0.26852375 0.076731279 2.5419946
2.7309418 0.059335567 2.5279346
0.19135521 0.12224636 2.5128977
0.22671635 0.1255388 2.5201786
0.26806164 0.12491963 2.5421691
2.6844001 0.38796517 2.5295174
2.7118073 0.37282825 2.5015757
0.2268382 0.44759336 2.5024776
0.27379841 0.44298118 2.5441017
1.3331 0.43478501 2.5023978
2.6911054 0.42777324 2.5287726
2.7042327 0.44031906 2.515975
0.22883479 0.4768244 2.509609
0.27797088 0.47360879 2.5324676
0.31232256 0.48857829 2.5492396
2.6889558 0.48405451 2.5129995
2.7049353 0.46528494 2.5126975
0.23193736 0.52834898 2.5079765
0.27856112 0.52134669 2.5318582
0.30943865 0.5260343 2.546248
2.6879337 0.53148299 2.5161755
2.7068739 0.53197438 2.5028632
0.23151287 0.57633477 2.5080361
0.27396134 0.57248771 2.5280964
0.30075979 0.57049996 2.5458848
2.696116 0.56633383 2.5174956
2.7006278 0.58393329 2.5183668
0.2386276 0.62403393 2.5061293
0.27491063 0.62389255 2.5290971
0.30145425 0.60911119 2.5459964
2.7035649 0.61790562 2.5140855
0.24439824 0.66667062 2.5057611
0.27382132 0.67668682 2.5277023
0.30276948 0.66171122 2.5487411
2.6874986 0.67637253 2.5170398
2.7066414 0.66867781 2.5057061
0.23209317 0.72885472 2.5038803
0.26890612 0.72518831 2.5249894
0.30694059 0.72349429 2.5462956
2.6927989 0.71949452 2.5118244
2.7151096 0.72100234 2.5014005
0.23348916 0.78035241 2.5093708
0.27115625 0.7756269 2.5289261
0.30520633 0.77613384 2.5484178
0.54426682 0.78030258 2.5201004
0.55392259 0.78872275 2.5022693
2.6818252 0.77554435 2.5250421
2.7126207 0.78369445 2.5149512
0.23294023 0.82611167 2.5073421
0.27298388 0.82520795 2.52789
0.30644384 0.82775342 2.5483427
0.56105924 0.8369289 2.5259912
2.6903257 0.82921189 2.5451407
2.7099526 0.82751769 2.5163634
0.22906365 0.88021117 2.5064762
0.27539739 0.87710106 2.5317733
0.3080675 0.88927275 2.5487161
2.707994 0.87900323 2.528908
0.23149225 0.9231326 2.5079756
0.27167842 0.92330599 2.5277009
2.7121606 0.92225629 2.5264716
0.2268607 0.97904193 2.5063021
0.27814814 0.97493023 2.5345194
0.31064525 0.98639905 2.5472298
2.6947796 0.9721182 2.53899
2.7134404 0.96690398 2.5133009
0.23115464 1.0225759 2.5103958
0.27245232 1.0247966 2.5306413
2.6977339 1.0276327 2.5401192
2.7135015 1.029918 2.5187633
0.193367 1.0523556 2.5075853
0.23573083 1.0766737 2.5117483
0.27439415 1.0769327 2.533428
0.30055934 1.0729933 2.5496941
2.6980867 1.0738988 2.5410266
2.7183676 1.0776277 2.5135546
0.18160446 1.1086658 2.5055089
0.24083768 1.1223634 2.5093949
0.27307853 1.1258024 2.5318305
0.30190459 1.116761 2.54932
2.696291 1.1404638 2.5486081
2.71366 1.1238934 2.5254655
0.17016371 1.1557376 2.5131474
0.23825474 1.1783683 2.5099704
0.27624494 1.1764284 2.5352952
0.30380428 1.1760702 2.5486839
2.6972001 1.158126 2.5427365
2.7129023 1.1760341 2.5239527
0.24274854 1.223461 2.5097656
0.27496842 1.2264265 2.5324533
2.725889 1.2235876 2.5201809
0.23427439 1.278785 2.5062068
0.27424666 1.2756912 2.5332835
0.30662969 1.2529713 2.5498812
2.7239368 1.2743301 2.5249414
0.23588711 1.3268828 2.5085921
0.27435526 1.3253301 2.533004
2.7343457 1.3272356 2.5316472
0.2357306 1.3760678 2.51266
0.27227908 1.3740032 2.5359569
2.7357948 1.3762968 2.5292881
2.7547405 1.3946196 2.5064743
0.2344685 1.4229552 2.5067937
0.27318731 1.4229081 2.5379438
2.7372787 1.4242992 2.5330665
2.7581177 1.4274062 2.5132518
0.23924358 1.4644294 2.5100639
0.27314779 1.4568949 2.5430031
0.30117252 1.4620154 2.5496879
2.735553 1.4785951 2.5358148
2.7540836 1.465394 2.5088038
0.20480166 1.5310649 2.5007594
2.7400262 1.5242944 2.5249717
2.7534518 1.5370715 2.509892
2.7436066 1.5825286 2.5312114
2.7563787 1.5751173 2.5128849
2.7381427 1.6241239 2.5345709
2.7590535 1.6379124 2.5151994
0.17946476 1.6876032 2.5162778
0.22297892 1.686692 2.5360332
0.25308824 1.6643437 2.539356
2.745271 1.6718291 2.5438504
2.7661316 1.6822573 2.5183015
0.18588626 1.7230355 2.5157087
0.2237578 1.7202148 2.5411696
2.7448189 1.7375232 2.5466063
2.7654719 1.7242458 2.5218191
0.17404984 1.7727063 2.5144916
0.21271585 1.77716 2.5408099
2.7383683 1.7783158 2.5314958
2.7577403 1.7615838 2.5110564
0.13044745 1.8475369 2.5049279
0.17271505 1.8188174 2.5185301
0.20956077 1.825881 2.5400841
2.6714745 1.8253844 2.5193107
2.715436 1.8093307 2.527488
0.1418104 1.8719957 2.5098968
0.17468256 1.8750503 2.5261619
0.20394388 1.867985 2.5427444
2.6721084 1.8858086 2.5114279
0.14210469 1.9299704 2.5131328
0.17946514 1.9257488 2.5352898
0.12794435 1.9732076 2.5084224
0.1728784 1.9683334 2.5335772
2.6678855 1.9843564 2.5138421
0.1416167 2.0045838 2.5164795
0.17975582 2.0214546 2.5427213
2.6735365 2.0239806 2.511174
2.6755736 2.072139 2.5117774
1.7671993 2.4102845 2.5477929
1.8312387 2.4258392 2.5324457
1.8820703 2.4374137 2.5391397
1.9192152 2.4366951 2.5215783
1.9786556 2.440588 2.5245419
2.0298777 2.435113 2.5142789
2.0792625 2.4375713 2.5175846
2.1205177 2.4359114 2.530606
2.1761756 2.4394042 2.5425725
2.2323849 2.4319296 2.5212145
2.2737513 2.4281077 2.5235124
2.3228886 2.4318087 2.5178659
2.3781278 2.4271727 2.528029
2.4249423 2.4226437 2.5213993
2.472883 2.414098 2.5185034
2.5247841 2.4212515 2.5252607
2.5728621 2.4178994 2.5239604
2.6269691 2.4131801 2.5319993
0.5737952 -0.53242558 2.581003
0.32511196 -0.46968091 2.565454
0.36997083 -0.47707862 2.5786726
0.42306212 -0.48879397 2.5752325
0.29617435 -0.41945174 2.5530603
0.3268123 -0.429346 2.5725937
0.36018515 -0.42329645 2.5938189
0.29412553 -0.37909582 2.5587385
0.32637241 -0.37904677 2.5742266
0.35842109 -0.36769828 2.5953314
0.16903706 -0.32572186 2.5595474
0.21182278 -0.34368932 2.5529027
0.32265666 -0.33093905 2.5776458
0.35706997 -0.32877573 2.596612
0.18687281 -0.28171325 2.5535793
0.335114 -0.27887329 2.5896881
0.3532958 -0.28335771 2.5956287
0.19901638 -0.20810305 2.5561676
2.5856612 -0.21128014 2.5815291
2.6447186 -0.19685419 2.5794935
2.6792612 -0.181493 2.5830319
2.7071321 -0.17338252 2.563549
0.21194683 -0.13507988 2.5670006
0.26878378 -0.12663183 2.558975
2.6885288 -0.12779997 2.5869102
2.7092724 -0.13516445 2.564395
0.28230056 -0.079724662 2.5613852
0.30092451 -0.06199085 2.5889754
2.6911709 -0.085329652 2.5862422
2.711648 -0.077743351 2.5639555
0.29311475 -0.030594595 2.5574634
0.31040066 -0.018388368 2.5642128
2.6912839 -0.028739665 2.5873425
2.7104001 -0.036156282 2.5635142
0.29112148 0.024545914 2.5580351
0.31703281 0.027453475 2.573082
2.6911824 0.021200862 2.5872319
2.7097359 0.013726926 2.5629916
0.2935209 0.083893217 2.5601606
0.32426184 0.080331169 2.5747454
2.6915832 0.051152512 2.5841141
2.709254 0.062250685 2.5644414
0.28791773 0.13171929 2.5548081
0.3248224 0.12996408 2.5776219
0.35245451 0.13726501 2.596905
2.6788678 0.1091979 2.5857449
2.6445029 0.39145082 2.5901494
2.6680169 0.3912783 2.5663748
0.28787848 0.44573346 2.5590045
0.31978893 0.44703656 2.5640144
2.6373689 0.42716673 2.5884678
2.6671615 0.41962606 2.5646882
0.29967362 0.45722383 2.5516372
0.32783568 0.47394493 2.5638969
0.36934912 0.46958223 2.5873492
0.40929854 0.46244752 2.5710063
0.45938781 0.4942708 2.5989048
0.33156937 0.52657789 2.564538
0.36714345 0.52191442 2.5871968
0.32604027 0.57848305 2.5618935
0.36685228 0.57458234 2.5878425
0.48462942 0.5701946 2.5847905
0.32379878 0.62681639 2.5597484
0.36313772 0.627684 2.5872896
0.32639688 0.67425603 2.562654
0.36908081 0.67242825 2.5903566
0.32890463 0.72254753 2.5635698
0.36936349 0.72141081 2.5896058
0.33084214 0.77520078 2.5661128
0.36751312 0.77337688 2.5863204
0.54007286 0.75425833 2.5696852
2.6426852 0.79369259 2.5875382
2.6590483 0.78150421 2.5696938
0.33053181 0.82515508 2.5630634
0.36813036 0.82519954 2.58689
0.5532279 0.80594325 2.558836
2.6401682 0.81236339 2.5962765
2.6706932 0.82704228 2.5715418
0.32661897 0.87169129 2.5615027
0.36960238 0.87591392 2.589293
2.6767108 0.8742674 2.5786276
0.29687047 0.94488376 2.550076
0.32213408 0.92649764 2.5601912
0.36401683 0.92248458 2.5844748
2.6795506 0.92158139 2.5727735
0.3281523 0.97475171 2.5645998
0.36368296 0.97724485 2.5878823
2.6720073 0.9775486 2.5761878
0.29965407 1.0375359 2.5513492
0.32547578 1.0249112 2.5642545
0.36255458 1.0256479 2.5883303
0.62462312 1.0312706 2.5865846
2.6783555 1.0250626 2.571209
0.3258099 1.0767608 2.5672853
0.36333662 1.0775627 2.5903139
2.6795902 1.0722775 2.5764439
0.32388276 1.1274287 2.5662358
0.36909071 1.1200272 2.5900576
2.6842837 1.1253906 2.5758758
0.32772234 1.1742777 2.5697136
0.36647782 1.1736981 2.5933068
2.6824884 1.180287 2.5700243
0.32762298 1.2243549 2.5686805
0.36931518 1.2289159 2.5907516
2.6821415 1.2242917 2.5813925
2.7028706 1.2377045 2.5521131
0.32286125 1.2781087 2.5679729
0.36188126 1.2731259 2.5907261
2.6878555 1.2751255 2.5762591
2.7029638 1.298357 2.5621996
0.32456446 1.3249741 2.5666363
0.36110821 1.3230436 2.5908115
2.6821306 1.3206924 2.5914307
2.7117221 1.3347778 2.5684259
0.29859278 1.3890805 2.5528009
0.3289699 1.3783077 2.5718501
0.36150792 1.3674917 2.5892127
2.6948454 1.3999823 2.5799849
2.7093036 1.3771317 2.5708792
0.29966635 1.4142791 2.5538197
0.32353881 1.4258553 2.5644643
0.37131616 1.4254619 2.5940194
2.6952312 1.4359947 2.5883381
2.7089777 1.4248711 2.560643
0.32259661 1.4534873 2.5624199
0.3675952 1.456786 2.5941381
2.7121689 1.4762416 2.5834002
2.717659 1.5288013 2.5724068
2.7259843 1.579159 2.5757525
2.7201107 1.6218475 2.5694156
0.26928347 1.6858178 2.5567546
0.31413519 1.6709433 2.592279
2.7274311 1.6728026 2.5749671
0.23624538 1.7420037 2.5584915
0.27270839 1.7308191 2.5769699
0.30605108 1.7192039 2.5973287
2.7260687 1.723869 2.5756657
0.24103643 1.7761426 2.5584571
0.27480876 1.7727041 2.5816801
0.30432415 1.7617821 2.596596
2.7201486 1.7781391 2.5709047
0.23942839 1.822752 2.5617433
0.27757189 1.8194665 2.5920384
2.6837463 1.8216445 2.5576692
0.23156333 1.8728281 2.567224
0.27268234 1.8763967 2.5916996
0.22152238 1.9200033 2.565202
0.26239654 1.9285184 2.5878212
0.19435763 1.9952698 2.5577929
0.22394316 1.9753458 2.5723119
0.269409 1.9711481 2.5918729
0.19477852 2.0143106 2.5539255
0.22575335 2.0256488 2.5709941
0.2602393 2.0191371 2.5908973
0.23465687 2.0566115 2.5763917
0.25870386 2.0701053 2.5915391
2.5741265 2.3992589 2.5612488
1.7358046 2.4151382 2.5734603
1.7917404 2.4260247 2.5974574
1.818339 2.4359329 2.5828564
1.8664821 2.4330268 2.5766656
1.9237108 2.436605 2.5744064
1.9691604 2.4336872 2.5692129
2.0207982 2.4340603 2.5721102
2.0765526 2.4344354 2.5750942
2.1214266 2.439568 2.5799093
2.1856349 2.4418285 2.5848041
2.2263038 2.4335613 2.5730674
2.269558 2.4283552 2.5798326
2.3252349 2.4303546 2.5710044
2.3759496 2.4205086 2.5760293
2.4341314 2.4190814 2.5711596
2.4767272 2.4170988 2.584501
2.5234416 2.415947 2.5684433
2.6081238 2.4130206 2.561774
2.6712823 2.416059 2.5701699
2.7142863 2.4088478 2.5745659
0.38844553 -0.45461789 2.6032705
0.42555466 -0.47180778 2.6164298
0.46946362 -0.47192401 2.6397786
0.51183444 -0.48916879 2.6374826
0.38675135 -0.42137837 2.6098554
0.42438176 -0.42740354 2.6303933
0.45303965 -0.42400098 2.6467707
0.38421345 -0.37333912 2.608963
0.42416394 -0.37619817 2.6342134
0.45263782 -0.37654963 2.6490834
0.31650391 -0.30072767 2.6035354
0.38264772 -0.31975457 2.6123312
0.42377988 -0.32487357 2.6361806
0.45213199 -0.33337545 2.6499104
2.6276717 -0.32471192 2.6451461
0.33415183 -0.2672219 2.6456609
0.37710443 -0.26955992 2.610842
0.42335305 -0.27363738 2.6373057
2.6152005 -0.29822013 2.6351261
0.34372658 -0.23957001 2.6221244
0.37412018 -0.21995267 2.6121933
0.42287472 -0.22247483 2.6374912
0.45075178 -0.22369844 2.6492262
2.6153259 -0.23171815 2.6409609
0.37933281 -0.17152724 2.6202583
0.42232099 -0.17138483 2.6364403
2.6461337 -0.19349831 2.6329658
2.6647496 -0.17261687 2.6255512
0.3842254 -0.12233044 2.6246781
0.42232645 -0.12058567 2.6382954
2.6671343 -0.13238747 2.6204858
0.3960163 -0.069609374 2.6361742
0.41426867 -0.072376445 2.6352293
2.6690674 -0.082355134 2.624094
2.6465299 -0.015582762 2.6496422
2.6647062 -0.032183312 2.6206753
2.6439898 0.017845415 2.6470041
2.6659453 0.017861793 2.6219275
2.6462455 0.059671801 2.6486845
2.669543 0.061234813 2.6154323
0.35426679 0.10660169 2.6112461
2.637248 0.11743322 2.6222744
2.6612959 0.11345644 2.6073198
2.6148343 0.33371186 2.6300621
2.6193528 0.37406984 2.620842
0.38268021 0.44278392 2.608521
0.44658831 0.4434503 2.6057317
2.6184666 0.42067233 2.6279919
0.39538205 0.4808104 2.6031227
0.42425677 0.49125767 2.6216552
0.39424971 0.52822149 2.6066768
0.42555818 0.52474731 2.6255105
0.46203282 0.52647036 2.6386802
0.39286372 0.57560235 2.608043
0.42690158 0.57133198 2.6274879
0.46749026 0.57642275 2.64325
0.39068776 0.62190437 2.6059639
0.42853189 0.62505651 2.6294966
0.46044058 0.63128197 2.6468492
0.50312895 0.62815964 2.6054628
0.39097118 0.67333651 2.6032066
0.42271242 0.6775803 2.6254909
0.46224251 0.6625306 2.6418955
0.52347684 0.68935728 2.6328926
0.38499933 0.7283113 2.6044188
0.4240782 0.7250613 2.6256421
0.46026325 0.7312482 2.6443317
0.38944685 0.77249116 2.6042721
0.42666233 0.77403438 2.6244233
0.46179974 0.75988698 2.6481526
0.55219698 0.78426236 2.6247141
2.6200757 0.78534007 2.621583
0.3908422 0.82048899 2.6041541
0.42125165 0.82401866 2.6235282
0.45693499 0.82187951 2.646616
2.6312268 0.82789159 2.6265996
2.6552503 0.83400714 2.6063771
0.39239764 0.87350935 2.6034162
0.42177573 0.87622076 2.6228063
0.45463175 0.87634307 2.6453128
2.6410384 0.87169987 2.6303751
2.6591721 0.86078513 2.60291
0.39400139 0.9248293 2.6027145
0.42321414 0.92517436 2.6209362
0.45964283 0.93128669 2.6468258
2.6401484 0.92558879 2.6300991
2.6522253 0.92385787 2.6100304
0.3904044 0.97254807 2.60566
0.42790356 0.97614938 2.6305845
0.45616716 0.97901636 2.6471374
2.639298 0.97575074 2.6268406
2.6551974 0.95912403 2.6021366
0.39143777 1.0263264 2.6058519
0.42642421 1.0239606 2.6261973
0.457032 1.0209093 2.641624
0.6225276 1.009639 2.647054
2.6369257 1.0225277 2.6378002
2.6543736 1.0252918 2.6133597
0.38647172 1.0747255 2.6050766
0.42316923 1.0728755 2.6272073
0.4613466 1.091166 2.6495831
2.6408434 1.0854704 2.6463671
2.6589744 1.0736588 2.6188309
0.38977814 1.1394442 2.6107726
0.42741999 1.1218718 2.6287122
0.46588042 1.120922 2.6478016
2.6473272 1.1316394 2.6368349
2.66327 1.1248953 2.6136343
0.3878552 1.177007 2.6100225
0.41928917 1.1737651 2.6269195
0.45646781 1.1721593 2.6470799
2.6437733 1.1900363 2.6458197
2.6608236 1.1772896 2.6172202
0.3867338 1.2199622 2.6030078
0.42289537 1.2224727 2.627079
0.45341322 1.2274231 2.6457651
2.6487839 1.2098192 2.6438766
2.662148 1.2322257 2.6289487
0.39047691 1.2805114 2.611419
0.42633325 1.2734129 2.6345634
0.45476246 1.2584293 2.6444211
2.6481469 1.2881074 2.6470919
2.665992 1.2752368 2.6192193
0.38956222 1.3245173 2.6100042
0.42191875 1.3259076 2.6343837
2.6639512 1.3269154 2.6310396
0.3831366 1.385594 2.6075053
0.4249531 1.3749379 2.6342888
2.6482952 1.3678211 2.6493514
2.6667743 1.3770807 2.6231761
2.7016845 1.3680067 2.6027756
0.38720366 1.4119179 2.602093
0.41938087 1.4261839 2.6193919
2.6737604 1.4209102 2.6252158
2.679755 1.4783055 2.6305797
2.681875 1.520324 2.626714
2.7029712 1.5308841 2.6020365
2.6880801 1.5714048 2.624356
2.7018585 1.5948451 2.6066628
2.6898348 1.6311629 2.6308424
2.7066085 1.6158079 2.6018469
0.33434165 1.682547 2.6109967
0.36995983 1.6883812 2.638824
2.6967962 1.6684153 2.639961
2.7060738 1.6788716 2.620095
0.33532619 1.7285231 2.6140523
0.37650466 1.7179805 2.6398799
2.6943526 1.7185371 2.6296284
2.7074249 1.7244363 2.6037478
0.32862878 1.766441 2.6069744
0.36397576 1.7801032 2.6399603
2.6818449 1.7735597 2.6312542
2.7089024 1.7680188 2.601578
0.29399011 1.8441137 2.60197
0.32568115 1.8213959 2.6205549
0.36281413 1.82531 2.6408482
0.29574654 1.8843681 2.6009114
0.3266736 1.8720738 2.6240947
0.35838357 1.8773102 2.642874
0.29366592 1.9319843 2.608983
0.32769316 1.9230738 2.6308491
0.36091253 1.9203104 2.6445844
0.32278925 1.9725108 2.6285181
0.2844626 2.0254049 2.6113658
0.31769109 2.0278726 2.6270721
0.28340879 2.0788021 2.6148343
0.32291728 2.0795557 2.6315567
0.3331328 2.1142612 2.6403975
0.35765541 2.1234162 2.6493545
1.749729 2.4168327 2.6083291
1.7827959 2.4180133 2.6180294
1.8256171 2.4208994 2.6314132
1.8743516 2.4271157 2.6184883
1.928098 2.4310033 2.6266594
1.9709475 2.4303575 2.6199431
2.0248196 2.4325075 2.6213231
2.0718346 2.427443 2.637481
2.1277788 2.434325 2.6227932
2.2177184 2.4391201 2.6265397
2.2719722 2.4289317 2.6292307
2.3300059 2.4216685 2.6186941
2.3805678 2.4158821 2.6198432
2.4277058 2.4156098 2.6254492
2.4721377 2.4120672 2.6272101
2.5270302 2.4090605 2.6141272
2.5725574 2.4053831 2.6232715
2.6216445 2.4141598 2.6285863
2.6824744 2.4241755 2.6275868
2.709691 2.4210587 2.6268687
2.8254206 2.4231339 2.6213913
0.48887816 -0.45959112 2.6596119
0.5255307 -0.46984917 2.6764555
0.57082343 -0.48190236 2.6884048
0.61653656 -0.48780781 2.6898484
0.48368886 -0.42256749 2.6647246
0.52268142 -0.42760849 2.6895933
0.4800292 -0.37627819 2.6677082
0.52002907 -0.37272307 2.6928494
2.5709219 -0.38226637 2.6741407
2.6161184 -0.35760978 2.6823204
0.47431239 -0.32712021 2.6645393
0.5180192 -0.32910955 2.69309
2.6181626 -0.31827265 2.6833832
0.47419465 -0.27729052 2.6674986
0.51631409 -0.27597544 2.6927006
2.6211958 -0.26353571 2.683666
0.47704831 -0.2257348 2.6709859
0.51675326 -0.22688361 2.6913106
2.6296172 -0.2137409 2.6755886
0.36029732 -0.17847402 2.6534107
0.47322741 -0.17373849 2.6677969
0.51668173 -0.17849691 2.6933575
2.6306381 -0.17017324 2.6792922
0.47312671 -0.12222461 2.6690664
0.50958717 -0.12323314 2.6880946
2.6344948 -0.12989183 2.6788292
2.6517441 -0.13290893 2.6521566
0.38584673 -0.089221708 2.6542678
0.43565375 -0.066428088 2.6579895
0.47213587 -0.075248748 2.6731555
0.5136165 -0.081188485 2.6927896
2.6319864 -0.082847424 2.6809547
2.6520102 -0.082648337 2.6541221
2.6359775 -0.034531496 2.6740918
2.6267369 0.017869065 2.6765177
2.6295402 0.059815381 2.6787984
0.52385896 0.1367065 2.6923735
0.57614273 0.1172457 2.6871898
2.4875786 0.3299233 2.6833522
2.536092 0.31546122 2.6749926
2.5733159 0.33472249 2.6810062
2.607003 0.33481607 2.653322
2.5851948 0.36383161 2.6850045
2.6061332 0.37444296 2.6582355
2.5890865 0.42586148 2.6811287
2.6076722 0.40295061 2.6614676
0.47958803 0.57597756 2.6536474
0.4822886 0.62058771 2.6622956
0.50063223 0.62829739 2.6640778
0.47953027 0.67921901 2.6591036
0.50867593 0.67454785 2.6689935
0.47939584 0.72405958 2.6599619
0.52000749 0.72606707 2.6793575
0.48084104 0.77639824 2.6605322
0.52370429 0.77335608 2.6836684
0.55029935 0.77382571 2.6863623
2.5959151 0.7855013 2.6879761
2.600584 0.79029632 2.6586268
0.48159918 0.8285436 2.6630054
0.52640122 0.82476425 2.6877573
0.55868286 0.80967528 2.6870089
2.5915256 0.82381278 2.6863422
2.6208007 0.8260355 2.6602204
0.48521 0.87508577 2.6651487
0.52145666 0.8769477 2.6842976
0.58215445 0.87507802 2.6866329
2.5976729 0.88570893 2.6962857
2.6178453 0.87530583 2.6711445
0.48491049 0.9217065 2.6614981
0.52775997 0.92897797 2.6869614
0.59476197 0.91408998 2.6714344
2.618634 0.93006939 2.6727421
0.48134667 0.97325963 2.6599019
0.51666307 0.9770596 2.6816647
0.61817837 0.98374379 2.6996188
2.5960369 0.98610163 2.6981022
2.6152873 0.97501785 2.6720402
0.47775176 1.0256796 2.6600051
0.51723182 1.0243347 2.6824913
2.5984645 1.0043288 2.6950147
2.6173782 1.0223341 2.6762085
0.44780689 1.0909905 2.6507854
0.47749504 1.0713148 2.6605737
0.51866132 1.0766348 2.6863122
0.64330846 1.0757394 2.6600752
2.6239891 1.0765268 2.675164
0.48733258 1.1217569 2.6593428
0.52219135 1.1251814 2.680418
2.6193559 1.1258117 2.6771612
0.48236752 1.1778865 2.6579211
0.5273329 1.1765108 2.6864338
0.55763209 1.1708329 2.6994653
2.6278207 1.1720034 2.6742189
0.4855541 1.2234693 2.6633906
0.5253675 1.2270579 2.6793795
2.6314306 1.2271552 2.6667078
0.4749842 1.2764947 2.6676967
0.50945896 1.2762182 2.6823888
2.6302702 1.2727757 2.6789188
0.44573602 1.3270258 2.6544218
0.47621462 1.325604 2.6700296
0.5168888 1.3186431 2.6897268
2.6407795 1.3285322 2.6722608
0.48112252 1.3734465 2.6730602
0.51011908 1.3722453 2.6875854
2.6420434 1.3559246 2.6842272
2.6565895 1.3902969 2.6869867
0.44996372 1.4093741 2.6533475
0.47780001 1.4242065 2.6693766
0.52633339 1.4287313 2.6897016
2.6458614 1.4238443 2.68349
2.6567924 1.4352498 2.6666164
2.6384528 1.4758774 2.681349
2.6597996 1.463807 2.6569111
2.6483006 1.5226678 2.6907377
2.6580737 1.5334768 2.6721592
2.666944 1.5736866 2.669997
2.6671774 1.6253945 2.6746936
0.3933385 1.68911 2.6523886
0.43497887 1.6963167 2.6894331
0.46255532 1.6894169 2.6952503
2.6450565 1.6519656 2.6996932
2.6667733 1.6798728 2.6739249
0.39590961 1.7365088 2.6516271
0.42569017 1.7230706 2.6759841
0.46069282 1.7325351 2.6981053
2.6786504 1.7253094 2.6814754
0.38866362 1.7742342 2.6556494
0.4274157 1.7772787 2.6828992
2.6614807 1.7699578 2.6782911
0.38625538 1.8176124 2.6564941
0.41881928 1.8238518 2.6768849
0.45507628 1.8243906 2.6957881
2.6460953 1.8061593 2.6984222
0.38432002 1.8765914 2.6627145
0.41929215 1.8718811 2.6815994
0.38115364 1.9293385 2.6607909
0.42089009 1.9226133 2.6853695
0.37930754 1.9787059 2.6690223
0.42266721 1.9804115 2.6911678
0.36818928 2.0197809 2.6615174
0.41723582 2.0188954 2.689395
0.37110543 2.0689356 2.661849
0.4142921 2.0711668 2.6885362
0.37743527 2.115237 2.6663902
0.41353464 2.121402 2.6899765
0.39379674 2.1528206 2.6824133
0.41935149 2.16401 2.6934059
1.4872597 2.4088445 2.697289
1.5026276 2.4055357 2.6850753
1.6297628 2.4306273 2.6755793
1.6507206 2.4177828 2.6854763
1.7870359 2.4080467 2.655371
1.8305713 2.4242597 2.6967947
1.8708663 2.4341936 2.6775713
1.9224657 2.4293816 2.6777792
1.9772054 2.4323475 2.6773045
2.0258296 2.437356 2.6727085
2.0766428 2.4253352 2.6756878
2.1273248 2.4224555 2.6826048
2.1926608 2.4330544 2.6564083
2.2273571 2.431818 2.6769435
2.2741015 2.4226913 2.6756694
2.3267829 2.4189894 2.6638
2.3676293 2.4158831 2.6773796
2.4281569 2.4158628 2.6744161
2.4750016 2.4145229 2.662461
2.520148 2.4107404 2.6721404
2.5735235 2.4144526 2.6733987
2.6273148 2.4084015 2.6728227
2.6820698 2.4118385 2.6814919
2.7213478 2.4199953 2.676492
2.7514393 2.4107335 2.6529744
2.8568883 2.4197216 2.6701455
0.5779984 -0.46327695 2.7098012
0.62154162 -0.46979332 2.7263687
0.67337608 -0.48128271 2.7417433
0.72313857 -0.48122048 2.7395546
0.54334307 -0.421368 2.7042885
0.57196325 -0.42871955 2.7166853
0.61183643 -0.42466399 2.7419162
0.54269332 -0.37483162 2.7055135
0.57382268 -0.37797451 2.7246058
0.60853362 -0.37099731 2.7433128
2.5889881 -0.37543347 2.7338631
2.6043031 -0.36190623 2.7118435
0.53769702 -0.31746677 2.7077513
0.57323396 -0.32458484 2.7263498
0.6091612 -0.3228313 2.7449472
2.5972044 -0.32094294 2.7405722
2.6075487 -0.32010841 2.7197323
0.53781414 -0.27864316 2.7054987
0.57358181 -0.27297857 2.7257538
0.60395676 -0.27350667 2.745717
2.5921793 -0.26959124 2.7399111
2.6095424 -0.27227524 2.7135448
0.53790164 -0.23052749 2.7054927
0.56793082 -0.22866035 2.7217321
0.60273182 -0.23965429 2.7422183
2.5908122 -0.21873534 2.742286
2.6076233 -0.21798325 2.712532
0.53757644 -0.17276926 2.7066436
0.57113373 -0.17817096 2.7251263
0.60296834 -0.17979117 2.7462854
2.5896261 -0.16794276 2.7440357
2.6091726 -0.16753048 2.7171669
0.53337961 -0.12426579 2.707485
0.56963426 -0.1271061 2.7256811
2.5909114 -0.11290951 2.7398276
2.6108809 -0.12546842 2.7208681
0.47298762 -0.052124605 2.7076864
0.53480589 -0.075856701 2.7090993
0.56140363 -0.081517264 2.7205799
2.5899267 -0.074761286 2.7319734
2.6120489 -0.083055258 2.7076495
2.5912499 -0.036939204 2.7418699
2.6099083 -0.029261744 2.718905
2.5888064 0.017894408 2.7393684
2.6067147 0.017905999 2.7155938
2.5882797 0.060152672 2.7461529
2.6082623 0.060054168 2.7198021
0.57138532 0.13876642 2.7275484
0.6031127 0.1333535 2.7484806
2.4848242 0.33393139 2.742439
2.5390124 0.33455539 2.7074664
2.4953086 0.38550618 2.7483256
2.5237126 0.36528671 2.718785
2.5669384 0.38155219 2.711024
2.5671186 0.41280872 2.7124853
0.58432263 0.47417086 2.731647
0.61359698 0.47617367 2.739187
0.65526253 0.63185275 2.7177947
0.71025676 0.61179829 2.7445958
0.63415176 0.65118927 2.7448044
0.67986786 0.66304743 2.7277784
0.55383319 0.79222286 2.7009385
2.5708754 0.78823191 2.725898
0.55937904 0.83578265 2.7026722
2.5714357 0.82178181 2.7274795
0.5430063 0.87024379 2.7000866
0.56725425 0.87787771 2.7109914
2.5822749 0.87691909 2.7248733
0.54545569 0.91482419 2.7029805
0.57615966 0.9273898 2.7143414
0.60516429 0.94375616 2.7148709
2.5854483 0.92489994 2.7219923
0.54893661 0.97522944 2.7069817
0.5757575 0.97885627 2.7192357
0.61061198 0.97989565 2.7324755
2.579809 0.96784443 2.7237957
0.53533024 1.0093868 2.7003078
0.57463092 1.0253744 2.7179015
0.62078971 1.0262212 2.7422624
2.5834033 1.0259248 2.722435
0.53875852 1.0707868 2.7027397
0.57206982 1.0764344 2.7205501
0.61399108 1.0700772 2.7353919
2.5896776 1.0755817 2.7307498
2.6031981 1.0826844 2.7090163
0.57318372 1.1255696 2.7197723
0.60548824 1.120134 2.7403357
0.65644628 1.1116055 2.7103713
2.5862455 1.1215595 2.7281024
2.6059122 1.1012853 2.7056494
0.57972914 1.1705207 2.7194555
0.61391544 1.1645845 2.7453029
0.68485063 1.1924661 2.749408
2.5928173 1.1722577 2.7354088
2.6045387 1.1784452 2.7112072
0.54740381 1.2204838 2.7062502
0.57795882 1.224853 2.7225738
0.61173773 1.2024256 2.7473021
2.5903044 1.2234455 2.749033
2.611203 1.2251681 2.7229714
0.53796858 1.2870715 2.7124047
0.56812489 1.277535 2.7226403
0.60576439 1.2710059 2.7445395
2.5988369 1.271894 2.7403989
2.6114054 1.2782855 2.7164631
0.53507024 1.336102 2.7064602
0.5713098 1.3272674 2.7230804
0.60339254 1.3140934 2.7431669
2.5923336 1.3310113 2.7448118
2.6122499 1.3231325 2.7209604
0.53564018 1.3765259 2.7094533
0.57462204 1.3778415 2.7234132
0.60772938 1.3954873 2.7368839
2.6233823 1.3737086 2.7281754
0.52932376 1.4069761 2.703784
0.57222652 1.4163896 2.7159796
1.3393025 1.4119023 2.7242436
2.627795 1.4211508 2.7233298
1.343349 1.4618599 2.7133403
2.6149173 1.4738041 2.7289679
2.629595 1.5293021 2.7280676
2.5976412 1.5902475 2.7473192
2.6275215 1.5729365 2.7234192
2.6521819 1.5902032 2.7013223
2.6274047 1.6207298 2.7241552
0.48824129 1.6889672 2.7014089
0.50756472 1.6897261 2.7313182
2.6287313 1.6774215 2.7245233
0.48273811 1.7272192 2.7082496
0.52215916 1.7262104 2.7394714
2.6222081 1.7270018 2.7337692
2.6543961 1.734279 2.7087696
0.48120314 1.7758347 2.7174208
0.53209621 1.7742331 2.7387354
2.6307893 1.7797827 2.7250047
0.48154548 1.8164135 2.7184503
0.51733845 1.8128839 2.7389748
0.88503599 1.8247051 2.7482939
0.44104868 1.8852243 2.7045119
0.47323373 1.880617 2.7188656
0.50946885 1.870986 2.7353635
0.44343787 1.9257836 2.7022197
0.47633612 1.9234438 2.7197618
0.51018512 1.9261377 2.7393706
0.44308755 1.9714267 2.7061746
0.48067486 1.9717537 2.7270019
0.51481116 1.9745785 2.7466707
0.46766177 2.023098 2.7187939
0.50509751 2.0170331 2.7382994
0.43841442 2.0723276 2.7082152
0.47252414 2.0753927 2.7279656
0.44219273 2.1215515 2.7117434
0.47371992 2.1255722 2.7341511
0.44035614 2.166811 2.7144804
0.47713819 2.1758265 2.7311757
0.48315179 2.2047732 2.7364585
0.50087559 2.2125196 2.7436841
1.319123 2.3885577 2.7450247
1.3768551 2.3987634 2.7342846
1.4248414 2.3918707 2.702915
1.4555129 2.3965139 2.7333422
1.5039382 2.3901682 2.701067
1.3804462 2.4049904 2.7413127
1.4311453 2.4083552 2.7422438
1.4737906 2.4065335 2.7197456
1.6492221 2.4327965 2.7287126
1.6743002 2.4124651 2.7255745
1.8765345 2.4214025 2.7291327
1.9253325 2.4277515 2.7315459
1.9717486 2.4218807 2.7196164
2.0357416 2.4291327 2.7237179
2.0757036 2.4210539 2.7297058
2.131537 2.4297802 2.7384758
2.1799247 2.4285409 2.7194321
2.2209938 2.4265397 2.7192841
2.2758477 2.4257185 2.7276449
2.3308275 2.4238987 2.7180717
2.3728285 2.4085522 2.7255869
2.4232414 2.4108121 2.7182903
2.4629846 2.4116991 2.7159882
2.5218484 2.4210732 2.7242324
2.5755818 2.4151042 2.7244046
2.6107464 2.4107413 2.706912
2.659626 2.4084942 2.7180343
2.7250507 2.4113383 2.7271466
2.7894757 2.4238374 2.7029734
2.8299627 2.4199986 2.7365692
1.6975143 2.4509389 2.7296824
0.63646543 -0.45783854 2.7510324
0.68021464 -0.46611992 2.7669623
0.72319293 -0.47281063 2.7866232
0.63384658 -0.42017716 2.7557216
0.66940182 -0.42795607 2.7749965
0.70231432 -0.42465529 2.7942238
0.63207209 -0.37483725 2.7603912
0.67024511 -0.37409642 2.7837429
0.7020961 -0.36289877 2.7991397
