ply
format ascii 1.0
comment PCL generated
element vertex 1537
property float x
property float y
property float z
element camera 0
property float view_px
property float view_py
property float view_pz
property float x_axisx
property float x_axisy
property float x_axisz
property float y_axisx
property float y_axisy
property float y_axisz
property float z_axisx
property float z_axisy
property float z_axisz
property float focal
property float scalex
property float scaley
property float centerx
property float centery
property int viewportx
property int viewporty
property float k1
property float k2
end_header
-2.6743138 1.9826469 4.33005
-2.6689448 2.019815 4.3455048
-2.6687055 2.0691814 4.3261395
-2.67453 2.123369 4.3159194
-2.6756766 2.1716423 4.329031
-2.6676714 2.2252488 4.3216662
-2.6585474 2.2637618 4.3496284
-2.649193 2.2808628 4.3235135
-2.6148353 2.3087642 4.3367033
-2.5270147 2.3222251 4.3405352
-2.4253011 2.3214889 4.3167572
-2.374886 2.3327518 4.3316302
-2.3315017 2.3387079 4.3306613
-2.2688551 2.3249176 4.3260717
-2.0763698 2.3255122 4.3395042
-2.0203724 2.3409493 4.3310304
-1.9530654 2.3183064 4.3064618
-1.8514774 2.3345768 4.3153014
-1.8013761 2.331358 4.3250303
-1.7689797 2.3437274 4.3016939
-1.6685026 2.335557 4.3158779
-1.620837 2.3348246 4.3283567
-1.2349098 2.3430231 4.3286467
-1.19701 2.3369448 4.3247771
-1.1387081 2.335799 4.3162198
-1.0762597 2.3489528 4.3177366
-1.0241218 2.3350544 4.3005419
-0.96915758 2.3404851 4.3204336
-0.92014283 2.332602 4.3133402
-0.89129204 2.3468597 4.3450794
-0.4261401 2.3418972 4.3355465
-0.3586638 2.3465273 4.3486786
-0.21999623 2.3478947 4.3070278
-0.19842952 2.3371503 4.3387585
-0.077156782 2.3434021 4.3192806
-0.028175877 2.3426206 4.3267431
0.21022759 2.3405991 4.3447871
-1.1006559 2.3518913 4.3187799
-1.0553052 2.3535619 4.3304691
-0.82701981 2.3506365 4.3090138
-0.72771829 2.3615634 4.3428063
-0.47015938 2.3573396 4.309679
-0.36800861 2.3562796 4.3150234
-0.32224941 2.3528252 4.311358
-0.016923813 2.3572824 4.3283668
0.017031647 2.3540227 4.3223724
0.062262226 2.3520949 4.318531
0.18678443 2.354214 4.3198104
0.2205008 2.3517816 4.3141651
0.4243843 2.3541152 4.3072701
0.46997869 2.3556776 4.3066692
0.64353085 2.3921828 4.3061719
0.68027306 2.3784037 4.328002
0.71248579 2.3714762 4.3113241
1.1195976 2.390506 4.3353705
1.2235448 2.3895769 4.3123193
-1.7609009 -0.51859528 4.3778229
-1.7641487 -0.47700033 4.3687968
-1.7699389 -0.440826 4.3757133
-1.7639576 -0.32043761 4.3985043
-1.7603997 -0.26460353 4.3921485
-2.6537318 1.7988516 4.3942251
-2.6481984 1.7705126 4.3930011
-2.6502793 1.8211182 4.3804221
-2.6497703 1.8453711 4.3713541
-2.6655412 1.8811039 4.3889523
-2.6644101 1.9174058 4.3741751
-2.6608112 1.9518838 4.3550677
-2.6662965 2.0741494 4.3799357
-2.6630988 2.1316082 4.3819914
-2.6690907 2.1741691 4.3767586
-2.6563234 2.2241721 4.3619003
-2.6465242 2.2497411 4.3945308
-2.6332557 2.2876594 4.3727646
-2.5948086 2.3244865 4.3848319
-2.4779055 2.322979 4.3653755
-2.4448149 2.3270969 4.3902555
-2.3533859 2.3358078 4.3820615
-2.3267748 2.3340163 4.3893557
-2.2272515 2.3454881 4.3898249
-2.0588195 2.3330538 4.3627052
-1.9896058 2.3373296 4.3972559
-1.2030938 2.3255634 4.3561416
-1.110093 2.3487976 4.3652439
-1.0834 2.3413513 4.3557649
-0.93106747 2.3369846 4.3734684
-0.89983034 2.3461094 4.3959565
-0.83698797 2.3443756 4.3750033
-0.78132945 2.3389556 4.39891
-0.43139151 2.3476763 4.3979487
-0.31308809 2.3463616 4.3509502
-0.22224043 2.3490412 4.3600259
-0.062517375 2.3447938 4.3559532
0.02854302 2.346405 4.3592119
0.21218471 2.3394406 4.3941894
0.44258624 2.3452504 4.3926039
-1.3591305 2.3542454 4.3786554
-1.340127 2.3622293 4.3989973
-1.0191877 2.3536124 4.3911152
-0.81320262 2.353842 4.3697109
-0.47416157 2.3545444 4.3555112
-0.38230696 2.3518574 4.3571315
-0.29278746 2.3663619 4.389204
-0.16593735 2.3588405 4.380065
-0.11994976 2.3551753 4.3743534
-0.03993205 2.3551078 4.3753114
0.0057823425 2.3525705 4.3707304
0.051767629 2.3669248 4.397181
0.17743981 2.357795 4.3778114
0.23456351 2.356843 4.3740878
0.42943174 2.3590577 4.3673687
0.47623593 2.3639464 4.3729296
0.51061296 2.3639247 4.3700514
0.68563604 2.3740869 4.3714123
0.72337759 2.3845701 4.3866
1.083552 2.3901308 4.3957028
1.1304917 2.3903251 4.3872061
1.1543247 2.3911693 4.3841705
-1.7537236 -0.51191413 4.4224434
-1.7461356 -0.5318715 4.4015021
-1.7627423 -0.48096851 4.4477625
-1.7629343 -0.4112252 4.4218082
-1.7640864 -0.37319875 4.4207797
-1.7566335 -0.32315779 4.4420252
-1.7639619 -0.28725761 4.4000902
-1.7494439 -0.2885178 4.4254208
-2.6497095 1.7469214 4.4033117
-2.6420844 1.782958 4.4356441
-2.6385899 1.8176911 4.417799
-2.657769 1.868266 4.437561
-2.6557732 1.9290814 4.41289
-2.6667228 1.9870174 4.4132872
-2.6590455 2.0230105 4.4256692
-2.6576877 2.07443 4.4241667
-2.6525602 2.1080804 4.4012203
-2.660708 2.175199 4.4219761
-2.6490335 2.1506622 4.4397135
-2.6527076 2.2043209 4.4256682
-2.6418056 2.2311649 4.4244804
-2.632905 2.2724137 4.4211054
-2.6030557 2.3065262 4.4096861
-2.5726295 2.3259649 4.435348
-2.5334089 2.3376927 4.4458494
-2.4640279 2.3201632 4.4354959
-2.4203427 2.3276014 4.4024038
-2.3871555 2.3318255 4.4268789
-2.3135943 2.345804 4.4220653
-2.0193031 2.3435597 4.4002457
-1.3422936 2.3423839 4.4156394
-1.1749265 2.3387852 4.4440937
-1.022364 2.337569 4.4140644
-0.85409075 2.3480465 4.4064431
-0.8053835 2.3415797 4.4007597
-0.38792002 2.3400471 4.4391866
-0.20138001 2.3488762 4.4122901
0.46609029 2.3248272 4.4046712
-1.1275948 2.3622031 4.4435086
-0.88021725 2.355768 4.417542
-0.46703035 2.3533962 4.4060669
-0.37554428 2.3583736 4.4218502
-0.33439937 2.3746812 4.4374204
-0.28239357 2.3525019 4.4158587
-0.22456199 2.3505366 4.414597
-0.17921825 2.3602231 4.4343319
-0.040372699 2.3580115 4.4326868
0.23662353 2.3544466 4.4215198
0.25970334 2.3659892 4.4161086
0.68297589 2.3819447 4.4395351
0.71542275 2.3734596 4.419652
1.1267264 2.3953185 4.4251986
-1.736012 -0.51660264 4.4720373
-1.7506752 -0.46131223 4.4819098
-1.744675 -0.49339128 4.4640937
-1.7628231 -0.43622649 4.4511356
-1.7467978 -0.41536456 4.4749956
-1.7445955 -0.36996526 4.4720469
-1.7374427 -0.32585031 4.4879742
-1.7589808 -0.26775432 4.4504976
-1.7431998 -0.27998441 4.472908
-2.6323044 1.7433379 4.4881186
-2.6383858 1.7847972 4.4868841
-2.6528273 1.8322185 4.4994936
-2.6444492 1.8639553 4.4730215
-2.6446877 1.9244426 4.4732461
-2.6578898 1.9740062 4.4613352
-2.6344337 1.9626745 4.4804754
-2.6463177 2.0473535 4.4735384
-2.6496363 2.0752285 4.4697795
-2.6578794 2.1197472 4.4692793
-2.6398182 2.1256413 4.4937744
-2.6413183 2.1777959 4.4766207
-2.6338272 2.2204442 4.4764957
-2.6226759 2.2783706 4.4783201
-2.6064806 2.3066125 4.4819226
-2.5809102 2.3066385 4.4939919
-2.5118988 2.3413017 4.4644003
-2.4368334 2.3303378 4.4717932
-2.3950732 2.3266001 4.4810562
-2.3235114 2.3307939 4.4515872
-1.3558608 2.3421564 4.4697552
-0.87483871 2.3493013 4.4603806
-0.79123026 2.3451397 4.4637804
-1.1580768 2.3525298 4.4748468
-0.9106406 2.3507836 4.4579945
-0.83234501 2.3619609 4.4910555
-0.76980698 2.3513153 4.4785523
-0.72293127 2.3517652 4.4851623
-0.69516969 2.3608527 4.4515796
-0.42664415 2.3619277 4.478344
-0.36883298 2.3662009 4.4902506
-0.32172433 2.3642657 4.4892044
-0.29872504 2.3674698 4.4964681
-0.22800472 2.3631761 4.4913101
-0.18042594 2.3528357 4.4732037
0.0058878497 2.3719666 4.459054
0.22791238 2.3606429 4.4865026
0.26288784 2.3599584 4.48382
0.69062364 2.3849955 4.4985046
0.72418237 2.3789191 4.4829435
-1.7255342 -0.51226676 4.5429668
-1.7336622 -0.47564051 4.5177212
-1.7271241 -0.41877836 4.5207996
-1.7351235 -0.37276095 4.5117741
-1.7328256 -0.28193098 4.5102563
-2.6286597 1.7700771 4.5323005
-2.6267195 1.8189473 4.5133028
-2.6313639 1.8598613 4.5091734
-2.6307356 1.9303206 4.525135
-2.6402643 1.9859629 4.5454788
-2.6552157 2.0162094 4.5023479
-2.6367879 2.0723395 4.5076542
-2.6279566 2.1238551 4.5338874
-2.6315341 2.1780097 4.5205526
-2.6216757 2.2183123 4.5276465
-2.6189642 2.2661531 4.5245848
-2.5989504 2.2969515 4.5360518
-2.5565569 2.3077645 4.5080266
-2.5212972 2.3363471 4.5205097
-2.4779112 2.331713 4.5286536
-2.379204 2.3358243 4.5096102
-0.80055356 2.3490422 4.5254803
-0.82541943 2.3523042 4.5286336
-0.75534379 2.3560078 4.5448852
-0.41948521 2.364228 4.537396
-0.3951675 2.3601635 4.5311375
0.69332367 2.3706062 4.5252514
0.71559834 2.3658953 4.513557
-1.722819 -0.46632314 4.5838289
-1.734836 -0.37764531 4.5766139
-1.7416306 -0.34460855 4.5963974
-1.7354472 -0.28613156 4.582736
-2.6159933 1.7911307 4.5614486
-2.6216736 1.832947 4.5595169
-2.6293726 1.8763525 4.5607586
-2.6252337 1.919504 4.5796065
-2.6324165 1.9736849 4.5965562
-2.6441481 2.0241594 4.5712018
-2.6385036 2.0681629 4.5757256
-2.6204524 2.1386054 4.5772629
-2.6272223 2.1828923 4.57442
-2.6048398 2.2374759 4.5722551
-2.6076682 2.2787595 4.5617805
-2.58882 2.2849538 4.5860553
-2.5745018 2.3097224 4.5790753
-2.524648 2.3255606 4.5661073
-2.4725661 2.3130503 4.5584469
-2.4045627 2.3350585 4.5682111
-2.3754368 2.3316324 4.5721722
-2.2352166 2.344439 4.5877371
-2.1422591 2.3264456 4.5809193
-0.8093549 2.3508763 4.5843034
-0.3505488 2.3538475 4.5764351
-0.30392393 2.3609755 4.5927639
-0.25457257 2.369329 4.5561299
-0.21896246 2.3683314 4.555541
-1.713403 -0.50741863 4.6120801
-1.7047298 -0.473607 4.6252413
-1.718183 -0.43074346 4.6189647
-1.7243376 -0.38032615 4.6157608
-1.7316726 -0.3303223 4.6154723
-1.7186645 -0.28715205 4.6050835
-2.000958 0.093694694 4.607224
-1.9782207 0.093715496 4.6156645
-2.0081007 0.12917046 4.6230392
-1.9844859 0.12916638 4.629653
-2.0190103 0.16518041 4.6473541
-1.9678658 0.39981598 4.6417413
-2.023077 0.4014613 4.6464491
-1.9904747 0.43027192 4.6462135
-1.9403596 0.42243543 4.6376085
-2.6209309 1.8247598 4.6219273
-2.6285634 1.8812246 4.6193213
-2.6111364 1.9384375 4.6285343
-2.6262119 1.9883711 4.6423612
-2.6300757 2.0191963 4.6184449
-2.6262765 2.0788023 4.611021
-2.6250451 2.1270082 4.623435
-2.6189442 2.1715927 4.6269341
-2.6081254 2.2248356 4.6282487
-2.6017005 2.2702267 4.6192417
-2.5634251 2.2970674 4.6279144
-2.5121617 2.3119841 4.612401
-2.4787383 2.3171132 4.63941
-2.4496539 2.3278849 4.604353
-2.3984973 2.3283942 4.6269622
-2.3235114 2.3438251 4.6221399
-1.6975734 -0.51310003 4.6724944
-1.7017444 -0.49096966 4.6856837
-1.6929964 -0.46517485 4.6632142
-1.7077787 -0.41940981 4.6719851
-1.7140629 -0.38321447 4.6564007
-1.6973838 -0.3847357 4.6803293
-1.7124741 -0.33643401 4.6545157
-2.0567932 0.19005062 4.6718225
-2.0215168 0.18896167 4.6524768
-1.9968488 0.17707103 4.6573753
-2.0573218 0.23753414 4.6714611
-2.0222116 0.22440907 4.6529369
-1.9981923 0.22435465 4.6590519
-2.0567305 0.2611765 4.6692128
-2.0211103 0.26855421 4.66925
-2.06898 0.33428815 4.6937699
-2.0764718 0.36926529 4.678113
-2.0203667 0.37956786 4.67243
-1.9636071 0.3777585 4.6644478
-2.0722764 0.40416116 4.6665154
-1.972419 0.42429486 4.6510024
-1.9353296 0.40905631 4.6687121
-2.0231256 0.4918063 4.6818442
-1.9785385 0.47286531 4.6622081
-2.0280597 0.53567088 4.6794786
-2.0766799 0.59888834 4.6925898
-2.0356226 0.58542192 4.6928682
-2.038228 0.62879843 4.6844921
-2.6111753 1.7844248 4.6767426
-2.6057918 1.8191885 4.6555738
-2.6242809 1.8836999 4.672626
-2.6116428 1.9226457 4.6664238
-2.6115656 1.9709613 4.6823721
-2.6129472 2.0238969 4.6674213
-2.6082082 2.0823815 4.6699166
-2.6074193 2.1183021 4.6883125
-2.6102543 2.199147 4.6646438
-2.5932987 2.233247 4.6829691
-2.5852416 2.2776747 4.6712794
-2.5401487 2.3114719 4.6742263
-2.4298739 2.3201542 4.6673455
-2.3895388 2.3449678 4.6705213
-2.3217964 2.3292398 4.6598091
-1.6842625 -0.51617849 4.7062879
-1.6941835 -0.48378617 4.7365484
-1.7135766 -0.44727567 4.7214565
-1.6949327 -0.44858178 4.7410178
-1.6836078 -0.39865527 4.7121892
-1.9407778 0.38020197 4.7051191
-2.0022712 0.57418036 4.7105694
-2.018729 0.62461025 4.7237701
-2.0570126 0.67210251 4.7028813
-2.0326507 0.67197162 4.7093792
-2.6045494 1.8363558 4.7106953
-2.6106503 1.8795631 4.7097788
-2.6142035 1.9210359 4.7039518
-2.5897546 1.9740816 4.7010612
-2.6084008 2.0275633 4.7218256
-2.6108534 2.0687203 4.7128906
-2.604135 2.1370444 4.7413087
-2.6082058 2.1668096 4.7392502
-2.5991595 2.1856275 4.7132196
-2.6098552 2.2210631 4.7228208
-2.5790141 2.2689807 4.729589
-2.5678518 2.3101265 4.735589
-2.4677739 2.3174329 4.7197266
-2.3748965 2.3300855 4.7138
-1.6860313 -0.4644413 4.7877932
-1.6781472 -0.42670423 4.7676592
-2.0130229 0.63289213 4.7959409
-2.0147867 0.65779805 4.7978253
-2.5862031 1.7898141 4.750773
-2.5922151 1.819972 4.7541943
-2.6038625 1.8542635 4.7677608
-2.5947518 1.9321959 4.7900419
-2.5943315 1.9975833 4.7682672
-2.6028368 2.0305011 4.7752094
-2.5967045 2.0520244 4.7551408
-2.6038036 2.110393 4.7500038
-2.5901198 2.1737845 4.7659473
-2.6021662 2.2105274 4.77846
-2.5909076 2.238956 4.778203
-2.5667109 2.2677393 4.7841187
-2.5304337 2.312283 4.756978
1.844389 2.4080694 4.7954578
1.8737625 2.4125707 4.7967682
-1.6781706 -0.48095328 4.8387613
-1.6737044 -0.40768683 4.8303528
-1.6742764 -0.37182513 4.8339505
-1.7003404 -0.31218198 4.8369527
-1.9215267 0.024563439 4.8335075
-2.0218656 0.61123544 4.8192439
-2.5940609 1.8396984 4.8167162
-2.5879576 1.9071046 4.8496284
-2.5828948 1.9826757 4.8154378
-2.5845249 2.0103779 4.8099504
-2.6057143 2.0801966 4.8317451
-2.5852077 2.1386089 4.8362198
-2.5827069 2.1765974 4.8174868
-2.5765688 2.2229013 4.8222857
-2.5692427 2.2549667 4.8294458
-2.5395317 2.3060312 4.8151546
1.1782578 2.4206245 4.8488736
1.2252389 2.4128246 4.8239579
1.7312076 2.4126172 4.8373117
-2.5822062 2.0293219 4.8663497
-2.5925467 2.0910635 4.8681951
-2.5794191 2.1315098 4.8606262
-2.5516081 2.1822851 4.8869505
-2.5728581 2.2043734 4.8556919
-2.5690982 2.2650661 4.8963118
-2.5393319 2.303333 4.8874059
1.2247982 2.4115396 4.8844414
1.2660673 2.4168944 4.888073
1.8130907 2.4093561 4.8750925
1.8636993 2.4071119 4.8555799
-1.9805779 0.00032719845 4.9474759
-2.5537007 2.130147 4.9094357
-2.5665879 2.1679969 4.9250035
-2.5706067 2.2256765 4.9138055
1.1884472 2.3901448 4.9093938
1.7446762 2.3970499 4.9347897
1.8237324 2.3971505 4.9134688
1.2501001 2.4099438 4.9406619
1.3160784 2.4121804 4.9328532
1.8613204 2.4117417 4.935895
-1.8755724 -0.024628911 4.9953127
-1.8357217 -0.024605969 4.9981642
-1.9639206 0.00032131319 4.9750233
-1.9219429 0.00030995894 4.9732728
-1.8886024 0.00030025633 4.9936357
-2.5585556 2.1842523 4.9729204
-2.5639324 2.2298777 4.9691849
1.2347083 2.4044967 4.9971437
1.3938746 2.4086633 4.9754257
1.4742925 2.411783 4.9651227
1.6740918 2.4356141 4.9705248
-1.8412844 -0.07461594 5.0130072
-2.0280566 -0.024936181 5.0309591
-1.9338467 -0.024722695 5.0040045
-1.8367984 -0.049527328 5.0009875
2.5812602 2.324698 5.0480766
2.4235601 2.3760557 5.0378518
2.5332296 2.3605933 5.0369573
1.1815486 2.4026535 5.0025277
1.2709498 2.4237864 5.0324197
1.3248833 2.4260979 5.0272479
1.3560807 2.4083121 5.0493903
1.4391959 2.4146068 5.0464039
1.4882034 2.4080722 5.0214071
1.5249895 2.424504 5.0497856
1.7273811 2.41661 5.0299072
1.8042912 2.4152646 5.030097
1.854084 2.41026 5.0050163
1.9268492 2.4075089 5.0499296
2.4438853 2.2854424 5.0806861
2.4746454 2.2744286 5.0814953
2.520983 2.2787256 5.0752411
2.5802207 2.282032 5.060895
2.421011 2.3177552 5.0913324
2.4688604 2.3239172 5.0758839
2.5252535 2.3243535 5.0691571
2.5682557 2.3115993 5.0603948
2.0801349 2.3740788 5.0729961
2.1224411 2.3756657 5.0634995
2.164006 2.3763449 5.0517559
2.2272425 2.3861933 5.0803542
2.2814412 2.3855429 5.0732231
2.3123803 2.361465 5.0810633
2.3953631 2.3614466 5.0911651
2.4334612 2.3580189 5.0684919
2.4786856 2.3614955 5.0603337
2.509697 2.3645625 5.0562506
1.1150641 2.4020314 5.0784702
1.2371807 2.4086146 5.0723138
1.3358006 2.4194961 5.0780153
1.4354029 2.4039171 5.0919909
1.4693128 2.4205272 5.0531368
1.6978561 2.4164786 5.060462
1.7353828 2.4044368 5.0945764
1.7872614 2.4015808 5.0745978
1.8331161 2.4086914 5.0787916
1.8729908 2.4077804 5.0657768
1.9079295 2.4177923 5.0792375
1.984876 2.4016037 5.0926361
2.2339814 2.2969251 5.1431961
2.2867932 2.2806132 5.1238146
2.3297005 2.2820463 5.1128149
2.3793097 2.2760062 5.1204662
2.4195442 2.2747319 5.1026697
2.1341376 2.3489192 5.1480455
2.171423 2.3309896 5.143795
2.2350888 2.3257556 5.1363096
2.2753894 2.3245323 5.1197481
2.3187375 2.3263988 5.1096067
2.3799338 2.318265 5.1074796
1.8232929 2.3864536 5.1022868
1.88034 2.3924568 5.1255021
1.9873517 2.3937109 5.1479735
2.0255046 2.3900661 5.1280155
2.0722237 2.3826842 5.13414
2.1197426 2.3758984 5.1413307
2.1778476 2.3647923 5.1214795
2.2284067 2.3604772 5.1202445
2.2745082 2.3512969 5.1081247
2.3355076 2.3570683 5.1015072
2.3704998 2.3643343 5.1073904
1.0448685 2.4228249 5.1346664
1.1776177 2.4221444 5.1123018
1.2341779 2.4020309 5.1261945
1.2636532 2.4073563 5.1328239
1.3220265 2.4163048 5.1420608
1.4083722 2.4263537 5.1477637
1.5201417 2.4327166 5.1386657
1.6895382 2.4161067 5.1328034
1.7121894 2.4097977 5.1127315
1.776844 2.4105134 5.1341782
1.8063995 2.4000199 5.1384959
1.9207541 2.4066906 5.1230884
1.951218 2.4105594 5.1235547
2.000602 1.7787744 5.1954689
1.930721 2.2817082 5.196249
1.9739909 2.2703269 5.1945672
2.0338585 2.2895579 5.1866779
2.0786591 2.2795372 5.1875935
2.1228621 2.2821989 5.167624
2.1754897 2.2797446 5.1581507
2.2347677 2.2700453 5.1542883
1.9264139 2.3334103 5.1967187
1.9779966 2.3300991 5.1869469
2.034158 2.3312898 5.1736298
2.0781677 2.3342741 5.1679096
2.1152508 2.3299725 5.1588855
1.6962417 2.3984337 5.1626067
1.7337463 2.3852944 5.1959991
1.7756717 2.3863924 5.1880836
1.8342829 2.3913279 5.1846132
1.876844 2.3792906 5.1820717
1.9245249 2.3769972 5.1760902
1.9717137 2.3785934 5.1666365
2.0328622 2.3711705 5.1562424
1.076039 2.406379 5.1615715
1.1366668 2.4216533 5.186017
1.2145241 2.416008 5.160665
1.3319904 2.4074609 5.1900158
1.3705423 2.4039392 5.1747141
1.4263339 2.4069285 5.1704702
1.4853587 2.4150486 5.1767426
1.5330968 2.4261832 5.1918869
1.6712537 2.4152899 5.1714463
1.7266439 2.4028318 5.1653767
1.7547057 2.4038877 5.1608186
1.6666324 1.2914187 5.2459664
1.7344606 1.4756103 5.2482891
1.7370838 1.5177764 5.2482314
1.8178512 1.6241792 5.238781
1.8511096 1.6309611 5.2210884
1.7470665 1.673794 5.246737
1.7741132 1.6740566 5.2411866
1.8160135 1.675668 5.2364078
1.8711776 1.6770885 5.2273464
1.912304 1.6912917 5.2163062
1.7489204 1.7157791 5.2430944
1.7693524 1.7361771 5.2422142
1.8204958 1.7335587 5.2368422
1.8760779 1.7352872 5.2284832
1.9250911 1.7305392 5.2158933
1.7809476 1.7746121 5.2393422
1.8229172 1.7762296 5.2341747
1.8788737 1.7782743 5.2265282
1.9326963 1.7647814 5.2155933
1.968511 1.7732338 5.2176852
1.7873093 1.8349203 5.244771
1.8246551 1.8183403 5.2292042
1.8807808 1.8205465 5.2218118
1.9226677 1.821928 5.2151442
1.9679977 1.8264546 5.2171407
2.0090661 1.8269148 5.2072334
1.7759562 1.8776625 5.2440538
1.8318462 1.879591 5.2360487
1.8813566 1.8750528 5.2244668
1.9136822 1.8803766 5.2172246
1.9765805 1.8799227 5.2138476
2.018724 1.8764731 5.2217622
1.7232691 1.9331714 5.2469263
1.7797112 1.9222338 5.2445869
1.8291373 1.9310713 5.2293472
1.8817068 1.9297106 5.241044
1.9267321 1.9204081 5.2308421
1.973487 1.9218602 5.2224731
2.0211513 1.9331862 5.2135553
1.741719 1.9793355 5.247746
1.7834582 1.966988 5.2447367
1.8372059 1.9664919 5.2298698
1.8762914 1.9788437 5.2412829
1.9220041 1.97003 5.218029
1.9792001 1.9728911 5.2107844
2.0304749 1.9968128 5.2225432
1.7440528 2.0091398 5.2473416
1.7751932 2.0273004 5.2488184
1.8175247 2.0290158 5.2431283
1.8734506 2.0306077 5.2333202
1.9287014 2.031435 5.2209568
1.9788231 2.027056 5.2089963
1.8214328 2.0743089 5.2427788
1.8764622 2.0748572 5.2301326
1.9310987 2.0748882 5.2156591
1.9759051 2.0789859 5.2147155
2.0047855 2.0668969 5.2150383
1.7727681 2.1214125 5.2459803
1.8243797 2.1186686 5.2392716
1.8791388 2.118818 5.2255063
1.9339943 2.1190329 5.2113981
1.9782119 2.1225157 5.2086105
2.0060339 2.1229815 5.202065
1.7297041 2.1882362 5.2454147
1.7706463 2.1744833 5.2393379
1.8271276 2.1766253 5.2307663
1.8805746 2.1758654 5.2282658
1.9175555 2.1855152 5.216888
1.9678957 2.1810052 5.2046061
2.0103195 2.1686907 5.2006526
-2.5083842 2.2337284 5.2136135
1.64703 2.2420578 5.2457404
1.7313393 2.2176867 5.2419872
1.775598 2.2217026 5.2414074
1.833346 2.2252567 5.2359257
1.8746843 2.2254303 5.2256145
1.914891 2.2242942 5.2119093
1.9732139 2.2281547 5.2057743
2.019603 2.2200894 5.2117319
-2.4957869 2.2762806 5.2475476
1.7361716 2.2513349 5.2480736
1.7812811 2.270107 5.2452159
1.8313497 2.2650871 5.2329001
1.8683571 2.2746809 5.2213783
1.9125265 2.2635343 5.2075057
2.0224848 2.2646756 5.2059393
2.0513349 2.2660565 5.2010546
2.1129265 2.2728961 5.2001719
1.7326617 2.3321452 5.2438827
1.7843151 2.3290887 5.2363529
1.8258506 2.3293691 5.2264619
1.8662746 2.3282421 5.2131138
1.9071028 2.3138809 5.2052879
0.82785201 2.3963003 5.2402778
1.230562 2.393503 5.2470188
1.2864003 2.3962212 5.2435246
1.3109297 2.3913126 5.2278991
1.5284326 2.3856332 5.2439499
1.5721549 2.3896027 5.2437816
1.6145494 2.3913984 5.2385159
1.6720246 2.381243 5.2383528
1.7195772 2.3726485 5.2190404
1.7817962 2.3670907 5.2152758
1.8242996 2.3687079 5.2082767
1.8527801 2.3699257 5.2037344
1.0313767 2.4001071 5.2228556
1.060544 2.4051137 5.2298603
1.1402806 2.4023545 5.211556
1.1829948 2.4068789 5.2148247
1.2236474 2.4071052 5.2085524
1.2676635 2.4136415 5.2156296
1.3078228 2.4127603 5.2064466
1.4156685 2.407748 5.2456975
1.4671719 2.4025314 5.2233667
1.5237036 2.40557 5.218514
1.5955353 2.4109178 5.2151117
1.6234462 2.4117002 5.2105794
1.4412191 0.83491093 5.2966828
1.4833673 0.82548028 5.28474
1.5314566 0.82131726 5.2770705
1.4395609 0.86000687 5.2877541
1.4804327 0.87410951 5.2853727
1.5331757 0.87444419 5.277256
1.5718319 0.87418604 5.2678142
1.4986405 0.92949402 5.295085
1.5369985 0.92895561 5.2843461
1.4461503 0.96864742 5.2996516
1.4866911 0.98259079 5.2951756
1.5245018 0.97511446 5.2833209
1.5522959 0.99577862 5.2811241
1.5192585 1.0319896 5.2900357
1.5538288 1.0229887 5.2829037
1.5109787 1.0673007 5.288631
1.3958914 1.101166 5.2996693
1.4224914 1.1014713 5.2963781
1.5179179 1.1173048 5.2898622
1.4669182 1.1711098 5.2977991
1.5216209 1.1727277 5.2949247
1.5285746 1.2318846 5.294044
1.5747337 1.238942 5.2754116
1.6283162 1.2396178 5.2672052
1.4708468 1.2797925 5.2952547
1.5236506 1.2798448 5.2851663
1.577845 1.2810225 5.2792587
1.6296315 1.2802167 5.2649088
1.4783831 1.3398138 5.2959352
1.5269661 1.3222728 5.2898808
1.579685 1.3353851 5.2763901
1.6264807 1.3296285 5.2615676
1.6704447 1.3207864 5.2533941
1.4621437 1.3763596 5.298089
1.5456901 1.3800907 5.2968206
1.5819874 1.3770702 5.27707
1.6207386 1.3762432 5.2655287
1.6653548 1.3670648 5.2749071
1.706308 1.3812746 5.2672305
1.4921683 1.4194598 5.2984037
1.5332515 1.420662 5.2949953
1.5818777 1.4162259 5.2858338
1.6250304 1.4197216 5.2721424
1.6687374 1.4236902 5.2600551
1.7156044 1.4259081 5.2582664
1.4849228 1.4785343 5.2949085
1.5346222 1.4750866 5.2896299
1.5766568 1.4771366 5.2888451
1.6158787 1.4765211 5.2782054
1.6678891 1.4754931 5.2629318
1.7076628 1.4754192 5.2537127
1.7695742 1.4961201 5.264842
1.482959 1.5297633 5.2949381
1.5361872 1.52981 5.2845297
1.5765139 1.5302255 5.2778006
1.618113 1.5318458 5.2748857
1.6710362 1.5315304 5.2621613
1.722711 1.5385383 5.2589631
1.7685159 1.5352845 5.2535439
1.4853332 1.5721798 5.2952909
1.5251416 1.5720305 5.2868757
1.5657626 1.5727081 5.2809734
1.6202941 1.5739155 5.2737513
1.6739035 1.5741651 5.2628708
1.7302592 1.5769315 5.2599468
1.7733121 1.5795956 5.2594056
1.8002827 1.5797832 5.2535915
1.4824713 1.6094298 5.2943511
1.5189843 1.6193472 5.2887535
1.5683124 1.6153164 5.2810726
1.6220304 1.6156708 5.2708993
1.6760893 1.6163113 5.2612267
1.732142 1.6187831 5.2570481
1.7744707 1.6208096 5.2541733
1.801819 1.6079292 5.252315
1.522698 1.6679031 5.2919679
1.572961 1.6736658 5.2850504
1.6263487 1.6735213 5.2731695
1.680702 1.6743428 5.2638812
1.7210499 1.6745229 5.2552929
1.538085 1.7331707 5.2994175
1.5774517 1.7321706 5.2880025
1.6300151 1.7309676 5.2728233
1.6779404 1.7252325 5.2590499
1.7184076 1.7389513 5.2632694
1.5253742 1.7743087 5.2952666
1.5791245 1.7743225 5.2841825
1.6324109 1.7738168 5.2711115
1.6755477 1.7768342 5.2711105
1.7185202 1.7795423 5.2698808
1.7600759 1.7806839 5.2637582
1.476765 1.8199233 5.2967267
1.5277309 1.8174381 5.2937579
1.5816336 1.81753 5.2828212
1.6341984 1.8161422 5.2671609
1.6740155 1.815552 5.2564964
1.7191142 1.8206131 5.2618155
1.7688738 1.8164606 5.2522125
2.0545878 1.8298193 5.2502651
1.4795932 1.8683252 5.2958012
1.5297848 1.8738074 5.2875671
1.5843841 1.8746412 5.2786551
1.6249335 1.8747715 5.2702694
1.6666069 1.8761454 5.2651262
1.7219162 1.8776122 5.2568302
1.4664996 1.9466419 5.298677
1.5196196 1.9184279 5.2916217
1.5745928 1.9195945 5.2836027
1.6153592 1.9198601 5.2755938
1.6703351 1.9344707 5.262949
1.709004 1.9188002 5.2513537
1.4389158 1.9729162 5.2947893
1.4823844 1.9768317 5.2973328
1.526101 1.9808853 5.2999969
1.5663034 1.9667141 5.2934623
1.6193438 1.965277 5.2779441
1.6738318 1.97917 5.2631187
1.7276351 1.9651811 5.2529984
1.4984791 2.0209236 5.2927904
1.5257549 2.0211329 5.2878189
1.5680867 2.0232694 5.2848673
1.6220289 2.0228415 5.271987
1.6820364 2.0297499 5.2777448
1.7202649 2.0266802 5.2602558
1.7508458 2.0442238 5.2601895
1.5198898 2.0752175 5.2869492
1.5711931 2.0817118 5.2801833
1.6214715 2.0777166 5.2720089
1.682339 2.0709651 5.2672043
1.7260634 2.0744386 5.2664952
1.7669518 2.0744026 5.2565546
1.5355736 2.1297133 5.2950368
1.5759215 2.1289101 5.2843695
1.6358171 2.1208479 5.2765889
1.6824633 2.1131971 5.2725234
1.7185966 2.1219702 5.2605157
1.7537974 2.1022792 5.253468
1.4544818 2.1855104 5.298533
1.5388632 2.1753335 5.294363
1.5776639 2.1722651 5.2781858
1.6347423 2.1755302 5.2740774
1.677424 2.1776824 5.2699432
1.712679 2.1715333 5.2589498
-2.5047681 2.22736 5.2850685
1.4260801 2.2111375 5.2916665
1.4720285 2.2460916 5.2933426
1.5323473 2.2384264 5.2874141
1.5811044 2.2317748 5.2731662
1.6184554 2.2130096 5.2563019
1.6671088 2.2232828 5.2713599
1.7045356 2.2184179 5.2502565
1.4732468 2.2753725 5.2892771
1.5282869 2.275718 5.2788095
1.5828084 2.2752991 5.2661004
1.6260996 2.2646363 5.2683878
1.6748313 2.2733147 5.2659407
1.7210315 2.2738144 5.2562766
1.4373008 2.3386025 5.2992043
1.4776001 2.3233585 5.2919278
1.5317807 2.322165 5.2778373
1.5733033 2.322639 5.2700839
1.6154704 2.3239915 5.2640667
1.6732749 2.3279243 5.260397
1.7146579 2.314254 5.2553725
0.76416433 2.3805809 5.2811432
0.84757274 2.3869805 5.2864981
0.87410885 2.3853934 5.2798305
1.0255105 2.3908408 5.2726278
1.0676781 2.3940814 5.2739773
1.1236571 2.3974624 5.2732873
1.1531978 2.3885834 5.2840586
1.2044524 2.3956521 5.2562895
1.2971597 2.3888006 5.2964015
1.3259323 2.3911898 5.2967763
1.3664019 2.389868 5.2862391
1.4215684 2.3765807 5.2812281
1.4752452 2.3745275 5.265729
1.5327833 2.3649116 5.2679276
1.5750608 2.366498 5.2625861
1.6161652 2.3662586 5.2528744
1.0984535 2.4019053 5.2871904
1.1809858 2.4032784 5.2774854
1.2657572 2.4087374 5.2757211
1.3475523 2.4082162 5.2598195
1.3778437 2.4133575 5.2658892
1.2659583 0.42861038 5.3340092
1.2640805 0.47985685 5.3231688
1.2519088 0.53202498 5.3251495
1.2529122 0.64931023 5.3207092
1.3330891 0.67644858 5.3149724
1.3584474 0.6761291 5.3080149
1.2335427 0.73111659 5.3465548
1.2695071 0.72929549 5.3270621
1.3241783 0.71968609 5.3116136
1.3637525 0.71796119 5.3252611
1.2336333 0.77033252 5.3432364
1.2703468 0.76886982 5.3268332
1.322156 0.7686888 5.3170948
1.377126 0.78335488 5.3179951
1.413353 0.78174704 5.3001356
1.2715027 0.821733 5.3264422
1.321548 0.82042909 5.3094192
1.3771621 0.82253599 5.3141251
1.4274591 0.81958944 5.3151603
1.4703763 0.81052393 5.3056898
1.2371165 0.87724513 5.3474541
1.274677 0.87608147 5.3341293
1.3248489 0.87469709 5.3170395
1.3783627 0.87552655 5.313108
1.4267751 0.88020658 5.3059964
1.2384291 0.93059671 5.3471513
1.2779551 0.93075824 5.3418169
1.328167 0.92922813 5.3243642
1.3796453 0.92865098 5.3120513
1.4329497 0.92930305 5.3063908
1.4726055 0.92957115 5.3005657
1.2395121 0.9707582 5.347115
1.2772297 0.98262763 5.3324509
1.329432 0.98249692 5.3230295
1.3827819 0.98319793 5.3177199
1.4210553 0.98249245 5.3068147
1.4631655 0.9975071 5.3081651
1.239506 1.0232219 5.3404737
1.2787632 1.036276 5.3321171
1.3307314 1.0227871 5.3232036
1.3845136 1.0237927 5.3193378
1.4237552 1.0368319 5.3100986
1.4644293 1.0246284 5.3092823
1.2414078 1.0510664 5.3452168
1.2796013 1.0763298 5.3303437
1.3334963 1.0643401 5.3290153
1.3846923 1.0633041 5.3147793
1.4231864 1.0757736 5.3026452
1.4658556 1.0650663 5.3091264
1.2839839 1.1195389 5.3430953
1.3338857 1.1172054 5.3232589
1.3720665 1.11621 5.3116693
1.4154406 1.1325352 5.3177185
1.4677922 1.1191535 5.3088145
1.2861123 1.1741571 5.3442421
1.3324388 1.1679922 5.3287349
1.367252 1.1765151 5.3201752
1.4154127 1.1720215 5.3117733
1.4683989 1.1722938 5.3031979
1.2740197 1.2279739 5.3429017
1.3138655 1.2282066 5.3373652
1.3648168 1.2265452 5.321085
1.4179063 1.2268494 5.312964
1.4704251 1.226662 5.3023005
1.5119401 1.2150536 5.3036733
1.2497764 1.2962229 5.3457541
1.2756858 1.2824603 5.3414183
1.3152298 1.2823621 5.3344073
1.3680441 1.282337 5.3251534
1.4189138 1.2805328 5.3082027
1.2401041 1.3305753 5.3375268
1.2749045 1.3345224 5.3292952
1.3160334 1.33604 5.328742
1.3711143 1.3249462 5.3304496
1.4214551 1.3357184 5.3087583
1.460181 1.3216479 5.3002553
1.2247211 1.35066 5.3470578
1.265714 1.3785558 5.3415718
1.3173347 1.3770883 5.3270955
1.3716795 1.3652599 5.3257446
1.4222157 1.376125 5.3046198
1.491357 1.3789085 5.3027983
1.5276157 1.3620491 5.3021555
1.2680759 1.4209526 5.3443093
1.3216951 1.4215059 5.3375502
1.3752359 1.4219583 5.3299756
1.4270324 1.4206308 5.3153372
1.466043 1.4198419 5.3049526
1.2296097 1.4889982 5.3442326
1.2688196 1.4749385 5.3375459
1.3221946 1.4752105 5.3296466
1.3776546 1.4776956 5.3293352
1.4293354 1.4761075 5.3139305
1.4670788 1.4606762 5.3012271
1.2296494 1.5156363 5.3392692
1.2710456 1.5307717 5.3366003
1.3242763 1.5307808 5.3277073
1.3786007 1.5319922 5.3225846
1.4318762 1.5320283 5.3129311
1.2333621 1.5735546 5.3447781
1.2733717 1.5735674 5.338336
1.3259338 1.5726902 5.3263884
1.3790058 1.5857511 5.3133349
1.4373559 1.5820051 5.3059697
1.2260128 1.6200451 5.3437004
1.2817096 1.622961 5.3446655
1.3289459 1.6163425 5.3301497
1.3846076 1.6323128 5.3264532
1.4313601 1.6208333 5.3108883
1.2797301 1.6752557 5.3452754
1.3334115 1.6753989 5.3365889
1.373464 1.6752069 5.3289227
1.4132657 1.6747407 5.3201408
1.4656261 1.6733651 5.3056045
1.5074054 1.6885755 5.3005471
1.2318767 1.7351295 5.3459725
1.2813814 1.7310871 5.3402815
1.3316957 1.7370415 5.3354373
1.3692036 1.7302556 5.3378329
1.4141607 1.7294416 5.3115411
1.4692998 1.7312257 5.3068204
1.5108765 1.732769 5.3036184
1.2430091 1.774025 5.3458133
1.2838608 1.7747917 5.3414745
1.3222513 1.7721924 5.3268027
1.3635232 1.7735138 5.3236651
1.4119368 1.7814178 5.3094091
1.4705417 1.772987 5.302002
1.2453969 1.8178355 5.3466201
1.2804261 1.8121377 5.3381824
1.3187629 1.8245052 5.3398919
1.365924 1.8170351 5.3235178
1.4223509 1.8191053 5.3046823
1.4581788 1.8011721 5.3021469
1.2487853 1.8767965 5.3481412
1.27518 1.8759117 5.3411665
1.3149074 1.8748477 5.3312607
1.3683901 1.8742412 5.3199601
1.421845 1.8736362 5.3082857
1.4652709 1.8909791 5.3080654
1.237349 1.9475708 5.3423858
1.2677766 1.9278268 5.3370442
1.3125838 1.9274882 5.3284345
1.3722396 1.9200685 5.32477
1.4264081 1.9337338 5.3116479
1.4854389 1.9298196 5.3030477
1.5517716 1.9248081 5.3036418
1.2248502 1.9762512 5.3420124
1.2643776 1.9745892 5.3308554
1.3256102 1.9694847 5.3337588
1.3764741 1.9666947 5.3307137
1.4184724 1.9821002 5.3246136
1.5243505 1.9515069 5.3010664
1.2702714 2.0245724 5.3449426
1.3225234 2.021385 5.3272161
1.3798516 2.0258937 5.3293605
1.4330041 2.024209 5.3147078
1.4730144 2.0231907 5.3041496
1.2732551 2.0838113 5.3426976
1.3259181 2.0809836 5.3260603
1.381304 2.0824914 5.3200788
1.4361014 2.0694094 5.3150015
1.4693737 2.0897377 5.3092322
1.5064555 2.0998621 5.3020434
1.2349738 2.1290796 5.3492026
1.2752384 2.127965 5.3395729
1.3297886 2.1279793 5.3301449
1.3851216 2.1291728 5.323225
1.4271729 2.1172142 5.3236175
1.4675533 2.1300323 5.3096771
1.5101238 2.1323154 5.3071408
1.2353131 2.1706181 5.3389683
1.2820798 2.1682248 5.3378844
1.3330779 2.1742764 5.3315129
1.3743608 2.1747172 5.3251495
1.4153749 2.1746924 5.3174238
1.4755603 2.1715267 5.3105817
1.5123703 2.1765721 5.3030405
1.2254943 2.2322369 5.3418894
1.2814811 2.2343578 5.3377919
1.33081 2.228256 5.3267064
1.3638034 2.2345357 5.3236227
1.4063221 2.2230396 5.3254075
1.4731693 2.2204077 5.305747
1.5150667 2.2215853 5.3002243
1.1871891 2.2786112 5.348599
1.2278163 2.2776027 5.3395729
1.2830098 2.2782044 5.3317418
1.3240136 2.2779312 5.3238926
1.370401 2.269876 5.3209186
1.4216819 2.2668395 5.3164096
1.1740046 2.3208849 5.3405318
1.2300861 2.3230672 5.3367138
1.2714405 2.3233194 5.3303404
1.3142886 2.3261793 5.3297143
1.3681802 2.3242345 5.3152657
1.4189448 2.3202248 5.3085046
-0.61894196 2.3949778 5.3269081
-0.53791255 2.3976562 5.3391566
0.37396625 2.3933086 5.3393593
0.52210295 2.3867645 5.3158984
0.98048007 2.3863282 5.3394432
1.0356019 2.3869534 5.3334298
1.0780395 2.3898404 5.3340478
1.1197146 2.3771408 5.3346901
1.1792687 2.3726108 5.3270612
1.2304879 2.3788071 5.3209872
1.273093 2.3813944 5.319768
1.314065 2.3670726 5.3157129
1.3694379 2.3676691 5.3070011
-0.59351593 2.4021983 5.3451705
1.2381252 0.43247467 5.3883662
1.2345687 0.48351294 5.3698959
1.2353377 0.54916841 5.3690295
1.236931 0.57605475 5.3741131
1.2375865 0.82520252 5.3550992
1.2412343 0.9983778 5.3512783
1.2287174 1.0727923 5.3667045
1.2341046 1.1220675 5.3635869
1.2359955 1.1766626 5.3641348
1.2359954 1.2295424 5.3560514
1.2328554 1.2793245 5.3545094
1.229247 1.3822325 5.3621845
1.2290164 1.4218373 5.3540325
1.2165939 1.4770054 5.3712382
1.2223897 1.5365187 5.3653107
1.2108324 1.5655497 5.3699694
1.2085114 1.6026274 5.3515358
1.2643907 1.6057726 5.3535099
1.2265491 1.6758251 5.3557715
1.214964 1.7186018 5.3570948
1.2164146 1.7744272 5.3513222
1.2191727 1.818885 5.3540039
1.1984457 1.882529 5.3731222
1.223828 1.8799492 5.3614206
1.1998837 1.9254665 5.3695116
1.2247339 1.9219196 5.3553391
1.1994956 1.9519567 5.360919
1.2015755 1.9825017 5.3632302
1.2178915 2.0278285 5.3624582
1.2195864 2.0715408 5.3589377
1.1856327 2.1385188 5.3816719
1.2175468 2.1122389 5.3606505
1.1851523 2.1787715 5.3677855
1.2117457 2.1773417 5.3598824
1.2675335 2.192801 5.3512712
1.1901743 2.2292883 5.3785267
0.94304222 2.2855434 5.3997874
0.98481947 2.2866578 5.3971806
1.0261759 2.2867603 5.391974
1.0658741 2.2833104 5.3781357
1.1205044 2.2825446 5.368372
1.1727133 2.2676747 5.3744864
0.87795156 2.3292148 5.3883691
0.92884362 2.3257623 5.3863969
0.98434764 2.3268828 5.3820391
1.0256253 2.326849 5.3764877
1.0654628 2.3236866 5.3634439
1.1204016 2.3235826 5.3551989
-0.651398 2.3869841 5.3765445
-0.56914175 2.3871379 5.3835068
-0.21237487 2.3856168 5.3983335
0.089156389 2.3844211 5.3980656
0.28129977 2.3872085 5.3997436
0.4324868 2.3888946 5.3965101
0.50014269 2.3842163 5.3817697
0.56684899 2.3767815 5.3601818
0.67752326 2.3817725 5.362443
0.72942549 2.3782082 5.3732696
0.7687096 2.3774128 5.3914185
0.81898844 2.3814585 5.3834848
0.87229365 2.3766971 5.3665686
0.92760843 2.3776407 5.3621497
0.98369133 2.3666186 5.3656483
1.0252773 2.3673549 5.361814
1.0661066 2.3663468 5.3537626
0.28010139 2.4043705 5.3681736
-0.20050828 0.22011942 5.4209127
-0.17472939 0.22024912 5.4248476
-0.14034231 0.21616191 5.4315434
-0.25295976 0.28559685 5.4320703
-0.21379873 0.27233303 5.4277973
-0.17484528 0.27223784 5.4268827
-0.1489196 0.27222916 5.4271803
-0.30581415 0.31251794 5.4461594
-0.27974281 0.31247821 5.446393
-0.21433 0.3249836 5.4392056
-0.17517847 0.32470137 5.4353352
-0.14905897 0.32436621 5.4303713
0.032558605 0.3115339 5.4346094
0.058593076 0.33794892 5.440836
-0.21016836 0.37296486 5.4419427
-0.17529374 0.37690943 5.4366961
-0.1491949 0.37661004 5.4331093
0.058533393 0.38953537 5.4330177
1.2476463 0.38299894 5.4324799
-0.20185883 0.44312155 5.4485116
-0.17570433 0.42986512 5.4468837
-0.14955533 0.44258422 5.4430113
-0.17572743 0.46899575 5.4454846
1.242306 0.52597451 5.4010782
1.2326944 0.91965622 5.4446306
1.2296109 0.9572323 5.4263821
1.2283336 1.0226405 5.4125485
1.2051867 1.8250115 5.419651
0.58563411 2.2598743 5.447948
0.6278497 2.2906816 5.4443369
0.67810875 2.2803781 5.4401565
0.72385991 2.275094 5.4357109
0.76540411 2.2756441 5.433033
0.82064414 2.2759042 5.4279985
0.8752597 2.2744532 5.418467
0.92823619 2.2758076 5.4281259
0.97626871 2.271256 5.4362526
1.0181944 2.2721095 5.4328861
1.0748253 2.2747328 5.4315867
1.1201463 2.2823105 5.4437127
0.53156555 2.3333421 5.442152
0.55961752 2.335201 5.4445233
0.63284439 2.3289719 5.4364281
0.68270952 2.3309698 5.4246387
0.72352052 2.3291664 5.4166861
0.76516485 2.3300841 5.414782
0.82035244 2.3302705 5.4094996
0.86037105 2.312865 5.4007373
-0.62942135 2.3801713 5.4345083
-0.54527628 2.3752377 5.429575
-0.15844648 2.3992989 5.4306283
-0.13020815 2.3871055 5.4035459
-0.075394154 2.3887608 5.4080305
-0.020571241 2.3982489 5.4298577
0.0069704694 2.3915687 5.4147592
0.14416426 2.3877912 5.4048624
0.22693819 2.392549 5.4136438
0.25441927 2.3924139 5.412477
0.33635545 2.3885412 5.4005475
0.38018954 2.3777266 5.4452381
0.43424124 2.3709679 5.4268532
0.47540385 2.383816 5.4181008
0.51275635 2.3637998 5.429563
0.57750195 2.3651299 5.4280586
0.62359023 2.3655813 5.4254851
0.68192089 2.3696358 5.4057732
-0.51956987 0.210593 5.4970546
-0.47494924 0.21901269 5.4905114
-0.43014994 0.22722745 5.4796767
-0.12374724 0.23476022 5.4617705
-0.098116972 0.20963612 5.4877725
-0.46695498 0.28953898 5.4978776
-0.42655799 0.27577561 5.488318
-0.38501778 0.28729996 5.4594002
-0.12424266 0.27499259 5.4824123
-0.47927383 0.32843253 5.4859643
-0.42654803 0.32829371 5.4864192
-0.37276363 0.32716334 5.4700336
-0.32400629 0.33073798 5.4588981
-0.26281512 0.3303695 5.4550781
0.032766525 0.33964574 5.4682975
-0.47589067 0.37738177 5.4956646
-0.42696759 0.38117379 5.4895644
-0.37339154 0.38013223 5.4771085
-0.32035756 0.37941313 5.4688373
-0.26728079 0.37833989 5.4552283
-0.22790478 0.39097157 5.4501085
-0.12462192 0.38086623 5.4949961
-0.47557363 0.4385215 5.4890342
-0.43159762 0.42961285 5.4900165
-0.37348083 0.43268341 5.4759707
-0.32059067 0.43204981 5.470304
-0.26812696 0.43188414 5.4699421
-0.2194602 0.42618373 5.4545097
-0.1497388 0.41706458 5.4510455
0.058738559 0.41695744 5.4507985
-0.49391192 0.47436252 5.4950705
-0.37010369 0.48201951 5.48803
-0.32093894 0.48495859 5.4734364
-0.26822859 0.48440897 5.4691229
-0.21542799 0.48340702 5.4593611
-0.17597814 0.49575388 5.4517322
-0.14150007 0.48829028 5.4664321
-0.41488799 0.52708369 5.4964437
-0.38822597 0.51349711 5.4940886
-0.32213554 0.52620232 5.491312
-0.26862687 0.52444988 5.474885
-0.21591586 0.5237962 5.4695873
-0.16317104 0.52259475 5.4582357
-0.12434688 0.52413702 5.4750357
1.2363423 0.53476226 5.4953995
1.2390029 0.69664645 5.4951401
1.2370723 0.82929957 5.4740753
0.39546761 2.2754786 5.4977498
0.4230884 2.2748134 5.4946995
0.46397924 2.2851539 5.4798551
0.51821142 2.2800996 5.4642186
0.5691449 2.2858052 5.4619908
0.62885261 2.2666469 5.4610271
0.6987052 2.2691519 5.4611788
0.28489113 2.3342912 5.4940448
0.3269279 2.336885 5.4985123
0.38654307 2.3237178 5.4893022
0.42285806 2.3151755 5.4795256
0.46423194 2.3280258 5.4706593
0.50504929 2.3245654 5.4599571
0.5879038 2.3239775 5.4527354
-0.65996897 2.3905919 5.4559736
-0.29862735 2.3902509 5.4775567
-0.22846998 2.3832164 5.4637737
-0.17349845 2.3889728 5.4784093
-0.11765791 2.3839426 5.4679136
-0.07616967 2.385607 5.4722633
-0.034616809 2.3879437 5.4779086
0.020932766 2.3870192 5.4758391
0.062663987 2.3917136 5.4863987
0.13654064 2.3774118 5.4767361
0.17363332 2.3743155 5.4809499
0.21507373 2.3724077 5.4755321
0.27552357 2.3795903 5.4780693
0.32172772 2.3696797 5.4776511
0.38121003 2.3564229 5.4684076
0.42254147 2.3550112 5.4629979
0.46400946 2.3545897 5.4596372
-0.60243499 0.22523546 5.5274763
-0.57545435 0.22503403 5.5245671
-0.53877562 0.22883888 5.5123
-0.49367994 0.23710862 5.5026379
-0.081363373 0.22908545 5.534874
-0.045847736 0.21019399 5.5028362
-0.60222602 0.2780908 5.5239525
-0.57531893 0.27787361 5.5216627
-0.53481245 0.27745026 5.5156813
-0.4851146 0.27234051 5.504415
-0.072701022 0.27810758 5.5455642
-0.046181969 0.2778874 5.5409904
-0.60316581 0.3315469 5.5306306
-0.574615 0.33040074 5.5129728
-0.5341686 0.3298952 5.5071344
-0.12511146 0.3296392 5.5188303
-0.099212371 0.31793088 5.5456777
-0.032991141 0.33102065 5.5430708
0.0067156404 0.33004296 5.5263567
-0.602795 0.38438898 5.5249543
-0.57562006 0.38392922 5.5203438
-0.53512698 0.38335344 5.5147452
-0.49443835 0.39573577 5.5050626
-0.099305965 0.39777181 5.5475149
-0.028588086 0.38863528 5.5441384
0.015516285 0.38773796 5.5315266
-0.604379 0.42524058 5.5375538
-0.57679564 0.42449397 5.5297041
-0.53563154 0.4233917 5.5179753
-0.49439847 0.42207912 5.5033236
-0.41534624 0.4485262 5.5071425
-0.12535927 0.43593937 5.5249243
-0.099311836 0.42431062 5.546545
-0.033011861 0.42405605 5.5437303
0.019956758 0.43665352 5.5347967
-0.61320966 0.46950701 5.5342011
-0.56382275 0.4645133 5.5312376
-0.52312624 0.46373978 5.5244803
-0.46822688 0.47503394 5.5043712
-0.42863011 0.47500139 5.5061102
-0.12536503 0.47559223 5.5230327
-0.033016317 0.46383619 5.542007
0.019978801 0.47671306 5.5369587
0.059685551 0.46339822 5.5365858
-0.60585541 0.50619179 5.5466404
-0.56445873 0.50488877 5.5351315
-0.52286673 0.51647478 5.5186348
-0.48288968 0.5162074 5.5179706
-0.43343234 0.5106678 5.5089097
-0.36295813 0.52820057 5.5105505
-0.072885737 0.51773846 5.5483184
-0.033014886 0.51690596 5.5395622
0.020007804 0.51731169 5.5439525
0.059776597 0.51713765 5.5419636
1.2298397 0.52427816 5.5289397
-0.20427656 0.55392689 5.5074482
-0.16498664 0.5549252 5.5182371
-0.033073261 0.57092988 5.5460548
0.020010894 0.57056189 5.5424833
0.059762429 0.57004362 5.5372496
1.1219505 0.59130943 5.5378399
1.1784155 0.59268886 5.5432782
1.2294432 0.57792276 5.5237527
-0.033093471 0.62446046 5.5460582
0.020021938 0.62401247 5.5421319
0.059810825 0.6235702 5.5379972
1.1228333 0.63212919 5.5392594
1.1768806 0.63227504 5.5330615
1.2253164 0.62732118 5.5223479
-0.033099934 0.67751145 5.5412426
0.020030661 0.67714429 5.5382595
0.059840038 0.67697859 5.5366263
1.2268475 0.67053378 5.5049334
-0.028676314 0.72673219 5.540987
0.020064235 0.73152101 5.5433683
0.059968982 0.71833307 5.5452838
-0.033174559 0.79905957 5.5445881
0.020092797 0.78578156 5.5461235
0.060076684 0.78625983 5.5493221
1.2426797 0.75245136 5.5066938
0.02010696 0.8263849 5.5467005
0.024568796 0.86259979 5.5474243
0.060172569 0.88094956 5.5489993
0.033495128 0.92139643 5.5472937
0.06016637 0.90755349 5.5456076
0.015692169 0.97069287 5.5436664
-2.4790332 2.2801085 5.5311899
0.090936348 2.2921607 5.5475144
0.1325675 2.2872462 5.5350218
0.17447621 2.2741897 5.5404158
0.22041458 2.2730949 5.523932
0.26637986 2.2695446 5.5138893
0.32735103 2.2702799 5.5260344
0.37775159 2.2615521 5.5151458
0.42584604 2.2617109 5.5385237
0.076949984 2.3339744 5.5351353
0.13256469 2.3290551 5.522718
0.17432417 2.3279994 5.5194206
0.21607167 2.3273904 5.5169077
0.26668981 2.3186731 5.5070095
0.32670259 2.3074412 5.5028729
0.36837262 2.3073041 5.5007186
-0.69727355 2.3672898 5.5462027
-0.61218667 2.393292 5.53966
-0.4838981 2.3853343 5.5300388
-0.27351305 2.3857853 5.5412307
-0.23107691 2.3820012 5.5337744
-0.16075312 2.3782773 5.5268774
-0.11421482 2.3708527 5.5349555
-0.076890871 2.3662007 5.5368476
-0.0395297 2.3688939 5.5311265
0.021063253 2.3631315 5.5300207
0.076810867 2.3717279 5.5129166
0.11842981 2.3669739 5.5013599
0.23005687 2.3696511 5.5051122
0.25781155 2.3685622 5.5017171
-0.63615757 0.21442027 5.5894961
-0.63611543 0.28139377 5.5871339
-0.0993139 0.27848834 5.5527592
-0.63647836 0.3351714 5.588356
-0.081730746 0.33632204 5.55722
0.89079154 0.34835702 5.5615549
0.93337041 0.33582935 5.5720663
0.97319275 0.3222529 5.5654612
-0.63584 0.37498137 5.5810695
-0.081719421 0.3804853 5.554184
-0.046293076 0.37136054 5.5507212
0.89364296 0.37634623 5.5781932
0.9332217 0.3760553 5.5694737
-0.63351393 0.41362938 5.5587645
-0.072853006 0.42463416 5.5510464
0.89385867 0.4167577 5.5776224
0.93071204 0.42170706 5.5795588
0.95064664 0.40461293 5.5902743
-0.63351953 0.45365474 5.5567579
-0.086178109 0.46476558 5.5526524
0.89603186 0.45819083 5.589088
0.93560076 0.47124615 5.5788922
-0.62704819 0.52687132 5.5748138
-0.5674156 0.53422844 5.5623341
-0.099520251 0.51820481 5.5529633
0.89791119 0.52665818 5.5968513
0.93272543 0.52150917 5.5861888
0.95154661 0.53995836 5.5879788
1.2253474 0.51463544 5.5726027
-0.38160214 0.57603276 5.5868988
-0.32747018 0.57506537 5.579731
-0.27380532 0.57467544 5.5777855
-0.2244602 0.57827187 5.5706577
-0.16664185 0.58708483 5.5708885
-0.12630492 0.5723058 5.5586247
-0.086323097 0.57191867 5.5552373
-0.033120859 0.57166779 5.5531435
0.82952559 0.59352827 5.5932574
0.88841909 0.58483857 5.5908189
0.92412806 0.58016759 5.5856657
0.96752739 0.59547651 5.5971885
1.0171517 0.58646673 5.5921092
1.0709612 0.59283686 5.5592589
-0.3150382 0.63042378 5.5931282
-0.27450302 0.62970775 5.5882821
-0.22057118 0.62869972 5.5809283
-0.16693577 0.62818623 5.5775604
-0.12649882 0.62651217 5.5633688
-0.086458482 0.6261546 5.5606213
0.78024858 0.63861728 5.5958648
0.82939756 0.63389659 5.5894728
0.8830657 0.63370496 5.5823278
0.93200701 0.62889189 5.5744591
0.96929532 0.63875812 5.5775571
1.0168207 0.63305902 5.5614519
1.0713569 0.63347852 5.5582471
-0.31550273 0.68506467 5.5972142
-0.27496716 0.68445015 5.5935521
-0.22073969 0.68272704 5.5809922
-0.1668227 0.68119597 5.5697665
-0.12666062 0.68069839 5.5663509
-0.086586982 0.6803354 5.5639229
0.73543257 0.67472976 5.5982342
0.77512991 0.67405939 5.5890465
0.8295204 0.67444491 5.5871086
0.88319433 0.67424864 5.5799937
0.92346418 0.67412335 5.574616
0.95099515 0.67453194 5.5749803
-0.31561127 0.72560966 5.5958023
-0.27503121 0.72490126 5.5917301
-0.22098699 0.72368336 5.5839024
-0.16695628 0.72183836 5.5708928
-0.11348219 0.73514038 5.5701032
-0.073203996 0.73329657 5.5566792
-0.046587028 0.74735785 5.5610733
0.06006217 0.74609584 5.5516009
0.88501769 0.70267493 5.5893993
0.92696857 0.71729183 5.5923958
-0.31596762 0.76678723 5.5985618
-0.27528858 0.76586115 5.5932007
-0.22107017 0.76418698 5.5825295
-0.16731317 0.76355702 5.5792246
-0.11349367 0.77531302 5.5671101
-0.073344402 0.77478242 5.5637546
-0.033211648 0.77324319 5.5529447
0.88519412 0.77036583 5.584507
0.92805439 0.78585631 5.5929041
-0.31610638 0.82095188 5.5959826
-0.27554461 0.82036495 5.5933709
-0.22140576 0.81907511 5.5861254
-0.16699982 0.81558347 5.5636549
-0.11353234 0.8157075 5.5652871
-0.073427513 0.81579083 5.5662556
-0.033320419 0.82899475 5.5641747
0.060234219 0.82840359 5.5600715
0.88531417 0.82455015 5.5801072
0.9265303 0.82514465 5.5798135
-0.27580339 0.861498 5.5945334
-0.2218139 0.87436759 5.5908937
-0.16756406 0.87204295 5.5772524
-0.11378205 0.87103707 5.5717525
-0.073503256 0.87016296 5.5666323
-0.033339571 0.86974788 5.564218
0.0067903576 0.88116896 5.5505924
0.060198907 0.8546263 5.554163
0.87514007 0.88197672 5.5973921
0.91862851 0.87580186 5.5825157
-0.20854907 0.92903459 5.5906696
-0.1679235 0.92765933 5.5833702
-0.1139064 0.92565763 5.572226
-0.073528737 0.92402804 5.5628414
-0.033367049 0.9242872 5.5646639
0.0068031559 0.92299914 5.5569649
-0.26297957 0.99854547 5.5938811
-0.22250956 0.98508233 5.5967693
-0.16822869 0.98317087 5.5870781
-0.11400051 0.98010957 5.5705891
-0.073648065 0.97917581 5.5657845
-0.033404857 0.97871852 5.5634022
0.033585615 0.99084854 5.55476
0.060478333 0.97934663 5.5668788
-0.26326439 1.0266427 5.5967021
-0.22248577 1.0254323 5.5912571
-0.16822094 1.0370932 5.5810442
-0.10973441 1.0313226 5.5755711
-0.073771551 1.0345554 5.5686636
-0.033460829 1.0340283 5.5660844
0.020203482 1.0315529 5.5528121
0.060347542 1.01739 5.5501132
-0.21794851 1.0611895 5.5857568
-0.16823348 1.0775604 5.5762539
-0.11882827 1.068365 5.577106
-0.073856428 1.0760878 5.5700016
-0.033482183 1.0754284 5.5668368
0.020239564 1.0736825 5.5578432
-0.21863548 1.1276951 5.5951881
-0.1686683 1.1208501 5.5852828
-0.11440741 1.1183317 5.5736661
-0.073825903 1.1159759 5.5624042
-0.033489861 1.1157517 5.5615563
