ply
format ascii 1.0
comment PCL generated
element vertex 1510
property float x
property float y
property float z
element camera 0
property float view_px
property float view_py
property float view_pz
property float x_axisx
property float x_axisy
property float x_axisz
property float y_axisx
property float y_axisy
property float y_axisz
property float z_axisx
property float z_axisy
property float z_axisz
property float focal
property float scalex
property float scaley
property float centerx
property float centery
property int viewportx
property int viewporty
property float k1
property float k2
end_header
1.6140487 2.376915 5.241467
1.6688764 2.3767588 5.2285023
1.7245011 2.3777115 5.2174196
1.782927 2.368609 5.2186236
1.8219573 2.3656669 5.2015896
1.8821064 2.3721747 5.2013154
1.0058863 2.4036176 5.2342772
1.2245494 2.4088795 5.2123923
1.2510023 2.4077175 5.2052178
1.3725779 2.4041343 5.2457643
1.4280791 2.4056213 5.238378
1.4795266 2.4004235 5.2159839
1.5361651 2.4037189 5.2115817
1.5707042 2.4148443 5.2297153
1.6238502 2.4123006 5.2118764
1.4386023 0.78131682 5.2924633
1.5485024 0.78425276 5.2922764
1.5865389 0.78368878 5.2805271
1.4413415 0.8088932 5.299881
1.4867617 0.82738113 5.2968512
1.5350795 0.82326359 5.289525
1.5761819 0.82427561 5.2881498
1.3876233 0.87312996 5.2963314
1.4146258 0.87371969 5.2952223
1.4972749 0.87633395 5.2963409
1.5343509 0.87510401 5.2813048
1.5750883 0.86291522 5.2802124
1.3883742 0.91271508 5.294733
1.4154893 0.92644995 5.2924232
1.4838226 0.92839855 5.2914095
1.5220857 0.92782933 5.280539
1.4460299 0.98166317 5.2975569
1.4854959 0.98180526 5.2909341
1.5314776 0.98488885 5.274159
1.4830788 1.031159 5.2924995
1.5171362 1.0392979 5.2814832
1.4762039 1.076188 5.2948742
1.517312 1.0774204 5.293292
1.4681573 1.1117134 5.2940893
1.5170907 1.1166787 5.2869678
1.4802573 1.1712651 5.29601
1.5194978 1.1711013 5.2875404
1.3736502 1.2358147 5.299902
1.4830077 1.212983 5.2997546
1.5245755 1.2278051 5.2969723
1.5782394 1.2416968 5.2871404
1.6366326 1.2337891 5.2803416
1.4847667 1.2672191 5.2975435
1.5254612 1.2813554 5.2914314
1.5800607 1.2828156 5.2866907
1.6318526 1.2819605 5.2720847
1.6699185 1.2939649 5.25631
1.5287548 1.3238313 5.2961178
1.5835831 1.3254268 5.2917204
1.6371464 1.3311456 5.2656665
1.6726509 1.3225306 5.2603321
1.5441166 1.3521738 5.296164
1.584585 1.3660522 5.2880416
1.6310315 1.368668 5.2699876
1.6772784 1.3659906 5.2677908
1.7055261 1.3806416 5.2648172
1.4791551 1.4329541 5.2993679
1.5329289 1.420365 5.2938991
1.5848004 1.4192951 5.2790546
1.63589 1.4176177 5.2615051
1.6791952 1.4206367 5.2640066
1.7173568 1.4273729 5.2636504
1.4944557 1.4747843 5.2964635
1.5316671 1.4720803 5.2965031
1.5665282 1.480404 5.2855797
1.6155392 1.4762077 5.2770739
1.6698617 1.4772339 5.2691464
1.7233839 1.4775007 5.2580791
1.7658433 1.4929657 5.2537417
1.4971738 1.5307055 5.2956023
1.524189 1.5311083 5.2917271
1.5643237 1.531323 5.284308
1.6185542 1.5322608 5.2763023
1.6715195 1.5319815 5.2637224
1.711273 1.5318092 5.2541113
1.4992349 1.5861204 5.2919631
1.5260124 1.5729282 5.2898946
1.5669355 1.5738866 5.2849312
1.620856 1.5744605 5.2755775
1.6716537 1.5720627 5.2558455
1.7131771 1.5735157 5.2516475
1.4821547 1.6179719 5.2913284
1.5293064 1.6164021 5.2928634
1.5684117 1.6154287 5.2814441
1.6221697 1.6158005 5.2713208
1.6716129 1.6207404 5.2611923
1.7360067 1.6226945 5.2532659
1.8631718 1.6415888 5.2551098
1.4761853 1.670164 5.2929115
1.5166368 1.67059 5.2862768
1.5736661 1.6744268 5.2874188
1.6257881 1.6729484 5.2713537
1.6793504 1.672997 5.259655
1.7305394 1.6706028 5.2559266
1.7518771 1.6918254 5.2581472
1.4808948 1.7425134 5.2946792
1.5194287 1.7272236 5.2839513
1.5769557 1.731602 5.2862835
1.6298232 1.7307712 5.2722363
1.6830654 1.7303506 5.2590094
1.7258294 1.7329133 5.257535
1.7633076 1.7300647 5.2551155
1.4826598 1.7714311 5.2947354
1.5217708 1.7701032 5.2827134
1.5768416 1.7717457 5.2765064
1.6344358 1.7760057 5.2776132
1.6746452 1.7758772 5.2682714
1.7145255 1.7754049 5.2576284
1.5268297 1.8163834 5.290658
1.5811694 1.817005 5.2812567
1.6222026 1.8177602 5.2748079
1.6651665 1.8205763 5.2740393
1.7188027 1.8202994 5.2608852
1.4801637 1.8780342 5.2956529
1.5307 1.8749346 5.2907529
1.5852053 1.8756059 5.2813816
1.626271 1.876307 5.2746096
1.6682849 1.8780321 5.2704206
1.7190256 1.8749008 5.2640061
1.792064 1.8668584 5.2518849
1.4829508 1.9265891 5.2941594
1.5334749 1.9323859 5.2865214
1.577306 1.9229022 5.292707
1.6156445 1.9202178 5.2765794
1.6715369 1.9223053 5.2702675
1.7236028 1.920007 5.2514725
1.4820509 1.9764011 5.2961807
1.5259672 1.9807117 5.2995324
1.571546 1.972146 5.2937717
1.6204405 1.9666098 5.2815199
1.675156 1.9671745 5.2708941
1.7315605 1.9696395 5.2649021
1.7715073 1.968774 5.2528367
1.4836204 2.0055737 5.294476
1.5191988 2.0289743 5.2970891
1.5692778 2.0248127 5.2889004
1.624182 2.0255303 5.2789869
1.6794152 2.0265796 5.269505
1.7223206 2.0290871 5.2665458
1.7769194 2.0292706 5.2539225
1.8065561 2.0456126 5.2504015
1.4456087 2.0907114 5.2897587
1.5177356 2.0830109 5.2948895
1.5720134 2.0827956 5.2829328
1.6285142 2.0718207 5.2817073
1.6853199 2.078151 5.2587423
1.7233673 2.0848327 5.2543559
1.7668645 2.0742898 5.2562656
1.4778144 2.1251493 5.2948084
1.5206604 2.127944 5.2934494
1.5760446 2.1290836 5.2848005
1.6314609 2.1165321 5.2795138
1.6727216 2.1169424 5.2712822
1.7173181 2.1351318 5.2689705
1.7645556 2.1133659 5.2535167
1.4830203 2.1873252 5.2974863
1.5235497 2.1729918 5.2915006
1.5791837 2.1743631 5.2832651
1.6349027 2.1757438 5.2745848
1.6772363 2.1774304 5.2693563
1.7190969 2.1784396 5.2621617
1.776922 2.19591 5.2537661
-2.5108726 2.2327886 5.2979488
1.4760221 2.2269642 5.2958794
1.5271034 2.232861 5.2873926
1.5823413 2.2335219 5.2772894
1.623786 2.2340093 5.2693939
1.6651804 2.2206933 5.2652168
1.7224488 2.2238514 5.2598333
1.7652446 2.225934 5.254796
-2.5038021 2.2550457 5.2737927
1.4906179 2.2809868 5.2995629
1.5295562 2.2776208 5.283226
1.5697427 2.276222 5.2712326
1.6140437 2.2807181 5.2725801
1.6684192 2.2662289 5.2626562
1.7194147 2.2625082 5.254261
1.4374226 2.3388009 5.299654
1.4769009 2.322247 5.2894115
1.5313213 2.3214746 5.2762876
1.5852435 2.3199868 5.2610927
1.6293213 2.3241472 5.2613468
1.6664643 2.3202517 5.25597
-0.20838514 2.3946066 5.279882
0.54694217 2.376868 5.2919283
0.6255585 2.3947134 5.2567334
0.66863751 2.3908463 5.2787871
0.7115441 2.3855131 5.2974634
0.779773 2.3869233 5.2937889
0.8346318 2.3886881 5.2918034
0.98190409 2.3839304 5.2629523
1.0113949 2.3896203 5.2718325
1.1352334 2.3931346 5.2616539
1.1818315 2.3776648 5.2901711
1.204638 2.3960211 5.2570996
1.2814314 2.3850708 5.2905302
1.3219479 2.3840046 5.2808599
1.3660153 2.3754597 5.289247
1.4223367 2.3778334 5.2840166
1.4785632 2.37988 5.2775631
1.5275331 2.3730552 5.2636132
1.5722908 2.3623362 5.2533312
0.843418 2.4022779 5.2518249
0.90302372 2.4173653 5.2783647
1.0432116 2.4003654 5.2917328
1.1011069 2.4077072 5.299962
1.1794928 2.4002404 5.2708139
1.2346908 2.4015338 5.2646241
1.2774084 2.4049134 5.2649455
1.3187088 2.405503 5.2589221
1.4026507 2.4088805 5.2508554
0.91855019 2.4632511 5.2741942
1.2651242 0.48022974 5.3274179
1.254617 0.63718593 5.3289943
1.3309553 0.64939582 5.3086514
1.3326472 0.67622441 5.313211
1.2331604 0.71784192 5.3460751
1.2651016 0.72676146 5.3085523
1.3213341 0.72915936 5.3175211
1.3602228 0.71605968 5.3114815
1.2327983 0.76981604 5.3396187
1.2713645 0.76950657 5.331183
1.3214371 0.76827276 5.3142004
1.3712693 0.77381259 5.3137579
1.4178933 0.78425843 5.3171625
1.2345695 0.82316303 5.3420472
1.2734756 0.82299817 5.3347039
1.3223742 0.82093811 5.3127155
1.375643 0.8216272 5.3082848
1.4246206 0.82667065 5.3036799
1.4704795 0.81058079 5.3060622
1.234418 0.87533164 5.3357902
1.272495 0.87457895 5.324965
1.325911 0.87539876 5.3213201
1.3620708 0.87345457 5.3028479
1.4439781 0.87571704 5.3025112
1.4726627 0.87723595 5.3068466
1.2380586 0.93032324 5.3455515
1.2760551 0.92937726 5.3338537
1.3282454 0.92927969 5.3246689
1.3754106 0.93310195 5.3127942
1.4450698 0.92869371 5.3004627
1.2394447 0.98383653 5.3451924
1.2796094 0.9844662 5.3423796
1.3303939 0.98321867 5.3269057
1.3825194 0.9830066 5.31671
1.4207823 0.98229468 5.3057966
1.2406214 1.0241426 5.3452792
1.2803667 1.0244362 5.3405075
1.3323791 1.0240633 5.3298483
1.3837423 1.0232253 5.31639
1.4404534 1.0318981 5.3045421
1.2421541 1.0648544 5.3466568
1.2810271 1.0643847 5.3380327
1.3332373 1.0641364 5.3280277
1.3803658 1.0589625 5.3163056
1.4163123 1.0684506 5.3124657
1.4502925 1.0764278 5.301012
1.284174 1.1197052 5.3438411
1.3355348 1.1186095 5.329874
1.3825768 1.1132597 5.3175273
1.4178977 1.1222368 5.3109875
1.4533179 1.1312865 5.3045816
1.2464428 1.187237 5.3481765
1.2815849 1.1784234 5.3437309
1.3174189 1.1702284 5.341959
1.3634021 1.1725881 5.3237019
1.4151052 1.1717718 5.3106198
1.4542439 1.1715012 5.3020782
1.2471285 1.2142866 5.3470883
1.2862542 1.2270563 5.3367391
1.3262277 1.2274324 5.3317728
1.3611937 1.222841 5.3255649
1.4177866 1.2267487 5.3125095
1.4664116 1.2313814 5.303822
1.2480336 1.2679994 5.3426189
1.2757825 1.2825589 5.3418231
1.3153114 1.2824471 5.334744
1.3655578 1.2799938 5.3154612
1.4194801 1.2810376 5.310297
1.4697218 1.2870523 5.3071656
1.2777877 1.3243005 5.3436141
1.3178086 1.3246026 5.3382154
1.3729597 1.3312877 5.3181849
1.4211552 1.3354365 5.3076215
1.4751577 1.3232293 5.30406
1.2802051 1.3666114 5.346858
1.3179396 1.3644943 5.331933
1.3660444 1.368445 5.3209462
1.4242452 1.3780873 5.3121843
1.4781175 1.365666 5.3077278
1.5283293 1.3715339 5.303041
1.2833437 1.436462 5.3480349
1.3216218 1.4214442 5.3372626
1.3738538 1.4205363 5.3246412
1.4256761 1.419266 5.310298
1.4792314 1.4064953 5.304575
1.2707472 1.4771841 5.3456688
1.3230531 1.4761657 5.3331203
1.3767066 1.4766934 5.3257046
1.4270093 1.4737005 5.3052187
1.4684324 1.4753134 5.3035574
1.2778914 1.5381128 5.3450952
1.3262217 1.5330274 5.3355241
1.3798923 1.5334382 5.3276052
1.4308945 1.5309774 5.309288
1.4707613 1.5309136 5.3014927
1.2775785 1.5821792 5.3348432
1.3215177 1.581593 5.3253708
1.3805991 1.5742364 5.3222322
1.4337852 1.5740747 5.3118887
1.4729478 1.5731752 5.3012476
1.2709627 1.6206309 5.338429
1.3340074 1.6215242 5.3308682
1.382437 1.6164249 5.3209996
1.4311391 1.6116799 5.311976
1.4510962 1.6319029 5.312726
1.2792733 1.674664 5.3434029
1.3318688 1.6734427 5.3303938
1.3856009 1.6736786 5.3216429
1.4268401 1.674957 5.3183212
1.451633 1.6726609 5.3059587
1.2415271 1.7316422 5.3485956
1.2801516 1.7294453 5.3351989
1.334213 1.7300196 5.3278241
1.3748479 1.7305498 5.3223372
1.4157538 1.7313797 5.3174849
1.4649073 1.7268629 5.3090568
1.2827284 1.7732258 5.336762
1.335449 1.771893 5.3235521
1.3761925 1.7859576 5.315134
1.4120941 1.7816044 5.309979
1.4583251 1.7744656 5.3090429
1.2446856 1.8167908 5.3435678
1.2838807 1.8151591 5.3320541
1.3255407 1.8169949 5.3305387
1.3628758 1.8234175 5.3287873
1.4222569 1.8189749 5.3043046
1.4741642 1.8177564 5.305438
1.247436 1.8747733 5.3423615
1.2746359 1.8751208 5.3388853
1.316565 1.8772126 5.3379555
1.3707488 1.8774738 5.3291578
1.4228305 1.8749321 5.3119698
1.461228 1.8588207 5.3001399
1.2642932 1.9203578 5.3443623
1.3192332 1.9216063 5.3386459
1.3676611 1.9289964 5.3230209
1.4261475 1.9333841 5.310667
1.4670774 1.9474089 5.3007646
1.1983898 1.9772456 5.3490109
1.2820513 1.9674416 5.3494139
1.3221345 1.9665422 5.3399844
1.3804604 1.9704739 5.3267026
1.4283862 1.9770477 5.3084602
1.2700526 2.02422 5.3440099
1.3238955 2.0234711 5.332727
1.3787293 2.0242622 5.3250589
1.4320372 2.0228412 5.3111086
1.4743657 2.0386357 5.3053269
1.2315662 2.0823741 5.3458014
1.2688576 2.0794969 5.3453064
1.3287216 2.0717602 5.3411407
1.3815191 2.0828166 5.3209076
1.4317193 2.0787323 5.3139343
1.4773858 2.0836802 5.3048563
1.2339386 2.1272948 5.3447185
1.2807547 2.1204815 5.3454132
1.3310746 2.11638 5.3391171
1.3855238 2.1298213 5.3248491
1.4281394 2.132308 5.3233461
1.4539354 2.1300659 5.3124599
1.2219244 2.1710873 5.3423004
1.2781669 2.1738842 5.3400764
1.3329226 2.1740208 5.3308978
1.3740435 2.1742024 5.3239231
1.4151576 2.1743798 5.3166327
1.4641365 2.1681218 5.30409
1.2402513 2.2341371 5.3442192
1.2813289 2.2340889 5.3371477
1.3227606 2.2209296 5.335433
1.369094 2.2311335 5.3269486
1.423727 2.2308013 5.3158317
1.2284534 2.278789 5.3423548
1.283556 2.2791657 5.3339911
1.3247102 2.2653961 5.3308783
1.361483 2.2702587 5.3234863
1.4168415 2.2709956 5.3149028
1.4617767 2.2651272 5.3043537
1.1903173 2.3396759 5.3456917
1.2305542 2.3239613 5.3387718
1.285091 2.3231514 5.3275981
1.3255448 2.3217902 5.3172255
1.3682284 2.324295 5.3154182
1.4191552 2.320581 5.3093076
-0.23782855 2.3932896 5.3448076
-0.15577851 2.3860078 5.3306656
0.37327784 2.3887486 5.3291855
0.44155002 2.3910825 5.3307357
0.46781996 2.3865123 5.3189087
0.74112546 2.3798943 5.3169327
0.88178074 2.3789792 5.3349233
0.91856712 2.3888969 5.3294663
0.9819169 2.3898127 5.3472395
1.0362844 2.388562 5.3370261
1.0779625 2.3896697 5.3336668
1.1196859 2.3770571 5.3345218
1.1691602 2.3706295 5.3240933
1.2293891 2.3766818 5.3162422
1.2855989 2.3653245 5.316638
1.3247864 2.3616576 5.3011026
0.96381485 2.4063847 5.3161254
1.0744216 2.4092026 5.3072886
1.2383618 0.43257576 5.3893952
1.2334335 0.48306072 5.3649592
1.2330272 0.53510058 5.3598623
1.2324979 0.62615895 5.350924
1.2186439 1.0672693 5.3629427
1.2328935 1.1209693 5.3583326
1.2296356 1.1703885 5.3569522
1.2310852 1.233441 5.3538222
1.2258148 1.2723465 5.3651061
1.2527472 1.2993041 5.3584614
1.2290211 1.3155463 5.3725805
1.2536916 1.3268194 5.3580647
1.2285719 1.3682114 5.3615508
1.2549453 1.3679967 5.3565626
1.2216794 1.4191748 5.3629184
1.2651812 1.418242 5.3523154
1.2313615 1.477814 5.3543658
1.2272371 1.532566 5.3671746
1.2602656 1.5205052 5.352149
1.2190228 1.5690967 5.3645225
1.2266099 1.6223266 5.3675532
1.2302861 1.6809196 5.3721213
1.2173278 1.7354076 5.3644981
1.232182 1.7778085 5.3593693
1.1994102 1.8298169 5.3904753
1.2198217 1.8198431 5.3568554
1.2167586 1.8784329 5.3726783
1.1982561 1.9499398 5.3553796
1.2112358 1.9201125 5.3807087
1.2282981 1.9682407 5.3605471
1.2553842 1.9681563 5.3559017
1.2158325 2.0243869 5.353343
1.2042423 2.0685647 5.3534212
1.2078513 2.1157317 5.3581505
1.1844521 2.1637828 5.3685565
1.1891623 2.2273927 5.3739533
1.2131763 2.221029 5.3542318
-2.5064147 2.2545061 5.3598313
0.92867064 2.2840533 5.3979416
0.97083777 2.2861705 5.3978124
1.025643 2.2855728 5.3891735
1.0670924 2.2859387 5.3843269
1.119735 2.2809668 5.3646603
1.1800712 2.2733822 5.362042
1.2142798 2.2504985 5.3509355
0.83250856 2.3257055 5.3974161
0.87379003 2.325727 5.3928199
0.92975163 2.328027 5.3916411
0.98418272 2.3264883 5.381134
1.0257584 2.327141 5.3771877
1.0661974 2.325263 5.367075
1.1214895 2.325846 5.3604083
1.1724452 2.3222702 5.356462
-0.020444913 2.3835211 5.3965125
0.061642252 2.3801005 5.3885522
0.14358345 2.378171 5.3830872
0.25317007 2.3806672 5.3859019
0.33550584 2.382508 5.3869061
0.43111145 2.381227 5.3791876
0.4727422 2.3842101 5.3835044
0.51397216 2.384793 5.3821468
0.58175832 2.3818357 5.3705549
0.62282526 2.3818021 5.3672051
0.68062562 2.3926697 5.3869777
0.73326558 2.3711746 5.368679
0.77609015 2.3764811 5.3766289
0.81820101 2.3791256 5.3782263
0.86871988 2.3748233 5.3746867
0.92819983 2.3654263 5.3699236
0.98368526 2.366612 5.365634
1.0244957 2.36555 5.3577266
1.0661104 2.3663716 5.3538198
-0.26659217 2.4074869 5.3756032
-0.21151291 2.4032412 5.3678417
-0.20085993 0.22051245 5.4304199
-0.17475939 0.220301 5.4257784
-0.1489269 0.22042248 5.429008
-0.26541027 0.28508174 5.421854
-0.20978105 0.26837361 5.4357104
-0.17512996 0.27267516 5.4357195
-0.14945647 0.27320158 5.4467459
-0.26652282 0.32525659 5.4422464
-0.21425764 0.32488424 5.4374342
-0.17530315 0.32493961 5.4392033
-0.14937152 0.31204739 5.4422717
0.032444332 0.31044048 5.4155354
0.0584369 0.33704817 5.4263339
-0.26257834 0.37349442 5.4483237
-0.22779445 0.3647345 5.4486613
-0.17570265 0.36473718 5.4499755
0.058287445 0.37496027 5.4107761
-0.21459007 0.42948109 5.4411497
-0.17553179 0.42943716 5.441535
-0.1496006 0.44271818 5.4446592
0.058678914 0.41653404 5.4452639
-0.21054442 0.47786561 5.446219
-0.17565283 0.48182255 5.4424133
-0.14967504 0.48202175 5.4451709
-0.17585649 0.52148223 5.4463596
-0.14984456 0.52168334 5.4489732
1.2272296 0.9288426 5.4189839
1.2284758 0.9563486 5.4213729
1.2300196 1.0239985 5.4199839
1.2204479 1.483582 5.4309192
1.2154474 1.5043676 5.4035892
-2.5014317 2.2178874 5.4400854
-2.4955006 2.2417414 5.418149
1.1952424 2.2111378 5.4095106
-2.482887 2.2726481 5.4182968
0.69690192 2.2909024 5.4389715
0.72451866 2.277163 5.4406576
0.76613533 2.2916303 5.4341488
0.82492119 2.2795842 5.424015
0.87527692 2.2745054 5.4186125
0.93191493 2.2644396 5.4250679
1.017081 2.2833631 5.422668
1.0761051 2.2774491 5.4380732
1.1130546 2.2678611 5.4092484
1.1683444 2.2678468 5.4009166
0.5867151 2.3192785 5.4417105
0.62845981 2.334321 5.4371419
0.68410593 2.3219235 5.4399533
0.72482824 2.3333859 5.4264741
0.76628721 2.3335314 5.4227867
0.80608392 2.3288567 5.4076924
-0.28182536 2.3932819 5.4134483
-0.21351768 2.398454 5.4273825
-0.1303166 2.3890939 5.4080467
-0.075721517 2.3991327 5.4315124
0.0069577773 2.3872139 5.4048996
0.089192472 2.3853862 5.4002504
0.11666362 2.386569 5.4025607
0.17191735 2.3921349 5.4141307
0.20031306 2.3753588 5.4465508
0.2549738 2.3700597 5.4327807
0.33859515 2.3768005 5.4450541
0.37987116 2.3757725 5.440764
0.44955021 2.3790629 5.4446034
0.47463945 2.3662572 5.4136462
0.5224517 2.3659081 5.4337754
0.57023716 2.3692906 5.4285707
0.62818682 2.3747556 5.4221759
0.68445653 2.3645961 5.4300957
0.72438687 2.3733628 5.4104805
-0.52949858 0.18316519 5.4636025
-0.53172845 0.2233464 5.4854727
-0.47934005 0.22339891 5.4903684
-0.43091908 0.22762765 5.4894843
-0.12402762 0.22225249 5.4744987
-0.019567227 0.21003021 5.4986529
-0.51995009 0.28974664 5.4986849
-0.48409057 0.27176347 5.4926858
-0.42596358 0.27538961 5.4807205
-0.38583869 0.27481776 5.4714761
-0.22773243 0.28651339 5.450264
-0.1246067 0.28890699 5.4980397
-0.019529078 0.28820175 5.4855299
-0.51977307 0.31597233 5.4958506
-0.47993353 0.3288998 5.4936299
-0.42675155 0.32843632 5.4888492
-0.37272269 0.32712021 5.4694676
-0.31966114 0.32638034 5.4591718
-0.13698843 0.32655069 5.467598
0.032870062 0.34071898 5.4855766
-0.46737495 0.38198718 5.4990864
-0.42705214 0.38124856 5.4905343
-0.37320471 0.37996185 5.4744101
-0.32025343 0.37929183 5.467032
-0.28033629 0.39140955 5.4546099
-0.21060751 0.38242182 5.4529557
-0.17587882 0.39117703 5.454247
-0.14142044 0.38345575 5.4688449
0.032875802 0.38010716 5.4848385
-0.41478702 0.44792235 5.4997277
-0.37391773 0.43317133 5.4822502
-0.32062775 0.43209639 5.4708591
-0.26752865 0.43091008 5.4576349
-0.14990009 0.41751382 5.4569168
-0.52051753 0.4745988 5.4962006
-0.48093483 0.47455463 5.4980564
-0.42768192 0.47395808 5.4940166
-0.37437829 0.47311431 5.4867673
-0.32065517 0.48451617 5.4685507
-0.26793751 0.48387465 5.4631462
-0.22828156 0.49603248 5.4535198
-0.37072253 0.50916845 5.4958034
-0.32168692 0.52543974 5.4833527
-0.26796493 0.52316391 5.4614601
-0.21575102 0.52334386 5.4648638
1.2381654 0.68277919 5.4925437
1.23787 0.73614913 5.4865875
1.2391123 0.77708304 5.4883804
1.2357961 0.828444 5.4684281
1.2393725 0.8710295 5.4800444
-2.4934154 2.2662868 5.487648
0.42287847 2.2736847 5.4919734
0.46391621 2.2848577 5.479105
0.51915079 2.2842364 5.4741697
0.57455242 2.2843575 5.470602
0.62918365 2.2816741 5.4598894
0.67992526 2.2772639 5.4574356
0.77405077 2.2644346 5.4678178
0.81063831 2.272707 5.4589643
0.9794848 2.2787383 5.4541612
1.0078484 2.2800539 5.4537268
-2.4595449 2.3209422 5.4691615
-2.4366329 2.3270974 5.4936037
0.3269394 2.3369582 5.4986839
0.38184023 2.3186572 5.4899001
0.42261386 2.3138351 5.4763613
0.46422759 2.3279974 5.470593
0.51880336 2.3242035 5.4581833
0.56068778 2.3258221 5.4591117
-0.61782086 2.3887978 5.4553156
-0.56366146 2.3808656 5.4776087
-0.54766697 2.3856518 5.4533806
-0.22910616 2.3899612 5.4792385
-0.17280516 2.3796258 5.456975
-0.11771249 2.3848367 5.469964
-0.076178923 2.3858969 5.472928
-0.034622803 2.389441 5.4813433
0.020900726 2.3861003 5.4737315
0.062528044 2.3865252 5.4744964
0.13677269 2.372622 5.4898696
0.17377464 2.3762531 5.4854093
0.21981035 2.3688176 5.4791751
0.27536127 2.3690751 5.4779906
0.32186398 2.3707764 5.4801517
0.38135687 2.3573279 5.4705086
0.42252016 2.368742 5.4584975
0.46395087 2.3543305 5.4590368
0.50491083 2.3516006 5.4501281
-0.61573595 0.18549871 5.5276546
-0.60232401 0.22516502 5.5264587
-0.5735693 0.22430336 5.5064697
-0.085533582 0.22410767 5.5208883
-0.045862213 0.21026036 5.5045738
-0.60167766 0.27784774 5.5189219
-0.57450968 0.27749681 5.513896
-0.53824335 0.27256671 5.5055981
-0.46715876 0.28966534 5.500277
-0.12475254 0.26295626 5.5053487
-0.081454135 0.27350476 5.5415816
-0.03729796 0.27273574 5.5259805
-0.60192019 0.31765378 5.5197344
-0.57512856 0.33070606 5.517899
-0.53856874 0.33429551 5.5067215
-0.12478426 0.34190997 5.5038781
-0.072754517 0.31806198 5.5482364
-0.032960605 0.3307716 5.5388927
0.0067048213 0.32951111 5.5174532
-0.60150546 0.38354105 5.5131354
-0.57517254 0.38361824 5.5160532
-0.53493261 0.38320872 5.5127316
-0.49433935 0.38247514 5.5045652
-0.12510811 0.36916134 5.5170383
-0.032990631 0.37069982 5.5408974
0.0067050839 0.38220599 5.5155439
-0.60309666 0.42433831 5.525804
-0.5750044 0.42317572 5.5125313
-0.53519213 0.43626779 5.5128374
-0.4812569 0.43530107 5.5038767
-0.43267712 0.43068495 5.5038924
-0.12558933 0.42351201 5.5357523
-0.099355578 0.42449751 5.5489879
-0.033020608 0.42416614 5.5451698
0.024318887 0.43166944 5.5275521
0.059604038 0.44954181 5.5297484
-0.61338294 0.46963158 5.5356574
-0.57604969 0.46368679 5.5204296
-0.54861492 0.47610709 5.511971
-0.12560052 0.46324563 5.5341377
-0.037453622 0.45970616 5.5455813
0.019984428 0.4637031 5.5404649
0.059674248 0.47654349 5.5348134
-0.6183027 0.50546479 5.5376916
-0.56342161 0.50397503 5.5251155
-0.52467215 0.50495988 5.5385122
-0.478497 0.51183838 5.5188885
-0.42949054 0.5156368 5.5146804
-0.38878518 0.52741712 5.5011902
-0.12548575 0.51573002 5.5259929
-0.08619 0.53119457 5.5492496
-0.033038113 0.5304718 5.5420761
0.024382124 0.52103817 5.5363488
0.059599038 0.51560646 5.5255017
1.2299273 0.53779781 5.5286007
-0.20552112 0.55730176 5.5410023
-0.17816867 0.55475265 5.5162611
-0.072872728 0.5574618 5.5447898
-0.028631648 0.56609935 5.5424037
0.019962078 0.56913072 5.528481
0.059717584 0.56960452 5.5330954
1.1371495 0.59223163 5.5446548
1.1756319 0.59129196 5.5302143
1.2291205 0.57774419 5.5222583
-0.072982095 0.63804519 5.5474358
-0.028666683 0.62879467 5.5448685
0.02000661 0.62335348 5.5362101
0.059843723 0.61063653 5.5420198
1.068468 0.6452052 5.5422249
1.1226175 0.63198972 5.5381513
1.1776465 0.63268399 5.5366554
1.2282075 0.63101846 5.5142603
-0.072995506 0.66474944 5.5463924
-0.028664239 0.67314225 5.5420761
0.015625181 0.67363769 5.5461502
0.059970178 0.69174176 5.547605
1.2155991 0.68514407 5.515583
0.015644522 0.7276752 5.5482993
-0.019872962 0.79966521 5.5488439
0.020095978 0.78605574 5.5480695
0.060024295 0.79888588 5.5432491
0.033442441 0.826608 5.5481672
1.2447457 0.80752975 5.5107274
1.2239003 0.89269149 5.533813
0.03367696 1.1815649 5.5457702
0.006850332 1.2936461 5.5499163
0.090943567 2.2923427 5.5479546
0.13268672 2.2893491 5.5401106
0.17440844 2.2733121 5.5382624
0.21613623 2.2722721 5.5346913
0.27193722 2.2726014 5.5338206
0.32734522 2.2701836 5.5258236
0.38288525 2.2692456 5.5210533
0.42525589 2.2585764 5.5308485
0.59241819 2.2581687 5.5190954
0.62221438 2.2651708 5.5340595
0.70302731 2.2553396 5.5030193
0.081684358 2.331527 5.5417252
0.13270782 2.3315871 5.5287333
0.17427999 2.3274095 5.5180216
0.21585467 2.325011 5.511301
0.27138692 2.3237181 5.5065136
0.32683712 2.3084307 5.5052328
-0.6976881 2.3686972 5.5495
-0.57994813 2.3765407 5.5030165
-0.52445138 2.3784039 5.5112853
-0.4842425 2.3871181 5.5341759
-0.27215642 2.3739517 5.5137463
-0.23059407 2.3773274 5.5229173
-0.17503199 2.3822336 5.5357599
-0.12334263 2.3665283 5.5247521
-0.076548718 2.3696151 5.5080113
-0.034827255 2.3622646 5.5279503
0.021087904 2.3645456 5.5333281
0.072258465 2.3657944 5.5236535
-0.63458353 0.22731122 5.5753002
-0.63733566 0.29534003 5.5974016
-0.099315263 0.29174444 5.5523939
-0.6267361 0.33913246 5.5812097
-0.090506919 0.33603343 5.5524764
0.8931098 0.33583233 5.5765676
0.93360996 0.33590767 5.5735273
0.97627676 0.32327411 5.5830979
-0.63787526 0.37618163 5.5989337
-0.086181551 0.38509035 5.5565505
-0.033055294 0.39817613 5.5536675
0.89314938 0.37613839 5.5751123
0.9328981 0.37592599 5.5675592
-0.072900556 0.42491132 5.5546694
0.89455652 0.4170863 5.5819769
0.93387592 0.41664577 5.5715117
-0.66505611 0.48387125 5.5940962
-0.086178258 0.46476027 5.552578
-0.019796852 0.47801706 5.552114
0.0067529706 0.47787076 5.550436
0.89597362 0.47163975 5.5879693
0.93171364 0.46705422 5.5832353
0.95009452 0.48523149 5.5827408
-0.60964704 0.53616405 5.5796938
-0.56840253 0.53515458 5.5719767
-0.51361161 0.53384596 5.5617781
-0.086261995 0.50508565 5.5558071
-0.033113468 0.50514501 5.5568371
0.0067548747 0.50456542 5.5505352
0.8967241 0.5259707 5.5894518
0.93235111 0.52129441 5.5839162
0.9506256 0.53943574 5.5825701
-0.44909531 0.56329185 5.5912237
-0.36864614 0.56329882 5.5951705
-0.33223709 0.57112122 5.5848389
-0.27359432 0.57421756 5.5733943
-0.22442268 0.57817477 5.5697074
-0.1617942 0.57675761 5.5576692
-0.12633193 0.57243681 5.5598125
-0.090836197 0.57686502 5.559855
-0.046393137 0.5847854 5.5505891
0.84284002 0.59340924 5.5908093
0.88848132 0.58488584 5.5912457
0.92416477 0.58019602 5.5858879
0.9661231 0.59460187 5.5889654
1.0160351 0.58582002 5.5860076
1.0716293 0.59319979 5.5626602
1.1119506 0.59314191 5.5568271
-0.31480959 0.61655039 5.5900655
-0.26123431 0.63002366 5.5915022
-0.22065042 0.62892938 5.5828867
-0.1666128 0.62696838 5.5667019
-0.12644179 0.62623119 5.5608606
-0.09085831 0.62139577 5.5581565
-0.046419092 0.61170483 5.5517969
0.060087949 0.63978553 5.562676
0.78947467 0.64780915 5.5960441
0.8300578 0.6344009 5.5939074
0.8832953 0.63387418 5.5837808
0.9230777 0.63341534 5.5754228
0.96479964 0.63426995 5.5783663
1.017814 0.63369596 5.5669632
1.0703672 0.61942536 5.5541248
-0.27053455 0.6890223 5.5941138
-0.22101304 0.6835835 5.5880642
-0.16716969 0.68261427 5.5812654
-0.12659411 0.68033969 5.5634289
-0.090893157 0.68379825 5.5554757
-0.046464738 0.69216061 5.5510454
0.033383347 0.69204962 5.55022
0.06006828 0.66622472 5.5588102
0.78994066 0.67519635 5.5972328
0.83062077 0.67534417 5.5945582
0.88422006 0.67503762 5.586524
0.92413992 0.67461658 5.5786948
0.95187676 0.67515725 5.5801487
-0.2751303 0.72512305 5.5934401
-0.21627001 0.7317732 5.576849
-0.16717696 0.73618001 5.5771255
-0.12672725 0.73446178 5.5648022
-0.086632073 0.73413885 5.5628576
-0.033215687 0.73321605 5.5562305
0.033414502 0.74598283 5.5509071
0.060096901 0.73320746 5.5559607
0.8845154 0.71576935 5.5849767
0.92576921 0.71635282 5.5851612
-0.27072346 0.76113623 5.5919414
-0.22552334 0.76861668 5.5817704
-0.16724625 0.77665824 5.5758801
-0.12679143 0.77491111 5.564044
-0.082123347 0.78248024 5.5542884
-0.033199307 0.77300954 5.5512667
0.06014774 0.77384365 5.5571222
0.88506126 0.7702648 5.5836492
0.92680299 0.77126545 5.5866055
-0.26218981 0.82066983 5.5958586
-0.22167288 0.82005262 5.5927653
-0.16741188 0.81760013 5.5772967
-0.11356731 0.81593502 5.5668712
-0.073483184 0.829777 5.56918
-0.037729125 0.81941432 5.5603828
0.0067838938 0.82693714 5.5504384
0.060135499 0.82704586 5.5509586
0.91079092 0.83174437 5.5953712
-0.26252842 0.87560427 5.5976954
-0.22195877 0.87494123 5.5946417
-0.16776681 0.87306499 5.5838313
-0.11364363 0.86999404 5.5651083
-0.07343135 0.86931062 5.5611868
-0.033299673 0.8688435 5.5584526
0.020157209 0.86858195 5.5567737
0.060390979 0.87078333 5.570509
0.9024272 0.86855191 5.5969257
-0.27182722 0.93505555 5.5976176
-0.22191894 0.92861187 5.5878463
-0.16790488 0.92759836 5.5829988
-0.1140185 0.92653352 5.577436
-0.07357116 0.92456251 5.5660505
-0.033332612 0.92322832 5.5582671
0.020175435 0.92282337 5.5558929
0.060380504 0.91078347 5.5653443
-0.263028 0.97173786 5.5980558
-0.21756335 0.97849029 5.5855021
-0.1680216 0.98203933 5.5806675
-0.11410262 0.98100847 5.5757661
-0.073622264 0.97883487 5.5638342
-0.033424504 0.97934216 5.5669565
0.020199711 0.977557 5.5568943
0.060450383 0.97889602 5.5643053
-0.2090473 1.0257075 5.5931129
-0.16824855 1.0237905 5.5835524
-0.10963389 1.0303899 5.5705752
-0.073860854 1.0357888 5.575407
-0.033459898 1.0342332 5.5672302
0.020220507 1.0322766 5.5566745
-0.20932715 1.0676279 5.5955615
-0.16851521 1.0658602 5.5871716
-0.11897534 1.069684 5.5839705
-0.073651239 1.0730983 5.5545268
-0.033438828 1.0739331 5.5590968
0.020253442 1.0742416 5.5607371
-0.20982265 1.1378763 5.5999665
-0.16885215 1.1220516 5.5912838
-0.1144824 1.1190646 5.5772996
-0.073943362 1.117764 5.5712523
-0.033509776 1.116497 5.565177
0.020259382 1.1145971 5.5558372
0.060729124 1.1316097 5.5715075
-0.2099005 1.1653996 5.5983396
-0.15570423 1.1789688 5.597662
-0.11477502 1.1760391 5.5843964
-0.074128479 1.1745481 5.5778055
-0.033637643 1.1746252 5.5784216
0.015788577 1.1655165 5.5570731
-0.16474119 1.2376536 5.5889125
-0.1151157 1.2337402 5.5931029
-0.074245453 1.2304777 5.5788283
-0.033651952 1.2290864 5.5727654
0.02034048 1.2270268 5.563437
-0.21025611 1.2759625 5.5920525
-0.16925263 1.273787 5.5834284
-0.11525364 1.2759421 5.5937967
-0.074328355 1.2724558 5.5789838
-0.029185371 1.2803015 5.5727105
0.024864117 1.2778435 5.5620723
-0.22413713 1.3184886 5.5930085
-0.16970699 1.3179898 5.5921435
-0.11518793 1.315871 5.5841384
-0.074390888 1.3141661 5.5773602
-0.038266834 1.3186418 5.576715
0.020400656 1.3253776 5.5657263
-0.21093111 1.3617613 5.5971446
-0.15653718 1.3759921 5.5985756
-0.11535937 1.3721768 5.5836701
-0.074532948 1.3709717 5.5792542
-0.033787087 1.3694625 5.5733891
0.020411327 1.3670366 5.5635705
-0.21134549 1.4462997 5.5943847
-0.17037812 1.4323263 5.5963559
-0.11556381 1.4289823 5.5842295
-0.074626438 1.4270368 5.5771008
-0.03386097 1.4268743 5.5766883
0.020435102 1.4232221 5.5624743
-0.15692966 1.4750351 5.5963054
-0.11568689 1.4713547 5.5829992
-0.074829333 1.4854205 5.5826936
-0.033947445 1.4850748 5.5816417
0.020502947 1.4821627 5.5707045
-0.15706325 1.5173025 5.5936847
-0.11592529 1.5155071 5.5877085
-0.074937172 1.5284913 5.5833039
-0.033982858 1.5275682 5.5801907
0.020533182 1.5253599 5.5721693
-0.11633255 1.5756311 5.597157
-0.075191364 1.5747626 5.5945282
-0.034043577 1.5706384 5.5801511
0.020546421 1.5669525 5.5671186
-0.15760621 1.6185505 5.5949006
-0.11187028 1.6272939 5.5924754
-0.075277321 1.6313795 5.5902929
-0.034148909 1.6307503 5.5884209
0.020612288 1.6267997 5.5748696
-0.11660971 1.6756799 5.5922155
-0.075309195 1.6731992 5.5844264
-0.034149859 1.6857138 5.5779042
0.02063752 1.6833915 5.5702786
-0.10303616 1.7193761 5.5919962
-0.075380757 1.7159727 5.5812283
-0.034181193 1.7285326 5.5749016
0.020698134 1.7296568 5.5785751
-0.17232499 1.7798374 5.5962987
-0.11698587 1.7772229 5.5890636
-0.075594038 1.7758718 5.5853024
-0.034288846 1.7743478 5.5807686
0.020696631 1.7705867 5.5689988
-0.11704116 1.8331829 5.5795169
-0.075658381 1.8324871 5.5778966
-0.034325194 1.8318404 5.5762
0.020726617 1.828361 5.5656428
-0.1588902 1.8529701 5.5938964
-0.11726224 1.8782268 5.5811577
-0.075837672 1.8782421 5.5817051
-0.034386184 1.8763856 5.576457
0.0070043644 1.875746 5.5746388
-0.11754696 1.9241569 5.5845432
-0.075952806 1.9225792 5.5804787
-0.034468926 1.9229248 5.5817475
0.02086002 1.9230874 5.5822864
-0.15972354 1.9738832 5.5972152
-0.11317334 1.9791578 5.5844326
-0.07608062 1.9812276 5.5765371
-0.034494467 1.9796307 5.5723524
0.020887963 1.9808666 5.5758572
-0.17381227 2.0037885 5.5960178
-0.12278793 2.0223455 5.5923405
-0.076147296 2.0245359 5.5711408
-0.034551837 2.0239937 5.5699224
0.016308866 2.034548 5.571291
-0.16040772 2.0800548 5.5968208
-0.11848335 2.0791121 5.5949945
-0.07644169 2.0741231 5.5820589
-0.034637582 2.0710173 5.5739746
0.02102438 2.0764096 5.5886297
-0.16070634 2.1258738 5.5963626
-0.11862138 2.123421 5.5906181
-0.076633967 2.1211762 5.5852265
-0.030085614 2.1279929 5.5765185
0.0070831692 2.1351628 5.5819702
-0.16090803 2.1565454 5.5959668
-0.11880779 2.1686821 5.5880899
-0.076769963 2.1668715 5.5839429
-0.039485123 2.1708534 5.5812192
0.021114903 2.1839876 5.5885639
-0.17543373 2.2330971 5.5929499
-0.11911912 2.2305467 5.5875883
-0.076967672 2.2285004 5.5829549
-0.034829505 2.2220364 5.5670853
0.021103797 2.2249861 5.5745368
0.063208669 2.2440455 5.5830431
-2.4641132 2.2937639 5.5742898
-0.23220506 2.2670569 5.5981331
-0.17562357 2.2778912 5.5876651
-0.11450057 2.2831335 5.5760207
-0.077078186 2.2737732 5.5791278
-0.030234851 2.2784231 5.5652313
0.021114368 2.2836432 5.5652795
0.072394162 2.2764552 5.5601859
0.13281351 2.2635164 5.5532217
0.51187128 2.2718046 5.5582819
-0.30345213 2.3441422 5.5915117
-0.27508754 2.3289459 5.594069
-0.23261774 2.3416514 5.5879259
-0.17567044 2.3205795 5.5767474
-0.1240113 2.3233674 5.5718179
-0.077129886 2.317414 5.5707016
-0.039650377 2.3197415 5.5639553
0.02112166 2.3268785 5.5560203
-0.87473482 2.3618026 5.5915465
-0.83042717 2.3571854 5.5851922
-0.71702242 2.3577151 5.5975304
-0.67163861 2.3762808 5.5697241
-0.6162793 2.3809457 5.585268
-0.57095844 2.3692584 5.5610113
-0.51501811 2.3714015 5.5699167
-0.4725647 2.3708165 5.5711923
-0.44473088 2.37287 5.577652
-0.30237558 2.3639681 5.5633488
-0.27400914 2.361995 5.5597272
-0.23181821 2.3617001 5.5603666
-0.17542744 2.3593979 5.5563898
-0.10506632 2.3562024 5.5501204
-0.077054776 2.3572316 5.5528688
-0.72547269 -0.51525652 5.6406493
-0.72573119 -0.46117425 5.6456985
-0.69768262 -0.4605732 5.6405501
-0.72570515 -0.43402556 5.6468868
-0.69672811 -0.41935143 5.6348677
-0.72558635 -0.35257089 5.6496167
-0.7235595 -0.27042881 5.6367102
-0.69472492 -0.26973945 5.6245165
-0.69392103 -0.22900164 5.6191425
-0.72403657 -0.17586648 5.6428056
-0.69391513 -0.17509291 5.620326
-0.75217867 -0.12189174 5.6494341
-0.72386765 -0.12169795 5.6423864
-0.69514513 -0.12141088 5.6311827
-0.750799 -0.067535803 5.6396303
-0.72238678 -0.067422636 5.6314001
-0.69428301 -0.067313507 5.624754
-0.69548237 -0.026915209 5.6346774
-0.7244671 0.01364508 5.6478186
-0.69480824 0.013585411 5.6292109
-0.6932072 0.067405201 5.6159515
-0.72474319 0.13559003 5.6488528
-0.69270885 0.12116535 5.6112909
-0.69666904 0.16245824 5.6426868
-0.66871887 0.22978 5.6357322
-0.66714692 0.26970217 5.6212978
-0.63756192 0.26859441 5.6002889
-0.75326759 0.38019794 5.6498046
-0.670623 0.37951386 5.6464391
-0.67128366 0.43414482 5.6494122
-0.64061087 0.41828048 5.6210356
-0.68342811 0.47385707 5.6343956
-0.63845986 0.45719245 5.600091
-0.66888916 0.52726686 5.6239052
-0.64315009 0.54181033 5.6364536
0.98565829 0.54389071 5.6255498
-0.57053214 0.5775153 5.6350837
-0.52009559 0.58112872 5.6292362
-0.46947941 0.58432996 5.6191139
-0.42349786 0.57837981 5.6078482
-0.38744304 0.58253998 5.6063342
-0.31554902 0.59113169 5.6051049
0.54780591 0.59512734 5.6313858
0.57602936 0.59634781 5.6411514
0.6166544 0.59632015 5.6380424
0.67053092 0.59606171 5.6315136
0.72386152 0.59534734 5.6203289
0.77771366 0.5951609 5.6137843
0.8176384 0.59469068 5.6055403
0.95543242 0.56926632 5.6090117
-0.57629764 0.62399852 5.644124
-0.51660711 0.63189816 5.6370206
-0.46596339 0.63504881 5.6274848
-0.42470181 0.63396156 5.6199508
-0.38343325 0.63263243 5.60993
-0.33389148 0.63675886 5.6085625
-0.28873557 0.63155305 5.6041489
0.49509609 0.62391484 5.6485004
0.53573591 0.62385428 5.6454935
0.57580727 0.62321109 5.6370444
0.61621177 0.62297958 5.632103
0.66951001 0.63570565 5.6198549
0.72267759 0.63489455 5.6082277
0.77181917 0.63008553 5.6014495
-0.57639354 0.65123236 5.6430221
-0.52624196 0.66877073 5.6402364
-0.46638715 0.67618382 5.6293859
-0.42486525 0.67468274 5.6190166
-0.38421214 0.6743629 5.6182623
-0.3295947 0.68642825 5.6078539
-0.28891551 0.67227077 5.6045623
0.48138911 0.65083027 5.6454325
0.53604603 0.65136504 5.6468492
0.57692635 0.6651473 5.6449213
0.61670262 0.66415215 5.6335945
0.66951025 0.67627716 5.6166658
0.72305083 0.67576396 5.6079683
0.7633943 0.67559743 5.6030407
-0.52240127 0.71942019 5.6438375
-0.46704486 0.71777368 5.6340322
-0.42527151 0.7158457 5.6210728
-0.38399449 0.71439898 5.6116524
-0.32949865 0.72659588 5.6028857
0.84618187 0.70406705 5.6046529
-0.57796836 0.76183337 5.6494236
-0.51785767 0.76913691 5.6394897
-0.46682 0.77156895 5.6266761
-0.42531687 0.76995301 5.6169581
-0.38460952 0.76957202 5.6161208
-0.33019996 0.76860213 5.6112423
-0.2895126 0.78143692 5.6069341
-0.51840937 0.82429987 5.6404672
-0.46762222 0.82714236 5.6313009
-0.42644 0.82616103 5.6267123
-0.38498113 0.82434976 5.6163082
-0.33059508 0.82352781 5.6130009
-0.28958786 0.8220669 5.6045656
0.87579179 0.82830727 5.6070766
0.92996693 0.81462747 5.6018462
-0.50994796 0.88426566 5.6418314
-0.46837151 0.88279426 5.6348143
-0.41821751 0.88654107 5.6320662
-0.38138199 0.87597948 5.6249747
-0.3312735 0.87930703 5.6190114
-0.28983048 0.8767072 5.6038628
0.87647319 0.88332134 5.6059184
0.90499848 0.89824414 5.6100159
-0.45545417 0.92487276 5.639503
-0.41394714 0.92328316 5.6318779
-0.37268379 0.93551874 5.6242142
-0.33090356 0.93236399 5.6069202
-0.28991675 0.91743791 5.6012607
0.87737608 0.92502886 5.6073246
0.92015523 0.91338432 5.6164989
-0.51094025 0.98137015 5.6423779
-0.46935609 0.96627098 5.6376791
-0.41415471 0.9644953 5.6301484
-0.37260783 0.97599292 5.6185031
-0.33128715 0.97400379 5.6087251
-0.29029417 0.98617804 5.6009488
0.8769303 0.9517501 5.6014433
0.93411762 0.95462924 5.6125145
-0.52517414 1.0234442 5.643178
-0.47027007 1.022717 5.642385
-0.41468677 1.0201428 5.6310134
-0.3732065 1.0182874 5.622735
-0.33165354 1.0157318 5.6102376
-0.27257904 1.0187967 5.6038489
-0.23641865 1.0138569 5.6030874
-0.51238251 1.0661484 5.648438
-0.47089902 1.0786974 5.643188
-0.41550827 1.076681 5.6354513
-0.3743495 1.0758957 5.6332345
-0.33268696 1.073239 5.6209745
-0.27759928 1.0703484 5.6078482
-0.23667467 1.069088 5.6024876
-0.47135225 1.1344032 5.6414871
-0.41584361 1.1320963 5.6329093
-0.37491456 1.132062 5.6346426
-0.33367762 1.1309367 5.6307359
-0.2784431 1.127949 5.6177812
-0.2280678 1.1206828 5.6061897
-0.51350182 1.1780617 5.6462984
-0.47212064 1.1772984 5.6450152
-0.41611797 1.1737782 5.6309977
-0.3749097 1.1729642 5.6290159
-0.32901499 1.180436 5.6219354
-0.27838105 1.1820354 5.6091137
-0.22826834 1.1850533 5.6028228
-0.18297377 1.1800685 5.6023383
-0.47230941 1.2188898 5.6416025
-0.41669241 1.216383 5.6328506
-0.37561291 1.2161701 5.6337748
-0.33876255 1.21918 5.6275744
-0.27884901 1.2248648 5.612792
-0.21952699 1.2319579 5.6042066
-0.18311273 1.2216763 5.6007977
-0.47317567 1.2759781 5.6437712
-0.41745704 1.2734298 5.635344
-0.37618399 1.2727561 5.6342831
-0.33442461 1.2700441 5.6240139
-0.27961022 1.2691445 5.621995
-0.23813455 1.2662973 5.6106615
-0.42336693 1.3370374 5.6439438
-0.37752321 1.3322175 5.6458731
-0.33533919 1.3282508 5.6307421
-0.27988577 1.3249692 5.6188993
-0.46098465 1.3766079 5.6482821
-0.41909209 1.3745794 5.6420984
-0.37743673 1.3731012 5.6379895
-0.33549356 1.3836991 5.6247082
-0.28033647 1.3818746 5.6193061
-0.2295364 1.3826804 5.6048217
-0.18395676 1.3773133 5.6033802
-0.41533032 1.4232455 5.6459656
-0.36871067 1.4205151 5.6372647
-0.32223842 1.4267751 5.6262064
-0.28066391 1.4245793 5.6190114
-0.22983383 1.4299151 5.6040549
-0.42022377 1.4748285 5.641201
-0.3648119 1.4736359 5.6392107
-0.32270628 1.4700686 5.6272464
-0.28126618 1.468852 5.624064
-0.2257774 1.4786224 5.6083336
-0.18443653 1.4765974 5.6016712
-0.42099059 1.5189177 5.6440248
-0.36540246 1.5174491 5.6411543
-0.32425341 1.5323266 5.6443443
-0.28139031 1.5244099 5.6166539
-0.22619875 1.5226409 5.6117878
-0.18467578 1.5195866 5.6015439
-0.35184342 1.5736735 5.6353173
-0.32384682 1.5717692 5.6296124
-0.28170657 1.5810552 5.6125116
-0.22650583 1.5797017 5.609344
-0.17132737 1.5774217 5.6025701
-0.40852976 1.6209522 5.6453075
-0.36635238 1.6181939 5.6376004
-0.32442892 1.6160479 5.6318073
-0.28201872 1.6241736 5.6110468
-0.22715023 1.6254065 5.6169925
-0.18539713 1.6217145 5.6052694
-0.13043028 1.649184 5.600842
-0.40912819 1.6788304 5.6426077
-0.36699989 1.6764966 5.6366854
-0.32551032 1.6768531 5.6396408
-0.28347155 1.6740141 5.6315813
-0.22728544 1.6677033 5.612071
-0.17189899 1.6653289 5.6053686
-0.40989995 1.7236928 5.6447487
-0.36310837 1.7307292 5.6376839
-0.32585782 1.7341363 5.6342888
-0.28386357 1.731746 5.6280212
-0.22765931 1.7257015 5.6100798
-0.17223676 1.7237422 5.6050596
-0.13082808 1.7231348 5.6038585
-0.37282014 1.7699169 5.6363702
-0.32628608 1.7780855 5.6328897
-0.28440481 1.7767093 5.6300526
-0.22358441 1.7805529 5.612843
-0.15864979 1.7673304 5.6036706
-0.41195589 1.8441031 5.649056
-0.36915118 1.8256127 5.6401138
-0.32667536 1.8219373 5.6305227
-0.28495044 1.8218695 5.6318326
-0.23339814 1.8220626 5.6187377
-0.17756115 1.81849 5.609118
-0.41185176 1.8715712 5.641356
-0.36994815 1.8715026 5.6431198
-0.32748795 1.8822393 5.6320238
-0.2852616 1.8795046 5.6253872
-0.22899869 1.8747329 5.6128492
-0.177922 1.8777851 5.6083317
0.034758367 1.8851612 5.6025515
-0.42218056 1.9134665 5.6460075
-0.37039578 1.915694 5.6402354
-0.31420031 1.9280741 5.634635
-0.27207121 1.9264973 5.6315303
-0.22948 1.9343761 5.6118431
-0.17367628 1.9327183 5.6084042
-0.47015882 1.9656106 5.6482921
-0.42806128 1.979701 5.647316
-0.37112454 1.9755361 5.6381359
-0.31476974 1.9735717 5.6348801
-0.27241272 1.970853 5.628644
-0.22970395 1.9780018 5.6072216
-0.18782179 1.9770552 5.6056166
-0.3577809 2.0213435 5.6391306
-0.31552783 2.0343962 5.6346231
-0.27298677 2.0310335 5.6268263
-0.23018807 2.0240636 5.6087914
-0.17419621 2.0361457 5.6015711
-0.42501625 2.0765932 5.6472678
-0.37279865 2.0688868 5.6427646
-0.31585404 2.0785947 5.6297741
-0.2732338 2.074924 5.6213622
-0.23067471 2.0703058 5.610137
-0.18853095 2.0823493 5.6023874
0.035044599 2.0965545 5.6015673
-0.42537662 2.1254942 5.640276
-0.37344158 2.1288323 5.6379766
-0.31618914 2.1230009 5.624896
-0.27364892 2.1202042 5.6190367
-0.23130976 2.118077 5.6146803
-0.18887316 2.1281192 5.6016698
0.035089131 2.1272411 5.6014895
-0.43099475 2.1770282 5.6393194
-0.37390155 2.1737974 5.6337447
-0.31201962 2.1781721 5.6207995
-0.27423778 2.1810505 5.6162119
-0.2318202 2.1790133 5.6122785
-0.17993474 2.1796033 5.6017861
0.035146028 2.1587594 5.6032457
-2.4780762 2.246846 5.6240945
-0.4747918 2.2260299 5.6421337
-0.4318642 2.2239499 5.6392336
-0.37455341 2.2200193 5.6320934
-0.32236305 2.2223589 5.6270142
-0.27484769 2.2282019 5.6171899
-0.23219606 2.2247844 5.609889
-0.47629133 2.275722 5.6481209
-0.42748746 2.2776766 5.6294808
-0.374659 2.2772069 5.6178751
-0.31777132 2.2749441 5.6147475
-0.27505437 2.2722168 5.6095839
-0.23259398 2.2710733 5.6080594
-2.4331765 2.3067713 5.6206303
-0.96668172 2.3493867 5.6285229
-0.82042176 2.3407204 5.6237502
-0.78047383 2.3493228 5.6487017
-0.70811129 2.3468409 5.6493745
-0.65034258 2.344893 5.6495137
-0.62059122 2.3405154 5.6412206
-0.57709062 2.3376865 5.6375742
-0.51468706 2.3252728 5.637464
-0.47654322 2.3196161 5.6389532
-0.43789402 2.3205621 5.6305165
-0.37511182 2.3224759 5.6126323
-0.31802672 2.3192015 5.6071625
-0.23291904 2.3164907 5.6035194
-0.9098416 2.3505456 5.6380424
-0.76078445 2.3613253 5.6021485
-0.67885429 2.3732154 5.6380944
-0.63281804 2.3614035 5.6135168
-0.57543421 2.3593659 5.6129718
-0.51760387 2.3549778 5.6064157
-0.47530615 2.3561809 5.6119356
-0.43237457 2.3542361 5.609704
-0.37554941 2.3536003 5.6110506
-0.33267179 2.3510821 5.6069388
-0.75740838 -0.51854789 5.6743612
-0.75518715 -0.47619939 5.6600304
-0.72703356 -0.48918349 5.6543503
-0.75581169 -0.42211622 5.6675043
-0.72599262 -0.40705448 5.6504273
-0.75434995 -0.36693147 5.658988
-0.72744071 -0.38066924 5.662919
-0.75420833 -0.3260859 5.659544
-0.72625983 -0.3257449 5.6559095
-0.75437379 -0.28537595 5.6621885
-0.72649723 -0.29868913 5.6587195
-0.75553024 -0.23134995 5.6724577
-0.72718483 -0.23099154 5.6660986
-0.75348127 -0.17643395 5.6583157
-0.75269383 -0.027025113 5.6540704
-0.72489852 -0.027002539 5.6511879
-0.75419754 0.013691803 5.6653605
-0.75366527 0.068011507 5.6610708
-0.72500896 0.067870982 5.6517534
-0.75298184 0.12222532 5.6553087
-0.7249012 0.10851569 5.6504846
-0.75471473 0.17692296 5.6673489
-0.7264567 0.17666367 5.6614366
-0.6978873 0.18984987 5.6519856
-0.75540841 0.23153132 5.6712408
-0.72717071 0.23120858 5.665688
-0.69901896 0.2308812 5.6601243
-0.75613785 0.28625685 5.675056
-0.71395171 0.28573328 5.6681118
-0.67274296 0.29915163 5.6675377
-0.75569707 0.32694882 5.6702881
-0.71408778 0.32659838 5.667717
-0.67326623 0.32659268 5.670948
-0.75472236 0.35372958 5.6618876
-0.71445721 0.36760578 5.669013
-0.67292362 0.35362113 5.6669788
-0.75696492 0.42300045 5.6755981
-0.71962088 0.41788492 5.6711516
-0.68532395 0.42087632 5.6528912
-0.75648934 0.47724366 5.6691642
-0.72957134 0.47746867 5.6742058
-0.69954956 0.46202752 5.6550393
-0.7575351 0.53254437 5.6737785
-0.72033626 0.53648835 5.6702991
-0.69966203 0.51645654 5.6528349
-0.75858223 0.57427424 5.6789846
-0.71631837 0.57326055 5.6724701
-0.67411387 0.57219118 5.665216
-0.63236421 0.58499146 5.6593618
-0.59071863 0.5977391 5.6533556
0.32018781 0.59938478 5.6833677
0.36119157 0.59961545 5.6839538
0.41536069 0.59913862 5.6769853
0.48305753 0.59870386 5.6693096
0.52290368 0.59757578 5.6562524
-0.75857317 0.61527741 5.6760588
-0.71594816 0.61389178 5.6667356
-0.67498422 0.6138525 5.6696873
-0.63297808 0.62639236 5.6619263
0.28007856 0.62829894 5.6980233
0.32017136 0.62660348 5.6812205
0.3796612 0.61825901 5.686327
0.43377349 0.61766082 5.6783357
0.46835676 0.6244235 5.6546302
-0.75861323 0.67000878 5.6722546
-0.71728033 0.66969675 5.6731768
-0.67501295 0.66843617 5.6658459
-0.63343298 0.66772878 5.6629386
-0.57758176 0.67975396 5.6524663
0.32046545 0.65443814 5.6843538
0.37515202 0.65469503 5.6843896
0.44142032 0.65187532 5.6566997
0.55078101 0.67994547 5.6558924
-0.71851861 0.72560859 5.6784272
-0.67579985 0.72383267 5.6680117
-0.63376796 0.72261018 5.6615081
-0.5780856 0.72116202 5.6540599
-0.76182425 0.78265131 5.6869564
-0.7194103 0.78133291 5.680687
-0.6771211 0.77999997 5.6742868
-0.63434249 0.77783388 5.661736
-0.57849312 0.7897616 5.652122
-0.53739744 0.78938538 5.6521049
-0.76155365 0.82357091 5.6810856
-0.72064328 0.82386661 5.6866775
-0.66011304 0.83169442 5.6815505
-0.62098861 0.83283806 5.6604385
-0.5790956 0.8314752 5.6540933
-0.53780681 0.84446472 5.6512041
-0.76208937 0.86537611 5.6810031
-0.72063416 0.86503363 5.682476
-0.66999483 0.86922193 5.6835761
-0.62154746 0.87456602 5.6614494
-0.57967138 0.87321699 5.6555829
-0.53818488 0.88594854 5.6510229
-0.76517582 0.91022992 5.699738
-0.72208965 0.92182845 5.6882358
-0.66477424 0.91865832 5.6730413
-0.62225831 0.91661394 5.6636105
-0.57995826 0.91460556 5.6540933
-0.5249992 0.9276095 5.6522589
-0.4838146 0.92710102 5.651588
-0.76553965 0.9796505 5.6948299
-0.72258663 0.97751641 5.6860275
-0.66643059 0.97590935 5.6811304
-0.62401021 0.97406363 5.6734867
-0.58141774 0.97162229 5.6621542
-0.52995062 0.96472532 5.6522331
-0.76546347 1.0347309 5.6877627
-0.72293973 1.0330932 5.6822858
-0.66721964 1.0321178 5.6814165
-0.62364054 1.0283326 5.6636915
-0.58226621 1.0278699 5.6640735
-0.71102905 1.0772412 5.6933484
-0.66800958 1.0746751 5.6831098
-0.62465405 1.0711938 5.6678338
-0.57857943 1.0797769 5.6668763
-0.53157085 1.0863343 5.6551995
-0.71264488 1.1350557 5.6991205
-0.66938388 1.1182956 5.6893592
-0.62688476 1.1163678 5.6827602
-0.58893347 1.1186575 5.6730914
-0.52740771 1.1236941 5.6550102
-0.76875812 1.1638837 5.6961899
-0.73182321 1.1731293 5.6981583
-0.66571897 1.1705445 5.6909676
-0.62752175 1.1726873 5.681128
-0.58521771 1.170826 5.6750374
-0.53298736 1.1624416 5.6604633
-0.65683055 1.2311139 5.6861582
-0.62749898 1.2278205 5.6731386
-0.58559376 1.2267019 5.6709023
-0.52884853 1.2229563 5.6571503
-0.71514261 1.2779367 5.6994481
-0.67269671 1.2764403 5.6961551
-0.61545175 1.2727935 5.6840696
-0.57234657 1.2830445 5.6690855
-0.52959621 1.2797215 5.6570511
-0.67310476 1.3188716 5.6932502
-0.61615509 1.3157721 5.6841092
-0.57353169 1.3271812 5.6744518
-0.52971721 1.3213195 5.6520691
-0.47014853 1.3306805 5.6549244
