ply
format ascii 1.0
comment PCL generated
element vertex 1446
property float x
property float y
property float z
element camera 0
property float view_px
property float view_py
property float view_pz
property float x_axisx
property float x_axisy
property float x_axisz
property float y_axisx
property float y_axisy
property float y_axisz
property float z_axisx
property float z_axisy
property float z_axisz
property float focal
property float scalex
property float scaley
property float centerx
property float centery
property int viewportx
property int viewporty
property float k1
property float k2
end_header
-0.2256635 -0.48120067 0.77423698
-0.17539515 -0.48042661 0.77448237
-0.12507832 -0.47997382 0.77539307
-0.075466037 -0.47931379 0.77474827
-0.025556836 -0.47876701 0.77360344
0.02350579 -0.47794533 0.77417475
0.074957371 -0.47742394 0.77416211
0.12536706 -0.47649115 0.77443129
0.17504568 -0.47561616 0.77551997
0.22550675 -0.47451937 0.77556688
0.27534473 -0.47296515 0.77526325
0.32600734 -0.47279146 0.77640951
0.37512332 -0.47274232 0.77294827
0.42328569 -0.47428784 0.774248
0.47351053 -0.47572133 0.77526116
0.52535319 -0.47598097 0.77358943
0.57421404 -0.47607923 0.77432054
0.62298983 -0.47596368 0.77273244
0.67619079 -0.47738758 0.77604055
0.722969 -0.47765896 0.7742781
0.7749638 -0.47977445 0.77321333
0.8292346 -0.48271251 0.77774382
0.87110335 -0.48344854 0.77109206
0.92433095 -0.48666206 0.77646428
0.97063166 -0.48918882 0.77946198
1.0127609 -0.49119663 0.79195511
1.0793169 -0.50271177 0.84670246
-1.068702 -0.49580607 0.83545744
-1.0177008 -0.49210569 0.8280322
-0.97641164 -0.48990411 0.81760561
-0.92520785 -0.48818403 0.8219502
-0.876122 -0.48647797 0.8229804
-0.82360196 -0.48464999 0.82438713
-0.77349907 -0.48361599 0.82416779
-0.72090411 -0.48241121 0.8242538
-0.67467451 -0.48197097 0.82393068
-0.62342858 -0.48124209 0.82253963
-0.573744 -0.48060974 0.82225835
-0.52560925 -0.4805786 0.82575667
-0.47397643 -0.48084453 0.82366276
-0.42444479 -0.48129854 0.82391077
-0.37654078 -0.48140904 0.82461196
-0.32515454 -0.48170409 0.82301974
-0.27530161 -0.4819532 0.82455248
-0.22417036 -0.48187268 0.82375294
-0.17511882 -0.48139322 0.82469386
-0.12470251 -0.48086545 0.82518655
-0.074257232 -0.4799183 0.8239637
-0.025145909 -0.47934723 0.82285446
0.025202427 -0.47875702 0.82223815
0.074831456 -0.4782041 0.8252418
0.12533832 -0.47722208 0.82581401
0.17514443 -0.47608927 0.82522464
0.22460662 -0.47533333 0.82615727
0.27335703 -0.47391319 0.82485008
0.32498622 -0.47277048 0.82476848
0.37436271 -0.47298846 0.82360172
0.42412835 -0.47376755 0.82320476
0.47419402 -0.47638646 0.82568866
0.52411443 -0.4787662 0.82401294
0.57390612 -0.47828081 0.82426178
0.62523562 -0.47964221 0.82240158
0.67315435 -0.48015618 0.82394254
0.72573388 -0.48154458 0.82388425
0.77618885 -0.48294955 0.82405168
0.82677889 -0.48514196 0.82486963
0.87764579 -0.4877651 0.82765543
0.92697597 -0.49021631 0.82718968
0.97814906 -0.49396262 0.8295213
1.0240711 -0.49605536 0.82931656
1.0684342 -0.49771202 0.83426809
-1.1375868 -0.50023258 0.87900627
1.0411587 -0.50154394 0.86353052
1.0797123 -0.50275916 0.87919641
1.1107123 -0.50284714 0.87390763
-1.1615663 -0.4975858 0.89010608
-1.1182646 -0.49649951 0.88230616
-1.0718259 -0.49521437 0.87146515
-1.0257792 -0.49411362 0.8779884
-0.97309661 -0.49113682 0.86884159
-0.92313015 -0.48825034 0.8762995
-0.86939394 -0.48584595 0.87047541
-0.82749569 -0.48413202 0.87296933
-0.77398235 -0.48241833 0.87580305
-0.72498006 -0.48230746 0.87737679
-0.67435604 -0.48088953 0.87370616
-0.62403405 -0.4814907 0.87525916
-0.57460886 -0.48153201 0.87410426
-0.5226869 -0.48013711 0.87471473
-0.4757413 -0.48116961 0.87468779
-0.42477432 -0.48102677 0.87332618
-0.37328768 -0.48147845 0.87385321
-0.32585239 -0.48202133 0.87422699
-0.27522689 -0.48235917 0.87506849
-0.22536439 -0.48239923 0.87370628
-0.17421098 -0.48187912 0.87481171
-0.12481878 -0.4814924 0.87644702
-0.074899033 -0.48063418 0.87378281
-0.025784276 -0.48034528 0.87283087
0.02359942 -0.47947544 0.87260437
0.075161189 -0.47853431 0.87634581
0.12389997 -0.47779796 0.8749972
0.17429017 -0.47643811 0.87426686
0.22525685 -0.47526273 0.87392849
0.27501062 -0.4747653 0.87500614
0.32413685 -0.47382638 0.87579274
0.37463886 -0.47296897 0.8739059
0.42384446 -0.47399434 0.87273574
0.47329023 -0.47723371 0.87349081
0.52264839 -0.48123446 0.87421608
0.57339215 -0.48268929 0.87312067
0.6271472 -0.48496777 0.87476432
0.67475438 -0.48530477 0.87375587
0.7256133 -0.48572618 0.87197775
0.7739318 -0.48566994 0.8742885
0.82232219 -0.48798478 0.87549043
0.87497365 -0.49079412 0.87699729
0.9247784 -0.49196362 0.877294
0.97675079 -0.49595058 0.87625527
1.0204967 -0.49709955 0.87470788
1.0593715 -0.49755672 0.87167311
1.1149292 -0.49978849 0.87031442
-1.2212403 -0.50383842 0.9366169
-1.1617105 -0.50076306 0.94688284
-1.1420219 -0.50367546 0.94606602
0.97929466 -0.50235713 0.94228649
1.0237592 -0.50358456 0.92805916
1.0749344 -0.50411344 0.92677242
1.128877 -0.50588489 0.91930532
-1.1668673 -0.49780965 0.91763061
-1.1205909 -0.49744195 0.91557521
-1.0743717 -0.49737504 0.92516905
-1.0240821 -0.49454084 0.9276638
-0.97072017 -0.4902859 0.92411751
-0.92607671 -0.48916128 0.92345941
-0.87652546 -0.48592567 0.92220986
-0.82357138 -0.48340565 0.92319536
-0.7715584 -0.48272124 0.92685741
-0.72333372 -0.48155713 0.92729962
-0.67293745 -0.48036316 0.9247551
-0.62370962 -0.48077002 0.92709923
-0.57349503 -0.48038223 0.92417777
-0.52548367 -0.48057479 0.92497379
-0.47488451 -0.48110279 0.92438328
-0.4242124 -0.48150706 0.9263649
-0.37643063 -0.48181081 0.92508388
-0.32614556 -0.48220649 0.92397964
-0.27512538 -0.48296738 0.92484009
-0.22394827 -0.48276961 0.92456073
-0.17584941 -0.48239323 0.92566419
-0.12512001 -0.48184976 0.92792124
-0.075012356 -0.48111784 0.92377293
-0.024247428 -0.48052317 0.92372835
0.025744099 -0.47956026 0.92341906
0.074903652 -0.47853848 0.92565918
0.12508015 -0.47783709 0.92409068
0.17643231 -0.47641215 0.92362654
0.22518303 -0.47521469 0.92381442
0.27601179 -0.47482562 0.92526346
0.3254261 -0.47419414 0.92470491
0.37496698 -0.47350219 0.92468548
0.42428952 -0.47510958 0.92435825
0.47409689 -0.47804576 0.92305648
0.52395219 -0.4826 0.92309546
0.57710803 -0.48699284 0.9245103
0.62386203 -0.48803544 0.92080909
0.67317605 -0.49001276 0.92264515
0.72551769 -0.49086025 0.92132777
0.77774179 -0.49022847 0.9267922
0.82517111 -0.49000388 0.92322659
0.8745721 -0.49198133 0.92495155
0.92867637 -0.49654219 0.92858738
0.9708637 -0.49597025 0.91153318
1.0387022 -0.49839783 0.90649521
-1.2765913 -0.50664574 0.97963136
-1.2282627 -0.50596613 0.97079664
-1.1763108 -0.50592977 0.97668356
-1.1311277 -0.50192654 0.97526407
-1.0995342 -0.50173086 0.97712117
0.72704035 -0.50107068 0.97665113
0.93011969 -0.50156754 0.98614544
0.98089433 -0.50206739 0.97481239
1.0291654 -0.50304157 0.98352224
1.0727284 -0.5062837 0.97926545
1.1178204 -0.50843489 0.96223229
-1.1099863 -0.49830866 0.9692142
-1.070807 -0.49696362 0.97642726
-1.0226918 -0.4951936 0.97611642
-0.97974193 -0.49173704 0.97432077
-0.92659426 -0.48896953 0.970047
-0.87552381 -0.4855552 0.97636384
-0.8276906 -0.48420817 0.97435409
-0.77536309 -0.482337 0.97651333
-0.72391957 -0.48074311 0.97270393
-0.67387098 -0.48044702 0.97629023
-0.62263495 -0.48052365 0.97764885
-0.57445568 -0.48083654 0.97424316
-0.52453572 -0.48095217 0.9754166
-0.47524992 -0.48139787 0.9787634
-0.42504776 -0.48169023 0.97472614
-0.37556949 -0.48279405 0.97460896
-0.32593584 -0.48284212 0.97505516
-0.27583185 -0.4833197 0.97513443
-0.22548325 -0.48331648 0.97385484
-0.17425802 -0.48300225 0.97435933
-0.124366 -0.48214027 0.97629315
-0.075530328 -0.48204759 0.97538257
-0.026868742 -0.48144123 0.97552449
0.022919169 -0.47983375 0.97519994
0.075397775 -0.47888929 0.97491533
0.12435491 -0.47810081 0.97542393
0.17370437 -0.47666508 0.97381032
0.22446018 -0.47566703 0.9746694
0.27507162 -0.47509238 0.97402328
0.32527339 -0.47464326 0.97428817
0.37524626 -0.47483978 0.97634619
0.42484945 -0.47511411 0.97529155
0.47372615 -0.47843975 0.97329754
0.52404171 -0.483998 0.97032779
0.57317668 -0.49065778 0.97798491
0.62490946 -0.49212247 0.97267175
0.6732623 -0.49360725 0.9727971
0.72553885 -0.49629542 0.97435015
0.7757923 -0.49464181 0.97231323
0.82762444 -0.49397975 0.97303462
0.87506855 -0.49495643 0.97609383
0.92470264 -0.49740189 0.97283328
0.97100663 -0.49831301 0.96940565
1.0174441 -0.4990595 0.95511854
-1.3601824 -0.50779635 1.0336448
-1.325752 -0.5120635 1.0264496
-1.2718261 -0.51268941 1.0180006
-1.2259405 -0.51220471 1.0177577
-1.1762317 -0.50839597 1.0229106
-1.1314597 -0.50381899 1.022864
-1.0985259 -0.5007022 1.0042722
0.66058534 -0.50098842 1.0398766
0.72824603 -0.50099969 1.0239618
0.77848375 -0.50283664 1.032909
0.92407072 -0.50144827 1.0270063
0.97494221 -0.50316358 1.0285683
1.0233674 -0.50440967 1.0261052
1.078946 -0.50678247 1.0269367
1.1298411 -0.51049805 1.0294474
1.1766199 -0.51161349 1.0416567
1.3731149 -0.52526212 1.0372391
-1.1134782 -0.49978155 1.0498688
-1.0712414 -0.49641937 1.0287023
-1.0312638 -0.49541125 1.0231565
-0.98013288 -0.49255559 1.0225867
-0.92699766 -0.48998854 1.0263067
-0.87099046 -0.48635474 1.0272787
-0.82196933 -0.48427159 1.0249702
-0.77495492 -0.48224974 1.0258902
-0.72612613 -0.48116276 1.0286784
-0.67469758 -0.48012915 1.0244949
-0.62364209 -0.47924066 1.0227295
-0.57319492 -0.4799535 1.0234847
-0.52408004 -0.48018625 1.023836
-0.47394136 -0.48092037 1.0252004
-0.42488384 -0.48226073 1.0239234
-0.37452191 -0.48247394 1.0227811
-0.32431123 -0.48237333 1.022276
-0.27576137 -0.48329949 1.0253612
-0.2246531 -0.48371404 1.0240732
-0.17441128 -0.48359656 1.0234723
-0.12581465 -0.48283154 1.0258274
-0.07364668 -0.48239633 1.0229349
-0.025845628 -0.48141208 1.0232962
0.024295051 -0.48095584 1.027239
0.074257039 -0.47922972 1.0240287
0.12513027 -0.47857666 1.0246156
0.17486066 -0.47724709 1.0246323
0.2265688 -0.47618249 1.0246805
0.27486297 -0.47623658 1.0239453
0.3240582 -0.47568166 1.0248064
0.37511554 -0.47537616 1.0245649
0.42457667 -0.47519431 1.0251523
0.47486743 -0.47982809 1.0246296
0.52489883 -0.48645636 1.0224003
0.57685673 -0.49209535 1.0269809
0.62534523 -0.49535042 1.0277728
0.67557436 -0.49833545 1.0249748
0.72132927 -0.4986172 1.0278608
0.77921182 -0.49871224 1.0147949
0.82750475 -0.49668908 1.0220258
0.87652481 -0.4955968 1.0260018
0.92685002 -0.49774635 1.0352126
0.95621729 -0.49809644 1.0041778
-1.461689 -0.51598573 1.0980282
-1.4157602 -0.51632178 1.0800221
-1.385062 -0.51784706 1.0852895
-1.340727 -0.52031451 1.0693938
-1.2510939 -0.51712346 1.0648354
-1.22075 -0.51654851 1.0752995
-1.1685343 -0.5086031 1.0754324
-1.1210833 -0.50391781 1.0762751
-1.0789303 -0.50207448 1.0894074
0.63548195 -0.50201046 1.0865237
0.68380713 -0.50127029 1.0685042
0.72892052 -0.50143379 1.0749004
0.77757961 -0.50241315 1.0735574
0.81244212 -0.50181454 1.0765048
0.978064 -0.50173992 1.06769
1.0254655 -0.50510406 1.0759995
1.0780716 -0.50732541 1.0771753
1.1239023 -0.50991625 1.0823765
1.1623894 -0.51291656 1.0823065
1.2471439 -0.51421469 1.0922577
1.2768207 -0.51842165 1.0831904
1.3491964 -0.52517992 1.0835259
1.3734828 -0.52393627 1.0749663
1.4282957 -0.52584547 1.0859473
1.4555181 -0.52213311 1.0912571
-1.0720098 -0.49810636 1.0716563
-1.0268826 -0.49570942 1.0724257
-0.97362512 -0.49282467 1.0753635
-0.92524719 -0.49021095 1.0796149
-0.87392652 -0.4861933 1.0744035
-0.8239221 -0.48427054 1.0767707
-0.77042991 -0.48203111 1.0765561
-0.72189528 -0.48184755 1.0757855
-0.67279208 -0.4807426 1.0752684
-0.6221633 -0.47998506 1.072202
-0.57610732 -0.48036072 1.0728792
-0.52276319 -0.4809348 1.0759023
-0.4731932 -0.48101512 1.0748578
-0.42616954 -0.48305786 1.0757014
-0.37565988 -0.48261631 1.0712945
-0.3249397 -0.48369792 1.0745522
-0.27142346 -0.4832131 1.0731355
-0.22519033 -0.4840405 1.074851
-0.17698574 -0.48399436 1.0757502
-0.12385699 -0.48379722 1.0738292
-0.075515829 -0.48292458 1.0716789
-0.025777787 -0.48286986 1.0744393
0.025108257 -0.48128587 1.0734586
0.07573799 -0.48002261 1.0754355
0.1247724 -0.47891122 1.0748538
0.17461708 -0.47764984 1.0772121
0.22371568 -0.47696647 1.0754237
0.27504897 -0.47589281 1.0722396
0.32463971 -0.47582451 1.0741313
0.37589964 -0.4766787 1.0732056
0.42680115 -0.47618866 1.075816
0.474181 -0.4793092 1.0717059
0.52662647 -0.4881869 1.0742682
0.57450795 -0.49279094 1.0747494
0.6269387 -0.49696192 1.077756
0.6766504 -0.49783358 1.0813265
0.72035146 -0.49877703 1.0799477
0.76415664 -0.49850443 1.080623
0.82977968 -0.49767101 1.0693803
0.8722502 -0.49313414 1.0735223
0.92377353 -0.49294785 1.0781912
0.96328741 -0.49653718 1.0808324
-1.5031844 -0.51777464 1.1334003
-1.4852513 -0.52216125 1.1343488
-1.4135505 -0.53037298 1.1262083
-1.3981223 -0.53595883 1.1253214
-1.320084 -0.53354895 1.1280911
-1.2643942 -0.5217551 1.1238846
-1.2203799 -0.51832062 1.1282548
-1.1726213 -0.51089203 1.1240501
-1.1267455 -0.5061245 1.1219658
-1.0824481 -0.50153476 1.1159929
-1.0365294 -0.50074077 1.1192622
0.68125176 -0.50070179 1.1310533
0.72206968 -0.50046074 1.1313633
0.79733843 -0.50187457 1.1050208
0.8167848 -0.50142407 1.107298
0.98329896 -0.50074357 1.1021303
1.0277548 -0.50347555 1.1257646
1.0710806 -0.506414 1.1267713
1.1226459 -0.50883996 1.12612
1.1669437 -0.51093757 1.128571
1.2052792 -0.51613504 1.1387651
1.2684234 -0.5177387 1.1251897
1.3240123 -0.52330703 1.1227138
1.3697934 -0.52290815 1.1229018
1.4196036 -0.52308697 1.1250129
1.4685202 -0.51865929 1.123185
1.5075715 -0.51651263 1.1458783
-1.0570914 -0.49479717 1.1101421
-1.0287806 -0.4978539 1.1273965
-0.97432333 -0.49395239 1.1277856
-0.92448771 -0.48943463 1.1205993
-0.8768543 -0.48698527 1.1261626
-0.82463187 -0.48534223 1.1265167
-0.774854 -0.48384783 1.1271228
-0.72491139 -0.48227036 1.1253424
-0.67540532 -0.48111787 1.1247866
-0.62535495 -0.47967523 1.1203502
-0.57429093 -0.48030129 1.1217693
-0.52517235 -0.47992077 1.1229417
-0.47476983 -0.48086977 1.1267272
-0.42328408 -0.48257571 1.125559
-0.37415341 -0.483814 1.1254296
-0.32396185 -0.48422176 1.1268264
-0.27600765 -0.48359534 1.1205889
-0.22359902 -0.48409033 1.1238065
-0.17388526 -0.48476666 1.1268803
-0.12550525 -0.48401061 1.1268554
-0.075216256 -0.48362994 1.1226043
-0.026126619 -0.48238567 1.1229086
0.024070287 -0.48093471 1.1189816
0.073651128 -0.47964132 1.124315
0.12597968 -0.47902772 1.1242238
0.17618723 -0.47852933 1.1268935
0.22404912 -0.47776142 1.1264971
0.27434462 -0.47589499 1.1238166
0.32536343 -0.47577602 1.1224887
0.3729322 -0.4772183 1.1253321
0.42464676 -0.47842661 1.1244516
0.47322521 -0.47855896 1.1265355
0.52350974 -0.48832771 1.1239252
0.57631695 -0.49456692 1.1266463
0.62624806 -0.49733946 1.1246988
0.67707658 -0.49749601 1.1308253
0.73012578 -0.49750116 1.1275871
0.77566129 -0.49782422 1.1235756
0.82784128 -0.49452803 1.1261145
0.87605828 -0.48714158 1.1251491
0.92383164 -0.47888008 1.1265556
0.97091556 -0.48502478 1.1274813
1.0148251 -0.49702945 1.1450062
0.94415265 -0.41279012 1.1465781
0.96528196 -0.41216394 1.1469232
0.94324476 -0.39115667 1.1479908
0.96711153 -0.38574827 1.1470071
0.83224034 0.44257367 1.1443325
0.86208141 0.44534698 1.1437674
0.79928541 0.46557456 1.1490536
0.82468677 0.47492874 1.1396729
0.86611354 0.46203899 1.133981
0.79934412 0.51198667 1.147646
0.81626302 0.51124823 1.1415348
-1.5908625 -0.52381092 1.1988876
-1.5194954 -0.52831018 1.1740818
-1.4747508 -0.5386011 1.1743416
-1.383855 -0.54674518 1.1873443
-1.2642665 -0.52218777 1.1771985
-1.2244848 -0.51745933 1.1730103
-1.1681306 -0.5131827 1.1801946
-1.1282394 -0.51130927 1.1708503
-1.0775465 -0.50496989 1.1804644
-1.0291576 -0.50219798 1.1770874
1.0790132 -0.50397027 1.1707536
1.1226212 -0.50760239 1.1741669
1.1697406 -0.50991899 1.1742976
1.2238405 -0.51525325 1.1709203
1.2758827 -0.51817483 1.169818
1.3291636 -0.5245344 1.1782614
1.3760188 -0.52516007 1.1697428
1.419528 -0.52088207 1.1751102
1.4751505 -0.51700205 1.1747766
1.5199417 -0.50939482 1.17127
1.5563023 -0.50651592 1.1912217
-1.0561312 -0.49870461 1.1905708
-1.0252978 -0.4978902 1.1744298
-0.97501296 -0.49298614 1.1750761
-0.93070424 -0.49185178 1.1709452
-0.87398767 -0.48744404 1.1733677
-0.82396853 -0.48625374 1.1758654
-0.77019829 -0.48252913 1.1703475
-0.7262764 -0.48309872 1.1797086
-0.67415738 -0.48074031 1.1722958
-0.62718707 -0.48107609 1.1756678
-0.57459915 -0.48008808 1.1741279
-0.52460343 -0.48089266 1.1750201
-0.4733583 -0.48154593 1.1763785
-0.4241215 -0.48269859 1.1789896
-0.37450457 -0.48313656 1.1746143
-0.32457826 -0.48388505 1.1747782
-0.27427986 -0.48471171 1.1727228
-0.22453974 -0.4842557 1.1733373
-0.17563568 -0.48510867 1.1787935
-0.12474212 -0.48480937 1.173884
-0.074270658 -0.48382458 1.1700171
-0.026167911 -0.48291069 1.1730967
0.025626328 -0.48139977 1.1728458
0.076157622 -0.48042154 1.1743783
0.12519927 -0.47911865 1.1751146
0.17474407 -0.47779253 1.1709727
0.22593403 -0.47750309 1.1754769
0.2763001 -0.47557777 1.1742849
0.32350162 -0.47542286 1.1727374
0.37647098 -0.47678512 1.1797724
0.4263078 -0.47817242 1.1728679
0.47411147 -0.47825575 1.1794819
0.52441221 -0.48548549 1.1724468
0.57265157 -0.49376118 1.1713855
0.62377578 -0.49649534 1.1743956
0.67224133 -0.49578983 1.1770821
0.72620809 -0.49397498 1.1738937
0.77648956 -0.49216247 1.1732469
0.82726169 -0.48708835 1.1753101
0.87579429 -0.47558323 1.1726934
0.91953832 -0.46474135 1.1758975
0.97408044 -0.47102052 1.1756055
1.0235243 -0.48844314 1.1745203
1.0531036 -0.4955197 1.1803246
0.88659531 -0.42002973 1.1887089
0.92113948 -0.4272683 1.1625904
0.9751423 -0.43311691 1.1544285
0.8837418 -0.37507227 1.1881247
0.92084432 -0.37242618 1.1643811
0.96653253 -0.36217022 1.1553822
1.0023216 -0.38987228 1.1642133
0.89189327 -0.34142143 1.1944959
0.92537719 -0.33360612 1.1855695
0.96620667 -0.33977517 1.1778002
0.78209007 0.43953127 1.1778802
0.82356781 0.42666385 1.1718026
0.87488937 0.42361906 1.172658
0.90833992 0.43230826 1.1709042
0.72632843 0.49005514 1.1955699
0.77589083 0.47390833 1.1708169
0.80312896 0.48117754 1.1500434
0.8939749 0.45677906 1.1526036
0.90260941 0.45424575 1.151504
0.74843872 0.50940531 1.1984022
0.77431577 0.5135349 1.1703001
-1.616007 -0.52821016 1.2356068
-1.5752528 -0.53258657 1.2286628
-1.5286332 -0.53799373 1.216067
-1.4929379 -0.54749399 1.2186487
-1.4178668 -0.54190004 1.2400123
-1.3870755 -0.54328877 1.2208765
-1.3196359 -0.52872992 1.2265555
-1.2694206 -0.51980358 1.2279116
-1.2262661 -0.5194478 1.2084433
-1.1722425 -0.51985252 1.2337618
-1.1121665 -0.50987536 1.2377396
-1.0783488 -0.5087921 1.2474492
-1.0223161 -0.50162357 1.232241
-0.97899002 -0.50107181 1.2238419
1.0863233 -0.50175512 1.2130933
1.1285917 -0.51013792 1.2319345
1.1712509 -0.51088846 1.2295275
1.2232417 -0.51535189 1.2206322
1.2770926 -0.5169974 1.2276068
1.3282747 -0.51831943 1.2248503
1.3761927 -0.51936537 1.2229514
1.4252702 -0.5165692 1.2230996
1.4782071 -0.51179194 1.2219453
1.5221431 -0.50484443 1.2207347
1.5690674 -0.50314611 1.2113947
1.6035377 -0.5021044 1.2250309
-1.0366055 -0.49849159 1.2237105
-0.97120434 -0.49717754 1.2317156
-0.92438287 -0.49281159 1.2286345
-0.87596148 -0.48924044 1.2238568
-0.82276684 -0.4850128 1.2260767
-0.77400029 -0.4835518 1.221278
-0.72409338 -0.48181549 1.2255862
-0.67700863 -0.48062909 1.2223463
-0.62501407 -0.48084077 1.2255956
-0.57793158 -0.48023003 1.2249448
-0.52817512 -0.48038992 1.2230068
-0.4752064 -0.48162806 1.2245837
-0.42492223 -0.48349008 1.2269127
-0.37499958 -0.48407897 1.2282712
-0.3266454 -0.48382455 1.2253473
-0.27389091 -0.48525774 1.2243382
-0.22664867 -0.48520267 1.2267687
-0.17329498 -0.48401576 1.2264501
-0.12424631 -0.48467663 1.221119
-0.075252295 -0.48399898 1.2221673
-0.025463331 -0.48191184 1.2255701
0.023472821 -0.48079234 1.2279204
0.074086621 -0.47956815 1.2237442
0.1258008 -0.47865286 1.2241882
0.1758343 -0.47760275 1.2227747
0.2251666 -0.47730944 1.2267156
0.2746942 -0.47612017 1.2247828
0.32427403 -0.47481406 1.2219561
0.37524384 -0.47447473 1.2257407
0.42589831 -0.47722507 1.2245495
0.4758361 -0.47673392 1.2274328
0.5264731 -0.47952905 1.2226715
0.57756639 -0.49014667 1.2260067
0.62537968 -0.49164182 1.2252017
0.67439359 -0.48911712 1.2253635
0.72591221 -0.48821637 1.2252252
0.77608782 -0.48262402 1.227108
0.82242346 -0.47807711 1.2234777
0.87519372 -0.46861413 1.2281964
0.90747702 -0.46114677 1.2167333
1.0339245 -0.48579237 1.2097068
1.0711168 -0.49503174 1.2310147
1.5383089 -0.49906883 1.2184517
1.5809475 -0.49655589 1.2369789
1.6110207 -0.49005786 1.2404838
0.79391557 -0.40625894 1.2480605
0.82790494 -0.42010981 1.2357974
0.86277217 -0.42415762 1.213251
0.79288524 -0.37620321 1.246608
0.82580721 -0.37190774 1.2284354
0.86143202 -0.37113294 1.2074949
0.83118421 -0.33655792 1.2402455
0.87486202 -0.32422587 1.2232093
0.91998285 -0.31157097 1.2205528
0.96353453 -0.32101226 1.2209282
0.8946467 -0.29616082 1.2462776
0.91521114 -0.29825285 1.2468367
0.84720266 0.39855018 1.2309293
0.8807168 0.38645697 1.2410899
0.74452639 0.44557163 1.2427526
0.77227783 0.42901596 1.2245566
0.82230926 0.41181415 1.2213969
0.87977123 0.40408903 1.2233425
0.92417437 0.41681412 1.223485
0.73824072 0.47322598 1.2282262
0.75482291 0.47443289 1.2105696
0.74570698 0.50535804 1.2106534
0.75243646 0.50529826 1.2071184
-1.477198 -0.55496866 1.269083
-1.6646039 -0.52908158 1.2730843
-1.6115842 -0.53686506 1.2715757
-1.4238043 -0.54321182 1.2628
-1.3702155 -0.53367674 1.281852
-1.3312517 -0.53132576 1.2803917
-1.1800723 -0.52385288 1.2664211
-1.120163 -0.51214236 1.278471
-1.0720472 -0.50578451 1.2835778
-1.0215884 -0.50622642 1.2773566
-0.97108161 -0.50132149 1.2913294
1.1347289 -0.50533462 1.2696208
1.1649152 -0.50769126 1.276556
1.2262962 -0.51450384 1.2816834
1.2701659 -0.51226491 1.270558
1.320785 -0.5116818 1.278154
1.3812785 -0.51337415 1.2767036
1.4272243 -0.50994992 1.2762451
1.4733027 -0.5065707 1.2696632
1.5137337 -0.50286835 1.2619752
-1.0079629 -0.49882406 1.2738793
-0.97091293 -0.49664751 1.2738178
-0.92407858 -0.49216589 1.2676051
-0.87979054 -0.49089751 1.2736704
-0.82711661 -0.48678055 1.2791821
-0.77669305 -0.48322374 1.2697912
-0.72791666 -0.4829897 1.2806994
-0.67415273 -0.48230883 1.2750669
-0.62729585 -0.48197693 1.2762632
-0.57406664 -0.48148543 1.2773074
-0.52085173 -0.4814578 1.2755475
-0.47405943 -0.48136261 1.275493
-0.42436457 -0.48202831 1.2795272
-0.37428695 -0.48388305 1.2777917
-0.32403085 -0.48481646 1.2730339
-0.27539879 -0.48508886 1.2741731
-0.2258618 -0.48562121 1.275087
-0.17473947 -0.48515144 1.2766657
-0.12467352 -0.4838151 1.2728026
-0.076688863 -0.4830077 1.2715192
-0.02630882 -0.48097664 1.2736233
0.024888687 -0.47958469 1.2758547
0.07714162 -0.47826245 1.274772
0.12430736 -0.4789716 1.2736987
0.17401566 -0.47733951 1.275021
0.22582881 -0.4766072 1.2718954
0.27342314 -0.47621378 1.2750872
0.32648277 -0.47482094 1.2741712
0.37308317 -0.47407049 1.2740846
0.42616487 -0.47537351 1.2785617
0.47531298 -0.47713724 1.2758218
0.52431661 -0.47461811 1.275704
0.57668054 -0.48083249 1.2770256
0.62431711 -0.48168942 1.2774814
0.67531341 -0.47692093 1.2758236
0.72556448 -0.4737432 1.2748818
0.77599406 -0.47180867 1.2775199
0.82423836 -0.46906516 1.280475
0.86206543 -0.4669489 1.2624836
1.0897045 -0.49288762 1.2600362
1.1149453 -0.4967227 1.2755142
1.4823281 -0.49843812 1.2935569
1.5348498 -0.49773899 1.2764647
1.5797157 -0.4846788 1.2787821
1.6185074 -0.46811709 1.2711122
0.67467022 -0.42387506 1.2923856
0.72550333 -0.42075604 1.2811328
0.77424145 -0.42372832 1.2649753
0.80729485 -0.43592095 1.2552652
1.6179712 -0.4273023 1.2831805
0.6495291 -0.39607936 1.2989843
0.67906642 -0.37629277 1.2915337
0.72672814 -0.37264973 1.2762455
0.76951921 -0.37177098 1.2584422
1.6181293 -0.37507671 1.2873416
0.69236255 -0.3434003 1.2971371
0.72929096 -0.33556339 1.2899057
0.77560478 -0.3307853 1.2749629
0.82204551 -0.31660846 1.2706933
0.86204749 -0.30685866 1.2606623
0.93867409 -0.30236724 1.2576101
1.6164634 -0.32274458 1.2885232
0.83388662 -0.28832424 1.2913598
0.87406433 -0.27547672 1.2768641
0.91420776 -0.27685761 1.2730585
1.611882 -0.27572498 1.2932749
0.88579464 -0.23870903 1.2949982
0.90411782 -0.24515577 1.2904338
1.6095976 -0.22897184 1.2943751
1.6062207 -0.1777771 1.2938582
1.6049469 -0.1249796 1.297701
1.5980821 -0.062897801 1.2957062
1.6024405 -0.090500623 1.2979684
1.5978088 -0.024134004 1.2964319
1.6021079 -0.035630245 1.2997853
1.594826 0.010006756 1.2941241
1.6003705 0.028332436 1.29839
1.5917077 0.073595941 1.2897985
1.6014791 0.080138944 1.2973661
1.5991986 0.11044924 1.2936643
1.6069251 0.11557736 1.2995185
0.88093328 0.23033492 1.2914076
0.92482948 0.2274241 1.2787621
0.87951511 0.27331576 1.2917435
0.92081338 0.2745311 1.2777053
0.95441782 0.27691409 1.2836449
1.0569192 0.29088405 1.2999043
0.87949944 0.31943342 1.2934647
0.92103529 0.32380027 1.2773712
0.95623243 0.31744736 1.2784989
1.0442774 0.32850596 1.2970312
0.83411676 0.38426232 1.2810051
0.87273449 0.38330817 1.2715975
0.92541784 0.37702808 1.2849264
0.96813542 0.38265541 1.2890186
1.0228935 0.36826429 1.292123
0.73730898 0.44128841 1.2560662
0.77288431 0.42266679 1.2732805
0.82402617 0.40348694 1.2733316
0.87436116 0.40174666 1.2536938
0.93280381 0.40850964 1.271487
0.95353377 0.41135556 1.2752167
0.7328757 0.45546889 1.2502668
-1.638597 -0.56043386 1.3419626
-1.5581315 -0.55533171 1.3398614
-1.5235627 -0.5526405 1.3338163
-1.7669227 -0.52654672 1.3478198
-1.7231697 -0.5376181 1.3432355
-1.6885005 -0.542934 1.3293101
-1.6384954 -0.54264456 1.3026012
-1.512267 -0.54731917 1.3424306
-1.486284 -0.54703999 1.3162391
-1.4384562 -0.54457361 1.3481629
-1.3638912 -0.52778155 1.3246295
-1.3296452 -0.52982521 1.3179346
-1.2942878 -0.52813917 1.3084919
-1.2175711 -0.53091389 1.3300235
-1.1729668 -0.52098286 1.3252255
-1.1264381 -0.5139029 1.3298717
-1.0746853 -0.51127934 1.3284956
-1.028412 -0.50690132 1.3248489
-0.98369837 -0.50213432 1.3263276
1.1808201 -0.50844741 1.3227749
1.2231878 -0.50943267 1.3278692
1.2732399 -0.50946623 1.3249017
1.3237257 -0.50732291 1.3286941
1.3742106 -0.50605685 1.3230122
1.4294109 -0.50515473 1.3196267
1.4635417 -0.50118881 1.3002868
1.519129 -0.50164402 1.3021123
-0.96815753 -0.49755159 1.3315495
-0.9239313 -0.49386561 1.3184488
-0.87412524 -0.49008989 1.3205122
-0.82182771 -0.48542285 1.3231039
-0.77305645 -0.4835031 1.3231057
-0.72268355 -0.48218912 1.3266779
-0.67458403 -0.48154134 1.3213199
-0.62715137 -0.48234197 1.3227909
-0.57481796 -0.48035198 1.3255826
-0.52572733 -0.48075804 1.3247719
-0.47705656 -0.48182526 1.3254328
-0.42547634 -0.48178077 1.3318266
-0.37798563 -0.48277995 1.3250237
-0.32769415 -0.48390007 1.3221092
-0.27468237 -0.48518249 1.3213711
-0.22221987 -0.4847334 1.324407
-0.17298448 -0.4835926 1.3223349
-0.12529902 -0.48396716 1.3235167
-0.074527308 -0.48231447 1.3253086
-0.024715293 -0.48110312 1.3250542
0.022280149 -0.47853297 1.3240491
0.073455371 -0.47722992 1.3225777
0.1280635 -0.47709188 1.3266344
0.17512569 -0.47627789 1.3218691
0.22549082 -0.47654578 1.3213232
0.27832448 -0.47627148 1.3265225
0.32423696 -0.47437024 1.3229151
0.37586302 -0.47167403 1.3245006
0.42251933 -0.47263554 1.3237165
0.47505713 -0.47553882 1.3246601
0.52657986 -0.4729172 1.3242378
0.57591659 -0.47040457 1.3246229
0.62365991 -0.46702668 1.3209208
0.67208195 -0.46356228 1.3129057
0.72460616 -0.46547171 1.3119278
0.77154213 -0.46919268 1.3077384
1.1660219 -0.49540085 1.325074
1.3815296 -0.49601185 1.3477892
1.4254384 -0.49751422 1.3412913
1.4730184 -0.49541447 1.3247337
1.5289811 -0.48231143 1.3307031
1.569018 -0.47011328 1.319307
0.62538469 -0.42432594 1.3183901
0.67638111 -0.44367227 1.3005962
1.5462204 -0.43623686 1.3470684
1.5747184 -0.42704159 1.3229223
0.62674195 -0.37573379 1.3237226
0.65826041 -0.35881296 1.3065311
1.575213 -0.37488258 1.326082
1.6001216 -0.39380765 1.3018068
0.64294434 -0.33999991 1.3382102
0.67507851 -0.32959491 1.3245564
0.71974677 -0.31370977 1.317866
0.77341825 -0.30802131 1.3096925
0.80371255 -0.30848092 1.3011801
1.5742911 -0.32274464 1.3292493
1.6021574 -0.32270035 1.3019346
0.68814844 -0.29448932 1.3430971
0.72979981 -0.2903066 1.340722
0.77717102 -0.27624685 1.3268205
0.82089597 -0.26742724 1.3124744
0.85759372 -0.25314614 1.302215
0.93070078 -0.25948617 1.3073717
1.5779809 -0.27643365 1.3258419
0.7922166 -0.23324157 1.3434983
0.82618082 -0.223372 1.330672
0.87020832 -0.21997163 1.3100083
0.91260654 -0.21887141 1.3113699
1.5735871 -0.22425403 1.3281533
1.60199 -0.21510343 1.3026459
0.83037388 -0.17380264 1.3391311
0.87398738 -0.17345434 1.3200691
0.91271961 -0.1753318 1.3190345
1.5497364 -0.17314433 1.347929
1.5783807 -0.17403632 1.3234518
1.6119822 -0.1554098 1.3008832
0.83009642 -0.12545344 1.337481
0.872796 -0.12254475 1.3216521
0.91702938 -0.1208216 1.3275391
1.5472243 -0.14087762 1.3488817
1.577579 -0.12734498 1.3251834
1.6134545 -0.13714255 1.3037164
0.844688 -0.086984903 1.3478869
0.8751632 -0.074815333 1.339469
0.91844326 -0.074198656 1.3354543
1.0371054 -0.059098933 1.3444076
1.5747997 -0.076848656 1.325987
0.88429451 -0.041961588 1.3476881
0.91426182 -0.037402268 1.3464936
1.029278 -0.022174802 1.3312551
1.5728505 -0.026521377 1.3259236
1.0306072 0.019374646 1.3314953
1.053681 0.034907706 1.3368968
1.5717185 0.023684382 1.3248905
1.6057099 0.031497266 1.302581
1.0401937 0.073710196 1.3390694
1.0562614 0.073427536 1.3388313
1.5432628 0.075206198 1.3466381
1.5735086 0.073543504 1.3233539
1.6048841 0.055887643 1.3012648
1.0390352 0.12362737 1.3423066
1.0594195 0.12773795 1.3340331
1.5456302 0.11497784 1.3490742
1.5745375 0.11515152 1.3230836
1.6255119 0.13090652 1.3134761
1.0464002 0.17914028 1.3426422
1.0569224 0.17219545 1.336174
0.74461979 0.22920245 1.3444284
0.7753526 0.23231365 1.3353171
0.82475728 0.22949533 1.3147268
0.85469627 0.22596946 1.3017741
1.0343331 0.23420413 1.3339052
1.0648345 0.22832726 1.3277551
0.74585283 0.27205762 1.3460888
0.77486545 0.27193576 1.3355708
0.82443702 0.27227145 1.3148264
0.85629791 0.27812231 1.3033414
1.0327921 0.27731809 1.3276964
1.0565295 0.27098075 1.3110911
0.74894518 0.30191347 1.3471413
0.77777684 0.32370993 1.3384531
0.8234936 0.3242147 1.3183279
0.85919803 0.33006671 1.3080506
0.99479711 0.33763966 1.3132551
1.0246347 0.32108745 1.3187175
0.78779489 0.36372748 1.33913
0.82146412 0.37618315 1.3259214
0.87363327 0.36588967 1.3223952
0.99285442 0.36343598 1.3048651
1.015361 0.35892418 1.3049381
0.78351676 0.42467871 1.3237631
0.81681257 0.40969393 1.3319335
-1.6638429 -0.55432212 1.3730018
-1.6302605 -0.55782408 1.3766112
-1.5806488 -0.55549604 1.3711416
-1.4702395 -0.55135846 1.3523235
-1.7646247 -0.53364927 1.3806161
-1.7145784 -0.54040456 1.3715749
-1.6897179 -0.54749149 1.371709
-1.5263238 -0.54810947 1.3839724
-1.4870576 -0.54639441 1.3777612
-1.4297433 -0.53507447 1.3764369
-1.3737149 -0.5371297 1.3694606
-1.3466508 -0.52827358 1.3509618
-1.2597166 -0.53712642 1.3772693
-1.230044 -0.52957052 1.3807259
-1.1704485 -0.51614451 1.369509
-1.1247057 -0.51467949 1.3680364
-1.0697757 -0.51243794 1.3715134
-1.0227252 -0.50726563 1.3805208
-0.98070568 -0.50283098 1.3715208
1.2327791 -0.50425684 1.3584566
1.2713144 -0.50359881 1.3676242
1.3111292 -0.50255752 1.36277
1.3550808 -0.50333178 1.3602048
-0.96532291 -0.49712792 1.3746622
-0.92917913 -0.49409795 1.3648193
-0.87402266 -0.49174595 1.3807633
-0.82227767 -0.48714125 1.3698994
-0.77650547 -0.48599485 1.3827403
-0.72179264 -0.48202464 1.3761321
-0.67428523 -0.48161221 1.3761258
-0.6266675 -0.48055622 1.3731145
-0.57674569 -0.48061821 1.374139
-0.5262931 -0.48012456 1.3790934
-0.47317651 -0.48136699 1.3733727
-0.42330652 -0.48121667 1.3757751
-0.3738085 -0.48266074 1.36933
-0.32405674 -0.48297733 1.3711057
-0.27677321 -0.48409596 1.373389
-0.22606418 -0.48391145 1.3738323
-0.17596258 -0.48321781 1.3764362
-0.12530959 -0.48344842 1.3727721
-0.073275007 -0.48119169 1.3734012
-0.025995977 -0.47941941 1.3752887
0.027089048 -0.47784588 1.3750385
0.075458206 -0.47700471 1.378267
0.12237357 -0.47560787 1.3730605
0.17394176 -0.47538334 1.3747693
0.22581424 -0.47510016 1.3749658
0.27202007 -0.47553259 1.37095
0.32522219 -0.47401994 1.3733968
0.37368065 -0.47128922 1.3763294
0.42289087 -0.47041482 1.3721503
0.47079787 -0.47263947 1.373656
0.52413952 -0.47108942 1.3694383
0.57080609 -0.46666929 1.3716152
0.60933608 -0.46224192 1.3724931
1.2199199 -0.49249977 1.3727859
1.2757286 -0.49610618 1.3901254
1.3249812 -0.49606746 1.3786759
1.3730524 -0.49136537 1.3801026
1.428564 -0.47933182 1.3809047
1.4770929 -0.47486246 1.3751893
1.5181047 -0.46618128 1.3636063
0.60661876 -0.42343998 1.3630325
1.44107 -0.42745727 1.3941895
1.4763076 -0.42490095 1.389478
1.5234513 -0.42526969 1.3685635
0.61146683 -0.37209445 1.3634508
1.4441888 -0.39170894 1.3995012
1.4738923 -0.37403119 1.3925757
1.5277517 -0.37475261 1.3714488
1.5506328 -0.36998296 1.3500991
0.6366396 -0.33582073 1.3582209
0.66954213 -0.31349179 1.3557825
1.4455961 -0.32610974 1.3979412
1.4768997 -0.32714558 1.3929614
1.5263143 -0.32247144 1.3726043
0.73194188 -0.27708286 1.3555777
0.75802469 -0.26173151 1.3576199
1.4405117 -0.26281285 1.3974394
1.4747198 -0.27618465 1.3931513
1.5247269 -0.27518523 1.3711895
1.551145 -0.27573657 1.352026
0.776254 -0.22389576 1.3672991
1.4412675 -0.22741227 1.3961538
1.4767182 -0.22503984 1.3929034
1.5259764 -0.22410724 1.3715767
0.78501344 -0.1760855 1.3760014
0.8064611 -0.16845144 1.3569098
1.4419107 -0.17115623 1.3966123
1.4703599 -0.17623432 1.3927637
1.5212883 -0.17309797 1.3735955
1.5509436 -0.15495661 1.3508679
0.78772247 -0.12906252 1.3787279
0.81041974 -0.11319552 1.3607349
1.4439844 -0.12836173 1.3962681
1.4801365 -0.12623903 1.3908693
1.5268025 -0.12596917 1.3688455
0.79496372 -0.085063979 1.3903427
0.82346129 -0.071720533 1.3694037
0.85905385 -0.055866301 1.3543531
0.94408935 -0.052083895 1.3505603
1.0289216 -0.078017958 1.3625944
1.0519867 -0.054530099 1.3789362
1.4461515 -0.078847066 1.3975602
1.4784513 -0.076288842 1.3923399
1.5270525 -0.076847434 1.3691349
0.83091044 -0.028435299 1.3852686
0.8725965 -0.022726545 1.3636113
0.92839444 -0.019511744 1.3553547
0.97435671 -0.026453486 1.3697689
1.0095791 -0.017653758 1.3681068
1.0652586 -0.046229988 1.3514338
1.4458692 -0.026258767 1.3965738
1.4776405 -0.026459504 1.3931292
1.5248706 -0.026585147 1.3687541
0.8428629 0.0076578027 1.3929921
0.87597674 0.022162683 1.3831178
0.92249835 0.022605361 1.3705413
0.96220016 0.027408583 1.3823797
1.0297093 0.027777663 1.3617262
1.4465047 0.018597499 1.3972222
1.4765648 0.023311181 1.3920512
1.5244654 0.023557873 1.3683097
0.88822711 0.057310227 1.3939506
0.92424279 0.069009021 1.3910502
0.96118069 0.066637844 1.3952377
1.0347836 0.073805779 1.3629121
1.4479709 0.072502837 1.397016
1.4771651 0.074825749 1.3930663
1.5190628 0.073644176 1.3703775
1.0366985 0.12421142 1.3713307
1.4702016 0.11220059 1.393401
1.5202492 0.11594645 1.3735782
1.0444739 0.1758564 1.3618954
1.0561637 0.17304942 1.3954078
0.75299048 0.24447995 1.3798077
1.0353783 0.22253862 1.363008
1.0625496 0.20652139 1.3533971
0.74789387 0.25369349 1.3690068
0.75311077 0.26275814 1.3775344
1.0250647 0.25998408 1.3539071
0.75945497 0.33856753 1.3603085
0.77770698 0.38448212 1.3683609
0.80639261 0.39880848 1.3504611
0.7424317 0.40750995 1.3820379
0.77843153 0.41716382 1.3755041
0.80785602 0.41669142 1.3551499
-1.7012165 -0.55337226 1.4118314
-1.6723446 -0.55387527 1.4304436
-1.6259882 -0.55414373 1.4160753
-1.5817471 -0.5530287 1.4104991
-1.8276803 -0.52557111 1.4298277
-1.7733238 -0.53000975 1.4318178
-1.7295101 -0.54368907 1.4245588
-1.6948256 -0.54780227 1.4461197
-1.6349182 -0.548168 1.4460914
-1.5721884 -0.54775167 1.4279581
-1.5170398 -0.54079914 1.4330287
-1.474221 -0.53785318 1.4200525
-1.434196 -0.54316902 1.4172398
-1.2660599 -0.53667897 1.4119616
-1.2307458 -0.52684212 1.42014
-1.1797109 -0.52357167 1.4283309
-1.0806849 -0.51430899 1.4152443
-1.0287218 -0.50514179 1.4171184
-0.97639257 -0.50519001 1.4331431
-0.92857885 -0.50101149 1.4225953
-0.90186656 -0.4912824 1.4186286
-0.87729919 -0.49453416 1.438247
-0.82809377 -0.4899399 1.4274515
-0.76842856 -0.48142311 1.4169811
-0.72545588 -0.48266333 1.42189
-0.67434275 -0.48086563 1.4286706
-0.62064636 -0.47922742 1.4256603
-0.57474715 -0.48022363 1.4225931
-0.52060336 -0.47953489 1.4259769
-0.47153801 -0.48094559 1.4258624
-0.42481565 -0.48108199 1.423609
-0.37626985 -0.48304981 1.4202863
-0.32820717 -0.484198 1.4260367
-0.27140135 -0.48405075 1.4202929
-0.22650306 -0.48365811 1.4252118
-0.17651583 -0.48401269 1.423949
-0.12274334 -0.48092717 1.4198428
-0.077026434 -0.48003811 1.4222529
-0.0255791 -0.47906518 1.424855
0.021286812 -0.47741851 1.4252703
0.074488491 -0.47536254 1.4252931
0.12454132 -0.47425401 1.419029
0.17741475 -0.47452146 1.423105
0.22307578 -0.4743686 1.4247286
0.27307767 -0.47533444 1.4172467
0.32361686 -0.4747307 1.4237628
0.37465164 -0.47191364 1.4270668
0.42660934 -0.47021949 1.426321
0.48012364 -0.47230908 1.4246509
0.52750772 -0.47138706 1.4239031
0.57410532 -0.46782294 1.4255466
0.61791468 -0.46583575 1.4239737
1.2466102 -0.48243153 1.4135016
1.2750262 -0.48363328 1.4262718
1.3301648 -0.47843099 1.4341552
1.3735437 -0.46967378 1.423242
1.4120898 -0.46543875 1.4058486
1.247817 -0.44685918 1.4423383
1.3488144 -0.42868543 1.4451847
1.3739932 -0.42597848 1.4341308
1.4162329 -0.42325652 1.4101703
1.3778342 -0.37494794 1.436547
1.4227636 -0.37383869 1.4122242
1.3747932 -0.32342649 1.4366398
1.4179614 -0.32500935 1.4130857
1.3780346 -0.27423307 1.4356735
1.4206263 -0.27549189 1.4113753
1.3745694 -0.22564431 1.4383953
1.4160068 -0.22295024 1.4123744
1.3765246 -0.17344992 1.4350983
1.418623 -0.17419006 1.4111227
0.78281552 -0.11497124 1.4067506
1.374947 -0.12342364 1.4364666
1.4178473 -0.12304759 1.4109882
0.74656379 -0.052237198 1.4418695
0.78447396 -0.07246682 1.4178987
0.80291927 -0.055444408 1.4037588
1.3747675 -0.076562308 1.4366971
1.4183512 -0.074374996 1.4109933
0.73268127 -0.025891339 1.4383193
0.79263139 -0.024473934 1.438218
0.80889028 -0.020830426 1.4187772
1.3738451 -0.027327646 1.4363908
1.4184844 -0.026191691 1.4114825
0.74033427 0.026388267 1.4475061
0.76419055 0.0069070281 1.441695
0.8254351 0.022650814 1.4226477
0.85481596 0.045291536 1.4042804
1.3752801 0.022811672 1.4372839
1.4191184 0.022963246 1.4120628
1.4510579 0.045652933 1.4010854
0.83869833 0.068794698 1.4349259
0.87213236 0.078701712 1.4159306
0.91283196 0.092860304 1.406836
0.97766191 0.082205489 1.4126618
1.0065097 0.087973848 1.4384459
1.3777868 0.076246709 1.4350411
1.421755 0.076756395 1.4129534
0.84662259 0.10002183 1.444878
0.87998265 0.12052147 1.4384748
0.92261565 0.12546259 1.4245951
0.96945226 0.12013173 1.4278376
1.0530071 0.11975173 1.4073042
1.3810216 0.11659005 1.4360679
1.4232582 0.11717927 1.4120231
1.4916066 0.12862732 1.4012467
0.88170695 0.18081687 1.4344072
0.91945684 0.17592388 1.4215449
0.95974571 0.18114761 1.430167
1.0631506 0.1736955 1.4133146
1.7668982 0.19262412 1.4228315
0.87325335 0.20965435 1.4344059
0.92596513 0.20634386 1.413633
0.96719342 0.20775008 1.421716
1.0540918 0.20755796 1.4005357
1.7411125 0.22022739 1.444333
1.7692251 0.22331321 1.4348283
0.69272822 0.29300362 1.4458803
0.73004472 0.25670692 1.4460176
0.73592168 0.38542056 1.4420663
0.76540428 0.37716541 1.4316068
0.73631185 0.40588814 1.4294577
0.75894237 0.40522167 1.4152919
1.776125 0.59758961 1.4458734
1.8165035 0.58942097 1.4426159
1.8061289 0.60067153 1.4330218
-1.6208863 -0.55022788 1.47035
-1.820224 -0.51546186 1.4727747
-1.7687913 -0.51863027 1.4682895
-1.7213339 -0.52813971 1.4696143
-1.6810234 -0.53731334 1.4790831
-1.6269958 -0.54624403 1.4777914
-1.5755793 -0.54501063 1.4838581
-1.5297666 -0.54360044 1.4807588
-1.4941936 -0.53820682 1.4663846
-1.2745091 -0.5301556 1.4913429
-1.2288456 -0.52833796 1.4656668
-1.1936603 -0.52710652 1.464008
-1.1209013 -0.52746922 1.4833301
-1.0676898 -0.51630425 1.488482
-1.0188895 -0.50939947 1.4732138
-0.97344363 -0.50709963 1.4679978
-0.94757921 -0.50563657 1.4841794
-0.90769225 -0.49521124 1.4635849
-0.87849742 -0.49478513 1.4756967
-0.83645326 -0.49127206 1.4747194
-0.77956331 -0.48710185 1.4734521
-0.73281932 -0.48572108 1.4711537
-0.67590994 -0.47954804 1.4725747
-0.62747377 -0.47956944 1.4739056
-0.57879877 -0.4819271 1.4762686
-0.52398735 -0.48038238 1.4715194
-0.47768724 -0.48003244 1.4801053
-0.42358124 -0.48272693 1.4736593
-0.37354842 -0.48245108 1.4719297
-0.32517758 -0.4838253 1.4714032
-0.28053603 -0.48523292 1.4722974
-0.22428641 -0.48483771 1.4776396
-0.17471974 -0.48418111 1.4689295
-0.12508327 -0.48150656 1.4766624
-0.075561762 -0.47976846 1.4722872
-0.02434683 -0.47774598 1.4708557
0.023670619 -0.47615862 1.474269
0.073978297 -0.47562769 1.4723676
0.12678503 -0.47459826 1.470432
0.17241858 -0.47463357 1.47352
0.22444396 -0.47443503 1.4778805
0.2743113 -0.47558305 1.4721384
0.32651573 -0.47635189 1.4760572
0.37866783 -0.47251394 1.4747707
0.42687979 -0.46856719 1.4763836
0.47457767 -0.46874383 1.4744129
0.52598089 -0.47323409 1.4714364
0.57409763 -0.46964681 1.477831
0.62389606 -0.46880144 1.4770838
1.2887357 -0.46352237 1.4603672
1.3168473 -0.4603315 1.4565634
-1.8737183 -0.42036498 1.4964796
1.2377536 -0.40688711 1.4831963
1.2792941 -0.42241946 1.4801059
1.3251791 -0.42265391 1.4612134
-1.8827918 -0.37485391 1.4905846
1.1924181 -0.37886679 1.482918
1.2798101 -0.37605968 1.4898946
1.3245349 -0.3772577 1.4643227
1.3547044 -0.36008495 1.4504249
-1.8815947 -0.34238398 1.4957185
1.2815048 -0.32482359 1.4902043
1.3237191 -0.32682952 1.4665123
1.3510389 -0.33213881 1.4520273
-1.8796904 -0.2716108 1.4957374
1.2808644 -0.27654037 1.4907907
1.3244879 -0.27644581 1.4661287
1.3567393 -0.28200006 1.4502392
-1.870652 -0.22770125 1.4941846
1.2787002 -0.22590689 1.4896117
1.3237894 -0.22667935 1.4668736
1.3508047 -0.23165713 1.4513043
-1.8683771 -0.16896877 1.4985354
1.2826407 -0.17541051 1.488835
1.3259757 -0.17273967 1.4642847
1.2799164 -0.1277574 1.4908409
1.3233625 -0.12364106 1.46557
1.3567214 -0.14203614 1.4506935
0.74287397 -0.059064448 1.4677044
0.77156544 -0.061597589 1.4590762
1.176703 -0.068182066 1.4921672
1.2822533 -0.075565517 1.4914849
1.3228854 -0.074838586 1.4677618
1.3519615 -0.061628249 1.4502908
-1.8547977 -0.020011088 1.4949006
0.6943208 -0.0073139877 1.4522972
0.72495377 -0.024947135 1.4651774
0.7911548 -0.030320603 1.4577491
0.8010506 -0.037880462 1.450291
1.1977342 -0.029713156 1.486933
1.2043997 -0.012569441 1.495389
1.280443 -0.026558774 1.4913158
1.3221072 -0.026080921 1.4682842
1.3516582 -0.017224247 1.4509387
-1.8557233 0.0010962215 1.4957117
0.69679338 0.00013198968 1.4574763
0.72450513 0.021654954 1.4562186
0.77912778 0.027150581 1.4660685
0.80799484 0.031419128 1.465917
1.2771169 0.022505825 1.491789
1.3214297 0.022632668 1.4674829
1.3515289 0.022726083 1.450595
0.72907603 0.075945348 1.4679559
0.76296145 0.074946456 1.473335
0.82139456 0.072820604 1.4756557
1.2791718 0.077101305 1.4903436
1.3220544 0.07579305 1.4665878
1.3533529 0.076095879 1.4509497
-1.8659486 0.13913634 1.498408
0.7315079 0.1256216 1.4777732
0.76353812 0.12498039 1.4790639
0.83964843 0.1141244 1.481488
0.86375678 0.13444996 1.4645509
1.209216 0.11763036 1.4974753
1.2792481 0.11534595 1.4906236
1.3249167 0.11590736 1.4675386
1.3549385 0.11623204 1.4503654
-1.8673888 0.17643678 1.4962677
0.73263508 0.17539637 1.4792025
0.75971341 0.17234677 1.4811721
0.84992409 0.19468835 1.4600493
0.8650434 0.17281264 1.4666337
0.97578973 0.16344713 1.4628271
1.730944 0.19411975 1.4856811
1.7690105 0.19502755 1.4615064
-1.86483 0.22132286 1.4892366
0.73383647 0.22405529 1.4834547
0.76669925 0.22713181 1.4878954
0.84528905 0.20983514 1.4739132
0.85608131 0.21961339 1.468141
1.5994858 0.24573027 1.4903473
1.6172168 0.24201223 1.4891409
1.6841679 0.22235659 1.4857941
1.7196298 0.2199425 1.4651253
-1.8763919 0.26273662 1.4932261
0.69511759 0.27895898 1.4530096
0.72831041 0.27704826 1.4703995
0.77608359 0.27140167 1.4782956
0.8016423 0.27205133 1.4942024
0.72805685 0.32649425 1.4620222
0.77235311 0.32683614 1.4698411
1.7854275 0.34312621 1.4717833
0.72925317 0.36745358 1.4555001
0.77713776 0.35526043 1.4572687
1.7297491 0.35051569 1.4984342
1.7808646 0.37090302 1.4840823
1.8170708 0.37661195 1.4656224
1.7862116 0.42191043 1.4916975
1.8200381 0.42367202 1.4769675
1.8506721 0.41540131 1.4736406
1.7974645 0.48021173 1.4933304
1.8218199 0.47317314 1.4772478
1.8671274 0.49697649 1.4875535
1.6717952 0.53535348 1.474947
1.7170841 0.53811175 1.4784632
1.7987553 0.52188641 1.4997867
1.8277782 0.52175254 1.4839894
1.6823771 0.56955028 1.4895082
1.7243518 0.57948285 1.4861933
1.7756046 0.57850432 1.4759622
1.8220184 0.57124639 1.4713268
1.7583655 0.86563885 1.4673095
-1.4922698 -0.55178857 1.5374179
-1.7132189 -0.51169205 1.5341486
-1.6758952 -0.52840555 1.525798
-1.6250683 -0.53709227 1.5315075
-1.5767038 -0.53897291 1.5234846
-1.520963 -0.54400873 1.5132583
-1.3668027 -0.54137164 1.5362979
-1.323846 -0.53173554 1.523092
-1.2938646 -0.52719712 1.523581
-1.1630884 -0.52945971 1.5349543
-1.1195127 -0.5234164 1.5199597
-1.0706257 -0.51430535 1.5164578
-1.020889 -0.51440001 1.5253994
-0.967502 -0.51002884 1.5263441
-0.92535204 -0.50368142 1.5394733
-1.7539363 -0.49633497 1.5372491
-1.7142786 -0.47026119 1.5183089
-0.91199642 -0.49881914 1.5325394
-0.87820548 -0.49485874 1.5094341
-0.83077365 -0.49487931 1.5264857
-0.76794231 -0.48872384 1.5248752
-0.7248795 -0.48465669 1.5143393
-0.67447799 -0.47914046 1.5191252
-0.62440634 -0.47853479 1.5233518
-0.57267666 -0.48192751 1.5243266
-0.52357346 -0.47923973 1.5289057
-0.47249907 -0.48050156 1.5283917
-0.42405578 -0.48180288 1.5260061
-0.37439033 -0.48284492 1.525714
-0.32504383 -0.48385519 1.5272118
-0.27368852 -0.48400086 1.5216917
-0.22171696 -0.48396224 1.517512
-0.17714263 -0.48385727 1.5203706
-0.12637977 -0.48032078 1.530162
-0.073726945 -0.47939175 1.5222672
-0.026477536 -0.47757551 1.522946
0.024437746 -0.47701445 1.5266522
0.076445952 -0.47482011 1.5232894
0.12443563 -0.47505414 1.5213696
0.17936002 -0.47440591 1.5215621
0.22358947 -0.47295699 1.526392
0.27522013 -0.47437355 1.5275165
0.325308 -0.47577381 1.5216448
0.3758803 -0.47257626 1.5245118
0.42414996 -0.46887299 1.5265683
0.47608855 -0.46835449 1.527042
0.522439 -0.47438368 1.5195731
0.57510275 -0.47172758 1.5275609
0.62237662 -0.46886367 1.522368
0.65838069 -0.46561944 1.5252737
-1.855476 -0.42685571 1.5173179
-1.8409836 -0.42245665 1.5343072
-1.7015437 -0.44047135 1.5019624
-1.8597764 -0.37449533 1.5175948
-1.8447665 -0.37795877 1.541298
1.1849226 -0.35985729 1.5289397
1.228916 -0.3707082 1.5159602
1.2553241 -0.37546167 1.5035079
-1.9057119 -0.31325826 1.5107307
-1.8678247 -0.32337376 1.5182142
-1.8482859 -0.32177877 1.5403947
1.1313913 -0.31953907 1.5377115
1.1787523 -0.32367209 1.5417194
1.2235073 -0.32362688 1.5206687
1.2558579 -0.32658815 1.5039898
-1.866706 -0.27721104 1.5187774
-1.8467669 -0.27313238 1.5468727
1.0942801 -0.27053905 1.5307589
1.1040101 -0.25560421 1.5467041
1.1853718 -0.27414641 1.5421607
1.2241788 -0.27551904 1.5203427
1.2557255 -0.2718682 1.5023416
-1.8635997 -0.22265078 1.5256282
-1.8435887 -0.24583593 1.5479578
-1.7258669 -0.22680815 1.5447855
1.0954047 -0.2149089 1.5392686
1.183444 -0.22475135 1.5425458
1.2245464 -0.22487068 1.5205705
1.25457 -0.22093797 1.5033683
-1.8645614 -0.17593122 1.5259647
1.0929304 -0.1842801 1.538815
1.1865655 -0.17591581 1.5421401
1.2244074 -0.17608689 1.5203321
1.2579348 -0.17642842 1.5026536
-1.8626591 -0.12720805 1.5263211
1.1412398 -0.11183783 1.5267138
1.1853242 -0.12414008 1.5376755
1.225737 -0.12850705 1.5205826
1.2571186 -0.12442566 1.5035027
-1.8613894 -0.073485449 1.5183029
-1.8490607 -0.052485034 1.5480293
1.0962062 -0.059532795 1.5342312
1.1248611 -0.077408321 1.5395409
1.1778454 -0.081211261 1.5195204
1.227102 -0.077223659 1.5149565
1.258531 -0.072798871 1.503638
-1.8595047 -0.026603479 1.5179803
-1.8330591 -0.0096289245 1.5450473
1.0796982 -0.016532589 1.5119195
1.1206115 -0.031131005 1.5293776
1.1577581 -0.040323537 1.5403794
1.2329072 -0.027490282 1.5077342
1.256894 -0.024910452 1.5033498
-1.8593951 0.02719211 1.5142032
-1.8427194 0.016442744 1.538837
1.0931294 0.030146759 1.530513
1.1309997 0.01757703 1.5450265
1.2277811 0.02230569 1.5074649
1.2522877 0.022423288 1.5040487
-1.8623257 0.075684123 1.5186733
-1.8471241 0.075886533 1.54527
