ply
format ascii 1.0
comment PCL generated
element vertex 1515
property float x
property float y
property float z
element camera 0
property float view_px
property float view_py
property float view_pz
property float x_axisx
property float x_axisy
property float x_axisz
property float y_axisx
property float y_axisy
property float y_axisz
property float z_axisx
property float z_axisy
property float z_axisz
property float focal
property float scalex
property float scaley
property float centerx
property float centery
property int viewportx
property int viewporty
property float k1
property float k2
end_header
0.82607788 0.97486544 2.7186368
-2.6789224 1.0252566 2.7278016
-1.7253466 1.0251276 2.725966
0.78461331 1.0285625 2.7447941
0.82115942 1.0205702 2.723177
0.85334247 1.024248 2.704771
-2.703604 1.0810666 2.7014897
-2.6868081 1.0722079 2.7281544
-1.7219449 1.0787364 2.7239344
0.79375881 1.0726562 2.7450733
0.82714069 1.0740662 2.7248487
0.85923177 1.080407 2.709727
-2.7054932 1.1221774 2.712837
-2.6924858 1.1203078 2.7375114
-1.7276096 1.1256725 2.7218118
0.79693156 1.1194724 2.7438622
0.82621759 1.1266059 2.7254107
0.858823 1.1301097 2.7068481
-2.7101762 1.171248 2.7121296
-2.6923144 1.176772 2.7377071
-1.7206271 1.1777713 2.7272787
0.79497927 1.1565495 2.7445471
0.8248741 1.1796994 2.7293468
0.86188734 1.1736784 2.7061315
-2.7052794 1.2217475 2.7234538
-2.6904008 1.2231226 2.7420673
-1.7242123 1.2306167 2.7221448
-1.6992857 1.2350875 2.7479882
0.79101461 1.2171738 2.7493687
0.82556719 1.2261373 2.7341115
0.86446887 1.224046 2.7106969
-2.7118273 1.2808318 2.7167072
-2.6994019 1.2632717 2.7369208
-1.7193 1.2740288 2.7255459
0.8275286 1.273409 2.7336221
0.86644757 1.2762154 2.7119658
-2.7155466 1.3298706 2.7224331
-2.6961691 1.3246312 2.7450867
-1.7278183 1.3266659 2.7340631
0.83231187 1.3252549 2.7355874
0.86647886 1.3234279 2.7112818
-2.7108555 1.3728523 2.7233365
-1.7361966 1.3735502 2.7213218
0.83250505 1.3745037 2.7381406
0.87188888 1.3751264 2.71207
-2.7212787 1.4258327 2.7206328
-1.7511818 1.4080504 2.701473
-1.7388157 1.4252577 2.7284329
0.82858646 1.4220178 2.7410362
0.86759073 1.432011 2.7202165
-2.7176821 1.47279 2.7286792
-1.7575043 1.4900936 2.7159481
-1.742643 1.4783071 2.7321782
0.83539647 1.472434 2.7419975
0.87787724 1.4796243 2.714129
0.91306305 1.4964846 2.7003109
-2.7281165 1.5247627 2.724978
-1.7605288 1.5271307 2.7205157
0.83936656 1.5235599 2.7430701
0.86935556 1.5268661 2.7222633
0.90102786 1.5229485 2.7025256
-2.7295253 1.5723845 2.7225492
-1.7655193 1.5684264 2.7145777
0.83925158 1.5744478 2.746208
0.8741203 1.5726037 2.7202003
0.90702099 1.5701404 2.7041423
-2.7269673 1.6280334 2.7276902
0.84403926 1.620979 2.7450542
0.8750332 1.618619 2.7218497
0.90993136 1.6336598 2.7060668
-2.728924 1.6717486 2.7196717
0.848665 1.6675913 2.7426076
0.87483454 1.6748388 2.7285893
0.90454078 1.6744289 2.7068536
-2.7527277 1.7275454 2.7010443
-2.7365046 1.7197404 2.7246435
0.84061319 1.7273299 2.7473607
0.87827319 1.7242148 2.7270706
0.91029358 1.7229004 2.7053366
-2.7560272 1.7982447 2.7078805
-2.7401867 1.7657247 2.7252231
0.84580493 1.7763225 2.7450726
0.87403005 1.7715056 2.7300274
0.90912843 1.773159 2.7070413
-2.7595227 1.8194833 2.7007332
-2.7373736 1.8236188 2.7309315
0.87850475 1.8268307 2.7283604
0.91429013 1.8245806 2.7069201
-2.7560711 1.8774006 2.7050104
-2.734355 1.8820584 2.7358153
0.84063375 1.8599962 2.7497985
0.87910509 1.8730559 2.7317829
0.91931981 1.8810351 2.7096972
-2.7529521 1.9266295 2.7145615
-2.7368259 1.9287236 2.7335286
0.87574548 1.9249308 2.734015
0.91392916 1.9218285 2.7120075
-2.7589235 1.9761138 2.7152102
-2.7377598 1.9816508 2.7468176
0.87623501 1.9705735 2.7358997
0.9246543 1.9714998 2.7104185
-2.7563486 2.0278063 2.7166617
-2.7469614 2.0174012 2.738574
0.8754285 2.020901 2.7396576
0.92057556 2.0209739 2.7164738
-2.7624431 2.0775697 2.7242603
-2.7470732 2.080653 2.7442374
0.88967139 2.0672944 2.7374539
0.92068738 2.0753527 2.7197828
-2.7620721 2.1238053 2.7172639
-2.7449968 2.1430898 2.7470474
0.88000405 2.1143742 2.741118
0.91984987 2.1297314 2.7186337
-2.7604561 2.1770782 2.7261355
0.88770419 2.1734653 2.7385054
0.92521334 2.1745179 2.7129307
0.95452887 2.159574 2.7004058
-2.7554092 2.2289724 2.7232361
-2.7413139 2.2149665 2.7411914
0.92275757 2.2276778 2.7216494
0.9595108 2.2383828 2.7061758
-2.7609968 2.2719486 2.7191465
-2.7430499 2.2922585 2.7397559
0.88696462 2.265568 2.7409916
0.92294258 2.2652075 2.7192519
0.95434153 2.2618222 2.7055192
-2.7564669 2.3068137 2.70486
-2.7412224 2.3296142 2.727917
-2.722127 2.3598096 2.7323985
-2.6848342 2.3799288 2.7299039
-2.6403279 2.3889391 2.7462363
-2.5759468 2.3769159 2.7184823
-2.5421731 2.3728244 2.7358565
-2.4750116 2.371937 2.7240403
-2.4275322 2.3858814 2.7431424
-2.3768418 2.3836038 2.7254822
-2.3249874 2.3889272 2.7231445
-2.2819006 2.3898408 2.7229214
-2.2207699 2.3828549 2.7249033
-2.1732583 2.38622 2.7278376
-2.119494 2.3773429 2.7252827
-2.0753536 2.3787727 2.7337465
-2.0237534 2.3803368 2.7243757
-1.9746259 2.3839319 2.7169018
-1.9208354 2.3763726 2.7232845
-1.8824568 2.3738725 2.7244129
-1.8221302 2.3688161 2.7271519
-1.7682081 2.3649905 2.7239649
-1.726004 2.3696136 2.723784
-1.5658734 2.3920031 2.7313519
-1.5475582 2.3998027 2.7321911
-1.4717619 2.378624 2.7189293
-1.4269724 2.3693609 2.7266984
-1.3745711 2.3753543 2.7248039
-1.3288178 2.378305 2.7357228
-1.2778358 2.3761039 2.7446833
-1.6151438 2.4040363 2.7439082
0.18343168 -0.50671053 2.7617371
-0.02661931 -0.48680952 2.768399
0.18332916 -0.46719891 2.7853978
0.18562254 -0.42571503 2.7894726
0.20482644 -0.42292732 2.7892108
0.19160986 -0.38976744 2.7961154
0.2043469 -0.37506536 2.7870519
0.69679117 -0.35335922 2.7785752
0.71920586 -0.35102409 2.7556205
-0.049429093 -0.34305993 2.7522938
0.1915476 -0.34933025 2.7986596
0.44570544 -0.32160091 2.7743955
0.46319181 -0.32445991 2.7976193
0.68260509 -0.32674098 2.7731309
0.7283752 -0.32509926 2.7658482
0.76032573 -0.33102441 2.7521653
0.47653413 -0.28378767 2.7979457
0.63792109 -0.26310807 2.7742362
0.68173426 -0.27957082 2.7850657
0.72720844 -0.27639744 2.770324
0.75938547 -0.26312345 2.7536082
-1.1118321 -0.21026349 2.7914922
0.52952856 -0.22925147 2.7891126
0.64223886 -0.23096044 2.794996
0.68730712 -0.22195765 2.7950101
0.72872818 -0.22358648 2.7739043
0.76180154 -0.2265958 2.7542026
-1.1283665 -0.16453534 2.7862296
0.63139111 -0.17361557 2.7503362
0.69236648 -0.17689605 2.7946675
0.72938937 -0.17630249 2.7786064
0.76610929 -0.17537719 2.7569072
-1.1395326 -0.12372334 2.7720449
0.64200944 -0.14936376 2.7976213
0.68902397 -0.12409692 2.7958522
0.72872269 -0.12869371 2.777806
0.76405996 -0.12506501 2.7549455
-1.151284 -0.069361411 2.759222
-1.1393428 -0.076920658 2.786953
0.63742185 -0.074125439 2.7795429
0.68522322 -0.08321508 2.7957387
0.72739631 -0.074740767 2.7722383
0.76269597 -0.078519709 2.7560139
-1.1533691 -0.027680708 2.7646992
-1.1414264 -0.03067545 2.7888024
0.68703026 -0.025159653 2.7946091
0.72764164 -0.026975699 2.7755454
0.76441836 -0.02683215 2.7543342
-1.1580458 0.02407237 2.7598591
-1.1413105 0.018236026 2.7896473
0.50948024 6.5026514e-05 2.7986522
0.57908088 0.027065286 2.7891557
0.62730348 0.020361789 2.7816291
0.67863983 0.01679441 2.790005
0.72749388 0.020391267 2.7749801
0.76488161 0.02031705 2.7559943
-1.15851 0.08153899 2.7637138
-1.1454245 0.076040298 2.7902098
0.69643891 0.074830428 2.7911291
0.72754467 0.074547924 2.7744937
0.76457494 0.074202932 2.7542405
-1.1580045 0.12554578 2.7588406
-1.1469903 0.12647289 2.785073
0.029990982 0.13969076 2.7861238
0.697743 0.12941778 2.7949953
0.72838116 0.12883651 2.7763305
0.76422167 0.12530397 2.7553499
-1.1609915 0.17487001 2.766566
-1.1462282 0.18011387 2.7887559
0.029798582 0.17852214 2.7667353
0.69854957 0.17727977 2.7964652
0.72889453 0.17638785 2.7765782
0.76436853 0.1781998 2.7553728
-1.158632 0.22825374 2.770757
-1.1457726 0.21044198 2.7785251
0.029981865 0.22615135 2.7815444
0.69295543 0.22408487 2.7961586
0.72938097 0.22400013 2.7760534
0.76529962 0.22385967 2.7549844
-1.1621805 0.27411222 2.7763445
0.034352332 0.27678752 2.775492
0.6994741 0.27304694 2.7949727
0.73035389 0.27865809 2.7764401
0.76706928 0.2771948 2.7544243
-1.1594961 0.3225024 2.7661433
0.035652261 0.3225593 2.7713768
0.69464183 0.31701356 2.7952962
0.72890466 0.327793 2.7777903
0.76644403 0.32210082 2.7540078
0.034538779 0.36900839 2.7788165
0.68793786 0.35602379 2.7996325
0.72169971 0.37410957 2.7823315
0.75779849 0.37634644 2.7608974
0.7210722 0.42385945 2.783253
0.76173002 0.42548722 2.7585227
-2.6252921 0.48911294 2.7748253
0.69112432 0.48833758 2.7992902
0.72179145 0.47218096 2.7807853
0.75900239 0.47660801 2.758579
-2.7151062 0.50673759 2.7577503
-2.6196628 0.52000552 2.7715476
-2.5977888 0.51803815 2.7948775
-1.399749 0.52116913 2.7687159
0.6919713 0.52337319 2.7984867
0.72461778 0.52661121 2.7796285
0.76268893 0.5229758 2.7576628
-2.6200132 0.57086879 2.7773333
0.69309223 0.57249665 2.7965951
0.72363389 0.57543349 2.7813392
0.76174504 0.57398427 2.7561104
-2.6245077 0.62375331 2.7723305
0.6949119 0.62239796 2.7969153
0.72741377 0.62500221 2.7767334
0.76102883 0.62309688 2.7550423
-2.6223195 0.67731071 2.775655
0.69694465 0.67277688 2.7974072
0.72654563 0.67439228 2.7777035
0.76156819 0.66906917 2.7541864
-2.6218011 0.72594059 2.7763252
-1.6463858 0.74229515 2.7896483
0.69860387 0.72302979 2.7957652
0.7318148 0.72356361 2.7752774
0.76037169 0.7226547 2.7539368
-2.6254845 0.77028865 2.7790697
-1.6626428 0.77314812 2.7783022
0.69508237 0.75668907 2.7951486
0.7215178 0.77598166 2.7839839
0.75715381 0.77457947 2.7595875
-2.6305244 0.82201356 2.7717969
-1.6844721 0.82468754 2.7756987
0.72346276 0.82529896 2.7821558
0.75916916 0.82519388 2.7571218
-2.6359992 0.87843078 2.775811
-1.6880205 0.87244099 2.7731926
0.6910482 0.8560313 2.79952
0.7248044 0.87552947 2.7837675
0.76217622 0.87718028 2.7575643
-2.6502402 0.93300474 2.7591102
-2.6370068 0.92572808 2.7809269
-1.6820005 0.92233407 2.7739482
0.72568852 0.92559475 2.7830939
0.76564187 0.92313737 2.7605202
-2.6592805 0.97149467 2.7577724
-2.6414993 0.97402871 2.785696
-1.7006356 0.99869394 2.7551093
-1.6872356 0.97213435 2.7779093
0.7283287 0.97258925 2.7841058
0.76494569 0.97391695 2.759902
-2.6574762 1.0305681 2.7722828
-2.6435089 1.0231094 2.7939682
-1.7044491 1.0317389 2.7522609
-1.6878995 1.0202955 2.7787189
0.72783697 1.0235535 2.7853675
0.75962561 1.0241914 2.7624817
-2.6585748 1.0807567 2.7687216
-2.646615 1.059925 2.7855728
-1.7089019 1.0788482 2.7577665
-1.6912893 1.0720893 2.7814662
0.73039687 1.0761983 2.7883101
0.76868916 1.0770918 2.7621529
-2.6668463 1.1270586 2.7682667
-2.6436739 1.1285592 2.7945349
-1.7040529 1.1185368 2.7602005
-1.6889744 1.1240035 2.7850838
0.73194265 1.1278255 2.7866709
0.77155477 1.1237928 2.7602684
-2.6671176 1.1757951 2.769053
-2.649966 1.1671237 2.7882574
-1.7053819 1.1505039 2.7521362
-1.6936636 1.1740929 2.7773407
0.73477906 1.1773552 2.7883704
0.76980078 1.1775219 2.7673581
-2.6727161 1.2273363 2.7746191
-1.6908596 1.2241746 2.7780335
0.73468661 1.2307426 2.7929671
0.77055967 1.2219521 2.7648954
-2.675144 1.2778817 2.7762251
-1.7002186 1.2945859 2.7652798
-1.6921135 1.2707584 2.7777066
0.73927635 1.2767093 2.791357
0.77473468 1.2706056 2.7660472
0.80060619 1.289916 2.7634547
-2.6802075 1.3256607 2.7735667
-1.705494 1.3291464 2.7749369
-1.695155 1.3107636 2.7876873
0.73926359 1.3326824 2.7900193
0.77393383 1.3228891 2.7676902
0.8076337 1.3209431 2.7563007
-2.6780751 1.3792917 2.7752438
-1.7137184 1.3704342 2.7770495
0.73949444 1.376232 2.7980833
0.7728346 1.3775383 2.7757339
0.80610877 1.3717839 2.7564583
-2.684279 1.4192072 2.7731643
-1.7211164 1.4209853 2.7745669
0.74189049 1.410236 2.7962914
0.77700001 1.4262217 2.7752547
0.80784208 1.4287827 2.7577283
-2.7046764 1.4852169 2.7610743
-2.6902859 1.4710745 2.7786393
-1.7262555 1.4727645 2.7757804
0.74725389 1.472508 2.79655
0.77515012 1.4764585 2.7809455
0.80913883 1.4782358 2.7594659
-2.7051234 1.5275676 2.7612517
-2.6857719 1.5204012 2.7891102
-1.7332029 1.5308465 2.7753816
0.74869829 1.5051541 2.7901025
0.77167958 1.5243759 2.7805338
0.81443423 1.5267743 2.754987
-2.7043681 1.5694904 2.759706
-2.6847737 1.5755876 2.7844002
-1.7593193 1.5683113 2.7638254
-1.7352355 1.5686698 2.7773905
0.74112278 1.5803945 2.7958972
0.77680898 1.5765432 2.7812197
0.81749475 1.5740435 2.7607875
-2.7061729 1.6244534 2.7613449
-2.6897094 1.6219969 2.7845995
0.74421716 1.6096764 2.7977414
0.77502042 1.6260678 2.7869394
0.81640363 1.6257299 2.7600682
-2.7109687 1.6849246 2.7636878
-2.6924276 1.6838605 2.7871966
0.77627122 1.6731323 2.7857184
0.82128602 1.6733093 2.7591217
-2.7119923 1.7208272 2.7597263
-2.6930695 1.7278817 2.7854605
0.77977312 1.7268448 2.7838511
0.82284921 1.7213598 2.7628136
-2.7092793 1.7701155 2.7640057
-2.6947379 1.7886925 2.7968001
0.77505398 1.7786515 2.7890677
0.81797284 1.7747275 2.7657509
-2.7089071 1.8204073 2.777812
0.77963734 1.8235828 2.7882006
0.82346666 1.8253335 2.7643762
0.85247719 1.8211862 2.7507641
-2.714819 1.8706809 2.7683079
-2.698175 1.8804371 2.7928672
0.78296739 1.8713446 2.7921963
0.81927216 1.8808602 2.7689927
0.8605383 1.8851697 2.7516084
-2.7159035 1.9298458 2.7722373
0.78566951 1.9207693 2.7917917
0.82641059 1.9197913 2.764318
0.85148495 1.9468399 2.7503047
-2.7113471 1.9790655 2.7802627
0.78966427 1.9767258 2.7938206
0.82562822 1.9758415 2.7674921
0.85854524 1.9946622 2.7546687
-2.7282622 2.0347996 2.7669847
0.79169291 2.017813 2.7941475
0.82625985 2.0337842 2.7764738
0.85054857 2.0451608 2.7651551
-2.7196977 2.0776813 2.7771122
0.79207146 2.0592048 2.7996945
0.82321286 2.0754607 2.7772074
0.86105168 2.075233 2.7564337
-2.7273924 2.1299188 2.7742105
0.7980563 2.1153274 2.7960358
0.82864875 2.1215248 2.7753608
0.85962141 2.1235456 2.7593973
-2.7310662 2.1750851 2.7739596
0.82776994 2.1700499 2.7825027
0.85952067 2.1760569 2.7661963
-2.7260683 2.2167289 2.7857394
0.82634956 2.2208271 2.785753
0.869892 2.2243352 2.7593594
-2.7332931 2.269465 2.7767453
0.7827574 2.2869523 2.7846355
0.82344842 2.2765474 2.7831016
0.86679405 2.2646925 2.7563765
-2.7193813 2.3259642 2.7740512
-2.6744182 2.367923 2.7766731
-2.6295388 2.3871856 2.7777064
-2.5736992 2.3823805 2.783591
-2.5224168 2.3726337 2.7502718
-2.4648862 2.3550327 2.7587428
-2.4334307 2.370131 2.7801771
-2.3756626 2.3823843 2.7741497
-2.3263993 2.390866 2.7750952
-2.2633107 2.3842311 2.7581139
-2.2258461 2.3848722 2.7851741
-2.1732366 2.3880062 2.7784584
-2.1225119 2.3829811 2.7798686
-2.0732973 2.3790896 2.7818444
-2.0226829 2.3823061 2.7738371
-1.977143 2.3815117 2.7784879
-1.9295486 2.377789 2.7791367
-1.8740402 2.3740995 2.7770605
-1.8277721 2.3816226 2.7873352
-1.7701954 2.3737261 2.7788594
-1.7170186 2.3646677 2.7799761
-1.6770421 2.3685253 2.766011
-1.6113979 2.380681 2.7511477
-1.5567405 2.3696077 2.7821317
-1.5206342 2.3741605 2.7734482
-1.4809407 2.3654392 2.7729244
-1.4264426 2.3683839 2.773246
-1.3778793 2.3676932 2.7803884
-1.326087 2.3726947 2.7694542
-1.2904838 2.3822458 2.7849429
-1.2250118 2.3905354 2.785243
-0.97518885 -0.45376024 2.8410847
-0.96079624 -0.42663354 2.827003
-0.93984699 -0.436335 2.8281848
0.17853259 -0.40403491 2.8011837
-0.96246463 -0.37356177 2.8338583
0.18106686 -0.37452123 2.8134458
-0.96286941 -0.32434639 2.8391962
0.18510814 -0.32292911 2.8052082
0.4420737 -0.31516635 2.8395441
0.46737936 -0.30010632 2.8248899
-0.96600074 -0.27988967 2.8441458
0.4976733 -0.26074716 2.8416319
0.52167034 -0.27264091 2.8187275
0.66559041 -0.25929248 2.8027394
-1.1003734 -0.2121169 2.8218157
-1.0755194 -0.21281052 2.8384554
-0.97205937 -0.24022539 2.8495138
0.044036124 -0.22316794 2.8305879
0.075386338 -0.23383389 2.8215578
0.1113147 -0.23595206 2.8191366
0.52594286 -0.21990511 2.8450527
0.64414203 -0.24527553 2.8025181
0.66306442 -0.22964932 2.8037035
-1.1093686 -0.17706554 2.8264346
-1.0871687 -0.17056137 2.8435552
0.50889319 -0.16385178 2.830749
0.64360899 -0.16335554 2.8040969
0.66796881 -0.17723532 2.8041649
-1.1135683 -0.12865493 2.8140519
-1.0834537 -0.12772301 2.8422353
0.52379984 -0.10947248 2.8375642
0.66927367 -0.14080112 2.8039141
-1.1126683 -0.077532694 2.8179991
-1.0914526 -0.063832715 2.8441155
0.53665996 -0.054616801 2.8324935
0.66970366 -0.066359721 2.8050163
-1.1168442 -0.026698139 2.8212376
-1.0922277 -0.035398521 2.8464565
0.53250986 -0.013497811 2.810885
0.64498758 -0.020396907 2.8131118
0.66289151 -0.029890697 2.8050094
-1.1183629 0.02309633 2.8268857
-1.0927998 0.014414562 2.8480442
0.57945305 0.041214474 2.8359735
0.62732923 0.04121552 2.8288076
0.66193968 0.036424309 2.804868
-1.123715 0.079196021 2.8259697
0.59224474 0.065490797 2.8462987
0.62764913 0.075533003 2.8297138
0.67211324 0.075148098 2.8074815
-1.1261207 0.12809591 2.8307447
0.62879974 0.12378019 2.833761
0.6731168 0.12309285 2.8105447
-1.1325339 0.17599005 2.8288007
0.62978029 0.17215276 2.836482
0.67348164 0.17101537 2.8103702
-1.1348019 0.22788943 2.828275
0.62897491 0.22379266 2.837837
0.66592568 0.22923709 2.8138602
-1.1395754 0.27578479 2.8223512
0.62669623 0.27803019 2.8410153
0.66878551 0.27446583 2.8151014
-1.1385714 0.30002567 2.8329227
0.043725342 0.34938201 2.8018451
0.6255464 0.32495019 2.8405666
0.66698033 0.32302907 2.8168933
0.04377757 0.36325297 2.8040714
0.63008869 0.37170139 2.8388448
0.6712209 0.37684172 2.8150928
0.62872261 0.42490128 2.840318
0.66957426 0.42318815 2.8146782
-2.6031699 0.48456597 2.8060491
-2.5813973 0.48531061 2.8310628
0.62949431 0.47480306 2.8379185
0.66991389 0.47432065 2.8149779
-2.601032 0.5014264 2.8011043
-2.5734916 0.52152932 2.8235681
-2.5472243 0.51820314 2.8367298
0.62857771 0.52394855 2.840503
0.67001015 0.52560228 2.8145096
-2.5736609 0.57200545 2.8247304
-2.5394104 0.58934903 2.8489158
0.6319223 0.57657045 2.8369815
0.66887093 0.57540721 2.8153498
-2.6007776 0.64368331 2.8087599
-2.5774934 0.62321424 2.8238816
-2.5432796 0.62492853 2.8468511
0.63240755 0.62590528 2.8382335
0.67038304 0.62533504 2.8146634
-2.6029046 0.68768156 2.8020599
-2.5724077 0.67856002 2.8251553
-2.5498056 0.66128337 2.8474143
-1.5485768 0.67862219 2.8275759
0.63491613 0.67491674 2.8355756
0.67214459 0.67574579 2.8143597
-2.5702615 0.72742802 2.8282065
-2.5386045 0.74999195 2.8490725
-1.6213959 0.73293912 2.831778
0.63219303 0.7271468 2.8377182
0.67352432 0.72598469 2.81183
-2.6025891 0.7884618 2.8125648
-2.577538 0.76869774 2.8223624
-2.5389092 0.76750821 2.8454008
-1.637235 0.77184337 2.8257613
0.62843484 0.77224892 2.840363
0.67069042 0.77942151 2.8141303
-2.6067488 0.82479525 2.8082397
-2.5755956 0.82688886 2.8302548
-2.5476809 0.82261992 2.8425379
-1.6602432 0.82968169 2.8259084
-1.6482397 0.80337101 2.8491569
0.62898922 0.82514501 2.8404889
0.66939652 0.82710654 2.8139257
-2.6113815 0.88483495 2.8062983
-2.5762734 0.87745488 2.8320398
-1.6600827 0.87430525 2.8195806
0.63167858 0.87489027 2.8411598
0.67166245 0.87603402 2.8151274
-2.6127689 0.92454952 2.8113022
-2.5799196 0.92727554 2.8357372
-1.6582648 0.92442197 2.824039
-1.6443248 0.94901931 2.8430073
0.63220656 0.92438877 2.8416545
0.67784566 0.92284775 2.8159101
-2.619421 0.98035818 2.8202636
-2.5896256 0.97228944 2.8431416
-1.6632165 0.98175097 2.8232853
-1.6487229 0.97495484 2.8444698
0.6402536 0.97304207 2.8425329
0.67749816 0.97555006 2.8161511
-2.6199999 1.0243058 2.819171
-2.5939856 1.0245335 2.8413529
-1.6637821 1.0292459 2.821471
0.63754904 1.0144871 2.8431845
0.67107737 1.0320349 2.8243072
0.70159817 1.0258452 2.8055046
-2.6233168 1.0751481 2.8200445
-2.5872989 1.0610522 2.8394141
-1.6693624 1.0751597 2.8184929
-1.6486681 1.0865594 2.8497632
0.63603663 1.0879172 2.847039
0.67182714 1.0780209 2.8250427
0.70450592 1.0730232 2.8057957
-2.6247315 1.1229397 2.8282127
-1.6657546 1.1283052 2.8281984
-1.6475532 1.1015592 2.8430994
0.64171904 1.1313294 2.844681
0.67471576 1.1259605 2.8252535
0.70706415 1.119989 2.8040354
-2.6216962 1.1704797 2.8258471
-1.6685237 1.1760916 2.8222826
0.64519906 1.1884961 2.8453512
0.67782521 1.1746633 2.8256123
0.71408623 1.1723086 2.803206
-2.6531646 1.2307433 2.805207
-2.6309206 1.2196124 2.826544
-1.6702328 1.2225906 2.828922
0.64720803 1.2287818 2.8430951
0.67646587 1.2221118 2.8260779
0.70911825 1.2224946 2.8093953
-2.6559772 1.2501597 2.8011351
-2.6294241 1.2740842 2.8288822
-1.6698323 1.2764513 2.8235996
0.64278078 1.2710919 2.8455935
0.67298454 1.2775942 2.8326621
0.71098679 1.2690748 2.8097601
-2.6533382 1.3212241 2.8069358
-2.632473 1.3244311 2.8362656
-1.6813605 1.322167 2.8107722
0.67644823 1.3257122 2.8333716
0.71897125 1.3137589 2.8064103
-2.6551762 1.3724557 2.8068054
-2.6348066 1.3744959 2.8311446
-1.7020309 1.384869 2.8113642
-1.6858532 1.3687172 2.8254597
0.68700045 1.3761289 2.8306625
0.71877617 1.37149 2.8102386
-2.6566846 1.4238455 2.8056395
-2.6335337 1.4261748 2.8329585
-1.710268 1.4239601 2.811733
-1.6868334 1.4246551 2.8250382
0.68118823 1.4208472 2.8406157
0.71920902 1.4268653 2.8133385
-2.6684415 1.4735252 2.8115387
-2.6405351 1.4655148 2.8311398
-1.709712 1.4749497 2.809303
-1.6921868 1.4768305 2.8345683
0.67957431 1.47183 2.8364985
0.72011685 1.4778886 2.8125677
-2.662622 1.5283201 2.8206351
-2.6375315 1.5199132 2.8450861
-1.7083963 1.5248442 2.8261185
-1.691237 1.5397614 2.8470607
0.68218607 1.5229551 2.8373687
0.72559756 1.5254248 2.8088741
-2.6650169 1.5790925 2.8235879
-2.6498866 1.5717859 2.847245
-1.7145599 1.5662189 2.8130419
-1.6955315 1.5684292 2.8431656
0.68711817 1.5765592 2.8406181
0.71916652 1.5739424 2.8188257
-2.6655195 1.6224211 2.8231366
0.685673 1.6184603 2.8422611
0.72323805 1.62673 2.8157756
-2.6685295 1.671706 2.8227599
0.6845358 1.6780034 2.8417156
0.72091091 1.6728709 2.8209083
0.75205839 1.6801395 2.8031588
-2.673532 1.7290694 2.8246841
0.68554622 1.718495 2.8356929
0.72705173 1.7238449 2.8166103
-2.6811237 1.7827764 2.8233967
0.68314278 1.7795839 2.8454509
0.72473872 1.7755102 2.8205576
0.75925612 1.7578924 2.8007891
-2.6784942 1.8313984 2.8269975
0.68536121 1.8254756 2.8438106
0.72425932 1.8225546 2.8242948
0.75170028 1.8310378 2.8063402
-2.680985 1.8729775 2.8244371
0.68958056 1.8682472 2.845294
0.72549933 1.8742495 2.826941
0.75525177 1.8710234 2.803297
-2.687932 1.9224273 2.8191407
0.68588829 1.9114496 2.8477063
0.724913 1.9257967 2.8291059
0.76817888 1.9300678 2.8034301
-2.6842065 1.9725009 2.8284354
0.72658837 1.9732673 2.8385644
0.7628603 1.9800373 2.8102646
-2.7034233 2.0257592 2.8252068
-2.6943984 2.0190454 2.8157206
0.72999054 2.025686 2.8343136
0.76396674 2.0239537 2.8138065
-2.6883955 2.0683851 2.8216436
0.73370939 2.0760896 2.8368483
0.77203184 2.0810001 2.8136199
-2.704977 2.1030962 2.802546
-2.6872222 2.1162453 2.8282166
0.72979498 2.1287599 2.8399887
0.76933426 2.1255646 2.8170254
-2.7089024 2.1711144 2.8116214
-2.6963897 2.1769574 2.8350048
0.74075341 2.1886396 2.839237
0.77467471 2.1731226 2.8159111
0.8059057 2.1688945 2.8028295
-2.7065849 2.2251463 2.8199904
-2.6906347 2.2283933 2.8398752
0.74169123 2.2299695 2.8344059
0.77880579 2.2177153 2.8095491
-2.7053678 2.2718713 2.8191242
-2.6893668 2.2943068 2.8423977
0.72598755 2.283236 2.8388565
0.77261603 2.2659419 2.8114178
-2.7015603 2.3077254 2.8052199
-2.6853006 2.3301842 2.8280151
0.72549009 2.3156872 2.8347685
0.76389652 2.3050044 2.8124418
-2.6620591 2.3571959 2.8281538
-2.6294041 2.3757122 2.8178482
-2.5757556 2.3735409 2.8179336
-2.5221889 2.3804755 2.8183956
-2.4809937 2.3789015 2.8457694
-2.4125636 2.3703871 2.8268251
-2.3727541 2.3794508 2.8214285
-2.325978 2.3909276 2.8255498
-2.2714193 2.3840702 2.8259687
-2.230026 2.3804042 2.8230033
-2.175807 2.3826075 2.8271413
-2.1155233 2.3774195 2.821877
-2.0761261 2.3742952 2.8183336
-2.02859 2.3720951 2.8215628
-1.9765477 2.3752291 2.8362255
-1.9262209 2.3778703 2.8259411
-1.8628546 2.3656111 2.8208263
-1.8145051 2.3698308 2.8191099
-1.7797393 2.3702569 2.8249385
-1.725091 2.3682113 2.8371742
-1.6760323 2.3730559 2.8183515
-1.6230526 2.3674967 2.8335314
-1.5758128 2.3604307 2.8291352
-1.5254123 2.3655512 2.8269751
-1.4724965 2.364228 2.8206596
-1.4317714 2.3641348 2.8283894
-1.3683833 2.3771245 2.8207541
-1.3299663 2.3889434 2.8156335
-1.2513055 2.3903723 2.8117049
-1.2211962 2.3997273 2.8360262
-1.1716151 2.3878098 2.8378267
-1.1272835 2.3900571 2.8292089
-1.0804427 2.3771608 2.8188136
-1.0311556 2.3826098 2.8418913
-1.3223591 2.4070442 2.8441925
-1.2416472 2.4142027 2.8296633
-1.1633497 2.40622 2.8293409
-0.95640337 -0.40105158 2.8823049
-0.94871825 -0.41204134 2.8577778
-0.97733498 -0.37221688 2.8784974
0.43868184 -0.37293038 2.8584805
0.46267387 -0.36166891 2.8778238
-1.0037255 -0.3020516 2.8931041
-0.99195427 -0.32694235 2.8570497
0.44130373 -0.30567378 2.880897
0.47422308 -0.32666889 2.864651
0.51256168 -0.33128089 2.8873115
-0.97882557 -0.27038276 2.8673368
0.43592024 -0.29283109 2.8929372
0.47894439 -0.27025065 2.8971131
0.50728327 -0.27977371 2.8956449
-1.0880882 -0.20093086 2.8723176
-1.0487154 -0.21313982 2.8500671
-0.97128028 -0.23285244 2.8778238
0.031194501 -0.24209963 2.8939934
0.057973254 -0.20435813 2.8513968
0.52124733 -0.23787458 2.8787766
-1.112262 -0.17373046 2.895339
-1.0627141 -0.16446549 2.8691301
0.04444167 -0.17748396 2.8588135
0.05862388 -0.17906827 2.8845596
0.52006459 -0.18839395 2.8920517
-1.0591286 -0.12135267 2.8679149
0.044363048 -0.14309412 2.854979
0.51187235 -0.11543801 2.8753722
-1.0746475 -0.079050288 2.8663428
0.52561301 -0.073643401 2.8922691
-1.0731438 -0.027042542 2.8707321
0.52843755 -0.026028708 2.8831894
-1.0746261 0.022099724 2.8663087
0.49789408 6.3794374e-05 2.8505788
0.53559893 0.02592331 2.8807473
0.56203771 0.030513067 2.8620379
-1.1096767 0.071545802 2.8503928
-1.0783539 0.07170748 2.8657577
0.54074103 0.076816529 2.8913374
0.57260269 0.079715125 2.8658273
-1.0786645 0.12204785 2.8711066
0.54274315 0.1285826 2.8931625
0.57853216 0.12479021 2.8648098
-1.1101128 0.1756677 2.8584795
-1.0784215 0.17117479 2.874429
0.54267758 0.17578945 2.8933053
0.57976276 0.17366096 2.8692153
-1.1076893 0.22531493 2.8570647
-1.0779191 0.2216143 2.879478
0.54195052 0.22383849 2.8926933
0.58178455 0.22623192 2.8666306
0.61240882 0.24917719 2.850858
-1.1167184 0.27174604 2.865154
-1.0772882 0.27402225 2.8811481
0.5423708 0.27300006 2.8921227
0.57884544 0.27434215 2.8695052
0.612441 0.26303032 2.8501754
-1.1227008 0.30345058 2.8732755
-1.0924726 0.30306408 2.8773997
0.54104161 0.3132306 2.8951235
0.57366866 0.32657349 2.8751247
0.6004644 0.33326948 2.856128
0.53789902 0.37973762 2.8986747
0.56816906 0.37544903 2.8782821
0.60670543 0.37812367 2.8549056
0.5373565 0.4074499 2.8932183
0.57054603 0.42712405 2.8771417
0.60461676 0.42030811 2.8546252
-2.5413914 0.4858748 2.8679557
0.53926158 0.47939429 2.896246
0.57159215 0.47700179 2.8772714
0.60325307 0.47428763 2.8561792
-2.5597811 0.50342828 2.8533976
-2.5249839 0.52017158 2.8720505
0.5402239 0.52262253 2.8965082
0.57406652 0.52567619 2.876838
0.60436869 0.52408242 2.8556988
-2.5254941 0.57112384 2.8732595
0.54154378 0.58053017 2.896349
0.57231158 0.5753848 2.8774221
0.60567874 0.57423776 2.8555508
-2.5215807 0.62596416 2.8713961
-1.5399883 0.61942816 2.8916516
0.54285061 0.62451434 2.8973737
0.5767771 0.62472475 2.8742192
0.61012602 0.62635088 2.8556931
-2.5277832 0.67470121 2.8748684
0.54415095 0.67818445 2.8963878
0.57471085 0.67539924 2.8771951
0.60863876 0.67555976 2.8549192
-2.5292912 0.71991998 2.8785989
-1.6115924 0.73893404 2.8649638
-1.5688421 0.70277506 2.8617938
0.54575682 0.72773361 2.8971512
0.57932132 0.72527862 2.8734245
0.61037201 0.71981877 2.8560188
-2.5260243 0.77289706 2.8725681
-2.4977 0.78836006 2.8934121
-2.4301987 0.7779156 2.8802693
-1.6206944 0.77501851 2.8792396
0.54741478 0.77288604 2.898406
0.57722574 0.77619427 2.8784695
0.60675681 0.79490328 2.8605461
-2.5522494 0.80657685 2.8519769
-2.5285871 0.82925844 2.8825233
-2.4682879 0.80197251 2.8881483
-2.4473679 0.81820017 2.8924196
-1.6280366 0.82423627 2.8781445
0.54824674 0.82424426 2.893369
0.57431811 0.82770509 2.8753204
0.60373133 0.82046092 2.8587029
-2.5338922 0.87944376 2.8761344
-1.6551801 0.85328293 2.8507786
-1.6340429 0.87408614 2.8781846
0.57006186 0.87496823 2.8822486
0.60806644 0.8773616 2.8556783
-2.5526528 0.93575329 2.8530488
-2.5254483 0.92369372 2.8756516
-2.4987602 0.93531907 2.8919699
-1.6374874 0.92283565 2.8730347
0.53773582 0.90952855 2.8996916
0.5755409 0.9238717 2.8797736
0.60782707 0.93330747 2.8554046
-2.5631557 0.98129559 2.8667932
-2.5252192 0.97516751 2.8842602
-2.4413395 0.97929537 2.8766077
-1.630568 0.97495419 2.8833396
0.57842916 0.97647256 2.8808591
0.61396164 0.9767223 2.8576872
-2.5678301 1.0286453 2.8725054
-2.5268462 1.020727 2.8906143
-2.4712379 1.0256264 2.8746769
-1.6325976 1.0234026 2.8742943
0.58031791 1.026842 2.8846562
0.61557567 1.0277933 2.8608921
-2.5716212 1.0762993 2.8631401
-2.5345938 1.0673651 2.8834031
-2.4971445 1.0833369 2.8809564
-1.6372712 1.0730331 2.8740122
0.57931602 1.0727994 2.8859773
0.61921704 1.0720541 2.8605011
-2.6024957 1.1249218 2.8549776
-2.5705724 1.1227182 2.8706272
-2.5206285 1.1225766 2.8836782
-2.4789288 1.1097105 2.8848376
-2.4456811 1.1291707 2.8707647
-1.6384282 1.1272494 2.8742592
0.57892704 1.1298131 2.8862815
0.61493897 1.1257348 2.8622601
-2.5726895 1.1739058 2.86923
-2.5377412 1.1689734 2.8861885
-2.4866605 1.1666287 2.8755193
-1.6531299 1.1797013 2.8673916
-1.642436 1.1754735 2.8863423
0.57805753 1.1783878 2.8916001
0.62060761 1.1741644 2.8623035
-2.6040812 1.2331055 2.8549585
-2.5805759 1.2213832 2.8742115
-2.5188148 1.229847 2.8827579
-2.4832554 1.2271001 2.8862658
-1.658667 1.2316437 2.8610299
-1.6434057 1.2241515 2.8880363
0.58737993 1.2266574 2.8871107
0.62057233 1.2242181 2.8628538
-2.6049228 1.2742469 2.8590491
-2.5894527 1.2727826 2.8813272
-2.5353441 1.2892843 2.8948417
-1.6544303 1.2695694 2.868921
-1.6428921 1.2842571 2.8902061
0.58494109 1.2777952 2.8895419
0.61932671 1.2694389 2.8649592
-2.6007862 1.322191 2.8536091
-2.5806968 1.3258829 2.8832664
-2.5498919 1.333199 2.8969979
-1.6640987 1.3333623 2.8753343
-1.6469893 1.311753 2.8887622
0.58544797 1.3256111 2.8877501
0.62445623 1.3234614 2.8677139
-2.6073334 1.3733289 2.8641396
-2.584738 1.378616 2.8863275
-1.6694032 1.3794005 2.8686366
-1.6427622 1.3703038 2.8992474
0.58332169 1.378557 2.8927836
0.62369698 1.3746785 2.8707283
0.65798122 1.3682405 2.8512523
-2.606883 1.4266425 2.8562529
-2.5800669 1.4319251 2.8886173
-1.6690862 1.4255193 2.8744402
-1.6493975 1.4249772 2.891953
0.580585 1.4139415 2.8957605
0.6271891 1.4274553 2.8707287
0.66220134 1.4219232 2.8534892
-2.6122236 1.4716382 2.8631473
-2.5921392 1.4759505 2.8936687
-1.6826518 1.4770948 2.8731029
0.58959484 1.4753667 2.8944776
0.62783438 1.4766035 2.8700387
0.65233958 1.4859321 2.8587656
-2.6118567 1.5257912 2.8677649
-2.5974529 1.5068699 2.886971
-1.6749859 1.5204893 2.8710191
0.5928157 1.5292498 2.8928108
0.62437487 1.5235538 2.8737071
0.66067475 1.5313247 2.8573673
-2.6379645 1.5851908 2.865191
-1.6755676 1.5676479 2.8787465
0.58662474 1.5645843 2.8979528
0.62503666 1.5735383 2.8767653
0.66207045 1.5679693 2.8568726
-2.62849 1.6279764 2.8638444
0.59137154 1.6391175 2.8958945
0.62611383 1.6213868 2.8752506
0.66840041 1.6265358 2.8532259
-2.6240346 1.6747096 2.8756268
-2.5897093 1.6558527 2.8863783
0.5958544 1.6983016 2.8975682
0.62283218 1.6715715 2.8801792
0.65920216 1.6734266 2.8602102
-2.6545069 1.7300932 2.8564467
-2.6283388 1.7164608 2.8770418
0.59776866 1.7272284 2.8963485
0.62855929 1.7232378 2.8771145
0.65950221 1.7267272 2.8596048
-2.6644812 1.7652359 2.8518615
-2.6304061 1.7774714 2.8818002
0.62098241 1.7733024 2.8831787
0.66282141 1.7744485 2.8557003
-2.6559463 1.810545 2.8578203
-2.6298802 1.8315151 2.8731093
0.631657 1.8205458 2.8821409
0.65794778 1.8364093 2.8666015
-2.6611643 1.8949331 2.8617208
-2.6354308 1.8758525 2.878417
0.62829494 1.8757269 2.884831
0.66200811 1.8794575 2.8682292
-2.6624756 1.9319053 2.8644803
-2.637269 1.934707 2.8919225
0.63151628 1.9246327 2.8879733
0.67084795 1.9277 2.8657556
-2.6621439 1.9857842 2.8696854
-2.6453121 1.9698625 2.8836055
0.64014304 1.973315 2.884907
0.6765185 1.9779049 2.864459
0.71084297 1.9924955 2.8509283
-2.6698925 2.0299478 2.8624938
-2.6444564 2.032927 2.8901365
0.62790501 2.0098341 2.8922935
0.67289585 2.0280266 2.8732545
0.70216388 2.0461652 2.8660455
-2.6686234 2.0834708 2.873749
-2.6434066 2.0967572 2.8957353
0.64319217 2.0817015 2.8957164
0.67431676 2.0766892 2.8826818
0.7098009 2.0797663 2.8581448
-2.6686847 2.1394796 2.8777618
-2.6480739 2.1202843 2.8884616
0.64518934 2.1046178 2.8951433
0.67556512 2.1218286 2.8766246
0.70763189 2.119422 2.854594
-2.7007596 2.1506033 2.8586161
-2.6748612 2.1776307 2.8632896
0.6489684 2.1500447 2.8924289
0.67479849 2.1756084 2.8788729
0.71492207 2.1785367 2.8611693
-2.666574 2.2175865 2.8750148
0.67466486 2.2223294 2.8808885
0.70981294 2.21733 2.8572299
-2.6707468 2.2703838 2.8762279
-2.646872 2.252017 2.8975887
0.64526385 2.2865424 2.8958545
0.67369694 2.2732708 2.8800008
0.71108216 2.2606344 2.8542347
-2.6691034 2.3207364 2.8692787
-2.6454854 2.3288076 2.8933418
-1.53456 2.3455324 2.8564143
0.63387722 2.3297887 2.8844624
0.67946577 2.3219631 2.8689797
-2.6288517 2.3688831 2.87764
-2.570766 2.3815684 2.8785033
-2.5225959 2.379652 2.8698847
-2.4837646 2.3711638 2.8816535
-2.4295588 2.367332 2.8606687
-2.3834562 2.3704956 2.8652613
-2.325747 2.3792968 2.8748283
-2.2766943 2.3807662 2.8912468
-2.230093 2.3817322 2.8746967
-2.1771281 2.3757575 2.8746467
-2.1217668 2.3763962 2.8716867
-2.0759368 2.3767419 2.8698311
-2.0209785 2.3726501 2.8853254
-1.9691477 2.3700955 2.877697
-1.9274058 2.3697703 2.8717525
-1.8753252 2.3653314 2.8795359
-1.8296907 2.361053 2.854224
-1.7773247 2.3649573 2.8722339
-1.7230257 2.3721962 2.8871012
-1.6783149 2.3663998 2.8589163
-1.6276108 2.3587682 2.8725948
-1.5808815 2.3642218 2.876529
-1.5169594 2.359869 2.8863778
-1.478667 2.3553948 2.8671093
-1.4248549 2.371382 2.8784454
-1.386215 2.3858478 2.8737841
-1.3393077 2.3867676 2.8720286
-1.2517992 2.3896809 2.8850484
-1.2155312 2.3822296 2.8756416
-1.1743647 2.3804369 2.872478
-1.1259993 2.3899212 2.8687179
-1.0791606 2.3952925 2.8793113
-1.0230477 2.3924229 2.8810995
-1.3087976 2.4057455 2.8667932
-1.2860019 2.4217749 2.8792057
-1.0681378 2.4076009 2.8634105
-0.96566159 -0.36153492 2.9140759
0.43345428 -0.35928762 2.9193273
0.4544943 -0.35921723 2.9166298
-0.971066 -0.33443221 2.9327126
0.43379268 -0.32824874 2.9337947
0.47784913 -0.32667014 2.9086008
-1.0120518 -0.26102874 2.9199562
0.43236604 -0.27404782 2.9178829
0.46889472 -0.27772683 2.9229321
-1.0553463 -0.2189538 2.9332047
-1.0076125 -0.23099177 2.9087925
0.44392684 -0.24139799 2.9494474
0.47554001 -0.2253399 2.9227867
0.50823009 -0.21721263 2.9045601
-1.0693974 -0.16491568 2.9232433
0.059146401 -0.15288591 2.9112971
0.47648537 -0.1764053 2.9307859
0.50877595 -0.17535809 2.9094982
-1.0611941 -0.12379541 2.9309812
0.05931475 -0.13937956 2.9200268
0.47661352 -0.12702715 2.9332798
0.50908047 -0.13333094 2.9127021
-1.0632416 -0.072921827 2.9377878
0.48303929 -0.077499002 2.9296157
0.50886393 -0.077118412 2.9127362
-1.0641063 -0.029069966 2.9406664
0.4832024 -0.028148737 2.9311609
0.51304287 -0.037325162 2.9099209
-1.0659723 0.036799174 2.9457276
0.47983903 0.023282284 2.9357402
0.51484782 0.030956428 2.9147325
-1.0671297 0.078072138 2.9338055
0.48009151 0.076793149 2.9365962
0.51557696 0.077222399 2.9101737
0.48155385 0.12875322 2.9368031
0.51877183 0.12436565 2.9097993
0.48399553 0.17669314 2.9324303
0.51837838 0.17480323 2.9096689
0.47941867 0.22513452 2.9343417
0.51628345 0.22483544 2.90903
0.48289296 0.27786958 2.9340434
0.51691371 0.27433378 2.9097455
0.48302221 0.3249051 2.9357114
0.52060598 0.32599351 2.9097023
0.48640656 0.37640205 2.934572
0.52077717 0.37154505 2.9109015
0.48066589 0.42729631 2.9390841
0.51848722 0.42618492 2.9178505
0.48121396 0.47769424 2.9372897
0.51577443 0.47309142 2.9148822
0.47723922 0.52375525 2.9413121
0.51485872 0.52557623 2.9163387
0.48325512 0.57278246 2.9386568
0.51782376 0.57452667 2.9143934
-1.5586054 0.60372108 2.9302373
0.47813347 0.62454629 2.9369781
0.51940334 0.6270659 2.9124002
-1.5720395 0.69566762 2.9049051
0.47855392 0.67651504 2.9402952
0.5210315 0.67193282 2.9151287
-1.5871038 0.73353457 2.9270089
0.48252016 0.72244161 2.9374452
0.51926005 0.72345567 2.9133921
-1.6024461 0.78802907 2.9094253
-1.5936682 0.77777421 2.9219704
0.48471946 0.77779466 2.93927
0.52085555 0.77599025 2.9136138
-2.5110559 0.81017292 2.9047229
-2.4891384 0.83511043 2.9061584
-1.6081929 0.83203954 2.9203615
-1.5903639 0.81860131 2.9409697
0.48430181 0.8253848 2.9395676
0.52320653 0.82597065 2.9102075
-2.495528 0.88127118 2.9024765
-1.6082584 0.87739593 2.9222713
-1.59266 0.86991459 2.9468117
0.48378494 0.87307328 2.9386764
0.5226174 0.87909138 2.9126878
-1.61104 0.93009782 2.9126065
-1.5982224 0.92055851 2.9461441
0.48768511 0.91466147 2.9392583
0.52215916 0.93217957 2.9192541
0.55396068 0.94144976 2.9008663
-1.6065004 0.98010457 2.9250979
-1.5998462 0.95324826 2.9414768
0.48375869 0.96758407 2.9422917
0.51985109 0.97533762 2.920923
0.55529851 0.97278273 2.901226
-2.4460158 1.0309076 2.9389243
-1.6088507 1.0216594 2.9264781
-1.5934459 1.0388438 2.945029
0.48692647 1.0284799 2.9439187
0.52317548 1.0245541 2.9189212
0.55744267 1.020268 2.9020257
-1.6127673 1.0723219 2.9247601
-1.5956929 1.0563111 2.9448185
0.4881973 1.0763378 2.9453228
0.52550071 1.0732546 2.9209926
0.56041002 1.0916305 2.9007792
-1.6152005 1.119409 2.9222636
0.49344563 1.127973 2.9416049
0.52730757 1.1211896 2.9193947
0.56210363 1.1243265 2.9016812
-1.6223823 1.1761383 2.9244013
0.49618891 1.1790279 2.9456749
0.52825099 1.1706746 2.924227
0.55119658 1.1913062 2.9071355
-1.6258198 1.2236863 2.9227898
0.49791446 1.2280746 2.9429882
0.52565801 1.2230012 2.927176
0.5620755 1.2297357 2.9062481
-2.5642529 1.2674121 2.9036071
-1.6261996 1.2740083 2.9200919
0.49955338 1.2621448 2.943716
0.52306992 1.2760504 2.929836
0.5597707 1.2727108 2.9108744
-2.5749986 1.3001702 2.9051826
-2.5463634 1.3131207 2.9002688
-1.6331271 1.3300542 2.928426
0.52378416 1.3266928 2.9317691
0.56187344 1.3224499 2.9074404
-2.5637009 1.3679647 2.9014366
-1.6347656 1.3718638 2.9234478
0.52794093 1.3760134 2.9286242
0.56011891 1.368536 2.9045556
-2.5648026 1.4103122 2.9047513
-1.6574175 1.4319102 2.9059598
-1.6395301 1.4213315 2.9357262
0.52494413 1.4232758 2.9344921
0.56495517 1.433515 2.9112523
-2.5665212 1.462606 2.9042695
-1.6630846 1.485796 2.9103076
-1.6430933 1.4723251 2.9274793
0.52235955 1.4716659 2.9356556
0.56307751 1.4757077 2.9114666
-2.5891151 1.5315078 2.9044809
-1.6626383 1.5180249 2.9101803
-1.6444463 1.5324082 2.9374695
0.49897957 1.5474224 2.9483886
0.52691716 1.5233648 2.9337273
0.56768435 1.5260124 2.9093177
-1.6602014 1.5564156 2.9248462
-1.6477376 1.5692217 2.9141178
0.53139848 1.5751793 2.9303749
0.56835085 1.5757471 2.9100084
0.52733332 1.6251434 2.9361701
0.57484484 1.6242442 2.9102645
0.53544623 1.6686817 2.9326141
0.5760293 1.6767015 2.9114678
-2.6022067 1.7331241 2.9071085
-2.5892437 1.7213254 2.915617
0.53027201 1.7211329 2.9402595
0.56983978 1.7216516 2.9122798
-2.607981 1.7560602 2.9035006
-2.5861592 1.7746506 2.9216723
0.5320999 1.7774373 2.9407179
0.57017726 1.7735636 2.9189565
-2.6054296 1.8248749 2.9059536
-2.5800099 1.8176149 2.9373543
0.53914261 1.8294894 2.9416037
0.57780218 1.8251549 2.9160595
0.60659719 1.8320777 2.9018586
-2.6095753 1.8635204 2.9128072
-2.5925953 1.864254 2.9383631
0.54135704 1.8610351 2.9420688
0.57210845 1.8811476 2.9248862
0.60885793 1.8627861 2.9009328
-2.6152773 1.9189848 2.9198186
0.53664714 1.9048687 2.9455144
0.57974857 1.9258096 2.9240429
0.61542302 1.9311748 2.9076445
-2.6154549 1.9718213 2.9272685
-2.5931075 1.9549764 2.9477904
0.5735932 1.9776067 2.9357235
0.61084932 1.9746267 2.9084854
-2.6251566 2.0145655 2.9263251
-2.5926256 2.0285225 2.9498293
0.58019936 2.0235722 2.9339006
0.61987036 2.0354912 2.9068406
-2.6271508 2.0738461 2.9230444
0.58130676 2.0701723 2.9392045
0.62539256 2.0781634 2.9135864
-2.6257455 2.1222575 2.9301231
0.58844095 2.1187329 2.9382472
0.62417012 2.1280148 2.9099839
-2.6505399 2.1781993 2.9031658
-2.6328366 2.1700807 2.9275193
0.57484329 2.159761 2.9385254
0.62060636 2.1749427 2.9154899
-2.634975 2.2202799 2.9229426
0.58109415 2.2192731 2.9379458
0.6248855 2.2234256 2.9148629
0.65787536 2.2298877 2.901082
-2.6321867 2.2753816 2.931258
0.58169252 2.2850428 2.9382269
0.6246413 2.26665 2.9098206
-2.6258874 2.3207803 2.9251759
0.53472447 2.3449087 2.9404714
0.57777286 2.3289561 2.9241157
0.62005502 2.3114541 2.9053314
-2.6221478 2.3553228 2.9104617
-2.5859289 2.3696778 2.9302139
-2.5185368 2.3647652 2.9152472
-2.4821281 2.3786471 2.9246142
-2.4276183 2.374593 2.9290648
-2.3787789 2.3755574 2.9129906
-2.3278797 2.3739176 2.9281452
-2.2673736 2.3767354 2.9279795
-2.2267246 2.3794031 2.9224498
-2.1690352 2.3824742 2.9329605
-2.1159885 2.3826008 2.9266496
-2.0719986 2.3749971 2.9167199
-2.0323858 2.3733659 2.9382725
-1.970208 2.3751881 2.9319322
-1.9077625 2.3638327 2.9033093
-1.8796171 2.3637762 2.919311
-1.8237752 2.3614571 2.9242458
-1.7658437 2.3660223 2.9264746
-1.72577 2.3701642 2.9252713
-1.680268 2.367415 2.9227743
-1.6215533 2.3582115 2.9162114
-1.5740904 2.3630292 2.9189484
-1.5332918 2.3531222 2.9089751
-1.4784569 2.3739054 2.938261
-1.4275404 2.3806531 2.9329867
-1.3214827 2.3707495 2.9359808
-1.2735643 2.3712361 2.9262207
-1.2278768 2.3811316 2.9287446
-1.1743439 2.3851624 2.925261
-1.122699 2.3930154 2.92028
-1.0821171 2.3948832 2.9322636
-1.0327536 2.391722 2.925015
-0.97676718 2.3837726 2.9306281
0.51879734 2.3675787 2.9385006
0.56748956 2.3560159 2.9162524
-1.3766552 2.4023767 2.9309287
-1.0591273 2.4117553 2.9441288
-1.0129325 2.4039896 2.911499
-0.97657764 2.4164815 2.9244094
-0.92981452 2.4171724 2.931155
-0.87579823 2.4138436 2.9355609
-0.81821454 2.4162402 2.9439993
-0.77879322 2.4026051 2.9353597
-0.97812074 -0.30758697 2.9561899
0.32039258 -0.30227545 2.997061
-0.98523659 -0.28767094 2.979187
0.38110724 -0.2770507 2.9806859
0.41381028 -0.26931253 2.9679844
-1.0388145 -0.22166568 2.9766014
0.38495988 -0.22296785 2.9948895
0.42131591 -0.22486514 2.9688642
-1.0615244 -0.17738909 2.9747984
-1.0484513 -0.16285679 2.9837103
0.39202616 -0.17254432 2.9954021
0.42613879 -0.1769474 2.9692111
-1.0528882 -0.12457955 2.9521799
-1.043036 -0.12575202 2.9847467
0.39201704 -0.11982108 2.996958
0.42293686 -0.12441318 2.9731598
-1.0555019 -0.073370434 2.9606657
-1.0486101 -0.073942579 2.98649
0.39192739 -0.0718439 2.997263
0.42707738 -0.07544221 2.9742072
0.45778486 -0.077999234 2.9514546
-1.0549642 -0.029457944 2.9823086
0.39212739 -0.028721144 2.9992521
0.42486754 -0.028501933 2.9737358
0.45777524 -0.028325746 2.9519589
-1.0597399 0.018633371 2.9731791
-1.0494624 0.00015933013 2.9895062
0.39201015 0.021629795 2.9983339
0.42506039 0.021488881 2.9750245
0.45792583 0.0071571358 2.9530001
-1.0663807 0.07053522 2.9798868
0.3922011 0.064810887 2.9993834
0.42710766 0.075567417 2.9743478
0.45794779 0.085259371 2.9522743
-1.0688397 0.12593815 2.9742284
0.39200315 0.12231963 2.9966378
0.42333269 0.12465142 2.9757168
0.45823663 0.12081691 2.9533195
-1.0702406 0.17794883 2.9763196
0.39246312 0.17286228 2.9985151
0.4272638 0.17392264 2.9753699
0.45855391 0.17778032 2.9534221
-1.0711743 0.22259615 2.9768097
0.39260858 0.22334543 2.9974031
0.42431557 0.22330406 2.9744461
0.45916709 0.2420757 2.9543729
-1.0712911 0.27446714 2.9740806
0.39230627 0.26635915 2.9927797
0.42637947 0.27236345 2.9760101
0.45972481 0.27087939 2.9563038
-1.152769 0.34567165 2.9903543
-1.1229563 0.34343696 2.976974
-1.077334 0.32657206 2.970444
0.39321098 0.3246932 2.9958894
0.42663863 0.32272699 2.9745147
0.46001619 0.33523971 2.9538183
-1.1591586 0.37281424 2.9939077
-1.1250391 0.37398735 2.9799173
-1.0806471 0.37159359 2.9703615
0.39360189 0.36834168 2.995575
0.42718437 0.37340128 2.9744492
0.460435 0.37837309 2.9530497
-1.1269344 0.42287406 2.9898686
-1.0820671 0.42398006 2.9734979
0.39434129 0.42692244 2.9960904
0.42756927 0.42404598 2.9726541
0.4608725 0.42874655 2.9513266
-1.4834507 0.45735967 2.9831233
-1.1222845 0.47297949 2.9911535
-1.0832492 0.4778271 2.9745739
0.39535391 0.47878382 2.9987047
0.42832819 0.47517756 2.9728053
0.4617945 0.47256556 2.9528685
-1.1185946 0.52750492 2.990804
-1.083198 0.52497047 2.984087
0.39554 0.52255356 2.9952929
0.43037021 0.52488691 2.9714005
0.46254122 0.5378629 2.9502919
-1.5516292 0.59147936 2.9547691
-1.5479161 0.5960325 2.9835613
-1.4987167 0.57949483 2.9989798
-1.1095105 0.55687457 2.9848471
-1.0865057 0.57092357 2.9829204
0.39659235 0.56760126 2.9979794
0.42201763 0.57625818 2.9785085
0.45692274 0.57568526 2.9566047
-1.5567603 0.62781686 2.9777262
-1.1168323 0.62113798 2.9961524
-1.088703 0.62562168 2.9860401
0.39746836 0.62719864 2.9968479
0.42440847 0.62396771 2.9787188
0.4540022 0.62653714 2.9594815
-1.5622195 0.66936636 2.9818749
-1.1043284 0.6833601 2.9979799
-1.0826628 0.67788184 2.9959676
0.39826688 0.67231369 2.9965107
0.42632216 0.67371261 2.9755735
0.45151258 0.67910701 2.9546406
-1.5712293 0.73269945 2.9824274
-1.1061864 0.71491826 2.9980602
-1.0894554 0.72151339 2.9964814
0.39457479 0.73053217 2.9971149
0.42491382 0.72600353 2.9776092
0.45666587 0.72852838 2.9567289
-1.5790724 0.77612889 2.9772367
-1.0940151 0.78554088 2.9982047
0.39960068 0.78454006 2.9885759
0.42460379 0.77328587 2.9781961
0.46120128 0.77234524 2.9549682
-1.5785313 0.82572073 2.9769571
-1.0984218 0.84229189 2.9999876
0.38669351 0.81021523 2.9995363
0.4218587 0.82182026 2.9820178
0.45852894 0.82817394 2.9565773
-1.5785867 0.87525201 2.9745445
0.4253121 0.87280446 2.9819865
0.45661581 0.8767423 2.9542351
-1.5810244 0.92412513 2.9765542
0.42418623 0.926323 2.9827795
0.46509671 0.92878103 2.9607024
-1.5848405 0.97438532 2.9721553
0.42825592 0.97997069 2.9819648
0.46618953 0.97223234 2.9585254
-1.5862031 1.0217923 2.9789197
-1.0935178 1.0049837 2.9988441
0.43197757 1.0276911 2.9803486
0.46897963 1.0192765 2.9564865
-1.6021023 1.0766208 2.952184
-1.5881457 1.0754522 2.9833221
0.42914829 1.0711434 2.9824848
0.46407893 1.0778359 2.9602602
-1.6113797 1.1474963 2.9504912
-1.593503 1.1240242 2.9847665
0.42828378 1.1279372 2.986114
0.4643043 1.1207888 2.9639719
-1.6054758 1.1711217 2.9713109
-1.5940741 1.1747144 2.9871347
0.42544696 1.1748151 2.9851661
0.4695006 1.171245 2.9627576
-1.6059352 1.2202808 2.956876
-1.5932636 1.2220585 2.9810123
0.42782861 1.2268535 2.9891081
0.46977293 1.2227932 2.9607668
-1.6067425 1.2742288 2.9655659
-1.5939283 1.2691288 2.998493
0.42914328 1.2761973 2.9848278
0.47021127 1.271035 2.9631515
-1.6136508 1.3227507 2.9593363
-1.5959221 1.320232 2.9855011
-1.0883921 1.3302609 2.9945922
0.43345904 1.3272692 2.9877863
0.47440735 1.3209583 2.9639356
-1.6106627 1.3772396 2.9715173
-1.5977371 1.3547682 2.9773054
0.4335843 1.3738191 2.9890833
0.47673613 1.3732083 2.963619
-1.6169437 1.4222512 2.9726069
-1.5988131 1.4199479 2.9991212
-1.1134529 1.4052639 2.993499
-1.099719 1.4241176 2.9983385
0.43312871 1.4165177 2.9919233
0.47612667 1.4263519 2.963727
-1.6182278 1.4725848 2.9777522
-1.113188 1.4633101 2.999249
0.43042329 1.4737154 2.9923763
0.47392908 1.4760121 2.9643185
-1.6281044 1.5222338 2.9707699
-1.1113161 1.5361669 2.9937513
0.43259713 1.5279237 2.990443
0.47374931 1.523519 2.9649167
-1.6500685 1.587508 2.9557903
-1.6301177 1.5641781 2.9755816
-1.1200126 1.597085 2.9976435
0.43694639 1.5705761 2.9883664
0.4736748 1.5733476 2.9699385
0.50158054 1.5788274 2.9546599
0.43864805 1.6193374 2.9920471
0.47447222 1.62368 2.9710975
0.50347471 1.6160331 2.953341
0.43973881 1.6720482 2.9931517
0.47534087 1.6748158 2.9719887
0.50706315 1.674751 2.9548464
0.44939566 1.7023602 2.9938266
0.47541925 1.727307 2.9765532
0.5101099 1.7243882 2.9555299
-2.5626988 1.7833699 2.9513812
0.47637177 1.7727128 2.9780915
0.51226074 1.763422 2.9538898
-2.5554612 1.8302411 2.9591315
-2.5344625 1.8124737 2.9583104
0.47099242 1.8199282 2.9858377
0.51012146 1.8230038 2.9586449
-2.5671427 1.8756016 2.9672601
-2.5394294 1.8677331 2.9880791
0.47460556 1.874527 2.9897087
0.51608145 1.8814656 2.967242
-2.5679529 1.9214368 2.9729681
0.48287162 1.9237713 2.9881723
0.52013588 1.9251678 2.9595935
-2.5741239 1.9726418 2.9763548
0.49327108 1.9900084 2.9941089
0.52964532 1.974226 2.9633186
0.55745155 1.9535257 2.9514866
