ply
format ascii 1.0
comment PCL generated
element vertex 1481
property float x
property float y
property float z
element camera 0
property float view_px
property float view_py
property float view_pz
property float x_axisx
property float x_axisy
property float x_axisz
property float y_axisx
property float y_axisy
property float y_axisz
property float z_axisx
property float z_axisy
property float z_axisz
property float focal
property float scalex
property float scaley
property float centerx
property float centery
property int viewportx
property int viewporty
property float k1
property float k2
end_header
-0.34171897 0.074078187 1.8030381
-0.27488759 0.056320496 1.8008699
-0.23338611 0.074172184 1.8183724
-0.10354888 0.07408502 1.8450527
-0.089248396 0.074057065 1.8230094
0.33764854 0.074094191 1.8047295
0.37246713 0.074963361 1.821533
0.40529189 0.080672406 1.8472388
0.6803236 0.07483419 1.8237716
-1.4752246 0.12717262 1.8175213
-1.4324373 0.12776314 1.842769
-1.3610145 0.12516797 1.8475698
-0.37090027 0.13707943 1.8048266
-0.27824157 0.13957772 1.8112184
-0.23075236 0.12594247 1.8158885
-0.10359674 0.12791701 1.8439621
-0.089557737 0.12579161 1.8193072
0.34065628 0.12668514 1.8069394
0.37191752 0.1255233 1.8218825
0.40784049 0.12415139 1.8451701
0.67934996 0.12437213 1.8249171
-1.500421 0.17517039 1.8049115
-1.4749889 0.17492093 1.8184077
-1.4337674 0.17473353 1.8427858
-1.3618827 0.1740173 1.8489596
-0.36734799 0.15844494 1.8158329
-0.34136984 0.19388142 1.8192011
-0.27289355 0.1743986 1.8084338
-0.23260833 0.17150587 1.8167737
-0.10377862 0.17675534 1.8445648
-0.088941738 0.17673646 1.8200973
0.3390992 0.17776377 1.8017107
0.37465534 0.17404732 1.8229498
0.40804541 0.17603727 1.844756
0.67884594 0.17435849 1.8245499
-1.5014617 0.22826588 1.8011421
-1.4753242 0.22180326 1.8177806
-1.436722 0.22273417 1.8423237
-0.33400679 0.21242321 1.8268882
-0.26558077 0.20193942 1.8200555
-0.22647272 0.22785637 1.8257135
-0.10404441 0.21262391 1.8468467
-0.089776367 0.22440487 1.8175975
0.3402034 0.2214908 1.8023741
0.37342831 0.22496709 1.8210279
0.40658402 0.22468886 1.8451517
0.67552376 0.22555697 1.8274859
0.70002604 0.226658 1.8012842
-1.5080349 0.29842415 1.8005363
-1.4730798 0.27655461 1.8212848
-1.4348136 0.27630675 1.844162
-1.3680282 0.25676429 1.8496211
-0.21641286 0.2769621 1.8262146
-0.10422572 0.2721827 1.8449081
-0.088104345 0.27310547 1.8167219
0.34126571 0.28212169 1.8024105
0.3750582 0.27515501 1.8213537
0.41179922 0.27444953 1.8451133
0.67494315 0.27439088 1.8257385
-1.5066903 0.32672402 1.802914
-1.4746485 0.32401645 1.821342
-1.4370281 0.32671916 1.8437375
-0.21558878 0.3135038 1.8380839
-0.10439435 0.32448149 1.8423461
-0.090598248 0.32325408 1.8244475
0.34557369 0.33460191 1.8034643
0.37602553 0.32425669 1.8223715
0.41185263 0.32953998 1.8464946
0.67528015 0.32479337 1.8242967
-1.5022128 0.37411308 1.8019667
-1.4741497 0.37508094 1.8207445
-1.438741 0.37176517 1.8420917
-0.2524946 0.36897394 1.8049972
-0.10477801 0.36132812 1.8447611
-0.083832383 0.37358725 1.8232274
0.34455061 0.39096901 1.8024621
0.37548673 0.37421736 1.8221405
0.41099688 0.3762742 1.8451878
0.67055333 0.37437752 1.8278482
-1.474609 0.42339206 1.8204334
-1.4359361 0.42300004 1.8436186
-0.1053084 0.44834062 1.8416432
-0.069022529 0.42793456 1.822459
-0.041496605 0.41101623 1.8018564
0.34413925 0.4238553 1.8012978
0.37378407 0.42523488 1.818581
0.40639907 0.42688745 1.8417791
0.64641786 0.43883497 1.84858
0.67064965 0.42366299 1.8240281
-1.5029839 0.4738 1.8040745
-1.4744228 0.47323051 1.820474
-1.4386783 0.47383323 1.8423413
-0.10677665 0.4780927 1.8358364
-0.09107957 0.47545245 1.8123628
0.34587288 0.46664819 1.8014816
0.37624818 0.47410479 1.8185444
0.41188845 0.47569281 1.844047
0.64827222 0.47755247 1.8473285
0.67141563 0.47437498 1.8207394
-1.5078474 0.51309943 1.8011849
-1.4752958 0.52379644 1.8206705
-1.4358234 0.52314579 1.8435799
-0.10902992 0.52059227 1.8347663
-0.091047429 0.52431935 1.8112803
0.37304127 0.52618599 1.8145314
0.41416672 0.5238893 1.8421234
0.64600807 0.5286991 1.8459543
0.66719341 0.52470642 1.8218231
-1.5030103 0.56389707 1.8035952
-1.4724647 0.57615256 1.8215191
-1.437113 0.5747484 1.8456672
-0.11028504 0.57519811 1.8331126
-0.094560452 0.57213157 1.8083619
0.37982628 0.57410747 1.8160172
0.41616759 0.57277668 1.8410958
0.64427322 0.57596898 1.846122
0.6649754 0.57510012 1.82042
-1.5014931 0.64373064 1.8007592
-1.4766808 0.62571734 1.8195258
-1.4393137 0.62636149 1.8435709
-0.11227059 0.62637621 1.8273777
-0.095872179 0.60676181 1.8015285
0.38353252 0.62389266 1.8183855
0.4181723 0.62284577 1.8397315
0.64320558 0.62915194 1.8422755
0.66282105 0.62518364 1.8187709
-1.5044684 0.65593344 1.8009471
-1.4761007 0.67442393 1.8189915
-1.4390063 0.67226928 1.8433342
-0.11499263 0.67565066 1.8293592
-0.096482992 0.65552622 1.8022232
0.3857111 0.67425239 1.8175334
0.42129502 0.67594665 1.838129
0.45212483 0.66539401 1.8494251
0.6428867 0.67700356 1.8374481
0.66321766 0.67460412 1.8135179
-1.5047021 0.72687453 1.8004682
-1.4751267 0.7225216 1.8189225
-1.4392946 0.72713423 1.8423496
-0.11736289 0.72422683 1.8332
-0.097145379 0.71427464 1.8003291
0.38028377 0.72526133 1.8106731
0.42144147 0.72440541 1.8373375
0.64087099 0.72470355 1.8356677
0.65789825 0.72647297 1.8130989
-1.5009352 0.77463526 1.8012054
-1.4760981 0.77492988 1.8174207
-1.4372208 0.78144884 1.8434308
-0.11555631 0.75810391 1.8324437
-0.084007218 0.78068411 1.8133091
0.34734413 0.79268652 1.8193961
0.38329706 0.77134919 1.8197304
0.42156509 0.76107538 1.8366903
0.63698846 0.77420634 1.8356415
0.6559543 0.77064687 1.8102032
-1.4750452 0.82864857 1.8197259
-1.4379603 0.82950509 1.8433781
-0.069886498 0.82719922 1.8348895
-0.029599978 0.83781141 1.8278469
0.0023585327 0.84672296 1.8208616
0.63679421 0.82462084 1.8302261
0.65595359 0.81923276 1.8058271
-1.5033064 0.86858219 1.8030305
-1.4735601 0.87644243 1.8215611
-1.4373583 0.88236046 1.8441032
-0.068319313 0.86749536 1.8411511
-0.027874181 0.85934931 1.8348713
0.0023717459 0.86090434 1.8281196
0.63719922 0.86935586 1.8320105
0.65742618 0.88814098 1.812681
-1.4755141 0.92418909 1.8197178
-1.4382465 0.931355 1.842551
0.62866652 0.92637408 1.8290205
0.65387332 0.90447128 1.8121583
-1.5027652 0.95165908 1.8027326
-1.4758072 0.97304648 1.8197758
-1.4416298 0.97351283 1.8406731
0.6254167 0.97675073 1.819576
-1.5051094 1.0277973 1.8037208
-1.4737443 1.0246718 1.8226985
-1.4370688 1.0199556 1.8441728
0.62687641 1.0220795 1.8261214
-1.5054512 1.0658736 1.802362
-1.4754424 1.0785581 1.8199109
-1.4397403 1.0803438 1.8446416
0.62610191 1.0747207 1.8284044
-1.5217351 1.1181676 1.8001641
-1.4752363 1.126457 1.8214769
-1.440575 1.1240168 1.844191
0.62448722 1.1254393 1.8262327
-1.5096654 1.1734601 1.8046652
-1.4731057 1.1754198 1.8247002
-1.4371808 1.1692983 1.8458009
0.62484163 1.1735237 1.8234106
-1.5056118 1.2148582 1.8019581
-1.4762263 1.2259632 1.8214821
-1.4425291 1.2280457 1.843223
0.62539661 1.2261089 1.8212495
-1.5076939 1.2771063 1.8062025
-1.4794811 1.2753373 1.8256687
-1.4408537 1.2724159 1.8431334
0.62275398 1.2743384 1.8251188
-1.5054759 1.3214481 1.8039837
-1.4727045 1.3233869 1.8220823
-1.4386909 1.3156996 1.845561
0.62266439 1.3270134 1.8256285
-1.5081527 1.3729522 1.8029004
-1.474025 1.3785869 1.8236275
-1.438982 1.3752186 1.8449843
0.62447304 1.3737057 1.8207463
-1.5055585 1.4242318 1.8023648
-1.4734067 1.4306794 1.8218455
-1.4362833 1.428169 1.8426602
0.62143391 1.4237783 1.8282269
-1.4764837 1.4806947 1.8199197
-1.4370311 1.4781315 1.8423214
0.62447959 1.4729357 1.8232971
-1.4747906 1.5287417 1.8152355
-1.4365323 1.5258473 1.840794
0.62095308 1.5138671 1.8300352
-1.4698434 1.5801013 1.8201623
-1.4414988 1.5710229 1.8409723
-1.5016261 1.6198514 1.8017764
-1.4777719 1.6227057 1.8160741
-1.4416355 1.6152179 1.8409214
-1.5000988 1.6973691 1.8094059
-1.4752533 1.6711067 1.8165381
-1.4456428 1.673491 1.8373351
-1.5010426 1.7113178 1.8006647
-1.4727234 1.7221965 1.8218571
-1.4296424 1.7305069 1.8420026
-1.5071024 1.7591387 1.8121163
-1.4720032 1.756055 1.8304236
-1.6162353 1.8290913 1.8113195
-1.576133 1.8252704 1.8321205
-1.5290734 1.8058217 1.8405788
-1.6697754 1.882728 1.8171113
-1.6264182 1.8720459 1.8377916
-1.6925793 1.9046062 1.8233027
-1.2231991 -0.55019885 1.8610651
-1.1714628 -0.55331933 1.8525708
-1.122056 -0.55176884 1.8693539
-1.0720581 -0.55426091 1.8749325
-1.0231745 -0.5549984 1.8710302
-0.97750491 -0.55956233 1.8700988
-0.9317373 -0.55749053 1.8831733
-0.82461143 -0.56091887 1.8722911
-1.3198678 -0.51077086 1.8601686
-1.2733399 -0.52307081 1.8741431
-1.2229935 -0.53832066 1.8820564
-1.1736431 -0.54510498 1.8846059
-1.1281376 -0.54654026 1.881376
-1.0822213 -0.54714578 1.8789116
-1.0467714 -0.54985511 1.8940897
0.55923629 -0.50008965 1.881199
-1.4091494 -0.48095387 1.8824222
-1.3682301 -0.4798696 1.8646864
-1.3265755 -0.47608227 1.8836712
-1.296034 -0.49787852 1.887991
0.48000827 -0.47463021 1.8637199
0.52699828 -0.47436965 1.8779902
0.57477242 -0.47385427 1.8787932
0.60760224 -0.46317005 1.8629013
-1.4538339 -0.43106827 1.8564328
-1.4015167 -0.40909934 1.8533963
-1.3745723 -0.42546588 1.8688976
-1.3260674 -0.42987663 1.8840884
-1.2966127 -0.41158 1.8942446
0.47449717 -0.42347673 1.8633779
0.525895 -0.42344299 1.8847679
0.58233911 -0.42665204 1.891463
0.61655992 -0.42318174 1.8648783
-1.4087132 -0.36034659 1.85035
-1.394039 -0.37660897 1.8591721
-1.3234609 -0.37700179 1.8647103
-1.2852398 -0.37819237 1.8891387
-0.15682322 -0.36760575 1.8899384
-0.13849613 -0.36801982 1.8685118
0.4413527 -0.36609083 1.8518198
0.47433138 -0.37644827 1.8687762
0.52277178 -0.37503275 1.890031
0.59267968 -0.37768 1.8950956
0.62329274 -0.37408859 1.8690333
-1.4072062 -0.32817212 1.8530769
-1.3893945 -0.32775474 1.8601757
-1.325852 -0.32389039 1.8654857
-1.2868433 -0.3259415 1.8909158
-0.15404029 -0.33088487 1.8863392
-0.13674134 -0.32621098 1.8638663
0.43907392 -0.32468632 1.8552094
0.47374836 -0.32476935 1.8723243
0.51621777 -0.32836592 1.8917242
0.59632099 -0.32514498 1.8971624
0.62329483 -0.32621631 1.8739483
0.65142977 -0.31978297 1.851202
-1.4069484 -0.27453628 1.8537692
-1.3774819 -0.27516896 1.8567575
-1.3214805 -0.27383873 1.868333
-1.2854078 -0.26875955 1.8919233
-0.12867777 -0.27450752 1.8728281
0.43800819 -0.275767 1.8582603
0.47651964 -0.27612621 1.8775012
0.51457906 -0.27464396 1.8938013
0.59539944 -0.28228751 1.898859
0.62391335 -0.27467936 1.8767613
0.65010518 -0.28674954 1.851074
-1.407074 -0.22660676 1.8547344
-1.3773789 -0.22429661 1.8609623
-1.3227996 -0.22787596 1.8675083
-1.2853745 -0.22387941 1.8911288
-0.12349071 -0.22744107 1.8708968
0.43662116 -0.2253986 1.8610971
0.47617376 -0.22533028 1.8805971
0.50872999 -0.22290544 1.8947647
0.62326586 -0.22400038 1.8815194
-1.4083532 -0.18232059 1.8534751
-1.39403 -0.17350782 1.8623221
-1.3278738 -0.17633566 1.8631102
-1.2875003 -0.17653185 1.8876458
-0.12339219 -0.17493926 1.8729806
0.43605205 -0.1747418 1.8622801
0.47553554 -0.17450777 1.8816429
0.51075268 -0.17712796 1.8964289
0.62580234 -0.17735021 1.8806522
-1.4075731 -0.12586738 1.852771
-1.3894887 -0.12568517 1.859218
-1.3260819 -0.12419049 1.8638513
-1.2864494 -0.12439973 1.8892685
-0.12331209 -0.12552306 1.8743749
0.43400267 -0.12522967 1.8627459
0.47466311 -0.12373429 1.8808192
0.50487715 -0.12729588 1.8952587
0.62680209 -0.1259612 1.8782458
0.65559185 -0.10110671 1.8513387
-1.4055836 -0.073143303 1.8523632
-1.385161 -0.072911598 1.8555908
-1.3246245 -0.072218835 1.863884
-1.2847867 -0.072339751 1.8888688
-0.12220125 -0.077315643 1.8762858
0.43048364 -0.077623084 1.8599886
0.47457585 -0.073290825 1.8822054
0.50586063 -0.070534624 1.8963457
0.62769699 -0.075148918 1.8792742
0.65549374 -0.071187623 1.8519561
-1.4079016 -0.026901994 1.852327
-1.3871993 -0.025772192 1.8558973
-1.3227464 -0.025260493 1.8643361
-1.2841754 -0.025593454 1.8888763
-0.12330867 -0.026872693 1.8767129
0.43003592 -0.027019819 1.8597376
0.47443897 -0.027438771 1.8824412
0.50711691 -0.027721098 1.8972218
0.62926733 -0.02776954 1.8782586
0.65552557 -0.027500426 1.8528122
-1.4085206 0.024978163 1.853756
-1.392141 0.017937401 1.8591467
-1.3242836 0.021101749 1.8643309
-1.2852913 0.021117188 1.8905025
-0.12162551 0.023422714 1.8738581
0.43034008 0.023532325 1.8602444
0.47445372 0.02297505 1.8825022
0.50415236 0.023192652 1.8951743
0.62930971 0.023320187 1.8783801
0.65543175 0.023087388 1.8525378
-1.4094495 0.070592128 1.8539872
-1.3842413 0.074789867 1.8561327
-1.3256025 0.073018454 1.8650964
-1.2867007 0.073136263 1.8915235
-0.12249053 0.076555207 1.877753
0.42998502 0.074971519 1.8604795
0.47469655 0.073443666 1.8826193
0.50600213 0.073015504 1.8967249
0.62967896 0.074450061 1.8785548
0.65539026 0.071385853 1.851557
-1.4097786 0.12500955 1.8520561
-1.3900774 0.12650694 1.8585515
-1.3267976 0.12592976 1.8668722
-1.2876362 0.12380847 1.8922942
-0.22877623 0.12443927 1.8507035
-0.12301036 0.12462719 1.8794712
0.43464985 0.1258775 1.8624802
0.47520268 0.12401665 1.8827564
0.50425208 0.12454956 1.8967947
0.62705815 0.12640958 1.8793085
0.65634263 0.12446076 1.852285
-1.4088948 0.17556398 1.855031
-1.3750535 0.17773637 1.8570474
-1.322157 0.17676154 1.8728269
-1.2919875 0.17785077 1.8938363
-0.11998092 0.17544785 1.873825
0.43296632 0.17394856 1.8601873
0.47553787 0.17463651 1.8813848
0.50733435 0.17769381 1.8970262
0.62622988 0.1770432 1.8785237
0.65651017 0.16595294 1.8505396
-1.4089423 0.22624995 1.8541781
-1.3752061 0.22141379 1.8561281
-1.3237641 0.2249333 1.8734171
-1.294422 0.2252581 1.893473
-0.22533862 0.21866983 1.8662382
-0.1181469 0.22997779 1.8710507
0.43293676 0.22283442 1.8606447
0.47371474 0.22598408 1.8803521
0.51074088 0.22727744 1.8979952
0.62503272 0.22383067 1.8799936
0.65270239 0.22666802 1.8542436
-1.4110427 0.27579564 1.8540674
-1.3743943 0.27615142 1.8559613
-1.3276788 0.27275378 1.8739551
-1.2951344 0.27761483 1.895071
-0.21239662 0.26390448 1.8547044
-0.12017337 0.27451774 1.8725578
0.43520632 0.27696204 1.8607209
0.47484407 0.27471617 1.8800939
0.51209235 0.27826473 1.8950304
0.62539399 0.27381924 1.8789934
0.65079153 0.27800626 1.8535351
-1.4147942 0.32220033 1.8544939
-1.372205 0.32611132 1.8583874
-1.3234428 0.32732773 1.8801678
-1.2927653 0.31306216 1.8970928
-0.21741182 0.32818249 1.8656858
-0.12383898 0.3220439 1.8767948
0.43246603 0.32414702 1.8583177
0.47242799 0.32419747 1.8776219
0.51451463 0.32826355 1.8966061
0.59815234 0.34999359 1.8996571
0.6243118 0.32559231 1.8783786
0.65166229 0.32014456 1.8513505
-1.4149961 0.37645903 1.8553463
-1.3756311 0.37296614 1.858884
-1.326175 0.37480992 1.8788509
-1.2974015 0.3808932 1.8996528
-0.12035043 0.37090042 1.8771089
-0.087707788 0.39603361 1.8574595
0.43394545 0.3775408 1.8599644
0.47474936 0.37459558 1.8791441
0.51258147 0.374942 1.8947552
0.59854221 0.37862402 1.8971052
0.62633067 0.37548018 1.8739513
-1.4133902 0.42496112 1.8587265
-1.3699974 0.42442596 1.8586727
-1.3248771 0.42389458 1.8814645
-1.2982415 0.40758041 1.8965418
-0.11324048 0.43232432 1.882311
-0.090887733 0.41804263 1.8688648
0.4325563 0.42491114 1.8563619
0.47718155 0.42511526 1.8787576
0.51801276 0.42626473 1.8964828
0.62442333 0.42499867 1.8746384
-1.4136497 0.47261363 1.8567196
-1.3741208 0.47282529 1.8595949
-1.3261707 0.47350726 1.8825915
-0.12812445 0.47486585 1.8715501
0.43765879 0.47455963 1.8577672
0.47518817 0.47329184 1.8750888
0.51392347 0.47575489 1.8935193
0.59432089 0.49178725 1.8986461
0.62202001 0.47527403 1.8747243
-1.4128002 0.5225749 1.8553586
-1.3724331 0.52510363 1.8608454
-1.325351 0.52356511 1.8838812
-0.15521611 0.5098626 1.8938292
-0.13274787 0.52592379 1.8710874
0.44138241 0.52401358 1.8580946
0.47490835 0.52408206 1.8738604
0.5190931 0.52389944 1.8931032
0.59617347 0.52685767 1.8982548
0.62215847 0.52372283 1.8734066
-1.4126136 0.57295781 1.8577501
-1.3746024 0.57339925 1.8619006
-1.3277646 0.57449555 1.8844862
-0.15448922 0.59974372 1.8665226
-0.13491003 0.57485336 1.8724844
0.44281024 0.57303959 1.8563166
0.47479784 0.57541108 1.8721855
0.524086 0.57374501 1.8934966
0.59709233 0.58040184 1.8961439
0.62187397 0.57459676 1.8711332
-1.4142374 0.62627941 1.8565856
-1.3712244 0.62397289 1.8627461
-1.324504 0.62684482 1.8846203
-0.15616997 0.615596 1.8847693
-0.13741034 0.62253153 1.8720219
0.43971434 0.62736541 1.8537534
0.4742265 0.62476587 1.8700202
0.52313578 0.6207794 1.8932209
0.59461647 0.63104069 1.8967354
0.61832714 0.62497926 1.8724716
-1.4123927 0.66992599 1.8562987
-1.37288 0.67746168 1.8630012
-1.3274988 0.67644846 1.8844479
-0.13916661 0.67109007 1.8711041
0.44373155 0.67941642 1.851832
0.4767839 0.67323345 1.8691615
0.52645099 0.67554486 1.8926464
0.59522599 0.67554134 1.8968556
0.6172623 0.67438459 1.8699312
-1.4130448 0.72449094 1.8573617
-1.3709892 0.72595853 1.8645802
-1.3295822 0.72348887 1.8849633
-0.14352502 0.7254526 1.885124
0.4470655 0.73498678 1.8521634
0.47314638 0.7229951 1.8651446
0.52188438 0.72566557 1.8875595
0.59671128 0.72107208 1.890007
0.61722809 0.72501153 1.86639
-1.4115967 0.77953684 1.854602
-1.3732828 0.77307284 1.8632971
-1.3297062 0.77369946 1.8874472
-0.14152494 0.76121747 1.8798329
0.43303591 0.78252989 1.86524
0.47415906 0.76485711 1.8717571
0.51487172 0.76029074 1.8898827
0.59489357 0.7717135 1.8921866
0.61359775 0.77802396 1.8669901
-1.4132662 0.82886589 1.8574575
-1.3714614 0.82246768 1.8667566
-1.3305255 0.82379019 1.887132
-0.092980869 0.82541144 1.8793404
0.59231627 0.8273086 1.8925611
0.61163199 0.82492512 1.8680305
-1.4141035 0.87404519 1.8576342
-1.3711373 0.87430823 1.8660161
-1.3315735 0.87107033 1.888351
-0.045030907 0.88247073 1.8501676
0.5941847 0.87564868 1.8877112
0.61460739 0.87603176 1.8623995
-1.415648 0.92963016 1.8573064
-1.3714163 0.92374098 1.8646885
-1.3323097 0.92193627 1.888852
0.59338415 0.92554778 1.8811226
0.61467898 0.91657126 1.861461
-1.416397 0.97756755 1.8568825
-1.3724011 0.97570735 1.8659972
-1.3315889 0.97388643 1.888571
0.5894677 0.97639346 1.8844424
0.60563254 0.97037399 1.8603878
-1.4151263 1.0251948 1.8591518
-1.3718983 1.0289034 1.8669882
-1.3335754 1.0268488 1.8882011
0.58914936 1.0222678 1.8837551
0.60505706 1.0227935 1.8605106
-1.418915 1.075748 1.8585896
-1.3719229 1.0761399 1.8666
-1.3357693 1.0761679 1.889186
0.58861309 1.0792463 1.8845922
0.60473877 1.0677055 1.861442
-1.4138163 1.1261942 1.855626
-1.3700478 1.1239961 1.867435
-1.3394065 1.1265225 1.8915663
0.58784258 1.1274253 1.8804244
0.60500604 1.1133157 1.855813
-1.4160571 1.1785319 1.8570957
-1.3736206 1.1758192 1.8726648
-1.3382331 1.1773461 1.8903043
0.58779293 1.1730444 1.8779048
0.60291469 1.1854709 1.8561554
-1.4192604 1.22445 1.8555696
-1.3726401 1.2240626 1.86711
-1.338056 1.2187754 1.8902944
0.5891422 1.2275969 1.8765633
0.60624129 1.2180579 1.8529959
-1.4147922 1.2743143 1.8602216
-1.3710165 1.2790172 1.8762795
-1.3407081 1.2734548 1.8942928
0.58583641 1.2728451 1.8790313
0.60319471 1.2752761 1.8559278
-1.4128587 1.3210185 1.85831
-1.37462 1.3252839 1.8721089
-1.3438405 1.3267499 1.8918264
0.58446902 1.3231528 1.8826355
0.60215622 1.3273653 1.8582526
-1.4226849 1.3679731 1.8560908
-1.3741418 1.3725673 1.8727131
-1.3424724 1.3777107 1.893863
0.58654451 1.3778567 1.8817669
0.60584509 1.3791071 1.856119
-1.4173791 1.4244709 1.8643416
-1.3756407 1.4227376 1.8752575
-1.342173 1.4313244 1.8944755
0.58555037 1.4256396 1.8837466
0.60283935 1.4353127 1.8593118
-1.4159297 1.4741331 1.8554293
-1.3737372 1.473063 1.872268
-1.3423011 1.4624763 1.8906608
0.5874427 1.4726378 1.8788817
0.60392094 1.4742513 1.8569703
-1.4141859 1.5327436 1.8576123
-1.3762372 1.5233582 1.8744777
-1.3444577 1.5282289 1.8928598
0.58601779 1.5209126 1.8828135
0.60400939 1.5258994 1.8592523
-1.4171603 1.5794921 1.8575691
-1.3732473 1.5776736 1.8766109
-1.3421841 1.5580491 1.8930444
0.59004527 1.559033 1.8840851
-1.4194673 1.6237739 1.8578837
-1.3743148 1.6300933 1.8760933
-1.3422565 1.6307371 1.8943231
-1.4256605 1.6762681 1.8620892
-1.3754147 1.6758866 1.8765763
-1.3435516 1.6797526 1.8977573
-1.4111689 1.7199601 1.8534094
-1.3734794 1.7253273 1.8756785
-1.3432691 1.7066575 1.8954519
-1.5124842 1.8097389 1.8577117
-1.495527 1.8052982 1.8618408
-1.6107639 1.8893728 1.8539557
-1.571316 1.8699995 1.8689563
-1.5447049 1.8686862 1.8812623
-1.6120698 1.9070754 1.8804036
-1.0175713 -0.55060643 1.9090827
-0.96638256 -0.55540699 1.9191262
-0.92513883 -0.55552441 1.9261278
-0.86222494 -0.55694777 1.9362788
-0.84116894 -0.56226778 1.9325838
-1.2579789 -0.50811666 1.904073
-1.2247164 -0.51505226 1.9162741
-1.1776297 -0.52257723 1.9269955
-1.1275649 -0.53250617 1.921371
-1.0758257 -0.5372892 1.9208972
-1.028203 -0.54374486 1.9317545
-0.97849077 -0.54783314 1.92545
-1.4297452 -0.46784323 1.9250337
-1.311911 -0.4912321 1.9026083
-1.2757279 -0.47718066 1.9159669
-1.2348703 -0.48431239 1.9373741
-1.3034363 -0.42967349 1.9014398
-1.2733004 -0.43076795 1.9184104
-1.2307705 -0.41971469 1.9391363
0.56970412 -0.42180923 1.901636
-1.2623355 -0.37402287 1.9046776
-1.2278544 -0.3765437 1.9290241
-0.17894502 -0.36367178 1.9212278
0.54959589 -0.37256184 1.9024395
0.57066703 -0.37400204 1.9059495
-1.2635322 -0.32312158 1.9080337
-1.2282171 -0.32581988 1.9313523
-0.17143078 -0.32554963 1.9233431
0.54267812 -0.3221918 1.9046011
0.57607371 -0.32326436 1.9111682
-1.2624468 -0.27427113 1.9077175
-1.2260364 -0.27274191 1.9340904
-0.16053411 -0.27544677 1.934128
-0.14473926 -0.26963708 1.9111305
0.54237431 -0.27225012 1.9058148
0.57666445 -0.27287132 1.9132134
-1.260036 -0.22277136 1.9078357
-1.2233653 -0.2249866 1.9344742
-0.15909865 -0.22538149 1.9321527
-0.1440127 -0.22406085 1.9052334
0.53599465 -0.22458903 1.9047618
0.57837963 -0.22654161 1.9138776
-1.2638415 -0.17686561 1.9047489
-1.2257617 -0.17742725 1.9311308
-0.15896116 -0.17286395 1.9369738
-0.14425623 -0.17404863 1.9118696
0.53721541 -0.17700084 1.9070652
0.57737058 -0.17429978 1.9140627
0.60332972 -0.16892521 1.9011965
-1.2626784 -0.12464511 1.9061177
-1.2266154 -0.1245566 1.929587
-1.1997083 -0.128657 1.9465498
-0.15754077 -0.12509118 1.9361789
-0.14415987 -0.12357691 1.9131011
0.53073347 -0.12501843 1.9047536
0.57553136 -0.12207559 1.9106095
0.60245466 -0.11711851 1.9010193
-1.2608109 -0.072463967 1.905318
-1.2278545 -0.072693713 1.9287364
-1.1990948 -0.072858848 1.9476951
-0.15744856 -0.075265333 1.9324938
-0.14112635 -0.07169231 1.9091136
0.53163862 -0.076158345 1.9051898
0.57540363 -0.07506296 1.9117911
0.60209298 -0.065508462 1.9015247
-1.2601662 -0.025657061 1.9052416
-1.2277693 -0.025761163 1.9294853
-1.199458 -0.025845641 1.949155
-0.15431345 -0.027611574 1.9275248
-0.14390919 -0.027379701 1.9121907
0.53425705 -0.027922893 1.9071743
0.57540333 -0.028099727 1.9126118
0.60211504 -0.028032195 1.9021699
-1.2611048 0.021130163 1.9066398
-1.2279638 0.021164108 1.9297795
-1.1993729 0.024679542 1.9489478
-0.15600821 0.026449988 1.9319609
-0.1424021 0.019586852 1.909483
0.53054535 0.023390405 1.9066067
0.57592881 0.023586664 1.9143575
0.60202289 0.023512142 1.9018704
-1.2624617 0.073221125 1.9076509
-1.2267431 0.072996072 1.9316131
-1.1999323 0.052574459 1.9494768
-0.15456359 0.073881999 1.929794
-0.14376594 0.073091492 1.9094414
0.53208017 0.075274035 1.9066935
0.57587528 0.075292259 1.9132695
0.60208702 0.075051524 1.9011492
-1.2620763 0.12811805 1.9100603
-1.2294275 0.12443709 1.9327799
-0.15653482 0.12450964 1.9359728
-0.14280292 0.1268626 1.9121482
0.53043127 0.12630342 1.9059297
0.57619536 0.12236712 1.9126335
0.60244149 0.1126001 1.9010069
-1.2680153 0.17813189 1.9106205
-1.2289089 0.17850055 1.9357487
-0.15681276 0.1746542 1.9341284
-0.14004415 0.17290564 1.9098028
0.53330725 0.17724478 1.9065028
0.57691866 0.17433836 1.9123075
-1.2704233 0.22562625 1.9103684
-1.2313644 0.22612165 1.9358087
-0.15694731 0.22273701 1.9324988
-0.14082955 0.22120035 1.9116592
0.53588569 0.22248331 1.9065745
0.57769907 0.22644375 1.9112122
-1.2690852 0.27363583 1.9141314
-1.2320429 0.27231327 1.9380913
-0.2849611 0.27347618 1.9161783
-0.15721162 0.27666724 1.9339932
-0.14225972 0.27738887 1.9120387
0.53666759 0.27098545 1.9051462
0.578825 0.27414456 1.9107165
-1.2710146 0.32885945 1.9161757
-1.2350947 0.32830128 1.9414684
-0.28834191 0.30015776 1.9366113
-0.16185248 0.32507193 1.9396442
-0.14286873 0.33005276 1.9148238
0.54080671 0.32514587 1.9047798
0.57964903 0.32186246 1.9083982
-1.2733718 0.37491339 1.9149542
-1.2373399 0.37659273 1.9383129
-0.16047327 0.36313787 1.9349635
-0.14049333 0.37629545 1.9195772
0.53376365 0.37719792 1.9027892
0.57294524 0.37413716 1.9093274
-1.2716131 0.42515731 1.9181886
-1.2329133 0.42504865 1.9423184
-0.15819392 0.43460992 1.9441839
-0.13539851 0.42300826 1.9236387
0.53808355 0.42227471 1.9026104
0.57306093 0.42624322 1.9073527
-1.300264 0.49168074 1.9058205
-1.2755175 0.47397277 1.9176753
-1.2390101 0.47482777 1.9423078
-0.16182555 0.47384858 1.9240437
-0.14638278 0.46953601 1.9071935
0.53964609 0.47509351 1.9023045
0.57372755 0.47635886 1.9062462
-1.3005773 0.50782651 1.9029183
-1.2721657 0.52535701 1.9219258
-1.2381011 0.5289191 1.9447138
-0.15562791 0.5019204 1.9005203
0.54670781 0.52532506 1.9027367
0.57376641 0.52826345 1.9084299
-1.2768871 0.57570529 1.918054
-1.2420748 0.57699353 1.9418981
0.54879481 0.57047623 1.9013412
0.57412827 0.57666016 1.9079143
-1.3007933 0.61448348 1.9006665
-1.2751234 0.62481982 1.9180298
-1.2449191 0.61991286 1.9433243
-0.16155131 0.64014781 1.9078869
0.5397498 0.64361876 1.9017105
0.57185012 0.62307137 1.9083151
-1.3040509 0.69741648 1.9060826
-1.274894 0.67781109 1.9227158
-1.2412034 0.6706636 1.9433722
-0.16745348 0.6777674 1.9253923
-0.14885902 0.67131901 1.9001504
0.57332873 0.67361844 1.9083138
-1.3072969 0.72647011 1.9024678
-1.2762349 0.72741711 1.9228598
-1.2396574 0.72837698 1.9455042
-0.16518553 0.73204201 1.926158
0.54780054 0.71592325 1.9011488
0.57616532 0.7258929 1.9079731
-1.3031729 0.77418625 1.9044113
-1.2746458 0.77702063 1.9263734
-1.2451092 0.77729595 1.9461296
-0.16995774 0.76790071 1.9414082
0.53279293 0.78183651 1.921084
0.5695281 0.77722704 1.9132401
-1.3060735 0.82151562 1.9070244
-1.2737054 0.82709676 1.9298509
-1.2458022 0.82054949 1.9478098
0.39345866 0.84142137 1.9277596
0.42911482 0.83366412 1.9303834
0.46901953 0.82527584 1.9351459
0.54021376 0.81802326 1.9443846
0.5706448 0.82430619 1.9193957
-1.3063623 0.87764978 1.905953
-1.2750095 0.87529373 1.9297949
-1.2463101 0.87040836 1.9483547
0.38648745 0.85783792 1.9408221
0.54979688 0.86159098 1.9482719
0.56913459 0.87515801 1.9243681
-1.3087091 0.92266351 1.904254
-1.276159 0.92613828 1.9287122
-1.2485236 0.94748485 1.9495369
0.44311106 0.93194932 1.9429321
0.45883116 0.93303257 1.9426122
0.54622185 0.94389021 1.9497352
0.56887096 0.92348695 1.9224335
-1.3093786 0.97628593 1.9092919
-1.2760028 0.97950715 1.9303689
-1.2495118 0.9595235 1.9465303
0.44179201 0.97425491 1.9371802
0.45047423 0.96728468 1.9411381
0.5476585 0.96697426 1.9473786
0.56550306 0.97384107 1.9214367
-1.3103311 1.0275495 1.904398
-1.2763755 1.0259838 1.929121
0.44604352 1.0314949 1.9487076
0.45384476 1.0052992 1.9441806
0.54522008 1.0267521 1.9450184
0.56315875 1.0249014 1.9222758
-1.3133852 1.0746377 1.9084173
-1.2773277 1.0724233 1.9317596
0.54593229 1.0712272 1.9458134
0.56527859 1.0761187 1.9197067
-1.3140059 1.1263038 1.9108776
-1.2766476 1.1257263 1.9335359
0.54617012 1.1232002 1.9441226
0.56314236 1.1242733 1.9197861
-1.3140491 1.177826 1.9106977
-1.2782506 1.1743374 1.9373511
0.5450328 1.1754436 1.9452767
0.56071198 1.1709294 1.9182068
-1.3131833 1.2228484 1.9143511
-1.2793056 1.2263916 1.9417036
0.54383004 1.2173938 1.9403855
0.56256127 1.2248631 1.9154192
-1.3164942 1.275795 1.9139386
-1.2840712 1.2723529 1.9384305
0.54363453 1.2715479 1.9440813
0.56016248 1.2765299 1.918466
-1.3204634 1.3314514 1.9125208
-1.2806422 1.3273681 1.9386597
0.54842162 1.3209622 1.9410148
0.56173646 1.325785 1.9173989
-1.317341 1.3775803 1.9152472
-1.2852063 1.3797851 1.9385587
0.54462266 1.3827068 1.9444946
0.56098074 1.3753344 1.922071
-1.320742 1.4233902 1.9115252
-1.285904 1.4280783 1.937678
0.54785907 1.4187529 1.939798
0.56020045 1.4287753 1.9228394
-1.3208147 1.475875 1.909972
-1.2820865 1.4743418 1.9333433
0.54494023 1.480021 1.9478418
0.56194329 1.4774354 1.9219329
-1.3197035 1.5263288 1.9124112
-1.2818977 1.5280385 1.9379123
0.54669738 1.5074493 1.939788
0.5644716 1.5270194 1.922859
-1.3242584 1.5791185 1.9131684
-1.2840236 1.5710897 1.938365
0.56538165 1.5712334 1.9266529
-1.3150469 1.6224896 1.9174894
-1.2885119 1.6193023 1.9381013
-1.3201877 1.6737012 1.9135147
-1.2899895 1.6756387 1.9383812
-1.3219882 1.7239082 1.9138685
-1.289873 1.7252274 1.9384317
-1.3281168 1.7622964 1.9231911
-1.2958592 1.7548939 1.9386044
-1.5426812 1.8827891 1.9043174
-0.91526878 -0.55257249 1.9660435
-0.87695128 -0.55386788 1.9729446
-0.83165389 -0.55680633 1.9771955
-0.79622883 -0.55284607 1.9930868
-1.1655552 -0.50620711 1.9626987
-1.123884 -0.51324362 1.9731246
-1.0725499 -0.52435899 1.9711194
-1.022519 -0.53269696 1.9749705
-0.97226757 -0.5404802 1.9750875
-0.92904657 -0.54632092 1.9819809
-0.84191555 -0.54565299 1.9942421
-1.2180554 -0.47620222 1.9587226
-1.1813085 -0.47317272 1.9808306
-1.1399739 -0.49325389 1.9961807
-1.2124783 -0.43318701 1.9590877
-1.1781799 -0.42037717 1.9781927
-1.1348614 -0.40370944 1.9899448
-1.202457 -0.35910898 1.9517174
-1.1732628 -0.37579626 1.9682318
-1.1389841 -0.37384102 1.9930383
-0.21195939 -0.36553043 1.9769939
-0.19682658 -0.36519945 1.9604932
-1.2015762 -0.33772528 1.9531206
-1.1740525 -0.32653025 1.9710579
-1.1405774 -0.32713568 1.9948674
-0.21168335 -0.34187937 1.9831942
-0.19084588 -0.32360807 1.9650813
-1.1761405 -0.27530053 1.9700664
-1.1422141 -0.27240357 1.993132
-0.18182991 -0.27755937 1.9762664
-1.1759365 -0.22491308 1.969372
-1.1444123 -0.2217592 1.9929371
-0.18236874 -0.225933 1.9807774
-1.1752132 -0.17750625 1.9677278
-1.1426022 -0.17390881 1.9932548
-0.17652209 -0.17625767 1.9728872
-1.1725833 -0.12565055 1.9681108
-1.1410257 -0.12623759 1.9930894
-0.17646314 -0.12298618 1.9757588
-1.1716307 -0.073120572 1.9684318
-1.1400694 -0.073470347 1.9933262
-0.17963623 -0.072744213 1.9774798
-1.1715279 -0.025938049 1.9691133
-1.1394932 -0.026058866 1.9931682
-0.20806609 -0.025490083 1.9985107
-0.18189155 -0.028311381 1.9747528
-1.2005291 0.010750441 1.9509959
-1.1725368 0.02123818 1.9682177
-1.1394479 0.021301705 1.9930751
-0.20798957 0.019165225 1.9977844
-0.18289967 0.022681857 1.9789678
-1.2020721 0.089336753 1.9519105
-1.1725458 0.073732227 1.9698223
-1.1412206 0.074066147 1.9951942
-0.20815307 0.057465747 1.9989047
-0.18220891 0.075744495 1.9772141
-1.2027596 0.1260772 1.9514306
-1.1743232 0.12638584 1.9707668
-1.1426026 0.12693071 1.9956007
-0.20824966 0.12214649 1.9978635
-0.18201786 0.1243168 1.9735537
-1.2060924 0.17373317 1.9540706
-1.1754313 0.17482549 1.9730461
-1.1466455 0.1693612 1.9945953
-0.20817849 0.16757226 1.9950268
-0.18345685 0.17637242 1.9727325
-1.2070971 0.22122557 1.9520184
-1.174605 0.22202854 1.9760932
-1.1420519 0.2281615 1.9994214
-0.21145268 0.22764598 1.9960048
-0.18310528 0.22737284 1.9713163
-1.2067385 0.27494425 1.9573185
-1.1736467 0.2758424 1.9807014
-1.1428974 0.25484091 1.9985489
-0.31644037 0.27712217 1.9785398
-0.29989693 0.27401054 1.9525942
-0.21234478 0.27967492 1.9855524
-0.18301734 0.27361846 1.966467
-1.2103974 0.32345572 1.9576879
-1.1767054 0.32437551 1.980394
-0.31386903 0.3233597 1.9867167
-0.29210505 0.32785973 1.9593149
-0.21292134 0.3255457 1.9814026
-0.18794891 0.32366002 1.9716973
-1.2115873 0.37497881 1.9582376
-1.174305 0.37304464 1.9834399
-1.1493881 0.35230801 1.9989468
-0.30804023 0.37608826 1.9952285
-0.29390466 0.3796753 1.9763988
-0.21636133 0.37787777 1.9892871
-0.18304065 0.37806743 1.9741802
-1.2101506 0.42772427 1.9589224
-1.175797 0.42542097 1.9843495
-0.42488828 0.4371548 1.9744048
-0.29235947 0.41085246 1.9842016
-0.21390462 0.40783435 1.9712337
-0.18023427 0.42127198 1.9693592
-1.2153091 0.47771063 1.9575222
-1.1766133 0.47449771 1.983579
-0.20751144 0.46683565 1.9884371
-0.18408446 0.46791235 1.9685459
-1.2147133 0.52353609 1.9588796
-1.1748421 0.52311188 1.9859097
-1.2165059 0.5741334 1.9598523
-1.1775684 0.57474083 1.9838123
-1.2182045 0.62443161 1.9610147
-1.1787544 0.62702388 1.9856093
-1.2174529 0.67556322 1.9601527
-1.178494 0.6713534 1.9858564
-1.2142104 0.72607851 1.9650097
-1.1795038 0.72179651 1.9872811
-0.20642959 0.71653634 1.9944152
-0.18640265 0.72213185 1.9692951
-1.2204063 0.77864414 1.9617324
-1.1829214 0.77377635 1.9874026
-0.19024304 0.76311231 1.9801077
-1.2215983 0.82854742 1.9633662
-1.1827848 0.8298009 1.9885823
0.49757102 0.82857358 1.9613905
0.52102345 0.83283001 1.9627423
-1.2212938 0.87803698 1.965103
-1.1847191 0.8799178 1.9885154
0.39184618 0.87986463 1.9645524
0.43339318 0.87855607 1.9685042
0.47516787 0.8741973 1.9648781
0.52552772 0.87698436 1.9695716
-1.2240301 0.92811006 1.9649658
-1.1821363 0.92299384 1.9896901
0.43620548 0.9111315 1.9646896
0.47643211 0.92040938 1.9680233
0.52475023 0.9272691 1.9736307
-1.2259003 0.97552592 1.964341
-1.1862801 0.9680863 1.9887156
0.43775725 0.97460938 1.9940541
0.48088393 0.97633743 1.9776188
0.5244965 0.97604334 1.9760486
-1.2239963 1.0202609 1.9648272
-1.1887586 1.0263522 1.9901788
0.43832269 1.0296464 1.975029
0.46633378 1.0212978 1.9742712
0.52402198 1.0245128 1.9754751
-1.2526522 1.0891125 1.951756
-1.2244962 1.0740921 1.9669541
-1.1901833 1.0783665 1.9909943
0.43860087 1.0619775 1.9931341
0.45660937 1.0664911 1.9906911
0.52125788 1.0737463 1.9771444
-1.2501624 1.1376541 1.952726
-1.2252818 1.1252204 1.9718016
-1.1906712 1.1290209 1.9958675
0.5225516 1.1225287 1.9762864
-1.2569655 1.1826175 1.9538118
-1.2265341 1.1723393 1.9753004
-1.1927005 1.1727976 1.9977008
0.52266812 1.1764009 1.9709274
-1.2592908 1.2275556 1.9553967
-1.2243992 1.2240914 1.9772017
-1.1931401 1.2163858 1.9978331
0.52213943 1.2273833 1.9755764
-1.2605487 1.2731488 1.9565986
-1.2242844 1.2747052 1.9771174
-1.1889085 1.2799498 1.9981017
0.52070051 1.2718157 1.9772352
-1.2601604 1.3166264 1.9583461
-1.2268461 1.3250076 1.9766024
-1.1899763 1.3093443 1.9954416
0.52656424 1.3238031 1.97332
-1.2595806 1.3770773 1.9541233
-1.2246481 1.3735778 1.9755849
-1.1851389 1.3577318 1.9963312
0.52483821 1.3764384 1.974756
-1.2594588 1.4269308 1.9568554
-1.2230086 1.426196 1.9809556
-1.1974289 1.4339875 1.9973692
0.52695674 1.4264421 1.9786128
-1.2577059 1.4768945 1.9520074
-1.2272701 1.4751699 1.9785424
0.529526 1.471204 1.9744143
-1.2553192 1.5265505 1.9581366
-1.2224141 1.5237802 1.9839692
0.53059429 1.5187182 1.9742055
0.55200469 1.5335361 1.9511822
-1.2593021 1.5774111 1.960324
-1.228424 1.5718137 1.9829011
0.5344972 1.5711497 1.9742147
-1.2637138 1.6225873 1.9578629
-1.2279677 1.62558 1.9826039
0.53639019 1.6199354 1.9812895
-1.2662224 1.6758204 1.9574575
-1.2297419 1.6786854 1.9803321
-1.2615211 1.7226044 1.9636291
-1.2253227 1.7272682 1.9872843
-1.3056505 1.7902396 1.9564874
-1.2707206 1.7746344 1.9700776
-1.2259451 1.7729521 1.9902
-1.2741203 1.8213381 1.9754972
-1.2289417 1.8072793 1.9887635
-0.87135047 -0.55123162 2.0082352
-0.82405257 -0.55266404 2.028275
-0.7750926 -0.55505556 2.0223315
-0.72944427 -0.55270398 2.0104737
-1.1079638 -0.50408161 2.008101
-1.0735189 -0.51006937 2.0166883
-1.0256239 -0.51729017 2.0239515
-0.97669125 -0.52750593 2.026149
-0.9223246 -0.53716522 2.0252337
-0.87751192 -0.54367173 2.0319164
-0.81950611 -0.54668635 2.035145
-0.76915044 -0.54887474 2.0280967
-0.72491002 -0.54734159 2.022527
-1.168694 -0.4758805 2.0089147
-1.1222916 -0.48854053 2.0173321
-1.0785958 -0.4933432 2.0376658
-1.1570176 -0.43293735 2.0073702
-1.1249533 -0.41900453 2.0199647
-1.080539 -0.40731382 2.0338404
-1.1156038 -0.37123555 2.0089087
-1.0793977 -0.3753421 2.0340221
-0.23379353 -0.36416587 2.0338826
-1.1180394 -0.32289189 2.0109854
-1.080501 -0.32604831 2.0356705
-0.21296149 -0.31904486 2.0204947
-1.1172991 -0.27542266 2.0115745
-1.0810901 -0.27739671 2.0384052
-0.20723152 -0.27302593 2.0256844
-1.1164429 -0.22252402 2.0129209
-1.0789427 -0.22356763 2.0390878
-0.20729354 -0.22434942 2.0302696
-1.1146489 -0.17451189 2.0131269
-1.0795076 -0.17533171 2.0383475
-0.20654835 -0.1732223 2.0315027
-0.18953399 -0.16954653 2.0016866
-1.1164956 -0.12793384 2.0101783
-1.0846357 -0.12605757 2.0335515
-0.20614083 -0.13069899 2.0309572
-0.19191432 -0.12233899 2.0034854
-1.1171525 -0.073716417 2.0103922
-1.0848328 -0.074043795 2.0338371
-0.21347924 -0.080096491 2.0260336
-0.19632213 -0.076896012 2.0088484
-1.1168218 -0.026160209 2.0106378
-1.0846601 -0.026294339 2.0343533
-0.21676484 -0.030284645 2.0151947
-1.1168638 0.021363024 2.0107007
-1.0850065 0.021453796 2.034987
-0.21769947 0.026669765 2.0206761
-1.1179755 0.074259162 2.0117364
-1.0856285 0.07456214 2.035192
-0.21472472 0.079185806 2.0096378
-1.1160771 0.12907168 2.0140395
-1.0845344 0.12598145 2.0376308
-0.21837801 0.12737413 2.016921
-1.1205628 0.17555758 2.0141778
-1.0861812 0.17574026 2.0415285
-0.21593936 0.17499229 2.0106497
-1.1228671 0.22316004 2.0164449
-1.0865349 0.22449566 2.0408626
-0.22224136 0.22473378 2.0168972
-1.1260372 0.27823937 2.0149243
-1.0885888 0.27492639 2.0383313
-0.37278855 0.2843757 2.025398
-0.33857584 0.27706343 2.0115917
-0.21998814 0.25633931 2.0087538
-1.125604 0.32590133 2.0161471
-1.0880612 0.32319081 2.0429344
-0.37871215 0.32415462 2.0371542
-0.3327722 0.32922602 2.0086303
-1.1230882 0.37556392 2.0197337
-1.0894338 0.37686417 2.0421343
-0.37608448 0.36272934 2.0448012
-0.3315582 0.37679189 2.0226018
-0.22460489 0.39008665 2.0373383
-1.1265053 0.42509967 2.0187111
-1.0927539 0.42659995 2.0412793
-0.42513952 0.43271029 2.0252445
-0.37890348 0.42499888 2.0371199
-0.32242236 0.42196062 2.017606
-0.21431412 0.43916962 2.0131478
-1.1502705 0.49059749 2.0024314
-1.1246105 0.47501522 2.0213778
-1.0880558 0.47524068 2.0459859
-0.2201221 0.45833945 2.0166271
-1.1508017 0.50699782 2.0002978
-1.1241938 0.5258587 2.0212226
-1.0832477 0.52807808 2.0379925
-1.153836 0.57596922 2.0038581
-1.1264364 0.5753389 2.0173082
-1.088498 0.57755107 2.0341072
-1.1558317 0.62437642 2.0039585
-1.1254929 0.63004589 2.0207605
-1.0848631 0.62379807 2.036952
-1.1554608 0.67996258 2.0028496
-1.1242781 0.67608386 2.0227032
-1.092099 0.67003489 2.0453415
-1.1540745 0.72204071 2.0059536
-1.1240023 0.7239629 2.0257316
-1.0948936 0.72659922 2.0471001
-0.20862821 0.7392574 2.011869
-0.19723278 0.72927397 2.0002649
-1.157571 0.77459526 2.0061319
-1.1247982 0.77250314 2.0268776
-1.0936047 0.77365148 2.0477295
-0.21006954 0.76970863 2.0191917
-0.1993766 0.78769606 2.0087707
-1.1590769 0.82010692 2.004987
-1.1261789 0.82201731 2.0281458
-1.0957751 0.82247925 2.0487478
-1.1578382 0.8751415 2.0054851
-1.1225606 0.87262231 2.0320437
-1.1580174 0.92420071 2.0078216
-1.1266391 0.92330819 2.0300293
-1.0973027 0.91910386 2.0487568
0.39504951 0.90898454 2.0039048
0.42234764 0.92312574 2.0209711
-1.1610279 0.97483814 2.0080154
-1.1248738 0.97458357 2.0320923
-1.0913523 0.96925861 2.0472047
0.43816346 0.95612788 2.0492294
-1.1634965 1.0236785 2.0089684
-1.127823 1.0271097 2.0313268
-1.098731 1.0102539 2.0478573
0.39488974 1.0496606 2.0171468
0.42171377 1.0263872 2.0184612
0.49415228 1.0255073 2.0029993
0.50081056 1.0389103 2.0034921
-1.1640217 1.0751292 2.008224
-1.1288136 1.073476 2.0345204
0.39506379 1.0607337 2.0139472
0.41849008 1.0718061 2.0194519
0.48504654 1.0749453 2.0094604
0.50122434 1.0503813 2.0010371
-1.1656773 1.1244017 2.0121875
-1.1319782 1.126479 2.0374784
0.48099148 1.1241935 2.0235934
-1.1676819 1.1765755 2.0153489
-1.1291121 1.1761811 2.0385156
0.4835383 1.175004 2.028863
0.50355643 1.1754239 2.0039616
-1.173494 1.2212247 2.0148668
-1.1365238 1.2216007 2.0360694
0.48613206 1.2225604 2.031235
0.50658721 1.2379978 2.0018942
-1.1685386 1.2700245 2.0165169
-1.1313424 1.2718835 2.0390663
0.48935431 1.2723936 2.0270917
0.50100392 1.2901859 2.0067453
-1.1697139 1.3267194 2.0167067
-1.1364902 1.3334428 2.038492
0.48688865 1.3279938 2.0301769
0.50445938 1.3269962 2.0063112
-1.2017972 1.3820207 2.0038877
-1.1697096 1.3752294 2.0191684
-1.1350832 1.376204 2.0407212
0.48990327 1.3767064 2.0280597
0.50723672 1.3623369 2.0025218
-1.1745633 1.4212667 2.0155349
-1.1341555 1.4243047 2.0407751
0.49054679 1.4290048 2.036566
0.50334901 1.4223046 2.0122936
-1.1745306 1.4721034 2.0154586
-1.1349654 1.4692576 2.0406272
0.49385563 1.4733615 2.0304658
0.50801104 1.4757043 2.0075047
-1.2045121 1.5072172 2.0046849
-1.1779268 1.5255674 2.0201828
-1.1381638 1.5278704 2.0396268
0.49012023 1.5229428 2.0429559
0.50954801 1.5320635 2.0165498
-1.2038558 1.5661809 2.001627
-1.1767379 1.5782577 2.0208914
-1.1410037 1.5811625 2.043474
0.49684942 1.5586407 2.0323038
0.50778204 1.5838774 2.0211313
-1.2048143 1.622147 2.0044551
-1.1765684 1.6262227 2.0206544
-1.1466777 1.6298313 2.046401
0.49483645 1.6320075 2.0483449
0.51444215 1.626834 2.0205874
-1.2039902 1.6768911 2.0033612
-1.1753634 1.6741099 2.02584
-1.1468893 1.6746093 2.0435715
0.48606768 1.6670622 2.0482628
0.50705433 1.6567302 2.030668
-1.2043488 1.7344687 2.0032437
-1.1753747 1.7284436 2.0260682
-1.1420499 1.7384144 2.0409927
-1.2027797 1.783886 2.0040646
-1.1812488 1.768616 2.0162752
-1.1422236 1.7682894 2.0414081
-1.2157036 1.8295721 2.0045605
-1.1979268 1.8094729 2.0145154
-0.71044159 -0.55157042 2.0539331
-1.0176095 -0.504484 2.0665503
-0.97126859 -0.51454699 2.0723753
-0.9273327 -0.5233888 2.0731144
-0.87464601 -0.53185749 2.0733528
-0.82547927 -0.53862715 2.0728495
-0.77856445 -0.54175067 2.0744307
-0.72414064 -0.54361886 2.0797045
-0.68923652 -0.53331411 2.0965023
-1.0649523 -0.49002147 2.0664217
-1.0304533 -0.49456573 2.0777786
-0.99635577 -0.49931958 2.081548
-1.0720017 -0.42011744 2.0606508
-1.0239841 -0.4102034 2.0803554
-0.99598765 -0.40688655 2.0951838
-1.0528128 -0.36953253 2.05513
-1.0256381 -0.37631381 2.0752327
-0.99225986 -0.37698546 2.0965352
-0.23801641 -0.35077006 2.0732038
-1.0555531 -0.33035395 2.0552757
-1.0249459 -0.32208136 2.078501
-0.99355704 -0.33550668 2.098959
-0.2364333 -0.31921521 2.0802062
-1.0580791 -0.27837291 2.0557201
-1.025008 -0.27422053 2.0789082
-0.225366 -0.27741274 2.056905
-1.056494 -0.22446671 2.0573382
-1.0248139 -0.22629425 2.0803742
-0.99996752 -0.20465645 2.0978725
-0.22569136 -0.22815613 2.0638382
-1.0583824 -0.17603619 2.0561292
-1.0268394 -0.17349222 2.0808048
-0.99889028 -0.17212602 2.097616
-0.22402012 -0.18181269 2.0666678
-1.0587028 -0.1277936 2.05514
-1.0285045 -0.12559454 2.0798073
-0.22404207 -0.12127889 2.0656612
-1.0584649 -0.074435487 2.0565305
-1.0260613 -0.074818142 2.0800338
-0.99750674 -0.075100727 2.0986912
-0.23719949 -0.089866586 2.0839596
-1.0581728 -0.026442032 2.056783
-1.0257423 -0.026583338 2.0802071
-0.23422806 -0.02958855 2.0588942
-1.0581071 0.021543283 2.0566449
-1.0263736 0.021648789 2.08149
-0.23460618 3.448522e-05 2.0623691
-1.0588888 0.074911393 2.0572209
-1.0269225 0.075287059 2.0816472
-0.23634912 0.054755677 2.0771813
-1.0606339 0.12602305 2.0574031
-1.0275375 0.12362646 2.0812073
-0.99868608 0.12402364 2.0994039
-0.23516478 0.12878825 2.0645676
-1.0634749 0.17470035 2.0592132
-1.0295347 0.17225315 2.0827341
-0.24214317 0.16482511 2.0800319
-1.0602357 0.22707805 2.0623338
-1.0249054 0.22504734 2.085331
-0.23564498 0.22828791 2.0631154
-1.0608162 0.27418336 2.0610898
-1.027967 0.27543381 2.0844116
-0.46637374 0.29572544 2.0893903
-0.40829107 0.28063694 2.0615981
-0.39602038 0.27905008 2.0512438
-1.0627259 0.32310537 2.059628
-1.0245873 0.32464978 2.0853329
-0.39288205 0.34542468 2.0548773
-1.0663469 0.37459657 2.0584245
-1.0273129 0.37431693 2.0849538
-0.47420532 0.37040073 2.0688925
-0.43585685 0.37308764 2.0604906
-0.36869785 0.38536197 2.0579994
-1.0651423 0.4258934 2.0611844
-1.0280334 0.42315379 2.0868642
-0.47174752 0.41828239 2.0756073
-0.42507333 0.40719643 2.0789318
-0.38916174 0.41187876 2.0543022
-1.0613761 0.47260866 2.0613396
-1.0285324 0.47498405 2.0858443
-1.0639117 0.52105796 2.0618386
-1.0331182 0.5248462 2.0845666
-1.0644708 0.5744732 2.064254
-1.030336 0.57782489 2.0900309
-1.0641489 0.62360436 2.0636292
-1.0295591 0.62413245 2.0864191
-1.0689042 0.67877978 2.0652034
-1.03257 0.67021435 2.0883181
-1.069419 0.72716397 2.0652449
-1.0359548 0.72418946 2.0882833
-1.0687913 0.77763271 2.0652511
-1.0313647 0.77511716 2.0899448
-0.22393963 0.75702864 2.0594604
-1.0729042 0.82736886 2.0655148
-1.0357378 0.83009773 2.0892885
-1.0731618 0.87813586 2.0656679
-1.0349685 0.88124985 2.0906847
-1.0733976 0.92864734 2.0670261
-1.0329341 0.924483 2.0929828
0.41734517 0.94646013 2.0580542
-1.0727835 0.97507197 2.0657258
-1.0372902 0.97163934 2.0918481
0.42424452 0.97278005 2.0657332
-1.1052643 1.0393596 2.0508277
-1.0723242 1.0247641 2.0712993
-1.0382651 1.0184773 2.09269
0.39973524 1.0303338 2.0539525
0.42143878 1.0181026 2.0703626
-1.1073247 1.0816994 2.053426
-1.0764108 1.0753171 2.0712085
-1.0428439 1.0779241 2.0942395
0.3911615 1.0738273 2.0526688
0.40193778 1.0576003 2.0572488
-1.1079286 1.1230718 2.0527518
-1.0783776 1.1279637 2.0740712
-1.0432061 1.1250396 2.0945466
0.43157005 1.1309018 2.0807238
0.4546566 1.1313894 2.0589733
-1.1062874 1.1686825 2.0541725
-1.076124 1.1775717 2.0770118
-1.0422477 1.1679937 2.0960598
0.44207078 1.1780764 2.0857463
0.46079686 1.1757256 2.0587621
-1.1140059 1.2286652 2.055989
-1.074548 1.2267354 2.0781624
-1.0403031 1.2187135 2.0969365
0.44508576 1.2216402 2.0865667
0.46199596 1.2292444 2.0634084
-1.1094451 1.2784985 2.0551918
-1.0778733 1.2748374 2.0818768
-1.048125 1.2933463 2.0989535
0.44597229 1.2785397 2.0934906
0.46392176 1.271227 2.0659132
-1.1136328 1.3258328 2.0554767
-1.079199 1.3215024 2.0809534
0.44681066 1.3094007 2.0839374
0.46222895 1.3229413 2.0718989
-1.1091803 1.3792979 2.0584729
-1.0787805 1.3732631 2.0817838
-1.0495383 1.3714275 2.0993173
0.46188846 1.3717635 2.0730546
-1.1075469 1.4233731 2.057405
-1.0788301 1.428275 2.0837452
-1.0483003 1.4354812 2.0991547
0.44815189 1.4414605 2.0986607
0.46657708 1.4262773 2.0724621
-1.1136873 1.4801141 2.0611794
-1.074017 1.4742138 2.0866253
0.46951932 1.4823337 2.0727606
-1.1161318 1.5230407 2.0606782
-1.0802816 1.522311 2.0844131
0.4702487 1.5286258 2.0745404
-1.1134865 1.575529 2.0667665
-1.0832932 1.5734267 2.0867615
0.47979411 1.5791433 2.0731158
-1.1232415 1.6265147 2.0668917
-1.0819042 1.6259276 2.0850041
0.47360912 1.6235753 2.0770602
-1.1227276 1.6762004 2.0642095
-1.0839391 1.676906 2.0913827
0.47827527 1.6716564 2.076566
-1.1197691 1.7216624 2.06706
-1.0891718 1.7278761 2.0938523
-1.1233178 1.7596073 2.0596752
-1.0984879 1.7584792 2.0770457
-0.96945304 -0.50227135 2.1049273
-0.92086726 -0.50792229 2.1151838
-0.87690407 -0.51432383 2.1290808
-0.82658553 -0.52138233 2.1234305
-0.77323711 -0.52870816 2.1246462
-0.72284508 -0.53245223 2.1229386
-0.68689573 -0.51840234 2.1279573
-1.0067338 -0.49354979 2.1051104
-0.97798395 -0.49153253 2.12602
-0.93200606 -0.49362749 2.1411896
-0.89968312 -0.49506482 2.1468527
-0.97117454 -0.40977526 2.1169062
-0.93393064 -0.40883347 2.1379349
-0.96973306 -0.3740136 2.1133962
-0.9319793 -0.37700087 2.1374698
-0.97184771 -0.32419789 2.1148384
-0.93369341 -0.32932782 2.1393418
-0.25145504 -0.34543827 2.1020727
-0.97316468 -0.27632603 2.1150572
-0.93435639 -0.27403104 2.1416361
-0.97185051 -0.22723091 2.1162746
-0.93470371 -0.22518985 2.1421828
-0.241575 -0.20852204 2.1170611
-0.97145534 -0.17301647 2.1190026
-0.93804395 -0.1738597 2.1411672
-0.24150816 -0.17287362 2.1185207
-0.9758777 -0.12417968 2.1174877
-0.93800443 -0.12489726 2.1434515
-0.23977351 -0.12619795 2.1053877
-0.97001326 -0.075482138 2.1198189
-0.93791044 -0.075961009 2.1447933
-0.97480434 -0.026825145 2.1175487
-0.93813622 -0.02702691 2.1461058
-0.97564763 0.021807598 2.1193881
-0.93955225 0.019204093 2.1458287
-0.97635496 0.075916342 2.1199877
-0.94229823 0.074547417 2.1453354
-0.974361 0.12466431 2.1201346
-0.93970066 0.12769736 2.1450107
-1.0010405 0.17289102 2.1018357
-0.97351724 0.1737529 2.1232138
-0.94390845 0.17099166 2.1450465
-1.002692 0.2308559 2.1012871
-0.97543055 0.22622168 2.1202977
-0.94259918 0.22637984 2.1458507
-1.0049074 0.27650374 2.1020303
-0.97452617 0.27504608 2.121474
-0.94265258 0.27343407 2.1440904
-0.97782248 0.3258661 2.1175306
-0.94386631 0.32303843 2.1419787
-0.97619092 0.3767162 2.1198115
-0.94172204 0.36879435 2.1432612
