ply
format ascii 1.0
comment PCL generated
element vertex 1460
property float x
property float y
property float z
element camera 0
property float view_px
property float view_py
property float view_pz
property float x_axisx
property float x_axisy
property float x_axisz
property float y_axisx
property float y_axisy
property float y_axisz
property float z_axisx
property float z_axisy
property float z_axisz
property float focal
property float scalex
property float scaley
property float centerx
property float centery
property int viewportx
property int viewporty
property float k1
property float k2
end_header
0.78342426 0.57813406 1.4983391
0.88537163 0.57840508 1.4812163
0.90404236 0.57303411 1.4566082
0.88398248 0.62395513 1.478855
0.90156943 0.63575691 1.4551824
0.88342714 0.67466813 1.4771975
0.90235817 0.67665339 1.4515117
0.88064307 0.72494763 1.476633
0.87829435 0.77552295 1.4741751
0.87468374 0.82631141 1.473603
0.87159985 0.87557894 1.4737979
0.84833378 0.93909931 1.4966526
0.86777192 0.92369115 1.4743555
0.84704101 0.99200433 1.4901066
0.86808342 0.97367716 1.4702232
0.84281826 1.0235468 1.4910517
0.86228198 1.0236444 1.4663801
0.84329116 1.0751712 1.4875158
0.85897493 1.075456 1.4629189
0.83803391 1.1228182 1.4851452
0.8556931 1.1237158 1.4606048
0.83831906 1.174199 1.4838811
0.85554105 1.1736088 1.4586596
0.83732277 1.2241715 1.481704
0.85417855 1.2249885 1.4552612
0.83558643 1.2740272 1.4795405
0.85610241 1.274308 1.4545922
0.83252048 1.3144903 1.4784367
0.85451508 1.3220297 1.4612166
-1.5687025 -0.55572349 1.5243983
0.63710827 -0.55615455 1.5355258
-1.7711705 -0.51229399 1.5288957
-1.7176265 -0.51482081 1.5325297
-1.6814771 -0.52240914 1.529881
-1.6234112 -0.53995484 1.5289427
-1.5831701 -0.54632735 1.541018
-0.62599581 -0.51791465 1.5020337
-0.58364457 -0.51426655 1.5300065
-0.52920526 -0.50766301 1.5135466
-0.26693568 -0.50492686 1.5099856
-0.22511415 -0.51163524 1.5242206
-0.17676701 -0.51722068 1.5286717
-0.12553059 -0.52197123 1.5276686
-0.073988587 -0.52579618 1.5224344
-0.02470292 -0.52751207 1.5220413
0.024532443 -0.52600378 1.5235906
0.07299114 -0.52554405 1.5248638
0.12754083 -0.52920288 1.5298604
0.17498071 -0.53528714 1.5236785
0.22783536 -0.54042679 1.5305576
0.25852948 -0.54190361 1.5140456
0.64558166 -0.5480417 1.5105441
0.6748094 -0.54011476 1.5223503
0.7250278 -0.53851867 1.5245876
0.77816904 -0.53530276 1.5266552
0.8251403 -0.52374971 1.526655
0.86382991 -0.50889027 1.5177228
-0.31255263 -0.4867906 1.5129915
-0.27726674 -0.47691652 1.527639
-0.24275284 -0.45108101 1.5480131
0.86783135 -0.47513288 1.523523
-0.27170944 -0.42308187 1.516493
-0.24236444 -0.42290458 1.5416318
0.87107849 -0.42594391 1.5272998
-0.30681279 -0.35976526 1.50915
-0.27713841 -0.37691227 1.5263667
-0.24866177 -0.39101017 1.5468721
0.87829769 -0.37422404 1.5255493
-0.4244433 -0.31563887 1.515722
-0.35762629 -0.31125602 1.5054284
-0.33000198 -0.32931626 1.5287306
-0.29262146 -0.34734342 1.5397564
0.88110262 -0.32417229 1.5255249
-0.40879184 -0.27937463 1.5234269
-0.3723374 -0.27310321 1.517367
-0.34436303 -0.28244972 1.5362138
0.88325381 -0.27302858 1.5255466
-0.40644321 -0.23002523 1.5442743
-0.37608463 -0.22688031 1.5364718
-0.34629235 -0.24974933 1.5486808
0.88400775 -0.22397237 1.5244184
-0.40017971 -0.19719885 1.5486878
-0.38126674 -0.17432208 1.5461942
0.88359559 -0.17521495 1.5270035
-0.37669614 -0.13982576 1.5463622
0.88440257 -0.12529014 1.5257903
-0.47286242 -0.059568368 1.5340099
0.8840763 -0.075531617 1.5233965
-0.50549954 -0.022538647 1.5233465
-0.48304689 -0.028565248 1.5219854
0.88425511 -0.028429298 1.5243117
-0.5072065 0.016979557 1.5199296
-0.47803926 0.020559022 1.516009
0.88288653 0.023595246 1.5240192
-0.50268835 0.075408302 1.5233812
-0.48658407 0.074326761 1.5258206
0.88000512 0.077615626 1.5278566
-0.50723606 0.12881905 1.5284916
-0.48822668 0.12570591 1.5290358
0.87942946 0.125065 1.5269985
-0.50845295 0.17102736 1.525236
-0.48801044 0.17226125 1.5269933
0.8801024 0.17492495 1.5248867
-0.50833255 0.22560346 1.5366778
-0.486516 0.22877413 1.5297579
0.87826878 0.22460458 1.524474
-0.50743651 0.27384669 1.5221773
-0.4776507 0.27683184 1.5232902
0.87768775 0.2751312 1.5229965
-0.51093704 0.32410479 1.5389183
-0.47369766 0.32483089 1.5216559
-0.40505466 0.34564996 1.5499158
-0.392088 0.34437436 1.5462115
0.87496537 0.32522458 1.5254947
-0.46921876 0.37233582 1.520934
-0.42659682 0.37889251 1.5369146
-0.37640923 0.38046688 1.5346481
-0.34564912 0.38204947 1.5451822
-0.24499175 0.38753855 1.5481575
0.87307763 0.37362692 1.5249008
-0.46236634 0.40350083 1.5140438
-0.41906661 0.41229045 1.5330579
-0.37715948 0.41692588 1.5395697
-0.30700091 0.42622003 1.5267673
-0.27587932 0.40846652 1.521256
-0.22201252 0.41007701 1.5202396
-0.18005864 0.42577249 1.5250174
0.87061036 0.42470026 1.5250393
-0.32060304 0.47889569 1.512513
-0.15968159 0.47360536 1.5218685
0.87203813 0.47471333 1.5214812
-0.16184038 0.51538658 1.5217265
0.86657697 0.52594006 1.527083
0.83453476 0.59211397 1.53882
0.86197054 0.57396948 1.5233216
0.83600801 0.62261671 1.5354539
0.85905057 0.62752366 1.5116514
0.83994913 0.67435634 1.5391322
0.85801554 0.67571944 1.5132564
0.84071928 0.72539574 1.5359939
0.85659105 0.72624582 1.512705
0.83993268 0.77650797 1.5321634
0.85521579 0.77049905 1.5098621
0.83541954 0.82532364 1.5317674
0.8537997 0.8202908 1.5080997
0.83395696 0.87428731 1.5269932
0.85264301 0.88290286 1.5024972
0.83238035 0.92572856 1.5258108
0.82968843 0.97603202 1.5234113
0.82033801 1.0248034 1.5244199
0.79882473 1.0533382 1.5493433
0.8180235 1.0761977 1.522911
0.79717445 1.1254609 1.5459769
0.81483799 1.1257176 1.5218699
0.79652387 1.1753994 1.5432168
0.81412596 1.1748688 1.5182527
0.79656905 1.2268753 1.5462852
0.81216884 1.224858 1.520438
0.79412156 1.2715825 1.5408286
0.80908352 1.2745339 1.5170455
0.79660302 1.3308238 1.5338323
0.81018132 1.3263104 1.5168463
0.78367335 1.3567605 1.5443454
0.80058205 1.3604625 1.5419085
-1.5651238 -0.55728298 1.5580583
-1.5247446 -0.55705786 1.5728823
-1.4838328 -0.55646747 1.5855833
-1.4274069 -0.56145233 1.5856513
-1.3824335 -0.56505406 1.5875492
-1.1759107 -0.56560403 1.5802991
-1.1220863 -0.57550329 1.5887889
0.58247215 -0.56790662 1.5901132
0.62736768 -0.55733454 1.5761069
-1.7644186 -0.50501424 1.5653379
-1.7253968 -0.50946969 1.5773706
-1.6742045 -0.5212869 1.5786438
-1.6210308 -0.53216761 1.5707294
-1.5761238 -0.54417533 1.5791292
-1.5304351 -0.54749155 1.5924006
-0.63763589 -0.52615231 1.5538316
-0.55969119 -0.52121484 1.573256
-0.54118961 -0.51877975 1.5840651
-0.22103949 -0.50294369 1.556234
-0.17064892 -0.50961888 1.5688795
-0.12699033 -0.51239949 1.579303
-0.07583347 -0.52248317 1.5730948
-0.02434231 -0.52345443 1.578716
0.024895815 -0.5210219 1.573293
0.078214504 -0.5226897 1.5747968
0.12298023 -0.52703726 1.5798141
0.17358422 -0.53237653 1.5755212
0.22488226 -0.53846687 1.5770618
0.27174386 -0.54530394 1.5745664
0.31111884 -0.54677898 1.5801338
0.6444841 -0.54477179 1.5794269
0.66448158 -0.53870404 1.5745134
0.72720462 -0.537341 1.5778093
0.7752859 -0.53123868 1.5746847
0.82261556 -0.51213861 1.5732329
-0.26399559 -0.48999161 1.5611217
-0.22290844 -0.4786582 1.5724418
-0.17812288 -0.4755384 1.586929
-0.14305852 -0.47042277 1.5944558
0.068157315 -0.45160258 1.5900121
0.83351278 -0.47204468 1.5762446
0.85381657 -0.49284399 1.5578114
-0.21747534 -0.42436969 1.5595121
-0.17625183 -0.42237934 1.5818522
-0.14253451 -0.42569745 1.5967197
0.048657801 -0.42395219 1.5939626
0.067123421 -0.42391279 1.5863625
0.83701622 -0.42565966 1.5798733
0.85310906 -0.4148598 1.5570387
-0.26237184 -0.35489836 1.5562297
-0.22672342 -0.37554151 1.5695243
-0.18528798 -0.37953222 1.5888623
0.066133358 -0.37696531 1.587515
0.11893737 -0.39759427 1.5996859
0.84050828 -0.3753224 1.5863503
0.85735953 -0.37361482 1.5606916
-0.3156817 -0.31664333 1.5687457
-0.28120396 -0.33146569 1.5811254
-0.23094124 -0.34674019 1.5922878
-0.19611894 -0.34953219 1.5959488
0.063410014 -0.32659522 1.5885578
0.84212905 -0.32341558 1.5900052
0.85760182 -0.32527927 1.565338
-0.42009553 -0.26081118 1.557587
-0.32589576 -0.27851042 1.5798126
-0.29433995 -0.29626629 1.5993378
0.065540388 -0.27596581 1.587942
0.8433513 -0.27362755 1.5924741
0.85929275 -0.27726427 1.5658714
-0.41918117 -0.21585743 1.5707542
-0.35411614 -0.2158415 1.5520297
-0.33940262 -0.22549339 1.5762671
0.066758186 -0.22499686 1.5877805
0.84438992 -0.2294355 1.5931962
0.85876042 -0.22711051 1.5695806
-0.41718209 -0.17511669 1.5707633
-0.36082149 -0.17233858 1.5592835
-0.33745235 -0.17485078 1.5838119
0.066595905 -0.17499925 1.5879383
0.84496176 -0.17601915 1.5940384
0.85882735 -0.17686741 1.5708008
-0.41752937 -0.12342127 1.5669812
-0.36983454 -0.11956865 1.5675244
-0.33864528 -0.13170557 1.5880437
0.063688777 -0.12496585 1.5899255
0.84587246 -0.12758718 1.5931656
0.86088008 -0.12782136 1.5662144
-0.4602178 -0.070307106 1.5820891
-0.4207913 -0.07614667 1.5749235
-0.37688124 -0.077772409 1.5798949
-0.34382293 -0.09027452 1.5971445
0.063026965 -0.074767172 1.58972
0.84497565 -0.078711703 1.5928721
0.85926646 -0.078601651 1.5662379
-0.45975885 -0.026513943 1.5917125
-0.42343223 -0.025116302 1.5869035
-0.38808569 -0.036444377 1.5927069
0.067627847 -0.02657254 1.5911652
0.84474999 -0.02774149 1.5927861
0.85949969 -0.028529234 1.5653839
-1.7258691 0.027021136 1.597374
-0.46576476 0.016971769 1.5802037
-0.43125719 0.0023974229 1.592564
0.070048355 0.020070728 1.5857677
0.84451294 0.023142129 1.5924785
0.85883307 0.024185715 1.5651716
-0.48229644 0.073233984 1.5660447
0.071144827 0.0760547 1.5910935
0.84476179 0.074888483 1.5924716
0.8573845 0.077168748 1.5674294
-0.52153289 0.13095292 1.5529808
-0.48190439 0.12625332 1.5669267
0.07091856 0.12678327 1.5917222
0.8447206 0.12469437 1.5900773
0.85710728 0.12761891 1.5663975
-0.48305532 0.18236776 1.5656242
0.067202233 0.17539908 1.5908453
0.84458309 0.17710803 1.5888586
0.85691971 0.17581971 1.563676
-0.52815002 0.23787165 1.5641091
-0.47935212 0.2281121 1.5710143
0.068575904 0.22580419 1.5913277
0.84283829 0.22604534 1.5878041
0.8566578 0.2249952 1.5617784
-0.46219426 0.27139938 1.572515
-0.41423073 0.28121641 1.5879596
0.067767762 0.27390841 1.5912046
0.84204811 0.27135873 1.5855726
0.85714006 0.27700475 1.5613937
-1.7351974 0.3081741 1.5997837
-0.45447192 0.3240864 1.5686766
-0.42122138 0.32693985 1.5722145
-0.39457878 0.32547441 1.5609746
0.071681194 0.32597643 1.5915352
0.8408711 0.32348222 1.5838417
0.8562153 0.32299888 1.558695
-0.4980374 0.39856064 1.5518955
-0.43163469 0.36036417 1.5598989
-0.37294304 0.37693259 1.5614861
-0.32261041 0.3837263 1.5731053
-0.26897007 0.38774163 1.5680909
-0.23671202 0.38579664 1.5715038
0.072489105 0.36618233 1.5912682
0.83972263 0.37540048 1.5841491
0.85428715 0.3743504 1.5597988
-0.42813072 0.41724119 1.5540448
-0.35313225 0.42079473 1.5546073
-0.32782343 0.41411018 1.5770169
-0.27271861 0.40243813 1.5728357
-0.22221643 0.40364826 1.5671262
-0.17782846 0.42292064 1.5791762
0.048954077 0.4462291 1.5995407
0.069832236 0.43139443 1.5914872
0.83981246 0.42603645 1.5794275
0.85332578 0.41930351 1.5562589
-0.15299487 0.46778914 1.5632296
-0.14134531 0.47647369 1.572461
0.049043842 0.47452891 1.5970623
0.068135455 0.47508228 1.5879433
0.83844846 0.47586003 1.5783565
0.85326117 0.47519195 1.5555341
-0.15278974 0.5146836 1.5614966
-0.14372447 0.51106679 1.5703377
0.049328852 0.52462506 1.5963794
0.068596855 0.52506685 1.5844358
0.79017669 0.50862855 1.5944513
0.82936299 0.52491456 1.5833974
0.85254306 0.51807559 1.5548024
0.046994939 0.57700729 1.5952303
0.069178142 0.57444656 1.5828278
0.79143929 0.58790183 1.598695
0.82920045 0.57533586 1.5779562
0.045556318 0.62563509 1.5921102
0.066837899 0.62588668 1.5800148
0.79628468 0.63899916 1.594617
0.81340796 0.62405467 1.57398
0.04235179 0.67730647 1.5951017
0.063523732 0.67561913 1.5795974
0.79440975 0.6582846 1.595814
0.81552655 0.67575568 1.5731308
0.039859377 0.72747993 1.5885475
0.062902458 0.72641218 1.5771092
0.79874241 0.72241747 1.5960157
0.81602448 0.72559291 1.5733049
0.043042697 0.76211083 1.5977519
0.05859834 0.75145853 1.5750508
0.79723811 0.77767038 1.5962429
0.81528503 0.77390051 1.5696983
0.7933585 0.83004779 1.5951046
0.81072909 0.82372802 1.5698432
0.79233521 0.87558609 1.5902362
0.80975652 0.87573856 1.5653647
0.78989333 0.92940277 1.5864483
0.80842912 0.92462248 1.5640795
0.78584051 0.97617704 1.5828229
0.80563599 0.97309256 1.5552948
0.78402501 1.0254128 1.5768776
0.80222487 1.0140038 1.5521077
0.78101403 1.0744392 1.5746368
0.77698344 1.125048 1.5764165
0.77583766 1.1735297 1.5748907
0.77511537 1.226217 1.5726578
0.77356923 1.2792195 1.5746989
0.77550387 1.3266801 1.5727477
0.76531899 1.366299 1.5805026
-1.7395484 1.4345433 1.5955675
-1.4627179 -0.5560829 1.6145153
-1.4236575 -0.55698168 1.625028
-1.3774128 -0.55827379 1.6326566
-1.3334448 -0.55937898 1.6441294
-1.2063318 -0.56361687 1.632006
-1.1680087 -0.56597066 1.6297712
-1.126442 -0.57002056 1.6308281
-1.0892241 -0.57289624 1.616009
-1.0333221 -0.56789005 1.6443897
0.33023188 -0.55226272 1.637606
0.37025321 -0.55395198 1.6308695
0.43660927 -0.56266844 1.6339877
0.47058415 -0.5656147 1.640968
0.52911872 -0.56684631 1.636853
0.57762462 -0.56298828 1.6302062
0.61032403 -0.55845815 1.6187493
-1.7172493 -0.50520015 1.613786
-1.6741862 -0.51324314 1.6299103
-1.6232047 -0.5243901 1.6258382
-1.5832683 -0.53594136 1.6286309
-1.5296288 -0.54123527 1.625067
-1.4842027 -0.54396278 1.6299572
-0.54668194 -0.51585644 1.6020199
-0.10743139 -0.50545108 1.6154474
-0.074097618 -0.51269382 1.6263016
-0.025124788 -0.51186818 1.6270138
0.023237249 -0.51092297 1.6252089
0.075802997 -0.51280165 1.6295736
0.12288238 -0.51726514 1.6271509
0.17709626 -0.53063053 1.6293889
0.22442643 -0.53760904 1.6274565
0.27561143 -0.54356164 1.6269991
0.31227243 -0.54749686 1.6167418
0.62658036 -0.54438239 1.6247853
0.68012637 -0.53726143 1.6232517
0.72522151 -0.53218788 1.622925
0.77729273 -0.51887578 1.6256636
0.80854148 -0.50535744 1.6177998
-0.16110007 -0.47874191 1.6029104
-0.12436458 -0.4784373 1.6212195
0.033856556 -0.45357558 1.62723
0.088933632 -0.47079465 1.6311166
0.12317008 -0.46816018 1.626664
0.15553471 -0.46441364 1.6462102
0.79113811 -0.47033831 1.6349846
0.81137687 -0.47587645 1.6148098
-1.7562966 -0.41171616 1.6424038
-1.7284847 -0.41441572 1.6452591
-0.11714496 -0.4251765 1.6242455
-0.094482258 -0.42626733 1.6488489
0.023560846 -0.42511752 1.6285738
0.091443531 -0.42296097 1.6091397
0.12522441 -0.42487872 1.6209927
0.79487878 -0.43169096 1.6435452
0.81248343 -0.42254338 1.6212159
-1.7761275 -0.37015143 1.649498
-1.7370018 -0.37618369 1.640991
-0.16530511 -0.36843142 1.6172092
-0.13402833 -0.38245848 1.6281359
0.033620749 -0.37593818 1.6203122
0.089611486 -0.37288743 1.6119472
0.12189455 -0.37485653 1.6198626
0.79437256 -0.39590937 1.649024
0.81549698 -0.37434757 1.6248943
-1.7538301 -0.33857942 1.6337907
-1.7376978 -0.32681984 1.6405793
-0.26436329 -0.31539649 1.608218
-0.22947164 -0.3275612 1.617335
-0.18725044 -0.34378144 1.6314417
0.033577509 -0.32459539 1.6262155
0.08583428 -0.32391357 1.6118309
0.11838391 -0.32579073 1.6170825
0.82068139 -0.32500392 1.6234372
-1.7558548 -0.27791438 1.6251866
-1.7397673 -0.27796036 1.6401707
-0.31362066 -0.26317444 1.6120994
-0.27850789 -0.27704629 1.6188431
0.03552765 -0.2755838 1.6250113
0.082867034 -0.27355552 1.6164408
0.11452743 -0.27561808 1.6163592
0.82410264 -0.27525598 1.6245568
-1.757581 -0.2245754 1.6338924
-1.7434831 -0.22793384 1.6436406
-0.31613749 -0.22134373 1.6218665
-0.29195791 -0.23106505 1.6350473
0.037626661 -0.22444037 1.6253825
0.078753799 -0.22317542 1.6151867
0.1150121 -0.22436444 1.6155391
0.82591921 -0.22349292 1.6238929
-1.7566315 -0.17616683 1.6381074
-1.7411585 -0.17570016 1.6436105
-0.31116867 -0.17887016 1.6226455
-0.29495424 -0.16783646 1.6429025
0.036985915 -0.17535859 1.6276263
0.079474501 -0.1741498 1.6153312
0.11612272 -0.17540257 1.6198623
0.82595825 -0.17204733 1.6255438
-1.7635589 -0.12674187 1.6408801
-1.7401371 -0.12749621 1.6464142
-0.45830196 -0.10310999 1.619381
-0.44118649 -0.13720018 1.6009018
-0.32015052 -0.12350749 1.6224769
0.035857689 -0.12631647 1.6298844
0.084751189 -0.12562163 1.6185547
0.11567292 -0.12534694 1.6194475
0.82550436 -0.12317362 1.6262112
-1.7622685 -0.076619558 1.6386976
-1.7393261 -0.07035923 1.6451997
-0.46837839 -0.071095742 1.6118394
-0.35561097 -0.059763771 1.6092981
-0.33446351 -0.076173954 1.6297983
0.038914874 -0.075778008 1.6243895
0.085095696 -0.076069295 1.617226
0.11716889 -0.072513364 1.6214496
0.82631063 -0.072097413 1.6259342
-1.7639785 -0.031254929 1.632679
-1.741451 -0.025851643 1.6416383
-0.47863868 -0.030158896 1.6137131
-0.43765625 -0.015642777 1.6068951
-0.36846608 -0.024547266 1.6166029
-0.34366885 -0.039739199 1.6449168
0.037365258 -0.027336834 1.6279554
0.083818823 -0.027072245 1.6209866
0.11709521 -0.027656034 1.6212462
0.82736099 -0.026597593 1.6239907
-1.7415602 0.022153469 1.6416832
-0.46675265 0.032640625 1.6149064
-0.42378497 0.029348088 1.6103091
-0.38333568 0.020795023 1.6271137
0.037772886 0.022442784 1.6285198
0.078993157 0.025640558 1.6179631
0.11838938 0.02330911 1.6236169
0.8253696 0.021598259 1.6255969
-1.7639141 0.084618829 1.6387047
-1.7413987 0.071544409 1.6427234
-0.47215995 0.076472186 1.6267006
-0.42478883 0.074766047 1.6305399
-0.39285985 0.06397742 1.6432678
0.038548619 0.073668912 1.6275866
0.076790735 0.075093046 1.6173807
0.11504791 0.072837614 1.6201158
0.8258121 0.071615838 1.6234949
-1.7619923 0.12073982 1.6402565
-1.7408237 0.12382826 1.6469095
-0.47627327 0.1159352 1.6353627
-0.43509436 0.11044986 1.6455947
0.039413888 0.12332893 1.6253289
0.079872571 0.12426946 1.6183813
0.11649156 0.12407359 1.6225334
0.82350355 0.12237082 1.6251825
-1.7596594 0.16396227 1.6374143
-1.7448725 0.17575003 1.6431602
-0.41663361 0.19027521 1.6461301
0.036915094 0.17508076 1.6243454
0.085979156 0.17564662 1.6211129
0.11838029 0.17446181 1.6248584
0.82377803 0.17271174 1.6252155
-1.7545822 0.23123854 1.629472
-1.7408632 0.22459868 1.6418746
-0.46687895 0.23762047 1.6329839
-0.42499214 0.22119884 1.6299624
-0.39552608 0.2008526 1.6445539
0.0368632 0.22511205 1.6246457
0.084843226 0.22497322 1.6211683
0.11548492 0.22414097 1.6198882
0.82217073 0.22371212 1.6260015
-1.7564945 0.27796054 1.6288811
-1.7420547 0.27575889 1.6392245
-0.46692762 0.28057441 1.6358556
-0.43253633 0.26775673 1.6123669
0.036990963 0.27496025 1.6254034
0.089773819 0.27502745 1.6231308
0.11479877 0.27568972 1.6219795
0.82063019 0.27621904 1.6239207
-1.7519979 0.32382625 1.6334026
-1.7415872 0.32321653 1.6370999
-0.46035624 0.31877354 1.6250383
-0.43501371 0.31313029 1.6070172
0.037293289 0.32424369 1.6259642
0.078304663 0.32479191 1.615545
0.11583969 0.32600069 1.6220884
0.81713599 0.32735997 1.6258565
-1.7550735 0.38630819 1.6313387
-1.7410139 0.36855257 1.6394882
-0.30403295 0.38332447 1.6254658
-0.2800262 0.38016388 1.6179897
-0.23452474 0.38715148 1.6203927
-0.19824144 0.38459039 1.6419612
0.040224802 0.37181687 1.6279401
0.077329017 0.37728944 1.6188661
0.11754194 0.37441018 1.6240323
0.81530553 0.37415671 1.6255857
-1.7581583 0.42353788 1.629661
-1.7438163 0.41991225 1.6440277
-0.21410577 0.40563056 1.6358734
-0.16920653 0.43381077 1.6300207
0.036818992 0.43079746 1.6264224
0.079116508 0.41937059 1.6299809
0.11876202 0.42606419 1.6224358
0.79729205 0.42656127 1.6490579
0.81478339 0.42379382 1.6219635
-1.7552334 0.47681156 1.6285244
-1.7404244 0.47122142 1.643877
-0.14861792 0.45589727 1.6152501
0.032392632 0.47542956 1.6249542
0.093774296 0.47470835 1.624899
0.11749911 0.47596002 1.6209203
0.79761344 0.47191259 1.6369859
0.81438726 0.47430885 1.6169035
-1.7544076 0.52480698 1.6316822
-1.74107 0.52968061 1.6440313
0.027781749 0.52507299 1.6248957
0.09429682 0.5255484 1.6240631
0.11762407 0.52554774 1.6230372
0.7817297 0.52483088 1.6201351
0.80667174 0.52875417 1.6036224
-1.7546921 0.57508796 1.630051
-1.7406368 0.57257342 1.6420269
0.023205955 0.57616198 1.6258171
0.094511628 0.57539028 1.623283
0.11959529 0.57411104 1.6220967
0.78838235 0.57067955 1.6219516
0.80629551 0.56213421 1.6067333
-1.755852 0.62197709 1.6249079
-1.7422677 0.62506688 1.6406521
0.019518465 0.62515175 1.6261659
0.093351007 0.62275594 1.6203347
0.11874446 0.62689018 1.6241099
0.78137523 0.63326466 1.6205593
0.81273925 0.61813873 1.6265006
-1.7571383 0.67462075 1.629975
-1.7417227 0.66724885 1.6436583
0.018980328 0.67716688 1.6249608
0.08844056 0.67549503 1.6133165
0.11766442 0.67543751 1.6258509
0.78299981 0.6768055 1.6240234
-1.75389 0.72082072 1.6252663
-1.741765 0.73408836 1.643117
-0.0062568621 0.73780543 1.6488479
0.017087402 0.72381842 1.6247978
0.088723511 0.72598416 1.6113135
0.11430615 0.72534972 1.6206315
0.78068334 0.72511685 1.6255937
-1.7564979 0.77450067 1.6283916
-1.7459216 0.78012037 1.6445584
0.020760087 0.75695133 1.6278183
0.089610018 0.76745468 1.6133155
0.11626645 0.76646012 1.6291436
0.77661473 0.77600139 1.6242267
-1.7610842 0.82893097 1.6320463
-1.7444851 0.82519817 1.6423931
0.77240455 0.82514536 1.6256913
-1.7643652 0.87790787 1.6326694
-1.7450148 0.87616503 1.6437632
0.74999273 0.86654115 1.6496369
0.76835507 0.87552774 1.6240946
-1.7600588 0.91968125 1.6342279
-1.7460128 0.93269992 1.6470516
0.74747038 0.92950165 1.643804
0.76597869 0.92439049 1.6198332
-1.7562264 0.97174942 1.6313194
-1.7413622 0.97652793 1.6440648
0.74239302 0.9748252 1.6408052
0.76042086 0.97450292 1.6154611
-1.758284 1.0302734 1.61936
-1.7409887 1.021585 1.6389984
0.74114358 1.024457 1.6399759
0.7589317 1.0263109 1.6145657
-1.7633491 1.073841 1.6333565
-1.7394817 1.0851113 1.6468145
0.73712379 1.0763192 1.6380765
0.75788808 1.0734049 1.6105506
-1.7592723 1.1196539 1.6372572
-1.7426783 1.1323849 1.6460037
0.73823392 1.1247959 1.6334337
0.75421977 1.1211795 1.6104566
-1.7662632 1.1776711 1.6378028
-1.7350687 1.1579834 1.6385808
0.73786491 1.1737761 1.6326859
0.75514072 1.1761695 1.6107253
-1.7676027 1.2215347 1.6341966
-1.7424376 1.2300322 1.6428833
0.73206043 1.226612 1.6334329
0.75398129 1.2267139 1.6082363
-1.7618762 1.2731743 1.6246328
-1.7405449 1.2731117 1.6408918
0.73273301 1.2722818 1.630903
0.75523806 1.278126 1.6081674
-1.7609133 1.3208185 1.6297039
-1.7442923 1.3255556 1.6434886
0.72934848 1.3252419 1.6353875
0.75214821 1.3255041 1.6072458
-1.8055962 1.3672795 1.6364079
-1.7765034 1.3768684 1.636037
-1.7377262 1.3770393 1.6426041
0.73422259 1.3754402 1.625142
0.75237155 1.360402 1.6055744
-1.800849 1.4101475 1.6304392
-1.7610509 1.4084169 1.6239569
-1.7363517 1.4258022 1.6336992
0.72441536 1.4037203 1.6337069
-1.7526059 1.4791118 1.6268854
-1.740029 1.4768738 1.6373788
-1.7322924 1.5210941 1.6354265
-1.7185668 1.5760051 1.6454409
-1.415472 -0.55451494 1.6629597
-1.3762779 -0.55494124 1.6674193
-1.3306253 -0.55515492 1.686723
-1.273044 -0.55523151 1.6765715
-1.2271978 -0.5594275 1.6763813
-1.1790172 -0.56788754 1.679808
-1.1398929 -0.56788874 1.6833677
-1.0644332 -0.569022 1.6841768
-1.0201069 -0.57108837 1.6754307
-0.97755128 -0.57052135 1.6896049
0.33786523 -0.5520466 1.6631948
0.3789109 -0.55351722 1.6787165
0.42536804 -0.56109726 1.6783068
0.47272816 -0.56256634 1.6780709
0.52354568 -0.56138235 1.6754942
0.56911832 -0.55689788 1.67539
-1.6660599 -0.50603586 1.6644093
-1.6212498 -0.50972372 1.6784503
-1.5732474 -0.51946282 1.6745026
-1.5278709 -0.53095919 1.6735394
-1.4742643 -0.53986305 1.672042
-1.4275053 -0.54570729 1.6833664
-1.3682426 -0.54574132 1.6880379
-1.347996 -0.54969138 1.6867508
-1.2624156 -0.54864222 1.6884084
-0.061606068 -0.50291967 1.661762
-0.030591164 -0.50371397 1.6649498
0.020720234 -0.50175077 1.6634614
0.054871887 -0.50364137 1.6528456
0.13733529 -0.5117656 1.6559755
0.17569339 -0.51794857 1.6747539
0.22554931 -0.5292148 1.6745312
0.27307844 -0.53876364 1.6796657
0.32119015 -0.5465216 1.6778672
0.35630926 -0.54801309 1.6853874
0.5872997 -0.54361051 1.6824805
0.62486845 -0.54092026 1.6754334
0.6755904 -0.53663743 1.6740398
0.7283088 -0.52084708 1.6766237
0.76430362 -0.50833565 1.66781
-1.6753068 -0.49557984 1.6749634
-0.10685793 -0.48747969 1.6645393
-0.083669342 -0.48844722 1.6777538
-0.026779255 -0.49427515 1.6829097
0.028639516 -0.49042696 1.6797271
0.070629179 -0.49062148 1.6698045
0.12950854 -0.49237269 1.6592145
0.17760742 -0.47289231 1.6710558
0.2079602 -0.46888289 1.6894639
0.74494064 -0.46882254 1.6765907
0.76849455 -0.4735209 1.6674169
-1.7842585 -0.42929694 1.6661358
-1.711722 -0.41430539 1.6594036
-1.6785705 -0.41282296 1.6770468
-1.6485074 -0.4067035 1.6980423
-0.091974102 -0.42690808 1.6696826
-0.018605204 -0.42394599 1.6789715
0.0020471839 -0.4107016 1.6554393
0.14720637 -0.42734578 1.6504755
0.17429098 -0.42446721 1.6695987
0.20594434 -0.43162823 1.6931788
0.7472409 -0.42931357 1.6943012
0.77219355 -0.42364219 1.6750879
-1.7834876 -0.3717404 1.656291
-1.7112215 -0.37529019 1.6565422
-1.6752987 -0.37451094 1.6813238
-1.6467243 -0.39020574 1.6994512
-0.15025069 -0.35261798 1.6514602
-0.12129821 -0.37321416 1.6714129
-0.096378967 -0.39788151 1.688002
-0.015104087 -0.37545732 1.6842139
0.0069709793 -0.37206855 1.6573859
0.14651865 -0.36716959 1.6520063
0.17392619 -0.37448627 1.6739002
0.20025928 -0.38182732 1.6953568
0.77847183 -0.37557876 1.6778476
0.80177855 -0.35233051 1.6505733
-1.7113435 -0.32419559 1.6598533
-1.6734072 -0.32676411 1.6859418
-0.22230719 -0.31961301 1.6707891
-0.17196426 -0.34401053 1.6684003
-0.013218076 -0.32661355 1.6860968
0.0060345032 -0.32475397 1.6605768
0.14408322 -0.32006145 1.6534703
0.17561163 -0.32488662 1.6802797
0.78132069 -0.3266747 1.6810244
0.80134004 -0.32207239 1.6540381
-1.7139889 -0.28040671 1.660212
-1.6778265 -0.27519637 1.6835382
-0.26374409 -0.27110565 1.6663845
-0.24840379 -0.29481879 1.6647511
-0.01276236 -0.27170759 1.6878414
0.0090071475 -0.27396485 1.6623805
0.1419185 -0.27572531 1.6567618
0.17349043 -0.27427068 1.6823153
0.78379619 -0.27461985 1.6836762
0.80440825 -0.27439076 1.6561353
-1.7186447 -0.22230028 1.6586484
-1.6758471 -0.223074 1.684767
-0.32422346 -0.24163517 1.6567475
-0.28105083 -0.22280689 1.6676267
-0.0092864763 -0.22418268 1.6870649
0.0095693357 -0.22624512 1.6652144
0.14152026 -0.22711694 1.6568364
0.17246717 -0.22420448 1.6822703
0.78664756 -0.22516422 1.6836222
0.80559379 -0.22657683 1.6581374
-1.7152926 -0.17528456 1.6587969
-1.6744145 -0.1759229 1.686123
-0.28695348 -0.17510413 1.6747118
-0.0087529747 -0.17107065 1.6934359
0.0099665346 -0.17519565 1.6637589
0.14235571 -0.17502075 1.6578933
0.17108908 -0.17338973 1.6807421
0.78993231 -0.17594755 1.6808276
0.80650771 -0.17742236 1.657187
-1.7964233 -0.11907043 1.6594249
-1.7152753 -0.12726766 1.6624986
-1.6788329 -0.12699476 1.6863681
-0.30495107 -0.11592633 1.6630141
-0.29329902 -0.12916355 1.6738775
-0.0097194174 -0.1272656 1.6932744
0.0099460185 -0.12331519 1.6651758
0.14129725 -0.12121172 1.6571482
0.17148343 -0.12498681 1.6819237
0.78961968 -0.12564692 1.6818963
0.8067677 -0.11926457 1.6568196
-1.7142146 -0.075363897 1.6627351
-1.6792521 -0.07240846 1.6869962
-0.3152014 -0.076932229 1.6778836
-0.0087289819 -0.075419277 1.6933
0.012211147 -0.07464999 1.667046
0.14313115 -0.079449102 1.6610781
0.1729909 -0.077598438 1.6833718
0.78958529 -0.073004924 1.6818694
0.80720478 -0.072255239 1.6562036
-1.7147793 -0.024427317 1.6641685
-1.6776878 -0.02706784 1.6859578
-0.35444611 -0.0079657398 1.6545929
-0.33395904 -0.026620749 1.6716835
-0.0097126728 -0.028658617 1.6952041
0.010784629 -0.027639301 1.669423
0.14284168 -0.025777623 1.6588249
0.17155682 -0.02762658 1.6826987
0.78969562 -0.025674909 1.6830566
0.807082 -0.025401354 1.6569185
-1.7150265 0.024741592 1.6611348
-1.6805208 0.020217704 1.6852268
-0.36024469 0.028153028 1.6657884
-0.34438124 0.013279201 1.6808749
-0.0078275148 0.021582138 1.6947188
0.011330546 0.024947688 1.6694092
0.14514968 0.023887949 1.6625048
0.17195401 0.023733083 1.6826168
0.78994036 0.021091072 1.6821845
0.8063854 0.020281771 1.6564056
-1.7910588 0.066093102 1.6567086
-1.71366 0.075400278 1.6633656
-1.6771933 0.075147025 1.6871006
-0.40448225 0.092633471 1.6535512
-0.37673855 0.076192103 1.6765786
-0.0060329563 0.076899327 1.6949617
0.012219019 0.075931206 1.6694753
0.14108711 0.077112794 1.656226
0.1713119 0.076572709 1.6818849
0.7897808 0.07243219 1.6835654
0.80624688 0.074228473 1.6564252
-1.7161673 0.12355021 1.6632339
-1.6795461 0.12848882 1.686584
-0.47011095 0.13579424 1.6570361
-0.4204824 0.13004044 1.6606358
-0.39459392 0.12433416 1.6842904
-0.0060362392 0.12552898 1.6939362
0.012843499 0.12425904 1.667173
0.14245149 0.12279795 1.6590446
0.17237149 0.1247139 1.6826395
0.7885201 0.12569603 1.6813169
0.80463946 0.12315003 1.6559445
-1.7184006 0.17182927 1.661551
-1.6818122 0.17664342 1.6850271
-0.45308012 0.16661537 1.6833076
-0.42215264 0.17019762 1.6609931
-0.38149792 0.17856734 1.6750103
-0.0060436972 0.17430855 1.6931497
0.011179859 0.17227012 1.6695077
0.14379004 0.17631941 1.6611308
0.17178629 0.17373329 1.6817776
0.78750092 0.1776931 1.6808785
0.80515879 0.17528571 1.6565547
-1.7176752 0.22464979 1.660297
-1.6803155 0.22615598 1.6866784
-0.46509963 0.22544888 1.6657844
-0.41912284 0.2228923 1.6647278
-0.37935999 0.20712966 1.6740717
-0.0080867456 0.22314788 1.6910449
0.009559432 0.22276086 1.6676351
0.14165069 0.2274064 1.658018
0.17138682 0.22300342 1.6820755
0.78590143 0.22573654 1.6799424
0.80329251 0.23015037 1.6556138
-1.7128855 0.27421987 1.6641856
-1.677494 0.27363703 1.6893524
-0.47121733 0.27789074 1.6690375
-0.0093457513 0.27312154 1.6941608
0.0096034724 0.27539369 1.6670326
0.14213926 0.27623531 1.6589775
0.17014232 0.274571 1.6817507
0.78404605 0.27182496 1.6797149
0.80363488 0.27591628 1.6538914
-1.7179929 0.32345256 1.6614338
-1.6815141 0.32258785 1.6858631
-0.01018344 0.32262808 1.6915883
0.010061487 0.32605064 1.6663165
0.1426537 0.32545993 1.6591872
0.17156591 0.32381156 1.6831864
0.78292483 0.32550469 1.6781933
0.80042541 0.31346801 1.6528039
-1.7141378 0.37503752 1.6644789
-1.6788462 0.37460554 1.6877133
-0.29158953 0.38076255 1.6648582
-0.22375131 0.39138699 1.669152
-0.19209534 0.39645106 1.6574141
-0.0088438531 0.36168215 1.6908841
0.01412365 0.36925849 1.6660513
0.098418273 0.39359173 1.6508888
0.1381779 0.37780443 1.6604652
0.17039871 0.37412047 1.6841434
0.78177416 0.37586346 1.6763657
-1.7183788 0.42300197 1.662766
-1.6822429 0.42742768 1.686756
-0.20992155 0.40640512 1.6682123
-0.18018216 0.42355698 1.6810292
-0.010278025 0.44095391 1.6897595
0.019891933 0.42598143 1.6731811
0.097100161 0.42674869 1.6577966
0.1366408 0.42641848 1.6594272
0.17310438 0.42631131 1.6849898
0.77756506 0.42420661 1.6794496
-1.7132068 0.47448349 1.6642963
-1.6789539 0.47436267 1.6899396
-0.15271875 0.45218214 1.6628652
-0.011915381 0.4773536 1.6874757
0.0061262292 0.47665176 1.6629267
0.14455594 0.4757396 1.6623021
0.17367026 0.47353458 1.6846707
0.77642214 0.47357112 1.6802744
0.80182362 0.49226838 1.6677941
-1.7163039 0.52329171 1.6626126
-1.6843741 0.52329308 1.6863564
-0.013470747 0.52631247 1.6831505
0.0045182495 0.52261907 1.6601998
0.14387584 0.52389985 1.6612331
0.17162299 0.52499729 1.6815199
0.76947057 0.52196401 1.6923839
0.80595309 0.51247257 1.6724513
-1.7155298 0.57547426 1.661973
-1.6786989 0.57403475 1.6870691
-0.016272504 0.57705158 1.6828114
0.0020844308 0.57057041 1.6562295
0.1425634 0.57437652 1.6629871
0.17000221 0.57531536 1.6798022
0.74952978 0.57845545 1.6908046
0.76818252 0.56946719 1.6808624
0.80470014 0.5919733 1.6849971
-1.7185116 0.6223315 1.6612465
-1.6789714 0.62295687 1.6874225
-0.016872758 0.62590873 1.6773897
0.0020972341 0.64050466 1.650665
0.14343674 0.62778461 1.6607647
0.17116974 0.62649369 1.6787125
0.74357957 0.64290428 1.692358
0.76346123 0.624183 1.6783607
0.80116761 0.61606061 1.6703625
-1.7169785 0.67498761 1.6643144
-1.6779109 0.67704201 1.6880021
-0.017849142 0.67245179 1.6742142
0.0021014693 0.65429074 1.6508087
0.14480746 0.67995423 1.6640446
0.17397091 0.67576426 1.6812606
0.73933768 0.67629761 1.6855406
0.75928682 0.67446607 1.6647254
-1.7208465 0.72246099 1.6597706
-1.6828151 0.72726363 1.6839538
-0.019794211 0.71975023 1.6765513
0.14222902 0.72793841 1.6573459
0.17385218 0.72432518 1.6799915
0.20045477 0.72857338 1.696593
0.73580885 0.72437602 1.6810983
0.75827336 0.72345805 1.6591636
-1.7195479 0.77828366 1.6609331
-1.6817665 0.77627426 1.6863221
-0.019301217 0.75450003 1.6861141
0.0021613645 0.76734102 1.6712842
0.14364494 0.76557302 1.6593504
0.17120942 0.76760352 1.6855149
0.20146613 0.75824308 1.6971283
0.73369741 0.774463 1.6777164
0.75437373 0.77342361 1.6579517
-1.7198585 0.82963139 1.660738
-1.6825911 0.82466245 1.6868097
0.73496002 0.82706624 1.6701431
0.75387043 0.81527001 1.6529731
-1.7195965 0.88028657 1.6613762
-1.6795361 0.87382656 1.6849875
0.73030627 0.87651867 1.6689385
0.75278336 0.87892276 1.6519834
-1.7205181 0.92826253 1.6589277
-1.6806517 0.92754555 1.6839408
0.72512978 0.92531323 1.6680645
0.75028366 0.93297887 1.6500793
-1.7186105 0.97301257 1.6613165
-1.6776807 0.97277981 1.6877036
0.72003943 0.97417593 1.670059
-1.7156044 1.021847 1.6621736
-1.6810517 1.0200649 1.6866308
0.71756965 1.025089 1.6667575
-1.7158959 1.0755805 1.661317
-1.6772662 1.0712836 1.6878828
0.71270555 1.0786692 1.6730045
-1.7167122 1.1267953 1.6658124
-1.6834602 1.1254078 1.690257
0.71292275 1.126545 1.665907
-1.7156574 1.1710054 1.6622084
-1.6795497 1.1744893 1.6868726
0.71468544 1.1776488 1.6706052
-1.7223508 1.2193161 1.6606313
-1.6791781 1.2258599 1.685739
0.71053845 1.2245753 1.6725318
-1.7147088 1.2701669 1.6622684
-1.679397 1.2768496 1.6855415
0.69489676 1.2567391 1.6681622
0.70780677 1.280347 1.6696986
-1.7214835 1.3213415 1.6593657
-1.6800636 1.3271862 1.6815426
0.69748479 1.3245442 1.6932068
0.70391446 1.319185 1.6696404
-1.7079189 1.3726169 1.6565559
-1.6765842 1.3719662 1.6831806
0.69927579 1.3837652 1.680089
0.70924538 1.3717624 1.6719078
-1.7116129 1.4250997 1.6641443
-1.6712601 1.422363 1.6864491
0.69620949 1.4189063 1.6864268
0.71607018 1.4225353 1.673214
-1.7137054 1.4712962 1.6573374
-1.6752205 1.4738275 1.6863817
-1.6423472 1.4983715 1.6997305
-1.7089014 1.5205841 1.6601321
-1.6767657 1.5236328 1.6829381
-1.6487651 1.51667 1.6978209
-1.7100857 1.5705106 1.6574795
-1.6746883 1.5686517 1.6800786
-1.6404345 1.5823185 1.6986176
-1.7017434 1.6181524 1.6557416
-1.6759574 1.6203963 1.6806902
-1.6426122 1.6346604 1.6962279
-1.6707056 1.6713202 1.6844621
-1.6472423 1.6904367 1.6958299
-1.6616436 1.7180365 1.690967
-1.6377904 1.7067139 1.6989654
-1.3187648 -0.55144256 1.7138075
-1.2666403 -0.55543035 1.7255528
-1.2191365 -0.55853111 1.7289021
-1.1751149 -0.56341827 1.7305752
-1.1281918 -0.56589288 1.7398121
-1.0691782 -0.56806332 1.7242131
-1.031341 -0.57041174 1.7314292
-0.99634004 -0.56702995 1.7149529
-0.91199958 -0.56133902 1.7289126
-0.8285116 -0.55978739 1.7362595
0.38980174 -0.55116701 1.719584
0.4298076 -0.55398434 1.710201
0.48090357 -0.5563702 1.7092364
0.52211499 -0.55444443 1.7057985
-1.6009245 -0.50175405 1.7063835
-1.5685561 -0.50725889 1.7208551
-1.5263225 -0.51601547 1.7254429
-1.4768596 -0.52636385 1.7253321
-1.4246851 -0.53571433 1.7278618
-1.3697861 -0.54137647 1.7273438
-1.3211359 -0.5445233 1.7297379
-1.2746758 -0.54834515 1.7268343
-0.031273577 -0.50085157 1.70226
0.0021209246 -0.50078976 1.7022426
0.19242512 -0.50922948 1.7035288
0.22676341 -0.51506358 1.7204707
0.27708796 -0.5305807 1.7235837
0.32201952 -0.53851551 1.7267545
0.37075654 -0.54338318 1.7336377
0.42415193 -0.54567474 1.7363511
0.47814956 -0.54650152 1.7314956
0.52619481 -0.54132247 1.7264844
0.57060921 -0.53572315 1.7222865
0.63114697 -0.53498995 1.7297561
0.67593729 -0.52687365 1.7266217
0.71827209 -0.51167452 1.7224393
-1.6113071 -0.49260044 1.7100364
-1.5890284 -0.49405119 1.7365478
-1.5349247 -0.49417511 1.7455568
-0.077459805 -0.4955397 1.7222719
-0.023226928 -0.49114135 1.7300351
0.02019424 -0.49025816 1.7175134
0.23173854 -0.4728407 1.7126764
0.27098322 -0.47233364 1.7373927
0.69986278 -0.48278719 1.7392946
0.72716361 -0.47386244 1.7234843
-1.6532098 -0.41861215 1.7006297
-1.6184931 -0.41128588 1.7157152
-1.5861127 -0.41126487 1.7411711
-0.06668441 -0.4260996 1.7355472
-0.044097003 -0.42254201 1.7122756
0.23165976 -0.42232054 1.7143261
0.2689501 -0.42623815 1.7400093
0.73267782 -0.42576596 1.7329645
0.75164759 -0.405397 1.7089635
-1.6257858 -0.37168214 1.7143574
-1.5881455 -0.37438974 1.7387674
-0.12344956 -0.37185764 1.7270218
-0.062846459 -0.3775472 1.7370985
-0.039922673 -0.3745161 1.7136639
0.22732785 -0.37439689 1.7159839
0.26257533 -0.3763853 1.740853
0.73728842 -0.37668645 1.735055
0.75304025 -0.37414926 1.7114127
-1.6531394 -0.30908203 1.7002418
-1.6250843 -0.32487413 1.7183486
-1.5910443 -0.32451153 1.7418534
-0.23535264 -0.31240642 1.7178574
-0.19214819 -0.33886534 1.7040451
-0.056786548 -0.32658941 1.7443285
-0.037781622 -0.3236489 1.7199287
0.22626263 -0.32476664 1.7221844
0.25903758 -0.32689151 1.7479019
0.73955292 -0.32566971 1.7422241
0.75608426 -0.32472894 1.7115654
-1.6518445 -0.28216785 1.702859
-1.6224462 -0.27517483 1.7204485
-1.5877241 -0.27823055 1.7437785
-0.26280221 -0.27317005 1.7081757
-0.24790703 -0.29998082 1.7185694
-0.056664158 -0.28135633 1.745666
-0.037776072 -0.27522895 1.7219113
0.19955818 -0.27148688 1.703213
0.22747642 -0.27527675 1.7251049
0.25563687 -0.27544057 1.745066
0.74062604 -0.2771793 1.7444857
0.75877631 -0.2750102 1.7140843
-1.6258955 -0.22308365 1.7194113
-1.5890477 -0.22457841 1.7428405
-0.27931464 -0.21101692 1.711906
-0.033418316 -0.22409894 1.725492
0.19892044 -0.22141011 1.7024168
0.22691658 -0.22550817 1.7255534
0.25499901 -0.2233227 1.7455286
0.74520236 -0.23073894 1.7478806
0.76067501 -0.22347552 1.7188277
-1.655944 -0.15878463 1.7007505
-1.6255869 -0.17546788 1.7202158
-1.5909969 -0.1719186 1.7414976
-0.27954978 -0.19463074 1.7146289
-0.031671125 -0.17825708 1.7241831
0.19751199 -0.17666709 1.7038289
0.22651926 -0.17525811 1.7262467
0.25453293 -0.17327338 1.7460034
0.74712449 -0.175009 1.7490541
0.763035 -0.17651723 1.7167156
-1.6544554 -0.12678441 1.701436
-1.625078 -0.12660351 1.7203791
-1.59206 -0.12655768 1.744475
-0.2905716 -0.12693141 1.7174568
-0.033158697 -0.12563907 1.7278414
0.19855767 -0.12687282 1.7055336
0.22622576 -0.12524018 1.7268289
0.2543956 -0.12189513 1.7478753
0.74250698 -0.12374184 1.7490414
0.76235527 -0.12594673 1.7182674
-1.6532478 -0.073619291 1.7028244
-1.6242497 -0.073537238 1.7220695
-1.5889415 -0.073422655 1.7435768
-0.30684686 -0.068336092 1.7200387
-0.29816982 -0.091693342 1.7303067
-0.028533092 -0.078742787 1.7236983
0.19798122 -0.06935522 1.7027128
0.22590439 -0.075344697 1.7262176
0.25389865 -0.07131049 1.74625
0.76212794 -0.074118212 1.7198536
-1.6526332 -0.025835536 1.7033504
-1.6234318 -0.025834821 1.7223384
-1.588732 -0.02583354 1.7444543
-0.31973177 -0.026631858 1.7233827
-0.27661082 -0.038988128 1.7383054
-0.030947983 -0.028851867 1.7281201
0.19668095 -0.031272549 1.7039887
0.22482845 -0.027456669 1.7257479
0.25412634 -0.02236212 1.7486442
0.76258034 -0.025692919 1.7199935
-1.6535165 0.021909354 1.704216
-1.6235197 0.021827454 1.722387
-1.5884664 0.021749154 1.7441282
-0.35222462 0.049485333 1.7030952
-0.33590007 0.021139367 1.7245157
-0.027263984 0.024684547 1.7243397
0.19815134 0.027257675 1.7048596
0.2251516 0.024121772 1.725147
0.25383538 0.02940248 1.7465622
0.76336306 0.021660261 1.7198578
-1.6548722 0.075052135 1.704224
-1.6237795 0.074819922 1.721316
-1.5895617 0.074666373 1.7440077
-0.36080372 0.083305061 1.7197533
-0.34623873 0.054616243 1.7367477
-0.24868292 0.07527712 1.7398359
-0.026793147 0.07750643 1.7236853
0.19866373 0.077852182 1.7082347
0.22592653 0.077089339 1.7262784
0.2539266 0.064368568 1.7465321
0.76225108 0.074400038 1.7200123
-1.6553835 0.12824388 1.7019176
-1.6247656 0.12789172 1.7195961
-1.5912626 0.12770793 1.7431777
-0.38026303 0.12590137 1.722433
-0.026258959 0.12674817 1.7225795
0.19830322 0.1292184 1.7030607
0.22590865 0.12619351 1.7264335
0.25418746 0.12438639 1.7461668
0.76158106 0.12502454 1.7163298
-1.658468 0.17640215 1.7013142
-1.6284527 0.17599849 1.7197883
-1.5932763 0.17559507 1.7417881
-0.36513236 0.17088939 1.7211677
-0.34597254 0.1929854 1.72875
-0.027697654 0.17430621 1.7242007
0.19896312 0.17642754 1.7059575
0.22644524 0.17527731 1.7254791
0.25467497 0.17121212 1.7469021
0.74665916 0.18054111 1.7406147
0.75972855 0.1713793 1.7160418
-1.6555171 0.22464181 1.7031964
-1.6260805 0.22422192 1.7223363
-1.5925242 0.2201767 1.7432278
-0.35330495 0.20914114 1.7211826
-0.34499198 0.20080265 1.7232027
-0.029685596 0.22395708 1.7235737
0.19683531 0.22880648 1.7038723
0.22695167 0.22561613 1.7254584
0.25515667 0.22144866 1.7464762
0.74917138 0.22196099 1.7451324
0.75886959 0.22324787 1.7143744
-1.6522481 0.2729761 1.7037444
-1.6231508 0.27426726 1.7247723
-1.5901072 0.2799038 1.7454466
-0.48585346 0.26523301 1.7154827
-0.22608928 0.26209599 1.7495626
-0.030307999 0.27418432 1.721948
0.19544719 0.27053973 1.7032734
0.2258677 0.27644148 1.7246963
0.25591153 0.27750909 1.7463989
0.74424314 0.2754361 1.7433219
0.75837308 0.2776607 1.7123957
-1.658069 0.32217732 1.7023166
-1.6273569 0.32425532 1.7233346
-1.5911385 0.32261583 1.7447652
-0.033646055 0.32688624 1.7254891
0.19382247 0.32167926 1.7014122
0.22481978 0.32630658 1.7251083
0.25685769 0.32267496 1.7478228
0.74566114 0.32336116 1.7389385
0.75707626 0.32461485 1.7116394
-1.6549501 0.37886724 1.7058506
-1.6220185 0.37602946 1.7253973
-1.5932459 0.37554079 1.7447968
-0.23606062 0.39022931 1.7311043
-0.028142158 0.36875412 1.7274114
0.010366462 0.39336789 1.7060113
0.19118126 0.37959597 1.7010115
0.22480775 0.37569952 1.7261052
0.25852379 0.3931365 1.7498368
0.74681407 0.3741813 1.7275943
0.75534177 0.37395564 1.7093982
-1.6580923 0.42673108 1.702799
-1.6260022 0.42672515 1.722563
-1.5928298 0.425064 1.7448497
-0.16899066 0.43817854 1.7070289
-0.02314215 0.43717194 1.7285181
0.0091690505 0.41810036 1.7192585
0.19340187 0.42007393 1.70225
0.2263449 0.42515522 1.7267022
0.25850776 0.42047635 1.7454054
0.74466646 0.4240796 1.7347804
0.75186604 0.42959926 1.7125155
-1.6547165 0.47329041 1.7057443
-1.6237921 0.4762547 1.726613
-1.5918046 0.47887194 1.7454987
-0.035277016 0.47522268 1.7271502
0.19477239 0.49006996 1.7022629
0.22523643 0.47382388 1.7219697
0.2609188 0.48229471 1.7453892
0.74238217 0.4733789 1.737758
0.75577682 0.47969875 1.7180721
-1.6577528 0.53095114 1.706865
-1.62274 0.52717638 1.728408
-1.5913353 0.52033067 1.7470262
-0.038620733 0.52343935 1.725736
0.19558781 0.51877147 1.704019
0.22423325 0.52460152 1.7205824
0.25609148 0.52706504 1.7429801
0.73596174 0.52637202 1.7429847
0.7653724 0.52783811 1.7242343
0.81207132 0.51533544 1.7085271
-1.654995 0.57336259 1.7039839
-1.625398 0.57250071 1.7242272
-1.5940572 0.57503545 1.7449963
-0.059476424 0.57606697 1.7467272
-0.041677136 0.57253712 1.722578
0.19705366 0.58058244 1.7040486
0.22358236 0.57484901 1.719681
0.25901145 0.57641184 1.7425276
0.73373419 0.57497227 1.7373546
0.76001996 0.57328945 1.7271744
-1.6540189 0.63718939 1.7047638
-1.6239452 0.62271714 1.7240405
-1.5887533 0.63257837 1.7459449
-0.058405068 0.627783 1.739885
-0.042463418 0.62205875 1.7187854
0.19788118 0.62132436 1.7018945
0.22642736 0.6251353 1.7205808
0.25893524 0.62594599 1.7412469
0.73058975 0.62579787 1.7291127
0.76543224 0.61506891 1.7102149
0.81758314 0.63734084 1.728034
-1.6540532 0.67788327 1.702019
-1.6261091 0.67766172 1.7245747
-1.590965 0.67249143 1.7459881
-0.062110364 0.6780833 1.7404755
-0.042759914 0.67331004 1.7130736
0.19930884 0.6772815 1.7005081
0.22681451 0.67511952 1.7189838
0.26181167 0.67422783 1.7431912
0.72251022 0.67359543 1.7301414
-1.6572565 0.73005807 1.7025865
-1.6228878 0.72491211 1.7236185
-1.5942458 0.72200912 1.7447662
-0.061817147 0.72546971 1.7384485
-0.044889875 0.72066474 1.7125819
0.22962135 0.72645485 1.719461
0.26265991 0.72341233 1.7424163
0.71511292 0.72409785 1.7301728
-1.6578491 0.77548182 1.7039313
-1.6247542 0.77294588 1.7216755
-1.5923625 0.77617073 1.7448956
-0.050198026 0.75139529 1.7232022
-0.029788733 0.76767135 1.7154058
0.18759888 0.78532708 1.707516
0.22616185 0.76841581 1.7179128
0.2616483 0.76494926 1.7409739
0.69726747 0.76965904 1.7482425
0.71273929 0.77677536 1.7274457
-1.655991 0.82471007 1.7045839
-1.6243143 0.82280743 1.7240911
-1.590304 0.82342678 1.7465376
0.69477999 0.83343804 1.7449834
0.7123875 0.82576239 1.7204548
-1.6589751 0.88835669 1.7040383
-1.6246173 0.87081689 1.7208158
-1.5897949 0.87465084 1.744599
0.69472325 0.87633449 1.7380097
0.71082383 0.8750515 1.71612
-1.6564718 0.91942805 1.7024622
-1.6262013 0.92415905 1.7205049
-1.5905867 0.92016417 1.7409887
0.69010383 0.92890441 1.7399266
0.7055648 0.92505562 1.7166857
-1.658079 0.98611522 1.704793
-1.6226634 0.97425181 1.7215366
-1.5881817 0.97509593 1.7445946
0.6907953 0.97585386 1.7351314
0.70669311 0.97046149 1.7130817
-1.6531901 1.0245625 1.703586
-1.6205996 1.024698 1.7248483
-1.5885321 1.0282379 1.7435871
0.68950176 1.0234224 1.7359993
0.7054866 1.0239359 1.7074184
-1.6593214 1.0937171 1.7004367
-1.6292773 1.0724225 1.719855
-1.5933914 1.0718856 1.7417734
0.69143343 1.0720108 1.7296433
0.70398253 1.0793915 1.708981
-1.6592964 1.1199481 1.7052634
-1.624755 1.1275187 1.7254483
-1.5886157 1.1211641 1.747117
0.69008654 1.1276764 1.7311798
0.70415747 1.1163043 1.7076812
-1.6564474 1.1721078 1.7043303
-1.6253047 1.1752149 1.7248782
-1.59342 1.1748146 1.7438369
0.68801361 1.1744657 1.7308379
0.70345861 1.1753238 1.7088966
-1.6566029 1.2221699 1.7017059
-1.6232169 1.2274412 1.723619
-1.5895373 1.2324305 1.7447119
0.68922359 1.2268542 1.7299553
0.70154941 1.2337911 1.7057158
-1.6574516 1.2674615 1.7026411
-1.6244553 1.2796048 1.7194612
-1.5936606 1.2700655 1.7420549
0.68770027 1.2754401 1.7260442
0.70132464 1.2968118 1.7049696
-1.6558126 1.3339434 1.7047642
-1.622254 1.3223175 1.7201977
-1.5941051 1.327585 1.7419584
0.68751198 1.3243082 1.7287794
-1.6512682 1.3879948 1.700577
-1.6219572 1.3736094 1.7186412
-1.5922712 1.3734379 1.7424908
0.68298626 1.3717788 1.7302247
0.70236355 1.3589656 1.7089452
-1.6501466 1.4218539 1.7053022
-1.6270187 1.424592 1.7212838
-1.5884674 1.4241085 1.7438008
0.68640792 1.4223468 1.7279363
-1.6505934 1.4699348 1.7030344
-1.6237558 1.473583 1.7178807
-1.5924913 1.4736553 1.7378958
0.68426383 1.4637491 1.7337936
-1.6223239 1.5304021 1.7153932
-1.5856905 1.5252643 1.7395418
-1.6217345 1.5728153 1.7121556
-1.5825808 1.5820645 1.7466542
-1.618354 1.6230105 1.7165828
-1.5866103 1.6185859 1.7393636
-1.622334 1.6723194 1.7162724
-1.5867001 1.6743932 1.7420297
-1.623091 1.7217311 1.7164329
-1.5879061 1.7214996 1.7425296
-1.6622061 1.7582382 1.7054982
-1.6244391 1.7525209 1.722065
-1.5949196 1.7556467 1.7472367
-1.2595003 -0.55486894 1.7652153
-1.2266599 -0.55394858 1.7678627
-1.1801147 -0.55907005 1.7715696
-1.1194139 -0.56276011 1.7730533
-1.0776738 -0.56665552 1.7801363
-1.0346057 -0.56665826 1.7751323
-0.96061558 -0.56228644 1.7696868
-0.90228409 -0.56161606 1.7899326
-0.88611609 -0.55744028 1.7801323
-0.84847116 -0.5607636 1.7688384
-1.5092835 -0.50515592 1.7637892
-1.4725536 -0.51088554 1.7725624
-1.4230418 -0.51740444 1.7770952
-1.3755621 -0.53033507 1.7784923
-1.3284519 -0.53832704 1.7787081
-1.2843697 -0.54549795 1.7731576
-0.066864721 -0.50060207 1.7627624
0.27609619 -0.51611096 1.7615299
0.32530841 -0.51891196 1.7770814
0.3759931 -0.52949959 1.7751392
0.42409423 -0.53147376 1.7798131
0.473921 -0.53218591 1.770802
0.52117473 -0.52966499 1.7666428
0.57794333 -0.53026873 1.7829674
0.6239261 -0.52606744 1.775498
0.67370236 -0.51167363 1.7743959
0.70627296 -0.50525618 1.7515912
-1.5701953 -0.49491942 1.7563146
-1.5186603 -0.4922871 1.7658997
-1.4773043 -0.49274552 1.7893139
-1.4428227 -0.49718249 1.7961094
-0.070894167 -0.48794994 1.7794225
-0.030424614 -0.49184677 1.7696671
0.0021817803 -0.48933008 1.7557524
0.28949356 -0.48279744 1.7554792
0.32438862 -0.47244632 1.772787
0.36268827 -0.46966544 1.7942461
0.48761284 -0.49420357 1.796877
0.50665897 -0.49525082 1.7972755
0.67903948 -0.47191924 1.7776499
0.70463699 -0.48091871 1.7587144
-1.562393 -0.41068044 1.755091
-1.5223122 -0.41000223 1.7796148
-0.07973285 -0.41852933 1.7600887
0.29209915 -0.42189637 1.7565272
0.32621783 -0.42450905 1.7796692
0.35727525 -0.42914003 1.7950319
0.68822622 -0.42571041 1.785612
