ply
format ascii 1.0
comment PCL generated
element vertex 1472
property float x
property float y
property float z
element camera 0
property float view_px
property float view_py
property float view_pz
property float x_axisx
property float x_axisy
property float x_axisz
property float y_axisx
property float y_axisy
property float y_axisz
property float z_axisx
property float z_axisy
property float z_axisz
property float focal
property float scalex
property float scaley
property float centerx
property float centery
property int viewportx
property int viewporty
property float k1
property float k2
end_header
-1.4756397 -0.49397612 1.7868717
-0.067189544 -0.4880724 1.7755129
-0.028762808 -0.49050945 1.7716681
0.28804326 -0.48284459 1.7573496
0.32507059 -0.47136489 1.772893
0.36147705 -0.46936268 1.7932669
0.48233494 -0.49340087 1.7947789
0.50650072 -0.49509612 1.7967141
0.67697614 -0.47219291 1.7793258
0.70849401 -0.47167024 1.7552518
-1.5587822 -0.4084177 1.7547417
-1.527162 -0.40986437 1.7752306
-1.4934187 -0.40941411 1.7959362
-0.080997072 -0.4212172 1.7607089
0.28886735 -0.42298266 1.7557513
0.32629743 -0.42460883 1.7800766
0.35549816 -0.42383751 1.7960583
0.68630028 -0.42630073 1.7845931
0.71061409 -0.42251542 1.758347
-1.5598772 -0.37271169 1.7592671
-1.5256441 -0.37219569 1.7802681
-1.4975028 -0.37185141 1.7974443
-0.10502518 -0.39409444 1.7926399
-0.080055706 -0.3745133 1.7738744
0.28671211 -0.37140879 1.7599306
0.32494944 -0.37463871 1.7852484
0.35472858 -0.39207011 1.7968862
0.69216102 -0.37761584 1.7880706
0.71253812 -0.37321365 1.7638047
-1.5637239 -0.32608858 1.7572629
-1.5247231 -0.32227087 1.7816067
-0.077789865 -0.32314801 1.7740617
0.28130028 -0.32552999 1.7621238
0.32230982 -0.32501093 1.7885559
0.69485229 -0.32577485 1.7905989
0.71652377 -0.32537776 1.7669994
-1.5641534 -0.27559763 1.7589506
-1.5254998 -0.27537438 1.7845259
-0.073075436 -0.27583584 1.7737468
0.27988809 -0.27684659 1.7625115
0.32045409 -0.27329654 1.7903911
0.6972385 -0.27890295 1.7929621
0.71604139 -0.27395108 1.7730898
-1.5618122 -0.22195235 1.7598877
-1.5275476 -0.22183724 1.7831011
-0.066009901 -0.22563685 1.7750165
-0.048257496 -0.2015463 1.7527716
0.28021413 -0.22526681 1.7657889
0.31814629 -0.22548191 1.790736
0.69800961 -0.22576515 1.7964176
0.72205919 -0.2249337 1.7675624
-1.5613823 -0.17190686 1.7608173
-1.5253642 -0.17394359 1.7849326
-0.065487318 -0.17474777 1.7781266
-0.048204016 -0.16777541 1.7530527
0.27979252 -0.17377535 1.7668619
0.31619415 -0.17546579 1.7900751
0.68806446 -0.17780365 1.796822
0.72350103 -0.17296217 1.7681065
-1.5630896 -0.12782876 1.7604315
-1.5253011 -0.12524493 1.7858
-0.27857679 -0.10861004 1.774968
-0.065404765 -0.12251858 1.7790279
-0.048136018 -0.11726587 1.7532722
0.27677047 -0.12253867 1.7644969
0.31504145 -0.12526342 1.7905843
0.69287843 -0.14100637 1.7976407
0.72472543 -0.12476426 1.7702478
-1.5661509 -0.07337106 1.7579482
-1.527642 -0.073340133 1.7832706
-0.30408669 -0.063720196 1.7654877
-0.2691696 -0.085054018 1.7814291
-0.23665328 -0.063043945 1.7716717
-0.06582734 -0.07216569 1.7784189
-0.048149325 -0.075411901 1.7551814
0.27741632 -0.071999371 1.7653809
0.3126545 -0.073256761 1.788868
0.69634938 -0.099037409 1.7999629
0.72463065 -0.07569398 1.7719098
-1.5639123 -0.027587222 1.7598011
-1.5260429 -0.025006704 1.7845646
-0.31356379 -0.025547493 1.7707163
-0.26136175 -0.023364207 1.7691579
-0.23331025 -0.026924616 1.774209
-0.065758839 -0.025433417 1.7776026
-0.048112024 -0.02508775 1.7547449
0.27809432 -0.025431687 1.7651045
0.31283778 -0.025846127 1.7908108
0.72467655 -0.026636554 1.7730011
0.75523603 -0.035302751 1.7504402
-1.565816 0.021702614 1.75863
-1.5277895 0.021648934 1.784479
-0.32816753 0.024638029 1.7729703
-0.26205507 0.020138703 1.7771646
-0.23932137 0.018955657 1.7792552
-0.065281555 0.020497251 1.7784982
-0.048055861 0.02091562 1.7526909
0.27554166 0.02171094 1.7639436
0.3131687 0.023051756 1.7898706
0.72444725 0.022416113 1.7724081
0.7555142 0.044442017 1.7508795
-1.5660989 0.072950721 1.7599792
-1.5257406 0.074870497 1.784282
-0.35350195 0.087408215 1.7613468
-0.34168392 0.065916851 1.7709293
-0.26095724 0.075046316 1.7788855
-0.24178295 0.072804712 1.7827492
-0.06587854 0.072281845 1.7799155
-0.046064619 0.073351912 1.7553965
0.27825382 0.07224033 1.7651672
0.31283131 0.073380522 1.7898415
0.72416717 0.076072633 1.7724375
-1.563913 0.12761061 1.7624508
-1.5242375 0.12734164 1.7865038
-0.36650622 0.12203632 1.7698009
-0.26261371 0.11644842 1.785885
-0.2432971 0.12282395 1.7890866
-0.065934755 0.12337779 1.7795091
-0.048207 0.12168422 1.7554802
0.27825496 0.12406036 1.76555
0.31566718 0.12550718 1.7896215
0.72514725 0.1250826 1.7710714
-1.5662628 0.17550822 1.7615672
-1.5259674 0.17509297 1.7851112
-0.36231592 0.16304804 1.7688893
-0.34326673 0.18926106 1.7746943
-0.26100218 0.17485778 1.7941709
-0.24272467 0.18014793 1.7954375
-0.065481059 0.1738109 1.7782406
-0.048280947 0.17144699 1.7554369
0.2786971 0.1744567 1.7632972
0.31420332 0.17740783 1.7874676
0.69777238 0.19431418 1.798067
0.72546411 0.17387107 1.7707094
-1.567404 0.22348614 1.7596028
-1.5280062 0.22419856 1.7852004
-0.34087884 0.20875823 1.7684683
-0.25497103 0.23576927 1.7745502
-0.23349914 0.23252894 1.7642236
-0.066210821 0.22642793 1.7803702
-0.048448551 0.22350436 1.7577257
0.27959588 0.22623622 1.7651008
0.31629556 0.22488911 1.7893175
0.69904232 0.23086827 1.7983296
0.72357666 0.22548512 1.7693865
-1.5638596 0.27986929 1.7623421
-1.5266027 0.27567762 1.7851278
-0.25821364 0.27785206 1.7933712
-0.23384051 0.27684093 1.7700951
-0.065744206 0.27524647 1.7774651
-0.048487183 0.27432075 1.7543718
0.27788427 0.27460185 1.7627953
0.31563699 0.27326432 1.7876629
0.69970787 0.27184394 1.7960128
0.72145987 0.27544224 1.7698336
-1.565564 0.32599926 1.7625853
-1.525252 0.3253136 1.7866486
-0.25029296 0.33092412 1.7937794
-0.23385212 0.32460874 1.7741443
-0.066436857 0.32431763 1.7765164
-0.048612427 0.31308612 1.7547394
0.28267494 0.32466951 1.7653289
0.32292321 0.32597598 1.7920948
0.69685572 0.31723067 1.7921081
0.71948183 0.32642668 1.7686267
-1.5694147 0.37494674 1.7586449
-1.5295966 0.37432453 1.7837026
-0.25336388 0.37684274 1.7783313
-0.23556295 0.3726379 1.7741933
-0.065803617 0.36575332 1.780556
-0.038938306 0.38693288 1.7661002
0.27923137 0.37447333 1.7613814
0.32274213 0.3743099 1.7913356
0.69529885 0.37400272 1.7979332
0.71720827 0.37499529 1.7707995
-1.5635849 0.42438939 1.7628952
-1.5285816 0.4252618 1.786381
-0.23255736 0.40003529 1.7833656
-0.064813681 0.44049194 1.7842133
-0.027284259 0.42246819 1.7700192
0.28282148 0.42399654 1.7614851
0.32094437 0.42356697 1.7867348
0.69419056 0.42991695 1.7951061
0.7167623 0.42526162 1.7671832
-1.569546 0.47395 1.7605416
-1.5299711 0.47386092 1.7848666
-0.06666062 0.47413865 1.7742476
-0.049158912 0.46207088 1.7530501
0.28706634 0.47291288 1.7634703
0.32880914 0.47371879 1.7909486
0.69451505 0.47691458 1.7920959
0.71703917 0.47304389 1.7645826
-1.56625 0.52364999 1.7608482
-1.5260855 0.52533478 1.7868969
-0.069955312 0.52308077 1.7742022
0.28153554 0.52334929 1.7605467
0.32216027 0.52445006 1.7849997
0.35077038 0.53328574 1.7990056
0.69359612 0.52513707 1.7887565
0.71327484 0.52489972 1.7637568
-1.5654908 0.57717901 1.7619996
-1.527173 0.57571459 1.7878813
-0.071580127 0.57327133 1.7720351
0.28314134 0.5741896 1.7599492
0.32220441 0.57324255 1.7831794
0.35431486 0.57846469 1.7986765
0.68995899 0.57476526 1.7900929
0.70851254 0.57421327 1.7648799
0.7616756 0.55828232 1.7507352
-1.5678658 0.6278553 1.7582797
-1.5283062 0.62723523 1.7853919
-0.080681406 0.62066352 1.7754595
0.2858004 0.62602133 1.7615283
0.32520053 0.62402558 1.7832216
0.35383675 0.62210691 1.7960848
0.68805289 0.6242938 1.7854216
0.7080074 0.62255055 1.7592131
0.81423086 0.64413661 1.7544599
-1.5657195 0.67526722 1.7625031
-1.5244988 0.67396885 1.7879986
-0.081248969 0.67491406 1.7729087
0.28594416 0.67387235 1.7583194
0.32525051 0.67536223 1.7807981
0.3604635 0.67308283 1.7969772
0.68743837 0.67508477 1.7801135
0.70544952 0.66911262 1.755271
-1.5659989 0.72301006 1.7607003
-1.531451 0.72060305 1.7863576
-0.08562848 0.72289413 1.7785552
0.28888282 0.72334379 1.7600803
0.32826614 0.72622299 1.7807034
0.36061445 0.71677464 1.794137
0.68315756 0.72584778 1.7772391
0.70600241 0.71314603 1.7520953
-1.567331 0.77165794 1.760363
-1.5264699 0.77500784 1.7859681
-0.080888182 0.75690305 1.7759577
0.28270125 0.7733748 1.7632565
0.32331392 0.7651307 1.7781881
0.35668722 0.76081973 1.7918125
0.67966598 0.77535099 1.7752949
-1.5656677 0.82047993 1.7607712
-1.5303626 0.82344854 1.7850568
-1.4999686 0.84669983 1.7953204
-0.043325387 0.80341178 1.7951031
0.0023304082 0.83662611 1.7991486
0.67529613 0.82509291 1.774143
-1.5675017 0.87071812 1.7618134
-1.5292739 0.87334561 1.7871454
0.67147505 0.87376899 1.7763776
-1.5610516 0.91810441 1.7617301
-1.5288736 0.92328417 1.7849523
0.6409362 0.93544787 1.7919856
0.66611135 0.92609864 1.7739049
-1.5681792 0.97076333 1.7579511
-1.5334033 0.97012419 1.7818072
0.64134526 0.96958691 1.78842
0.66737455 0.97487831 1.7682917
-1.5662795 1.0251305 1.7614055
-1.5296451 1.0282586 1.787719
0.64684826 1.0185853 1.7955213
0.6647228 1.0263258 1.7716154
-1.5687702 1.0749545 1.7601742
-1.5240022 1.0773183 1.7864991
0.64662206 1.0796864 1.7950528
0.66529649 1.0772592 1.7722068
-1.5736753 1.1243892 1.7597587
-1.5327488 1.1257933 1.7839772
0.64511478 1.1299361 1.794368
0.66244173 1.1233543 1.7712947
-1.5686604 1.173818 1.7607419
-1.5263813 1.1726649 1.7868836
0.64505994 1.1716316 1.7929671
0.66342032 1.1764668 1.7692963
-1.5654033 1.2189714 1.7627091
-1.529279 1.2252561 1.7864596
0.64587939 1.2206929 1.7902564
0.66248465 1.2239206 1.7683235
-1.5678221 1.277594 1.7620319
-1.5288556 1.276567 1.7892244
0.64434057 1.2787806 1.7941741
0.66054678 1.2770387 1.7718695
-1.5655919 1.3233111 1.7630613
-1.529227 1.3212383 1.7859931
0.64518577 1.3380147 1.791854
0.65910155 1.3218628 1.7693733
-1.5676621 1.3717271 1.7644322
-1.5312909 1.3676331 1.7878456
0.64702278 1.3790818 1.7887175
0.6621334 1.3720179 1.7672889
-1.562227 1.4183081 1.7603571
-1.5318347 1.4259992 1.7867436
0.64289099 1.4219035 1.7911453
0.66222626 1.4246143 1.7638706
-1.5623473 1.4721782 1.7629919
-1.5308843 1.4796342 1.7844096
0.64419478 1.4668916 1.7907233
0.66268378 1.4723287 1.7673022
-1.5633619 1.5181049 1.7575623
-1.5274138 1.526996 1.7845293
0.64389098 1.500294 1.7912875
-1.5607482 1.5715066 1.7580296
-1.5315245 1.5791699 1.778792
-1.5616401 1.6295441 1.7607498
-1.526978 1.6280942 1.7865745
-1.5623753 1.6768383 1.7569454
-1.5248944 1.6718606 1.7807398
-1.5624998 1.7218409 1.7605311
-1.5241781 1.7286518 1.7822638
-1.5673331 1.7538151 1.7630149
-1.7079512 1.8343558 1.7656277
-1.6806105 1.8338785 1.7833985
-1.7071611 1.8759531 1.784716
-1.6768587 1.8649403 1.7878324
-1.2549447 -0.55166638 1.801658
-1.2224461 -0.55330634 1.8186048
-1.178062 -0.55430347 1.8301859
-1.1210101 -0.55494195 1.82472
-1.0781674 -0.56001836 1.8340398
-1.0216817 -0.56197608 1.8239281
-0.98679465 -0.56199342 1.838362
-0.9055382 -0.55814123 1.8340735
-0.89435321 -0.56428504 1.8288164
-1.414124 -0.50699538 1.8082315
-1.3724616 -0.51374418 1.8209463
-1.3237679 -0.52589899 1.8221461
-1.276896 -0.54038817 1.8290676
-1.2229608 -0.54545766 1.8396951
0.3409819 -0.50798625 1.801164
0.37724438 -0.51135457 1.8085154
0.42614976 -0.51075375 1.8223451
0.47360647 -0.51422352 1.822762
0.52843314 -0.51952124 1.8209448
0.57593364 -0.51523149 1.8246102
0.62199622 -0.5097751 1.8213745
0.65398347 -0.50465292 1.8005714
-1.4575274 -0.48975271 1.8066356
-1.4262594 -0.49393511 1.8229239
-1.3906293 -0.49941412 1.8415936
-0.07128495 -0.48881653 1.8200805
0.3499805 -0.49919429 1.8021266
0.3832064 -0.4748154 1.8092234
0.42483538 -0.47507372 1.8276908
0.46653622 -0.48499471 1.8313595
0.52851349 -0.49598259 1.8273575
0.57974297 -0.48971066 1.8289672
0.63034302 -0.47535172 1.8289502
0.65347409 -0.47983479 1.8037964
-1.4672692 -0.41230091 1.8172127
-1.4293001 -0.40940985 1.8381903
-1.398142 -0.40280515 1.8498802
-1.3487457 -0.4081282 1.8431548
0.38171196 -0.42395124 1.8131343
0.42346132 -0.42552689 1.834655
0.45381483 -0.44529191 1.8474571
0.63809985 -0.42776522 1.8319308
0.66289383 -0.42547068 1.8133637
-1.4704438 -0.37175652 1.8150184
-1.4267045 -0.37680015 1.8403766
-1.3592848 -0.38071993 1.8451648
-1.3480234 -0.37128115 1.8483076
-0.11434638 -0.37252054 1.8240644
0.34575978 -0.36987719 1.8003367
0.37838948 -0.37276614 1.8194727
0.4204672 -0.37461522 1.841355
0.64427781 -0.37946603 1.8420753
0.66561317 -0.37301114 1.8192645
-1.4731947 -0.32333332 1.8157946
-1.42768 -0.32961297 1.8412045
-1.3572556 -0.32387474 1.8475113
-0.1109347 -0.32350907 1.8224372
-0.093380466 -0.32586819 1.8010023
0.34476086 -0.32929224 1.8002301
0.37621072 -0.32482687 1.8219949
0.41531029 -0.32491723 1.8434671
0.66695225 -0.32570201 1.8213645
-1.4759581 -0.27508804 1.8155696
-1.4327046 -0.27591604 1.8404045
-1.3574289 -0.26046336 1.8488353
-0.1061275 -0.28105465 1.8256648
-0.090860464 -0.2646108 1.8150358
0.34379426 -0.2784639 1.8007138
0.37567571 -0.27548075 1.8247517
0.41382164 -0.27775925 1.8442611
0.648673 -0.27382913 1.8482423
0.67346829 -0.27454564 1.8182986
-1.5012918 -0.23248856 1.8010684
-1.4756364 -0.22024761 1.8166469
-1.4352086 -0.22157498 1.8409823
-1.3634987 -0.22380731 1.8473281
-1.3492954 -0.20758748 1.849721
-0.10481207 -0.22411944 1.8372539
-0.089269541 -0.22649398 1.8157394
0.34084213 -0.22059515 1.8021705
0.37422717 -0.22533725 1.8252614
0.4058854 -0.22416477 1.8422916
0.64703834 -0.22183384 1.8441778
0.67170459 -0.22609186 1.8210928
-1.4761128 -0.17379431 1.8158159
-1.4330921 -0.17374121 1.8423811
-1.3587376 -0.17626865 1.8448517
-1.3472358 -0.19169886 1.8482118
-0.10333111 -0.17373002 1.8369706
-0.087973632 -0.17760625 1.8129786
0.34024286 -0.17832057 1.8037516
0.37539521 -0.17429578 1.8268124
0.40981871 -0.17858854 1.8465664
0.64701885 -0.17581159 1.8389314
0.66737896 -0.17166549 1.820814
-1.4746509 -0.12614492 1.8171626
-1.4302803 -0.12599225 1.8418199
-1.3564408 -0.12409599 1.84504
-0.27630889 -0.1131112 1.8085574
-0.10328751 -0.12748235 1.8386215
-0.087984391 -0.12687486 1.8158005
0.3386572 -0.12634112 1.8035719
0.37228236 -0.12554565 1.8237946
0.40719429 -0.12395278 1.8474225
0.64467496 -0.13754994 1.8470236
0.67408043 -0.12421911 1.8230871
-1.4731473 -0.073309906 1.8176339
-1.4295346 -0.073276311 1.8430995
-1.3607978 -0.073793538 1.8472701
-0.30185607 -0.086835578 1.8033742
-0.27086189 -0.063897133 1.8127114
-0.24011534 -0.082194 1.8023956
-0.10451086 -0.072789326 1.8397852
-0.088994868 -0.073821075 1.8179218
0.33765328 -0.074004181 1.8048521
0.37293994 -0.074957512 1.8239281
0.40755504 -0.072718419 1.8473158
0.68072653 -0.07439065 1.8236866
-1.4757972 -0.026780054 1.8148749
-1.4322586 -0.024796585 1.8395253
-1.3608446 -0.025563097 1.8473531
-0.26592368 -0.043928131 1.8302726
-0.2241517 -0.013000855 1.8160207
-0.10350309 -0.026411355 1.845163
-0.088938341 -0.026014095 1.8176124
0.33737653 -0.026069274 1.8042217
0.37250453 -0.026393764 1.8226742
0.40502524 -0.026797917 1.8471295
0.68027282 -0.027195105 1.8250277
-1.4735204 0.022445908 1.8174132
-1.4349808 0.020639153 1.8410095
-1.3553935 0.021132311 1.8466778
-0.32406539 0.017459972 1.8047974
-0.27501535 0.043351889 1.8019542
-0.23266394 0.030522019 1.8136131
-0.10353913 0.022052854 1.8457998
-0.08800523 0.022736488 1.8189428
0.33675778 0.019630218 1.8048793
0.37226614 0.022063024 1.8215258
0.40556857 0.024318898 1.843564
0.68040317 0.022864304 1.8253511
-1.4737217 0.074299164 1.8181323
-1.4308357 0.072689474 1.8431928
-1.3636786 0.073175356 1.8478271
-0.34745967 0.087466247 1.8094009
-0.27496454 0.064998381 1.8011638
-0.23365958 0.074260958 1.8205029
-0.10372053 0.075097546 1.8481174
-0.089144714 0.073960759 1.8208696
0.3377063 0.074121706 1.8050165
0.37253135 0.074979179 1.8218635
0.4065299 0.078096054 1.8469132
0.68105239 0.074579015 1.8227865
-1.4747574 0.12712955 1.8169328
-1.4310664 0.12695992 1.8425006
-1.3618193 0.12176137 1.848843
-0.35982412 0.11345889 1.8029583
-0.27588555 0.13787292 1.8095745
-0.23167746 0.13009726 1.8170904
-0.10379029 0.12080857 1.8477345
-0.089070588 0.12604393 1.8174859
0.33931935 0.12597406 1.8037862
0.37186643 0.12637205 1.8214403
0.40700719 0.12701227 1.8462691
0.67920917 0.12509041 1.8249711
-1.4768692 0.1748708 1.8162569
-1.4330808 0.17464562 1.8418962
-1.3615643 0.18091018 1.8479573
-0.35962144 0.16774452 1.8219054
-0.34005237 0.19313316 1.8121802
-0.27552631 0.17163949 1.8098265
-0.23697215 0.16945881 1.8138323
-0.10378773 0.17234211 1.8449898
-0.087765299 0.17772759 1.8174483
0.33866376 0.1736083 1.8029603
0.37490046 0.17503099 1.8239015
0.4096643 0.17962639 1.8466175
0.68006915 0.17332514 1.822688
-1.5010982 0.21761546 1.8018107
-1.4736195 0.2227426 1.8179753
-1.4365436 0.22270884 1.8420999
-1.3642997 0.22476317 1.8478512
-0.33943576 0.21748744 1.8314881
-0.26623827 0.20247951 1.8249283
-0.22523807 0.22883639 1.825815
-0.10411542 0.22829407 1.8468642
-0.089838296 0.22456859 1.8188766
0.33965367 0.22297382 1.8025087
0.37351808 0.22503017 1.8214699
0.40933535 0.22348738 1.8457049
0.67639762 0.22502635 1.8249611
-1.5053636 0.27134076 1.8008839
-1.4759303 0.27799627 1.819133
-1.4340395 0.27594683 1.8411077
-1.3665354 0.25648606 1.8476028
-0.21633095 0.27650616 1.8272824
-0.10424861 0.27517781 1.8450387
-0.089156568 0.27331474 1.8167669
0.34004003 0.27653161 1.80224
0.37526795 0.27529988 1.8223488
0.40732804 0.27462146 1.8440157
0.67558503 0.27495989 1.825079
-1.4768327 0.32515758 1.8193442
-1.4330525 0.32414773 1.8438884
-0.26186451 0.30817163 1.8159064
-0.21550791 0.31049377 1.8251208
-0.10448927 0.32918918 1.8435161
-0.090014018 0.32502487 1.8207153
0.34477139 0.3162511 1.8013999
0.37609044 0.32433537 1.822732
0.41068456 0.32708904 1.8465511
0.6761651 0.32480967 1.8225453
-1.5029392 0.37963295 1.8019164
-1.4763039 0.37295026 1.8189034
-1.4363408 0.37357804 1.8424096
-0.23031539 0.39056811 1.8021536
-0.10490239 0.36175704 1.846951
-0.08233358 0.37535164 1.8199761
0.3465279 0.37527442 1.8031521
0.37773335 0.37409389 1.8243902
0.41034561 0.37442881 1.8460628
0.6700542 0.37492567 1.8268485
-1.5081264 0.41845104 1.8011256
-1.4750537 0.42351666 1.8209636
-1.4358696 0.422984 1.8435316
-0.10549738 0.4491452 1.8449482
-0.070319191 0.42576885 1.8257319
-0.041495234 0.41100797 1.8017858
0.34630993 0.4253675 1.8025984
0.37356383 0.42416313 1.818727
0.40993768 0.42939109 1.8426988
0.64666063 0.43899974 1.8492742
0.67002511 0.42343357 1.8249055
-1.504671 0.4850944 1.8037128
-1.4771221 0.47185838 1.8194458
-1.4402083 0.47498646 1.8417351
-0.10697246 0.47745049 1.8395382
-0.091260433 0.4763754 1.8159008
0.34939569 0.48518747 1.8008647
0.37640134 0.47431505 1.819295
0.41162619 0.47786987 1.8429985
0.647843 0.47722936 1.8461068
0.6704306 0.47474825 1.8208123
-1.5059911 0.50707167 1.8002753
-1.4744557 0.52349907 1.81963
-1.4336772 0.52480829 1.8438566
-0.10865512 0.52776593 1.8334574
-0.0915104 0.52607918 1.8101362
0.37511882 0.52499151 1.8160501
0.41049847 0.52270442 1.8404962
0.64559364 0.52604389 1.8452563
0.6680001 0.52522081 1.8212644
-1.5023365 0.5582217 1.8042368
-1.4740138 0.57642037 1.8213676
-1.4405707 0.57354409 1.8436732
-0.15253451 0.5921554 1.842906
-0.11206396 0.57913804 1.8343647
-0.09453135 0.57640684 1.8112526
0.37791428 0.57381862 1.8150101
0.41692227 0.57590306 1.8411881
0.64506167 0.57214761 1.8441983
0.66515148 0.57522285 1.8200257
-1.5014989 0.63828266 1.8024189
-1.4763955 0.62578273 1.8217237
-1.4396716 0.62651473 1.8440287
-0.11372493 0.62408155 1.8294743
-0.096396461 0.62356377 1.8081604
0.38100767 0.62509441 1.815787
0.41903704 0.62512255 1.8400462
0.64398116 0.62958521 1.8417246
0.66362739 0.62340087 1.8189324
-1.4734982 0.67312145 1.8208224
-1.4366733 0.67292285 1.8448333
-0.11385949 0.67854857 1.8275464
-0.096763611 0.67245251 1.8036228
0.38539118 0.67175537 1.8165309
0.42080173 0.67694187 1.8406694
0.64200008 0.67626554 1.8385161
0.66339803 0.67343664 1.8146009
-1.5044347 0.72126526 1.8020025
-1.4734118 0.72222614 1.8224139
-1.4412227 0.71709388 1.8449928
-0.11641257 0.72078931 1.8299091
0.38226715 0.7280072 1.8127409
0.42155346 0.72292691 1.8377622
0.64188677 0.72705787 1.8346078
0.65764213 0.71857971 1.8124444
-1.5007282 0.77452844 1.800957
-1.4748532 0.77434498 1.8203151
-1.4343848 0.7748993 1.8443443
-0.11126509 0.75842905 1.8250194
-0.099257343 0.77599251 1.8262163
0.3492732 0.79708892 1.8295007
0.38186991 0.76955456 1.8176585
0.41965035 0.76247406 1.8375577
0.63694125 0.77575606 1.8350247
0.65552139 0.77014154 1.8090081
-1.5020957 0.83116925 1.8046274
-1.4734939 0.82883769 1.8205229
-1.4399635 0.83098871 1.8440859
-0.07002227 0.82861465 1.8380259
-0.033370744 0.83539009 1.8270117
0.63697529 0.82699686 1.8307155
0.6538952 0.81413001 1.8038393
-1.5091408 0.86308438 1.8016666
-1.475094 0.87901545 1.8196182
-1.4383495 0.87935609 1.8424588
-0.068313137 0.86248237 1.8421037
-0.025800496 0.85957575 1.8366541
0.0023799362 0.8638773 1.8344326
0.63814455 0.87062973 1.833443
0.65729648 0.886374 1.8163188
-1.5056496 0.90694582 1.8022394
-1.4757204 0.92702073 1.8185009
-1.4428097 0.92166442 1.8402551
0.62965649 0.92638099 1.8270208
0.65192616 0.90856677 1.8216896
-1.5101526 0.97344035 1.8035586
-1.4767288 0.97506827 1.8202456
-1.4368935 0.96646118 1.8429449
0.62581009 0.97735947 1.8207164
-1.5071639 1.0131946 1.8055067
-1.4767057 1.0255274 1.8207735
-1.436502 1.0228859 1.8426718
0.62882578 1.0257181 1.8249155
-1.5019543 1.0790752 1.8031976
-1.4763709 1.0741433 1.8213398
-1.4396062 1.0776098 1.8435459
0.62654018 1.0752122 1.8256493
-1.5069518 1.1216443 1.8017879
-1.4756011 1.1231505 1.8214104
-1.4345393 1.1325464 1.8449712
0.6254617 1.1247711 1.8247757
-1.5024315 1.1561447 1.8026822
-1.4746807 1.1725278 1.8221073
-1.438448 1.1679401 1.8417133
0.62520564 1.1754035 1.8244077
-1.5035194 1.2203189 1.8046852
-1.4775251 1.2246825 1.8245052
-1.4388489 1.2246345 1.843492
0.62608516 1.2229587 1.8218528
-1.5080904 1.2621564 1.8063937
-1.4758472 1.2764149 1.8250959
-1.4401175 1.2735201 1.8461094
0.62214559 1.2739903 1.8263633
-1.5058918 1.3217956 1.8044777
-1.4747567 1.3250443 1.824841
-1.4406013 1.3127302 1.8479352
0.62349904 1.3254268 1.8239038
-1.5087779 1.3735318 1.8036541
-1.4705271 1.3767908 1.8256708
-1.4430474 1.3824229 1.843881
0.62382209 1.3772191 1.8230729
-1.507185 1.4177108 1.8045958
-1.4763963 1.4255551 1.8225603
-1.4382415 1.4260498 1.8425454
0.6213935 1.4265437 1.8288122
-1.5075638 1.468626 1.8071033
-1.4737326 1.475881 1.8233706
-1.4366035 1.4797727 1.8457774
0.62433565 1.4765172 1.8245082
-1.5053394 1.5158474 1.8017869
-1.4769467 1.5290602 1.8192509
-1.4394109 1.5306847 1.8432223
0.62154382 1.5152292 1.8316572
-1.5043645 1.5778294 1.8045397
-1.4735206 1.5764197 1.821164
-1.434705 1.5767728 1.8409908
-1.5086367 1.6142685 1.8029203
-1.4742669 1.6198832 1.8205706
-1.4420379 1.6191584 1.8411827
-1.4791946 1.6753833 1.8179488
-1.4403148 1.6722288 1.8387575
-1.5025014 1.712981 1.8024147
-1.4754269 1.7248164 1.8165584
-1.4354191 1.7250868 1.8400679
-1.5041571 1.7557008 1.8085749
-1.4691322 1.7526267 1.8268731
-1.6571581 1.8376868 1.8053254
-1.6219858 1.8284076 1.81428
-1.5788057 1.8244973 1.8291372
-1.5421473 1.8133936 1.8438849
-1.6605568 1.8694155 1.805702
-1.6277107 1.8594489 1.8199244
-1.6661552 1.9058694 1.84281
-1.1523961 -0.55158955 1.8543415
-1.122792 -0.55212539 1.8705568
-1.0770231 -0.55211747 1.8682365
-1.0265573 -0.55463326 1.8776928
-0.97286671 -0.5562796 1.8770624
-0.92393667 -0.56059867 1.8774456
-0.89483821 -0.56495512 1.884331
-1.3178079 -0.51270306 1.8601769
-1.2739214 -0.52107334 1.8766038
-1.2305216 -0.53766733 1.8794991
-1.1797131 -0.54564762 1.8764193
-1.1269364 -0.54595 1.8793364
-1.0706193 -0.54479259 1.8930168
-1.0335498 -0.54825503 1.8927494
-1.4096308 -0.48842368 1.8924639
-1.3687268 -0.48063228 1.8690474
-1.323869 -0.47734293 1.8835266
-1.2951559 -0.49468005 1.8909701
0.4437038 -0.48724422 1.8514376
0.47856793 -0.47471255 1.8627746
0.52650172 -0.47491783 1.8761145
0.574431 -0.47486833 1.879452
0.60782087 -0.46333614 1.8635852
-1.4041814 -0.4152005 1.8559709
-1.3691196 -0.42965269 1.8699216
-1.3266578 -0.42629096 1.8832008
-1.289067 -0.41086078 1.8937377
0.47372949 -0.42356125 1.8637524
0.52580869 -0.42427897 1.8841867
0.58428907 -0.42895943 1.8902527
0.61635137 -0.42268333 1.8662925
-1.3931158 -0.37636369 1.8579369
-1.3230588 -0.37688637 1.8641536
-1.2854475 -0.37941954 1.8897035
-0.15832426 -0.36870599 1.8859152
-0.13729087 -0.36460939 1.8612219
0.43970981 -0.37657574 1.8514582
0.4733713 -0.3756592 1.8681375
0.52674013 -0.37442163 1.8908995
0.59392524 -0.38125855 1.8945694
0.62139106 -0.37571415 1.8723075
-1.4052231 -0.32241732 1.8512319
-1.3880961 -0.32744312 1.8584375
-1.3259578 -0.32391766 1.8656331
-1.2863804 -0.3250747 1.8903315
-0.15435456 -0.33003592 1.8904718
-0.13554463 -0.32538059 1.8655851
0.43795308 -0.32825369 1.8540478
0.47206405 -0.32411882 1.8721578
0.5188669 -0.32764062 1.8919291
0.59605008 -0.32499781 1.8963007
0.62306136 -0.32546139 1.8746866
0.65092969 -0.30564192 1.8513937
-1.4055104 -0.27097946 1.8547407
-1.3784519 -0.27787551 1.856304
-1.3222429 -0.275038 1.8684387
-1.2868599 -0.27047208 1.8915107
-0.12660736 -0.27452081 1.8712733
0.43695751 -0.27173272 1.8571277
0.47502971 -0.27676255 1.8760078
0.51455605 -0.2746295 1.8937463
0.5952242 -0.27593556 1.8989078
0.62483793 -0.27370259 1.8753339
0.65096861 -0.29639527 1.8525348
-1.4078231 -0.22369862 1.8548598
-1.3736968 -0.22697949 1.8585227
-1.3234055 -0.2293153 1.867298
-1.2868905 -0.22342493 1.8905578
-0.12678029 -0.22593758 1.8749239
0.43366873 -0.22530374 1.8589506
0.47610912 -0.2252993 1.8803514
0.51332957 -0.22383811 1.8962233
0.62306792 -0.22392812 1.8809087
-1.4088736 -0.17337978 1.8514709
-1.3938118 -0.17634219 1.8606669
-1.3260791 -0.17497988 1.8642662
-1.2876318 -0.17654644 1.887836
-0.12236927 -0.17552131 1.8717164
0.43509609 -0.17362973 1.8620852
0.4755156 -0.17448832 1.881551
0.51057744 -0.17551677 1.8958665
0.62519407 -0.17782825 1.8822296
-1.4077699 -0.12588555 1.8530298
-1.3894322 -0.12567259 1.859141
-1.3263739 -0.12422249 1.8642579
-1.2862148 -0.12438604 1.8889221
-0.12334651 -0.1255382 1.8748748
0.43290338 -0.12711218 1.8614602
0.47460952 -0.12372497 1.8806038
0.50712508 -0.12380252 1.8963886
0.62549299 -0.12419765 1.8793858
0.65572876 -0.11032604 1.8513623
-1.4063638 -0.073187873 1.8533911
-1.3880131 -0.071677178 1.8569105
-1.3246396 -0.072214015 1.8639194
-1.284559 -0.072320499 1.8885387
-0.12320128 -0.077813148 1.87444
0.43311965 -0.078034937 1.8618188
0.47461209 -0.07329569 1.8823373
0.50588077 -0.075175285 1.8962991
0.62675017 -0.073420942 1.8794692
0.65622747 -0.073578767 1.8539721
-1.4052126 -0.025838809 1.8528551
-1.3876823 -0.025785625 1.8565578
-1.3240517 -0.025539327 1.864012
-1.2842129 -0.025599955 1.8889366
-0.12262435 -0.025564671 1.87625
0.43131542 -0.027041066 1.8604746
0.47445107 -0.027429234 1.882507
0.50588268 -0.026557246 1.8971505
0.62872922 -0.027796922 1.8800327
0.65529788 -0.027496597 1.8521687
-1.4119916 0.020304685 1.8527366
-1.3849981 0.021359045 1.8562996
-1.324405 0.021106143 1.864502
-1.2849127 0.021110503 1.8899456
-0.12332499 0.022448556 1.8770313
0.43184301 0.022044592 1.8601446
0.47449803 0.022976892 1.8826958
0.50475359 0.019745741 1.8974924
0.62937444 0.02331645 1.878575
0.65552354 0.023095885 1.8527975
-1.4085947 0.077576429 1.8526239
-1.3925327 0.073945366 1.8585132
-1.3257216 0.073023684 1.8652672
-1.2862717 0.073107243 1.8908918
-0.11950117 0.07802546 1.8740681
0.43239096 0.076321065 1.8615099
0.47503829 0.073489837 1.8839725
0.50605595 0.081563756 1.8957727
0.62965566 0.074454315 1.8784777
0.6558758 0.07374841 1.8528683
-1.4080218 0.12691373 1.8564259
-1.3855224 0.13105096 1.858891
-1.3268143 0.12423278 1.8663357
-1.2881199 0.12526673 1.8914398
-0.1205422 0.12558416 1.8745514
0.43296719 0.12630489 1.8615943
0.47523987 0.12402601 1.882916
0.50534844 0.12408172 1.8970028
0.62929285 0.12554745 1.8783394
0.65626001 0.11984692 1.8522772
-1.4080417 0.17756827 1.853739
-1.3735926 0.17400917 1.8574773
-1.3214264 0.17762032 1.874103
-1.2875856 0.17386542 1.895474
-0.22906773 0.16908666 1.8507249
-0.12389341 0.17573491 1.8804544
0.43270889 0.17266913 1.8611555
0.47565746 0.17468426 1.8818779
0.50506955 0.17795493 1.896129
0.62646228 0.17711255 1.8792301
0.65693092 0.17759308 1.85096
-1.4079988 0.22235255 1.8558613
-1.374156 0.22325781 1.8590554
-1.3244325 0.22505033 1.8743654
-1.2912081 0.22879291 1.8953944
-0.22533126 0.21865989 1.8661661
-0.11908966 0.22666331 1.8721216
0.43546501 0.22379227 1.8619981
0.47532108 0.22642441 1.8806021
0.50863385 0.22325468 1.8961076
0.62417048 0.22356595 1.8805953
0.65360695 0.22337189 1.8543978
-1.4087081 0.27161834 1.8540442
-1.3734823 0.2776016 1.8574674
-1.3258002 0.27280015 1.8754326
-1.2945932 0.27135685 1.8960041
-0.2133761 0.26059902 1.8636737
-0.12205284 0.2705172 1.8745922
0.42856836 0.27419651 1.8580477
0.47224239 0.2764577 1.8790562
0.51034808 0.27504215 1.8958873
0.62502855 0.27448538 1.8783813
0.65094918 0.27345502 1.8544449
-1.4099771 0.32796094 1.8561226
-1.3701968 0.32394996 1.858577
-1.32275 0.32649463 1.8810327
-1.2932826 0.33752602 1.8999361
-0.12285922 0.32272306 1.8776801
0.43151149 0.32395989 1.8578438
0.47216517 0.32401907 1.8765737
0.51303285 0.32806036 1.8952523
0.62436998 0.32637569 1.878134
0.65179777 0.32020941 1.8517358
-1.4082549 0.37317365 1.8572677
-1.3728513 0.37380445 1.8592916
-1.3264095 0.37487483 1.8791872
-1.2975795 0.38622826 1.8990793
-0.11945903 0.36975858 1.8753368
-0.092082262 0.39102426 1.8555046
0.43258259 0.37549323 1.8582275
0.4750309 0.37540436 1.8787509
0.51488656 0.37702087 1.8960481
0.59902716 0.38130069 1.8983116
0.6263352 0.37548003 1.8739617
-1.412182 0.4245978 1.8571364
-1.3701932 0.42414832 1.8608592
-1.3231354 0.42400986 1.8831853
-0.11521871 0.43284172 1.8829681
-0.093471833 0.41936779 1.8693275
0.43333259 0.42069438 1.8579381
0.47752362 0.42689878 1.8783126
0.51591319 0.42428446 1.894453
0.62405092 0.42434105 1.8753612
-1.4127151 0.47101378 1.8573016
-1.3697079 0.4738853 1.8592812
-1.3264776 0.47361708 1.883013
-0.12537035 0.47474995 1.8686997
0.43564618 0.47233394 1.8565267
0.47285429 0.47521996 1.8743054
0.51438785 0.47599098 1.8938969
0.62252724 0.47390908 1.8755275
-1.410213 0.52262872 1.8571882
-1.3683763 0.52217841 1.861237
-1.3230416 0.5249911 1.8850737
-1.2993459 0.51268423 1.8999792
-0.1551659 0.50969762 1.8932166
-0.13263227 0.52342135 1.869741
0.43844816 0.52686542 1.8565801
0.47398636 0.5251292 1.8727335
0.51826406 0.52210116 1.8936712
0.59565556 0.52639514 1.8966067
0.62283438 0.52386731 1.8729471
-1.4154458 0.57346177 1.8575935
-1.3729703 0.57547337 1.8624002
-1.3255055 0.57315654 1.8837292
-0.13544303 0.57319015 1.8726983
0.44329691 0.57427514 1.8552327
0.47586051 0.57692558 1.8719416
0.51932454 0.57311773 1.8911749
0.59804159 0.57655096 1.894401
0.62174678 0.5757041 1.871761
-1.4126604 0.6277926 1.856891
-1.3695613 0.62290651 1.862998
-1.3257742 0.62602895 1.8845509
-0.15657742 0.6172021 1.8896867
-0.13944052 0.62676138 1.8764998
0.4413332 0.62592328 1.8541263
0.47464705 0.62566775 1.8698658
0.52445245 0.62377989 1.8926913
0.58898598 0.629498 1.8966068
0.61986792 0.62542462 1.8709794
-1.4145977 0.67209011 1.8557934
-1.3728931 0.67820877 1.860822
-1.329234 0.67763954 1.8844075
-0.13928172 0.67291629 1.876248
0.44326773 0.67323452 1.851315
0.47701138 0.67401236 1.869941
0.52437925 0.67611361 1.891135
0.59448957 0.67955863 1.8932559
0.61671233 0.67476863 1.8710976
-1.4148675 0.72588187 1.85765
-1.367609 0.72698677 1.8626592
-1.3301535 0.72380543 1.8857708
-0.13936621 0.72649562 1.871348
0.44672531 0.73283184 1.8512306
0.47308436 0.72291434 1.8649013
0.52244055 0.72615963 1.8887132
0.59284443 0.72514671 1.8955849
0.61659986 0.72369379 1.8660194
-1.4100688 0.78043365 1.8587791
-1.3719037 0.77252215 1.8640698
-1.3293732 0.77349365 1.8869623
-0.15016639 0.75352275 1.8970461
-0.13384348 0.76108503 1.8642046
0.44087005 0.77225274 1.8583685
0.47661087 0.76370692 1.8726459
0.52435213 0.75701803 1.8912234
0.59457999 0.77192801 1.8943292
0.61264062 0.77651381 1.8693843
-1.415282 0.83033019 1.8569546
-1.3700852 0.82163817 1.8648945
-1.3312073 0.82420927 1.8880941
-0.091781124 0.81000191 1.8565645
0.59183174 0.82839966 1.8940802
0.61166835 0.82437438 1.8683466
-1.4136453 0.87660295 1.8567249
-1.370682 0.87402719 1.8653991
-1.3339057 0.87226605 1.8893858
-0.069195181 0.88896662 1.863241
0.59342182 0.87421906 1.8875201
0.61565727 0.87603718 1.863892
-1.4161904 0.92978638 1.8552545
-1.3719459 0.92410535 1.8653997
-1.3332829 0.92347813 1.8899003
0.59151721 0.92379701 1.8863224
0.61166972 0.91944581 1.8627276
-1.4141704 0.98082775 1.858248
-1.3723356 0.97567475 1.8659191
-1.3323765 0.97526902 1.8893555
0.58951384 0.97554487 1.8849388
0.60633183 0.97149873 1.8625393
-1.4124621 1.0247091 1.8579247
-1.3674113 1.0276768 1.8665565
-1.3325472 1.0291963 1.8920456
0.58928478 1.0253155 1.8814023
0.60803509 1.0219282 1.8546712
-1.4148288 1.0781178 1.8595327
-1.3711509 1.0770246 1.8693478
-1.334626 1.0719748 1.8891363
0.58694541 1.075102 1.8876548
0.60455292 1.0721424 1.8643501
-1.4181775 1.1206201 1.8555444
-1.3730612 1.1272969 1.8685706
-1.3365496 1.1265322 1.8933575
0.58938754 1.1253095 1.8812704
0.60643375 1.1210458 1.857782
-1.4154927 1.1836559 1.8554987
-1.3719105 1.1758543 1.8704648
-1.3407068 1.1743699 1.8932682
0.58674103 1.1773441 1.8844639
0.60346299 1.1711485 1.8566284
-1.4177018 1.2213265 1.8559483
-1.3724587 1.2266657 1.8697426
-1.3395803 1.2308643 1.8928378
0.58996421 1.225704 1.8780289
0.60625196 1.236424 1.8548194
-1.4197552 1.2708107 1.8586872
-1.3727146 1.2759665 1.8697374
-1.3409157 1.279562 1.8911091
0.58487171 1.2755132 1.8816217
0.60252166 1.2685716 1.8567879
-1.4202609 1.3257751 1.8596681
-1.3764941 1.3269963 1.8764665
-1.3445106 1.328428 1.8948046
0.58581769 1.3234991 1.8816785
0.60277742 1.3285557 1.8561486
-1.4244813 1.3764172 1.8572264
-1.3720959 1.3740255 1.8740144
-1.3422958 1.3702549 1.8960853
0.58756161 1.3759975 1.8787506
0.60393035 1.3747668 1.8502253
-1.4177696 1.429147 1.8571084
-1.3752261 1.4217089 1.8706034
-1.3418245 1.4260108 1.893923
0.58655971 1.4272529 1.881729
0.60354608 1.4369911 1.8614943
-1.4119524 1.4775984 1.8582337
-1.3709658 1.4709975 1.8726138
-1.3439482 1.4642687 1.892982
0.58900243 1.4733007 1.8789747
0.60492539 1.4771721 1.8551198
-1.416625 1.5306684 1.8585058
-1.3720465 1.5225645 1.8728918
-1.3405463 1.5241904 1.8958333
0.58678561 1.5257604 1.8834033
0.60440689 1.5269505 1.8604431
-1.4122962 1.579394 1.8542814
-1.3746723 1.5769224 1.8743969
-1.3447949 1.5784711 1.8960744
0.58933979 1.5571686 1.8818318
-1.4210706 1.6335768 1.8611647
-1.3750688 1.6244584 1.8698673
-1.3450868 1.6202068 1.8902555
-1.4150515 1.6749907 1.8599619
-1.3692565 1.6738687 1.8805621
-1.3436981 1.6709276 1.898533
-1.4102312 1.7240146 1.8605919
-1.3718779 1.7233193 1.8735225
-1.3458067 1.7163265 1.8939912
-1.4172385 1.7525468 1.8604772
-1.5309294 1.8309928 1.8684343
-1.4991233 1.8096395 1.866318
-1.609682 1.8881038 1.8527105
-1.5787891 1.8714297 1.8653122
-1.5336292 1.8717475 1.8931384
-0.97096026 -0.55282855 1.9273964
-0.93492955 -0.55702955 1.9288607
-0.88098222 -0.55779374 1.9356248
-1.2576977 -0.50800306 1.9036474
-1.2207392 -0.51460481 1.9205706
-1.1758192 -0.52721339 1.9242271
-1.1237774 -0.53460401 1.9205996
-1.0739703 -0.53535384 1.9291216
-1.0219963 -0.54332936 1.9267925
-0.99613416 -0.54774487 1.9281192
-1.4255145 -0.47743559 1.9171592
-1.2726058 -0.47715867 1.9149361
-1.237756 -0.47778657 1.9389771
-1.3044586 -0.43532017 1.9019728
-1.2723724 -0.43175578 1.9191175
-1.2314318 -0.41839793 1.9377726
0.56891584 -0.41825518 1.9023452
-1.259755 -0.37667382 1.9056895
-1.2253691 -0.37388316 1.9311739
-0.17771211 -0.36336097 1.9212899
0.57346892 -0.37445757 1.9064569
-1.2634132 -0.32403672 1.9077327
-1.2279664 -0.32574788 1.9309543
-0.17188807 -0.3259058 1.9245104
0.5450471 -0.32089657 1.9043522
0.57505012 -0.32429665 1.9099965
-1.263381 -0.27261919 1.907567
-1.2258286 -0.27269176 1.93375
-0.16016065 -0.27335736 1.934932
-0.14430049 -0.2703326 1.9052026
0.54232466 -0.27223825 1.9056342
0.57680428 -0.27380076 1.9136074
-1.2607679 -0.22290063 1.908942
-1.2229878 -0.22491959 1.9338747
-0.15865599 -0.22584102 1.9296006
-0.14403617 -0.22255392 1.9056811
0.53950238 -0.22379336 1.9045891
0.57855052 -0.22660485 1.9144385
-1.2619896 -0.17954063 1.9090735
-1.2231647 -0.17631966 1.9331048
-0.15672593 -0.17915131 1.9329618
-0.14442673 -0.17422566 1.9141309
0.53664899 -0.17824411 1.9049742
0.57796222 -0.17509831 1.9136819
0.60317641 -0.17201287 1.9005114
-1.2615409 -0.12452376 1.9043996
-1.2238542 -0.12495987 1.931186
-0.15620068 -0.12550242 1.931914
-0.14387038 -0.12333415 1.9092592
0.53365666 -0.12671809 1.9060886
0.57475239 -0.12313785 1.9105231
0.60266203 -0.12809266 1.9011995
-1.2610315 -0.072481744 1.9056505
-1.2277397 -0.072684571 1.9285672
-1.1995656 -0.072892562 1.9484596
-0.15462163 -0.07383921 1.9306138
-0.14254758 -0.071653016 1.9136634
0.53182173 -0.073999852 1.9059072
0.57499385 -0.07501068 1.91044
0.60198975 -0.088915773 1.9005784
-1.2607539 -0.025668481 1.9061294
-1.2275962 -0.025757078 1.9292066
-1.1982399 -0.025826141 1.9471755
-0.15883926 -0.030120185 1.9401833
-0.14223379 -0.030380895 1.9100785
0.53162718 -0.028444827 1.9060068
0.57546484 -0.028100939 1.9128314
0.6019544 -0.028017314 1.9016548
-1.2612936 0.021134105 1.9069254
-1.2281052 0.021165697 1.9300025
-1.1995111 0.021199295 1.9492251
-0.15706399 0.026616322 1.9326904
-0.14383896 0.022830086 1.9112511
0.53043079 0.024645837 1.9061866
0.57562995 0.023578532 1.9133672
0.60240144 0.023526376 1.903066
-1.2625217 0.073222972 1.9077421
-1.2278656 0.073380977 1.9310766
-1.1998165 0.05779767 1.949167
-0.15739642 0.069970921 1.9319124
-0.1401477 0.070709363 1.9068694
0.52790004 0.072756611 1.9045477
0.57595235 0.075310029 1.9135118
0.60252744 0.075105935 1.9025398
-1.2626176 0.1264302 1.9109701
-1.2297359 0.1253753 1.9332153
-0.15839252 0.12988029 1.9367642
-0.14281604 0.12557195 1.9123411
0.53118443 0.12654155 1.9061219
0.57633287 0.12239648 1.9131324
0.60256475 0.12200364 1.9009738
-1.2656525 0.18003695 1.9125128
-1.2298845 0.17742136 1.9356539
-0.15667868 0.17759897 1.9322587
-0.14466377 0.17458288 1.9170463
0.53122097 0.17717381 1.9055624
0.57691699 0.17433514 1.9123061
0.60290796 0.15022188 1.9007126
-1.2683055 0.22414728 1.9118701
-1.2307454 0.22463083 1.9368695
-0.28918099 0.24459302 1.9475082
-0.15987332 0.22321953 1.9364247
-0.1415056 0.22344105 1.9122957
0.53514248 0.22489426 1.9057913
0.57781196 0.22648937 1.9115907
-1.2697884 0.27460843 1.9129317
-1.2327018 0.27232853 1.9369864
-0.28671831 0.2938062 1.9261798
-0.15949255 0.2725611 1.9327224
-0.14215474 0.27981526 1.910416
0.53728575 0.2722294 1.904882
0.57881427 0.2741406 1.9106964
-1.2724599 0.32683507 1.9145538
-1.2350603 0.32657531 1.9400674
-0.28906015 0.31030801 1.9404507
-0.16085754 0.32858527 1.9386796
-0.14243697 0.3225069 1.9097331
0.53679174 0.320326 1.9031134
0.57779062 0.32304007 1.9094956
-1.2747245 0.37466088 1.9142318
-1.2364318 0.37452665 1.9388574
-0.22365259 0.35796216 1.9443305
-0.16041733 0.36303931 1.9343731
-0.13998723 0.37964499 1.9178255
0.53690732 0.3743639 1.9024751
0.57429886 0.37423798 1.9089178
-1.3001344 0.40287825 1.9002101
-1.2729782 0.42620406 1.9183041
-1.2372328 0.42609704 1.9413885
-0.16155222 0.44146454 1.9455098
-0.13607903 0.4251371 1.9232427
0.53597653 0.42489356 1.9026814
0.57349122 0.42842656 1.907218
-1.2758468 0.4745211 1.9157238
-1.2357861 0.47547472 1.9414557
-0.16324848 0.4751665 1.9277984
-0.14606929 0.47319403 1.902324
0.54051822 0.47290352 1.9033267
0.5755946 0.47777471 1.9063656
-1.2730242 0.52483904 1.9188852
-1.237864 0.52413684 1.9434586
-0.15615448 0.50361866 1.9069508
-0.1465459 0.50264543 1.9037629
0.54410756 0.52680677 1.9034574
0.57382399 0.52832627 1.908633
-1.2766026 0.57558209 1.9176271
-1.2409713 0.57647455 1.9401755
0.54291111 0.56745297 1.9026073
0.57504392 0.57854372 1.9081409
-1.3026787 0.62260836 1.9014387
-1.2734008 0.62257904 1.9214779
-1.2400962 0.61873627 1.9435998
-0.16121741 0.63882369 1.9039718
0.54186445 0.62625951 1.9009984
0.57051831 0.62175846 1.9086189
-1.3049644 0.68150192 1.9043403
-1.2748326 0.67402232 1.9218239
-1.2424083 0.67131597 1.9452611
-0.20150526 0.68972868 1.9492244
-0.16623914 0.67747438 1.9255321
0.54510975 0.67362761 1.9018679
0.57373154 0.67408758 1.9096626
-1.3073925 0.7265293 1.9026051
-1.2764131 0.72752303 1.9231446
-1.2414452 0.72470516 1.9455956
-0.16504906 0.719437 1.9212927
-0.1498559 0.72340846 1.9008328
0.54856908 0.7169224 1.9038177
0.5714674 0.72614086 1.9096943
-1.3034043 0.77432787 1.9047481
-1.2732732 0.77601409 1.9269316
-1.2420449 0.77709132 1.947041
-0.16427119 0.7672472 1.9310013
0.53643817 0.7853989 1.9248437
0.57197917 0.77733618 1.9127384
-1.3075671 0.82433373 1.9067744
-1.2764922 0.82567859 1.9281669
-1.2481557 0.81967014 1.9438057
0.3872329 0.83869535 1.922236
0.42872748 0.83133382 1.9292997
0.47079748 0.82468551 1.93563
0.54015493 0.81920248 1.9438212
0.56943756 0.82449687 1.9187393
-1.3103644 0.87759227 1.9079943
-1.2739263 0.87455219 1.928161
-1.2455839 0.86989874 1.9472204
0.38085371 0.85640061 1.9382803
0.42282528 0.85076863 1.9454131
0.54981899 0.87176371 1.9450527
0.56876367 0.87644315 1.9204047
-1.3087976 0.92049932 1.9052846
-1.2749727 0.92527163 1.9269034
-1.2429607 0.92643934 1.9474471
0.44338536 0.93252301 1.9441423
0.46268317 0.93058509 1.9451975
0.56587803 0.92325187 1.9232373
-1.3075567 0.97268522 1.9075921
-1.2747384 0.97854346 1.9284836
-1.2468596 0.95748675 1.9423985
0.44232911 0.97544986 1.9395931
0.4513894 0.9692421 1.9450845
0.54860085 0.978921 1.9469517
0.56640506 0.97543931 1.9229848
-1.3087212 1.0226202 1.9064597
-1.2741941 1.026311 1.9330437
0.45503977 1.0131001 1.9473166
0.54940474 1.0061619 1.9399918
0.56334651 1.0272719 1.9206583
-1.312093 1.0764114 1.9081101
-1.279122 1.0732602 1.934788
0.54522121 1.0698313 1.9432793
0.5624457 1.0768236 1.9205294
-1.3126998 1.1263393 1.9090097
-1.2773857 1.124482 1.9329998
0.54437298 1.1179895 1.9433128
0.56181222 1.1270027 1.9193413
-1.318326 1.1818243 1.9131411
-1.2809715 1.1750466 1.9360033
0.54436934 1.1740154 1.9429077
0.56170899 1.1730826 1.9171402
-1.3151076 1.2212867 1.9129984
-1.2821356 1.2268429 1.9411035
0.54631042 1.2242074 1.9407849
0.56446075 1.2254436 1.91593
-1.312945 1.2751991 1.9148384
-1.281279 1.2731148 1.9408871
0.54214799 1.2764215 1.9453385
0.56001109 1.2741768 1.9184718
-1.3185872 1.3289348 1.914589
-1.2811486 1.323846 1.939097
0.54508424 1.3194965 1.9395046
0.56052125 1.3291754 1.9194515
-1.3205914 1.3781295 1.9108359
-1.2808267 1.3791355 1.9369823
0.54403883 1.3756893 1.9455945
0.56153142 1.3755548 1.9184539
-1.3152802 1.4246866 1.9138652
-1.2786124 1.4250561 1.9392649
0.54732889 1.4118074 1.9412069
0.56183845 1.4265356 1.921121
-1.3219426 1.4771392 1.9116268
-1.2837634 1.4762444 1.9358455
0.56489915 1.4763682 1.9197451
-1.3171175 1.5257301 1.9129128
-1.2850021 1.5246521 1.9339722
0.54879874 1.5189371 1.9435465
0.5648396 1.5232835 1.9213407
-1.3183693 1.5793195 1.9136902
-1.2857481 1.580271 1.9391049
0.56406909 1.5696934 1.9275513
-1.3201847 1.6306534 1.911065
-1.2824849 1.6217552 1.9406401
0.54803747 1.6011801 1.9496266
-1.3184624 1.678732 1.9178294
-1.288905 1.674214 1.9367501
-1.3242444 1.7291207 1.9196061
-1.2937987 1.7247282 1.9434271
-1.3210146 1.7660929 1.9287121
-1.2996001 1.7599601 1.9442008
-1.567137 1.9027412 1.9031384
-0.92245692 -0.55481988 1.9616709
-0.87743324 -0.55515069 1.9706216
-0.83836335 -0.5536086 1.9838034
-0.77181429 -0.5524593 1.9982945
-1.1683394 -0.50643623 1.9634383
-1.1257185 -0.51425856 1.974852
-1.0754306 -0.52421838 1.9789777
-1.0284874 -0.5324263 1.9754134
-0.97862089 -0.5389818 1.9731524
-0.93154085 -0.54604352 1.9799757
-0.89509523 -0.54666257 1.9817446
-0.68597609 -0.54662997 1.9971446
-1.2146881 -0.4746384 1.9579804
-1.181919 -0.47422084 1.9820284
-1.1390963 -0.49287325 1.9946392
-1.2143195 -0.4352507 1.9597452
-1.1813605 -0.42044798 1.975412
-1.1346155 -0.40362152 1.9895109
-1.1733809 -0.37582901 1.9684267
-1.1382957 -0.37361029 1.991837
-0.21278076 -0.36697078 1.9847037
-0.19652772 -0.35519665 1.9586569
-1.2004553 -0.34268475 1.9506139
-1.1742718 -0.32634377 1.9691849
-1.1386616 -0.32561105 1.9938642
-0.20787078 -0.33450165 1.9785299
-0.18974239 -0.31874859 1.9690442
-1.176092 -0.27529135 1.9699863
-1.1437123 -0.27046132 1.9922413
-0.18188854 -0.27762488 1.9766937
-1.1765847 -0.22610052 1.9682419
-1.1440611 -0.22169328 1.9923235
-0.17942359 -0.2196272 1.9734485
-1.1746579 -0.17842983 1.9685951
-1.1422384 -0.17386082 1.9926169
-0.17561959 -0.17256676 1.9683926
-1.1726789 -0.12565751 1.9682666
-1.1406295 -0.1261963 1.9923986
-0.17648204 -0.11969409 1.9742161
-1.1720012 -0.07314761 1.969057
-1.1396742 -0.073444813 1.9926306
-0.1771847 -0.073503263 1.9744749
-1.1714797 -0.025939997 1.9690387
-1.1395947 -0.026066879 1.993342
-0.20800526 -0.025477385 1.9979464
-0.18480414 -0.027289966 1.9792447
-1.1720439 0.021255817 1.9699794
-1.1402544 0.021320585 1.9944817
-0.20777221 3.2029046e-05 1.9958208
-0.18372732 0.02245434 1.980673
-1.2011576 0.089267693 1.9504254
-1.1729021 0.073752232 1.97043
-1.141212 0.074059702 1.9951789
-0.20788577 0.090850033 1.9955027
-0.18402663 0.07740017 1.9798131
-1.203064 0.12611234 1.951924
-1.1751294 0.12647869 1.9721199
-1.1423895 0.12690966 1.9952265
-0.20812668 0.12205797 1.9966846
-0.18374521 0.1214824 1.9753774
-1.205703 0.17367467 1.9534401
-1.1769553 0.17406717 1.9724495
-1.1446227 0.17386773 1.9948533
-0.20804529 0.17545347 1.9932562
-0.18338867 0.17546971 1.9721755
-1.2080306 0.22138743 1.9535286
-1.1756779 0.22279181 1.9758942
-1.1445079 0.20115364 1.9943987
-0.30454192 0.24947233 1.985397
-0.2115707 0.22522253 1.9928479
-0.18614516 0.2276857 1.9738775
-1.2062571 0.27483293 1.9565375
-1.173547 0.27581325 1.9805472
-0.31348309 0.27619055 1.9775589
-0.29993424 0.27404425 1.952853
-0.21263473 0.28004402 1.9882526
-0.18507719 0.27674517 1.9695196
-1.209862 0.32330954 1.9568243
-1.1763836 0.32428396 1.9798422
-1.1480193 0.33590424 1.9986324
-0.31502563 0.32270545 1.9876311
-0.29288203 0.33348942 1.9640017
-0.21285376 0.32539588 1.9807138
-0.18655901 0.3232888 1.9695462
-1.2122884 0.37410787 1.9569507
-1.1757576 0.37367094 1.9815577
-1.1493224 0.35228789 1.9988326
-0.30702671 0.36759233 1.9895939
-0.29561028 0.3654429 1.9788872
-0.21481666 0.37689799 1.9841295
-0.1844615 0.37604833 1.9765195
-1.2124652 0.42546037 1.959095
-1.1751759 0.4251996 1.9832902
-0.40207839 0.42387012 1.9620758
-0.35714591 0.42772698 1.9862347
-0.2920633 0.41523251 1.9813161
-0.21386254 0.40779442 1.9709717
-0.1780991 0.41788113 1.9663812
-0.14912032 0.40728724 1.9536573
-1.2123464 0.47674215 1.9596689
-1.1765754 0.47448349 1.9835248
-0.2107792 0.46858278 1.9884456
-0.18475631 0.46555829 1.9703081
-1.2124797 0.52298087 1.9603028
-1.1793293 0.52225262 1.9845303
-1.2163473 0.5741474 1.9608512
-1.1772295 0.57411224 1.9853846
-1.2162058 0.62537307 1.9624873
-1.1785551 0.62641323 1.9878533
-1.2166183 0.6758787 1.9615567
-1.1796539 0.67252034 1.9873049
-0.1882484 0.69456446 1.9638919
-1.2175603 0.72824043 1.9638764
-1.180482 0.72367531 1.987969
-0.20658769 0.71708512 1.9959426
-0.18829367 0.72810721 1.9744208
-1.2183844 0.77997464 1.9644532
-1.1828998 0.77429116 1.9895895
-0.1856602 0.76055562 1.9737921
-1.2222484 0.82972562 1.9648641
-1.1826297 0.82613438 1.9905047
0.49538997 0.82494164 1.952793
0.52144277 0.83267325 1.9646187
-1.2208258 0.87989092 1.9675003
-1.181495 0.87706268 1.9915866
0.3931168 0.87565249 1.9634451
0.43280885 0.87590891 1.9662502
0.47636387 0.87639016 1.9698081
0.52502763 0.87574756 1.9697133
-1.2182727 0.92899734 1.9672322
-1.1831125 0.92695522 1.9922297
0.43885836 0.91829365 1.9709992
0.47984827 0.91731185 1.9704807
0.52633727 0.92722321 1.9728867
-1.2254566 0.97718847 1.963863
-1.1863383 0.96813601 1.9888259
0.44085675 0.98621595 1.9949772
0.47935626 0.97433716 1.9761564
0.52553916 0.9752596 1.9750961
-1.2231648 1.0219536 1.9666356
-1.1845495 1.0217339 1.991912
0.44075122 1.0271673 1.9793508
0.46049762 1.0236009 1.9714369
0.52523088 1.0271238 1.9760939
-1.25248 1.0832072 1.9541521
-1.2248015 1.0759324 1.970503
