ply
format ascii 1.0
comment PCL generated
element vertex 1520
property float x
property float y
property float z
element camera 0
property float view_px
property float view_py
property float view_pz
property float x_axisx
property float x_axisy
property float x_axisz
property float y_axisx
property float y_axisy
property float y_axisz
property float z_axisx
property float z_axisy
property float z_axisz
property float focal
property float scalex
property float scaley
property float centerx
property float centery
property int viewportx
property int viewporty
property float k1
property float k2
end_header
0.17428133 0.1699976 3.5568247
0.20867606 0.17033498 3.562809
-2.9222076 0.22296537 3.5756948
0.1401307 0.22075073 3.5521965
0.17451671 0.22128601 3.5597925
0.20872264 0.22146565 3.5617478
-2.9517145 0.28212565 3.5553756
-2.9308205 0.26601017 3.5606346
0.14040072 0.26370209 3.5571461
0.17484638 0.27287504 3.5644922
0.21271026 0.27648291 3.5545251
-2.9285829 0.32349816 3.5638347
0.1403016 0.3230052 3.5513971
0.17480403 0.323915 3.5604346
0.20881192 0.32381159 3.5581167
-2.928849 0.39637175 3.5579867
-0.88965523 0.39074707 3.5523534
-0.82814431 0.39039677 3.55902
-0.67221075 0.39913344 3.5810311
0.13633372 0.37476575 3.5554428
0.17506692 0.37560853 3.562305
0.21323489 0.37097868 3.5577955
-2.9216523 0.42805043 3.5659161
-2.8942072 0.43901381 3.590584
-0.91161031 0.42159647 3.5580475
-0.86841476 0.41911468 3.5744276
-0.83527452 0.42001927 3.5876019
-0.79553241 0.40009323 3.5729289
-0.6721828 0.43381646 3.5781875
0.13049822 0.43307391 3.5545249
0.17544287 0.42779383 3.5666089
0.20893234 0.42631564 3.5530722
-2.9278111 0.47071895 3.5690305
-2.8932242 0.47014278 3.58605
-0.95478398 0.48847812 3.5500517
-0.92101383 0.47162044 3.5621312
-0.87069774 0.47272831 3.579417
-0.83665937 0.46449113 3.5899324
-0.67699283 0.46696845 3.5852764
0.12955795 0.47813413 3.556216
0.17585976 0.4802056 3.5703359
0.20961602 0.47900105 3.560405
-2.9686377 0.52462095 3.5527458
-2.9286869 0.52306855 3.5639575
-2.8948748 0.52260739 3.5820503
-0.96101224 0.5287599 3.55231
-0.92288429 0.52506411 3.5644128
-0.87874508 0.52456391 3.5863626
-0.67335415 0.51277733 3.5775075
0.089681789 0.52065241 3.5519779
0.12419397 0.53070724 3.5605583
0.17640339 0.52467436 3.577266
0.21567 0.53123021 3.5613244
-2.9742689 0.58857632 3.5511639
-2.923435 0.576298 3.570653
-0.9628526 0.58230478 3.5535321
-0.92635512 0.57976711 3.5723453
-0.88032836 0.57474965 3.5942264
-0.6548788 0.57268292 3.5674865
0.089870982 0.59872544 3.5515025
0.12446293 0.58039826 3.5630779
0.17660338 0.56837845 3.5773993
0.21724495 0.57350081 3.5642669
-2.951143 0.61958164 3.5586722
-2.9239414 0.61622351 3.5792341
-2.8566523 0.64855105 3.5970824
-0.9696449 0.62324989 3.5570891
-0.92859191 0.62515259 3.575927
-0.88907087 0.61469853 3.5955517
-0.66023523 0.62983537 3.5907679
-0.63641715 0.63229448 3.5565054
0.12669986 0.62025738 3.5616846
0.17702049 0.62152106 3.580076
0.2109908 0.61994189 3.5697629
-2.9546995 0.67283219 3.5549057
-2.9262192 0.67108089 3.5602829
-0.97072518 0.65907669 3.5567064
-0.92734027 0.66765511 3.5748315
-0.88384515 0.67397696 3.5906475
-0.66096705 0.67429316 3.589432
-0.6395489 0.67017198 3.5697498
0.083306707 0.6727733 3.5547135
0.12479517 0.67095488 3.5629153
0.17730497 0.67436379 3.5795877
0.22330894 0.67167866 3.5635262
-2.9614129 0.72697866 3.5542688
-2.9188731 0.72422361 3.5626285
-2.8886814 0.73498333 3.5836878
-0.96903294 0.73324138 3.5519807
-0.92665339 0.73094708 3.5788562
-0.8942132 0.7218039 3.5918515
-0.66171634 0.72765827 3.5865998
-0.63845831 0.72987944 3.5556445
0.09031447 0.71342659 3.5554156
0.12505542 0.72404683 3.5634608
0.17767729 0.72782302 3.5805528
0.21644977 0.72283709 3.5764956
-2.96854 0.77091461 3.555316
-2.9295669 0.76895565 3.568275
-2.8951468 0.76816905 3.5861697
-1.0020881 0.79485893 3.5510356
-0.97032809 0.78051382 3.5646243
-0.92135143 0.77885485 3.5852616
-0.88337511 0.76375133 3.5984676
-0.66284639 0.75524938 3.5890694
0.083655283 0.77905113 3.5558097
0.12538102 0.77775168 3.5653028
0.17573754 0.7771455 3.5847161
-2.9703703 0.83093196 3.5564289
-2.9237511 0.82099831 3.5768592
-1.0050335 0.83261514 3.5558736
-0.97033912 0.82437545 3.5666754
-0.91925424 0.82626057 3.5844519
-0.64139265 0.8261143 3.5839736
0.078421079 0.82671589 3.5569873
0.12320747 0.82661492 3.5668221
0.18065482 0.82036126 3.5841274
-2.9740295 0.88113302 3.5611651
-2.9244077 0.8789261 3.5817332
-1.0069783 0.87861454 3.5554056
-0.97194779 0.87016815 3.5653856
-0.92173874 0.87304324 3.5868983
-0.64725274 0.88086724 3.5831912
0.082501024 0.87637037 3.5659816
0.12831366 0.8717013 3.5736573
0.17891033 0.87242484 3.5844684
-2.9796395 0.92531526 3.558732
-2.9297905 0.92294765 3.5793531
-1.0086807 0.92454165 3.5536129
-0.97541356 0.92671514 3.5687997
-0.92760515 0.93236238 3.5910056
-0.63520491 0.92801028 3.5676022
0.076075755 0.92285067 3.5620198
0.12661216 0.92504185 3.578275
0.17952861 0.92802483 3.5883169
0.21412963 0.92623949 3.5802288
-2.9821367 0.96622485 3.5596714
-2.9349189 0.96703827 3.5761576
-1.0118504 0.98096043 3.5548372
-0.98026007 0.98056293 3.5684805
-0.93620276 0.97681057 3.5892398
-0.65158868 0.98431385 3.5899749
-0.63582516 0.96941036 3.5708182
0.074106514 0.97534442 3.5623589
0.12445647 0.97515953 3.5799363
0.18013519 0.97509843 3.5926898
0.21461222 0.97215438 3.5805237
-3.0096047 1.0275571 3.5516734
-2.9686317 1.0244626 3.5637343
-2.9265273 1.0280721 3.5825787
-1.0202987 1.0310353 3.5530064
-0.97797495 1.0262831 3.5701177
-0.93571609 1.0227269 3.5946429
-0.65301025 1.0220189 3.5910368
-0.63236088 1.0262142 3.5751877
0.039352633 1.0476531 3.5584745
0.072155029 1.0286822 3.5642703
0.12961213 1.0209785 3.5846858
0.18050481 1.0211816 3.5920954
0.21532306 1.028078 3.5824902
-3.01389 1.0504417 3.5513754
-2.9799666 1.081888 3.5639255
-2.9293363 1.0789644 3.5842667
-1.0202849 1.0789421 3.5576286
-0.97389603 1.0732148 3.5799727
-0.93373668 1.0738907 3.5981879
-0.65550846 1.0705463 3.5958843
-0.63409591 1.0734189 3.5761073
0.033590652 1.0784954 3.5583775
0.077012941 1.0735439 3.564935
0.12783837 1.0749695 3.5863698
0.18327585 1.0774028 3.5928745
0.2158637 1.0747313 3.5827494
-2.9757607 1.1271529 3.5679562
-2.927392 1.1250103 3.5912476
-1.0219038 1.1257976 3.5622933
-0.96892196 1.1228551 3.5869205
-0.93531626 1.1208971 3.5947001
-0.65397722 1.1036228 3.5801213
-0.63356179 1.1168061 3.5637925
0.035132252 1.126388 3.5574157
0.074955784 1.1276135 3.575654
0.1257219 1.1264502 3.5881753
0.18495625 1.121914 3.5908916
0.21659489 1.1313986 3.5838397
-3.0091867 1.1747726 3.5549805
-2.9718304 1.1727434 3.5719533
-2.9385777 1.1723092 3.5933089
-1.0260628 1.1756114 3.5665669
-0.97653317 1.176286 3.586251
-0.93914986 1.1708803 3.59934
-0.63550627 1.1647224 3.56493
0.03088299 1.1793733 3.5612507
0.075206362 1.1755943 3.5780544
0.1287612 1.1687759 3.5949047
0.19954205 1.1615528 3.589994
0.21732238 1.1706752 3.5881693
-3.0125675 1.2257359 3.5591242
-2.9829915 1.2181791 3.5809515
-2.9365985 1.221019 3.5913899
-1.0632368 1.2219622 3.551693
-1.0280577 1.2231797 3.5627317
-0.97725576 1.2246192 3.5872438
-0.64036268 1.2004657 3.58606
0.030946095 1.2262001 3.5592823
0.075366057 1.2222118 3.5750117
0.126669 1.2342836 3.5932479
0.18260711 1.2290752 3.5925045
0.20891735 1.2444808 3.5804048
-3.0178785 1.2691138 3.5602827
-2.9674165 1.2660276 3.5827138
-2.937067 1.2993518 3.5981097
-1.0616385 1.277663 3.5599625
-1.0264097 1.2702951 3.5654743
-0.98255485 1.2747759 3.5864844
0.032834068 1.2711179 3.5616055
0.075667851 1.271564 3.5787194
0.1205878 1.2767416 3.5924804
0.20973329 1.2760711 3.5877748
-3.0224345 1.322243 3.5606689
-2.9754579 1.3236746 3.5756009
-2.9435143 1.3347585 3.5958176
-1.0635962 1.3242023 3.5621123
-1.0202693 1.3272276 3.5797386
-0.98653769 1.331076 3.5974388
-0.030976869 1.3484471 3.5507073
0.025867153 1.3263245 3.5644479
0.076071948 1.3232123 3.5870769
0.12092954 1.3162154 3.5938847
0.18384433 1.3180108 3.5969985
0.21045171 1.3252045 3.5888999
-3.025924 1.3825222 3.5566757
-2.9741368 1.3821719 3.5862355
-1.0739537 1.3766484 3.5592146
-1.0262982 1.3723376 3.5802193
-0.98876709 1.370893 3.5957475
-0.6446268 1.35276 3.5742064
-0.013272785 1.3609761 3.5579991
0.022359598 1.372416 3.5621943
0.071171589 1.3809271 3.5838411
0.16666643 1.3870414 3.5975723
0.21211824 1.3747013 3.5740936
-3.0254664 1.4347479 3.5608218
-2.9781158 1.4329698 3.5881124
-1.1119453 1.4298841 3.55533
-1.0772846 1.4245722 3.5633583
-1.0272844 1.4248053 3.5894952
-0.013320138 1.4282283 3.5533888
0.026055133 1.4257119 3.566941
0.079237439 1.4290107 3.590385
0.11271417 1.4060502 3.5967219
0.20956519 1.4246563 3.5801411
-3.0258946 1.4841126 3.5667281
-2.9829586 1.477276 3.5869248
-1.1178753 1.4663564 3.5564227
-1.0680879 1.4708298 3.5737298
-1.0242374 1.4742521 3.5918059
-0.013347682 1.4668659 3.5504377
0.02257321 1.4758234 3.5720019
0.076894134 1.473061 3.5892918
0.22024946 1.4623054 3.5671098
-3.018961 1.5190957 3.5675573
-2.9697845 1.5163894 3.5929554
-1.1280092 1.5230714 3.5611751
-1.0735235 1.5248322 3.577796
-1.03167 1.5146126 3.5960801
-0.019483309 1.5290228 3.5701103
0.022700435 1.5300704 3.5804336
0.069977753 1.5185248 3.5960743
0.23954548 1.5003946 3.5770092
-1.1678356 1.5794692 3.5611911
-1.1201316 1.5806348 3.5862908
-1.0700653 1.5705478 3.5877361
-0.026387019 1.5748588 3.5588765
0.022809379 1.5713359 3.5809517
0.059302881 1.5677683 3.5961566
-3.1605132 1.6182784 3.5569
-3.1155944 1.6236191 3.5653877
-3.0749359 1.6198392 3.5824471
-3.0345707 1.6305285 3.588551
-0.067885324 1.6310898 3.5520847
-0.043699149 1.61787 3.5537355
-3.1172526 1.6675404 3.5578206
-3.0735276 1.6715007 3.5755851
-3.031744 1.6876029 3.590265
-0.063722886 1.6775031 3.5616632
-3.1149247 1.7268596 3.5618236
-3.068943 1.7103864 3.5690944
-3.0462301 1.7293462 3.593482
-0.087200947 1.7272465 3.5764773
-3.1150961 1.7687349 3.5601904
-3.0688071 1.7696013 3.5840092
-3.0144901 1.7865686 3.5964642
-3.1308212 1.8230424 3.558073
-3.0837605 1.8235223 3.5816069
-3.0364676 1.8155057 3.5911436
-3.1232028 1.8789771 3.5630119
-3.0697939 1.8740866 3.5882463
-3.1554682 1.9488134 3.5508678
-3.1255841 1.9330138 3.5660496
-3.075943 1.9219362 3.5833588
-3.1264844 1.9865777 3.5668225
-3.0726633 1.9814039 3.5923495
-3.1501691 2.0289049 3.5547245
-3.1239064 2.0267789 3.5688255
-3.0791252 2.0301778 3.5866144
-3.1633286 2.0721254 3.5519366
-3.122057 2.0677233 3.5712171
-3.084094 2.0769651 3.5878434
-3.1546931 2.139797 3.556201
-3.1246524 2.1235149 3.5724158
-3.0850327 2.1201255 3.5932279
-3.1202612 2.1749482 3.5649757
-3.0712461 2.1742246 3.5877857
-3.1263697 2.2246819 3.5561798
-3.0759439 2.2229791 3.5776882
-3.0423377 2.2355032 3.5989885
-3.0785253 2.2704051 3.5645225
-3.0294213 2.2694573 3.5867803
-0.20931722 2.2987776 3.5949802
-3.0221088 2.3094966 3.5616128
-2.9778531 2.3236284 3.5821202
-2.9173136 2.335556 3.5850503
-2.8915234 2.3471198 3.5624657
-2.7620592 2.3479247 3.5871313
-2.5643127 2.3478787 3.5874388
-2.5271235 2.3452177 3.5738792
-2.4887917 2.3412032 3.5580471
-2.4183092 2.3370237 3.5910361
-2.2139125 2.349823 3.5588796
-2.1920087 2.3494239 3.5696673
-1.9391351 2.3470786 3.5816483
-1.6006281 2.3478653 3.573029
-1.5693995 2.3473477 3.5834208
-1.4843075 2.3472557 3.566067
-1.4219973 2.3454165 3.5834422
-1.3763301 2.342175 3.580864
-1.3292695 2.3460863 3.5679243
-1.2788699 2.3462856 3.5830557
-1.2436322 2.3471198 3.5722439
-1.1853104 2.3413761 3.5711858
-1.122599 2.3360956 3.5785306
-1.0834696 2.3375299 3.5760045
-1.0160224 2.3401566 3.5532436
-0.97777826 2.3434978 3.5671024
-0.92721772 2.3361745 3.5764964
-0.88872635 2.3442719 3.5866442
-0.82460147 2.3378513 3.5744956
-0.77264148 2.3432865 3.5645771
-0.74346119 2.3444433 3.5712569
-0.61827028 2.3326771 3.5713222
-0.57041633 2.3117013 3.5649061
-0.5228675 2.317091 3.5789855
-0.47398955 2.3269787 3.5795047
-0.42488229 2.3352826 3.5770938
-0.37564707 2.3327885 3.5774863
-0.34552637 2.3271513 3.5711107
-0.22480145 2.3290114 3.5773959
-0.1892534 2.3207893 3.5702627
-2.8769312 2.3539655 3.5892143
-2.8174281 2.3561816 3.5684381
-2.7235088 2.3570185 3.5685296
-2.6714275 2.3510244 3.5893157
-2.6294312 2.3562093 3.5645785
-2.5916634 2.3524425 3.5803661
-2.5479462 2.355118 3.5517857
-2.4822309 2.3559051 3.5938051
-2.4317291 2.3614526 3.5756676
-2.3773451 2.362186 3.5794117
-2.3227797 2.3623276 3.5815635
-2.2884424 2.3607218 3.5972624
-2.2481627 2.3631938 3.5674946
-2.1649222 2.3655558 3.579196
-1.9714699 2.3605013 3.592401
-1.9096349 2.3578887 3.5638926
-1.8684937 2.3572052 3.5639398
-1.8292766 2.3586552 3.5668685
-1.7676641 2.3579743 3.5747402
-1.7213163 2.3619695 3.5760565
-1.6611106 2.3607092 3.5731478
-1.626981 2.366534 3.5724835
-1.596524 2.3623941 3.5527241
-1.5236278 2.3607903 3.5760527
-1.4656928 2.3501155 3.5772686
-1.4477557 2.3541579 3.5901701
-1.3923117 2.3501158 3.5553391
-1.2722902 2.3543615 3.5540154
-0.70784068 2.3768041 3.5864432
-0.67214602 2.3606505 3.5803154
-2.8532274 0.43908909 3.6188068
-2.8175113 0.42638618 3.6141181
-2.7817059 0.42564374 3.6275289
-2.7449393 0.42473364 3.6391101
-0.81370425 0.43120849 3.6116862
-0.78807163 0.42282572 3.619729
-0.68901205 0.42550054 3.6051629
-2.8238869 0.47879001 3.6102259
-2.7798829 0.47335595 3.6242969
-2.7352898 0.47656262 3.6410334
-0.81966692 0.47901389 3.6168311
-0.7917797 0.47790253 3.6323369
-0.70004153 0.49327421 3.6259644
-2.8518584 0.54316872 3.6053438
-2.8187037 0.52824265 3.6179874
-2.7737284 0.53258008 3.6336207
-2.7286389 0.51862019 3.6476781
-0.85911942 0.53768545 3.6012819
-0.8264277 0.53052145 3.6188936
-0.79226792 0.5224545 3.6304965
-2.8542233 0.57492936 3.6043
-2.8147259 0.57325131 3.613873
-2.7684064 0.57223409 3.6338143
-0.85957992 0.56442559 3.6004884
-0.82810646 0.57590657 3.6218078
-0.79604816 0.56944793 3.6433179
-0.70094109 0.57326722 3.6228046
-0.67930001 0.57867479 3.6028483
-2.8583245 0.60711807 3.6052322
-2.8250921 0.62757522 3.6200373
-2.7769451 0.62611461 3.6379597
-0.86642963 0.62351316 3.6035137
-0.8295213 0.62126279 3.6230359
-0.79797465 0.62431353 3.6462409
-0.70162064 0.61797309 3.6214399
-0.68146497 0.62450957 3.6094286
-2.8257871 0.67997926 3.6131325
-2.7789969 0.67872596 3.63305
-0.86291522 0.66398591 3.6032286
-0.83146036 0.6760729 3.6250131
-0.79908735 0.67876124 3.6448715
-0.68188524 0.66887504 3.6063545
-2.8276711 0.72595483 3.6205373
-2.7728317 0.72153986 3.6384797
-0.87261093 0.73170072 3.6042621
-0.83155996 0.72928727 3.6276453
-0.79878789 0.71421427 3.638916
-0.70724565 0.72969973 3.6371803
-0.68175781 0.72179723 3.6232452
-2.8515799 0.75720501 3.6138589
-2.8202004 0.76772505 3.6324232
-2.7756681 0.77080756 3.6443818
-0.86451799 0.77662003 3.6106915
-0.81813043 0.76919317 3.6355367
-0.68070436 0.77392864 3.6185105
-2.8657179 0.84542316 3.616221
-2.8291349 0.82286882 3.6343906
-2.7936771 0.82168835 3.6494348
-0.87017035 0.82135612 3.6123381
-0.82893109 0.8247233 3.6343195
-0.712084 0.82428336 3.6491773
-0.68175405 0.82149136 3.6237388
-2.8689604 0.88866043 3.6118598
-2.8339806 0.87704384 3.6303968
-2.7979815 0.87566245 3.6449442
-0.8722403 0.87698895 3.6123352
-0.82648981 0.87082231 3.6412358
-0.71316379 0.86142474 3.6491036
-0.68111044 0.87274665 3.6221333
-2.8612454 0.93530875 3.6338878
-2.8204086 0.91755074 3.6331985
-0.90829033 0.91303253 3.6012328
-0.87624198 0.92709303 3.6095493
-0.83411175 0.9200545 3.6422508
-0.71462417 0.92612636 3.6461086
-0.67682451 0.92248279 3.6237147
-2.9081264 0.96868336 3.6041613
-2.8582726 0.97678089 3.6207478
-2.8236818 0.97580361 3.6377766
-0.91135943 0.97898495 3.6020391
-0.87492782 0.97419924 3.6169612
-0.8375845 0.97974044 3.6389294
-0.68181902 0.96700603 3.6268113
-2.8706515 1.0342824 3.6240935
-2.8334298 1.0323398 3.6381547
-0.91418207 1.0360751 3.6027613
-0.8794322 1.0285929 3.6160109
-0.82879061 1.023846 3.6417916
-0.70032442 1.0304457 3.6495969
-0.68325889 1.0296686 3.6316822
-2.8575666 1.0737611 3.6253374
-2.8188498 1.0725174 3.6442137
-0.91191512 1.0795631 3.6107166
-0.8784855 1.075152 3.6188958
-0.84178936 1.0718681 3.6402822
-0.68037319 1.0816891 3.6311367
0.16387334 1.0803589 3.6034918
-2.8590095 1.123313 3.6291499
-2.8274429 1.1256179 3.6428185
-0.9181155 1.1247412 3.6106222
-0.87296253 1.1270852 3.6262326
-0.83913702 1.1171677 3.6417942
-0.70340437 1.1348491 3.6453259
-0.67510194 1.1309816 3.6257563
0.16460684 1.1385735 3.6085207
-2.9153135 1.182302 3.6029153
-2.8671186 1.1693857 3.6280704
-2.8336799 1.1637858 3.6414585
-0.91284776 1.1720687 3.6078677
-0.86820382 1.1727374 3.6311152
-0.67276794 1.1738188 3.6312828
0.1381321 1.1936793 3.602766
0.17379582 1.1761676 3.6065493
0.20076612 1.1954323 3.6060684
-2.9188025 1.2052275 3.6011856
-2.8613551 1.2220347 3.6384206
-2.8337939 1.2486036 3.6475308
-0.96133071 1.2213826 3.6005454
-0.92655343 1.2236217 3.6137476
-0.87379307 1.2264339 3.6316004
-0.83897597 1.2290139 3.6453574
-0.67308283 1.2163744 3.6305702
-0.64519924 1.2456394 3.604655
0.13826957 1.2127318 3.6023803
0.16510174 1.213385 3.6035609
0.20085718 1.2138281 3.6036413
-2.9334786 1.2761445 3.6003036
-2.8567653 1.281571 3.625818
-2.84168 1.284456 3.6482258
-0.93005115 1.2740691 3.6163218
-0.87719494 1.2771422 3.6346796
-0.8416152 1.2696966 3.648
-0.67394245 1.2707883 3.6317601
-0.6476357 1.2775359 3.6116672
0.14789824 1.2813921 3.6048636
0.17300825 1.2762234 3.6060002
-2.8670797 1.3363568 3.6385567
-2.847657 1.3195827 3.6461725
-0.96050334 1.3239802 3.6107304
-0.92585474 1.3270049 3.6257381
-0.88031113 1.3277937 3.6359906
-0.68133712 1.3172511 3.6361127
-0.64844406 1.3244945 3.604774
0.13482401 1.3343632 3.6028502
0.16615081 1.3198825 3.602706
-2.8707757 1.3795692 3.6376429
-0.96301955 1.3735328 3.6080031
-0.92030495 1.3785619 3.62974
-0.8753987 1.3806756 3.6433957
-0.66546708 1.377295 3.6377311
0.09451776 1.3674793 3.6000664
0.1334095 1.3761431 3.6070404
0.1776849 1.3670721 3.6072071
-2.9399464 1.4303131 3.6046326
-2.8714361 1.4215107 3.6324844
-2.83884 1.4124262 3.6494606
-0.97886813 1.423623 3.6096106
-0.92213446 1.4183813 3.6267931
-0.87742496 1.4210191 3.6417217
-0.6772753 1.4377613 3.6352615
0.13123538 1.4263954 3.6056087
0.17660993 1.4216738 3.6092606
-2.9606791 1.4953581 3.6109512
-2.9488373 1.4674815 3.6042314
-2.8816981 1.4776231 3.6435237
-0.97928768 1.4763921 3.6177077
-0.92223197 1.4707117 3.6366789
-0.887263 1.4807869 3.6478167
-0.65677059 1.4517545 3.6214473
0.12876086 1.4719821 3.6103327
0.17094819 1.4790992 3.620312
-2.9162698 1.5280931 3.6290517
-2.8944271 1.5170958 3.648104
-1.0080618 1.5226525 3.6036026
-0.96640414 1.522684 3.631825
-0.92466289 1.5223526 3.6362965
-0.88490164 1.5267873 3.6457486
0.086674124 1.5317281 3.6077645
0.12357195 1.527885 3.6221704
0.16520834 1.5280176 3.6335506
-2.8755205 1.5737162 3.6468797
-1.0267384 1.5616995 3.6139824
-0.97324085 1.5708596 3.6340907
0.087403707 1.5718644 3.6289587
0.11530399 1.5674926 3.6425068
-3.0177629 1.6019604 3.6046472
-2.9784775 1.6303607 3.6169288
-2.9284327 1.6288372 3.6324792
-2.8892903 1.6254792 3.6477509
0.010784916 1.6257776 3.6175592
0.059971508 1.6038933 3.6310368
-3.0058186 1.6744133 3.6066945
-2.9701109 1.6842494 3.6233525
-2.9305573 1.6807108 3.6391919
-2.8995852 1.6645364 3.6478987
-0.013784789 1.6623437 3.6206005
-3.0183127 1.7261865 3.6033702
-2.9759986 1.7307218 3.6210003
-2.9310937 1.7320991 3.6433496
-0.051031839 1.7283163 3.6240585
-3.0262289 1.7531878 3.6033735
-2.9805608 1.7724984 3.616555
-2.9294772 1.7826016 3.6443782
-3.0141711 1.8268871 3.6029735
-2.9723287 1.8253722 3.6283269
-2.9387023 1.8219346 3.6414301
-3.0264425 1.8767489 3.615216
-2.9788923 1.8630537 3.6339033
-2.9499867 1.8740871 3.6355035
-3.0326762 1.924715 3.6107326
-2.9785805 1.9191207 3.6331692
-2.9369261 1.9254631 3.6425581
-3.0197685 1.9766853 3.6176536
-2.9734461 1.9774815 3.6405447
-2.9199443 1.9745506 3.6443729
-3.0292313 2.028728 3.6067011
-2.9755588 2.0233219 3.6303277
-2.9343467 2.0185189 3.6459928
-3.0614183 2.0771947 3.6055577
-3.0193183 2.0835195 3.6161597
-2.9830818 2.0822659 3.6390648
-3.0690775 2.1055315 3.6027865
-3.0331311 2.1277313 3.615006
-2.9741414 2.129009 3.636447
-3.0519538 2.1560175 3.6030383
-3.0221701 2.1722338 3.6189444
-2.989228 2.1640697 3.63345
-3.0233965 2.2174432 3.614711
-2.974894 2.2168708 3.6362863
-2.9785075 2.266067 3.6154809
-2.9432883 2.2657256 3.6399534
-0.2308491 2.2997761 3.6359136
-2.971283 2.3043168 3.6098757
-2.9308667 2.3115358 3.6214292
-2.8831151 2.3344085 3.6295822
-2.8222497 2.335269 3.616787
-2.7828796 2.3426309 3.6272159
-2.7257469 2.3373423 3.63076
-2.673748 2.3403223 3.6278903
-2.4473679 2.3427866 3.6466353
-2.3973296 2.3380327 3.6053226
-2.3360827 2.3428783 3.6499541
-1.8638471 2.3453903 3.6117001
-1.6700265 2.3463356 3.6412528
-1.5505453 2.3448989 3.633323
-1.4758465 2.3458066 3.6128705
-1.2581481 2.3439653 3.6298468
-1.2224021 2.3472474 3.6302106
-1.1805787 2.3415582 3.6242523
-1.1311922 2.3338556 3.6237528
-1.0766317 2.3461733 3.6353464
-1.0348063 2.3487532 3.6202271
-0.98463064 2.3411996 3.6188481
-0.91193801 2.3329763 3.6061268
-0.88665783 2.3452282 3.6308985
-0.82476652 2.3401346 3.6340337
-0.79689479 2.3463848 3.6489635
-0.67104566 2.3370171 3.6326592
-0.64116019 2.3280051 3.6155531
-0.46828854 2.3178387 3.626687
-0.42936984 2.3305225 3.629914
-0.39046603 2.3338261 3.6385109
-0.24076414 2.3303537 3.6227746
-2.8535554 2.3536777 3.6049201
-2.6275115 2.3521183 3.6200216
-2.5987258 2.3567193 3.6484029
-2.5311975 2.3586242 3.6314237
-2.469691 2.3651478 3.6211746
-2.3833292 2.3569574 3.6239204
-2.3232253 2.3519676 3.6176283
-2.2600772 2.3653159 3.621974
-2.2214575 2.3591368 3.6298113
-2.1936314 2.3526926 3.6311672
-2.088429 2.3540084 3.6311347
-2.0211816 2.3726466 3.6455758
-1.9962872 2.3686759 3.6494246
-1.913134 2.3540602 3.6065454
-1.8264657 2.3611338 3.6230471
-1.7751333 2.3608203 3.6267529
-1.7289267 2.3575108 3.6225369
-1.6804639 2.3552949 3.6209219
-1.6318254 2.35746 3.6266966
-1.5872806 2.3532429 3.6352744
-1.5321707 2.351742 3.6201031
-1.4873151 2.3640416 3.6410179
-1.4376452 2.3506007 3.6337047
-1.3255966 2.3552268 3.6297848
-1.2866024 2.3587832 3.6470752
-1.2313997 2.3521736 3.6062179
-1.0612022 2.3545883 3.6092434
-0.95974457 2.3524427 3.628063
-0.86508024 2.3511052 3.6232886
-0.81164187 2.3510897 3.6118073
-0.78238636 2.3529878 3.6198556
-0.71192902 2.3706067 3.6174028
-0.69056392 2.3556621 3.6178694
-2.7186186 0.42544639 3.6640489
-2.6758127 0.42518729 3.6863885
-2.636637 0.43419266 3.6918154
-2.7055664 0.47676134 3.661375
-2.6728904 0.47645232 3.6772492
-2.632782 0.48087475 3.6919074
-2.7185147 0.53313726 3.6592424
-2.6734295 0.52825618 3.6723254
-2.6344469 0.5245679 3.692941
-2.7236533 0.5715251 3.6547694
-2.6751661 0.57000774 3.6697352
-2.6326168 0.5697304 3.6918616
-2.7271569 0.62822562 3.6608005
-2.6719036 0.6214301 3.6841173
-2.7547631 0.69089043 3.6600902
-2.7235653 0.67680883 3.6688552
-2.6710508 0.67770356 3.6905243
-2.634722 0.6867696 3.6997623
-2.7531755 0.71139389 3.6547122
-2.7207279 0.72152758 3.6704714
-2.6769953 0.72097015 3.6923594
-0.71374679 0.7094605 3.6741745
-2.7620287 0.78708369 3.6541538
-2.7247846 0.77493054 3.6672294
-2.6822481 0.77468586 3.6910503
-0.80347103 0.79023623 3.6502197
-2.7733474 0.83767772 3.6604481
-2.7260537 0.83078945 3.6800408
-2.6846688 0.8253116 3.6926963
-0.80609637 0.82884139 3.6567118
-2.7645543 0.87506676 3.6622055
-2.7245104 0.875705 3.690577
-2.6834431 0.87260336 3.6962848
-0.80745506 0.88439459 3.6542702
-0.71474719 0.88132286 3.6542981
-2.7729087 0.91997749 3.6647694
-2.7243066 0.92483616 3.6847427
-2.6914253 0.9384259 3.6947155
-0.81021148 0.92364782 3.6606195
-0.71565413 0.90044969 3.6559589
-2.7790849 0.97498035 3.6616275
-2.7308257 0.98115033 3.6849747
-2.6990919 0.97279036 3.6985924
-0.81258935 0.97360867 3.6632004
-0.79888207 0.96805263 3.6882362
-0.71452957 0.9816488 3.6604252
-0.69885159 0.97415912 3.6520517
-2.8007646 1.0320188 3.6575432
-2.7633891 1.0299556 3.6701312
-2.7173529 1.0285484 3.6910219
-0.80284041 1.0462819 3.6928306
-0.79843581 1.0131657 3.6778042
-0.71144277 1.0153184 3.6624923
-2.8161728 1.0911552 3.6648235
-2.7714405 1.0755279 3.6707606
-2.7254224 1.0741217 3.6920755
-0.81191379 1.0776882 3.6654661
-0.71879828 1.0816891 3.6792679
-2.8147657 1.1119821 3.6576476
-2.7782445 1.1208346 3.6692042
-2.732043 1.1193545 3.6906519
-0.80998194 1.1260682 3.665477
-0.70408267 1.1086758 3.6546073
-2.8121126 1.1794584 3.6581583
-2.7729871 1.1654401 3.6808937
-2.7302759 1.165761 3.6983352
-0.82164806 1.1754947 3.6654298
-0.71119839 1.184123 3.677716
-2.8168457 1.2210308 3.6578457
-2.7724161 1.2236913 3.6776431
-2.7301238 1.226876 3.6928709
-0.8209728 1.2240384 3.6694245
-0.71035612 1.2194213 3.6650648
-0.69073474 1.2354496 3.6564167
-2.8183913 1.2836552 3.65996
-2.7753971 1.2838383 3.6783423
-2.7481232 1.2702134 3.696188
-0.81752372 1.275196 3.6681416
-0.71412009 1.2719316 3.67364
-0.6921562 1.2838371 3.652997
-2.8142753 1.3299115 3.6626124
-2.7658076 1.3273574 3.6829822
-2.7334261 1.3380935 3.6997073
-0.82859796 1.3243271 3.6633995
-0.71397096 1.3085545 3.6638811
-0.69550222 1.3453336 3.6568131
-2.8231039 1.3774598 3.6606426
-2.776926 1.3760204 3.6845067
-2.737463 1.3724887 3.6952844
-0.83174819 1.3758407 3.6652637
-0.7175383 1.3799226 3.665576
-0.69700223 1.3759551 3.6574836
-2.8214283 1.4308838 3.6637635
-2.7790811 1.4186602 3.6818225
-2.7465119 1.4203832 3.6938467
-0.85114843 1.4236537 3.6531534
-0.82593489 1.428334 3.6696999
-0.71924376 1.429623 3.6618094
-0.69196874 1.4120671 3.6551132
-2.8591921 1.4772626 3.6572874
-2.8230901 1.4754972 3.674408
-2.7767293 1.4684814 3.692754
-0.95119041 1.4811076 3.6506424
-0.86215031 1.4725593 3.6549904
-0.83084852 1.4766878 3.670795
-0.70046365 1.4663014 3.6528554
-0.68091935 1.4641761 3.6500325
-2.8688807 1.5261705 3.6543546
-2.8290198 1.5223954 3.6670086
-2.7830148 1.521127 3.6921406
-0.91751623 1.543766 3.656019
-0.85885268 1.5304438 3.6592636
-0.82180983 1.5287237 3.6806726
-2.8522706 1.5839847 3.6559045
-2.8274486 1.5714102 3.6706634
-2.7859945 1.5556154 3.6845746
-0.92178822 1.5793616 3.6643715
-0.87337554 1.5772941 3.6678581
-0.83215475 1.5749412 3.6819258
0.13490601 1.5811378 3.67377
-2.8617489 1.6223636 3.6556454
-2.8281519 1.6220309 3.6767786
-2.7932773 1.6209531 3.6957612
-2.910265 1.6929393 3.6525307
-2.8694556 1.6789714 3.6612837
-2.8208351 1.668759 3.6814747
-2.8747153 1.7250186 3.6589363
-2.8278742 1.7235442 3.6853623
-2.7904463 1.7320784 3.6971307
-2.9051075 1.7813659 3.6573343
-2.8693843 1.7800012 3.6772671
-2.8356719 1.7910575 3.6946976
-2.7961609 1.757875 3.6957586
-2.9187379 1.8347554 3.6552529
-2.8775494 1.8299725 3.668736
-2.8437228 1.8298349 3.6910043
-2.913271 1.8821467 3.6593826
-2.8673031 1.8828577 3.6799135
-2.8326621 1.8935262 3.6963456
-2.9133215 1.924782 3.6571286
-2.8764277 1.9340769 3.6712961
-2.837368 1.9305501 3.687355
-2.917248 1.9500519 3.6516163
-2.891088 1.9780538 3.6743524
-2.8442476 1.9691739 3.6808047
-2.9121428 2.0189159 3.6625738
-2.8762829 2.0176783 3.6837749
-2.9580064 2.08078 3.6528397
-2.9209938 2.0800292 3.6643705
-2.8759401 2.0712392 3.6836643
-2.8467534 2.0551941 3.6964359
-2.9328346 2.1334863 3.6654611
-2.880717 2.1289711 3.6894646
-2.8335366 2.1194584 3.6961439
-2.957433 2.1777151 3.6557658
-2.9101725 2.178894 3.6677697
-2.8697522 2.1850841 3.6876132
-2.8400078 2.1587396 3.6872578
-2.9292948 2.2183771 3.660533
-2.8728895 2.2327983 3.6769621
-2.8373208 2.2320952 3.6992483
-2.91962 2.2653508 3.6557312
-2.8771031 2.2816455 3.6671126
-2.830698 2.2823112 3.6886916
-2.7898116 2.2888143 3.6973715
-2.9016428 2.3043377 3.659445
-2.870707 2.3213847 3.6528342
-2.824465 2.3228061 3.664938
-2.7733374 2.3193581 3.6794653
-2.7402668 2.332175 3.6977456
-2.6734653 2.3272223 3.6630306
-2.2926528 2.3436117 3.6749556
-2.2063363 2.3444021 3.6641712
-1.7356107 2.3432717 3.6601994
-1.6762176 2.3487179 3.6927717
-1.4275028 2.3471651 3.6777413
-1.385814 2.3468962 3.6900554
-1.3134737 2.349663 3.6695869
-1.2913067 2.3468161 3.6709566
-1.2270354 2.3419619 3.6801133
-1.0740346 2.3423536 3.6736166
-1.0170056 2.3427341 3.6723559
-0.97622889 2.3423662 3.6803932
-0.92934287 2.338711 3.6722019
-0.87390065 2.3447042 3.6753004
-0.82180423 2.340184 3.6772292
-0.77336168 2.3427112 3.6753066
-0.7314024 2.3412561 3.6937385
-0.69166702 2.3387339 3.6814086
-0.42359349 2.3231754 3.6805763
-0.39189732 2.3225281 3.6615479
-2.6304216 2.3522806 3.6825395
-2.5649266 2.356832 3.6693664
-2.5177631 2.3590739 3.6817443
-2.4925227 2.3644876 3.6672893
-2.4246876 2.3532124 3.6820722
-2.3730767 2.3577032 3.6607721
-2.3303947 2.3594682 3.6879013
-2.2763317 2.3566794 3.6721432
-2.2416348 2.3585162 3.6748934
-2.1844587 2.3553286 3.669348
-2.0750771 2.3633723 3.6560202
-2.0231442 2.3659446 3.6853929
-1.9778664 2.3615708 3.6707516
-1.9235302 2.3586042 3.6626489
-1.8719044 2.3610277 3.6894171
-1.8176498 2.3677242 3.6728923
-1.7741933 2.3524733 3.6620748
-1.7153828 2.3589652 3.6969678
-1.6518494 2.3502586 3.6551442
-1.6224589 2.3532491 3.6712523
-1.5817291 2.355134 3.6890526
-1.5186484 2.3597839 3.6706004
-1.4847219 2.3556147 3.6744156
-1.411833 2.359117 3.6566179
-1.3664577 2.3522072 3.6584778
-1.3364 2.35376 3.6700399
-1.2764592 2.3573949 3.6932352
-1.1833348 2.3572659 3.6722116
-1.1212192 2.3559008 3.6852813
-1.0284131 2.3514781 3.6550932
-0.75846052 2.351536 3.6636114
-0.72504705 2.3584175 3.6658204
-2.6590047 0.41705906 3.725044
-2.6316376 0.42633319 3.7264771
-2.5808713 0.42916521 3.7251132
-2.6163094 0.46519735 3.7008188
-2.5769663 0.47279471 3.7203293
-2.5297554 0.48294488 3.7377543
-2.6135869 0.53901058 3.7095289
-2.5722294 0.52530611 3.7213051
-2.5258045 0.5234161 3.741492
-2.6024904 0.56989914 3.7105379
-2.5765467 0.57370007 3.7276144
-2.5423484 0.56532782 3.7336569
-2.6219268 0.62381905 3.7109649
-2.5727556 0.62195152 3.7228215
-2.5323598 0.61753309 3.742888
-2.6172445 0.6719721 3.7044404
-2.5760751 0.67830223 3.7325768
-2.5482781 0.66505963 3.7436252
-2.6245933 0.72182101 3.7132308
-2.5722742 0.71696389 3.738086
-2.6512754 0.79569507 3.7062106
-2.6231768 0.77081442 3.716974
-2.5662725 0.77117604 3.733284
-2.5332804 0.77062017 3.7474923
-2.656713 0.8287819 3.7082539
-2.6231935 0.8281002 3.7231061
-2.5756798 0.82627189 3.7381186
-2.6607723 0.87204039 3.7061563
-2.6298451 0.87220401 3.7248726
-2.5855646 0.86673433 3.7385509
-2.6751611 0.92244285 3.7065008
-2.623976 0.92139047 3.7343047
-0.80558807 0.92088318 3.7288105
-2.6647816 0.97681159 3.7166753
-2.6275191 0.97706258 3.7394447
-2.6711283 1.0270456 3.710732
-2.6293554 1.0272201 3.7357478
-2.5916212 1.0248202 3.744863
-2.6800609 1.0729494 3.7133746
-2.6348047 1.0717704 3.73387
-2.5952396 1.0579768 3.7430201
-2.6785398 1.119559 3.7130661
-2.6303113 1.1274288 3.7359283
-2.7043345 1.1637812 3.7049112
-2.673384 1.1748936 3.7224615
-2.62571 1.1832794 3.7372303
-2.7127054 1.2101862 3.7051179
-2.6798658 1.2312446 3.7173643
-2.6333241 1.229463 3.7368448
-2.719281 1.2844591 3.7092857
-2.6735852 1.2760532 3.7270405
-2.6318505 1.2766616 3.7444263
-2.7140217 1.3212434 3.7058086
-2.6711354 1.3231165 3.723484
-2.6377287 1.3225141 3.7405996
-2.7149189 1.3719921 3.7071557
-2.6759949 1.3740884 3.7295558
-2.6441545 1.3580523 3.7402484
-2.7167275 1.4235018 3.7091551
-2.6735187 1.4162182 3.7312636
-0.80778593 1.4270139 3.7245007
-2.7645805 1.4842722 3.7002454
-2.7263548 1.4703727 3.7165036
-2.6805103 1.4690658 3.739399
-2.6438537 1.4885228 3.7457421
-0.80661196 1.4721527 3.706073
-2.7328506 1.5175281 3.7106934
-2.6790111 1.5175951 3.735122
-2.7656252 1.5731503 3.7023628
-2.7183089 1.565369 3.7188377
-2.6718247 1.5637369 3.7413075
-2.769367 1.6198578 3.7072017
-2.7305293 1.6163781 3.7197955
-2.683357 1.6144046 3.7419326
-0.83512533 1.6039147 3.7126091
-2.771251 1.6716835 3.7148745
-2.7184918 1.666425 3.7306213
-2.6753318 1.6757246 3.7470684
-2.7740996 1.7163029 3.7102849
-2.7301378 1.717904 3.7296779
-2.6933904 1.7156355 3.7450511
-2.8233581 1.7791406 3.7051039
-2.7692411 1.773118 3.721097
-2.718251 1.7688785 3.7399426
-2.821734 1.8301046 3.7062888
-2.7834444 1.8270181 3.721714
-2.7313895 1.82215 3.7398601
-2.8130579 1.8754163 3.7066364
-2.7688518 1.8771341 3.7274466
-2.7221224 1.8770069 3.7439167
-2.8138783 1.9388217 3.714098
-2.7722397 1.9233235 3.7214696
-2.7316055 1.9210762 3.7407227
-2.8174691 1.9741576 3.7125955
-2.7674139 1.9810058 3.7394114
-2.8289762 2.0163977 3.7118645
-2.7854309 2.0188437 3.7347472
-2.8246775 2.0671382 3.7069902
-2.7805285 2.0671129 3.7284589
-2.7489233 2.050216 3.7465801
-2.8107233 2.1195016 3.7113566
-2.7718744 2.1160173 3.7275112
-2.7365034 2.126581 3.7422659
-2.8145347 2.1771231 3.7159927
-2.7688339 2.1781559 3.7366934
-2.7488668 2.1591611 3.7478433
-2.8155613 2.233115 3.7163723
-2.7681525 2.2228854 3.7218173
-2.732255 2.2217398 3.741971
-2.7714434 2.2709494 3.7116663
-2.7269335 2.2729316 3.7337036
-2.692039 2.2841754 3.7488976
-2.724781 2.3166714 3.7158372
-2.675281 2.3231254 3.7311749
-2.6204476 2.3293834 3.7335253
-2.5689926 2.3399239 3.7347419
-2.5223169 2.3366275 3.7127285
-2.4721012 2.3432446 3.7253122
-2.4280972 2.3448908 3.7229643
-2.2960012 2.347497 3.7398875
-1.8143723 2.3483806 3.7409537
-1.6448205 2.3491793 3.7051008
-1.3454316 2.3488748 3.7054064
-1.2999337 2.3417656 3.7059422
-1.2168115 2.3412499 3.727299
-1.1778921 2.3462756 3.7274666
-1.0729243 2.3417687 3.7174845
-1.0211748 2.340807 3.7272091
-0.96974349 2.3404822 3.7373612
-0.92234802 2.339833 3.7308829
-0.87275743 2.3383238 3.7302549
-0.81854135 2.3394151 3.719717
-0.79014015 2.345731 3.7348723
-0.72087294 2.3308759 3.7319937
-0.68152523 2.3230333 3.7140827
-2.5978155 2.353725 3.7058663
-2.4860046 2.3571017 3.7166612
-2.4136095 2.3527167 3.7479239
-2.3798375 2.3531189 3.7068985
-2.3367724 2.3548319 3.7338462
-2.2599199 2.3555264 3.7168968
-2.2252719 2.3540952 3.7315855
-2.171886 2.3664832 3.7263434
-2.0714171 2.3631847 3.7305243
-2.0160403 2.3613262 3.7338264
-1.9651276 2.355583 3.7271945
-1.9265693 2.3539424 3.7051339
-1.8726511 2.3539765 3.7279522
-1.8278363 2.3595171 3.7047675
-1.7839873 2.3582094 3.7198391
-1.7268645 2.3533556 3.7327385
-1.6173651 2.3554158 3.7262478
-1.5688652 2.3585494 3.7323239
-1.5227295 2.3614144 3.7202878
-1.4783003 2.3577523 3.7281399
-1.4240465 2.3549678 3.7400391
-1.3688524 2.3534229 3.706506
-1.335812 2.3686564 3.7426114
-1.2729622 2.3626578 3.7340553
-1.2276415 2.3523974 3.7207665
-1.151569 2.3556049 3.7225037
-1.1209081 2.3562951 3.7310071
-0.77126855 2.3503613 3.7455342
-2.5738218 0.41669229 3.7678401
-2.5174737 0.43491793 3.7657671
-2.513952 0.46527523 3.7575998
-2.4807243 0.47512802 3.7690246
-2.4255874 0.47442213 3.7891202
-2.3777936 0.47310093 3.7985666
-2.5155215 0.5378992 3.7523892
-2.4784851 0.52627039 3.7602932
-2.4229746 0.52536625 3.7798216
-2.38199 0.5356729 3.7990038
-2.519279 0.56974959 3.7543912
-2.4744201 0.57925016 3.7691035
-2.4246855 0.5617823 3.7784834
-2.3893423 0.57009912 3.7926464
-2.5135579 0.64336032 3.75753
-2.4774029 0.62478656 3.7680709
-2.431195 0.61623752 3.7930214
-2.5173941 0.67549396 3.7589474
-2.4741123 0.67498809 3.7776513
-2.4369991 0.6786744 3.7976494
-2.5242896 0.71899199 3.7631824
-2.4777935 0.71755397 3.7772791
-2.4461236 0.71739316 3.7922277
-2.5244043 0.77172565 3.7593842
-2.4770379 0.77171159 3.7839651
-2.5254803 0.82689214 3.7690785
-2.4699545 0.82579482 3.7911308
-2.5775506 0.88273084 3.7522926
-2.5267608 0.86918372 3.7635839
-2.4909329 0.87126333 3.7945671
-2.5722597 0.92662668 3.7574816
-2.525461 0.92953151 3.7814686
-2.484699 0.92528522 3.7966583
-2.5794547 0.9819634 3.7573109
-2.5238431 0.98081803 3.7812898
-2.5696898 1.0244864 3.7552471
-2.5258029 1.0237797 3.7753413
-2.4844487 1.0346414 3.7964096
-2.6053255 1.0833199 3.7526891
-2.5713308 1.0717936 3.7694402
-2.5226865 1.0691184 3.7827978
-2.4883041 1.0679641 3.7953496
-2.6096158 1.117008 3.7513189
-2.5745435 1.1228991 3.766993
-2.5306237 1.125564 3.7824199
-2.4945796 1.1236407 3.7927783
-2.5799749 1.1763376 3.7654092
-2.5221641 1.1837323 3.7864628
-2.6021464 1.2405312 3.7534175
-2.5800104 1.2294817 3.7669837
-2.530807 1.2262514 3.789716
-2.6104648 1.2766721 3.7566528
-2.5788791 1.2769403 3.7753649
-2.5355649 1.2713228 3.791671
-2.6158133 1.3222816 3.7522447
-2.5764968 1.3240731 3.7722657
-2.5355172 1.3178545 3.7943802
-2.6208732 1.3752685 3.760195
-2.576859 1.3675027 3.7789669
-2.539376 1.3811142 3.7983134
-2.6254423 1.4192646 3.7618816
-2.5732899 1.4220331 3.7755904
-2.533843 1.4188023 3.7896605
-0.81297565 1.4076605 3.7560384
-2.6271002 1.4719551 3.7597163
-2.5799251 1.4697931 3.7787066
-2.6114945 1.5243922 3.7649095
-2.5732651 1.5242807 3.7860672
-2.5373769 1.5222878 3.7991648
-2.6302562 1.5789876 3.7601845
-2.5888119 1.5823542 3.7844098
-2.6519372 1.626271 3.7596066
-2.6155524 1.6350914 3.7697146
-2.5819008 1.623624 3.791126
-2.6581078 1.6630888 3.7563062
-2.6247511 1.684882 3.7668834
-2.5807438 1.6848576 3.791954
-2.6688302 1.7250861 3.7506278
-2.634397 1.7242213 3.7682643
-2.584733 1.7303561 3.7902248
-2.6698546 1.7662489 3.7612207
-2.6207156 1.7711728 3.7822595
-2.5883884 1.7858064 3.7921023
-2.6800714 1.8176018 3.7577381
-2.6324747 1.8166361 3.7707927
-2.597219 1.8252779 3.7918229
-2.7028422 1.859056 3.7534049
-2.6678796 1.8692654 3.7669032
-2.6201618 1.8726875 3.7865183
-2.7223084 1.9401237 3.7513578
-2.6757724 1.9268043 3.7715232
-2.6299734 1.9189371 3.7842054
-2.5921447 1.927063 3.7928088
-2.7215781 1.9816439 3.7577455
-2.6742764 1.9800917 3.782362
-2.6255412 1.9886882 3.7989533
-2.5944693 1.9512191 3.7865703
-2.7301586 2.0323517 3.7581596
-2.6818447 2.0310845 3.7725863
-2.6393564 2.034127 3.7943547
-2.7198143 2.0768094 3.7640595
-2.6637805 2.0792148 3.7811375
-2.6322026 2.0820112 3.7955954
-2.7211657 2.1112511 3.7590065
-2.6809728 2.1171665 3.7757204
-2.6446583 2.1261446 3.7974162
-2.7171495 2.1735709 3.757829
-2.6739779 2.1657097 3.7762029
-2.63818 2.1644983 3.794744
-2.7081349 2.2208035 3.7548265
-2.6696374 2.2174535 3.7703302
-2.6261568 2.2200766 3.7916918
-2.6738141 2.2663546 3.7623556
-2.6269894 2.277693 3.7732689
-2.584671 2.2928526 3.7900116
-2.5755701 2.3187902 3.7684822
-2.5232308 2.3245535 3.7693913
-2.4703369 2.3330116 3.7762196
-2.4246895 2.3407831 3.7771502
-2.3544238 2.3388078 3.7501264
-2.3317647 2.3386083 3.761708
-2.2760446 2.3499472 3.7553465
-2.2312508 2.3498576 3.777782
-2.0517013 2.3458793 3.7974384
-1.967252 2.3464055 3.7803938
-1.9456377 2.3467615 3.7903025
-1.8734821 2.3469408 3.7669296
-1.771109 2.3481085 3.7573471
-1.7139759 2.343564 3.7703087
-1.5734806 2.3477874 3.7769811
-1.5305408 2.3473666 3.7903631
-1.206622 2.3409352 3.7756324
-1.1847472 2.3389947 3.7776802
-1.1375177 2.3485692 3.7594755
-1.0206317 2.3425283 3.7752433
-0.97822797 2.3402958 3.7801476
-0.91189814 2.3294926 3.7746532
-0.87129897 2.3311114 3.7847726
-0.82584256 2.3397915 3.7628608
-0.77439505 2.3393776 3.7705612
-0.73416162 2.3316033 3.7858086
-2.3891537 2.3508823 3.7573376
-2.2593179 2.3558147 3.7761276
-2.2201071 2.3842816 3.7962487
-2.1607549 2.3684814 3.7927315
-2.1361935 2.3659995 3.7993164
-2.065644 2.3586907 3.7611144
-2.0271926 2.3523908 3.7659495
-1.9947555 2.3530047 3.7815137
-1.9236555 2.3552027 3.7621095
-1.8343941 2.3524964 3.793323
-1.7422937 2.3527906 3.7771356
-1.6819817 2.3531544 3.765976
-1.6320157 2.3552976 3.7708015
-1.5221014 2.3556452 3.7588329
-1.468262 2.3543391 3.7736039
-1.4265084 2.3554025 3.7882404
-1.3723831 2.3565278 3.7581637
-1.3323405 2.3600817 3.7758205
-1.2753882 2.3521793 3.7774668
-1.2331777 2.351737 3.7877414
-1.1097202 2.355763 3.7782717
-1.0681354 2.3558807 3.7878087
-2.4964767 0.43846387 3.8180201
-2.3595366 0.43240958 3.815737
-2.3281903 0.43229905 3.8291802
-2.2966676 0.43215373 3.8420351
-2.3565304 0.47294036 3.8071129
-2.3219681 0.47214627 3.8152168
-2.2890122 0.4675968 3.8368933
-2.3690031 0.52211267 3.8081443
-2.3229039 0.52595633 3.833293
-2.2543151 0.53460974 3.8483627
-2.3674736 0.5783214 3.8138914
-2.325501 0.57811093 3.8318994
-2.2692714 0.57227242 3.843293
-2.4194403 0.63271976 3.8046241
-2.3867877 0.62552947 3.8135688
-2.3287883 0.63057595 3.8311188
-2.2851243 0.61957926 3.8472333
-2.4120193 0.67499638 3.8088112
-2.371769 0.67148626 3.8179669
-2.3250175 0.67378056 3.8413634
-2.4148536 0.72419828 3.8107605
-2.3735263 0.72777969 3.8261814
-2.3274777 0.72635651 3.8381834
-2.4572904 0.77284354 3.8015845
-2.4255972 0.7762121 3.8114593
-2.3781109 0.78122669 3.8257098
-2.3382678 0.7771787 3.8413918
-2.4282646 0.82579052 3.8121555
-2.3743489 0.82516789 3.834609
-2.4697459 0.87117296 3.8049161
-2.4332097 0.86933661 3.8126576
-2.3788316 0.86856025 3.8347371
-2.4740582 0.90421343 3.8058159
-2.429986 0.92443818 3.8196173
-2.3773119 0.92433161 3.8447163
-2.468291 0.97965354 3.8041153
-2.4276466 0.98020977 3.8274798
-2.3817511 0.97863901 3.8418527
-2.34618 0.98744249 3.8481519
-2.470659 1.0206819 3.8070014
-2.4259365 1.0264133 3.8287911
-2.3970063 1.0121984 3.8380687
-2.3481839 1.0093044 3.8472257
-2.463289 1.0728469 3.8138731
-2.4245367 1.0675009 3.8359787
-2.4644039 1.1243528 3.8115876
-2.4264348 1.1263777 3.8398349
-2.4720154 1.1809988 3.8106544
-2.4318008 1.1820948 3.835763
-2.3955498 1.1799473 3.8445492
-2.4745722 1.2301105 3.816494
-2.4201229 1.2241584 3.8382373
-2.5151901 1.2879492 3.808094
-2.4701855 1.2706577 3.8172526
-2.4202261 1.2723573 3.8402803
-2.5062561 1.3210765 3.8076267
-2.4711599 1.3195124 3.819849
-2.4254792 1.3179635 3.8371732
-2.5195732 1.3637791 3.8019612
-2.4780481 1.36621 3.8184364
-2.424381 1.3749641 3.835355
-2.3976059 1.3632123 3.848093
-2.5202141 1.4256083 3.8006284
-2.474386 1.4229268 3.8255296
-2.5199778 1.4749932 3.8089716
-2.4751897 1.4849254 3.8262022
-2.4296365 1.4757288 3.8423209
-2.5262692 1.5388385 3.8072617
-2.472101 1.5330725 3.8300412
-2.5553064 1.5877957 3.8077359
-2.5184076 1.5852131 3.8192925
-2.4709201 1.5827572 3.8364639
-2.4321249 1.5679023 3.8473191
-2.5626183 1.6362607 3.8033874
-2.5259247 1.633795 3.8156135
-2.4785757 1.631453 3.8334873
-2.446435 1.6428332 3.8478503
-2.55141 1.6982862 3.8117816
-2.5251286 1.6844285 3.8213344
-2.4768662 1.6815044 3.8381605
-2.4494765 1.6668053 3.8449943
-2.5559607 1.7344637 3.8062556
-2.5211542 1.7332779 3.8217802
-2.4758215 1.7324183 3.8434155
-2.5653005 1.7851574 3.8031969
-2.5290952 1.7830346 3.8170328
-2.4856386 1.7835946 3.842092
-2.5640531 1.8253963 3.810909
-2.5172217 1.8236816 3.8318121
-2.4828403 1.822883 3.8480184
-2.6173453 1.8842854 3.8028903
-2.5728188 1.8651452 3.8104119
-2.525918 1.8634524 3.8316925
-2.4941094 1.8981497 3.8387616
-2.5746171 1.919472 3.8174112
-2.5264764 1.9169755 3.8373206
-2.6357856 1.9653317 3.8008459
-2.5722785 1.9711871 3.8177853
-2.5327375 1.9762489 3.8417475
-2.6088936 2.0272188 3.805655
-2.5762727 2.0185301 3.8132241
-2.5342581 2.0217953 3.833806
-2.6108615 2.0831029 3.8109078
-2.5735869 2.0805283 3.8257251
-2.5291502 2.0820096 3.8430872
-2.6217301 2.1260602 3.8107309
-2.5732539 2.1313536 3.8292284
-2.5271657 2.1245596 3.8383312
-2.4942544 2.1374862 3.8439443
-2.6119545 2.1610558 3.8129625
-2.5732129 2.1681669 3.830353
-2.6101165 2.2041187 3.8072581
-2.5746176 2.2146368 3.8198252
-2.5310371 2.2170954 3.8394005
-2.4939597 2.2486644 3.8472338
-2.5776532 2.2627413 3.8111413
-2.535239 2.2711697 3.8245206
-2.4712391 2.2832668 3.8428848
-2.4453421 2.2919497 3.8448589
-2.5169189 2.3092632 3.823369
-2.4845974 2.3194757 3.8219786
-2.4316988 2.3242128 3.8300011
-2.3911314 2.3409886 3.8265245
-2.3422637 2.3491709 3.839139
-2.0619178 2.3353148 3.8276417
-2.0234251 2.3404493 3.8269491
-1.9666927 2.3368249 3.8163466
-1.9145365 2.3403807 3.845063
-1.8852187 2.3423777 3.8337193
-1.8231044 2.344188 3.8347936
-1.7772971 2.3489561 3.8086555
-1.665707 2.344847 3.841414
-1.6250358 2.3439598 3.8281417
-1.4868087 2.3456655 3.801132
-1.3039733 2.3448193 3.8042593
-1.2706381 2.3417444 3.8076644
-1.2422988 2.3479733 3.8259912
-1.0633329 2.3474646 3.8203495
-1.0277221 2.3445888 3.8344467
-0.95683628 2.3432062 3.8347564
-0.922948 2.3367753 3.8301232
-0.8036226 2.3442569 3.8184159
-0.77187121 2.342226 3.8200045
-2.3662817 2.3504016 3.8293226
-2.3179662 2.3588235 3.8118572
-2.2774758 2.3638489 3.842968
-2.213644 2.3668795 3.821723
-2.1631947 2.3609736 3.833672
-2.121067 2.3627994 3.828393
-2.0830724 2.3563564 3.8043694
-1.9176967 2.3528142 3.8138204
-1.860925 2.3504791 3.832227
-1.8034685 2.3547511 3.8097272
-1.756398 2.3500721 3.818635
-1.7257516 2.3527558 3.8349938
-1.6771313 2.3550041 3.8222263
-1.5820198 2.3550258 3.8376863
-1.5284482 2.3517122 3.832242
-1.4606669 2.3550739 3.8262277
-1.4298506 2.3571703 3.8392501
-1.3779522 2.3577292 3.8187349
-1.328867 2.3515077 3.8093436
-1.2146397 2.3558404 3.846766
-1.171849 2.3550251 3.8086779
-1.1295227 2.3544333 3.8175852
-1.088729 2.3570879 3.8314164
-0.96695101 2.352649 3.8262053
-0.82945472 2.358741 3.838593
-2.4114776 0.43812206 3.8562162
-2.2665749 0.4322781 3.8569541
-2.2274218 0.43263966 3.8781793
-2.1805034 0.43147758 3.8852024
-2.2672153 0.47808462 3.858387
-2.2246516 0.47321054 3.8697035
-2.1734385 0.47321877 3.8915482
-2.2735419 0.52220142 3.8530695
-2.2250035 0.52467483 3.8653774
-2.1812477 0.52344638 3.8917694
-2.2612875 0.59808469 3.8534002
-2.2214251 0.57783008 3.8759341
-2.1813743 0.57810634 3.8954232
-2.2701585 0.63664871 3.8641112
-2.2223134 0.6287092 3.8806605
-2.1848092 0.6306746 3.8955865
-2.280829 0.67294395 3.8554108
-2.2287617 0.67282182 3.8774574
-2.1894784 0.67343706 3.8987274
-2.2770274 0.72677261 3.8639646
-2.2236464 0.72623038 3.8840039
-2.1847315 0.73972958 3.8965304
-2.3116443 0.78447467 3.8549144
-2.2759073 0.78181744 3.8767035
-2.2292786 0.78005469 3.8862479
-2.1968751 0.77960652 3.8973777
-2.3208528 0.82466871 3.8568015
-2.2789161 0.82456934 3.8752697
-2.2350752 0.82376844 3.8898637
-2.3248527 0.86790323 3.8564258
-2.2777944 0.87034637 3.879478
-2.2342966 0.87241185 3.8921008
-2.3225219 0.92337883 3.8653874
-2.2665923 0.92192739 3.8830402
-2.2361071 0.94323599 3.8946435
-2.320889 0.97479248 3.8621159
-2.2719214 0.97657931 3.8823886
-2.2401803 0.97645521 3.8958287
-2.3719785 1.0275666 3.8535957
-2.3210163 1.0217234 3.866982
-2.2796323 1.0220163 3.8872924
-2.2479706 1.0324947 3.8990564
-2.3729694 1.0682886 3.8544228
-2.3280866 1.0670745 3.8699532
-2.2770011 1.079811 3.88832
-2.2491674 1.0541195 3.8968279
-2.3764284 1.127982 3.8571458
-2.3238158 1.1229299 3.8737473
-2.2733176 1.129413 3.8927672
-2.3659451 1.181058 3.8635733
-2.3224933 1.1805567 3.8819644
-2.2881021 1.1792526 3.8923116
-2.3706892 1.2260605 3.8609345
-2.328038 1.2260147 3.8809915
-2.2855182 1.2206036 3.8938446
-2.3800359 1.2736958 3.8653073
-2.3223007 1.2713376 3.8834503
-2.273309 1.2571515 3.8949692
-2.3765252 1.3202435 3.8612537
-2.3201637 1.3131187 3.8784657
-2.2826912 1.3158195 3.8973436
-2.3709722 1.3716153 3.8664124
-2.3237896 1.363924 3.8861668
-2.2942636 1.3977356 3.8967102
-2.4272368 1.4279938 3.8573952
-2.3750589 1.4282284 3.8673835
-2.3334062 1.4234842 3.8870714
-2.4177041 1.4503857 3.858417
-2.3746572 1.482975 3.8701828
-2.3311772 1.4828148 3.8905907
-2.4175563 1.532908 3.8574195
-2.3724425 1.5318084 3.8761327
-2.3313563 1.5345732 3.8919685
-2.4223087 1.5854813 3.8572891
-2.3797562 1.5801193 3.8741274
-2.3346803 1.5790719 3.8926234
-2.4226975 1.6306324 3.8597565
-2.3782306 1.6301227 3.8803415
-2.3383682 1.6240894 3.8935025
-2.4190197 1.679441 3.8617299
-2.3727925 1.6777538 3.8797159
-2.3401268 1.6669123 3.8997889
-2.4275551 1.7294219 3.8596153
-2.3857932 1.731055 3.8854041
-2.4531591 1.7841032 3.8606441
-2.4149756 1.7804296 3.8696587
-2.385262 1.7829816 3.891892
-2.4614477 1.8234793 3.8609724
-2.4293814 1.8355412 3.8758328
-2.3804307 1.832068 3.8908815
-2.476131 1.8667866 3.8605938
-2.4178584 1.8817774 3.8805552
-2.3781481 1.8723043 3.8980048
-2.4642897 1.920592 3.8595581
-2.4169056 1.9166594 3.8828449
-2.3899393 1.9263881 3.8995554
-2.5140305 1.958331 3.8507111
-2.4838264 1.9731823 3.8601167
-2.4296942 1.9650121 3.8785653
-2.3863018 1.9668721 3.8942463
-2.5036311 2.0356829 3.8523543
-2.4759371 2.0202076 3.8614359
-2.4265618 2.0166485 3.878262
-2.3985364 2.0007625 3.885709
-2.5108554 2.0642428 3.85339
-2.4765742 2.0753422 3.8661356
-2.4311943 2.0752716 3.8898723
-2.3895011 2.057277 3.8996933
-2.4717233 2.1279314 3.8723233
-2.4326749 2.131856 3.8959382
-2.523562 2.1757007 3.8543701
-2.4779811 2.1758428 3.8795295
-2.4249954 2.1807847 3.8867068
-2.5150959 2.2012115 3.8543055
-2.4786427 2.2197278 3.8656788
-2.4354057 2.2360249 3.8815856
-2.3980365 2.2332282 3.8946207
-2.5061142 2.282685 3.854495
