ply
format ascii 1.0
comment PCL generated
element vertex 1490
property float x
property float y
property float z
element camera 0
property float view_px
property float view_py
property float view_pz
property float x_axisx
property float x_axisy
property float x_axisz
property float y_axisx
property float y_axisy
property float y_axisz
property float z_axisx
property float z_axisy
property float z_axisz
property float focal
property float scalex
property float scaley
property float centerx
property float centery
property int viewportx
property int viewporty
property float k1
property float k2
end_header
0.99279749 0.62613213 1.779616
1.0043817 0.62655258 1.7576166
0.99118239 0.67531484 1.7809609
1.0022105 0.67848712 1.7568363
0.99306023 0.72312391 1.7769214
1.0019234 0.72686064 1.7575967
0.99079275 0.77321535 1.7819132
1.0036896 0.77582848 1.7565683
0.99044734 0.82661307 1.7816489
1.0027198 0.82235086 1.7623758
0.9916473 0.87501436 1.7804698
1.0018607 0.87363786 1.75765
0.99181569 0.92409664 1.7761737
1.0034903 0.91130543 1.7541984
0.99177259 0.97558093 1.7786657
1.0039011 0.97147435 1.7551795
0.99215281 1.0256591 1.7778791
1.0014188 1.0248156 1.7519723
0.99035257 1.0782318 1.780701
1.0038121 1.0686625 1.7567432
0.98948896 1.1301712 1.7782433
1.0021666 1.1302423 1.7568979
0.99073654 1.1769009 1.7780335
1.0013376 1.1884958 1.7525643
0.98884511 1.2231593 1.7797905
1.0016817 1.2387438 1.7549624
0.98923969 1.2749659 1.7777759
1.0004483 1.2773274 1.7603686
0.99071217 1.3260683 1.778311
1.0020796 1.3247848 1.7563747
0.98859739 1.3738968 1.782205
1.0014544 1.3890307 1.7575214
0.9914574 1.4227163 1.7783345
1.003284 1.4269705 1.7538092
0.99254203 1.4720893 1.778694
1.005471 1.4797087 1.7584531
0.99238259 1.5250002 1.7824395
1.0050005 1.5239913 1.7619483
0.99312472 1.5814773 1.7880393
1.0088751 1.5817803 1.7679436
-0.72252649 -0.49238089 1.8104092
-0.60768253 -0.48973525 1.829132
-0.57207018 -0.48820433 1.8309151
-0.52488911 -0.48516235 1.8209484
-0.479442 -0.48608887 1.8220252
-0.43483895 -0.48658842 1.8130426
-0.37573689 -0.48586789 1.8191805
-0.32868463 -0.48368558 1.8242649
-0.27799216 -0.4804149 1.8100904
-0.21996629 -0.48117384 1.8224139
-0.17581663 -0.48078072 1.8200405
-0.12091559 -0.47612554 1.8186748
-0.077727623 -0.47730672 1.8203394
-0.023256032 -0.48049471 1.8202474
0.018855155 -0.48115396 1.8272427
0.13078243 -0.47858313 1.8142376
0.16154237 -0.4866606 1.8080993
0.97641706 0.48239794 1.8288492
0.97311121 0.52760768 1.8268946
0.97615474 0.57591087 1.8235054
0.97580463 0.62605137 1.8235594
0.97414857 0.67455262 1.8258467
0.97548842 0.72580653 1.8231462
0.97521991 0.7766189 1.8249327
0.97339296 0.82521528 1.827018
0.97327572 0.87456328 1.8219229
0.97228789 0.92592591 1.825044
0.97315764 0.97555465 1.8219986
0.97045124 1.0256876 1.8275504
0.97152662 1.0721501 1.8238745
0.97081167 1.1236457 1.8242486
0.96881449 1.1753838 1.8263969
0.96746242 1.2244141 1.8251375
0.96722597 1.2746353 1.8264081
0.96727401 1.3244331 1.8246032
0.96812063 1.3744427 1.824702
0.96906072 1.4220072 1.8260281
0.97426325 1.4755154 1.8251336
0.97364563 1.5181371 1.8236806
0.97582996 1.5748034 1.8276631
0.97449112 1.615496 1.8301471
-0.61701345 -0.49162507 1.8743289
-0.58897924 -0.4926506 1.864814
-0.53343511 -0.48867807 1.879958
-0.45083436 -0.49007487 1.8614072
-0.43956536 -0.48831695 1.8756411
-0.37738779 -0.48663133 1.8759
-0.32464343 -0.48755178 1.8768053
-0.29130986 -0.48626328 1.8678766
-0.1697994 -0.47995043 1.8532895
-0.13005517 -0.47948754 1.8723375
-0.071186438 -0.47959656 1.8860333
-0.028566176 -0.47882113 1.8614514
0.011365645 -0.48191959 1.8661157
0.139994 -0.48633668 1.8798047
0.15665279 -0.48564994 1.857923
0.93308532 0.47052139 1.885072
0.95853555 0.48143765 1.8756125
0.95830828 0.5231542 1.8713385
0.94544959 0.55696672 1.8941463
0.95786721 0.57655811 1.8721229
0.94636685 0.64976752 1.8995825
0.95785725 0.62405795 1.8730782
0.9475922 0.67093515 1.8967029
0.9576658 0.67454875 1.8733892
0.9471364 0.72746438 1.8886694
0.95779985 0.72495526 1.8698014
0.94616199 0.77467293 1.8899692
0.95853496 0.77529299 1.8679812
0.94650877 0.83044589 1.8931533
0.95579821 0.82205713 1.8716186
0.94519848 0.87190431 1.8919727
0.95723152 0.87494576 1.8641776
0.94478434 0.92762059 1.8852971
0.95545542 0.92728877 1.864448
0.94614238 0.97898984 1.8819348
0.95675033 0.97678012 1.8618526
0.94380391 1.0280772 1.888358
0.95496303 1.0248079 1.8639301
0.94234544 1.0739219 1.888147
0.95466071 1.081527 1.8604047
0.94220382 1.1248246 1.8846534
0.95417339 1.1326092 1.8627411
0.94142056 1.1785078 1.883317
0.95309448 1.1722956 1.8611765
0.94190562 1.2248795 1.883
0.95290577 1.2257272 1.856956
0.94254172 1.2733998 1.8827832
0.95336032 1.2754314 1.8557731
0.94361103 1.3263893 1.8824886
0.95139462 1.3209624 1.8587042
0.94371235 1.3793502 1.8804209
0.95756954 1.3709882 1.8634385
0.94088203 1.4277239 1.8860801
0.95649648 1.4354323 1.865961
0.94454801 1.4801462 1.8848603
0.95718682 1.4735148 1.86383
0.94459498 1.5336086 1.8891081
0.95880586 1.5274235 1.8632004
0.94380504 1.5786878 1.8903143
0.95767379 1.570582 1.8658981
0.94510591 1.6065893 1.8849638
0.95775449 1.6278938 1.8707983
0.94133878 1.6609527 1.8985451
0.95660496 1.6561673 1.8851515
-0.59028286 -0.4969818 1.9021548
-0.46733141 -0.49359387 1.9320571
-0.41804963 -0.48727626 1.9341143
-0.37390915 -0.48591402 1.9080015
-0.10904494 -0.48268685 1.9045677
-0.028654538 -0.48479614 1.9148059
0.017912438 -0.48444703 1.9135156
0.13821211 -0.48704371 1.920557
0.15382399 -0.49204233 1.9395595
0.72989798 -0.49131671 1.9298346
0.94153225 0.48551878 1.9222816
0.94329363 0.52441233 1.9198724
0.9427191 0.57449925 1.9225639
0.95032012 0.57496405 1.9005505
0.94339597 0.62512165 1.9174846
0.95359606 0.60730696 1.900048
0.94077927 0.67453045 1.9214212
0.9420681 0.72656542 1.9169298
0.93937361 0.77404743 1.9195174
0.93610233 0.82539082 1.9230618
0.93373215 0.87665576 1.9233601
0.93165225 0.9248392 1.9239302
0.93028766 0.97398269 1.923444
0.92686504 1.0226141 1.9259229
0.92540365 1.0737803 1.9258865
0.92547399 1.1252592 1.9271176
0.92435193 1.174294 1.9256631
0.92440581 1.2238064 1.9265867
0.92262381 1.2748259 1.9267755
0.92245334 1.3235391 1.9251372
0.9256804 1.3760343 1.9252639
0.9251321 1.4243609 1.9259952
0.92682952 1.4768705 1.9259212
0.92840916 1.5249245 1.9253273
0.92847323 1.5745373 1.9244815
0.93117195 1.6243722 1.9259933
0.93120563 1.6681343 1.9313859
0.19068971 -0.50185823 1.9762757
0.87407035 -0.50219935 1.9819937
-0.46196252 -0.49334392 1.9522709
-0.064631529 -0.48856461 1.9685823
-0.016679263 -0.48718113 1.9636632
0.14222696 -0.49149576 1.9777191
0.15750673 -0.49413359 1.9876096
0.74923551 -0.49425861 1.9828261
0.77447957 -0.48734877 1.9919447
0.82886416 -0.49966124 1.9844737
0.74597466 -0.41283894 1.9793444
0.76359636 -0.41049704 1.9849774
0.20265232 -0.35273081 1.9716343
0.76909184 -0.39320835 1.99233
0.1946806 -0.34116602 1.9898753
0.21701339 -0.33564276 1.9782012
0.94954646 0.63500339 1.9631224
0.93817258 0.78865641 1.9504402
0.95459092 0.77035993 1.9941792
0.92515147 0.88552737 1.9606012
0.9202078 0.92860329 1.9602959
0.91534626 0.97777271 1.9605633
0.91122377 1.0316621 1.971642
0.89846557 1.0840592 1.9904957
0.90900111 1.0747607 1.9668005
0.89873958 1.1296366 1.9827522
0.90629011 1.1199859 1.9667822
0.89673918 1.1744373 1.9869339
0.90725553 1.1699313 1.9609705
0.89543974 1.2263768 1.9870174
0.90637225 1.2239221 1.9649049
0.89453584 1.2808238 1.9941243
0.90491474 1.2770362 1.9700387
0.89762497 1.3253872 1.9925274
0.90470338 1.3276104 1.9673481
0.89582807 1.3794736 1.9911146
0.90910912 1.3762765 1.9658017
0.89304924 1.4177227 1.9928404
0.90696186 1.4257601 1.9670337
0.89959544 1.4517257 1.9932573
0.90751475 1.4768494 1.9712923
0.8982687 1.5106614 1.9950854
0.90879822 1.52853 1.9680282
0.89569342 1.562852 1.9970326
0.9094401 1.5749464 1.9747696
0.89640248 1.6344385 1.9969532
0.90846318 1.6177288 1.9700174
0.8994962 1.6585176 1.9907106
0.91073006 1.6751432 1.9701229
0.89943188 1.7187417 1.9954938
0.90368503 1.7033038 1.972681
0.1797577 -0.50218421 2.0188837
0.22149815 -0.50753486 2.0377905
0.82791728 -0.50258845 2.0300496
0.87128419 -0.50530493 2.0273297
0.1856699 -0.4835268 2.0331547
0.20180145 -0.47817725 2.0460694
0.77120447 -0.48659542 2.0136898
0.89043176 -0.48763198 2.0288305
0.92136985 -0.46507668 2.0400169
0.18981872 -0.43376756 2.0312922
0.20297489 -0.41323105 2.0415998
0.7739619 -0.42613631 2.0005705
0.92178988 -0.42526263 2.0368664
0.79685813 -0.39697906 2.0058904
0.91777158 -0.37787053 2.0380685
0.19434211 -0.32489839 2.0290484
0.22340111 -0.31967819 2.0297503
0.92054492 -0.32132787 2.0381315
0.92076969 -0.27430466 2.0393617
0.92728913 -0.23775598 2.041178
0.89491439 1.0776104 2.0063734
0.88569927 1.1244618 2.0213859
0.88278019 1.1786606 2.0243797
0.88014418 1.2273511 2.0259266
0.87972069 1.2697582 2.0248601
0.88169175 1.3224581 2.0254893
0.87902659 1.3760886 2.0289717
0.88071704 1.427512 2.026561
0.88368624 1.4735317 2.0220423
0.88352871 1.5264897 2.0249534
0.88279676 1.5803249 2.0279198
0.90257013 1.5930955 2.0000563
0.8856076 1.6274232 2.0237551
0.88952762 1.6792539 2.0184207
0.8896082 1.7215543 2.0251157
0.21376102 -0.50268656 2.0610321
0.8326233 -0.50409639 2.0517819
0.85546046 -0.50080842 2.0805323
0.19014017 -0.47890386 2.0649774
0.21016495 -0.48880279 2.0614073
0.88340497 -0.48036513 2.0742533
0.90729266 -0.45917323 2.058337
0.18188575 -0.42340866 2.0553753
0.83837634 -0.42296639 2.0793157
0.89036852 -0.43028784 2.0843437
0.90709335 -0.42295399 2.0586545
0.89258587 -0.37544432 2.0891807
0.90468591 -0.3723968 2.0619638
0.19281298 -0.31540307 2.0779941
0.21520446 -0.30661049 2.0515831
0.89325237 -0.32753608 2.0806351
0.90455574 -0.32752755 2.0590775
0.19182329 -0.29883277 2.0687745
0.22065003 -0.29738352 2.0567718
0.89920133 -0.2969062 2.0837786
0.9070245 -0.27230638 2.0659893
0.93578804 -0.23305981 2.0764983
0.86987448 1.137357 2.0724161
0.84879434 1.1880984 2.094171
0.86416799 1.1737477 2.0774074
0.85918748 1.2212312 2.0717731
0.84681797 1.2603741 2.0949407
0.85996091 1.2756449 2.0747135
0.85897541 1.3251301 2.074136
0.8604452 1.3766396 2.0746734
0.84650093 1.4223695 2.0964572
0.85996419 1.4253114 2.0759394
0.8612169 1.4761469 2.0752873
0.8601346 1.520298 2.0633104
0.86485052 1.573125 2.0764694
0.8621003 1.6232607 2.0768979
0.86840993 1.6772207 2.0736904
0.8658092 1.7218693 2.0742197
0.87149346 1.7662685 2.0773625
0.89832169 -0.47457469 2.1017418
0.90661776 -0.48692259 2.1050889
0.83957469 -0.41281065 2.145256
0.87318248 -0.41988596 2.1215923
0.87868404 -0.37806925 2.1192565
0.88019943 -0.32760292 2.1201723
0.91277254 -0.27975979 2.1171145
0.84445477 1.1769458 2.12537
0.85831231 1.1590314 2.1229169
0.8395074 1.2253428 2.1256397
0.83607066 1.2798072 2.1300497
0.85340005 1.2878942 2.102684
0.83653539 1.3252879 2.126092
0.85001081 1.348531 2.1036251
0.83791471 1.3795309 2.125339
0.85443509 1.3795526 2.1020029
0.83580464 1.4229416 2.1277599
0.83877242 1.4722168 2.1183755
0.83782357 1.5309777 2.1289518
0.85403538 1.5359882 2.1031718
0.8405267 1.5787967 2.1200273
0.83616698 1.6226183 2.1270118
0.83885241 1.6720797 2.1265979
0.85005236 1.6691699 2.103426
0.83983821 1.7254791 2.1330194
0.85037971 1.7335633 2.1138611
0.84111524 1.7739445 2.1320319
0.8556549 1.7702023 2.1084716
0.84187919 1.8090017 2.1386547
0.84122342 -0.40989092 2.1711407
0.85489184 -0.40404415 2.154911
0.85942119 -0.39122713 2.1604841
0.83811301 1.1849372 2.162847
0.86789209 1.1775497 2.1978493
0.82322526 1.2262734 2.1703804
0.81471449 1.2716388 2.1781735
0.81459272 1.3225542 2.178288
0.81497455 1.3766758 2.1739957
0.81341636 1.421301 2.1727941
0.81610852 1.4752815 2.1739554
0.81614858 1.5216029 2.1707301
0.81782705 1.5794724 2.1686931
0.81581819 1.6277397 2.1728675
0.81747729 1.6769632 2.171387
0.81807476 1.7279255 2.1773541
0.82405823 1.7813141 2.1667521
0.82162154 1.8175033 2.1785467
-2.0849173 2.3085504 2.1877768
0.85774088 1.1801049 2.2062573
0.8152349 1.2368593 2.2153559
0.79194206 1.2807865 2.2326221
0.80478644 1.2576228 2.2154145
0.79345775 1.325938 2.2258732
0.80019873 1.3493876 2.2032566
0.78993148 1.3738312 2.2298393
0.80479002 1.3694723 2.2098951
0.78923094 1.4242702 2.2298052
0.8002851 1.4390874 2.2069361
0.78901839 1.4734913 2.2310746
0.8026287 1.4620538 2.2035115
0.78900635 1.5158947 2.2329807
0.80136967 1.5293251 2.2130079
0.79108483 1.5699009 2.2299936
0.8060751 1.5744455 2.2053332
0.79032665 1.6109104 2.2305882
0.8013109 1.6289334 2.2082474
0.79275298 1.6709681 2.2324021
0.80635738 1.6716497 2.2019124
0.79310536 1.7250854 2.2286832
0.80349809 1.7191449 2.2170904
0.79224402 1.7716274 2.239836
0.80672103 1.7799085 2.2140069
0.79821283 1.8194045 2.2489955
0.803837 1.829816 2.2245607
0.81053287 1.8617308 2.2261329
-2.174432 2.3175807 2.2394021
-2.1198223 2.3121138 2.2216332
-2.0755467 2.3265414 2.2315984
-2.0293586 2.3213277 2.2445221
-1.7611313 -0.56772095 2.2790186
-1.7250282 -0.56674355 2.2955389
0.77863675 1.284713 2.274924
0.80648685 1.2610521 2.2656012
0.7725414 1.3272957 2.2727914
0.77090073 1.3782341 2.27263
0.77039868 1.4212368 2.2703681
0.76919818 1.4750507 2.2763259
0.77012783 1.5251551 2.2690651
0.76980013 1.57585 2.2729149
0.77408397 1.6289443 2.2744458
0.7750628 1.6705818 2.2699504
0.77729481 1.727707 2.2737901
0.77657509 1.7756958 2.2777886
0.78150415 1.8286544 2.2783887
0.7894631 1.8735986 2.2692051
0.78400278 1.9072778 2.287585
-2.2533159 2.3120246 2.277441
-2.220412 2.3222198 2.2759535
-2.1682932 2.3062346 2.2721577
-2.1273608 2.3147902 2.2709701
-2.0737898 2.3175638 2.2678013
-2.0207076 2.3180215 2.2744246
-1.9871361 2.3210254 2.2719913
-1.9374465 2.3117657 2.2904081
-1.7874397 -0.560417 2.3296046
-1.732897 -0.56923938 2.3462214
-1.6837873 -0.56844187 2.3298426
-1.625406 -0.570858 2.3374732
-1.5764147 -0.57832342 2.3424451
-2.0585132 -0.29380906 2.3364379
0.76648325 1.2935653 2.3249433
0.74442166 1.3261576 2.3383791
0.75575095 1.3263587 2.3211882
0.74360323 1.3726723 2.3321004
0.75521082 1.3774226 2.3116727
0.74190086 1.4199677 2.3305993
0.75592339 1.4229388 2.3035946
0.7441023 1.4743843 2.3298953
0.75477409 1.4675376 2.3097389
0.74448365 1.5300248 2.3376973
0.75611734 1.525672 2.3077118
0.74453843 1.5686581 2.3382185
0.75654453 1.5726037 2.3131881
0.74635816 1.6192709 2.3332951
0.75674504 1.6263527 2.3135185
0.74541044 1.665207 2.3339813
0.75895411 1.6782612 2.3080409
0.74686134 1.7240833 2.3373103
0.75913233 1.7203985 2.3145924
0.75852144 1.7752998 2.332536
0.74546415 1.8007137 2.3496675
0.76474053 1.825098 2.322238
0.76860422 1.8830941 2.3216548
0.76752323 1.9154644 2.3312933
-2.2220826 2.3159132 2.3265069
-2.1669631 2.3031414 2.3226261
-2.124563 2.3119049 2.325031
-2.0656459 2.3156929 2.3203325
-2.0244701 2.320509 2.3254559
-1.9798008 2.3250878 2.3225055
-1.9360427 2.3313148 2.3345501
-1.8671212 2.3178196 2.345403
-1.8255543 -0.55577737 2.364238
-1.7585844 -0.55514264 2.3717213
-1.7297574 -0.56213421 2.3748488
-1.6791089 -0.55805576 2.3724251
-1.6306689 -0.56406456 2.3738344
-1.5765874 -0.59032249 2.395505
-1.5261625 -0.59289831 2.397779
-1.7763512 -0.54705399 2.3982034
-2.0508642 -0.30988526 2.3659463
-2.0607765 -0.27665982 2.3584898
-2.030628 -0.253553 2.3878577
-2.060539 -0.23959473 2.3705754
-2.0476441 -0.21146262 2.3845141
0.73406613 1.3304831 2.3790607
0.7609086 1.3102363 2.3739364
0.72681934 1.3765216 2.3726649
0.72417194 1.4273406 2.3792546
0.72474736 1.4740088 2.3762929
0.72714561 1.5241879 2.3766239
0.7295571 1.5795326 2.37378
0.73214722 1.6242348 2.3672888
0.72893047 1.6755428 2.3821223
0.73592287 1.7189339 2.3747973
0.73912376 1.7745323 2.3703873
0.73438764 1.8306907 2.3890815
0.75248408 1.838516 2.3583627
0.74060029 1.8667455 2.3769121
0.75473428 1.8648882 2.3516948
0.74078906 1.9217777 2.3897943
0.75519419 1.9240063 2.3674283
0.74625027 1.9645596 2.387764
0.76250613 1.9584489 2.3610344
-2.4069808 2.3413172 2.3906238
-2.2702954 2.3122001 2.3643429
-2.2185917 2.3130529 2.3735864
-2.179033 2.3077273 2.3638155
-2.1150255 2.3080959 2.3772411
-2.0720289 2.3205433 2.37501
-2.034996 2.3251789 2.366406
-1.9752533 2.3140996 2.3683481
-1.9202257 2.3233788 2.3669846
-1.8801044 2.3331077 2.3868113
-1.8254093 2.3287921 2.3887382
-1.7933389 2.319979 2.3955157
-2.4015846 2.3541989 2.3726759
-2.3813019 2.3610225 2.376967
-1.7161188 -0.55678481 2.4064021
-1.6598258 -0.55689877 2.410337
-1.6226505 -0.57022178 2.4214463
-1.571496 -0.58174527 2.4266098
-1.5315367 -0.59010571 2.4241719
-1.4825169 -0.58532065 2.4328289
-1.4202459 -0.58077365 2.4189963
-1.8530452 -0.50191766 2.4294589
-1.809745 -0.5253877 2.4212215
-1.7741852 -0.5384379 2.4195738
-1.73974 -0.54849392 2.4284868
-1.6745359 -0.54076654 2.4168901
-1.8539337 -0.48819587 2.4329205
-2.018965 -0.22219509 2.4257662
0.72045624 1.3336797 2.4214113
0.69316649 1.3800746 2.442008
0.70624524 1.370638 2.4285963
0.69595075 1.4287778 2.4380071
0.70919061 1.4280326 2.414274
0.69956893 1.47313 2.4493151
0.70480055 1.4765251 2.4243386
0.70502436 1.5223421 2.4233546
0.7124905 1.5750812 2.4196186
0.71393567 1.6254883 2.4203503
0.7120958 1.6724128 2.4243889
0.71814251 1.7351713 2.4321465
0.72133881 1.7777904 2.4224365
0.71885449 1.8240441 2.417876
0.73145407 1.8865966 2.416136
0.72960836 1.9304527 2.4283574
0.73266971 1.9718046 2.4211078
0.72881889 2.0022585 2.4272902
-2.4207911 2.3364756 2.4170182
-2.2792697 2.3216541 2.4252954
-2.22489 2.3202562 2.424777
-2.1809161 2.3288746 2.4196274
-2.118901 2.3123434 2.4275885
-2.0721819 2.3227599 2.4203568
-2.0254321 2.3221714 2.4196672
-1.9696028 2.3204699 2.4231744
-1.9254922 2.3266163 2.4278638
-1.8728995 2.3267903 2.4250126
-1.833137 2.3281863 2.4324033
-1.7836351 2.3308899 2.4311714
-1.7359072 2.3105471 2.4167321
-2.4108715 2.3536644 2.4321289
-1.3028251 -0.60049438 2.4649062
-1.2222811 -0.61249769 2.4875462
-1.6759225 -0.55468678 2.4584544
-1.6195712 -0.56246984 2.4642022
-1.5776827 -0.56556672 2.4814782
-1.5245832 -0.57171398 2.4706147
-1.4761556 -0.56864476 2.4758694
-1.4290967 -0.58187598 2.4689119
-1.387978 -0.59878415 2.4907889
-1.2565923 -0.59028399 2.4990163
-1.2300994 -0.59692371 2.4746449
-1.7660145 -0.52889138 2.4699862
-1.7254349 -0.52953005 2.4737396
-1.6688941 -0.54317355 2.4781055
-1.6444257 -0.54882044 2.4819701
-1.8805153 -0.45442864 2.4881101
-2.0116391 -0.36178136 2.4902089
-1.8897771 -0.355304 2.499541
-2.0093095 -0.2662845 2.4832492
-1.8657976 -0.27351344 2.4755569
-2.0073373 -0.22121148 2.4816005
-1.8718179 -0.23913805 2.486474
-1.9303181 -0.042060051 2.4901233
0.70197839 1.3449292 2.4549956
0.67997766 1.3776766 2.4790962
0.68184292 1.4208949 2.4720447
0.68304461 1.4741298 2.4696109
0.68327641 1.5279408 2.4785945
0.68978578 1.5779973 2.465471
0.68725324 1.6245098 2.4765735
0.70308155 1.6261055 2.4550915
0.69031191 1.6725262 2.4731786
0.69378471 1.7332042 2.4930046
0.70156574 1.7247403 2.4637678
0.6955924 1.7730594 2.4794645
0.7065112 1.7721109 2.4609187
0.69227695 1.8241022 2.4893878
0.7076928 1.8285342 2.4704063
0.69789088 1.8953878 2.4946418
0.71312308 1.8717852 2.4636743
0.71658909 1.9231298 2.4642148
0.71203852 1.9725219 2.4797187
0.6993562 2.0284631 2.4981246
0.71260786 2.0188162 2.4763317
-1.5677955 2.2969208 2.494154
-2.4342866 2.3487782 2.4751318
-2.313714 2.3203373 2.4654596
-2.2722852 2.3148272 2.4703891
-2.2265437 2.3227174 2.4719994
-2.1742671 2.3235123 2.4805412
-2.1229894 2.3198903 2.47717
-2.0753868 2.328423 2.4701312
-2.0260167 2.330549 2.4786837
-1.9683962 2.3225851 2.4758904
-1.9166126 2.3249769 2.4755104
-1.8694283 2.3223038 2.470777
-1.8250297 2.3282452 2.4811194
-1.7800578 2.3322883 2.4817536
-1.7255583 2.3305027 2.4685655
-1.6828213 2.34131 2.4943514
-1.6005014 2.3081448 2.49246
-1.3356037 -0.60221559 2.5292993
-1.2319105 -0.60418499 2.5094705
-1.6366007 -0.55315661 2.5121357
-1.5656788 -0.55466658 2.5220301
-1.5375627 -0.55744749 2.5293977
-1.4798876 -0.55927163 2.5226452
-1.4273587 -0.58652699 2.5263183
-1.3722504 -0.59462261 2.5233808
-1.324043 -0.59697843 2.5072441
-1.2839978 -0.59384942 2.5067616
-1.2496299 -0.59638178 2.5320492
-1.7678447 -0.50557625 2.504823
-1.7493063 -0.50429541 2.5062232
-1.6680148 -0.52618468 2.5052621
-1.6310887 -0.53355694 2.5307577
-1.577251 -0.54143298 2.5346248
-1.5205714 -0.54880267 2.5414746
-1.4912717 -0.54562962 2.5359144
-1.804279 -0.47629964 2.5336628
-1.7694417 -0.47271314 2.526382
-1.7444292 -0.49286976 2.5293372
-1.9689153 -0.42582479 2.5207829
-1.924457 -0.42404023 2.5269151
-1.8991423 -0.44457403 2.5148418
-1.7783064 -0.42815369 2.5384655
-2.004988 -0.37871781 2.5171263
-1.9751176 -0.37617704 2.5293894
-1.9363688 -0.38008952 2.5378766
-1.8937786 -0.37032005 2.5031807
-1.7798656 -0.35334522 2.5426359
-2.0137985 -0.32412532 2.5130773
-1.9765452 -0.32697159 2.5331943
-1.9281782 -0.31816649 2.5454266
-1.8899268 -0.32686946 2.5028136
-1.7662716 -0.32386777 2.5400431
-2.0075998 -0.2793884 2.5146093
-1.9745653 -0.27573994 2.5355208
-1.939208 -0.27488521 2.5455244
-1.8936543 -0.27253258 2.5408695
-1.8173885 -0.28400221 2.5466928
-1.7733326 -0.27598822 2.5369465
-1.7415893 -0.27285278 2.5367384
-2.0050993 -0.22201693 2.5137312
-1.974774 -0.22486584 2.5398064
-1.9030635 -0.20012626 2.530956
-1.8930008 -0.2284794 2.5295124
-1.7642763 -0.22751899 2.5424182
-1.9800287 -0.177403 2.5356514
-1.9020885 -0.17138191 2.531291
-1.8920277 -0.15740794 2.5463464
-1.7740281 -0.18997017 2.5476925
-1.97859 -0.12281027 2.5363846
-1.9065168 -0.13585417 2.5389032
-1.8911946 -0.14298491 2.5458856
-1.9708331 -0.07183779 2.5339015
-1.9204925 -0.066608243 2.5410142
-1.8828106 -0.078081317 2.5367501
-1.9682394 -0.023485467 2.529928
-1.934716 -0.028234111 2.5372367
-1.9688779 0.02038957 2.53742
-1.9796506 0.073270358 2.5390913
-1.9827656 0.12432427 2.5414038
-1.9829763 0.1752678 2.5391989
-1.9849825 0.22646847 2.5384114
-1.9797158 0.26313719 2.5427828
0.66404355 1.379009 2.5207901
0.66205382 1.4262984 2.5245814
0.66565335 1.4807856 2.5246272
0.66168833 1.5089034 2.5203362
0.6693393 1.5766876 2.5257733
0.66462153 1.6211882 2.5234723
0.67330551 1.674942 2.5199814
0.67588156 1.7252719 2.5261006
0.67891061 1.7756364 2.5226345
0.67758352 1.8299756 2.5331385
0.68647933 1.8748004 2.5269523
0.68183178 1.9182379 2.5243011
0.70419514 1.9344301 2.5032902
0.68973285 1.9705217 2.5175385
0.6855042 2.0213845 2.5264924
0.68484205 2.0690429 2.5346775
-2.7378361 2.3396285 2.522805
-2.4569337 2.3425748 2.5177293
-2.3187361 2.3253167 2.5320635
-2.2688518 2.3207986 2.5214214
-2.2216911 2.3231316 2.5248585
-2.1670654 2.3170159 2.5187857
-2.1173363 2.3197603 2.5137274
-2.0779762 2.3289196 2.523437
-2.0243361 2.3311999 2.5237491
-1.9633546 2.3251805 2.5292068
-1.920401 2.3288691 2.531379
-1.8696568 2.3159964 2.5016246
-1.8251595 2.3228927 2.5200512
-1.7761068 2.3332264 2.53248
-1.728431 2.3389306 2.5329623
-1.6710366 2.3247263 2.5220044
-1.6305584 2.3182604 2.5289409
-1.5788244 2.3141308 2.5386412
-1.5406349 2.3186028 2.5404127
-2.7169242 2.3575492 2.5232861
-1.2549846 -0.6086151 2.5911822
-1.2312423 -0.62824243 2.5815609
-1.1650819 -0.60889059 2.5719202
-1.1408172 -0.6050483 2.5777984
-1.4602972 -0.56311327 2.5690601
-1.4297218 -0.57089794 2.5802405
-1.3814195 -0.58172888 2.5815318
-1.3307557 -0.58866251 2.5780103
-1.2797487 -0.58736581 2.5736692
-1.1635886 -0.58994275 2.5979736
-1.0873889 -0.59835297 2.5947626
-1.6189765 -0.52406371 2.5617616
-1.569814 -0.52026445 2.5701108
-1.524986 -0.522434 2.580086
-1.4831012 -0.53111517 2.5876122
-1.7764866 -0.45886844 2.5820818
-1.9087095 -0.4138729 2.560442
-1.8772207 -0.42881063 2.5755575
-1.8304176 -0.42913541 2.5721416
-1.7744966 -0.4191184 2.5555179
-1.9087142 -0.37752596 2.564894
-1.8740395 -0.37497631 2.5806072
-1.8317112 -0.37688917 2.5746586
-1.7826122 -0.37994477 2.5598564
-1.9198041 -0.33086428 2.5565224
-1.8792427 -0.32490051 2.5753367
-1.8249356 -0.32932723 2.56721
-1.7730538 -0.31472382 2.5936968
-1.8871554 -0.2747269 2.5741286
-1.8343549 -0.27361551 2.5573306
-1.7569326 -0.28899279 2.5817277
-1.7438856 -0.25318345 2.5558081
-1.9301144 -0.21938534 2.5563242
-1.8813591 -0.22420198 2.5841062
-1.8261293 -0.22481611 2.5756049
-1.7621269 -0.22678249 2.5751626
-1.9589816 -0.16658318 2.550941
-1.9435438 -0.17378598 2.5583072
-1.8846219 -0.17457691 2.5813444
-1.8277633 -0.18345162 2.5853772
-1.7680925 -0.17146923 2.5587854
-1.9598175 -0.12173943 2.5596008
-1.9239739 -0.11525448 2.5588424
-1.8847513 -0.12269208 2.5870152
-1.8256323 -0.12625988 2.5963404
-1.7795597 -0.13031283 2.5754347
-1.9568613 -0.086533174 2.5512948
-1.9384757 -0.086373247 2.5551178
-1.8790454 -0.079115987 2.5875709
-1.8199162 -0.076059408 2.5896761
-1.7877302 -0.082380675 2.5887525
-1.9145172 -0.019645216 2.5578263
-1.8721504 -0.026472477 2.5753212
-1.8316463 -0.035406001 2.5880764
-1.9559404 0.044146243 2.5508244
-1.9245559 0.022336096 2.565521
-1.8776689 0.022256723 2.5864017
-1.8456798 0.00051722495 2.5986745
-1.9596227 0.073335022 2.555033
-1.9289701 0.073234379 2.5706167
-1.8805981 0.073017702 2.5896566
-1.9601924 0.12005832 2.5598736
-1.9258652 0.12816915 2.575464
-1.8790461 0.12092201 2.5916967
-1.9626023 0.17538857 2.5548019
-1.9240693 0.1751646 2.5740578
-1.8752092 0.17465694 2.5924599
-1.9608459 0.22701466 2.5632079
-1.9207826 0.2265781 2.5805364
-1.8800269 0.22601289 2.5958788
-1.9617169 0.26364076 2.5615406
-1.9212766 0.26307097 2.5784073
-1.8919123 0.26302391 2.5953782
0.64668715 1.3962969 2.5653813
0.64297062 1.4307113 2.5678914
0.63537031 1.479419 2.5808029
0.65107346 1.4747103 2.553586
0.64121526 1.5132145 2.5833719
0.65494245 1.5406183 2.5671546
0.66013581 1.579103 2.5507097
0.64899927 1.6000657 2.5579112
0.6589756 1.6959521 2.5613854
0.65741301 1.7326126 2.5652223
0.64325672 1.7739763 2.5958259
0.6572482 1.7739521 2.5629625
0.64847291 1.8250103 2.5966568
0.66451108 1.8230644 2.5693893
0.66272259 1.8772637 2.5753148
0.66200292 1.9310375 2.5762403
0.66884792 1.9811153 2.566386
0.65759075 2.0224769 2.5828865
0.66533822 2.0764329 2.5745945
0.64871001 2.1195705 2.5979755
0.66352975 2.1178727 2.5926371
-2.7529912 2.3413749 2.5657105
-2.5038581 2.3397381 2.5989161
-2.4861727 2.342118 2.5674231
-2.3584344 2.327883 2.5865405
-2.3287215 2.3260345 2.5810199
-2.2777898 2.321007 2.5693064
-2.2318463 2.3204548 2.5701191
-2.1707423 2.32214 2.5703092
-2.1171627 2.3212261 2.5607734
-2.0663781 2.3325682 2.5704355
-2.0335927 2.3347375 2.5741715
-1.979005 2.321564 2.5664415
-1.9285562 2.3229179 2.5800376
-1.8775476 2.3258667 2.5790582
-1.8248001 2.3298695 2.5765033
-1.7714812 2.3325653 2.574796
-1.7234825 2.3339746 2.5782573
-1.6645091 2.3120501 2.5786405
-1.6254336 2.3124239 2.574939
-1.5688943 2.3135273 2.5789175
-1.5230734 2.3324566 2.57916
-1.4806675 2.3298681 2.5876923
-2.7409976 2.358923 2.5582972
-2.4723053 2.3562617 2.5799556
-1.2563545 -0.6022349 2.6293662
-1.2248355 -0.6190542 2.6212435
-1.1337297 -0.60531843 2.6147838
-1.4180256 -0.55829555 2.6072419
-1.3739561 -0.56295341 2.6293921
-1.3165193 -0.56095386 2.6233869
-1.2781638 -0.57806659 2.6268935
-1.2311877 -0.58960962 2.6456387
-1.179774 -0.58961213 2.6264851
-1.1180767 -0.59428078 2.6338084
-1.0740042 -0.58042705 2.6295505
-1.0459884 -0.58423179 2.6047747
-0.9809171 -0.59835255 2.6243758
-1.6168907 -0.50905597 2.6054554
-1.5512325 -0.50385189 2.6013601
-1.5079572 -0.50112522 2.6025925
-1.4662352 -0.50961488 2.6140378
-1.4280642 -0.52389497 2.6224797
-1.375597 -0.52637964 2.6363389
-1.3339534 -0.5346694 2.645051
-1.6043372 -0.47626239 2.6346755
-1.5689919 -0.4704718 2.6304011
-1.5400637 -0.48594972 2.6305249
-1.4198085 -0.49956334 2.6289711
-1.3697953 -0.49906835 2.6451037
-1.7728883 -0.42731634 2.6247947
-1.7312684 -0.43203673 2.6446013
-1.5790861 -0.42787904 2.6408932
-1.7736977 -0.37766057 2.6279414
-1.5754626 -0.37492675 2.6437469
-1.7664624 -0.32728654 2.6325128
-1.5671715 -0.32363459 2.634701
-1.547543 -0.32396945 2.6466219
-1.7573643 -0.27002117 2.6205146
-1.747839 -0.27456287 2.6466715
-1.6166003 -0.29095989 2.6450789
-1.5830908 -0.2820951 2.6399796
-1.5379387 -0.27607331 2.644124
-1.7692182 -0.22042605 2.6301587
-1.5646554 -0.22768196 2.6408515
-1.5416079 -0.23843898 2.6430922
-1.8506 -0.15882652 2.6019573
-1.8299037 -0.15829982 2.6011772
-1.7741213 -0.17459945 2.6306825
-1.5687672 -0.19705388 2.6466494
-1.8559229 -0.12273095 2.6037607
-1.8283528 -0.10046801 2.6011627
-1.7804437 -0.1223092 2.6313941
-1.841987 -0.08140073 2.6019878
-1.7715937 -0.071413584 2.6196938
-1.7300727 -0.059836198 2.6355948
-1.68608 -0.05685851 2.6495693
-1.8199706 -0.021120816 2.6047847
-1.779546 -0.026877355 2.6233275
-1.7382892 -0.033090379 2.6378164
-1.8502941 0.036728937 2.6049235
-1.821998 0.023408001 2.614702
-1.7745484 0.020458786 2.6345835
-1.7416954 0.014876574 2.6479461
-1.8504699 0.058460657 2.6048448
-1.8241277 0.074137449 2.6137183
-1.7738119 0.072724968 2.6371925
-1.7426358 0.079827018 2.6484356
-1.8521534 0.12619036 2.605211
-1.8236978 0.12307972 2.617615
-1.7779692 0.12285356 2.6392541
-1.8539299 0.17467554 2.6054909
-1.8273672 0.17490032 2.6249945
-1.7808306 0.17439929 2.6402359
-1.8684001 0.2263587 2.6083131
-1.8245957 0.22737196 2.62222
-1.7797115 0.22340666 2.641953
-1.8726826 0.26337996 2.611599
-1.8238424 0.26262122 2.6285565
-1.7746372 0.26177844 2.6436138
-1.7466514 0.27530459 2.6442881
0.63060206 1.4356784 2.6115608
0.6322189 1.4603182 2.6095166
0.64096409 1.7386384 2.6021175
0.6341573 1.781989 2.6250873
0.63536763 1.8314285 2.6340816
0.63739425 1.8718418 2.6288276
0.63827091 1.9299183 2.6286025
0.65781784 1.9033817 2.6040313
0.64097613 1.9674414 2.6175168
0.65202403 1.9905933 2.6070702
0.64097309 2.0304193 2.6333919
0.6392867 2.0759192 2.6278315
0.6418736 2.120688 2.6210325
-2.7771044 2.3405209 2.623971
-2.5104713 2.3356693 2.6361148
-2.4933257 2.3476768 2.6219137
-2.3242083 2.3307638 2.6408305
-2.2669046 2.3227658 2.6274183
-2.223839 2.3269649 2.6223912
-2.1728973 2.3256414 2.6208477
-2.1249719 2.3269217 2.6218317
-2.0871537 2.3351974 2.6204517
-2.0253832 2.330245 2.6205032
-1.9783552 2.3343873 2.6318192
-1.9158241 2.3117421 2.6197007
-1.8827833 2.3132946 2.6287975
-1.8253922 2.3139598 2.6193523
-1.7774897 2.3293805 2.6208568
-1.7262251 2.3232999 2.6208408
-1.6786356 2.3145325 2.6302743
-1.6175892 2.3097 2.6208506
-1.5770954 2.3276062 2.6366742
-1.5249484 2.3421159 2.6207519
-1.4742912 2.3337772 2.624712
-1.4349856 2.3336287 2.6248941
-1.3926722 2.3237464 2.6217246
-2.7615426 2.3539624 2.6365752
-2.7479141 2.3620472 2.6107361
-1.1641778 -0.60418099 2.6693256
-1.2669419 -0.5649302 2.6625896
-1.2250826 -0.56695378 2.6779854
-1.1789901 -0.58825445 2.6848044
-1.1189266 -0.57920581 2.675698
-1.0772555 -0.57027221 2.6762393
-1.0317752 -0.59375608 2.6732335
-0.91655135 -0.58833766 2.6926334
-0.87575537 -0.57397747 2.6881027
-0.83412844 -0.5714677 2.661793
-1.3176453 -0.52156836 2.6608911
-1.2753022 -0.52816874 2.6748052
-1.240809 -0.52805132 2.6940212
-1.4614009 -0.49747053 2.6919358
-1.4224123 -0.49382406 2.6832914
-1.3327577 -0.49729675 2.670197
-1.2906847 -0.49801704 2.6670921
-1.2274746 -0.49766675 2.6861324
-1.7122523 -0.42247811 2.6559658
-1.6778053 -0.42716727 2.6708539
-1.6335466 -0.42507726 2.674814
-1.5668521 -0.42339504 2.6619639
-1.7555159 -0.36299279 2.6503019
-1.7249616 -0.37721717 2.6610959
-1.6780446 -0.37650207 2.6770148
-1.6320704 -0.37430105 2.6780145
-1.554202 -0.37493119 2.6531534
-1.7208366 -0.32562292 2.6598182
-1.6754993 -0.32528123 2.6779411
-1.6247076 -0.32958344 2.6701615
-1.7206225 -0.27485594 2.6638458
-1.679386 -0.27251378 2.680021
-1.6256262 -0.26782507 2.6556678
-1.5414938 -0.27372813 2.6709268
-1.7274139 -0.22408707 2.6630836
-1.6748867 -0.22386758 2.6847317
-1.6246612 -0.22195163 2.6783295
-1.58075 -0.21181284 2.6510191
-1.5464711 -0.21805416 2.6527598
-1.7543199 -0.16989984 2.6558204
-1.7202941 -0.17340514 2.669745
-1.6746327 -0.17320447 2.6871388
-1.6286008 -0.1793682 2.6872602
-1.5683597 -0.16955394 2.66239
-1.5495028 -0.19730654 2.6591794
-1.7597796 -0.12180272 2.6566222
-1.7237281 -0.12334609 2.6725729
-1.6754836 -0.12264201 2.6905353
-1.6305295 -0.11898441 2.6950634
-1.5744214 -0.12757629 2.6744494
-1.7582595 -0.086552024 2.6574931
-1.7278159 -0.086497426 2.669781
-1.6728697 -0.073866613 2.6677103
-1.6243067 -0.069690935 2.6748197
-1.5771992 -0.086724162 2.6765332
-1.5290918 -0.084808923 2.6892636
-1.4278549 -0.09793371 2.6927338
-1.376513 -0.097301342 2.6906288
-1.7163944 -0.025493026 2.6559873
-1.6749104 -0.027055388 2.6724997
-1.6313095 -0.030419102 2.6894991
-1.7220186 0.024474083 2.6567519
-1.6764528 0.022052409 2.6790123
-1.6363738 0.017696124 2.695267
-1.7217233 0.070819445 2.6605387
-1.6756585 0.072574548 2.6811056
-1.641286 0.072546877 2.6965864
-1.7642851 0.13088489 2.6503491
-1.7250916 0.1237899 2.6612005
-1.6742388 0.12264061 2.6836984
-1.642786 0.10871235 2.6981196
-1.7667496 0.17460492 2.6520765
-1.7267671 0.1742086 2.6645806
-1.6732863 0.17389145 2.6846225
-1.6452935 0.18843444 2.6988833
-1.751345 0.222853 2.6552484
-1.7242514 0.22578348 2.6679492
-1.6767915 0.22497296 2.6873238
-1.646138 0.22472443 2.6981149
-1.7508929 0.26147127 2.6518557
-1.7308989 0.27531603 2.6755867
-1.6836779 0.27468577 2.6911085
0.62036103 1.887906 2.6649375
0.61561221 1.9191353 2.6654162
0.61528826 1.9756159 2.6787076
0.62248051 2.0259514 2.6737645
0.61726779 2.0738053 2.6814704
0.61824656 2.1275055 2.6755555
0.61392772 2.1692686 2.6766534
-2.8014865 2.3312061 2.6662428
-2.7857304 2.3445821 2.6791525
-2.5336509 2.3468201 2.6913519
-2.4177129 2.3290687 2.6924434
-2.3593032 2.3281159 2.6836345
-2.3316047 2.3287377 2.6804209
-2.2818954 2.3258915 2.6863611
-2.2371812 2.327374 2.672786
-2.1726241 2.3265686 2.6691883
-2.1197627 2.328038 2.6771305
-2.0824966 2.3358517 2.6777058
-2.0209737 2.3261423 2.6676211
-1.9749302 2.3244567 2.6834385
-1.9305329 2.3235712 2.6880016
-1.8648224 2.3158689 2.6725185
-1.8216901 2.3240075 2.6693351
-1.7699744 2.3221657 2.6690304
-1.7232258 2.3165197 2.673136
-1.6723093 2.3067398 2.6861506
-1.6247464 2.3120241 2.6666298
-1.5743124 2.3345318 2.6811397
-1.5263152 2.3385355 2.6687157
-1.4694414 2.3318584 2.6716452
-1.4157112 2.3309293 2.658215
-1.374463 2.3415997 2.6736701
-1.3217201 2.3353543 2.6790314
-1.285569 2.3431764 2.6961734
-1.0053778 -0.60374802 2.7121639
-0.97089356 -0.60362858 2.7202728
-1.206556 -0.55610126 2.702482
-1.1754029 -0.56897241 2.7200692
-1.1338702 -0.56845164 2.7142596
-1.0713689 -0.56387699 2.7182922
-1.0226464 -0.58784348 2.7296538
-0.98094523 -0.59046334 2.7405622
-0.93776351 -0.59066176 2.7341533
-0.89284295 -0.56772017 2.7354462
-0.84138405 -0.57215303 2.7333109
-1.5381384 -0.50394398 2.7033277
-1.4620811 -0.50260049 2.7253785
-1.4265504 -0.50275391 2.7400551
-1.2138784 -0.52899092 2.7186625
-1.1752536 -0.52680594 2.7350912
-1.1287184 -0.53797698 2.7366192
-1.0932209 -0.54121089 2.7326663
-1.5646464 -0.46215993 2.7082717
-1.5219176 -0.46238136 2.7277513
-1.4084477 -0.47358346 2.7474606
-1.3745333 -0.47697517 2.7279825
-1.3321315 -0.48005873 2.7318115
-1.2715685 -0.48314542 2.7147353
-1.2315893 -0.48366636 2.7222407
-1.1908777 -0.49973676 2.7105319
-1.5666275 -0.42655328 2.7160618
-1.529761 -0.42961326 2.7389605
-1.3717463 -0.44152534 2.7399106
-1.3491536 -0.41266379 2.7483013
-0.016373834 -0.42707989 2.733552
0.019100403 -0.42371145 2.7290719
-1.5666914 -0.37594914 2.7217109
-1.5401134 -0.37653247 2.7381451
-1.3670517 -0.37612817 2.7373161
-1.3452826 -0.37601253 2.7440193
-0.0097696884 -0.39301616 2.7283642
0.021738317 -0.39101958 2.7329082
-1.5616964 -0.33147714 2.717207
-1.5385056 -0.32257262 2.7349722
-1.3675802 -0.33115807 2.7323561
-1.3389827 -0.32477501 2.7356923
-1.5314747 -0.27353159 2.7316282
-1.4119319 -0.29997209 2.7495477
-1.3638042 -0.25477737 2.740725
-1.3304024 -0.27785853 2.7443726
-1.2434603 -0.28700852 2.7432995
-1.5596831 -0.22295 2.7217588
-1.5420198 -0.22831622 2.7438984
-1.3610348 -0.22905326 2.7400942
-1.3393621 -0.22590296 2.7435181
-1.6367396 -0.15859036 2.7017279
-1.5633806 -0.17296414 2.7308807
-1.5409956 -0.1769179 2.7464216
-1.3651388 -0.19829917 2.7467697
-1.6447856 -0.14420666 2.7003953
-1.5602175 -0.12938266 2.7270939
-1.5412332 -0.11787877 2.7348695
-1.4050133 -0.11354367 2.745966
-1.3782103 -0.11310444 2.7428808
-1.3231786 -0.11146421 2.7151148
-1.2783633 -0.12098861 2.7345343
-1.2339816 -0.11101183 2.7311699
-1.5690969 -0.068948232 2.7077525
-1.5228565 -0.069934711 2.728457
-1.4782827 -0.082137495 2.7305565
-1.3547378 -0.097752951 2.7130003
-1.3285002 -0.097894669 2.7265055
-1.2830994 -0.097655155 2.7336681
-1.6084423 -0.028410405 2.7035856
-1.575232 -0.027123617 2.7197993
-1.5275707 -0.031659696 2.7395477
-1.6173712 0.02510491 2.7054069
-1.5747405 0.021978609 2.7231607
-1.5326811 0.021971781 2.7434385
-1.6201544 0.072550721 2.7072113
-1.575076 0.07245037 2.7230551
-1.5328074 0.072473988 2.7430038
-1.6259887 0.12607753 2.7062209
-1.5772803 0.12308209 2.7254512
-1.534366 0.123093 2.7444103
-1.6260198 0.17396057 2.7083311
-1.5762786 0.17241138 2.7259912
-1.5396491 0.1702193 2.7440302
-1.6179118 0.22480868 2.7124014
-1.5734316 0.22464003 2.7295516
-1.5422029 0.2232637 2.7441499
-1.7262503 0.29365647 2.7007093
-1.6510545 0.27619177 2.702616
-1.6241596 0.26755151 2.7111454
-1.5740219 0.26813784 2.7276852
-1.5336914 0.27163318 2.7431502
-1.4975697 0.27459109 2.7496195
0.60195917 1.9636003 2.7011573
0.5906744 2.0213275 2.722687
0.60802269 2.0221548 2.7052169
0.59073848 2.0662777 2.7226548
0.59263992 2.108469 2.7275622
0.60060692 2.1204278 2.7005796
0.58763301 2.172689 2.7341866
0.58967459 2.2151122 2.7322659
-2.5671492 2.3403189 2.7050922
-2.5466042 2.3393071 2.7186251
-2.4219146 2.3323438 2.7463577
-2.3706067 2.3202348 2.7100918
-2.3020277 2.3274758 2.7237892
-2.2614253 2.3245513 2.7471297
-2.2176454 2.3365698 2.7272573
-2.1677237 2.3325615 2.7304745
-2.1200268 2.3301034 2.7270517
-2.0735674 2.3379562 2.7255208
-2.0114193 2.3185582 2.7169962
-1.9715052 2.3235373 2.7286489
-1.9222884 2.3269389 2.7281139
-1.8803269 2.3281999 2.7266557
-1.8260536 2.3226793 2.7241256
-1.7760838 2.3249509 2.7187865
-1.7283719 2.3152604 2.7260413
-1.6731224 2.3145399 2.7386906
-1.6311821 2.3121681 2.7267964
-1.5770624 2.3314795 2.7263978
-1.5225115 2.3371675 2.7209816
-1.4749897 2.3382418 2.7319505
-1.4228356 2.3383908 2.7182984
-1.3715941 2.3402467 2.7288866
-1.3227801 2.3384495 2.728909
-1.2815342 2.3377371 2.7358685
-1.231564 2.3372681 2.7100027
-1.1825547 2.3407516 2.7336929
-1.3785841 2.3521159 2.7427742
-1.2728904 2.3510947 2.712333
-1.063911 -0.5651229 2.7738464
-1.0285504 -0.57192421 2.7770996
-0.9772476 -0.5770703 2.7802908
-0.92473227 -0.57477224 2.7645657
-0.87341899 -0.55860996 2.7733884
-0.82068449 -0.58850497 2.7846003
-0.79500115 -0.59183681 2.7707546
-0.72790641 -0.59326988 2.7902691
-0.62430739 -0.58328342 2.7755544
-0.56404322 -0.5808751 2.7552109
-1.1566446 -0.52010924 2.757791
-1.1217973 -0.51641345 2.7648699
-1.085886 -0.53040051 2.7820446
-0.91800469 -0.54438078 2.7943573
-1.4763578 -0.4639819 2.7575538
-1.433506 -0.46909302 2.7580292
-1.3280077 -0.47034702 2.7742927
-1.2755369 -0.46402371 2.761359
-1.2195103 -0.48756999 2.760076
-1.1804242 -0.49606907 2.7800975
-1.1305894 -0.49598241 2.7940166
-1.5054319 -0.41320616 2.7520406
-1.4770862 -0.42792618 2.763171
-1.4294615 -0.42671397 2.7719345
-1.3649938 -0.42667776 2.772625
-1.2704114 -0.42440554 2.7908843
0.056652363 -0.41275203 2.7713096
-1.5130048 -0.37701353 2.7534702
-1.4756676 -0.37675875 2.7659028
-1.4269114 -0.37539306 2.772223
-1.2645974 -0.37025833 2.7833827
0.029975595 -0.38072133 2.7673855
-1.5108396 -0.32575998 2.7542326
-1.4749213 -0.32584256 2.7691545
-1.4339535 -0.3276749 2.7711978
-1.3981588 -0.34299847 2.7522748
-1.3453528 -0.32984176 2.7830312
-1.2583387 -0.33297056 2.7727733
-1.248024 -0.30914268 2.7517717
-1.5016172 -0.28191611 2.7570276
-1.4767935 -0.27347142 2.7702041
-1.4313599 -0.27368435 2.7727242
-1.3971943 -0.25700536 2.7570524
-1.3284018 -0.27643627 2.7726154
-1.267683 -0.25687957 2.7991993
-1.2482684 -0.26701 2.7554021
-1.51554 -0.22214125 2.7570481
-1.4739437 -0.22422503 2.7745736
-1.4278008 -0.22164622 2.7827501
-1.3886268 -0.22822563 2.758533
-1.3446369 -0.22919272 2.7886798
-1.5153792 -0.17167787 2.7604842
-1.4740747 -0.17354198 2.7774227
-1.4270414 -0.17312217 2.7868125
-1.3712655 -0.17067152 2.7603951
-1.3455499 -0.17723618 2.7587438
-1.5201725 -0.13200001 2.757544
-1.4754604 -0.12843835 2.7698247
-1.4271594 -0.13374326 2.7838161
-1.3716699 -0.13512957 2.7625904
-1.3327246 -0.13089977 2.7596731
-1.2339265 -0.12100276 2.7736669
-1.4630506 -0.060797073 2.7600169
-1.4249804 -0.07288228 2.7738109
-1.3878778 -0.074614301 2.793499
-1.2594293 -0.098554105 2.7700319
-1.5121077 -0.014111681 2.7542746
-1.4736952 -0.028515624 2.7640278
-1.4254137 -0.02858248 2.7873499
-1.5111784 0.021964652 2.7524793
-1.4753299 0.02196149 2.7670684
-1.4261383 0.021958834 2.7887418
-1.397259 0.029159689 2.7992427
-1.5111351 0.07246045 2.7517405
-1.4751229 0.072447509 2.7660606
-1.4278748 0.072589912 2.7915006
-1.5113833 0.12755223 2.757092
-1.4758611 0.12168493 2.7693949
-1.4299902 0.12130065 2.791302
-1.5137331 0.17576188 2.7569778
-1.4722247 0.17395167 2.7736306
-1.4338605 0.17611051 2.79019
-1.5156941 0.22548069 2.7567444
-1.4743406 0.22491531 2.7749031
-1.4316262 0.22502351 2.7928412
-1.5167557 0.26097727 2.753432
-1.4746603 0.26844203 2.7726917
-1.4307705 0.27507186 2.7822163
-1.3999469 0.28969193 2.7937543
-1.4036604 0.31789815 2.7818742
-1.3990576 0.30397019 2.7908599
0.57913649 2.1414258 2.7636468
0.57175732 2.1645911 2.7746477
0.56666434 2.2250865 2.7870567
0.56026173 2.2580955 2.7923861
-2.5707791 2.3411553 2.7745311
-2.3172264 2.3237772 2.7804775
-2.2806051 2.3251932 2.7841365
-2.2196426 2.3301859 2.7866948
-2.18133 2.3384683 2.7796953
-2.123744 2.3260393 2.7720904
-2.0734322 2.3339813 2.7802954
-2.0251074 2.3265059 2.767504
-1.9699932 2.324487 2.7686167
-1.9163898 2.3235826 2.7702713
-1.8700086 2.3310032 2.7811058
-1.8122412 2.3217769 2.7563806
-1.7698839 2.3133738 2.7667732
-1.7288545 2.3064485 2.7784057
-1.6136132 2.3279407 2.7772083
-1.5740926 2.3293145 2.7724385
-1.5315716 2.3368886 2.7809513
-1.4702002 2.3324747 2.7747202
-1.4174011 2.335958 2.7685664
-1.3735275 2.3322139 2.7730045
-1.3276361 2.3364141 2.7796724
-1.2745528 2.3392355 2.7774851
-1.2255707 2.3408844 2.7679107
-1.1818824 2.3433867 2.782382
-1.1248436 2.3444629 2.7775209
-1.0624872 2.3376558 2.7719691
-1.0328177 2.3471737 2.7942743
-2.3892021 2.3572989 2.7674174
-1.1567242 2.3572106 2.7655742
-1.1195797 2.3508992 2.7703025
-1.0891376 2.3587091 2.791235
-1.0589734 -0.55232871 2.8041461
-1.0282103 -0.55958951 2.8254573
-0.9685359 -0.56109101 2.8251557
-0.93287212 -0.56307584 2.8145397
-0.85833967 -0.56043875 2.8165946
-0.82706743 -0.57440037 2.829257
-0.77606082 -0.58104616 2.8278637
-0.72736657 -0.57955563 2.8362615
-0.67376554 -0.56194431 2.8261478
-0.62179273 -0.57210541 2.8200824
-0.57529908 -0.57868803 2.8121109
-0.53948897 -0.57076842 2.8486471
-0.48470622 -0.55686855 2.8204253
-1.0662113 -0.5235467 2.8155501
-1.0293926 -0.53216362 2.834893
-0.91303134 -0.53920054 2.826685
-0.8814981 -0.54775077 2.8208656
-1.3251518 -0.45718661 2.8164368
-1.2743262 -0.45866308 2.8330531
-1.232078 -0.48395428 2.8276346
-1.1700519 -0.48078477 2.8413486
-1.12422 -0.47941774 2.8199704
-1.0929686 -0.49823838 2.818521
-1.3266484 -0.42550912 2.8231418
-1.2773372 -0.42517212 2.8311017
-1.1571584 -0.42518663 2.8488173
-1.3559028 -0.37577483 2.8009641
-1.3271465 -0.3779017 2.829047
-1.16655 -0.37068534 2.8415456
-1.1445042 -0.37296078 2.8422754
-1.3245898 -0.32987577 2.8236132
-1.278922 -0.32042107 2.8318176
-1.166109 -0.33707595 2.8394017
-1.1356473 -0.32871106 2.8371067
-1.3197669 -0.27093828 2.8218522
-1.2802688 -0.27734101 2.8331063
-1.1557441 -0.25743756 2.8393869
-1.134043 -0.26455379 2.8443704
-1.3521053 -0.20165865 2.8057477
-1.3233653 -0.22454087 2.8323951
-1.2727613 -0.22201735 2.8125167
-1.156949 -0.23621559 2.8436236
-1.1424948 -0.23619041 2.847333
-1.3541158 -0.17306836 2.8112543
-1.3252784 -0.17510532 2.8340449
-1.2872214 -0.16971356 2.8379304
-1.3508351 -0.14383428 2.8055966
-1.329295 -0.14463775 2.8308363
-1.2773906 -0.12937917 2.8266523
-1.2162577 -0.12103248 2.8177729
-1.174981 -0.12811767 2.8274925
-1.1412416 -0.13576043 2.8486712
-1.3621271 -0.069767885 2.8060205
-1.3228049 -0.071821719 2.8188803
-1.2844445 -0.076631896 2.8315437
-1.3770398 -0.028642803 2.8098488
-1.3216852 -0.028717972 2.8348598
-1.3761586 0.02147807 2.8115196
-1.3229287 0.021993982 2.8374958
-1.3785459 0.07263466 2.8122976
-1.3236231 0.072777539 2.8383648
-1.4064583 0.14032803 2.8037503
-1.3759466 0.12127963 2.8131602
-1.3241476 0.12360096 2.8381906
-1.4073751 0.17123316 2.8020298
-1.373372 0.17421645 2.8158164
-1.3254644 0.17456965 2.8390906
-1.4031352 0.2250891 2.8044558
-1.3730441 0.22766478 2.8223755
-1.3299179 0.22120942 2.8413897
-1.4142754 0.26934081 2.8067708
-1.3750037 0.27575266 2.8260865
-1.3390408 0.27027819 2.8448005
-1.4035447 0.32843524 2.8152328
-1.3888582 0.31332809 2.8319898
0.56527829 0.32831228 2.8308001
0.56276762 0.36039186 2.8255892
0.54165065 2.1753483 2.8311052
0.55771601 2.1826267 2.822262
0.5450471 2.2300179 2.8225868
0.5589292 2.2037113 2.8179743
0.53914911 2.278713 2.8328936
-2.3640006 2.3317926 2.8386862
-2.3143063 2.3401978 2.8390706
-2.2762847 2.3306718 2.8225038
-2.2178049 2.3321607 2.8242404
-2.1711001 2.338984 2.8358383
-2.1231303 2.3365607 2.8151884
-2.0739686 2.3236539 2.8239729
-2.0252261 2.3293898 2.8185415
-1.9703439 2.3281984 2.8200986
-1.9174404 2.328697 2.822932
-1.8799616 2.3264606 2.8264358
-1.8265873 2.331362 2.8214896
-1.7957721 2.3290281 2.8206463
-1.7166286 2.3203061 2.8495383
-1.6633606 2.3236716 2.8200336
-1.6220539 2.3356953 2.829102
-1.5676637 2.3267357 2.8251839
-1.5226214 2.3361454 2.8277562
-1.4673061 2.3382373 2.8236072
-1.4246348 2.3359413 2.823041
-1.3719518 2.3329537 2.8317223
-1.3362012 2.3383315 2.8290613
-1.2789707 2.3381829 2.8242807
-1.2262329 2.3408701 2.8260796
-1.1804502 2.3417289 2.819885
-1.1198472 2.3468029 2.8240614
-1.0856926 2.344012 2.8257844
-1.0222781 2.3449316 2.8295619
-0.98496127 2.3462 2.8251445
-0.92546248 2.3336504 2.8085282
-0.89774203 2.3495693 2.8370512
-1.1532933 2.3508279 2.8299816
-1.0597963 2.3608851 2.8215146
-1.0170681 2.3500593 2.803066
-0.95912629 2.3540416 2.8257508
-0.91551268 2.3515055 2.8347533
-0.87338859 2.3527174 2.8476083
-0.85912818 -0.55600435 2.8707969
-0.81930995 -0.55909967 2.8758092
-0.7809155 -0.56263143 2.8745389
-0.7251758 -0.56132698 2.8772392
-0.66005629 -0.55056286 2.8766382
-0.62394536 -0.55990946 2.8702805
-0.57385516 -0.5648039 2.8711939
-0.53259683 -0.55702305 2.8711751
-0.46145678 -0.56358725 2.8947608
-1.0751048 -0.50320894 2.8542271
-1.0269674 -0.50791031 2.8653533
-0.98001772 -0.52859819 2.8678324
-0.92573279 -0.52885097 2.8682678
-0.88557285 -0.53909552 2.8728268
-0.68176156 -0.54389393 2.8764167
-0.51706398 -0.54869688 2.8860121
-1.2513641 -0.45944902 2.8561845
-1.2179178 -0.46399036 2.8592303
-1.1742088 -0.46802482 2.8531084
-1.1192538 -0.48429757 2.8833623
-1.2669146 -0.42258841 2.868742
-1.2268668 -0.42456853 2.8799553
-1.1693115 -0.42645437 2.8548617
-1.1402687 -0.42694765 2.8668342
-1.2703367 -0.375586 2.8737612
-1.2286949 -0.37548637 2.8854456
-1.182321 -0.39028969 2.8547735
-1.1399544 -0.37620464 2.87096
-1.2643796 -0.32229882 2.8802004
-1.2169715 -0.32983506 2.8715153
-1.1284201 -0.32426074 2.8663468
-1.2647141 -0.27837107 2.8841655
-1.2188905 -0.27109486 2.8816209
-1.1781175 -0.2592065 2.8548324
-1.1279622 -0.27433419 2.8756142
-1.270143 -0.22672963 2.8807271
-1.2250068 -0.2267694 2.8949287
-1.1739367 -0.21848631 2.8599956
-1.1396886 -0.21837632 2.8680217
-1.268603 -0.17527086 2.8797405
-1.2286448 -0.16957337 2.8945484
-1.1716243 -0.17330246 2.8715119
-1.1443083 -0.17330573 2.8790977
-1.2591678 -0.12781718 2.8674445
-1.2208974 -0.12474743 2.8855491
-1.1778063 -0.12995081 2.8731534
-1.1294731 -0.13693947 2.8793778
-1.2662587 -0.069433145 2.8732867
-1.2328724 -0.072952397 2.8956983
-1.2720312 -0.028936878 2.8722286
-1.240925 -0.02906771 2.8957398
-1.2729394 0.022119138 2.874295
-1.2422532 0.019766496 2.8988345
-1.2744859 0.073277563 2.8771374
-1.2425296 0.058863141 2.8991203
-1.2747135 0.12442379 2.8763709
-1.277415 0.17700151 2.8754029
-1.3075486 0.23336317 2.851717
-1.2822788 0.22545893 2.8760266
0.54989702 0.23822251 2.8960769
-1.3637017 0.29433945 2.8594224
-1.323756 0.28266624 2.8655992
-1.2875938 0.27698919 2.8789959
