ply
format ascii 1.0
comment PCL generated
element vertex 1533
property float x
property float y
property float z
element camera 0
property float view_px
property float view_py
property float view_pz
property float x_axisx
property float x_axisy
property float x_axisz
property float y_axisx
property float y_axisy
property float y_axisz
property float z_axisx
property float z_axisy
property float z_axisz
property float focal
property float scalex
property float scaley
property float centerx
property float centery
property int viewportx
property int viewporty
property float k1
property float k2
end_header
-2.929342 2.1674204 3.8328252
-2.9287424 2.2243226 3.8220584
-2.918525 2.282342 3.8311775
-2.9053371 2.3162737 3.82862
-2.8897934 2.3372386 3.8190579
-2.7738011 2.3435183 3.8388824
-1.8796465 2.3464494 3.816911
-1.7323692 2.3469772 3.8216312
-1.6319046 2.3491378 3.8099709
-2.8689122 2.3537099 3.8022046
-2.8333821 2.3636613 3.8492565
-2.7361019 2.3550897 3.8214135
-2.6793733 2.3700945 3.8239031
-2.6236649 2.362102 3.8388798
-2.5785728 2.3655167 3.8079464
-2.4635029 2.3671772 3.8134742
-2.4293251 2.3904104 3.8205142
-2.391964 2.3760991 3.8099203
-2.3450801 2.3748357 3.8318849
-2.2614086 2.3589306 3.8406167
-2.1553595 2.364701 3.8450203
-2.1273465 2.3685598 3.8086286
-2.0609386 2.356441 3.8145354
-2.0198426 2.3603249 3.8404381
-1.9289327 2.3531153 3.8097761
-1.8627735 2.352814 3.8360338
-1.8292165 2.3598616 3.8095129
-1.782869 2.3563201 3.8205957
-1.7129285 2.3609419 3.8292189
-1.6829615 2.3603332 3.8129706
-1.615154 2.3561208 3.8286686
-1.5769745 2.3600047 3.831773
-1.4760343 2.3625307 3.835047
-1.4222811 2.3645282 3.8253388
-1.3235559 2.3609436 3.827528
-1.2742524 2.3619461 3.826566
-1.2320969 2.3698263 3.819551
-1.1771923 2.365808 3.8260868
-1.1179938 2.3666348 3.8258924
-1.0826905 2.3649473 3.8000927
-1.0229505 2.3579056 3.8315241
-0.98043609 2.3707156 3.831356
-0.92158645 2.3699951 3.8263309
-0.84608799 2.3677714 3.8061042
-0.77848577 2.3832979 3.8430076
-0.71358383 2.3758888 3.8403664
-0.65557235 2.3753378 3.8033454
-0.63103139 2.3797121 3.8283215
-0.5751639 2.3842382 3.827795
-0.52101088 2.3739152 3.816895
-0.47039676 2.3788555 3.8299286
-0.4275651 2.3842881 3.8137074
-0.37664396 2.3742645 3.830363
-0.31704852 2.3795624 3.8143721
-0.27336806 2.3943682 3.8263836
-0.21734384 2.3827751 3.8276691
-0.16968462 2.3873658 3.8197253
-0.11844892 2.3913214 3.8275394
-0.077332295 2.3945103 3.8334463
-0.015425568 2.3747764 3.8452005
0.025792189 2.3887656 3.8247795
0.14919746 2.3868282 3.8195419
0.16967584 2.3855267 3.8168087
0.2209582 2.3841224 3.8125579
0.27386513 2.3767517 3.8410313
0.32507735 2.3739095 3.8334103
0.38239485 2.3825502 3.8326278
0.41780773 2.3936501 3.8153393
0.46938735 2.3935513 3.810595
0.52384514 2.392925 3.8331115
0.57654417 2.3897171 3.8366723
0.68120253 2.3924656 3.8280337
0.72327864 2.3940368 3.8246875
0.77457231 2.3917089 3.8130918
0.81814766 2.3976221 3.8158634
0.87242287 2.3931148 3.8214977
0.90798074 2.3938177 3.8387723
1.022923 2.3925879 3.8142116
1.1173265 2.3941174 3.8423152
1.1508596 2.3978002 3.840905
1.2738886 2.3838758 3.8216119
1.3219776 2.3791785 3.8124094
1.3776914 2.3876212 3.8236859
1.4315562 2.3812623 3.8331852
1.4818585 2.393276 3.8395176
1.523735 2.3805566 3.8283222
1.5576231 2.3938086 3.816443
1.6226904 2.3887095 3.8357177
1.663934 2.3856061 3.8157306
1.7350686 2.3872504 3.8448226
1.7819467 2.3914237 3.8352563
1.8247427 2.3900526 3.8162239
2.000083 2.3944457 3.8061018
2.0806324 2.3884599 3.8139615
2.13117 2.395138 3.8039985
2.2201884 2.3964295 3.8214574
2.3302052 2.3940535 3.8203261
-0.087665379 2.404325 3.8275976
0.53270614 2.4001317 3.8148463
0.5638414 2.4005938 3.8121789
0.63791251 2.4069545 3.8135035
0.65206665 2.4000297 3.8443124
0.77869147 2.4044981 3.8335335
0.83992863 2.4003074 3.8166387
0.93197256 2.4015524 3.8472788
0.96082258 2.4053061 3.8254056
1.0691108 2.4021389 3.8204482
1.1027663 2.4066465 3.8206046
-2.0102863 -0.50341254 3.8610144
-2.0227337 -0.47119236 3.872525
-2.0255439 -0.42385873 3.8740737
-2.0264254 -0.37167728 3.8563883
-2.0318222 -0.32226834 3.8698895
-2.0310156 -0.28180948 3.87063
-2.0410564 -0.24268641 3.8917174
-2.1579356 0.14264734 3.8607521
-2.122741 0.13041314 3.8738339
-2.1676116 0.17391595 3.877099
-2.1240754 0.17365673 3.8885851
-2.3694339 0.24944845 3.8660362
-2.3143172 0.24906744 3.8840456
-2.1694586 0.22937731 3.8827357
-2.1267164 0.23505458 3.8910217
-2.0875084 0.22393034 3.8875959
-2.489388 0.2731635 3.8617539
-2.3749971 0.28122485 3.8734725
-2.3258305 0.27507964 3.8799007
-2.1711524 0.27634674 3.8789759
-2.1319687 0.27271336 3.8912165
-2.5008979 0.33761311 3.8757379
-2.4969387 0.3160497 3.8709788
-2.3762302 0.3229582 3.8729827
-2.3278775 0.32201439 3.880621
-2.1725838 0.32767534 3.8785737
-2.1402051 0.30695143 3.8892424
-2.5053802 0.36988068 3.880434
-2.4059682 0.39554417 3.8508584
-2.3751369 0.37864554 3.8837569
-2.3133671 0.37319562 3.8748581
-2.1790049 0.37990972 3.8865652
-2.5077293 0.42307097 3.8798542
-2.4090133 0.42727518 3.8531601
-2.3799267 0.43085217 3.8842101
-2.3263216 0.42731643 3.8925092
-2.174094 0.42322269 3.8879986
-2.5078034 0.46527061 3.8762696
-2.4679213 0.48475766 3.8768885
-2.4088321 0.47090247 3.8708549
-2.3190486 0.47789252 3.8757353
-2.1826427 0.4730089 3.8854606
-2.4219415 0.50497997 3.8888397
-2.320642 0.5301441 3.8732917
-2.1718447 0.5242281 3.8838596
-2.3283138 0.57353413 3.8815975
-2.2043042 0.59658545 3.8661194
-2.1733866 0.57411361 3.887074
-2.1190348 0.59567875 3.8943567
-2.3351624 0.6275053 3.8868532
-2.1820831 0.62663794 3.8818676
-2.1221213 0.62434888 3.8735499
-2.2153845 0.6893419 3.8514767
-2.1904993 0.6705972 3.8778808
-2.1364057 0.65945905 3.8958344
-2.9201934 1.7893784 3.8782172
-2.9189928 1.8322383 3.8764966
-2.9156046 1.8738467 3.8714416
-2.9123664 1.9390267 3.8561957
-2.9275644 1.9843783 3.8609414
-2.9256051 2.0227189 3.8943195
-2.9211299 2.0763879 3.8807352
-2.9176204 2.1190569 3.8732693
-2.9223785 2.1798744 3.8704863
-2.9183359 2.2166321 3.8829203
-2.9181516 2.2665114 3.876492
-2.9025159 2.3091056 3.8848279
-2.8889208 2.3319101 3.8780463
-2.7831683 2.3376398 3.8882787
-2.7203135 2.348351 3.8832662
-1.7496166 2.3483911 3.8704836
-2.8724749 2.3522792 3.8671417
-2.7064819 2.3600159 3.8511388
-2.6738374 2.3624046 3.8762636
-2.5924799 2.3655989 3.8649919
-2.5231194 2.3787401 3.8690464
-2.4515564 2.3658848 3.879822
-2.4307268 2.3800364 3.8592715
-2.3765936 2.3720751 3.8706059
-2.327312 2.3801417 3.8826365
-2.2317266 2.3755703 3.8899193
-2.1040685 2.3576481 3.8541768
-2.0601463 2.3587265 3.8759303
-2.0246131 2.3565602 3.8869205
-1.9762371 2.361387 3.8611722
-1.8698504 2.3646059 3.8832648
-1.8098521 2.3554547 3.8616571
-1.7839758 2.3648646 3.8895221
-1.7311523 2.3531048 3.8861904
-1.6983255 2.360024 3.858609
-1.6301975 2.356272 3.8750188
-1.5707605 2.3596082 3.8753629
-1.527518 2.3542323 3.853806
-1.469044 2.3643463 3.8903213
-1.432523 2.3577452 3.8889918
-1.3834989 2.3586664 3.8799345
-1.3236629 2.3587549 3.8719451
-1.2660829 2.3619323 3.8685966
-1.2214105 2.3689406 3.8681524
-1.1792382 2.3556736 3.870939
-1.1228663 2.3636894 3.8821189
-1.0768127 2.3702033 3.8722248
-1.032598 2.3625107 3.87606
-0.97608674 2.3644953 3.8675423
-0.92325044 2.3643548 3.877259
-0.75267249 2.3798826 3.8862162
-0.72858554 2.3769772 3.869796
-0.67557991 2.3783989 3.8721268
-0.62292981 2.3772652 3.8769467
-0.56894386 2.3810697 3.8673186
-0.52841908 2.3865752 3.8807693
-0.47587177 2.38533 3.8838632
-0.43324012 2.3915145 3.8758817
-0.38084108 2.3800864 3.8832033
-0.32289821 2.3862517 3.8753903
-0.27577278 2.394536 3.8697653
-0.2381974 2.3866556 3.8879585
-0.16154891 2.3986309 3.8812993
-0.12949255 2.384469 3.8592591
-0.067648463 2.3961892 3.8794358
-0.025871541 2.3785963 3.8730335
0.026013153 2.3774681 3.8711531
0.077864639 2.3762803 3.8687282
0.11610162 2.3844836 3.8741295
0.17164107 2.3817408 3.8753252
0.22359316 2.3815475 3.873008
0.27525029 2.3679399 3.8700202
0.32779324 2.3728113 3.874959
0.36825216 2.3651731 3.8596621
0.40120363 2.3761973 3.8753138
0.48658413 2.3861425 3.8842802
0.50657403 2.3921661 3.8702025
0.57115954 2.3846612 3.8841617
0.62425542 2.3925195 3.8798192
0.68793815 2.3951297 3.8759179
0.72686803 2.3849521 3.8535886
0.77317274 2.3988805 3.8698356
0.83566731 2.3971496 3.8569565
0.87451726 2.3961792 3.8941953
0.93893063 2.3982496 3.8861721
0.96915823 2.3942978 3.8737254
1.0236191 2.3978407 3.8688755
1.087834 2.3991325 3.8574808
1.2790054 2.3767235 3.8674712
1.3264928 2.3850474 3.8696456
1.3736032 2.3923917 3.8697338
1.4342813 2.3821533 3.8832777
1.4684753 2.384938 3.8781762
1.5044044 2.3904073 3.8771765
1.5755458 2.3886206 3.8766198
1.6168809 2.3904672 3.892004
1.6714724 2.390219 3.8729751
1.7218145 2.3827348 3.8803158
1.7807124 2.3825045 3.8715434
1.8209392 2.3807855 3.8798323
2.0362585 2.3925946 3.8980892
2.0702446 2.392818 3.8837194
2.104033 2.3701606 3.8800023
2.1773238 2.388701 3.8843217
-0.18259056 2.4011164 3.8846207
0.62177992 2.4039443 3.8545399
0.6580407 2.4009469 3.8895214
0.80626673 2.4034753 3.8723085
0.91956878 2.4030936 3.8979321
1.0674691 2.4010603 3.8651907
-2.0218906 -0.49098155 3.9322047
-2.031091 -0.42718077 3.9079969
-2.0448532 -0.37881684 3.9382448
-2.0324972 -0.32562104 3.9176972
-2.0399606 -0.27135363 3.919426
-2.0352654 -0.24443276 3.9272852
-2.1311204 0.20488816 3.900383
-2.3532896 0.27189997 3.9039946
-2.1241629 0.28710201 3.906661
-2.1517134 0.33942249 3.9082446
-2.1302741 0.32900253 3.915473
-2.3574145 0.35601798 3.9057183
-2.1521902 0.38058746 3.9062963
-2.1288593 0.38008675 3.909441
-2.3580632 0.41886538 3.9020567
-2.1522012 0.4114134 3.9040029
-2.1249967 0.42240471 3.92226
-2.3772042 0.47289711 3.9069736
-2.1564894 0.47401705 3.9065483
-2.1257219 0.47357249 3.9145882
-2.4098873 0.53851372 3.9100404
-2.3838108 0.52310055 3.9175618
-2.1283734 0.5218702 3.9118776
-2.4227002 0.57568532 3.9496074
-2.3857803 0.58253044 3.9324853
-2.1251354 0.56650627 3.9089963
-2.396528 0.63828129 3.9439347
-2.1673746 0.64194679 3.9087029
-2.3875782 0.65707725 3.9265468
-2.1756654 0.66517603 3.9210668
-2.9062414 1.7834437 3.9098654
-2.9154406 1.8314939 3.931684
-2.9054508 1.8677917 3.9273024
-2.9104559 1.9272391 3.9286726
-2.9124832 1.9745114 3.9208379
-2.9188957 2.0344906 3.9322214
-2.9201927 2.0710928 3.9179969
-2.9055018 2.1492205 3.9123514
-2.9112697 2.1774168 3.9087164
-2.9052045 2.2149296 3.9366019
-2.8989327 2.234174 3.9163642
-2.9101334 2.2789812 3.9134495
-2.9043918 2.3055952 3.9477305
-2.8848827 2.3359971 3.9267678
-2.7711759 2.3476529 3.9196305
-1.9392451 2.3482163 3.9057105
-1.4513422 2.3490889 3.9177768
-1.4294376 2.3488171 3.9236007
-0.91278988 2.3494768 3.9465053
-2.8321576 2.3586082 3.9081736
-2.7541595 2.3535485 3.9439905
-2.6704044 2.3565431 3.9320135
-2.6226666 2.3694708 3.9223125
-2.5590131 2.3544168 3.9239416
-2.4773281 2.367312 3.9326279
-2.4270344 2.3758976 3.9147177
-2.3862333 2.3700294 3.9231021
-2.3222475 2.375299 3.9051974
-2.2943726 2.3702981 3.9083633
-2.2457197 2.3674746 3.9259295
-2.1516395 2.3627956 3.9008687
-2.1246233 2.3706272 3.9292016
-2.0764022 2.3546922 3.9177797
-1.9931659 2.3591425 3.905431
-1.9069856 2.3636255 3.9492366
-1.8793987 2.3796909 3.9363539
-1.8366799 2.3680162 3.9298344
-1.7750415 2.3602455 3.937526
-1.7212437 2.354907 3.9285486
-1.6855077 2.3661842 3.9271545
-1.6134893 2.3578258 3.9353771
-1.5746776 2.3711379 3.9210703
-1.5008647 2.358588 3.9206583
-1.4775195 2.3561661 3.923166
-1.3245541 2.3580182 3.9194126
-1.2768974 2.3636425 3.9255543
-1.2353944 2.3603487 3.9137704
-1.172273 2.3561056 3.9373443
-1.1303431 2.3580005 3.9180377
-1.0815135 2.3676059 3.9297314
-1.0220574 2.360553 3.9335706
-0.97669637 2.3650861 3.9267151
-0.91903627 2.3595026 3.9159989
-0.81921285 2.3685832 3.9023738
-0.76765776 2.3725905 3.9171677
-0.72396684 2.3682566 3.9161472
-0.67241758 2.3728139 3.9308269
-0.61857808 2.3797722 3.9266562
-0.57455885 2.3834147 3.9152033
-0.52606475 2.3749657 3.9242737
-0.47053686 2.3906472 3.9377525
-0.42321071 2.3889999 3.9242117
-0.36869591 2.3865619 3.9280088
-0.32102215 2.3796656 3.9308567
-0.28174677 2.3881664 3.9175675
-0.22613409 2.3880751 3.9275434
-0.1734582 2.3876824 3.9289346
-0.12091838 2.3991034 3.9270422
-0.078619584 2.3927689 3.9174519
-0.026159439 2.3837357 3.9252625
0.047457915 2.3809371 3.9426291
0.068460949 2.3787754 3.938818
0.12446716 2.3839662 3.9315965
0.27889347 2.3890476 3.9266474
0.43892348 2.3905592 3.9404178
0.49302119 2.3964908 3.9454734
0.51479882 2.3991735 3.9478402
0.59575099 2.3833718 3.9128075
0.61747497 2.385839 3.9143736
0.67348135 2.3973317 3.9265814
0.73637766 2.3950124 3.9140744
0.75201774 2.3898251 3.948848
0.82895231 2.3932805 3.9276094
0.87081659 2.3938994 3.937109
0.92444605 2.3944933 3.9287193
0.97395837 2.3848605 3.9030118
1.0190778 2.3908474 3.9044085
1.0788088 2.3943172 3.9216201
1.1039406 2.3915462 3.9351423
1.2283267 2.3814807 3.9370322
1.2684847 2.3895943 3.9253242
1.3319989 2.3928807 3.9310224
1.3822494 2.3857214 3.9045334
1.4239588 2.3848429 3.9285522
1.4843628 2.3888969 3.9308791
1.5167372 2.3770995 3.9248729
1.5900279 2.3775418 3.9283173
1.629648 2.3872066 3.93346
1.6804252 2.3809433 3.904568
1.745291 2.387351 3.9469349
1.9241771 2.3934305 3.9460599
1.9741161 2.3992889 3.9374831
2.0280797 2.3848782 3.9144745
2.0694671 2.3822865 3.9198699
2.1046681 2.3965604 3.933368
0.42726079 2.4055815 3.9215391
0.53446054 2.4133534 3.924377
0.55807149 2.4027107 3.9492881
0.64374292 2.4051204 3.9434144
0.70692003 2.4028914 3.9314351
0.78060806 2.4006987 3.9170818
0.81247061 2.4007146 3.9121587
1.0771943 2.4014659 3.9105926
-2.0156219 -0.5150941 3.9658687
-2.0284085 -0.4707914 3.9757786
-2.02565 -0.42225888 3.9693954
-2.0357418 -0.37061921 3.9687898
-2.0341835 -0.318874 3.968956
-2.0375364 -0.27814683 3.9777021
-2.0382154 -0.24727468 3.9804873
-2.1458032 0.48081481 3.9796257
-2.4303894 0.59888178 3.9597173
-2.3993647 0.61775285 3.9511862
-2.907274 1.7867038 3.9619906
-2.9080181 1.8106734 3.9539969
-2.9127748 1.8996186 3.9792554
-2.9120054 1.9228544 3.9685345
-2.8969865 1.9762464 3.9753926
-2.9216847 2.0291276 3.99387
-2.9172246 2.0739622 3.9666986
-2.915179 2.1291864 3.9660044
-2.9135149 2.1850533 3.9651871
-2.8969164 2.1786129 3.9963467
-2.9019694 2.2309151 3.9803209
-2.8983874 2.2039404 3.9869826
-2.909627 2.2732573 3.973031
-2.8833172 2.3308632 3.9754457
-2.8266103 2.3498976 3.9614496
-2.781301 2.3422761 3.9705877
-2.7481129 2.3448274 3.9965124
-1.7167232 2.3495193 3.9912117
-1.693985 2.3489976 3.9979122
-1.4629271 2.3459108 3.9593096
-0.94104785 2.3453264 3.9815612
-2.8545916 2.3530285 3.9517033
-2.7212067 2.3561726 3.9697711
-2.6184812 2.3633215 3.9773965
-2.5776458 2.3586566 3.9892859
-2.5186005 2.3606129 3.9600446
-2.4790299 2.3566184 3.9721143
-2.4176781 2.3621938 3.9736931
-2.381578 2.3769007 3.9716675
-2.3295968 2.3833177 3.9801273
-2.2300346 2.3521585 3.9610879
-2.0618086 2.3769951 3.9696202
-1.8761296 2.3672476 3.9683275
-1.8116204 2.3566132 3.9714906
-1.7845954 2.350558 3.9694102
-1.6633376 2.3596127 3.9750898
-1.6242523 2.3513317 3.9720364
-1.5795025 2.3599417 3.9677236
-1.4895748 2.3533916 3.9655051
-1.4236302 2.3588712 3.9818871
-1.3830673 2.3613675 3.976516
-1.3251206 2.3565969 3.9663289
-1.2717732 2.358779 3.9838715
-1.223025 2.3598337 3.9729023
-1.1927242 2.3535655 3.9932878
-1.134388 2.3673449 3.9821053
-1.0777828 2.3621867 3.9849675
-1.0230579 2.360847 3.993649
-0.96421826 2.3601165 3.9796395
-0.93641281 2.3551898 3.9522753
-0.89439601 2.3572729 3.9633346
-0.7627818 2.3691516 3.9581063
-0.72912723 2.3637838 3.9536977
-0.67889482 2.3743258 3.9785078
-0.61338586 2.3796535 3.9727006
-0.57446605 2.3754535 3.9744771
-0.51781625 2.3816075 3.9862285
-0.47018775 2.3785143 3.9778221
-0.43048674 2.3818834 3.9716945
-0.37820658 2.3874028 3.9849589
-0.32477313 2.3862998 3.9866688
-0.27134794 2.3899283 3.9844656
-0.22099759 2.3912275 3.9702256
-0.11777266 2.3914466 3.9768531
-0.072440699 2.3905458 3.9732163
-0.036894098 2.3868179 3.9524477
0.02238168 2.38868 3.9825058
0.090276413 2.3885493 3.9771409
0.12239863 2.383173 3.9899619
0.17952366 2.3918767 3.9758542
0.23143668 2.3883126 3.964915
0.26026314 2.3901608 3.9741461
0.32007116 2.3947914 3.9741035
0.37485781 2.3948665 3.9827058
0.42150503 2.390537 3.9870238
0.47521019 2.3924282 3.9856408
0.52932024 2.3956289 3.9859109
0.57270277 2.3981833 3.9856911
0.63533056 2.3922787 3.9685192
0.6755352 2.3888466 3.9730318
0.72057104 2.3916731 3.9564281
0.77855909 2.3952229 3.9773264
0.83220613 2.3843286 3.9736736
0.87594151 2.3864684 3.970192
0.92979127 2.3868363 3.9614372
0.9770475 2.3864815 3.9758472
1.0112878 2.3908961 3.9770191
1.0772529 2.3975618 3.9834054
1.2812663 2.3777876 3.9664521
1.3293858 2.3858757 3.9687285
1.3758696 2.3905892 3.96488
1.4308324 2.3872488 3.9942038
1.4880058 2.3903625 3.9835374
1.5014789 2.3766754 3.9542029
1.5683721 2.3837299 3.9727383
1.6233507 2.3883381 3.9900956
1.686825 2.3993289 3.989996
1.7838724 2.3868232 3.9861362
1.8148993 2.3980906 3.9967687
1.9168475 2.3898323 3.9976931
1.9699583 2.3852963 3.9676144
2.0126352 2.3955789 3.970752
2.1259344 2.3977137 3.9846041
0.38790512 2.4020314 3.963532
0.40927485 2.4027267 3.9630675
0.47306234 2.4028053 3.9578335
0.53747219 2.4056535 3.9563591
0.60708034 2.4071941 3.9970775
1.0455558 2.405869 3.9723489
1.7104828 2.4010835 3.9852879
1.7772256 2.4003708 3.9604352
-2.0178769 -0.50015414 4.0208578
-2.0194173 -0.46923408 4.0266113
-2.0248582 -0.42863297 4.0407848
-2.0278599 -0.37495652 4.0259304
-2.0280886 -0.32285064 4.0296273
-2.0379317 -0.27057251 4.0273223
-2.8910282 1.7748483 4.0186758
-2.8920817 1.8184226 4.0303879
-2.903626 1.8614589 4.0327959
-2.8971741 1.8811324 4.0145206
-2.9044662 1.9336073 4.0054688
-2.8925333 1.9203714 4.0271235
-2.9085064 1.9790354 4.0297318
-2.9091182 2.0491502 4.0193119
-2.9112465 2.0868435 4.0063581
-2.8970609 2.0818849 4.0403099
-2.9055395 2.1365371 4.0305424
-2.8978624 2.1066763 4.0307474
-2.9003479 2.1569562 4.0122995
-2.903898 2.2267025 4.0433064
-2.9029739 2.2626863 4.0245047
-2.8949223 2.2904367 4.0259981
-2.8839557 2.3266296 4.0376601
-2.7263966 2.3469095 4.0141826
-2.6037138 2.3476236 4.0165429
-2.4576144 2.3463018 4.024816
-1.7725687 2.3418336 4.0112944
-1.4341159 2.3485708 4.0239496
-1.3889471 2.3470867 4.0334697
-1.1338614 2.3451872 4.0407319
-2.8577883 2.3513203 4.0175676
-2.8383679 2.3554947 4.039597
-2.7148848 2.3578923 4.0469437
-2.6824021 2.3642752 4.0113053
-2.6429911 2.3613434 4.0267043
-2.5335755 2.3619614 4.0206051
-2.4912972 2.3557694 4.0288095
-2.3663967 2.3734477 4.003046
-2.2889631 2.3661973 4.0246754
-2.2057889 2.3756676 4.0220408
-2.0638306 2.3695552 4.0116682
-2.0323753 2.3597212 4.0045481
-1.8670805 2.3617692 4.0166187
-1.8368411 2.3666601 4.0375319
-1.7471008 2.3603492 4.0018544
-1.6527032 2.3538871 4.0210514
-1.6283422 2.3510616 4.0234332
-1.5729965 2.3575854 4.0002279
-1.5234461 2.3669381 4.0329905
-1.413255 2.3507066 4.0337076
-1.3608098 2.3588235 4.0115843
-1.3265313 2.3566222 4.0164065
-1.2168044 2.357295 4.044385
-1.1639524 2.3614635 4.0141034
-1.1200182 2.3610742 4.0229902
-1.0749388 2.3580236 4.0269051
-1.0112388 2.3621571 4.0469027
-0.99248791 2.3653975 4.0076265
-0.91887927 2.3713415 4.031476
-0.72181153 2.3696029 4.0270648
-0.674981 2.376719 4.0298123
-0.63355881 2.3772066 4.0201402
-0.57607967 2.3696945 4.0292144
-0.51883608 2.377682 4.0333433
-0.48816019 2.3826697 4.0138092
-0.42455342 2.3869507 4.0264945
-0.37007225 2.3823617 4.0227489
-0.32723495 2.3829103 4.026464
-0.27374709 2.3844137 4.0319877
-0.21638608 2.3903315 4.0293884
-0.17676276 2.3903818 4.0232973
-0.12375703 2.3907018 4.0481606
-0.066087589 2.3881578 4.0296788
-0.026693329 2.3863358 4.0193195
0.026936313 2.3837178 4.0376987
0.080356359 2.3874655 4.0206747
0.1770986 2.3919053 4.0258822
0.21984825 2.3913529 4.0234051
0.28449827 2.3940878 4.0249567
0.33779463 2.3916526 4.0177402
0.3711054 2.3883762 4.0329213
0.4241752 2.3841062 4.0217533
0.46989107 2.398284 4.0420761
0.52191663 2.3892233 4.0218139
0.57749254 2.3966651 4.0288134
0.6205405 2.3961599 4.0231209
0.68237859 2.3913774 4.0229592
0.73002136 2.3905561 4.0230837
0.77438104 2.3830352 4.0273371
0.82036811 2.3909042 4.0341263
0.87606233 2.3946502 4.0317359
0.9315238 2.3864777 4.0320129
1.0318412 2.3917446 4.0226445
1.0706551 2.3944321 4.0440011
1.1143949 2.3940415 4.0342274
1.2828394 2.3790934 4.0183282
1.317571 2.3814802 4.0308237
1.3743774 2.3850813 4.0056725
1.4097812 2.3855789 4.0482926
1.4774953 2.3870366 4.0320687
1.5309461 2.3834009 4.0095897
1.5714105 2.3718102 4.027987
1.6018027 2.3837614 4.0413218
1.6735986 2.3900402 4.0302348
1.727939 2.3849289 4.0202394
1.8142053 2.3894169 4.0352259
2.097194 2.3944304 4.049159
2.129241 2.3913054 4.0289698
2.2632465 2.399502 4.0465832
-0.1445848 2.4006386 4.0186663
0.80547237 2.4006476 4.0059476
1.0532912 2.4018254 4.0118461
2.0825977 2.4008577 4.0097585
2.1077223 2.403209 4.0037909
-2.0188537 -0.47402117 4.0751009
-2.0181563 -0.43167847 4.0770288
-2.0164547 -0.36818302 4.0779881
-2.0210128 -0.32678249 4.0897503
-2.0369298 -0.27330211 4.0745611
-2.0410111 -0.2316546 4.0845928
-2.8854475 1.7933772 4.0819812
-2.8872552 1.8303933 4.0712175
-2.8894749 1.8754734 4.0847158
-2.8882909 1.9187124 4.0931225
-2.901386 1.9880177 4.0873966
-2.8915021 2.0174835 4.0584259
-2.8970094 2.0576403 4.0507412
-2.9001949 2.1261051 4.0827565
-2.8908346 2.1436031 4.0587311
-2.8937671 2.1701629 4.0518126
-2.9086189 2.2058115 4.0613341
-2.8916521 2.2238374 4.0810976
-2.8860922 2.2563491 4.0559855
-2.8722255 2.3205414 4.078774
-2.8250287 2.3401964 4.0824981
-2.7542062 2.3464026 4.0672207
-2.629631 2.3467941 4.0683904
-1.7471349 2.3455865 4.0829177
-2.8196423 2.3603249 4.0625887
-2.7853541 2.3520987 4.0628695
-2.7178445 2.3587923 4.0824418
-2.6690269 2.3602684 4.0783792
-2.5388784 2.3540525 4.066164
-2.4650342 2.3762727 4.0883927
-2.1207747 2.3613477 4.0893469
-1.8281329 2.3620293 4.0876637
-1.729502 2.3598366 4.0616612
-1.6667178 2.3512349 4.0655274
-1.6155128 2.3650401 4.0544806
-1.504549 2.3675489 4.0925961
-1.4551513 2.3605332 4.0931153
-1.3730831 2.3578494 4.0578527
-1.3490556 2.3547177 4.0582309
-1.2279462 2.3566461 4.0913143
-1.1718988 2.3555684 4.0513983
-1.121485 2.3652923 4.0800662
-1.0849677 2.3579814 4.0742712
-1.0277963 2.3642397 4.0720754
-0.97129869 2.3604136 4.0757852
-0.92746556 2.3715656 4.0789475
-0.71011204 2.3642201 4.0508037
-0.68042713 2.374176 4.0720615
-0.6253323 2.3717065 4.0743604
-0.57126367 2.3730173 4.0826197
-0.52757061 2.3723123 4.0857935
-0.47578019 2.3721833 4.071475
-0.42340127 2.3746483 4.0706835
-0.37260437 2.3771257 4.0599322
-0.32927114 2.3760386 4.0608654
-0.27583975 2.3809152 4.0721898
-0.2215707 2.3790386 4.0714636
-0.17879823 2.3854775 4.0840731
-0.12438514 2.3882878 4.0748982
-0.07052926 2.3901358 4.094522
-0.037791912 2.3801119 4.077682
0.027119691 2.3797061 4.0770259
0.077645972 2.3885949 4.0763259
0.12437085 2.3894756 4.069212
0.16761005 2.3893986 4.0679512
0.22729388 2.3865848 4.072556
0.27296734 2.3931568 4.0778894
0.31666473 2.3957183 4.0799108
0.37543216 2.3942118 4.089128
0.43012285 2.3958244 4.0878925
0.4727965 2.3914495 4.0768318
0.52242827 2.3810532 4.0732088
0.57062203 2.3844149 4.0710297
0.62534624 2.3929558 4.0639858
0.66898763 2.3935337 4.0597501
0.71527338 2.3810062 4.0796204
0.77318525 2.3912685 4.0896564
0.82552958 2.3840818 4.069294
0.87115222 2.3892603 4.0712175
0.91497302 2.3781912 4.0686588
0.98270988 2.3940945 4.06043
1.0214889 2.391305 4.0850511
1.0819855 2.3975301 4.0967293
1.1110222 2.3884075 4.0743494
1.2843916 2.3803401 4.0708532
1.3404762 2.3812189 4.0584826
1.3869882 2.3847024 4.0527906
1.4305109 2.3904746 4.0777812
1.4768898 2.3817034 4.0745726
1.5549436 2.3808362 4.0501466
1.6441981 2.3902264 4.0942564
1.669487 2.3938682 4.0932226
1.7100688 2.3869107 4.0664387
2.1059666 2.3810954 4.0772686
2.1528914 2.381408 4.0578747
2.2259655 2.3973145 4.0589685
2.2701893 2.3832591 4.0704627
-2.0042362 -0.51269639 4.1442089
-2.0220675 -0.47976279 4.1322212
-2.0158329 -0.36129236 4.127934
-2.0253711 -0.32025126 4.1499515
-2.0328479 -0.2816579 4.1288738
-2.038202 -0.23376042 4.1291542
-2.8781171 1.8157592 4.1152086
-2.8697882 1.8620045 4.1383915
-2.8912771 1.94903 4.1413541
-2.9062619 1.9670748 4.1041265
-2.8939195 1.9873893 4.130549
-2.8898427 2.034946 4.1228194
-2.9113421 2.0852125 4.1197739
-2.8840983 2.0709705 4.1355219
-2.9094887 2.188086 4.1288781
-2.9006031 2.2373717 4.1493926
-2.8875539 2.275048 4.128294
-2.8709908 2.3313677 4.1312585
-2.8238871 2.3349509 4.1432343
-2.7677817 2.3437853 4.1244907
-1.7390513 2.3425767 4.1356773
-1.2690862 2.348876 4.1186905
-2.6725261 2.3604832 4.1466284
-2.5026767 2.3651843 4.1102905
-1.7946364 2.3783789 4.1321201
-1.6271081 2.3530226 4.1363935
-1.5775121 2.3566456 4.1220641
-1.5341378 2.3558264 4.1151185
-1.4762163 2.3650441 4.1224585
-1.4242373 2.3562992 4.1288261
-1.3796551 2.3659437 4.1235495
-1.3319874 2.372545 4.121891
-1.268865 2.370837 4.1081257
-1.2031293 2.3510766 4.1379261
-1.1798495 2.3716674 4.1299467
-1.1044933 2.3540642 4.1133657
-1.0732689 2.3586478 4.128067
-1.0318289 2.3645527 4.1301408
-0.92501575 2.3640182 4.1315818
-0.71356893 2.3634713 4.129353
-0.67382687 2.3673255 4.1087928
-0.61967468 2.3698668 4.1196866
-0.57662523 2.3731985 4.1302423
-0.53186119 2.3695669 4.1283207
-0.47715732 2.3703396 4.1346469
-0.42190087 2.3680034 4.1350279
-0.38063276 2.3756895 4.1197314
-0.3294597 2.3746748 4.1212258
-0.27803794 2.3780339 4.1140347
-0.22758137 2.3751843 4.1272306
-0.18020692 2.3823514 4.1255951
-0.1253922 2.3780007 4.1195321
-0.070829004 2.3786235 4.1216111
-0.02358271 2.3864083 4.119801
0.027436472 2.3859262 4.1346383
0.082055874 2.3836699 4.1302114
0.12569502 2.381948 4.1264138
0.16947654 2.3832579 4.1275244
0.22421496 2.3839464 4.1267638
0.27895194 2.3847246 4.1256533
0.32266241 2.3844376 4.1227837
0.37802696 2.3889835 4.1271648
0.43253213 2.3872592 4.1201925
0.47717223 2.3806059 4.1288328
0.51177371 2.3775227 4.14431
0.5808109 2.3806615 4.1237812
0.63138855 2.3830953 4.1177001
0.6768961 2.3886957 4.1221375
0.73219949 2.3786509 4.1214924
0.76913571 2.3907957 4.13799
0.82297635 2.3864925 4.122509
0.87917197 2.3891029 4.1184187
0.92375678 2.3848045 4.1363072
0.98101115 2.3948188 4.111207
1.018537 2.3826656 4.1322179
1.0656095 2.388361 4.1335449
1.1017681 2.3942125 4.136991
1.3213363 2.3846431 4.1212711
1.3664122 2.3848407 4.1102772
1.429985 2.3820586 4.1233559
1.472774 2.3889148 4.1424642
1.5087835 2.3919499 4.1381836
1.5772566 2.3865151 4.1212897
1.6218181 2.3907714 4.102325
1.651246 2.3776038 4.1222353
1.7209249 2.3820527 4.127039
2.1995511 2.3833411 4.102365
2.2282016 2.3887849 4.1012907
2.2582681 2.3956172 4.1023803
-2.0150969 -0.47247326 4.1702542
-2.0203056 -0.41982388 4.1851244
-2.0201643 -0.37895179 4.1701961
-2.0207226 -0.32293454 4.1920376
-2.025898 -0.2642341 4.1710224
-2.0245211 -0.23590471 4.1780777
-2.868875 1.788898 4.1634803
-2.8699198 1.8534995 4.1966028
-2.8827875 1.9216827 4.1745491
-2.8824532 1.9840574 4.1682706
-2.8815639 2.007931 4.1571717
-2.8828449 2.0754247 4.1886501
-2.9062691 2.1329994 4.1765442
-2.9082522 2.1717136 4.1631603
-2.8907681 2.1554551 4.1685343
-2.8904617 2.2257559 4.1759515
-2.8698123 2.2789414 4.1738605
-2.8577771 2.3276329 4.1793051
-2.7340207 2.3465245 4.1501813
-1.1224548 2.3471999 4.1996241
-2.7313097 2.3655376 4.1975536
-2.6496255 2.3619578 4.1624637
-1.8522141 2.3699045 4.1521115
-1.7350718 2.3684752 4.1890135
-1.5734149 2.3581047 4.1625552
-1.5465826 2.3520968 4.1586027
-1.3811913 2.365382 4.175108
-1.2866461 2.3586926 4.1855168
-1.2174234 2.3563476 4.1968355
-1.1828425 2.3552489 4.1501913
-1.1311951 2.3644848 4.1783495
-1.0870795 2.3664615 4.1909008
-1.0112721 2.3634796 4.1826682
-0.97615606 2.365854 4.1594968
-0.91841567 2.3608706 4.1602864
-0.669559 2.3691344 4.1612282
-0.62260646 2.3656254 4.1767917
-0.58263475 2.3758287 4.1829362
-0.52645725 2.3725452 4.1826034
-0.46960998 2.365484 4.1750727
-0.42525792 2.3647025 4.1772103
-0.37763754 2.3735974 4.1802492
-0.33138758 2.3756762 4.1787748
-0.26947698 2.3769283 4.1601605
-0.22601928 2.3711326 4.176012
-0.18535203 2.3722136 4.1713467
-0.12624852 2.3728888 4.158114
-0.071423247 2.3761511 4.1648192
-0.027398665 2.3749952 4.1631823
0.027587987 2.3785458 4.1693902
0.082708374 2.379849 4.1711559
0.12669492 2.3789361 4.1687393
0.17129222 2.3865223 4.1808681
0.22604032 2.3815775 4.1702466
0.28200367 2.3884749 4.1798506
0.32587892 2.3861871 4.1734648
0.36962724 2.3834591 4.1659632
0.42481396 2.3836546 4.1623778
0.48289263 2.3757591 4.1923113
0.53657705 2.3899724 4.1639309
0.58501267 2.3849108 4.198988
0.6176703 2.3819292 4.1901608
0.67305046 2.381037 4.1821761
0.72930157 2.3940477 4.1738243
0.77593416 2.3895936 4.184206
0.81899941 2.3849092 4.1696157
0.8770768 2.3914676 4.1725249
0.92651522 2.3812919 4.1963177
0.9841814 2.390805 4.1701217
1.0209656 2.3921335 4.1996846
1.065214 2.3901834 4.1877723
1.3252445 2.389426 4.1817031
1.3740164 2.3951626 4.18046
1.4866943 2.3885524 4.1918812
1.535092 2.3924258 4.185813
1.5676509 2.3894849 4.1707292
1.6405311 2.3722792 4.1704373
1.6895562 2.3995657 4.1529937
1.4025106 2.4049273 4.1916494
-2.0137465 -0.47726628 4.2198491
-2.0151606 -0.42328158 4.2269211
-2.0146189 -0.37975234 4.2286911
-2.0143104 -0.31449649 4.2318039
-2.0179996 -0.27011782 4.2152605
-2.8637547 1.8207301 4.2254753
-2.8757815 1.9224643 4.2367902
-2.8862214 2.0160184 4.218677
-2.8851488 2.0724599 4.2323866
-2.9050081 2.1162775 4.2104306
-2.8872933 2.1215241 4.235219
-2.8897893 2.1733043 4.2175326
-2.8807268 2.2230458 4.2388773
-2.8669763 2.2724109 4.2218599
-2.8572621 2.3122747 4.2158866
-2.8410497 2.3447406 4.2317338
-2.7662044 2.3491526 4.2108703
-2.6897769 2.34779 4.2489572
-2.828002 2.3590715 4.2004542
-2.7993672 2.3560617 4.2092824
-2.6524334 2.3617282 4.2307339
-2.4986494 2.3586154 4.2318192
-2.297821 2.3534546 4.2466078
-1.8525419 2.3533392 4.2347341
-1.8038973 2.3512421 4.2468843
-1.669906 2.3515222 4.232482
-1.6332555 2.3588431 4.2205682
-1.4667339 2.3705997 4.2169414
-1.4287214 2.3647757 4.2156649
-1.3794217 2.3589902 4.217063
-1.3001549 2.3605351 4.2392569
-1.2034309 2.3505931 4.2418723
-1.1755033 2.3632231 4.218854
-1.1070125 2.3623912 4.2313452
-1.0712862 2.3586974 4.2313232
-1.013545 2.3562589 4.2374611
-0.9745881 2.3668382 4.2124376
-0.92947376 2.3666813 4.2198076
-0.71184689 2.377351 4.2204161
-0.67664361 2.3717711 4.2146149
-0.62015665 2.3700013 4.2178483
-0.56794065 2.3618705 4.2252769
-0.52071285 2.3748746 4.2366538
-0.47398579 2.3650043 4.2229314
-0.4311327 2.3749652 4.2442684
-0.37366292 2.365895 4.2319479
-0.31726575 2.371891 4.2215919
-0.27254713 2.3706388 4.2216778
-0.22817697 2.3716311 4.2253881
-0.17282461 2.3875737 4.2311754
-0.1275019 2.3743346 4.2088528
-0.07597506 2.3743646 4.2261434
-0.027693128 2.3762331 4.2136021
0.016742414 2.3780384 4.2168484
0.072176903 2.375514 4.2119241
0.12418769 2.3718493 4.2207918
0.1723963 2.3799529 4.2176747
0.21675165 2.3784857 4.2135606
0.26746821 2.3793416 4.2251611
0.32831347 2.3815813 4.213726
0.37427765 2.3908019 4.2272882
0.41907686 2.3918552 4.226047
0.4502022 2.379034 4.2008524
0.53505093 2.3790343 4.2263765
0.57423115 2.38694 4.2367477
0.62141538 2.3740044 4.2250528
0.65687585 2.3807905 4.2333565
0.72383428 2.3850293 4.2203565
0.78070253 2.3818047 4.2194757
0.82843852 2.3897717 4.2271576
0.87507594 2.3942003 4.2281775
0.93209749 2.3956516 4.2216721
1.035861 2.3892083 4.2172079
1.073294 2.3855979 4.229279
1.1211232 2.3907197 4.2294545
1.2852634 2.3768706 4.2205696
1.3234143 2.3838658 4.224864
1.3704573 2.3859692 4.2173724
1.4211478 2.3941398 4.2201138
1.4877681 2.3856945 4.2408247
1.5405775 2.3958194 4.2460032
1.606047 2.3894651 4.2146568
1.6737521 2.3918014 4.2268906
1.7280834 2.3746645 4.203917
-2.0063934 -0.46978432 4.2585459
-1.9994493 -0.4733296 4.2979155
-2.011183 -0.42705414 4.2719607
-2.0168452 -0.37333196 4.2875681
-2.0109069 -0.32838631 4.2775035
-2.0201926 -0.28431892 4.2725792
-2.864177 1.7919821 4.2638116
-2.8761826 1.8487881 4.2644238
-2.8721027 1.8788455 4.2747059
-2.876514 1.9271371 4.2928801
-2.8681388 1.9711277 4.2617273
-2.8708103 2.0384226 4.2786574
-2.8678169 2.0755441 4.2779298
-2.8859911 2.1264434 4.2896132
-2.8759708 2.1797581 4.2690139
-2.8698556 2.2214828 4.2798228
-2.8712456 2.2713232 4.2806363
-2.8557391 2.318841 4.271183
-2.8286505 2.3426704 4.271059
-2.7396049 2.3441045 4.2860894
-2.5275826 2.3495317 4.2651463
-2.4901795 2.3492043 4.282486
-1.8188711 2.3470478 4.2923484
-1.7014041 2.3395517 4.2558813
-1.6849289 2.3491814 4.2806358
-2.7989552 2.3516755 4.2725139
-2.6525645 2.3590622 4.2954903
-2.4271631 2.3606944 4.2706733
-2.3485947 2.3558054 4.2952838
-1.9003072 2.3599145 4.2915816
-1.8413885 2.3573501 4.2765961
-1.7899147 2.3638077 4.2773857
-1.7344743 2.3526938 4.2724128
-1.6178032 2.3603365 4.2658634
-1.4808451 2.3701663 4.2675047
-1.4179778 2.3621628 4.2681599
-1.3742725 2.3666677 4.2878776
-1.2695243 2.3675163 4.2597175
-1.1731541 2.3585188 4.2634239
-1.1282793 2.3603475 4.2760477
-1.0794408 2.3538632 4.2731962
-1.0454668 2.3773456 4.2712231
-0.98482305 2.3688376 4.2660971
-0.94044483 2.3718889 4.2793031
-0.71698648 2.3719232 4.2603145
-0.68436402 2.3762465 4.272213
-0.62596381 2.3636463 4.2684884
-0.55687904 2.3633497 4.2623897
-0.52238554 2.3600922 4.259665
-0.48074263 2.3762712 4.2927895
-0.43365702 2.3662419 4.2782221
-0.38774398 2.3722193 4.2673216
-0.3168523 2.3705928 4.2770438
-0.27625263 2.3691463 4.2931194
-0.21905184 2.3827705 4.2702861
-0.17370836 2.3770781 4.261579
-0.10655233 2.3798826 4.2682705
-0.069245704 2.3679056 4.2804275
-0.027903905 2.372858 4.2565742
0.013124708 2.3692338 4.2666321
0.072938904 2.3719876 4.2670288
0.14059924 2.3838935 4.2747555
0.17438674 2.3850112 4.2758355
0.21859699 2.3764873 4.2590342
0.28783023 2.3929744 4.2856264
0.33174831 2.3841367 4.267396
0.37376952 2.3817244 4.2771297
0.41977522 2.3793893 4.2864819
0.46777555 2.3898177 4.2682085
0.52506042 2.3787136 4.2766628
0.58311719 2.3779712 4.2865624
0.61894596 2.3852136 4.2960973
0.68596983 2.3926702 4.2768068
0.72191787 2.3878345 4.2889471
0.76523829 2.3812242 4.271214
0.82436872 2.3882134 4.2758737
0.88674092 2.385251 4.2782702
0.93317223 2.3874729 4.2750096
0.97862333 2.3871193 4.2667003
1.0252572 2.3945413 4.281024
1.0721051 2.3854563 4.2816038
1.1093516 2.3916333 4.2860851
1.3119719 2.3817649 4.2774978
1.4683563 2.3917828 4.2578683
1.524449 2.3836741 4.2824574
1.6207969 2.3879917 4.2636151
0.85227776 2.4027925 4.298635
-1.9919276 -0.47679597 4.3367443
-2.0027144 -0.41893184 4.3089647
-1.9999334 -0.44038701 4.3014359
-2.0121636 -0.39873663 4.3307676
-2.013365 -0.33241901 4.337285
-2.022207 -0.26411152 4.3047328
-2.0202281 -0.24183442 4.3014212
-2.8817785 1.8434615 4.3320374
-2.8624842 1.8844881 4.3408327
-2.8693049 1.9389925 4.3331175
-2.8674991 2.0003052 4.3069429
-2.8706186 2.0831885 4.3386879
-2.8692327 2.1326635 4.3162041
-2.8622653 2.1695642 4.3281727
-2.8588152 2.2198677 4.3207092
-2.8633411 2.2614894 4.311039
-2.8474135 2.2817574 4.333848
-2.8289235 2.327255 4.3200207
-2.7729564 2.3363955 4.3231492
-2.5610754 2.3441484 4.3058257
-1.8743424 2.3483047 4.3366241
-1.8186073 2.3381996 4.3338175
-1.2966684 2.3498888 4.3285003
-2.7199004 2.3597751 4.3348165
-2.673599 2.3524709 4.3409958
-2.5504198 2.3573222 4.3422098
-2.4307265 2.3634498 4.3432598
-1.5473022 2.3541231 4.3305402
-1.4633503 2.3561528 4.3003001
-1.4304364 2.3596058 4.3155899
-1.3751529 2.3648808 4.3396597
-1.325029 2.3589754 4.3398881
-1.2932814 2.3669605 4.307591
-1.2108324 2.3645711 4.3210573
-1.1520799 2.3628125 4.3297687
-1.1019895 2.3547409 4.3240128
-1.0673312 2.3660498 4.3254375
-1.0160258 2.3657513 4.3074064
-0.97349095 2.3740003 4.3303719
-0.92617762 2.3709204 4.3322973
-0.88450652 2.3518295 4.3027725
-0.70037746 2.369544 4.3091331
-0.66670179 2.3713033 4.3163385
-0.61154914 2.3784285 4.3355699
-0.57694131 2.3771987 4.336791
-0.53193426 2.3802443 4.3466601
-0.48303026 2.3648577 4.3224869
-0.42617422 2.3646674 4.3265057
-0.35782459 2.3750873 4.3248701
-0.32420284 2.3672495 4.3377905
-0.28925145 2.3604805 4.327167
-0.23197624 2.3661895 4.314868
-0.17564242 2.3700821 4.3239231
-0.1303035 2.3812742 4.3202343
-0.08532282 2.3688018 4.3489261
-0.02817186 2.3740978 4.3085804
0.028287198 2.3706505 4.3023372
0.073542818 2.3753765 4.3104801
0.13025405 2.3776374 4.3136358
0.17605095 2.3735085 4.3301868
0.22115153 2.3699455 4.3221817
0.26711249 2.387006 4.3260336
0.32398823 2.3873758 4.3238311
0.38053811 2.3743682 4.322134
0.47121662 2.3847222 4.3090267
0.51414734 2.3754323 4.3223767
0.57684833 2.3762536 4.3350825
0.63287365 2.3835726 4.3171339
0.67596388 2.3842382 4.3221025
0.71768522 2.3887823 4.3427863
0.77602446 2.3916526 4.3406563
0.82222319 2.3921986 4.3353429
0.87592357 2.381994 4.308486
0.92159581 2.3816829 4.3007841
0.97272187 2.39483 4.3169513
1.0332062 2.3899679 4.3238144
1.5350006 2.3766451 4.3221712
0.80643547 2.4025269 4.3047447
1.3820871 2.4032049 4.3020425
-1.9899784 -0.49292904 4.3877091
-1.9926157 -0.35686594 4.3744669
-2.0013413 -0.33412376 4.3667088
-1.9947116 -0.27745473 4.3549457
-2.8495369 1.789016 4.3511481
-2.8642073 1.8356905 4.3608608
-2.8641095 1.8895285 4.3993578
-2.8722568 1.9454291 4.393898
-2.8717747 1.9829888 4.3792515
-2.8719444 2.0336225 4.3604307
-2.8556859 2.0780461 4.373126
-2.86801 2.125216 4.3768358
-2.8534901 2.1716576 4.3918958
-2.8478305 2.1928492 4.372673
-2.8481889 2.2186272 4.3625379
-2.8704708 2.2616861 4.3857198
-2.8371911 2.2940421 4.3712258
-2.803751 2.3260238 4.3558869
-2.7908347 2.3365796 4.3893299
-2.7324421 2.3451488 4.3662219
-2.694531 2.3453927 4.3863354
-2.6169991 2.3470249 4.3563027
-1.9015675 2.3431382 4.3777909
-0.2222074 2.3486919 4.3593774
-0.17665 2.3492048 4.3618565
-2.4683301 2.3507125 4.3653822
-1.4597272 2.3647249 4.3750191
-1.3879423 2.3632348 4.3897662
-1.2633755 2.3747404 4.3847151
-1.2321222 2.3598957 4.3623319
-1.1881242 2.3653009 4.3820767
-1.137223 2.3801832 4.3662181
-1.0761077 2.362381 4.3706675
-1.0271729 2.368444 4.3640757
-0.97739083 2.3603628 4.3571272
-0.93394864 2.3675261 4.3779154
-0.70815712 2.3612962 4.3709216
-0.67910576 2.3709016 4.3836522
-0.6285826 2.3766775 4.382515
-0.57998127 2.3666577 4.3687172
-0.53350806 2.3643165 4.3687029
-0.46331006 2.3575509 4.3619671
-0.43038714 2.3766181 4.3740988
-0.37717047 2.3750904 4.3834529
-0.32672015 2.3623984 4.3800597
-0.28058404 2.3713169 4.3732357
-0.2004887 2.3614037 4.3837833
-0.15436266 2.3570783 4.377111
-0.12014401 2.3712835 4.3785458
-0.070432611 2.3628128 4.3722086
-0.028452823 2.3749952 4.360836
0.028869119 2.3963146 4.3999939
0.07448554 2.3802078 4.369997
0.13167481 2.3810287 4.3705378
0.26912495 2.3819871 4.3676844
0.32685909 2.3855104 4.3712597
0.37360686 2.3799181 4.3840008
0.43121523 2.3920734 4.3767223
0.47566485 2.3842928 4.3589854
0.51164985 2.3687251 4.3789253
0.57464355 2.3834112 4.3832221
0.62861067 2.3840742 4.3789759
0.69873202 2.3794589 4.3799663
0.73551542 2.3863988 4.3885279
0.77047712 2.3870811 4.3853817
0.82926524 2.3896079 4.3821692
0.87776625 2.395309 4.3858948
0.92510211 2.3975408 4.3828616
0.98216164 2.3948123 4.3684359
1.0210263 2.3872876 4.3654256
1.0792999 2.3924487 4.3737588
0.74518949 2.4034309 4.3665404
-1.9956136 -0.44935527 4.4035115
-1.9817902 -0.31583273 4.4381952
-2.8493252 1.8964293 4.4287229
-2.8673835 1.9253793 4.4216194
-2.8604565 1.9672775 4.4234791
-2.8648338 2.0338585 4.4067092
-2.8644295 2.0681796 4.4228106
-2.860039 2.1254265 4.4225736
-2.8564367 2.170897 4.4283066
-2.8420246 2.2081196 4.4168787
-2.8599799 2.2608037 4.4285641
-2.8250918 2.3156214 4.4330063
-2.7829337 2.3257272 4.4423227
-2.7099378 2.3331618 4.4226499
-2.6810153 2.3302796 4.4300184
-2.6389878 2.3412933 4.4041066
-2.5675409 2.3456876 4.4491634
-0.93254769 2.3467729 4.4467974
-2.6764224 2.3518536 4.4112921
-2.5000143 2.3555555 4.4324341
-1.8617857 2.3538835 4.4140534
-1.3953905 2.3521543 4.4229479
-1.1734742 2.3594928 4.4292641
-1.1350126 2.376689 4.4148197
-1.0777124 2.3563995 4.4413118
-0.95485967 2.3673959 4.4285355
-0.91720182 2.3609307 4.4219303
-0.66649562 2.3654025 4.4099474
-0.63562155 2.3799701 4.4408841
-0.57168764 2.3568683 4.4035845
-0.5024544 2.3803089 4.4012766
-0.45952082 2.3741186 4.4457669
-0.42252052 2.3737407 4.4214182
-0.37681049 2.3659518 4.4360552
-0.32963139 2.3607109 4.4289289
-0.28312445 2.3697095 4.4220285
-0.23643416 2.3656287 4.4163094
-0.13237888 2.3731346 4.4074783
-0.028955646 2.3918948 4.4437094
0.013566951 2.3902721 4.4234166
0.075066239 2.3770204 4.4156661
0.13293229 2.3685663 4.4250355
0.182983 2.3724213 4.4222255
0.22593042 2.3866029 4.4297514
0.27200821 2.3726842 4.4281087
0.31836206 2.373105 4.4266319
0.3767322 2.3879514 4.4247665
0.41150826 2.3880873 4.422739
0.48195314 2.3923399 4.4254527
0.57470119 2.3686433 4.425621
0.6228568 2.3752728 4.4333878
0.66568899 2.3834689 4.4266047
0.72760099 2.3751984 4.4215002
0.77570516 2.3799386 4.4244728
0.84724659 2.38434 4.4231453
0.88378406 2.3883362 4.4254541
0.94206202 2.3877401 4.41539
0.44864762 2.4006858 4.4435973
0.97134501 2.4022865 4.4385047
-1.9927037 -0.45382169 4.4544287
-2.0064216 -0.41121694 4.4881806
-1.9938945 -0.43137124 4.4586668
-1.9941303 -0.36324883 4.4634233
-2.8439403 1.8252521 4.4723353
-2.8580291 1.8515022 4.4595704
-2.8607259 1.9722614 4.4814649
-2.8595824 2.0354862 4.456274
-2.8543999 2.0630107 4.4969602
-2.8585908 2.1435139 4.4738526
-2.8611183 2.1712577 4.4675617
-2.8464875 2.1798191 4.4987431
-2.8486664 2.2334287 4.4812074
-2.8395164 2.2754555 4.4778562
-2.8148792 2.3155546 4.4770107
-2.5212007 2.3499718 4.4809322
-1.803944 2.3490336 4.4842668
-1.7734832 2.3411045 4.4766245
-2.4821672 2.3626509 4.4573307
-2.4328909 2.3767724 4.4771891
-1.8313973 2.3528862 4.4839582
-1.7824776 2.3612399 4.4549437
-1.025506 2.371846 4.4808044
-0.9588908 2.3538485 4.4565043
-0.69801706 2.3705227 4.4698129
-0.63757598 2.3638961 4.4637299
-0.56852913 2.3688216 4.47999
-0.52531248 2.3754947 4.4787002
-0.47737893 2.3703358 4.4727921
-0.43922934 2.366894 4.4869471
-0.38069108 2.3671198 4.4912691
-0.33291477 2.3605738 4.4815607
-0.27411103 2.3727236 4.4719806
-0.2041022 2.368927 4.4764504
-0.16485852 2.3679054 4.466846
-0.1226014 2.3717513 4.4839354
-0.064063735 2.3794832 4.4728494
-0.029124763 2.3838336 4.4812846
0.017578004 2.3837912 4.4812503
0.075601928 2.3717163 4.4580936
0.16894181 2.3762734 4.4648333
0.22359495 2.3719652 4.4726501
0.27442577 2.359024 4.4815264
0.30853948 2.3518023 4.4661613
0.36724573 2.378221 4.4598031
0.41565028 2.3886013 4.4762745
0.4756512 2.3959887 4.4858131
0.52040529 2.3741269 4.4676433
0.68916804 2.3799686 4.4890232
0.72258699 2.3736944 4.4730978
0.7614916 2.3851402 4.4903665
0.87942022 2.3848345 4.4738526
0.90354407 2.3862052 4.4729414
-1.9866183 -0.38896 4.5036955
-1.9901547 -0.3437708 4.5142999
-2.8287842 1.8400637 4.5280395
-2.8416541 1.8997748 4.5316215
-2.8401616 1.9244336 4.5205107
-2.852725 2.023139 4.5085745
-2.8439877 2.0482705 4.54421
-2.856703 2.1355557 4.5352426
-2.833915 2.1901293 4.5334458
-2.841342 2.2350605 4.5296354
-2.8182793 2.2767527 4.531919
-2.7928722 2.3297014 4.5245461
-2.7002871 2.3435934 4.5287881
-1.7688177 2.3674817 4.5345106
-0.99314529 2.3557422 4.5105624
-0.62060463 2.3652158 4.52244
-0.57462704 2.3705001 4.5371132
-0.52804518 2.3740654 4.5481434
-0.41922408 2.3627563 4.5345712
-0.39604592 2.3654099 4.5412097
-0.26079074 2.3619711 4.5236216
-0.22960438 2.379756 4.5228205
-0.13560317 2.3601508 4.5421557
-0.0646936 2.3675368 4.5304384
-0.029358022 2.3824799 4.5321684
0.1938958 2.3733082 4.511785
0.24123491 2.376786 4.5167489
0.57551813 2.3734694 4.5428538
0.98556429 2.3896461 4.5224481
0.4772251 2.4039438 4.5007534
0.93484139 2.4059684 4.5063782
-1.9848864 -0.41630763 4.5579524
-2.8385799 1.9408703 4.5721316
-2.8322096 2.0324717 4.5894737
-2.8487985 2.1230025 4.5875468
-2.8449845 2.1725092 4.5614061
-2.8298066 2.2203798 4.5769734
-2.8267865 2.2811277 4.5788941
-2.7631266 2.3224685 4.5991049
-2.6650121 2.3322036 4.5934405
-0.25496981 2.3492968 4.5721431
-0.46954688 2.3783479 4.5611076
-0.42418855 2.3668275 4.5972757
-0.20850112 2.3604152 4.5955305
0.029706823 2.3945386 4.5551214
0.43655699 2.3921711 4.5902424
0.47249877 2.392513 4.5883012
0.50894344 2.3951743 4.5906186
0.69837171 2.3878665 4.5581994
0.94735682 2.3898845 4.5855236
0.0060198815 2.4011092 4.567687
0.435821 2.4120286 4.5733871
0.47195989 2.4136863 4.573925
0.5076952 2.4132013 4.5702138
-1.9847808 -0.37436804 4.6213932
-2.828485 1.9517351 4.6106153
-2.8340299 2.1315808 4.6192513
-2.8228948 2.1959937 4.6372271
-2.8194177 2.2197139 4.6212869
-2.8112164 2.2873652 4.6434836
-2.750319 2.3339682 4.6347752
-2.6141658 2.3335457 4.6203675
-0.47269809 2.3703642 4.6007519
-0.35353589 2.3739049 4.6154318
-0.30546844 2.3729737 4.6161036
-0.28233665 2.379993 4.6308661
-0.029868208 2.383558 4.6161995
0.018018711 2.3917153 4.6043606
0.44000405 2.3869405 4.6355581
0.47738397 2.3930197 4.6447515
0.51150501 2.3831484 4.6228061
-1.9736575 -0.42385393 4.6546068
-2.830514 2.1488633 4.6697774
-2.7810059 2.3220177 4.6684351
0.44380784 2.3832474 4.6846495
0.46887305 2.3870757 4.6904588
0.51861346 2.3918526 4.6961255
0.49501324 2.3957281 4.7056446
-2.8161716 2.1787629 4.7606721
0.47509739 2.3940589 4.7616897
0.52572405 2.3874993 4.7740564
0.46707803 2.3914735 4.8159933
0.5041554 2.390162 4.8106494
0.47185045 2.390759 4.8741875
0.52725142 2.3863094 4.8812175
0.49039966 2.3947318 4.9422755
-2.2744768 0.41592076 4.9812546
-2.2325072 0.43048918 4.9624319
-2.1757772 0.4216691 4.9757257
-2.2204854 0.48122352 4.9645634
-2.1875112 0.46450686 4.9779778
-2.2270889 0.52075493 4.9765754
-2.26408 0.57447493 4.9900837
-2.2369246 0.56127155 4.9956064
-2.265573 0.62587708 4.9889841
-2.2404592 0.62599897 4.9980726
-2.2405038 0.66431433 4.9946508
0.46731305 2.3941538 4.9738188
0.51749724 2.4022865 4.9559999
-2.2402689 0.58764398 5.0009794
0.49588606 2.3957546 5.0064549
0.5476017 2.3966539 5.0044875
0.52351445 2.4043581 5.022553
0.52774292 2.3977087 5.0719876
0.5537793 2.3976223 5.0698185
0.47727752 2.4060133 5.0932484
0.5026837 2.4024742 5.0839615
-2.0728524 -0.026325857 5.3257022
-2.0825107 0.00033909339 5.3127327
2.4677427 2.3069825 5.7996974
2.515897 2.3341494 5.796896
2.5705748 2.3320022 5.7890472
2.6395421 2.322932 5.7887411
2.3693428 2.3623354 5.7947621
2.4379334 2.3694062 5.7931132
2.4723501 2.3729267 5.7919741
2.5243263 2.3783793 5.7903099
2.5703483 2.3781247 5.7743902
2.6083536 2.3691506 5.7845864
2.0497048 2.3474112 5.8432794
2.0802257 2.3322265 5.8400006
2.1238279 2.3303878 5.8389359
2.1809311 2.3269026 5.8450055
2.248358 2.333369 5.844173
2.2776117 2.3319056 5.8317552
2.3177683 2.3209496 5.8210111
2.3732905 2.3355391 5.8136406
2.4282367 2.3289082 5.8099637
2.538626 2.3155668 5.8014083
1.8785127 2.3871677 5.8409734
1.9702243 2.373909 5.8435555
2.033555 2.3768272 5.8355207
2.0816252 2.3795588 5.8304529
2.1344225 2.371583 5.8253899
2.1779866 2.3543386 5.8281226
2.2108097 2.3720403 5.8210506
2.2790668 2.3641 5.8263631
2.322202 2.3611641 5.8056598
1.1082752 2.4399521 5.8322449
1.2013704 2.4179492 5.8472662
1.5696579 2.4337552 5.8244319
1.9819957 2.4001901 5.8206682
-0.75510389 0.16950338 5.8849883
-0.68293327 0.19727591 5.8764544
-0.64171088 0.19758618 5.8889046
1.360393 0.77750885 5.8989615
1.3310506 0.82034898 5.8969469
1.3179336 0.87875879 5.8991632
1.3331994 0.92256707 5.8964534
1.3081141 1.0986632 5.8976626
1.5615402 1.4371324 5.8968678
1.5354645 1.5283426 5.8994131
1.6576432 1.5031836 5.8993001
1.5364213 1.5734189 5.8950882
1.7231675 1.5977267 5.8940959
1.5080233 1.6185949 5.8960137
1.6011128 1.6235015 5.897769
1.7244112 1.6284881 5.8927193
1.6167512 1.6539271 5.8925185
1.6660489 1.6885434 5.8959045
1.573459 1.7140738 5.8928504
1.7145429 1.7222672 5.8950891
1.715292 1.7527235 5.8915415
1.586913 1.9373748 5.8982353
1.6807493 1.9425249 5.8964958
1.6557848 2.0382257 5.8986359
1.7217276 2.0754588 5.8997598
1.6812397 2.1250923 5.8938842
1.7224861 2.106467 5.8948011
1.6741654 2.1790483 5.8932881
1.725632 2.1706128 5.8900247
1.6353197 2.2159665 5.896708
1.6852255 2.220566 5.8841567
1.7286782 2.2197573 5.8883758
1.545838 2.2927232 5.8971381
1.6399035 2.2826538 5.8968215
1.6779423 2.2745688 5.8822083
1.7157834 2.283082 5.8825588
1.5323765 2.3253412 5.8977289
1.6268332 2.3309278 5.8945513
1.6723076 2.3310447 5.8857679
1.7241236 2.3228302 5.8828983
1.7803396 2.3186605 5.8746958
