ply
format ascii 1.0
comment PCL generated
element vertex 1525
property float x
property float y
property float z
element camera 0
property float view_px
property float view_py
property float view_pz
property float x_axisx
property float x_axisy
property float x_axisz
property float y_axisx
property float y_axisy
property float y_axisz
property float z_axisx
property float z_axisy
property float z_axisz
property float focal
property float scalex
property float scaley
property float centerx
property float centery
property int viewportx
property int viewporty
property float k1
property float k2
end_header
-2.9583912 1.2743096 3.0824564
-2.9599633 1.3247914 3.0656075
-2.9479377 1.3382909 3.0868199
-2.9541759 1.3811406 3.0778317
-2.9486728 1.3585961 3.0799103
-2.9769261 1.4288994 3.0726669
-2.9798129 1.4738628 3.0715742
-2.9783592 1.5212185 3.0813253
-2.9854717 1.5783191 3.0757816
-2.9848406 1.6242113 3.0756788
-2.9762919 1.6732305 3.0780876
-2.9853876 1.7179637 3.0757866
-2.9893115 1.777823 3.0735414
-2.9831214 1.8176086 3.0901771
-2.9908733 1.8744022 3.0711396
-3.0001745 1.9220115 3.058444
-2.9898419 1.9182997 3.0924106
-2.9927511 1.9760818 3.0766554
-3.0004065 2.0197618 3.0512936
-2.9951029 2.019805 3.0908895
-3.0006766 2.0765455 3.0665858
-2.9968708 2.0788059 3.0757587
-2.9961343 2.1200619 3.0827513
-2.9948759 2.1695063 3.0760536
-3.0026093 2.2258677 3.0779526
-3.0080147 2.2622073 3.0638154
-2.9929609 2.2778778 3.0812874
-2.9884284 2.3251281 3.0784531
-1.9926766 2.3479533 3.0592647
-1.7899152 2.3495882 3.0785358
-1.7234784 2.3371251 3.0903513
-1.6769465 2.3441846 3.0802498
-1.5625339 2.3472342 3.0939403
-1.5238358 2.3497581 3.0725186
-0.99840719 2.3469636 3.0551028
-0.92854834 2.3453791 3.0833318
-2.9567101 2.3588922 3.0757372
-2.9216564 2.3681998 3.0827639
-2.8571804 2.3518898 3.075721
-2.8303976 2.3687284 3.0726316
-2.7865591 2.3798857 3.0702925
-2.7254779 2.3847709 3.0676422
-2.6783118 2.3802466 3.0934877
-2.6362426 2.3823109 3.0706217
-2.5823917 2.381804 3.0708125
-2.5216038 2.3840644 3.072216
-2.4680831 2.3928189 3.072165
-2.4180248 2.3941453 3.0821152
-2.3336344 2.3909287 3.0791583
-2.2726326 2.3796389 3.0800772
-2.2217779 2.3780618 3.0751905
-2.1717608 2.3670545 3.0859046
-2.1161609 2.369185 3.0737476
-2.03407 2.3622732 3.0610023
-1.966109 2.360611 3.0730484
-1.9210596 2.3626943 3.0780299
-1.8776873 2.3604002 3.0742044
-1.8213156 2.3636389 3.0712624
-1.7720997 2.3576844 3.0563099
-1.7333823 2.3567016 3.0739272
-1.669435 2.3524878 3.0539939
-1.6319833 2.3527164 3.0717843
-1.5807133 2.3556571 3.0783815
-1.5238768 2.3560188 3.0684483
-1.4766265 2.3562238 3.0747766
-1.425572 2.3600044 3.0874517
-1.3772684 2.3548028 3.0678506
-1.3191545 2.3589382 3.0758457
-1.2748873 2.3582733 3.076839
-1.2274497 2.3554931 3.0733628
-1.178404 2.3577855 3.0736017
-1.1270976 2.3547492 3.0662715
-1.0812042 2.3623776 3.0722427
-1.0410277 2.3533573 3.0709696
-0.9670344 2.3578129 3.0787933
-0.91455001 2.3564272 3.0536542
-0.87596989 2.3558738 3.0767853
-0.81942934 2.3651941 3.0880404
-0.77724409 2.3675086 3.0787008
-0.72452354 2.3655202 3.0723362
-0.67149502 2.3711443 3.081054
-0.62470543 2.3668802 3.0745957
-0.57843065 2.3675966 3.0655262
-0.53134227 2.3697524 3.084053
-0.4722257 2.3752291 3.0732784
-0.42337665 2.3736546 3.0769784
-0.38277462 2.372375 3.0710981
-0.33000353 2.3770144 3.0735903
-0.27411774 2.3786461 3.0745351
-0.22839408 2.3772883 3.0729895
-0.16781025 2.3802655 3.07496
-0.11864442 2.3828356 3.0767851
-0.074678183 2.382755 3.0777869
-0.034163974 2.3786864 3.0697422
0.027840516 2.379039 3.0680294
0.074777812 2.3854401 3.0778742
0.12737343 2.3804722 3.0734432
0.18046552 2.3858056 3.0782082
0.21651532 2.3864596 3.0941448
0.26857606 2.3822403 3.0768247
0.32644612 2.3871195 3.0786016
0.37038434 2.3861985 3.0733342
0.42809284 2.3838074 3.0726578
0.48202324 2.3886702 3.0725033
0.52804273 2.3879194 3.0826819
0.56794417 2.3858624 3.0706561
0.62799418 2.3923743 3.0819349
0.67483062 2.3915701 3.0697861
0.71700859 2.3878529 3.0686486
0.7876249 2.3920004 3.0838006
0.82948059 2.386137 3.078656
0.87423348 2.3858762 3.0680277
0.92694259 2.3855488 3.0729358
0.97473174 2.3884521 3.0682988
1.0258968 2.3870957 3.0672531
1.0748609 2.3863785 3.0708816
1.1269919 2.3792164 3.0765114
1.1684306 2.3796499 3.0743175
1.2248404 2.3863993 3.0810647
1.2724987 2.3897374 3.0695465
1.3233888 2.3919284 3.0809679
1.3750072 2.3852332 3.0749192
1.4216655 2.3875291 3.0907087
1.4757514 2.3846128 3.0644276
1.5172399 2.3886309 3.0810061
1.5633799 2.386142 3.0711281
1.6325753 2.3955493 3.0763571
1.6760368 2.3893788 3.0785928
1.7225919 2.3917668 3.0821633
1.772269 2.3897324 3.065304
1.8203516 2.393126 3.0689402
1.8780493 2.3910637 3.0693142
1.9163184 2.3882027 3.0785148
1.9699908 2.3958704 3.0778959
2.0231268 2.3918819 3.0723617
2.1210172 2.3952167 3.0858057
2.1595209 2.3954051 3.096082
2.2702169 2.3976467 3.0816617
0.60905904 2.40136 3.0707159
2.1460052 2.4002652 3.0631373
2.173661 2.4089692 3.0619123
2.2164671 2.4031434 3.0748842
2.3455398 2.4031467 3.0954576
2.3639083 2.4113007 3.0723448
2.5655589 2.4067681 3.0593061
2.6589241 2.4144197 3.0637624
-2.0475581 -0.36708176 3.1314843
-2.0609539 -0.3270618 3.1263895
-2.0690436 -0.26930529 3.123219
-2.0752816 -0.22522604 3.1283803
-2.079437 -0.16478963 3.1294394
-2.0767026 -0.11483618 3.1298437
-2.0670929 -0.07892599 3.1190507
-2.0718203 -0.022185192 3.1268508
-2.0754218 0.021890948 3.1293344
-2.8689299 0.095951803 3.1133881
-2.8305531 0.076434284 3.1073771
-2.7877853 0.076004453 3.112942
-2.0789695 0.060310476 3.1256394
-2.873589 0.1151078 3.1178727
-2.8632083 0.38351381 3.1416323
-2.8634169 0.42178023 3.1375749
-2.87041 0.48432842 3.1284392
-2.8836067 0.52895617 3.1277468
-2.8860314 0.57742268 3.122978
-2.8870423 0.62957495 3.1214755
-2.8854842 0.67563587 3.1236763
-2.9065275 0.71460944 3.1025929
-2.8903983 0.7274363 3.137754
-2.9039149 0.78661585 3.1218929
-2.8907859 0.76392317 3.1369298
-2.9087343 0.82676035 3.1183119
-2.9130208 0.87509173 3.1268859
-2.9195039 0.91962785 3.1205809
-2.9206469 0.96779299 3.1220455
-2.9201293 1.0288125 3.1270287
-2.929657 1.0738634 3.1282251
-2.9379373 1.1173046 3.111445
-2.9501863 1.1517254 3.1149101
-2.9437013 1.1748919 3.129601
-2.9528542 1.2405295 3.1284406
-2.9388528 1.2147442 3.1204758
-2.9526889 1.2704577 3.1176519
-2.9480951 1.2927854 3.1244712
-2.9554029 1.3160763 3.1248379
-2.9476268 1.3271379 3.1317835
-2.9649916 1.3753971 3.1348574
-2.9709363 1.4287878 3.1212187
-2.9704244 1.4740978 3.1232347
-2.9782321 1.5239248 3.13343
-2.9747818 1.5759349 3.1171718
-2.9708252 1.6127549 3.1281672
-2.9892883 1.6783055 3.1367252
-2.9863291 1.7363714 3.1349297
-2.9813564 1.7756473 3.1240625
-2.9831226 1.8198334 3.1345298
-2.9816825 1.877803 3.1257679
-2.9823263 1.9269314 3.1238642
-2.9817016 1.9744247 3.1286361
-2.9854748 2.0275736 3.1203623
-2.9953079 2.0662105 3.1126161
-2.9934528 2.1225424 3.125828
-2.9932961 2.1809103 3.1404524
-2.9895172 2.2253118 3.1206429
-2.9868524 2.2679746 3.1281624
-2.9744062 2.3250945 3.1243517
-1.8957666 2.3479385 3.1126742
-1.6322908 2.3478527 3.106914
-1.5322546 2.347223 3.1210241
-1.4947883 2.3439894 3.1172931
-1.3544722 2.3468947 3.1348825
-1.3358754 2.3469245 3.1416485
-1.2183292 2.3456945 3.1203289
-0.9147104 2.3440013 3.1092992
-2.951592 2.3503399 3.1241095
-2.9269221 2.3697047 3.1243277
-2.8330092 2.3583851 3.1092658
-2.7718451 2.378571 3.1243434
-2.7202983 2.3775191 3.115674
-2.6896393 2.3785026 3.1407785
-2.6275461 2.3818779 3.1344604
-2.5732472 2.3818932 3.1158247
-2.5249624 2.3867218 3.10337
-2.4941356 2.3869801 3.1256218
-2.4232633 2.3889349 3.1228669
-2.3758991 2.3894141 3.1195362
-2.3324754 2.3798959 3.1295776
-2.2771277 2.3850508 3.1313
-2.2220917 2.3694384 3.1274376
-2.1887369 2.3763547 3.1439824
-2.1202533 2.3649871 3.1133969
-2.0833108 2.3738003 3.1184027
-2.029309 2.3713543 3.1286716
-1.9689127 2.3607254 3.1273413
-1.9370359 2.3628132 3.1166568
-1.8692839 2.3608332 3.1258388
-1.8283492 2.3678951 3.1358361
-1.7800707 2.3638496 3.1227524
-1.7094381 2.357029 3.1303525
-1.6689997 2.3539791 3.1440368
-1.6083581 2.3543441 3.1282287
-1.5921152 2.3583834 3.1419125
-1.472845 2.3613386 3.1258249
-1.4269001 2.3589387 3.1263311
-1.3814713 2.356766 3.1266639
-1.3279463 2.3515236 3.1112401
-1.2832885 2.3544674 3.1314955
-1.2255297 2.3510442 3.1063304
-1.1686041 2.3611269 3.1299295
-1.1226473 2.3561771 3.1270752
-1.0733635 2.3623321 3.1217458
-1.0241659 2.3587651 3.1208653
-0.98921847 2.3714395 3.1295853
-0.9192487 2.3556755 3.1247396
-0.86787081 2.3532608 3.1212234
-0.82904625 2.3572018 3.1256547
-0.77285796 2.3691742 3.1395626
-0.73214018 2.3680036 3.1189079
-0.67597073 2.3645222 3.1155283
-0.62315112 2.3680027 3.129256
-0.57198948 2.3712792 3.1275299
-0.52574652 2.3718917 3.1256075
-0.47665763 2.370713 3.1186869
-0.42356044 2.3774393 3.1252115
-0.36992562 2.3766382 3.1296859
-0.32988876 2.3770158 3.1217098
-0.28471693 2.3765571 3.1281018
-0.22635628 2.3712869 3.1249936
-0.17713244 2.3701036 3.1174088
-0.12024023 2.3887138 3.1355021
-0.075554185 2.3842747 3.1308172
-0.023972595 2.3832402 3.1301303
0.018655321 2.3826923 3.1157441
0.075595558 2.3873739 3.1263392
0.12952907 2.3936856 3.1417553
0.18249892 2.3863158 3.1299398
0.22931074 2.3853111 3.1146965
0.27173242 2.3879769 3.1268914
0.33027232 2.38818 3.1312656
0.37559387 2.3844521 3.1274016
0.42462489 2.3873343 3.1296568
0.4702234 2.3919435 3.1304705
0.52358913 2.3871827 3.1230648
0.58344626 2.392746 3.1247883
0.63165069 2.3839369 3.1140873
0.68003732 2.3874874 3.1284618
0.72612983 2.3910811 3.1248176
0.76856345 2.3890917 3.1197693
0.8189919 2.3898752 3.122345
0.87863475 2.3874412 3.1147625
0.92072755 2.3912208 3.1253827
0.96471882 2.3966169 3.1343436
1.0369879 2.3955214 3.1261461
1.0690821 2.3867805 3.1298888
1.1109802 2.3786817 3.1187737
1.1653831 2.3778017 3.1265543
1.2271075 2.3902707 3.1250801
1.2783395 2.3901849 3.1275063
1.3227428 2.3902588 3.1219037
1.3787812 2.3868372 3.1333449
1.4241374 2.3886628 3.1325312
1.4770678 2.3859191 3.1176944
1.5297081 2.3879418 3.130671
1.5845447 2.3945503 3.1283987
1.6277246 2.3925555 3.1277194
1.6696997 2.3836241 3.1269562
1.7205511 2.3916066 3.1383016
1.772754 2.387363 3.1285622
1.824433 2.3885918 3.1122735
1.8697466 2.3906496 3.107661
1.9292846 2.3969383 3.1336269
1.9765573 2.3968201 3.1315734
2.0208843 2.3928347 3.1237268
2.1182716 2.3938305 3.1181617
2.1814215 2.3995187 3.141094
2.2202029 2.3979294 3.114054
2.2890956 2.3866787 3.1007924
2.327734 2.3955162 3.1191659
2.5069838 2.399272 3.1423171
0.99443942 2.4021285 3.1344256
1.0119338 2.4001541 3.1269677
2.1081727 2.4050305 3.1446161
2.263746 2.4026268 3.1475737
2.4179912 2.41453 3.1229808
2.4846828 2.4086056 3.1205978
2.5747807 2.4140613 3.1245813
2.641922 2.4065223 3.118083
-2.0256479 -0.41589439 3.1991768
-1.9906101 -0.4294377 3.1775322
-2.0520668 -0.37100482 3.173435
-2.040951 -0.39125276 3.1779311
-2.0562193 -0.3160561 3.1726158
-2.0430627 -0.31180078 3.1997938
-2.0550907 -0.27520558 3.1678247
-2.0419595 -0.29429209 3.1993015
-2.0628264 -0.22148965 3.1754286
-2.0630186 -0.17461845 3.1779001
-2.064425 -0.12014354 3.1719222
-2.0680327 -0.068551421 3.1785717
-2.064626 -0.027106892 3.1808281
-2.0649052 0.015642423 3.1786516
-2.8554783 0.09673439 3.170083
-2.0741005 0.060913213 3.1703517
-2.8589656 0.11563262 3.155431
-2.848464 0.11595928 3.179657
-2.8364818 0.3252711 3.1535199
-2.8479252 0.37443897 3.1616793
0.77529734 0.37037268 3.157676
-2.8506985 0.43230018 3.1584158
-2.8383265 0.41271007 3.1648424
0.76423675 0.40353763 3.1758053
-2.8529952 0.4710263 3.1562157
-2.8240829 0.46940511 3.1600432
0.74766237 0.46493593 3.1680534
0.75042343 0.49777114 3.1765888
-2.8644331 0.52107757 3.1623108
-2.844758 0.520971 3.176677
-2.865639 0.57136905 3.1746063
-2.8713157 0.62092412 3.1730149
-2.8379483 0.62962377 3.1888764
-2.8703156 0.67386824 3.1749556
-2.8610389 0.71924287 3.1743419
-2.880338 0.76971745 3.1865356
-2.9071987 0.82840747 3.1636429
-2.8968298 0.81487727 3.1832976
-2.9047394 0.87609756 3.1783648
-2.9283903 0.92966276 3.1733334
-2.9217463 0.97021627 3.1744223
-2.9119539 1.0197505 3.1689162
-2.9302759 1.0771301 3.180691
-2.9386203 1.123677 3.173945
-2.9335506 1.1767951 3.1805372
-2.9369502 1.2215259 3.1725659
-2.9524772 1.2814682 3.1818676
-2.9355316 1.2501171 3.1856093
-2.954936 1.329394 3.1814113
-2.9574924 1.3711457 3.1689982
-2.9653308 1.425519 3.1746118
-2.9630585 1.4753684 3.1772625
-2.9651837 1.532971 3.1775947
-2.9718285 1.5760322 3.1749582
-2.9723399 1.6320044 3.1801274
-2.9772983 1.6747571 3.1745315
-2.9810658 1.7245247 3.1786115
-2.9797096 1.7703362 3.1850345
-2.9812026 1.8209244 3.1772778
-2.9807498 1.8680454 3.1836853
-2.9818633 1.9296733 3.1686165
-2.9761729 1.9717369 3.1854715
-2.9797668 2.0167832 3.1660218
-3.0002661 2.0844021 3.1576846
-2.9885123 2.0718544 3.1801949
-2.9880204 2.1231613 3.1664395
-2.9924459 2.1763456 3.174963
-2.9790041 2.2258818 3.175396
-2.9782476 2.2779346 3.159441
-2.973887 2.3132181 3.1820273
-2.9481332 2.3430588 3.1747093
-1.5228144 2.3497138 3.1998513
-0.9129467 2.3497734 3.1925008
-0.84960824 2.3452551 3.1630366
-2.9232738 2.3679824 3.1713595
-2.8686168 2.3663013 3.1622856
-2.8287833 2.370966 3.172215
-2.7901626 2.3765335 3.1828845
-2.7238433 2.3675964 3.1720521
-2.6791606 2.3773422 3.1760855
-2.6314392 2.3737578 3.1733031
-2.5666516 2.3844013 3.1643085
-2.5174556 2.3882787 3.168644
-2.4776692 2.390624 3.1727068
-2.4259155 2.3911529 3.1808071
-2.319828 2.3776779 3.1692238
-2.2921457 2.380816 3.1930497
-2.2115681 2.369904 3.1694164
-2.1702163 2.3786736 3.1767623
-2.1089931 2.3658938 3.17203
-2.0182037 2.3616922 3.1663311
-1.9322842 2.3613057 3.1641045
-1.8755268 2.356653 3.173701
-1.8279392 2.3604574 3.1693795
-1.7766795 2.3592777 3.1772547
-1.7296957 2.3546607 3.1766195
-1.6743604 2.3558471 3.1889999
-1.6223558 2.3556764 3.1676815
-1.5739064 2.3563583 3.1752183
-1.5261835 2.3592768 3.1711428
-1.473081 2.3550992 3.1751728
-1.4298716 2.3557966 3.1720665
-1.3798068 2.3556066 3.1800683
-1.3288068 2.3611896 3.179678
-1.2650775 2.3584054 3.1736648
-1.2196168 2.3564062 3.175498
-1.1726593 2.35551 3.1691508
-1.120548 2.357749 3.1783493
-1.0659434 2.3636129 3.1735256
-1.0174055 2.371176 3.1850274
-0.97192764 2.3716094 3.1845419
-0.93050331 2.3614826 3.1770208
-0.8812601 2.3570132 3.1727591
-0.82161641 2.3578594 3.1747029
-0.78257912 2.3622329 3.1790969
-0.71879518 2.3707712 3.1740973
-0.66643417 2.3675108 3.1752174
-0.62508678 2.3699203 3.176322
-0.57530665 2.3746035 3.1813977
-0.51807648 2.3660212 3.1686897
-0.47841835 2.3723497 3.1699765
-0.42390728 2.3774681 3.1778255
-0.37863845 2.3763347 3.1809134
-0.31940481 2.3761513 3.1770909
-0.27705148 2.3793266 3.1729248
-0.23891634 2.3812618 3.1896698
-0.16632548 2.3835986 3.1790459
-0.12114868 2.3814006 3.1742392
-0.076209143 2.3777559 3.174021
-0.031306677 2.3759441 3.1722038
0.022494273 2.3817449 3.1765327
0.076210983 2.3840351 3.1649811
0.13017009 2.3832779 3.1712656
0.17807168 2.3823869 3.1711235
0.22038342 2.3838243 3.1767073
0.27099624 2.388284 3.1760402
0.32495078 2.3841517 3.1734443
0.37381145 2.3784168 3.1754317
0.41645187 2.394835 3.1845088
0.47547722 2.3915985 3.1822803
0.52945232 2.3898284 3.1730027
0.57160485 2.3835824 3.1704807
0.61854488 2.3912175 3.176141
0.66816121 2.3912745 3.1717255
0.73390538 2.3892939 3.1752503
0.76746368 2.3899202 3.1787667
0.82277691 2.3913198 3.1693811
0.87012017 2.3919663 3.172914
0.92287904 2.3882926 3.170357
0.97887897 2.3905218 3.159641
1.0215219 2.3905027 3.1770036
1.0759183 2.3835719 3.1615822
1.1399964 2.3924971 3.1754055
1.1760365 2.3808587 3.16679
1.226274 2.3881888 3.1617618
1.2688082 2.3913896 3.1791761
1.327876 2.3882349 3.1776628
1.3704964 2.3862693 3.1764383
1.4253293 2.3876064 3.1718051
1.4800173 2.3899488 3.1752188
1.5303267 2.3847134 3.1677425
1.5837148 2.3853695 3.1751492
1.6303357 2.3864689 3.1711683
1.6604106 2.3882401 3.1606543
1.739233 2.3980649 3.185169
1.7567393 2.39538 3.1723659
1.8463651 2.3911984 3.1670508
1.8744057 2.3921854 3.1778138
1.9226704 2.3934946 3.1786108
1.9669861 2.38939 3.1717503
2.0316818 2.3974228 3.1747563
2.0645618 2.3923912 3.1966343
2.119813 2.3981433 3.1754045
2.1756182 2.3950984 3.1875868
2.2578068 2.397526 3.1942089
2.3210785 2.3995011 3.1578898
0.71049148 2.4025962 3.198
1.8337255 2.4002783 3.1889496
2.0040519 2.400167 3.1950023
2.0864131 2.4030159 3.1536729
2.1220689 2.4006901 3.1786909
2.1650586 2.4037013 3.1588016
2.2339268 2.4033537 3.1676207
2.2907147 2.4101229 3.1712127
2.3084962 2.4077277 3.1819158
2.3779571 2.4156971 3.1522069
2.4214151 2.4178553 3.1823406
2.4891255 2.4021263 3.1605401
2.6132026 2.4082561 3.171978
-2.0302343 -0.40758625 3.2315903
-2.0568047 -0.36629662 3.2171404
-2.035202 -0.37095842 3.240437
-2.0601537 -0.3425999 3.2123363
-2.040904 -0.33164498 3.2309067
-2.0404618 -0.27467453 3.2197666
-2.0509148 -0.22591293 3.2175465
-2.0446758 -0.22715808 3.2436714
-2.0528057 -0.15639251 3.2236209
-2.0457177 -0.17759904 3.2332211
-2.0567627 -0.12584059 3.2218671
-2.0450783 -0.13963228 3.2480037
-2.057574 -0.057584833 3.2215898
-2.0460997 -0.086750567 3.2329731
-2.0510321 -0.025619179 3.2235062
-2.0417123 -0.025727972 3.2447357
-2.0514247 0.00050962676 3.224185
-2.0453129 0.02144636 3.2360287
-2.8511126 0.097532131 3.2193003
-2.0654855 0.06167144 3.2278059
-2.044832 0.05304762 3.2493799
-2.8646238 0.11738365 3.2339847
-2.8582892 0.68283761 3.2031336
-2.8652768 0.73333758 3.201637
-2.8672807 0.7853744 3.212317
-2.8394327 0.76091385 3.2035272
-2.8750014 0.81670439 3.2261653
-2.909873 0.87370056 3.2235582
-2.887373 0.85303032 3.240495
-2.91064 0.92667502 3.2311702
-2.9160857 0.97361314 3.2217216
-2.9135621 1.0207473 3.2297065
-2.9173017 1.0721426 3.2197318
-2.9293921 1.1268536 3.2180767
-2.9334207 1.1828214 3.2258353
-2.9272604 1.224813 3.2249515
-2.9506736 1.2652181 3.240453
-2.9490299 1.2848985 3.231617
-2.9547424 1.3486638 3.2159398
-2.9463735 1.3142992 3.2178998
-2.9586246 1.3877357 3.2203491
-2.9464881 1.3644822 3.2418351
-2.9508884 1.41787 3.2273257
-2.9443483 1.4352241 3.2122018
-2.9627628 1.4820219 3.2316334
-2.9548719 1.5159512 3.2220039
-2.9619749 1.568099 3.2239263
-2.9675682 1.6199602 3.2235715
-2.967705 1.6764768 3.2281141
-2.9658523 1.7339028 3.2216172
-2.9792345 1.7796619 3.2410073
-2.9800479 1.8225236 3.2211101
-2.9708135 1.8724064 3.2298841
-2.9772296 1.9297631 3.2093282
-2.9728901 1.9730047 3.2279243
-2.9832296 2.0228906 3.2159147
-2.9906676 2.0677929 3.2263613
-2.9817667 2.1123805 3.2126694
-2.9881654 2.1682673 3.2149172
-2.9848385 2.2256198 3.2266092
-2.9864962 2.2789817 3.2225182
-2.9746687 2.3309751 3.2239435
-2.9485345 2.3387852 3.2299891
-1.7220858 2.34899 3.2006204
-1.4624517 2.3447495 3.2155533
-2.9405477 2.3633044 3.228179
-2.8743548 2.3671508 3.2236247
-2.8125801 2.3646972 3.2018087
-2.7983751 2.3709943 3.2267847
-2.7154665 2.3677731 3.219358
-2.6623225 2.3801942 3.2245326
-2.6115866 2.37394 3.2176683
-2.569416 2.375072 3.2203493
-2.5296092 2.3780916 3.2253385
-2.474494 2.376287 3.2303495
-2.4289198 2.3834968 3.219173
-2.387152 2.3834825 3.2188859
-2.3294907 2.3880634 3.237587
-2.2922912 2.3817222 3.2484498
-2.2255383 2.3862841 3.2447057
-2.1729088 2.3727357 3.2241235
-2.1233044 2.3729715 3.2276726
-2.0676618 2.3724248 3.2278621
-2.0149052 2.3729482 3.2379303
-1.969004 2.3640618 3.2218671
-1.9251124 2.3690417 3.2295387
-1.8808173 2.3633919 3.2420943
-1.8255348 2.3581126 3.224726
-1.7718767 2.3571033 3.2370346
-1.7068527 2.3547313 3.2173452
-1.6700025 2.357609 3.2386305
-1.6260871 2.3539715 3.2219772
-1.5850544 2.3521574 3.2216268
-1.5279834 2.3577151 3.2106884
-1.4948833 2.3659301 3.2371743
-1.4235531 2.3560393 3.22017
-1.3742616 2.3595929 3.2297628
-1.3326237 2.3602254 3.2178507
-1.2775016 2.3580129 3.2193658
-1.2297115 2.3567169 3.2328331
-1.1802993 2.356812 3.218215
-1.1289549 2.3618846 3.2311578
-1.0768343 2.3596754 3.222882
-1.0293533 2.3670187 3.2270701
-0.98310518 2.3663177 3.2224648
-0.92178392 2.3539393 3.2343855
-0.87960362 2.3588953 3.2132928
-0.82536411 2.3617008 3.2290246
-0.77841616 2.3681967 3.2291915
-0.72897321 2.3666995 3.2177944
-0.67980528 2.3756237 3.2298975
-0.63576293 2.3700919 3.2202802
-0.57775968 2.3664639 3.2058065
-0.52412051 2.3709774 3.2194874
-0.47065461 2.3769624 3.2344055
-0.43200624 2.3748472 3.2178996
-0.36840641 2.3751004 3.2245798
-0.32594487 2.3723361 3.2209077
-0.27407637 2.3754408 3.2266569
-0.22675215 2.3822854 3.2181649
-0.18191874 2.3892717 3.2299347
-0.12256929 2.385025 3.2264373
-0.077270016 2.3833017 3.2340622
-0.036287092 2.3878989 3.2320385
0.02274625 2.3846157 3.2276995
0.077149257 2.3864248 3.22066
0.11973872 2.3882713 3.228035
0.16832928 2.3890052 3.230197
0.22353478 2.3904738 3.2383785
0.28214419 2.3898349 3.224973
0.32099018 2.3857305 3.2372658
0.37384072 2.384995 3.2286935
0.42743546 2.3808451 3.2230783
0.47955564 2.3938565 3.2206373
0.52608395 2.3884466 3.2254598
0.58489323 2.3891242 3.2242601
0.63495356 2.3934987 3.2226188
0.67671084 2.3944409 3.2293005
0.72159928 2.3907783 3.2162592
0.78764194 2.3866134 3.2163646
0.83258533 2.3980753 3.2296333
0.88185644 2.3909574 3.2307606
0.92555594 2.391315 3.2308216
0.97199535 2.3911872 3.2193968
1.0230378 2.3925622 3.2276533
1.0761195 2.3916097 3.2217469
1.1219305 2.3948543 3.2234402
1.1749099 2.3826048 3.225141
1.2260157 2.3868973 3.2157674
1.2742939 2.3884187 3.2266586
1.3280305 2.3878047 3.2212913
1.3761878 2.3819072 3.2226582
1.4342532 2.3876038 3.224308
1.4671602 2.3828757 3.2183998
1.5218843 2.382211 3.2099659
1.5789948 2.3880112 3.2248986
1.6342216 2.389859 3.2338607
1.6734749 2.3917243 3.227195
1.7409446 2.394311 3.2234619
1.7833073 2.398545 3.210628
1.820773 2.3894229 3.2232163
1.8502798 2.3822176 3.2432411
1.9180565 2.3925667 3.2271779
1.971241 2.3873606 3.2223608
2.0257282 2.3939843 3.2211528
2.0661819 2.3857541 3.2336059
2.1313686 2.3917384 3.22452
2.1721377 2.3932948 3.2379692
2.276684 2.3969004 3.2343929
2.3619237 2.3999586 3.2409604
-2.3765101 2.4041731 3.2394278
0.15008441 2.4014602 3.2211914
0.6639902 2.4001746 3.2027891
1.7138959 2.4015296 3.2178152
2.1042538 2.4062035 3.2498829
2.2332563 2.4041386 3.2219338
2.349889 2.4085076 3.210856
2.3796291 2.4072142 3.2164526
2.4059882 2.4023628 3.2171152
2.5274029 2.4072056 3.2301183
2.6890702 2.4064646 3.2021089
-0.28069618 -0.56935585 3.2761185
-0.075187691 -0.58612812 3.2869627
0.14686647 -0.57124722 3.2927547
0.22565967 -0.56983787 3.2817039
0.28756627 -0.56704015 3.262362
0.30518031 -0.57051778 3.281431
-1.9742178 -0.51184475 3.2892725
-2.0204389 -0.46131751 3.2967196
-1.9938023 -0.49464622 3.2864125
0.75882536 -0.49768731 3.2850068
-2.0201821 -0.41995922 3.2779884
-2.0251241 -0.37536091 3.2845404
-2.0285115 -0.32512119 3.2663341
-2.0295954 -0.28128612 3.2711213
-2.0333161 -0.23218057 3.2763162
-2.0284004 -0.17551582 3.2746496
-2.0360982 -0.1205692 3.2751901
-2.0500891 -0.069736212 3.2576098
-2.0401635 -0.065480076 3.2691107
-2.0312059 -0.028862806 3.2764251
-2.0400956 0.018119527 3.2784989
-2.8528652 0.098234862 3.2576962
-2.8396685 0.098429605 3.2791579
-2.0582213 0.071024999 3.270386
-2.0466099 0.053542294 3.2886679
-2.8514814 0.1176191 3.2555482
-2.8405356 0.11794975 3.2795947
-2.8637528 0.83496356 3.2743936
-2.903966 0.88783479 3.2521722
-2.8815467 0.86580563 3.2824516
-2.9070663 0.9350903 3.2837994
-2.8976493 0.90200776 3.2804375
-2.9148202 0.97787327 3.2824111
-2.9103098 1.0222906 3.2785294
-2.9247534 1.0721539 3.268898
-2.9325559 1.1295998 3.2820249
-2.9362409 1.1717646 3.273747
-2.9294159 1.2240034 3.2690945
-2.9422653 1.2870163 3.2781248
-2.9538329 1.3333017 3.2766056
-2.9469059 1.3225632 3.2997966
-2.9515705 1.376374 3.2864799
-2.9644887 1.4343543 3.2814112
-2.9440835 1.4038438 3.2666616
-2.9598286 1.4701229 3.2759392
-2.9534214 1.5224557 3.2756341
-2.9323392 1.543143 3.2832103
-2.9571424 1.5765839 3.2580497
-2.9365089 1.5662158 3.2792013
-2.9690993 1.629034 3.2812204
-2.9652452 1.676414 3.2700262
-2.962018 1.7213717 3.2755394
-2.9651668 1.7810775 3.282593
-2.9659054 1.8227334 3.2712688
-2.9706206 1.8750372 3.2755136
-2.9755187 1.9280074 3.2794118
-2.9734669 1.9768486 3.2750196
-2.9835844 2.0269494 3.2629118
-2.9822485 2.0697908 3.2744071
-2.986623 2.1312821 3.258883
-2.985194 2.1809282 3.2617722
-2.9821048 2.220659 3.250737
-2.9815097 2.2699122 3.2718523
-2.9745467 2.3260541 3.2791021
-1.5992213 2.3485241 3.2981954
-1.4196607 2.3494444 3.2814827
-1.293264 2.3488624 3.2820194
-1.0471903 2.3488495 3.2734282
-0.93412679 2.347918 3.2997265
-0.87068921 2.3475342 3.2746398
-2.9520667 2.359189 3.2755489
-2.9086332 2.3732009 3.2760675
-2.8239346 2.370683 3.2701118
-2.7720046 2.3762875 3.2584019
-2.7199354 2.3688202 3.2800581
-2.6792276 2.3696699 3.2703865
-2.6244361 2.3734677 3.2773058
-2.5784566 2.3712995 3.2847354
-2.525212 2.383301 3.2682214
-2.4680634 2.3692164 3.2772744
-2.4205585 2.3712549 3.2747333
-2.3710623 2.37778 3.2732022
-2.3259096 2.3848791 3.2881856
-2.2678459 2.3711708 3.278682
-2.2286193 2.3799789 3.283673
-2.176759 2.3891218 3.2790031
-2.1235445 2.3611841 3.2737873
-2.0845995 2.3662345 3.2879457
-2.0302405 2.370738 3.2753959
-1.9310265 2.3685975 3.2741399
-1.877787 2.3629274 3.2746964
-1.8135504 2.3533366 3.2573078
-1.7844894 2.3540745 3.2723048
-1.7253183 2.3605201 3.2643158
-1.6750059 2.3588791 3.2837925
-1.6239282 2.3530185 3.2806609
-1.5709496 2.3598845 3.2731705
-1.5237482 2.3598487 3.2765565
-1.4711683 2.3548663 3.2713013
-1.4220604 2.3556154 3.2622795
-1.3737055 2.3559163 3.2659314
-1.3217665 2.3581595 3.2665043
-1.2784721 2.357775 3.2732861
-1.2297044 2.3558905 3.2721055
-1.173562 2.357542 3.2754617
-1.1254903 2.3554647 3.2620976
-1.0779366 2.3544362 3.273705
-1.0248133 2.3605278 3.2731979
-0.97998929 2.3640702 3.2740309
-0.92944866 2.3548801 3.2723696
-0.88395423 2.362114 3.267746
-0.83133882 2.3555217 3.2660697
-0.77218884 2.368459 3.2719605
-0.72422451 2.3696704 3.2825196
-0.68045664 2.3709371 3.269418
-0.62119365 2.3782353 3.2744362
-0.57251751 2.376056 3.278487
-0.52631235 2.3716545 3.2711594
-0.47869581 2.3712742 3.2709591
-0.42819011 2.3767459 3.2750759
-0.38606039 2.3771958 3.2708004
-0.32189223 2.3785214 3.278177
-0.27098837 2.3782787 3.276118
-0.22460985 2.3845825 3.2659969
-0.17881988 2.3762324 3.2747037
-0.1238048 2.3769515 3.2777119
-0.065086015 2.3776627 3.2764659
-0.02597194 2.3800893 3.2778604
0.022896715 2.378376 3.2635586
0.078004725 2.3761172 3.277709
0.12397831 2.3783522 3.2796986
0.16967776 2.3802638 3.2717178
0.21994829 2.3785486 3.2669611
0.27648088 2.3813431 3.2728219
0.31734377 2.3833277 3.2762175
0.36929879 2.3836648 3.2759938
0.42424455 2.3843598 3.2770782
0.47535697 2.3910823 3.2717128
0.51075411 2.3953152 3.2794445
0.57966638 2.3934782 3.2799129
0.61639309 2.3920171 3.2725015
0.67333138 2.3967564 3.2701375
0.7297408 2.3990355 3.2635703
0.77033854 2.391072 3.2822673
0.82641584 2.3912041 3.2713928
0.87218875 2.3887155 3.2581503
0.92489749 2.3857284 3.2803535
0.97574294 2.3952873 3.2823896
1.022947 2.3954883 3.2708845
1.0726622 2.3918078 3.2720718
1.1229409 2.388833 3.2735653
1.1738545 2.386384 3.2753172
1.221639 2.3775489 3.2674932
1.2771002 2.3924179 3.2727995
1.3204908 2.3921411 3.2787757
1.3705348 2.3812864 3.2759557
1.4294716 2.3924732 3.2761467
1.4759022 2.3818016 3.2702472
1.5362257 2.3888142 3.2726851
1.5718927 2.387223 3.2703907
1.6213104 2.3913507 3.271451
1.6694987 2.3846316 3.2846303
1.7357899 2.3946099 3.2721021
1.7744144 2.3894601 3.2733135
1.8320963 2.3843594 3.2558494
1.8843557 2.3954632 3.2813761
1.9274695 2.3967066 3.2779589
1.95679 2.395654 3.2610197
2.0254674 2.385359 3.2552571
2.0886974 2.3913004 3.2818935
2.123266 2.3850677 3.2679517
2.1753242 2.3988626 3.2987642
2.2167346 2.398988 3.2747922
2.2861547 2.3969569 3.2824845
2.5090799 2.399333 3.2551594
2.5502849 2.3969007 3.2801549
0.54417223 2.4004996 3.2946656
0.55870938 2.4016497 3.2575004
0.63584292 2.4047239 3.2688644
0.67460358 2.4012749 3.2762566
0.7306608 2.4020224 3.2675853
0.76828229 2.4032984 3.2624424
1.711782 2.4025245 3.2962735
2.0591128 2.4010527 3.2655911
2.2178211 2.4070673 3.2719162
2.3417652 2.4006474 3.255162
2.3906372 2.4079986 3.2940054
-0.30930337 -0.5624333 3.3291402
-0.26925537 -0.5626176 3.3325024
-0.22007573 -0.57232696 3.3199837
-0.17269143 -0.57857645 3.3342094
-0.12439843 -0.57796264 3.3320742
-0.075954922 -0.57612687 3.3224442
-0.028048925 -0.57032418 3.3367219
0.030868562 -0.5728597 3.3356457
0.060179442 -0.56902868 3.3290057
0.12203149 -0.5627194 3.3387384
0.17591955 -0.56338316 3.3170323
0.22776924 -0.5591082 3.3136799
0.27674994 -0.56126654 3.324086
0.32461417 -0.56090653 3.3191032
0.35525325 -0.55863386 3.303534
0.55527043 -0.5510484 3.3388283
-1.9825337 -0.5186519 3.3409946
-0.40005702 -0.54958141 3.3443315
-0.37593865 -0.54977751 3.3473616
-0.30290601 -0.54931545 3.3493783
0.16479144 -0.54632187 3.3373692
0.23000555 -0.54854155 3.3484294
0.27839696 -0.54850411 3.345803
0.32648525 -0.54799438 3.3398373
0.37515986 -0.54842496 3.3391368
0.42733508 -0.54003531 3.3339417
0.47110143 -0.5393613 3.3259258
0.51277405 -0.54083371 3.3311641
0.57294518 -0.53620601 3.3472736
0.61214471 -0.53492451 3.3345437
0.67730451 -0.5189774 3.3296533
-2.0120986 -0.47681448 3.3317626
-1.9966924 -0.49980623 3.328759
0.74960655 -0.48606786 3.3193295
0.76935184 -0.47199798 3.3337364
-2.0119627 -0.43495101 3.323122
-2.0151753 -0.36995524 3.3191791
-2.016778 -0.32008287 3.3219545
-2.0185444 -0.27578291 3.3278177
-2.0182474 -0.22824548 3.3219497
-2.0200438 -0.17417783 3.3315952
-2.0178802 -0.12426097 3.3334024
-2.0272872 -0.073179789 3.3205752
-2.0324371 -0.023277702 3.3277588
-2.0320365 0.018265348 3.3208535
-2.0574689 0.071602233 3.305846
-2.0387001 0.062949277 3.3312945
0.75037926 0.14610498 3.3438077
-2.8677223 0.84486324 3.3356249
-2.8704567 0.87716001 3.3186891
-2.9014223 0.93972951 3.3154707
-2.8863759 0.90788078 3.3245816
-2.9046788 0.98121178 3.3090875
-2.8930712 0.96382403 3.339206
-2.9077339 1.0263329 3.3212123
-2.9191551 1.0711083 3.3231146
-2.926549 1.1217468 3.3280377
-2.9210041 1.1772131 3.3285644
-2.9349945 1.2309494 3.329421
-2.9371662 1.2711779 3.3260453
-2.9347472 1.3160212 3.3289003
-2.9552577 1.398224 3.3262146
-2.9453447 1.3623619 3.3263333
-2.9556046 1.4296949 3.3149335
-2.9463153 1.4352912 3.344157
-2.9584584 1.4623914 3.3061798
-2.9379308 1.4729445 3.3187194
-2.9566455 1.5244114 3.3232365
-2.9476821 1.5411818 3.3489377
-2.9576755 1.5887645 3.3429427
-2.9577038 1.6131989 3.3176663
-2.9420886 1.6341933 3.3477159
-2.957499 1.6763947 3.3163214
-2.9491353 1.6593784 3.3465598
-2.9559696 1.7271957 3.3257668
-2.9568257 1.7767491 3.3273683
-2.9645739 1.820159 3.3412032
-2.9717188 1.8677151 3.3282795
-2.9669127 1.9147787 3.3218477
-2.9739475 1.9698106 3.3280716
-2.9731464 2.0214105 3.3161068
-2.9709871 2.0699751 3.3196545
-2.990016 2.1273134 3.3165169
-2.9867659 2.1700172 3.3255606
-2.9897077 2.2335067 3.3234406
-2.9855568 2.2787344 3.3249447
-2.9619553 2.3207877 3.332608
-1.3618872 2.3493724 3.3017392
-1.0932393 2.3482795 3.3000154
-2.9364185 2.3629873 3.3188362
-2.8958654 2.3788364 3.3318067
-2.8334742 2.3658352 3.3161192
-2.7914448 2.3692765 3.3231504
-2.7411127 2.3653677 3.3193936
-2.6582403 2.3718398 3.3308454
-2.6212087 2.3677835 3.3477857
-2.5842247 2.3646247 3.3361266
-2.5304804 2.376915 3.309659
-2.4716196 2.3615336 3.3164797
-2.3869843 2.3725808 3.336549
-2.3377676 2.3760004 3.3182323
-2.2801859 2.3598261 3.3210497
-2.2228916 2.3752301 3.3312716
-2.1796339 2.3721926 3.3150167
-2.1291285 2.3842757 3.3490243
-2.0622208 2.3756473 3.3177772
-2.0206833 2.3736837 3.3194268
-1.9789057 2.3711221 3.3198128
-1.9267206 2.3678896 3.3238633
-1.865612 2.3645811 3.3236041
-1.8202502 2.3679774 3.3271
-1.7665762 2.3654094 3.3315713
-1.7345405 2.3668022 3.3171501
-1.677693 2.35676 3.3246078
-1.6263704 2.3541093 3.3415656
-1.5742638 2.3575027 3.3344901
-1.5173765 2.3580809 3.3463709
-1.4744984 2.3563721 3.3157396
-1.4314486 2.3655283 3.346375
-1.3868203 2.3571005 3.3339775
-1.3271693 2.3560731 3.3240883
-1.2677842 2.3580692 3.3359308
-1.2206495 2.3560812 3.3161335
-1.1716869 2.3538356 3.3271074
-1.1318562 2.3600965 3.327764
-1.0669751 2.3529663 3.3141618
-1.0214506 2.3573458 3.3324394
-0.97871768 2.3601339 3.3174341
-0.91060281 2.3599901 3.3230574
-0.86914378 2.3646128 3.3259623
-0.8234449 2.3628197 3.3262322
-0.77360183 2.3638668 3.3181477
-0.73000401 2.3745859 3.3417053
-0.66927898 2.3691885 3.3251011
-0.62996745 2.3714993 3.3156817
-0.57576805 2.3789189 3.3341904
-0.52768135 2.3730717 3.3321676
-0.47505802 2.3695967 3.3186557
-0.42190328 2.3747339 3.3094807
-0.37214842 2.3666697 3.3151
-0.33033922 2.3829024 3.329242
-0.27457687 2.3838136 3.3345382
-0.2216918 2.3833423 3.3223805
-0.17113304 2.3694959 3.3199244
-0.12527668 2.3771143 3.3322194
-0.088028491 2.3831711 3.3234973
-0.013896425 2.3887863 3.3322093
0.023194203 2.3855045 3.3184836
0.079237565 2.3851414 3.3446095
0.12570688 2.3832116 3.3407965
0.17098655 2.3846009 3.3046641
0.23980202 2.3887634 3.319299
0.2750259 2.3871331 3.339232
0.32492787 2.3912232 3.3267276
0.37718973 2.3847029 3.3278751
0.42142451 2.3828504 3.3333924
0.47107288 2.3883998 3.3235781
0.52847236 2.3950319 3.3260887
0.56382847 2.3863416 3.3091481
0.63381058 2.3949699 3.3300893
0.67467117 2.3947601 3.3138959
0.71956217 2.3992453 3.3222313
0.77676296 2.3922577 3.3207798
0.8168577 2.3898005 3.3287578
0.87584007 2.3943172 3.3270593
0.92321181 2.3868561 3.3212566
0.97358257 2.3847661 3.3261194
1.0237072 2.3909512 3.3231304
1.0668542 2.3868389 3.3157873
1.1287822 2.3828599 3.3299429
1.1663629 2.3910651 3.3251338
1.2173338 2.3873937 3.3248603
1.2731727 2.383791 3.3019497
1.3212075 2.381933 3.3252022
1.3748029 2.3789091 3.3164501
1.4245938 2.3909595 3.3326008
1.4760613 2.3811364 3.3232477
1.5252378 2.3844025 3.3209386
1.5718328 2.3857889 3.3270669
1.6282567 2.3913743 3.3246961
1.6764113 2.3887866 3.334197
1.7305906 2.3849659 3.3272724
1.7807884 2.3888237 3.3347664
1.8856528 2.3872733 3.3304822
1.9173114 2.3889365 3.3178601
1.9730603 2.3966382 3.3199818
2.0222936 2.3972607 3.3287354
2.1170373 2.3913026 3.3174481
2.1928408 2.3973205 3.3384607
2.2338998 2.3967109 3.3134134
2.2766845 2.3990161 3.3464983
2.3404858 2.3998127 3.3092699
2.3507953 2.3892276 3.3371944
0.58718556 2.4056809 3.3333635
0.60599321 2.4057608 3.3307824
0.74211323 2.4018612 3.341069
0.83605206 2.4001875 3.3207073
0.87509489 2.4036527 3.3176074
1.8478123 2.4108777 3.3420749
1.8605112 2.4011495 3.3189614
2.017817 2.4124103 3.3085418
2.067889 2.4027066 3.3143997
2.3128881 2.4038882 3.334271
2.4064772 2.4026775 3.3293839
-0.33661178 -0.5515883 3.3612144
-0.2635293 -0.55144471 3.3645916
-0.22322349 -0.55854231 3.3695621
-0.17431292 -0.56300485 3.3671055
-0.1256863 -0.55967933 3.3698142
-0.077017367 -0.56001776 3.3727701
-0.028456837 -0.56047618 3.3860321
0.017072326 -0.55734605 3.3671823
0.076854631 -0.55771136 3.3588586
0.127124 -0.55344278 3.3618729
0.19864668 -0.55107683 3.3652713
-1.9746068 -0.51230198 3.3669569
-0.4014098 -0.53522032 3.3573611
-0.37029409 -0.53722382 3.3723593
-0.31912562 -0.53501767 3.3795815
-0.28328344 -0.54225302 3.375047
-0.21670367 -0.53981304 3.3974314
-0.19171034 -0.53854501 3.3904178
-0.11842087 -0.53926384 3.3971291
-0.093924366 -0.53937948 3.3983631
0.073098108 -0.5435378 3.3731389
0.1265803 -0.53860176 3.3927732
0.17688549 -0.54101813 3.3858254
0.23265886 -0.53849369 3.3884242
0.27981296 -0.53515095 3.3649857
0.32940611 -0.53663117 3.3714135
0.3772074 -0.5351963 3.3590596
0.42489201 -0.52679342 3.3812203
0.47789827 -0.52265185 3.3763828
0.53038639 -0.52611953 3.366899
0.57942218 -0.525837 3.3868411
0.62714219 -0.52450371 3.3724709
0.6748029 -0.51414293 3.380827
-2.0077903 -0.46665442 3.3511415
-1.9913663 -0.46914473 3.381026
0.73550105 -0.49293923 3.3698785
0.77325851 -0.45806658 3.3521793
-2.007391 -0.42166758 3.3548942
-1.9974332 -0.42336076 3.3764424
0.78905022 -0.43133831 3.3678215
-2.0077207 -0.38218868 3.3685946
-1.9979215 -0.36935824 3.3819675
0.79371899 -0.37819573 3.3737628
0.80919397 -0.38597223 3.3664989
-2.0027435 -0.3232815 3.3705258
-1.9988558 -0.32440731 3.3869731
-2.0068722 -0.26500824 3.3754611
-2.0086284 -0.22420825 3.3710079
-1.9995301 -0.22522005 3.394021
0.78284788 -0.21301182 3.3731935
-2.0130012 -0.18375421 3.3705988
0.77894658 -0.18123382 3.3943121
-2.0074043 -0.12528615 3.372673
-1.9988447 -0.12588207 3.3965759
0.78380281 -0.13121824 3.3800757
-2.0136724 -0.06777443 3.3691666
0.78334808 -0.086018912 3.3790159
-2.0163615 -0.026456922 3.3702331
0.77642059 -0.029928053 3.3740704
-2.0191588 0.018396806 3.371093
0.77406812 0.022008155 3.384383
-2.0165329 0.063358434 3.3700864
0.76898533 0.085432358 3.3828812
0.76138794 0.11532573 3.3937325
-2.8287694 0.84518534 3.3659484
-2.869278 0.88034719 3.3825293
-2.8905284 0.93017226 3.3709328
-2.9017637 0.98377091 3.3853974
-2.8927693 0.96030611 3.3799281
-2.9149163 1.0223925 3.3757114
-2.9076836 1.0841104 3.3801425
-2.9120784 1.1248292 3.3811479
-2.9175444 1.1734273 3.3738093
-2.9223619 1.2241018 3.374923
-2.9240165 1.2789215 3.370019
-2.9371977 1.3264761 3.3711946
-2.9385197 1.373714 3.3780944
-2.9425061 1.4157329 3.3754852
-2.9400167 1.4740411 3.3649566
-2.9453092 1.5243033 3.3747892
-2.9585376 1.5680424 3.3526678
-2.9455783 1.5724005 3.3782358
-2.9434371 1.6302643 3.3740776
-2.955425 1.6964319 3.385114
-2.9440203 1.6684973 3.3813701
-2.9514482 1.7155919 3.3710637
-2.9498949 1.7361206 3.359647
-2.9530029 1.7658173 3.3738954
-2.9496946 1.7918435 3.3806806
-2.9584131 1.8296431 3.375355
-2.9653251 1.8855363 3.37432
-2.9683986 1.9188544 3.3703737
-2.9786925 1.9655303 3.3862777
-2.9795716 2.0186603 3.3766108
-2.9733789 2.0648782 3.3761065
-2.9759114 2.1187201 3.3759928
-2.9770017 2.1719494 3.373601
-2.9839182 2.2300539 3.3772206
-2.9726343 2.2842219 3.3715537
-2.952039 2.3298469 3.3733954
-2.9443219 2.3212817 3.3927472
-1.4538003 2.3467541 3.394989
-1.3841691 2.3486526 3.3785081
-1.3029859 2.3433611 3.3963137
-2.9311819 2.3648326 3.3717971
-2.8686891 2.3728561 3.3712256
-2.8145709 2.3648872 3.3927312
-2.7858469 2.3722312 3.3659027
-2.73195 2.3648593 3.3668902
-2.6833792 2.3722715 3.3759444
-2.5784509 2.3791728 3.3713732
-2.5224316 2.3781478 3.3765132
-2.4590802 2.3802342 3.3636169
-2.4300964 2.3869345 3.3767192
-2.3789239 2.3857064 3.3682759
-2.3312621 2.3804708 3.3868086
-2.2827067 2.3631697 3.381001
-2.2200525 2.3735952 3.383491
-2.1782649 2.3728099 3.378824
-2.1196239 2.3752279 3.3718722
-2.0793526 2.3756552 3.3770618
-2.0258999 2.3725343 3.3820496
-1.9792665 2.3756244 3.3778775
-1.9230086 2.3788862 3.3785114
-1.8696327 2.3630812 3.3755424
-1.8188255 2.3590531 3.3597481
-1.7814651 2.3629336 3.383569
-1.7332569 2.3610499 3.3700278
-1.675742 2.3621123 3.3807278
-1.5747583 2.365624 3.3816938
-1.526088 2.3518603 3.3771369
-1.485217 2.3575923 3.3723314
-1.4279834 2.3564005 3.3761218
-1.3624074 2.3545835 3.3740072
-1.329796 2.3585153 3.3695693
-1.2786685 2.3540876 3.3786514
-1.2220542 2.3580446 3.3602061
-1.1737584 2.3581226 3.3743308
-1.1189547 2.3575087 3.3748586
-1.083406 2.3564892 3.3690588
-1.0286045 2.3547459 3.3667362
-0.97262782 2.3629227 3.3826535
-0.92953378 2.3603818 3.3686416
-0.85035533 2.3571429 3.3706708
-0.81933659 2.3653328 3.3760498
-0.7733984 2.3655992 3.3747208
-0.72598213 2.373369 3.3790996
-0.68160713 2.3723164 3.3752737
-0.62239659 2.3695877 3.3746524
-0.57577538 2.3748176 3.3754911
-0.52343792 2.3776348 3.3768473
-0.47742116 2.383261 3.3903913
-0.42753267 2.3780537 3.3693583
-0.37122291 2.3786643 3.3755267
-0.32411644 2.3873968 3.3731303
-0.27788576 2.3935249 3.3850842
-0.2206208 2.3858323 3.3774843
-0.1743855 2.3956232 3.393532
-0.12623875 2.3766687 3.3683043
-0.066437468 2.3862238 3.3684201
-0.026463613 2.3840873 3.3683128
0.023457734 2.3863959 3.369122
0.084247299 2.3732371 3.3737044
0.12341598 2.3742936 3.3773739
0.17357101 2.3827171 3.3752766
0.22994103 2.378943 3.3778481
0.27706516 2.3763759 3.3794048
0.32416403 2.3775053 3.377739
0.37515646 2.3781834 3.365195
0.43163013 2.3798945 3.377929
0.47075793 2.3871448 3.368474
0.52290863 2.3936415 3.3622885
0.5777986 2.3969359 3.3788466
0.62535959 2.3929725 3.3758893
0.6789341 2.3934846 3.3779516
0.72779536 2.3980136 3.3763938
0.77226669 2.3919814 3.3726015
0.82494736 2.3923957 3.3735881
0.87472135 2.3906736 3.376637
0.91881824 2.3886726 3.3740819
0.97867572 2.3919301 3.3953872
1.0270348 2.3923895 3.3844986
1.0708863 2.3833454 3.373208
1.1281633 2.3830273 3.3847466
1.17778 2.38538 3.3746228
1.2281934 2.3892596 3.3659172
1.2726381 2.3900633 3.3746214
1.3316079 2.3862808 3.385308
1.3806025 2.3918905 3.3780653
1.4256159 2.388428 3.3859005
1.4786755 2.3825433 3.37202
1.5194894 2.3766956 3.3767455
1.5736789 2.383785 3.3677549
1.6338005 2.37918 3.3814833
1.6799955 2.3766108 3.3734214
1.7073195 2.3842597 3.3594244
1.7755878 2.388715 3.3842218
1.8161746 2.3889153 3.3662124
1.8875594 2.395092 3.3922496
1.9243999 2.3900435 3.3653343
1.9743667 2.3909097 3.3669405
2.0271406 2.3945777 3.371788
2.0910423 2.3999412 3.3996501
2.1669021 2.3927069 3.3707874
2.219732 2.3942621 3.3705015
2.3780112 2.3954878 3.3891447
0.19247654 2.4037595 3.3671558
0.21113673 2.4024661 3.3644552
0.57289088 2.4057415 3.3731704
0.6855104 2.4022524 3.3513205
0.72957361 2.4039094 3.3847442
1.8678195 2.4033341 3.3675272
2.0746312 2.4018233 3.3602579
2.1164291 2.4041345 3.3765762
2.2574694 2.4009252 3.3615875
2.3031464 2.4055989 3.3986313
-1.9680884 -0.50861585 3.4152427
-0.3768191 -0.52171999 3.4336796
-0.32942387 -0.51473016 3.4180923
-0.27610961 -0.52753794 3.4229789
-0.23054403 -0.53115875 3.4215176
-0.17359726 -0.5331583 3.4205461
-0.13201106 -0.53250134 3.4336998
-0.074722461 -0.53233683 3.4175725
-0.028674869 -0.5335713 3.415179
0.02061303 -0.53368509 3.415992
0.065853283 -0.53030312 3.4206147
0.11512332 -0.52997077 3.4176822
0.16893113 -0.52721649 3.4253483
0.21796705 -0.52605933 3.4160135
0.26391038 -0.52348381 3.4244871
0.32224262 -0.5244053 3.4273276
0.37000373 -0.52395326 3.4156826
0.42858624 -0.51256686 3.4244957
0.48373365 -0.51253223 3.4194775
0.52166438 -0.51732689 3.4482813
0.56814837 -0.51407355 3.421397
0.62606263 -0.51397192 3.4140372
0.67276108 -0.50125051 3.4369473
-1.9752668 -0.47744536 3.42119
-0.343817 -0.49711066 3.4398437
0.72062546 -0.49406028 3.419816
0.76116645 -0.4740203 3.4109778
-1.9901655 -0.42254931 3.4267783
0.77777064 -0.43000707 3.4198754
-1.9884694 -0.3777867 3.4197838
0.77776772 -0.37831974 3.4217327
-1.9873352 -0.33030033 3.4214072
0.77589017 -0.32518792 3.43064
-2.0073879 -0.2804856 3.404392
-1.9957891 -0.27233964 3.4240253
0.77819824 -0.27892804 3.4169383
-1.9908596 -0.22394264 3.4312146
0.77532464 -0.23587854 3.421515
-2.0042293 -0.18092325 3.4136841
-1.9965861 -0.18148392 3.429776
0.76795363 -0.18040907 3.4342976
-1.9918169 -0.12657987 3.4233644
0.7631982 -0.12426896 3.4209683
-2.0068932 -0.071999222 3.4113808
-1.9936621 -0.06781815 3.4375181
0.76733768 -0.079524592 3.4212356
-2.0058444 -0.026722796 3.4100599
-1.9882932 -0.026849955 3.4384506
0.76132447 -0.037340939 3.4331284
-2.0135858 0.018607572 3.4135246
-1.9937198 0.018663444 3.4380012
0.75377291 0.020798711 3.418366
-2.0037763 0.067016609 3.4190304
-1.9956948 0.055006195 3.4313061
0.74946499 0.082904801 3.4174695
0.75693297 0.074567422 3.4128456
0.73655051 0.12602279 3.4202549
-2.2745514 0.15067001 3.436475
-2.8628283 0.89923823 3.4169788
-2.8368225 0.87707865 3.4290953
-2.8731515 0.92870444 3.4166126
-2.8908348 0.97673595 3.4140203
-2.897028 1.020017 3.4110358
-2.9051485 1.0679651 3.4294841
-2.9043214 1.1234227 3.4340041
-2.9097223 1.1671779 3.4284987
-2.8986459 1.1834862 3.4093163
-2.9160135 1.2219164 3.4202256
-2.9250739 1.2780507 3.4143074
-2.9338942 1.3340697 3.4217899
-2.9385366 1.3779097 3.4419625
-2.9346459 1.4289868 3.4186661
-2.9392653 1.4789779 3.4286647
-2.9419925 1.5212135 3.4237242
-2.9421387 1.5712688 3.4192338
-2.9502807 1.6291789 3.4067838
-2.9460607 1.6220838 3.4268656
-2.9404683 1.6678851 3.422811
-2.9545035 1.729898 3.4156673
-2.9461536 1.7205657 3.431447
-2.9533956 1.750863 3.4047208
-2.9486094 1.7717388 3.4357009
-2.9538701 1.8293465 3.4167676
-2.9492521 1.8047433 3.421561
-2.958149 1.8647203 3.4061456
-2.9601049 1.9237347 3.4289589
-2.9691758 1.9737569 3.4173985
-2.9738286 2.0285485 3.4211569
-2.9682608 2.0767055 3.4125168
-2.9682074 2.1258531 3.4370766
-2.980268 2.1682367 3.4324975
-2.9788427 2.2214305 3.4178045
-2.9691715 2.2762661 3.4237769
-2.9585671 2.3301122 3.4375887
-2.9273131 2.3482132 3.402591
-1.4443028 2.3435943 3.4373276
-1.3955357 2.3481996 3.4174645
-2.907788 2.3506353 3.4230211
-2.8864584 2.3629119 3.4343936
-2.836266 2.3606255 3.4325447
-2.7947807 2.3764567 3.4336212
-2.7210257 2.3624344 3.4220252
-2.6708281 2.3691332 3.4193277
-2.6204801 2.374892 3.4249086
-2.5240607 2.3681769 3.4136772
-2.4872966 2.3641493 3.4287789
-2.4381752 2.3696694 3.4128213
-2.3741503 2.3701825 3.4246507
-2.3346746 2.3734612 3.4266491
-2.2821374 2.3632979 3.4369025
-2.1671703 2.3628719 3.4279764
-2.1183107 2.3654084 3.4237638
-2.0620124 2.3667164 3.42103
-2.0282598 2.3666484 3.4210072
-1.9693042 2.368454 3.4283669
-1.9041084 2.3620319 3.4228854
-1.8865527 2.3657479 3.437921
-1.8311815 2.3679085 3.4181633
-1.7787062 2.3659186 3.4379897
-1.7274914 2.3720109 3.423043
-1.6811283 2.3637018 3.4278932
-1.6347924 2.3636339 3.4156005
-1.5752741 2.3614168 3.4197292
-1.5211189 2.3549981 3.4291778
-1.4879708 2.359781 3.4268997
-1.4252759 2.3648248 3.4349394
-1.3645073 2.3579476 3.4292336
-1.3281434 2.3533561 3.4045937
-1.2701038 2.3547804 3.4249074
-1.2265295 2.3610861 3.4161708
-1.1773245 2.365293 3.426362
-1.1272454 2.3627527 3.4359281
-1.0667747 2.3571227 3.4151604
-1.0290437 2.3646753 3.4327931
-0.97371578 2.3649082 3.4358914
-0.9319725 2.3573194 3.4334381
-0.86608803 2.3550353 3.4037373
-0.82005048 2.3604295 3.4209747
-0.77579403 2.368242 3.4278734
-0.72130173 2.3700869 3.4138651
-0.67662126 2.3633442 3.4241199
-0.63079387 2.3663766 3.4322529
-0.5798865 2.3713143 3.4241126
-0.53202742 2.3725152 3.4217606
-0.47109684 2.3802876 3.4247968
-0.42303896 2.3775225 3.4257202
-0.37504843 2.3794954 3.423485
-0.32748759 2.3835285 3.4237161
-0.27989632 2.3824773 3.4254885
-0.22693458 2.3789725 3.4141059
-0.17865901 2.3852918 3.4285991
-0.13168387 2.3807521 3.4262307
-0.070940912 2.3758881 3.4243815
-0.023570945 2.3703103 3.4168799
0.02364604 2.3655486 3.4180229
0.080389887 2.3664122 3.4230511
0.12771013 2.3651354 3.426388
0.16860276 2.360498 3.4245322
0.22697145 2.3601537 3.4245417
0.2795631 2.3599625 3.430686
0.32356459 2.3648949 3.4310737
0.3789593 2.3851013 3.4281762
0.41923618 2.3870595 3.4305151
0.48022446 2.3905776 3.4133866
0.52278459 2.3887496 3.4159942
0.57313842 2.3932347 3.421926
0.62484646 2.3854585 3.4129844
0.68029743 2.391114 3.4226294
0.72275305 2.3937907 3.4098856
0.77504569 2.3959956 3.4275723
0.82703972 2.3837245 3.4285209
0.86982763 2.3871198 3.4278343
0.93850058 2.3895943 3.4143591
0.97417593 2.385196 3.4265096
1.0170841 2.3949792 3.4315071
1.0831058 2.3913329 3.4300904
1.1183865 2.3840139 3.4302537
1.1889029 2.3883581 3.4177644
1.2326187 2.387383 3.4247394
1.2796012 2.3920012 3.4393139
1.3185962 2.3910058 3.4256954
1.3718289 2.3845892 3.4270191
1.4247198 2.3836522 3.4222684
1.4700547 2.3828247 3.4272385
1.5173892 2.3846273 3.4355457
1.5731903 2.3933904 3.4293449
1.6237453 2.3837581 3.4162576
1.6777277 2.3790207 3.4094014
1.7367125 2.3908985 3.4050491
1.7668211 2.383955 3.427398
1.8072153 2.3970189 3.432672
1.8761108 2.3963163 3.4244275
1.9248986 2.3956327 3.4248092
1.9803354 2.3920987 3.4416957
2.0289545 2.388176 3.4100022
2.0671182 2.3963678 3.4055688
2.1043003 2.3941453 3.4339094
2.179692 2.3867929 3.4322519
2.2789645 2.3923826 3.4418533
1.0393511 2.4014606 3.4360812
1.8520826 2.4021225 3.421396
1.9102517 2.4031579 3.4454191
1.9611396 2.4021194 3.4189963
2.3332181 2.4043231 3.4339693
-1.9578174 -0.51307857 3.4568114
-1.9467617 -0.51501501 3.4774816
-0.38176611 -0.50341249 3.4811356
-0.31495011 -0.50395989 3.4893217
-0.27750766 -0.5097639 3.4845951
-0.22982235 -0.50985008 3.475847
-0.17980917 -0.51025134 3.4805143
-0.12932052 -0.50907654 3.4739292
-0.079361096 -0.50998849 3.4811165
-0.029188445 -0.50990194 3.4810646
0.020954063 -0.50954205 3.4786634
0.066841841 -0.51326621 3.474762
0.12525165 -0.51299107 3.4718323
0.17510134 -0.51246905 3.4669232
0.22167642 -0.50998539 3.4772787
0.27554187 -0.50900954 3.4796684
0.31890339 -0.50869685 3.4749732
