ply
format ascii 1.0
comment PCL generated
element vertex 1449
property float x
property float y
property float z
element camera 0
property float view_px
property float view_py
property float view_pz
property float x_axisx
property float x_axisy
property float x_axisz
property float y_axisx
property float y_axisy
property float y_axisz
property float z_axisx
property float z_axisy
property float z_axisz
property float focal
property float scalex
property float scaley
property float centerx
property float centery
property int viewportx
property int viewporty
property float k1
property float k2
end_header
0.72480255 -0.48066297 1.225028
0.77068847 -0.47739372 1.2331123
1.03784 -0.47268295 1.2193565
1.074779 -0.47083136 1.2243608
1.1220809 -0.46974072 1.2211072
1.1737392 -0.46855539 1.2273484
1.2285849 -0.46811759 1.2257954
1.2801331 -0.46715236 1.2253375
1.3276821 -0.46591821 1.2194194
1.3689296 -0.46325034 1.2342536
1.4192151 -0.46248898 1.2254051
1.4744406 -0.46503291 1.2285455
1.5163431 -0.46046332 1.2241827
1.5750408 -0.45862922 1.2328031
-0.73401397 -0.31364128 1.2249453
-0.73004276 -0.27367204 1.2257645
1.1267911 -0.27409151 1.2274276
1.1573288 -0.29119477 1.2056897
-0.7316134 -0.2249458 1.2218207
1.0998262 -0.21390603 1.2485201
1.1214541 -0.22568385 1.2254784
-0.73193407 -0.17431009 1.2258279
1.0973059 -0.18716082 1.2492026
1.1189253 -0.17516714 1.2253567
-0.73226815 -0.1264776 1.2222692
1.0961065 -0.1065345 1.246271
1.1175447 -0.12693338 1.222733
-1.1090834 -0.066327587 1.2039654
-1.0747718 -0.071595691 1.2173035
-1.0254667 -0.072491243 1.2355422
-0.98190093 -0.077134669 1.2450105
-0.93441755 -0.088390425 1.2471193
-0.89614385 -0.090228364 1.2455556
-0.764395 -0.095517397 1.2257115
-0.73728579 -0.097921148 1.2226607
1.0969927 -0.088995047 1.2437422
1.1176798 -0.07923197 1.2229248
1.192963 -0.060182985 1.2073075
-1.1194696 -0.024159469 1.2112199
-1.0762722 -0.024452433 1.2340215
-1.0314606 -0.032787956 1.2460383
-1.1658679 0.032112971 1.2103103
-1.1262594 0.021697314 1.2278732
-1.0820976 0.017389236 1.2428216
-1.0463444 0.00035706535 1.2498301
-1.2554473 0.093719952 1.201955
-1.2180969 0.079159938 1.2102666
-1.1734818 0.073015131 1.228253
-1.1322043 0.063620985 1.2434604
-1.2666389 0.1283796 1.2146893
-1.224654 0.12127122 1.2317756
-1.1866518 0.10724828 1.2435778
-1.3081567 0.16942249 1.2303834
-1.2749999 0.16215099 1.2243574
-1.2421632 0.16452439 1.2439588
-1.1408286 0.17566775 1.249162
-1.6235728 0.48394778 1.241721
-1.589301 0.48946494 1.2055206
-1.6177604 0.52739286 1.2265816
-1.6127861 0.55810642 1.2376279
-0.60134494 -0.50009429 1.2804029
-0.52603781 -0.50023723 1.2941587
-1.0688236 -0.48273796 1.277266
-1.0291506 -0.48779774 1.2797931
-0.97440696 -0.48737067 1.2701133
-0.9279815 -0.48810184 1.2780032
-0.87605011 -0.48761874 1.2756603
-0.82741809 -0.48818442 1.2774237
-0.77843302 -0.48736179 1.2722843
-0.72525316 -0.48958722 1.2777349
-0.67335385 -0.49095222 1.2766243
-0.62543321 -0.49458212 1.2765577
-0.56826258 -0.49490261 1.267513
-0.52614063 -0.49650925 1.2765479
-0.47639909 -0.49476302 1.2763696
-0.42679927 -0.49346438 1.2758105
-0.37618706 -0.49013099 1.2726122
-0.32640073 -0.48857558 1.2780201
-0.27382565 -0.48704174 1.2760004
-0.22846004 -0.48550552 1.2728299
-0.17441314 -0.48370287 1.2705755
-0.12459698 -0.48448515 1.2744862
-0.075972669 -0.48423293 1.2739512
-0.027731927 -0.48444453 1.2734822
0.024234392 -0.48451748 1.2769405
0.075492501 -0.48471928 1.2744012
0.12433347 -0.48490465 1.2739298
0.17495483 -0.4846696 1.2757465
0.2270841 -0.48365492 1.2732924
0.27515727 -0.48482439 1.2793127
0.32432246 -0.48319525 1.2718714
0.37437108 -0.48267451 1.2741669
0.42620239 -0.48230681 1.2714854
0.47420996 -0.48306438 1.2709415
0.52574122 -0.48244584 1.2747327
0.5758931 -0.48273882 1.2722069
0.62537229 -0.48289606 1.2766485
0.6714589 -0.4826974 1.2746282
0.72622621 -0.48055449 1.27616
0.77673507 -0.47812626 1.2801117
0.80792791 -0.47677177 1.2813746
1.0832124 -0.46843728 1.267416
1.1264818 -0.46690983 1.2677952
1.1758311 -0.46815598 1.2721637
1.2209589 -0.46695343 1.274074
1.2715575 -0.46699345 1.2743214
1.3243747 -0.46432737 1.2764828
1.3753903 -0.46271881 1.2743547
1.4272617 -0.46397957 1.2757396
1.4761239 -0.46222973 1.2815249
1.5222671 -0.46117887 1.2757567
1.5676578 -0.45882145 1.2676271
1.6190616 -0.45859107 1.2758824
-0.73472029 -0.31455281 1.2794284
-0.72717786 -0.27770182 1.274482
1.086097 -0.27105561 1.2694865
1.1103206 -0.28872979 1.252844
-0.72724283 -0.22545105 1.2721292
1.0845596 -0.22510353 1.264064
-0.72681808 -0.17604585 1.2773856
1.0826943 -0.17510258 1.2640227
1.1010687 -0.19532974 1.2525214
-0.7299332 -0.12470835 1.2740644
1.0776067 -0.12733234 1.2614834
-0.96354061 -0.065107785 1.2519041
-0.92172122 -0.069503993 1.2581627
-0.87530088 -0.07274422 1.2638023
-0.82494628 -0.072394893 1.2734911
-0.77376974 -0.07472609 1.2836753
-0.7438215 -0.086783759 1.2903064
1.0814742 -0.08291883 1.2644756
1.1020976 -0.066957086 1.2506995
-1.0183508 -0.017314857 1.2542067
-0.97441638 -0.026688332 1.2608107
-0.92471015 -0.028347144 1.2713757
-0.87485582 -0.028787568 1.2812351
-0.82759285 -0.029945338 1.2894332
-0.78778738 -0.041419324 1.2968198
-1.0651828 0.033179753 1.2557938
-1.0245439 0.022751343 1.2646106
-0.97514081 0.021942971 1.2785064
-0.92613751 0.021505997 1.2883438
-0.88115919 0.010764549 1.294632
-0.84191889 0.00021413786 1.2942338
-1.1521814 0.099806622 1.2545403
-1.1192575 0.084749952 1.2597034
-1.0761652 0.074772105 1.2718834
-1.0245675 0.074496962 1.2840401
-0.9794693 0.067780785 1.2931886
-0.93636489 0.050981481 1.2960966
-1.2070225 0.14090829 1.2516694
-1.1723813 0.13149092 1.2624683
-1.1233326 0.12645303 1.2786002
-1.0775527 0.1216942 1.2904882
-1.0334785 0.11427088 1.295961
-1.2153949 0.165041 1.2599033
-1.1713562 0.1654788 1.2785116
-1.1265049 0.16633178 1.2912397
-1.0912554 0.15327553 1.2957584
-1.009042 0.17872371 1.2915903
-1.6664951 0.4372595 1.2850822
-1.6359118 0.43402991 1.2716082
-1.6565261 0.47043645 1.2850246
-1.6345122 0.47013092 1.2662585
-1.6514733 0.50489753 1.2881306
-1.6319327 0.53221661 1.2648642
-1.7077799 0.59404087 1.2742105
-1.6818275 0.58583105 1.2788475
-1.6360559 0.55993921 1.2748588
-1.7176208 0.62059623 1.2914766
-0.57078499 -0.5016517 1.3263059
-0.52769071 -0.50149804 1.3272674
-1.0635434 -0.48145261 1.3239985
-1.0227482 -0.48692846 1.3229488
-0.97197717 -0.48716065 1.3269787
-0.92379427 -0.48883966 1.3265742
-0.87405294 -0.48727107 1.3226595
-0.82435071 -0.48729095 1.3185792
-0.77849638 -0.48937777 1.3227595
-0.72773927 -0.49029481 1.3236998
-0.67635632 -0.49086693 1.320783
-0.62717146 -0.49673697 1.3258007
-0.59237343 -0.49878883 1.3099145
-0.52931124 -0.49839988 1.3210926
-0.47370976 -0.49748626 1.3233095
-0.42423978 -0.49543276 1.3264005
-0.37770849 -0.49334231 1.3234681
-0.32216802 -0.49056536 1.3258395
-0.27381206 -0.48991466 1.3278326
-0.2264398 -0.48689175 1.3232337
-0.17545111 -0.48528311 1.324348
-0.12466504 -0.483619 1.3262568
-0.073646955 -0.48256519 1.3260299
-0.022845052 -0.48419416 1.3236877
0.023749506 -0.48400992 1.3213699
0.075662851 -0.48508582 1.3257996
0.12597483 -0.48449412 1.3284881
0.17534211 -0.48403263 1.3243818
0.22218208 -0.48332724 1.3205712
0.27362782 -0.4826763 1.3257972
0.32471222 -0.48280933 1.3248279
0.37554342 -0.4828921 1.3214339
0.42541975 -0.48255137 1.3233061
0.47608411 -0.48287734 1.3221184
0.52799726 -0.48279604 1.330322
0.57676065 -0.48289904 1.3190573
0.62361705 -0.48231268 1.324007
0.67580837 -0.4813939 1.3237438
0.72296005 -0.4810701 1.3269191
0.77054131 -0.47932291 1.3244308
0.82367963 -0.47665691 1.3289979
0.85719728 -0.47238523 1.3385512
1.1306552 -0.46866685 1.3189223
1.1739461 -0.46612468 1.3252252
1.2240012 -0.46585974 1.3276168
1.2758723 -0.46523842 1.3194449
1.3219918 -0.46321961 1.332707
1.3776982 -0.46365148 1.3276641
1.4218645 -0.46279985 1.3221568
1.4793919 -0.46219084 1.3255482
1.5265249 -0.45971155 1.3217683
1.576231 -0.45918468 1.3232033
1.6301638 -0.457239 1.3260568
1.6847092 -0.45679545 1.3154027
1.7013609 -0.4613049 1.328444
-0.73219913 -0.31446016 1.3238312
-0.72316176 -0.27187243 1.3224136
-0.72322434 -0.22531584 1.3221971
-0.72590446 -0.17365715 1.3282205
-0.72782624 -0.12510784 1.3271215
-0.75463551 -0.055089913 1.3042345
-0.73330736 -0.075241245 1.3215393
1.10908 -0.061119985 1.3018967
1.6143217 -0.054827161 1.3345506
-0.81108224 -0.012055101 1.3033777
-0.76983672 -0.023635842 1.3085053
-0.73644936 -0.028752143 1.3276151
1.6351528 -0.031193946 1.3437194
1.6542877 -0.024970239 1.342258
-0.90507126 0.04343332 1.3018949
-0.87071013 0.03193393 1.3069403
-0.82327771 0.023868604 1.3120126
-0.77504355 0.024856068 1.3248056
-0.74009389 0.020691568 1.3381224
1.6423724 0.00096017402 1.3327845
1.6553596 0.01984781 1.3431373
-0.96430457 0.085671313 1.3049372
-0.92441499 0.073833451 1.3093131
-0.87535751 0.072389953 1.3196787
-0.82513225 0.073916689 1.3302079
-0.77807885 0.073532417 1.3427572
-0.74609822 0.059146289 1.3474947
1.6596783 0.086210385 1.3443866
-1.065761 0.13966495 1.3022778
-1.0168411 0.13011809 1.3070923
-0.97409725 0.12451867 1.315735
-0.92527568 0.12539871 1.326635
-0.87413156 0.12322348 1.3357698
-0.8304143 0.11617637 1.3430421
-0.79262519 0.10957907 1.3479443
-1.1211438 0.17080764 1.3001364
-1.0759485 0.16545862 1.3064549
-1.02508 0.16455185 1.3157647
-0.97747803 0.16640638 1.3249876
-0.92483574 0.16669494 1.3331389
-0.87382883 0.16517296 1.3416965
-0.8410843 0.16998518 1.3459035
-1.7104856 0.31252334 1.3492396
-1.7095646 0.42059964 1.3341732
-1.6862892 0.42811874 1.327419
-1.674049 0.48312449 1.328258
-1.646173 0.49185097 1.3048451
-1.6857041 0.53558701 1.3326141
-1.6643353 0.56809884 1.3286905
-1.6442494 0.57409054 1.3129427
-1.7147985 0.63312697 1.311517
-1.6975605 0.61895376 1.3282754
-0.61468554 -0.50412667 1.3797541
-0.57946116 -0.50646007 1.3791186
-0.52313823 -0.50334531 1.3717296
-0.47773939 -0.50151515 1.3804461
-0.43494308 -0.50078046 1.3917583
-1.0599855 -0.48409116 1.3731272
-1.0223854 -0.48774695 1.3751023
-0.96653658 -0.48985425 1.3786678
-0.923491 -0.48773775 1.3738278
-0.87132585 -0.49027112 1.3786353
-0.82384127 -0.49137515 1.3765147
-0.77108645 -0.49172476 1.3739276
-0.72154009 -0.49233824 1.3757589
-0.67196012 -0.4935886 1.3693875
-0.63748014 -0.49701539 1.3626808
-0.45824164 -0.49851775 1.362554
-0.42449644 -0.49733338 1.3743306
-0.37229124 -0.49569008 1.3757455
-0.32083595 -0.4939262 1.3733513
-0.27806339 -0.49088955 1.3762339
-0.22385426 -0.48803914 1.3702581
-0.17332926 -0.48615372 1.3762878
-0.12540768 -0.48301569 1.3743479
-0.074774809 -0.4834083 1.3775691
-0.026237939 -0.48319435 1.3738295
0.025582537 -0.48363224 1.3728552
0.076449491 -0.48336089 1.3743238
0.12304974 -0.48270282 1.3755242
0.1726754 -0.48272535 1.3747716
0.22597305 -0.48205137 1.3749673
0.27541414 -0.48269531 1.3796285
0.32588807 -0.48191595 1.3760561
0.37482494 -0.48244134 1.3756332
0.42375734 -0.48254439 1.3750474
0.47669598 -0.48180881 1.37073
0.5232349 -0.48256651 1.3724548
0.57707858 -0.48228258 1.3739846
0.62638932 -0.48076791 1.3726796
0.67415017 -0.48159724 1.376025
0.72340202 -0.48075533 1.3776686
0.77477777 -0.47795296 1.3703035
0.83174825 -0.47827756 1.3829129
0.86309791 -0.47378272 1.37158
1.1728629 -0.46416667 1.3655497
1.2226112 -0.46474242 1.3744713
1.2786214 -0.46525374 1.3780792
1.3299685 -0.46393159 1.378805
1.3774496 -0.46218991 1.3800031
1.4269476 -0.46201655 1.3804008
1.4692656 -0.46072799 1.3662966
1.5304054 -0.4585095 1.3794616
1.5789034 -0.4563314 1.3816631
1.6318711 -0.45859799 1.3667389
1.6696799 -0.45652157 1.3604312
1.7181007 -0.45505452 1.3713646
-0.72967249 -0.31472942 1.3729249
-0.72174448 -0.27479321 1.3749784
-0.72275877 -0.22503565 1.3786492
-0.72288787 -0.17624597 1.3736345
-0.7237972 -0.12382147 1.376559
-0.72543663 -0.07517942 1.374526
1.5181904 -0.054039694 1.3792315
1.5721396 -0.055082031 1.3844465
1.6000375 -0.055191204 1.3654835
-0.72776961 -0.026759142 1.373776
1.5877789 -0.029419836 1.3874518
1.6167418 -0.025915708 1.3642143
-0.72922599 0.023426903 1.3709685
1.5976812 0.00083406991 1.3991076
1.6269532 0.020261785 1.375914
1.6621828 0.039098136 1.3634936
-0.75504947 0.084405728 1.3521496
-0.73422271 0.073523358 1.3701446
1.6387067 0.074195556 1.3945071
1.6694731 0.078391448 1.3789563
-0.81732816 0.13457723 1.3540376
-0.77271497 0.12362345 1.360585
-0.73810977 0.12190913 1.3791252
1.6792288 0.11765037 1.3817124
1.7072419 0.14416698 1.3849082
-0.86387396 0.16163056 1.3502316
-0.81927294 0.16806968 1.3583939
-0.77442044 0.16770367 1.3769027
-0.74137366 0.16194002 1.3918357
1.6902995 0.16195375 1.3990706
1.709766 0.17717826 1.3867064
-1.7228492 0.24258868 1.3887635
-1.7126001 0.27348682 1.3666116
-1.6829685 0.28100792 1.3694921
-1.754079 0.34045947 1.3798317
-1.7204776 0.32255378 1.3714707
-1.6733023 0.3094635 1.3849784
-1.7532485 0.36229464 1.3930129
-1.7451741 0.3506341 1.3886447
-1.6806711 0.49037245 1.3537154
-1.6863314 0.51415908 1.3671144
-1.691705 0.62249535 1.3660487
-0.66230667 -0.50431371 1.4367104
-0.63445109 -0.51021391 1.4284548
-0.57642543 -0.51020771 1.4248911
-0.52094299 -0.50794363 1.4270953
-0.47706139 -0.50574577 1.4318278
-0.42415762 -0.50204796 1.4231294
-0.36804169 -0.50031883 1.4327422
-1.0605834 -0.48479661 1.4242423
-1.0226382 -0.48882073 1.4250817
-0.97517258 -0.4895803 1.4219408
-0.92532682 -0.49026242 1.4191624
-0.8658545 -0.49186972 1.4241771
-0.81778038 -0.49450606 1.4270979
-0.77112722 -0.49433818 1.4178965
-0.72519648 -0.49404252 1.4315747
-0.68473482 -0.49680597 1.4254833
-0.4138746 -0.49818715 1.4334526
-0.3803156 -0.49735612 1.421677
-0.32547811 -0.49553138 1.4185545
-0.27080518 -0.49344319 1.425639
-0.2220154 -0.48944935 1.4197148
-0.17466146 -0.48657718 1.4277991
-0.12402462 -0.4828907 1.4191209
-0.075758897 -0.48279044 1.4233868
-0.026382297 -0.48252034 1.4237282
0.022969842 -0.48298594 1.4274395
0.071330674 -0.48205188 1.4235969
0.12572922 -0.4821538 1.4222652
0.17694424 -0.48211455 1.423759
0.22623512 -0.48222756 1.4293615
0.2770521 -0.48250321 1.4284128
0.32463983 -0.48232946 1.4243358
0.37504533 -0.4812718 1.4273823
0.42904818 -0.48265901 1.4247313
0.47830388 -0.48253718 1.4224021
0.52624536 -0.48234019 1.4249142
0.57024175 -0.48171172 1.4214157
0.62425691 -0.48281154 1.4294966
0.6785115 -0.48126847 1.4205805
0.72609288 -0.47882226 1.4276869
0.77236003 -0.47960174 1.4201669
0.82539874 -0.47635472 1.4249306
0.87622565 -0.47460535 1.4268708
0.90997863 -0.47363591 1.4343414
1.2310064 -0.4663628 1.4228654
1.2736257 -0.46275651 1.4216585
1.3274254 -0.46194401 1.422073
1.3712822 -0.46175003 1.4264051
1.4239548 -0.45779291 1.4296118
1.4794219 -0.45732522 1.4189417
1.5442169 -0.4574295 1.4210318
1.5845455 -0.45756134 1.4267844
1.6242273 -0.45685333 1.4060563
1.6858909 -0.4585602 1.4254978
-0.72424453 -0.31180871 1.4285164
-0.71912402 -0.27487689 1.4219185
-0.72047156 -0.22825569 1.4276448
-0.72122896 -0.17564885 1.4216433
-0.72156346 -0.12534961 1.424358
-0.72310102 -0.072749607 1.4270018
1.4943854 -0.054926228 1.4428437
1.5200088 -0.054974403 1.4238336
-0.72364324 -0.02612669 1.4247508
1.5298053 -0.028243564 1.4322011
1.5663692 -0.024973191 1.4104599
-0.72379673 0.021947064 1.4239329
1.5413991 0.014331748 1.4377633
1.5766009 0.026310252 1.4235365
1.6064134 0.032478902 1.4033579
-0.7264328 0.074893653 1.4268191
1.587859 0.07080128 1.4387193
1.6138934 0.080224 1.4144479
-0.72677195 0.12526117 1.4248095
1.6278626 0.12428895 1.4299998
1.6675422 0.13603263 1.4098995
-0.73179758 0.17036436 1.4244604
1.642794 0.16816874 1.4418964
1.6736269 0.17865044 1.4230449
1.7042778 0.19282095 1.4074817
-1.6829185 0.241721 1.4188228
1.6832474 0.21103881 1.4421045
1.7218337 0.21593809 1.4193931
1.7571692 0.21162315 1.4126364
-1.708609 0.26856944 1.4154286
-1.6837519 0.27579603 1.4213144
-1.7517304 0.33568215 1.4342409
-1.7406828 0.34267282 1.4141512
-1.6787665 0.316293 1.4193016
-1.8314133 0.39197573 1.4331827
-1.7858257 0.36902314 1.4188697
-1.7418683 0.3529622 1.4130611
-1.8208928 0.87874633 1.4345818
-1.8237156 0.90922064 1.4309404
-1.7861667 0.97987741 1.4362015
-0.7970404 -0.50020391 1.4986985
-0.672948 -0.5090394 1.4801487
-0.62595063 -0.51648647 1.4729512
-0.57127541 -0.51601893 1.4772689
-0.53115135 -0.51479948 1.4785978
-0.47363809 -0.50751907 1.4643556
-0.42290625 -0.50474554 1.4703465
-0.37495795 -0.50338167 1.4769508
-0.32945871 -0.50244367 1.4815792
-0.2823697 -0.50111771 1.4963729
-0.24462192 -0.50041926 1.498788
-1.0659037 -0.48894969 1.4798504
-1.026145 -0.49213681 1.4753091
-0.9758119 -0.49278396 1.4802649
-0.92318141 -0.49324968 1.4770583
-0.86901325 -0.49371246 1.4678555
-0.82255489 -0.497697 1.4750803
-0.77769405 -0.49845695 1.4692594
-0.72411454 -0.49534851 1.4823753
-0.68323672 -0.49636471 1.4534285
-0.37173671 -0.49932334 1.4650605
-0.32016268 -0.497026 1.4624124
-0.27683318 -0.49456149 1.4578726
-0.22657794 -0.49437073 1.474322
-0.17558639 -0.48824018 1.4780076
-0.12385683 -0.48476022 1.4742483
-0.079498582 -0.48454288 1.4715087
-0.024451982 -0.48659068 1.473314
0.026681431 -0.48303509 1.4734296
0.075683646 -0.48303506 1.4736805
0.12611397 -0.48288822 1.4709064
0.17603582 -0.48264635 1.4734805
0.2226221 -0.48219779 1.480857
0.27609512 -0.48001012 1.4703742
0.32725546 -0.48298022 1.4720664
0.37335318 -0.4837268 1.4750752
0.42407578 -0.48374313 1.4769365
0.47532785 -0.48392272 1.4735866
0.52564859 -0.48348045 1.4809612
0.57703716 -0.48288882 1.4741458
0.6224044 -0.48112899 1.474792
0.67231405 -0.48111057 1.472278
0.7209087 -0.48024854 1.4750654
0.77852404 -0.47945437 1.4738439
0.82241315 -0.4778749 1.4754993
0.87548941 -0.47407681 1.4772719
0.92856467 -0.4729014 1.4834375
1.2366581 -0.46240115 1.4591715
1.2753719 -0.46212804 1.4697089
1.3256974 -0.46113816 1.4701254
1.379186 -0.46142745 1.4716548
1.4335556 -0.45833507 1.4793329
1.4786168 -0.45571637 1.4692495
1.5290085 -0.46075991 1.4759852
1.5675721 -0.46055731 1.4718193
1.6256721 -0.45861036 1.4827532
1.6720698 -0.45784926 1.4758271
1.7158982 -0.45929939 1.4720957
-0.72337502 -0.31497523 1.485554
-0.71883464 -0.27459177 1.4754221
-0.71970028 -0.22214964 1.4695926
-0.72003353 -0.17455922 1.4738011
-0.71972281 -0.12626624 1.4729728
-0.72178656 -0.075557947 1.4787935
1.4389715 -0.055019688 1.4913636
1.4715428 -0.054975566 1.4637029
-0.72152334 -0.026516158 1.4813569
1.4456811 -0.038902462 1.494401
1.4767967 -0.027324449 1.4782286
1.5071269 -0.021988096 1.4557909
-0.72265679 0.021722639 1.4788682
1.4884169 0.016601844 1.4899433
1.5224358 0.02699201 1.4688243
1.5582477 0.048180427 1.450893
-0.72371978 0.075317204 1.4770495
1.5263585 0.074566498 1.4815384
1.5665225 0.080959156 1.46403
-0.72356546 0.12674591 1.4759973
1.5438637 0.10944021 1.4937397
1.5777934 0.12425364 1.4752628
1.6054283 0.13425557 1.4573219
-0.72485811 0.16875271 1.4739984
1.5796971 0.16790804 1.4880065
1.6188967 0.17926426 1.4687638
1.6515305 0.19719179 1.4526064
1.5891953 0.21558841 1.4938507
1.6239953 0.21128184 1.4768686
1.6657876 0.21499193 1.4569488
-1.6875986 0.30594951 1.4588602
-1.855881 0.94486368 1.4792907
-1.8382524 0.92574477 1.4591417
-1.8512332 0.95948756 1.4893713
-1.8365226 0.97618407 1.4733815
-1.7899593 0.99739611 1.4603567
-1.0262663 -0.50092083 1.5331594
-0.91040939 -0.50202751 1.522512
-0.87757641 -0.5008741 1.5279523
-0.81566048 -0.50362086 1.5357015
-0.78318286 -0.50283945 1.5295295
-0.70815915 -0.5074746 1.5368601
-0.67414623 -0.51797581 1.5223806
-0.61688221 -0.52062213 1.5191489
-0.57594383 -0.52038938 1.520497
-0.53835249 -0.51673621 1.5224447
-0.46773401 -0.51341414 1.5195744
-0.42490608 -0.51194918 1.528639
-0.36723796 -0.5064382 1.5169581
-0.32163799 -0.50306034 1.5118586
-0.27922583 -0.50338221 1.5224631
-0.23863161 -0.5001812 1.5362957
-1.0627167 -0.48988628 1.5199879
-1.0144382 -0.49724752 1.5241162
-0.97678518 -0.49479946 1.5272933
-0.93207175 -0.49641749 1.5342634
-0.85809261 -0.49945632 1.5025055
-0.83156508 -0.49928874 1.513103
-0.7667222 -0.49874553 1.5208778
-0.73132259 -0.49050391 1.529302
-0.33850673 -0.49919251 1.5074158
-0.27487263 -0.49808738 1.5127925
-0.22737792 -0.49732903 1.5231146
-0.172158 -0.48926607 1.5292665
-0.12355084 -0.48301139 1.5255409
-0.070646517 -0.48513931 1.5218582
-0.024717189 -0.48557124 1.5200071
0.021858448 -0.48314923 1.5165378
0.076407865 -0.4812212 1.5214236
0.12598421 -0.48198134 1.522776
0.17511395 -0.48082596 1.5175744
0.22615418 -0.48142162 1.5259206
0.27282491 -0.48175287 1.5255475
0.32518181 -0.48282325 1.5219668
0.37555981 -0.48408031 1.5225574
0.42565915 -0.48527899 1.5302029
0.47294787 -0.48455128 1.5269434
0.52128339 -0.48361805 1.5247309
0.57277888 -0.48401663 1.5305594
0.63144565 -0.48134288 1.5268275
0.67532098 -0.47914663 1.5189574
0.7306146 -0.4797025 1.5168153
0.77376968 -0.47753122 1.5223441
0.8254078 -0.4753857 1.5213805
0.87203074 -0.47506982 1.525165
0.91888654 -0.47191054 1.5262159
0.96611327 -0.46769381 1.5332445
1.2929968 -0.46217075 1.5068561
1.3254604 -0.4595812 1.5138689
1.3671764 -0.45747679 1.5246646
1.4210339 -0.46111229 1.5201092
1.4794792 -0.45929772 1.5264657
1.5285928 -0.458801 1.5221062
1.5731406 -0.45648956 1.5169041
1.6219548 -0.45699939 1.5214633
1.6725595 -0.45637876 1.5294704
1.7354957 -0.45557523 1.501047
-0.72527444 -0.31695944 1.5277433
-0.72059983 -0.27469522 1.5184559
-0.72257149 -0.2289066 1.5145661
-0.71936876 -0.1720576 1.5072937
-0.72420591 -0.12018505 1.5168092
-0.72625059 -0.072477058 1.5247661
1.3783785 -0.054893572 1.530228
1.4160513 -0.055061214 1.5106502
-0.72906899 -0.027353533 1.5344051
1.3878307 -0.03021832 1.5413254
1.4218423 -0.025287354 1.5154212
-0.72736102 0.030160887 1.5226326
1.3944645 0.00052241964 1.5489758
1.4284084 0.020786164 1.5310497
1.4687684 0.029477816 1.5094229
-0.72540188 0.068724863 1.5131073
1.4443451 0.060528677 1.543491
1.4757894 0.07669583 1.528452
1.5067339 0.082305543 1.5063572
-0.72869098 0.11908845 1.5227982
1.4899937 0.11992478 1.5408171
1.5234989 0.12752336 1.5202835
1.5600694 0.14100146 1.5011098
-0.72569042 0.17818908 1.5008845
1.5349073 0.169671 1.5332276
1.5665593 0.18827116 1.5149428
1.5414146 0.20935611 1.5427474
1.5721345 0.21164556 1.5238352
-1.8530546 0.99026412 1.5172194
-0.97450209 -0.50107318 1.5789075
-0.9124856 -0.50213987 1.5749005
-0.87140614 -0.50412786 1.5774661
-0.82736039 -0.50505567 1.569446
-0.78822201 -0.50426191 1.5814861
-0.71563053 -0.52277642 1.5878423
-0.66972685 -0.52526957 1.57034
-0.63192433 -0.52771753 1.5690576
-0.57628614 -0.52498806 1.5712087
-0.52865732 -0.5233326 1.5768194
-0.47369164 -0.52039295 1.5763701
-0.4262045 -0.51526129 1.569392
-0.37787962 -0.5143469 1.5750052
-0.32246006 -0.51029485 1.5841297
-0.27374336 -0.50439811 1.5704364
-0.22509581 -0.50189406 1.5689788
-1.0696268 -0.49120894 1.5713701
-1.0294878 -0.49662295 1.5676529
-0.97095495 -0.49606159 1.5788127
-0.93520749 -0.49750036 1.5734519
-0.76742887 -0.48344564 1.5942147
-0.74152118 -0.48318577 1.5688635
-0.2179126 -0.49546924 1.5775729
-0.17571686 -0.48854277 1.5741378
-0.12899746 -0.48164675 1.5747432
-0.075509414 -0.48300043 1.5748913
-0.026097037 -0.48217031 1.5706071
0.026882082 -0.48048246 1.5728482
0.076089412 -0.48006576 1.569504
0.12320387 -0.48090798 1.5737448
0.17596018 -0.48085371 1.5721596
0.22426963 -0.4820466 1.5793846
0.27087542 -0.48120725 1.569136
0.32121876 -0.4839451 1.576013
0.37749699 -0.48612002 1.5807742
0.42606905 -0.48497573 1.5683078
0.47925055 -0.48507839 1.5808854
0.52730012 -0.48636085 1.5809704
0.57641637 -0.48129442 1.5680239
0.62381047 -0.48309225 1.5788095
0.67978615 -0.47941712 1.5737671
0.72592741 -0.47895065 1.5699499
0.77421898 -0.47606096 1.5751853
0.82161015 -0.47466439 1.5750518
0.87479126 -0.47287136 1.5764887
0.92424864 -0.46972492 1.5772998
0.96690929 -0.4659701 1.5755652
1.0202626 -0.46886751 1.5973148
1.3493468 -0.46755213 1.58262
1.3736988 -0.46079183 1.5734991
1.4242843 -0.4593035 1.5747515
1.4745042 -0.45787439 1.5710226
1.5341935 -0.45980605 1.5715917
1.5822434 -0.45787024 1.5849069
1.619481 -0.46117705 1.5738487
1.6898298 -0.45879775 1.5660417
1.0186038 -0.27270198 1.5984341
1.0072663 -0.21635813 1.5988836
1.0060227 -0.18580154 1.5997865
1.3389252 -0.055224612 1.5723292
1.3524121 -0.054997001 1.5530885
1.3405309 -0.029768355 1.5790919
1.3647584 -0.024088547 1.5628093
1.3438919 0.011725085 1.5929033
1.3770196 0.022561731 1.5750666
1.4131192 0.041401554 1.5573006
1.385412 0.068712339 1.5903499
1.4224831 0.078146212 1.5692797
1.4504677 0.095841162 1.5544211
1.4346085 0.12228598 1.5836775
1.4687425 0.12837572 1.5612891
1.4410725 0.155036 1.5941371
1.4755377 0.17297211 1.5789877
1.5136511 0.18394819 1.5599282
1.484674 0.20901737 1.577955
1.5157832 0.21055873 1.5592041
-1.0124593 -0.50256354 1.624944
-0.97254062 -0.50347984 1.634416
-0.9383502 -0.50791395 1.641964
-0.87648797 -0.50563896 1.6257612
-0.8278234 -0.50772345 1.6223174
-0.75758761 -0.51782709 1.6423396
-0.724976 -0.52327734 1.6166351
-0.68035406 -0.52788866 1.6187824
-0.6208142 -0.52992082 1.6184342
-0.57480294 -0.52695811 1.6154635
-0.52564472 -0.52519107 1.6214308
-0.47160625 -0.52271962 1.6172687
-0.42151725 -0.51982772 1.6253772
-0.37347573 -0.5187977 1.6259981
-0.30862126 -0.51226187 1.6197716
-0.27585217 -0.50714469 1.6304917
-0.22188313 -0.50280845 1.6293478
-1.0700336 -0.49489745 1.6248255
-1.0257825 -0.49761716 1.6263179
-0.99595326 -0.49880004 1.6170548
-0.77567708 -0.46790227 1.6182343
-0.16822095 -0.48551422 1.626467
-0.12008533 -0.48122048 1.6208743
-0.073495738 -0.48269293 1.6266533
-0.028212678 -0.48124248 1.6275424
0.019862138 -0.4830547 1.6323302
0.074384481 -0.4811933 1.6226282
0.12361292 -0.48153853 1.6279787
0.17313832 -0.48043153 1.6248028
0.22551233 -0.47951266 1.6262494
0.27508691 -0.482573 1.6221527
0.32731876 -0.48895139 1.6358669
0.37103733 -0.48481086 1.615716
0.42890728 -0.48609477 1.6278262
0.47043234 -0.48455176 1.6208965
0.52297771 -0.48446131 1.6259844
0.57309109 -0.48324582 1.6217918
0.62933743 -0.48072496 1.6275439
0.67851055 -0.47986317 1.6300884
0.72709513 -0.47650471 1.6217732
0.77027923 -0.47506931 1.613289
0.82492054 -0.47156 1.6278689
0.87386602 -0.47181946 1.6269113
0.9229179 -0.46684283 1.6259766
0.96801746 -0.4639762 1.6253369
1.0206555 -0.4655219 1.6321815
1.3832024 -0.45646301 1.6086093
1.4230142 -0.46059877 1.6178088
1.4802245 -0.46010336 1.6277424
1.5182183 -0.45557538 1.6235391
1.5769314 -0.45863998 1.6288303
1.6304988 -0.45836785 1.6162511
1.6678138 -0.45524549 1.6358298
-0.77258408 -0.44433004 1.6140873
0.98597628 -0.27049586 1.628245
1.0096742 -0.27141297 1.603963
0.98167998 -0.22339472 1.6295822
1.0164036 -0.22687212 1.6109341
0.98370671 -0.17518462 1.6287239
1.0153142 -0.17638363 1.610435
0.98558253 -0.12537342 1.6271855
1.0119233 -0.12543534 1.6045574
0.98279011 -0.085984804 1.6313765
1.0096846 -0.080793351 1.6121868
1.3639702 0.045463812 1.6062917
1.3736207 0.080422215 1.6133232
1.3896949 0.12369359 1.6313964
1.4129386 0.12952858 1.61178
1.3960297 0.16072677 1.642525
1.4233143 0.17510128 1.623825
1.4583422 0.18403845 1.6070162
1.4332236 0.21123739 1.6349126
1.467677 0.21229653 1.6128004
-1.0224183 -0.50274909 1.6824212
-0.96949011 -0.50373471 1.6697679
-0.92493695 -0.50850838 1.6756636
-0.87235105 -0.50844973 1.6711829
-0.82947862 -0.50654757 1.6653471
-0.76095748 -0.52727646 1.6871878
-0.72919261 -0.53302437 1.6798283
-0.67143124 -0.53466213 1.6746221
-0.62485158 -0.53608447 1.6816237
-0.58211678 -0.53281122 1.6709381
-0.52660483 -0.52858531 1.6674747
-0.47703567 -0.52630651 1.6702387
-0.43531367 -0.5242961 1.6734356
-0.36625001 -0.5211851 1.6695083
-0.33395383 -0.52151084 1.6801642
-0.27424279 -0.51116282 1.6727552
-0.2271051 -0.50628948 1.6660696
-1.069867 -0.49630424 1.6738863
-1.0224475 -0.49680305 1.6636139
-0.98683465 -0.49881232 1.661307
-0.78057808 -0.49235317 1.6779398
-0.21047868 -0.49860796 1.6564476
-0.17631344 -0.48683509 1.6670029
-0.1293525 -0.48273998 1.6736987
-0.079931945 -0.48106664 1.6732496
-0.025339872 -0.48008189 1.677749
0.019270901 -0.47942242 1.6707693
0.076005183 -0.48108152 1.6759424
0.12659562 -0.47896531 1.674121
0.17230424 -0.47844395 1.6736271
0.22578993 -0.47721165 1.6767044
0.27490717 -0.48038363 1.6681055
0.32393667 -0.48529699 1.6719972
0.3758685 -0.48830649 1.6780815
0.4228588 -0.48684779 1.6796665
0.47749415 -0.4868468 1.677511
0.525419 -0.48637927 1.6795323
0.57810944 -0.4827919 1.6785829
0.62696737 -0.47960341 1.6785324
0.6753214 -0.47997141 1.6847947
0.72755122 -0.47710866 1.6742791
0.77658498 -0.47504261 1.6671692
0.82521874 -0.47201186 1.6822184
0.87050879 -0.46893188 1.6724296
0.92843586 -0.46675384 1.681706
0.97743613 -0.46324438 1.6769812
1.0139006 -0.46046662 1.6769805
1.0651561 -0.46247378 1.6886274
1.42325 -0.46129876 1.6670029
1.4782157 -0.46129519 1.6767143
1.5421876 -0.45861733 1.6906233
1.5676785 -0.45841348 1.6691369
1.6257702 -0.4566972 1.6693441
-0.81125504 -0.40216997 1.6735021
-0.82416362 -0.38344195 1.6770089
0.94133043 -0.27286941 1.6858807
0.96266121 -0.27868497 1.6635404
0.93790764 -0.22702214 1.6874267
0.95762283 -0.22537617 1.6619939
0.93874335 -0.17289394 1.6837524
0.95813215 -0.17599244 1.6596868
0.93739569 -0.12389898 1.6844667
0.96008277 -0.12857164 1.6578263
0.93779331 -0.084850304 1.6849835
0.96145284 -0.079637878 1.6578507
1.0262164 -0.062628023 1.676306
1.3969319 0.17114815 1.6519485
1.4080505 0.19216205 1.6632724
1.4174668 0.21251987 1.6630311
2.0383489 0.2851848 1.6981564
2.0613098 0.29273528 1.6945984
2.0619664 0.33247089 1.6933922
2.0634537 0.37749776 1.6934476
2.0659931 0.42341766 1.6882449
2.0455947 0.47306722 1.6914542
2.0674546 0.47544068 1.6877196
2.0403788 0.50662941 1.686316
2.0727863 0.50671798 1.6850095
-1.070655 -0.50292927 1.7249712
-1.0231969 -0.5030421 1.7214289
-0.97332644 -0.50611389 1.7185911
-0.92755336 -0.51080793 1.7233092
-0.87762105 -0.51015127 1.7216809
-0.82771158 -0.51302695 1.7178463
-0.77804714 -0.53516763 1.7341815
-0.72135949 -0.53842521 1.7230983
-0.6750645 -0.53734523 1.7237793
-0.6263209 -0.53533947 1.7155759
-0.57587713 -0.5339753 1.7239984
-0.52778161 -0.53516537 1.7334141
-0.47055891 -0.52903187 1.7238581
-0.41614878 -0.52888745 1.7226734
-0.37370279 -0.52664608 1.7281353
-0.3192991 -0.52151853 1.7271937
-0.26932055 -0.5170998 1.7230749
-0.22417521 -0.507743 1.7211624
-1.0914332 -0.49862641 1.740485
-1.0438528 -0.49924779 1.7211123
-0.84586543 -0.49681586 1.7299941
-0.17152655 -0.48883316 1.7305304
-0.1265689 -0.48376805 1.7257421
-0.071958221 -0.48150149 1.720391
-0.02420404 -0.47828522 1.7114632
0.02393806 -0.48002592 1.7276468
0.075460412 -0.48094872 1.7281919
0.12434023 -0.477256 1.7269073
0.17388526 -0.47555774 1.7163767
0.22403052 -0.47569728 1.7227695
0.2766414 -0.47930545 1.7254837
0.32815486 -0.48457235 1.7096357
0.37609842 -0.48983082 1.730224
0.42548805 -0.48545718 1.7231383
0.47651356 -0.48592874 1.7233348
0.52440912 -0.482979 1.7256963
0.57140952 -0.4817788 1.7229748
0.62249994 -0.47935358 1.7280531
0.67538339 -0.47816873 1.7275761
0.72248292 -0.47399139 1.7308869
0.77728033 -0.47378942 1.7227579
0.82349223 -0.47085413 1.7238653
0.87718332 -0.46804696 1.7284687
0.92534608 -0.46518582 1.7261468
0.97585791 -0.46550483 1.7318985
1.0224276 -0.46099114 1.7269369
1.0740459 -0.45974788 1.7255322
1.4800839 -0.45739296 1.7131459
1.5149404 -0.45586571 1.7167572
1.5778418 -0.45621121 1.7169667
-0.82536197 -0.40920338 1.7177118
-0.83314562 -0.39283776 1.7221813
0.92022395 -0.30119607 1.738306
0.89505088 -0.26864108 1.7397461
0.91921616 -0.27475628 1.7168508
0.89554703 -0.22651792 1.7407774
0.91512233 -0.22464378 1.7161165
0.89424103 -0.17639327 1.7423521
0.91382748 -0.17494221 1.7178305
0.89291179 -0.12641424 1.7428564
0.91143674 -0.12522204 1.7164509
0.89195603 -0.084981948 1.7393007
0.91508257 -0.084446996 1.7199979
2.0570765 0.29975173 1.7120292
2.0429065 0.33519819 1.71646
2.0541246 0.32317066 1.7058917
2.0597987 0.3790032 1.7122076
2.0422263 0.43157339 1.7065926
2.0673075 0.41486871 1.7154392
2.0393 0.47435424 1.7079809
2.0512543 0.51933855 1.7078561
-1.0698448 -0.50431168 1.7763681
-1.0242207 -0.50821215 1.7819929
-0.96868765 -0.50899756 1.7704884
-0.93054277 -0.51543695 1.7721882
-0.88391006 -0.5095337 1.7683424
-0.81107634 -0.52666509 1.7645017
-0.77563715 -0.54007626 1.7773924
-0.72295046 -0.53805196 1.7618848
-0.673841 -0.54051465 1.7747086
-0.61972988 -0.53937149 1.7770962
-0.56848854 -0.53911871 1.7768321
-0.5218758 -0.53747463 1.7753952
-0.43758038 -0.53846121 1.7944736
-0.37342533 -0.52801281 1.768308
-0.32741234 -0.5259009 1.7726063
-0.28269765 -0.52410448 1.7790916
-0.22514692 -0.51225215 1.7755082
-1.0938627 -0.49890676 1.7871071
-0.17348166 -0.49048537 1.7739594
-0.12558785 -0.48223248 1.7765639
-0.083015531 -0.48191145 1.7715116
-0.027976306 -0.47863051 1.7660185
0.027173031 -0.47740474 1.7745931
0.075734675 -0.47530705 1.7696722
0.12705885 -0.47253555 1.76854
0.1747625 -0.47487167 1.7775091
0.22188725 -0.47312668 1.7717884
0.2735143 -0.47466648 1.7731836
0.31901613 -0.4852643 1.7744151
0.37637329 -0.48919529 1.7663072
0.4206675 -0.48590094 1.7730654
0.47579366 -0.48444492 1.7752308
0.52832735 -0.48322213 1.7788476
0.57617688 -0.48111731 1.7766542
0.6257804 -0.47945184 1.7888833
0.67708421 -0.47624412 1.7727016
0.72648489 -0.47300485 1.7804636
0.77421808 -0.47214311 1.775185
0.8291434 -0.46859634 1.7690332
0.87114143 -0.46438706 1.7676698
0.92413318 -0.46437207 1.7746321
0.97156239 -0.46473771 1.769047
1.0257579 -0.46148562 1.7709924
1.0700741 -0.46138692 1.7643518
1.118507 -0.46222594 1.7833071
1.5706887 -0.45577568 1.7555673
-0.83455282 -0.40445593 1.7690074
1.6024877 -0.44251484 1.7538049
-0.83726174 -0.39221826 1.7537558
0.87216103 -0.27515501 1.7744932
0.84497106 -0.23769192 1.7922461
0.86870599 -0.22440374 1.7719878
0.84942579 -0.16557112 1.7937976
0.86948395 -0.17550658 1.7713348
0.84912401 -0.11949524 1.7956755
0.8675729 -0.12531276 1.7738571
0.87225538 -0.084753089 1.7785579
-1.1036094 -0.50790328 1.8239833
-1.0864112 -0.5066883 1.8382671
-1.0245098 -0.51156682 1.8363043
-0.97311324 -0.51682037 1.8278595
-0.92304838 -0.51455843 1.8203278
-0.82017308 -0.53710097 1.8211511
-0.77117711 -0.54264939 1.8330657
-0.72221941 -0.54496676 1.8185822
-0.67138338 -0.54535753 1.8329868
-0.62149322 -0.53989697 1.8312788
-0.56926024 -0.53924018 1.8143705
-0.52578831 -0.54281199 1.8273461
-0.46160254 -0.54313946 1.8291897
-0.42433438 -0.53946495 1.8268957
-0.37702408 -0.53276211 1.8171002
-0.33068094 -0.53080451 1.816435
-0.27541173 -0.52703774 1.8237504
-0.22060561 -0.51162338 1.8270003
-0.19502001 -0.50213975 1.8286018
-0.17838709 -0.49271226 1.8209167
-0.11547303 -0.48321658 1.8255253
-0.075586535 -0.48156863 1.8233472
-0.019988904 -0.48046347 1.82443
0.027703976 -0.4784331 1.826781
0.06940718 -0.47250193 1.8185902
0.1224528 -0.47391021 1.8234615
0.17809013 -0.47125003 1.824255
0.22525379 -0.46814758 1.8216994
0.2713986 -0.47025943 1.822119
0.32654709 -0.48175156 1.8340342
0.37389278 -0.49019632 1.8197587
0.42388806 -0.48361412 1.8217661
0.47098958 -0.48441875 1.8216256
0.52398199 -0.48043683 1.8242841
0.58116496 -0.48024774 1.8246847
0.62504566 -0.47700763 1.8204855
0.67721176 -0.47490191 1.8258871
0.72645783 -0.47159386 1.8244015
0.77077663 -0.46835923 1.8183982
0.82170725 -0.46769848 1.825721
0.88472897 -0.46623334 1.8285798
0.92440832 -0.46552816 1.8256088
0.97903675 -0.46146464 1.8120502
1.0213057 -0.46036473 1.8202566
1.074999 -0.46050087 1.8161397
1.1205676 -0.45933127 1.8194836
1.1642606 -0.45928669 1.8386817
0.85602272 -0.30000499 1.8187637
0.83099657 -0.26934683 1.8250039
0.86185765 -0.29565844 1.8085016
0.8259207 -0.2226603 1.8238438
0.82651013 -0.17680855 1.8244617
0.82705784 -0.12435033 1.8232845
0.82713169 -0.083705112 1.8304092
0.85458648 -0.078557417 1.8088783
-0.73191178 -0.55059427 1.8800304
-0.57242846 -0.55094951 1.882641
-1.0719575 -0.50948805 1.8729993
-1.0161344 -0.51238382 1.8821381
-0.98113149 -0.51900905 1.8789148
-0.92978609 -0.51051223 1.8838491
-0.85801339 -0.53759164 1.8707758
-0.81622946 -0.54152155 1.869416
-0.77610755 -0.54479337 1.8843282
-0.73109174 -0.54551172 1.8739305
-0.68609351 -0.5411303 1.8566372
-0.6234268 -0.5444479 1.8844318
-0.5985719 -0.54404235 1.8701837
-0.5390811 -0.54602289 1.871613
-0.42600593 -0.54424584 1.8781284
-0.31199014 -0.53611416 1.8713197
-0.27584419 -0.53310835 1.8818597
-0.228919 -0.51503152 1.8644216
-0.19841476 -0.50175828 1.862093
-0.20486347 -0.49720761 1.8806801
-0.18223265 -0.49448237 1.8866085
-0.12883417 -0.48616305 1.8734556
-0.073144324 -0.48243907 1.8672638
-0.021744696 -0.481159 1.8770074
0.022306206 -0.47651857 1.86726
0.1713547 -0.4719781 1.8717905
0.20557545 -0.46714589 1.8627747
0.29227957 -0.46993479 1.8663158
0.32642037 -0.47613338 1.8762347
0.38022003 -0.48907804 1.8777111
0.42468128 -0.48354748 1.8684946
0.47340384 -0.48181471 1.8698205
0.52224261 -0.48020968 1.8743297
0.57327014 -0.48003531 1.8699938
0.62480927 -0.4771302 1.8762774
0.66893125 -0.47418028 1.8718932
0.71840835 -0.47116205 1.8727297
0.77994084 -0.46921474 1.8742493
0.82282043 -0.46580952 1.8799255
0.86920291 -0.46650645 1.8759993
0.92652661 -0.46508649 1.8814187
0.97614384 -0.46674696 1.869346
1.0177255 -0.46231446 1.8791988
1.0788239 -0.46199229 1.8801602
1.1275126 -0.46145171 1.87277
1.1643898 -0.45739141 1.8787092
0.86737442 -0.30735496 1.8665161
0.78728026 -0.26869252 1.8782575
0.80946922 -0.28387764 1.8614937
0.78131115 -0.22720525 1.8800789
0.80413216 -0.22625014 1.8544886
0.78323877 -0.17288765 1.8779638
0.80414736 -0.17069578 1.8551015
0.78181189 -0.12276401 1.8796848
0.80477285 -0.12485065 1.8555756
0.78304988 -0.086942337 1.884213
0.80373436 -0.08256121 1.8680811
-2.4094608 1.0727106 1.8910738
-0.80522752 -0.55141908 1.9013768
-0.79887021 -0.55077744 1.94174
-0.71401596 -0.5532856 1.9342613
-0.66332459 -0.55222589 1.9428562
-0.63669986 -0.55054301 1.9426847
-0.5486455 -0.5509696 1.9245989
-1.0724604 -0.50759536 1.9220123
-1.0263987 -0.51251358 1.9262863
-0.97074741 -0.5166747 1.9120924
-0.94596791 -0.50429952 1.919587
-0.8738184 -0.541394 1.9374933
-0.82019788 -0.54828221 1.9254441
-0.77411848 -0.54880488 1.9208263
-0.72742403 -0.54847431 1.9122511
-0.6204046 -0.54700553 1.9329125
-0.59580415 -0.54986614 1.9107776
-0.45251313 -0.54958129 1.9001005
-0.4333469 -0.54061228 1.9191335
-0.31057867 -0.53330368 1.9451848
-0.27542761 -0.5333975 1.9245663
-0.23523696 -0.51981014 1.9175887
-0.17689623 -0.50006491 1.9310334
-0.15980771 -0.49275878 1.9164724
-0.11934536 -0.48668006 1.9199132
-0.070114255 -0.4869692 1.922673
-0.039452687 -0.48296639 1.9074693
0.007083294 -0.47842723 1.9284136
0.32874286 -0.47056377 1.9175282
0.37790632 -0.48946691 1.9283671
0.42903531 -0.4812046 1.9229491
0.48060638 -0.48211479 1.9207062
0.52576309 -0.4774628 1.9326899
0.57582897 -0.47893238 1.9273915
0.62313116 -0.47318184 1.9261886
0.67494696 -0.47285748 1.9075961
0.72276878 -0.47343642 1.9431114
0.76898944 -0.46871617 1.922536
0.82870454 -0.46765411 1.9338967
0.86911404 -0.46582365 1.9125063
0.92847109 -0.4627457 1.9106663
0.97879392 -0.46514463 1.9209222
1.02555 -0.46148312 1.9241889
1.0755627 -0.46400508 1.9302113
1.1323076 -0.45571783 1.9184484
1.1598899 -0.45842478 1.9204086
1.211664 -0.45895162 1.9284713
0.76185018 -0.30167678 1.9274381
0.74364072 -0.26860729 1.936995
0.76777905 -0.27896655 1.9113203
0.74070376 -0.22488888 1.9374363
0.75875145 -0.21721178 1.9148357
0.74091673 -0.1732301 1.9376
0.75955439 -0.17533946 1.9118052
0.73921865 -0.12590717 1.937616
0.75827199 -0.12544616 1.9112498
0.74342358 -0.091888294 1.9359889
0.75944877 -0.084322073 1.9180694
-2.378737 0.5316664 1.9317822
-2.4031413 0.5718618 1.943574
-2.4110026 0.62264532 1.9378035
-2.425808 0.66156477 1.9405704
-2.4341447 0.93224066 1.9340566
-2.5059607 0.98834443 1.9074047
-2.4757936 0.98148668 1.919543
-2.4393668 0.98184794 1.9418184
-2.5070529 1.0207824 1.909669
-2.4764879 1.0291641 1.9362403
-2.4468508 1.0167691 1.9492067
-2.5026569 1.0511014 1.9074637
-2.4730546 1.0622673 1.9156539
-2.4413519 1.0733255 1.9379393
-2.4505816 1.1128287 1.9144239
-2.4359601 1.1173679 1.9346944
-0.84425765 -0.55075532 1.9704838
-0.77070236 -0.5521366 1.9551519
-0.74489701 -0.55163288 1.9602554
-0.67635357 -0.55302978 1.9830451
-0.64832097 -0.55058068 1.9801003
-0.56762093 -0.55002415 1.9950368
-1.0717764 -0.50792766 1.9792386
-1.0276747 -0.51312226 1.9782609
-0.98082954 -0.50785208 1.971608
-0.90696508 -0.52908248 1.9718213
-0.87705147 -0.54108399 1.9733801
-0.82893533 -0.5447762 1.9726604
-0.77589738 -0.54576766 1.9703734
-0.72458464 -0.54837507 1.9766474
-0.67851812 -0.5480184 1.9630307
-0.6311512 -0.54872108 1.976773
-0.57616842 -0.54395759 1.9700851
-0.52037954 -0.54249525 1.9751509
-0.27169323 -0.53129947 1.9762585
-0.22928172 -0.51650441 1.9717617
-0.18047066 -0.50054419 1.9716964
-0.071558379 -0.49027514 1.9820371
-0.029636657 -0.48618945 1.9798542
0.37204221 -0.48937869 1.9845449
0.4245905 -0.48451027 1.9802186
0.47014782 -0.48147807 1.9739639
0.51951194 -0.47756582 1.9786956
0.57374042 -0.47428459 1.9681369
0.6278671 -0.47232881 1.9793526
0.6792922 -0.47330394 1.9766203
0.73221123 -0.46714503 1.9793867
0.77225095 -0.46764788 1.9745564
0.81878775 -0.46849689 1.9702774
0.87270516 -0.46796596 1.9710649
0.92193002 -0.46627906 1.9726371
0.97559071 -0.4655796 1.9767478
1.0202011 -0.46177068 1.968318
1.068907 -0.46195117 1.9779048
1.1116304 -0.46142894 1.9691566
1.1875041 -0.46073967 1.9793551
1.2231729 -0.45659807 1.9708422
1.261391 -0.45931926 1.9991361
0.69820374 -0.26822796 1.9919401
0.71948385 -0.27814466 1.9718453
0.69542485 -0.22976364 1.9923496
0.71535683 -0.22603755 1.9681362
0.6970464 -0.17849788 1.9954017
0.71605366 -0.17771165 1.9699291
0.6957261 -0.12367657 1.9944136
0.71435636 -0.12752639 1.9713806
0.69580871 -0.093979239 1.9957511
0.7202369 -0.087537624 1.9688121
1.2428546 -0.063290887 1.9635667
-2.3910668 0.5374307 1.9669285
-2.408052 0.58507621 1.9838431
-2.3924513 0.57261676 1.9599559
-2.4072955 0.61965239 1.9718926
-2.3986874 0.61958438 1.9800439
-2.4199958 0.67003208 1.9743378
-2.4032469 0.78481758 1.990109
-2.4138381 0.8264249 1.9864434
-2.4107504 0.93576652 1.972546
-2.4254661 0.97376961 1.9685966
-2.4250164 1.0275012 1.9670304
-2.4214158 1.0758679 1.9717752
-2.4217913 1.126693 1.9709737
-2.4149456 1.1671479 1.9666126
-2.4217799 1.2145425 1.9810742
-2.3011942 1.6245788 1.9917234
-2.2725811 1.6273725 1.9771566
-2.2377098 1.6268373 1.9821841
-2.2314336 1.6686245 1.9832113
-2.2279377 1.7251338 1.9961145
-0.66272497 -0.55257779 2.0260246
-0.57979792 -0.55160844 2.0397546
-1.0543052 -0.50154787 2.0171337
-1.0302896 -0.50783974 2.0186255
-0.91903621 -0.53174967 2.0265596
-0.87902594 -0.54032493 2.0289841
-0.82181561 -0.54152817 2.0150752
-0.77573061 -0.54567611 2.0206528
-0.72381538 -0.54723573 2.0245023
-0.67948145 -0.54756284 2.026006
-0.61983621 -0.54634547 2.0109644
-0.57854819 -0.54726291 2.0229785
-0.53224915 -0.54480124 2.0221498
-0.27881405 -0.53292799 2.0108886
-0.21228273 -0.51095271 2.0211196
-0.1713171 -0.506625 2.037272
0.40301201 -0.50049388 2.0329068
-1.0561262 -0.49706569 2.0217223
-1.016766 -0.49213904 2.0258777
-0.081172317 -0.49182102 2.0225577
-0.020557756 -0.48770663 2.0348065
0.37413359 -0.48426965 2.0263121
0.42750102 -0.48701876 2.0341802
0.47952303 -0.48089719 2.035928
0.51383513 -0.48107979 2.0219076
0.575634 -0.47697988 2.0271695
0.62384403 -0.47405511 2.0278358
0.67983568 -0.47104755 2.0283384
0.72217494 -0.47270116 2.0356941
0.78083938 -0.46606871 2.0228634
0.82317162 -0.46807319 2.0275197
0.86724657 -0.4657549 2.0135381
0.93104154 -0.46745089 2.0284402
0.97431308 -0.4619492 2.0132613
1.0219084 -0.46216798 2.0296772
1.0779641 -0.46210116 2.0327556
1.1274407 -0.45862278 2.0182259
1.1749094 -0.45921251 2.0203471
1.2220531 -0.45690179 2.0040307
0.68831223 -0.3024236 2.0231407
0.70788532 -0.3021602 2.0166423
0.67777109 -0.27230334 2.0255473
0.6745072 -0.22416991 2.0239835
0.64889729 -0.18673414 2.0444903
0.67394799 -0.17426634 2.0228469
0.64943993 -0.13635264 2.0488653
0.67460912 -0.12505481 2.0235832
0.67710853 -0.086809121 2.0212324
1.2410215 -0.054254271 2.0391011
1.2596745 -0.053870898 2.0126679
1.2456232 -0.035210475 2.0412028
1.2657648 -0.025645204 2.0262251
1.2814125 0.012707422 2.0392563
-1.1715531 0.29384851 2.0452709
-2.4106014 0.49841595 2.0452323
-2.4137592 0.53153354 2.0143805
-2.4245539 0.5694443 2.0153039
-2.4362473 0.62578881 2.0388017
-2.4299829 0.67431593 2.0203376
-2.4389181 0.71275419 2.0176942
-2.453295 0.76478362 2.042866
-2.4521289 0.83477724 2.0473309
-2.4386601 0.83504403 2.0206923
-2.4553013 0.86515588 2.0401669
-2.4391308 0.8812716 2.0192246
-2.4539027 0.91864967 2.0341721
-2.4387136 0.96832967 2.0222807
-2.4548151 1.0235698 2.0381222
-2.4415927 1.0327907 2.0213308
-2.4548326 1.0894427 2.0403888
-2.4463325 1.0633688 2.04245
-2.456007 1.1048887 2.0351732
-2.4342706 1.1099031 2.0109634
-2.4322197 1.1751851 2.0094774
-2.4388597 1.2305903 2.0207388
-2.464349 1.2968875 2.0469568
-2.4617708 1.364894 2.0417292
-2.4623477 1.5066119 2.032187
-2.3249526 1.6313524 2.0339885
-2.2862635 1.6202208 2.0388682
-2.2241628 1.628628 2.0258279
-2.2153673 1.6757274 2.0253019
-2.2147825 1.72498 2.0274913
-2.2507164 1.79336 2.0186915
-2.2208657 1.7786983 2.0250638
-2.2306337 1.8253486 2.0378737
-0.62504894 -0.55126202 2.0718334
-0.5521909 -0.55472517 2.0997529
-0.52969831 -0.55288804 2.0822897
-0.95700353 -0.51210994 2.0844879
-0.92861736 -0.52502972 2.0724723
-0.87143093 -0.52948946 2.073462
-0.82369405 -0.53694147 2.0752928
-0.77707684 -0.5421142 2.0704517
-0.72986019 -0.54170126 2.072819
-0.67838055 -0.54468393 2.0777664
-0.62908542 -0.54517764 2.0778601
-0.57891053 -0.54684156 2.0706747
-0.48637307 -0.54996657 2.0500247
-0.31061277 -0.5454495 2.0556879
-0.2715252 -0.54058784 2.0712557
-0.22771528 -0.52198744 2.0958014
-0.19015628 -0.50712377 2.080869
-0.97229064 -0.47103831 2.0884852
-0.027512183 -0.49090302 2.0625715
0.38612798 -0.48866192 2.0738785
0.42692131 -0.48775908 2.0645971
0.47334817 -0.48084378 2.0660489
0.53190917 -0.47780392 2.0746033
0.5732426 -0.47660184 2.0650697
0.61833239 -0.47241345 2.0743732
0.6650489 -0.46961761 2.0704501
0.72670221 -0.47207117 2.0823727
0.77188063 -0.46763954 2.0760615
0.82219088 -0.46661711 2.0734491
0.87845802 -0.46583796 2.0798094
0.91651076 -0.46520895 2.071465
1.0229684 -0.45949546 2.0840209
1.0920252 -0.4618395 2.0861144
1.117999 -0.46008316 2.0663354
-0.96389556 -0.31125385 2.0912015
0.63494354 -0.30050302 2.0964651
0.63558441 -0.27276447 2.078469
0.65724754 -0.28196886 2.0593674
0.63176817 -0.22443669 2.0785382
0.65319425 -0.22355418 2.0556092
0.63300318 -0.17416929 2.0815105
0.65204906 -0.16227411 2.0558584
0.63406235 -0.12221392 2.0814919
0.65197068 -0.11151409 2.0578606
0.6350916 -0.08628805 2.084383
0.66524148 -0.079158932 2.0747619
1.2195632 -0.054780059 2.0729518
1.2309954 -0.028437713 2.0777469
1.2505784 -0.010747443 2.0668709
1.2433764 0.01620093 2.0882676
1.2652634 0.027034177 2.0662351
1.3035506 0.044792157 2.0597982
1.2808563 0.071710773 2.0782425
1.307297 0.072807997 2.0650613
1.290704 0.11862616 2.0874629
1.3061941 0.1265064 2.0786269
-0.96564507 0.17044167 2.0793614
1.3061991 0.16719592 2.0916257
-0.97025496 0.20868395 2.0868363
-1.2062876 0.29706341 2.0580902
-1.1500001 0.29389271 2.0548291
-1.1235558 0.29407975 2.0672686
-1.0827577 0.29480064 2.0894186
-1.0249753 0.27462941 2.0781536
-1.2093872 0.30884787 2.0621543
-1.1724228 0.31183413 2.0567846
-1.1211715 0.31125742 2.0733216
-1.0866764 0.3122946 2.0952461
-2.4089086 0.38673767 2.0909128
-1.1582552 0.38358957 2.096061
-1.1408389 0.39500961 2.0913928
-2.4219477 0.40318832 2.099894
-1.1662109 0.40109226 2.0957811
-2.4155567 0.47946596 2.089282
-2.452842 0.53606343 2.0749404
-2.4384944 0.52612382 2.0805409
-2.4532149 0.57951874 2.0654125
-2.4443233 0.57355767 2.0860517
-2.4542975 0.64139062 2.0785499
-2.4420416 0.62301499 2.0885284
-2.4536946 0.68487406 2.0663822
-2.4467216 0.6677655 2.0853465
-2.454246 0.7333582 2.06423
-2.4470718 0.71770912 2.0880177
-2.45402 0.78256279 2.0826638
-2.4465652 0.75481796 2.081331
-2.4601521 0.82283652 2.0756991
-2.4491265 0.84374303 2.0979383
-2.4532199 0.87458801 2.0743785
-2.4477339 0.8776077 2.0708919
-2.4545853 0.92285419 2.0663526
-2.4455943 0.91682613 2.0906806
-2.4576721 0.97368443 2.0716434
-2.4471574 0.97004068 2.0943289
-2.4551592 1.0245198 2.0765741
-2.4468641 1.0027484 2.096128
-2.4535842 1.0730026 2.0749328
