ply
format ascii 1.0
comment PCL generated
element vertex 1480
property float x
property float y
property float z
element camera 0
property float view_px
property float view_py
property float view_pz
property float x_axisx
property float x_axisy
property float x_axisz
property float y_axisx
property float y_axisy
property float y_axisz
property float z_axisx
property float z_axisy
property float z_axisz
property float focal
property float scalex
property float scaley
property float centerx
property float centery
property int viewportx
property int viewporty
property float k1
property float k2
end_header
0.71806931 -0.27570659 1.9741689
0.69409877 -0.22462428 1.9953809
0.71550292 -0.22684692 1.9708408
0.69498253 -0.18169139 1.994422
0.71470225 -0.17673624 1.9697523
0.695265 -0.12853794 1.9928691
0.71499646 -0.12836888 1.9695938
0.69424319 -0.093772307 1.9912608
0.72104388 -0.087508574 1.9702089
1.2277234 -0.06334015 1.9723594
-2.4062278 0.54785615 1.9778224
-2.3863463 0.52942753 1.964606
-2.4077871 0.57629949 1.9725502
-2.4099801 0.62510401 1.9688871
-2.3997867 0.6198684 1.9809514
-2.4179733 0.67157674 1.9658275
-2.4052486 0.94081503 1.9653795
-2.4204626 0.97903079 1.9703064
-2.4272106 1.0284221 1.9688197
-2.4244409 1.0746303 1.9698164
-2.4237182 1.1288904 1.9685951
-2.4203546 1.1746116 1.9784132
-2.415334 1.2113018 1.9758049
-2.4238153 1.4118272 1.9767544
-2.4225376 1.4578278 1.9818153
-2.269942 1.6213375 1.9798398
-2.2330363 1.6252559 1.9822651
-2.2508628 1.6704261 1.963253
-2.2354724 1.6712048 1.9833641
-2.2371349 1.7264187 1.9916066
-2.2227657 1.7710888 1.9936222
-0.72303218 -0.55172944 2.0081897
-0.68742889 -0.55185801 2.0174594
-0.63835251 -0.55363822 2.0356252
-0.56999439 -0.55232406 2.0033789
-0.52937567 -0.55187368 2.0092967
-0.45768103 -0.55015522 2.0147603
-0.44282746 -0.55034822 2.01774
-1.0612105 -0.50229549 2.0180736
-1.0259546 -0.50604659 2.0229344
-0.9252854 -0.53150982 2.0315988
-0.87744868 -0.54044408 2.0333507
-0.8261807 -0.54425097 2.0229964
-0.77724928 -0.54690373 2.0305734
-0.73022461 -0.54635012 2.0367527
-0.65901119 -0.54609817 2.015481
-0.62230706 -0.5470019 2.0129788
-0.57291478 -0.54507411 2.0155556
-0.5303508 -0.5478847 2.0243132
-0.4737837 -0.54719347 2.0413051
-0.42826512 -0.54587507 2.023001
-0.22667243 -0.51588839 2.0224915
-0.17242138 -0.50473017 2.0295656
0.40498722 -0.50294685 2.0428703
-1.0570359 -0.49465811 2.0366893
-1.0254377 -0.49238837 2.0373361
-0.07300172 -0.49223435 2.0244606
-0.03672944 -0.48989543 2.0155017
0.012238436 -0.47973073 2.0157149
0.37127495 -0.48825982 2.0292645
0.42465752 -0.48617703 2.0259657
0.48150659 -0.47889456 2.0176988
0.53127825 -0.47813943 2.0347126
0.57681537 -0.47835419 2.0215065
0.62530404 -0.47534063 2.0294237
0.6787107 -0.47010678 2.0217237
0.72162116 -0.47191834 2.0251124
0.77426779 -0.46897319 2.0173812
0.83397293 -0.47000685 2.0312796
0.87971002 -0.46697795 2.0245714
0.92493457 -0.46611613 2.0293167
0.97300071 -0.46387297 2.0234952
1.0216551 -0.46677378 2.0209682
1.081934 -0.461494 2.0280015
1.123976 -0.45947641 2.01526
1.1846459 -0.45931646 2.0343347
1.2150958 -0.45634201 2.0041184
0.68934041 -0.30288604 2.0262403
0.71038944 -0.30108908 2.0082827
0.67666203 -0.27167246 2.0278945
0.70245147 -0.28984308 2.0021677
0.66872275 -0.22478206 2.0285859
0.67478389 -0.17480215 2.0224109
0.64966637 -0.13134564 2.0498037
0.67340928 -0.1240469 2.023721
0.6769864 -0.087629877 2.0277071
0.70574445 -0.079689719 2.0092106
1.1993499 -0.063825637 2.0039759
1.2434936 -0.054362539 2.0431721
1.2633281 -0.054026958 2.0184965
1.2437606 -0.037982978 2.0438685
1.2672374 -0.027785094 2.0315187
1.28321 0.015502801 2.0420609
-1.200153 0.29555267 2.0476236
-1.1728773 0.2941817 2.0475914
-1.1465964 0.2930229 2.0487475
-2.4429228 0.5451178 2.0371425
-2.3979819 0.52103841 2.0027585
-2.4199288 0.56836146 2.0114586
-2.4392426 0.63373387 2.0394952
-2.4521337 0.66599488 2.0427022
-2.4400415 0.68430495 2.0267363
-2.4514499 0.73301101 2.0369449
-2.4467058 0.70779133 2.0262163
-2.4333851 0.79465967 2.0150661
-2.4535856 0.85722303 2.0412142
-2.4472508 0.88421702 2.0259428
-2.4506302 0.90737677 2.0210466
-2.4537473 0.95812953 2.0336874
-2.4438186 0.96892297 2.0199757
-2.4541416 1.0159037 2.0404773
-2.4430532 1.0408101 2.0196192
-2.4585023 1.0836049 2.046505
-2.4549026 1.1227466 2.0410228
-2.4369051 1.1184916 2.0100155
-2.4586854 1.1579072 2.0444777
-2.4373384 1.1702009 2.0169921
-2.4532771 1.2378851 2.0326936
-2.4479036 1.250235 2.0213652
-2.4421678 1.3540255 2.0254712
-2.4429841 1.4394962 2.0140951
-2.4669731 1.4938757 2.0440376
-2.4416034 1.4539915 2.0052063
-2.4560273 1.5027447 2.0269704
-2.46663 1.5500814 2.0453982
-2.3439217 1.6392692 2.0375493
-2.294837 1.620923 2.0335166
-2.217942 1.6240884 2.0201633
-2.214992 1.675426 2.024967
-2.217092 1.7242467 2.02406
-2.2143064 1.7712498 2.0244839
-2.215663 1.8131019 2.0241938
-0.70557398 -0.55183405 2.0561712
-0.68919933 -0.5512321 2.0576062
-0.60024828 -0.55078059 2.0749886
-0.57904696 -0.5503934 2.0775797
-0.52267867 -0.55249929 2.0678093
-0.45834231 -0.55302358 2.0662115
-0.95838898 -0.51285082 2.0874875
-0.92554557 -0.52555859 2.0708675
-0.87699801 -0.53022492 2.0695364
-0.82437533 -0.53527296 2.0706038
-0.77605438 -0.54007256 2.0740426
-0.72166353 -0.54275215 2.0767238
-0.67489296 -0.54734164 2.0805821
-0.62640399 -0.54703295 2.0710177
-0.57595432 -0.54723978 2.0764842
-0.52460361 -0.54778576 2.0771224
-0.4564521 -0.54665804 2.0835843
-0.4444212 -0.54848611 2.0507689
-0.38671091 -0.54289323 2.0783463
-0.25689638 -0.53415006 2.0784338
-0.20054607 -0.50774556 2.0827875
-0.1819323 -0.50787634 2.0736268
-0.14995696 -0.50840241 2.0883176
0.3981438 -0.50704545 2.0608513
0.41380814 -0.50362307 2.0890477
-0.97629076 -0.47842377 2.096195
-0.077694476 -0.49712896 2.0660436
-0.017394673 -0.48815927 2.0511158
0.37755132 -0.48381111 2.0653858
0.43010509 -0.48173514 2.0685108
0.47148955 -0.48245335 2.0734723
0.52314407 -0.47906142 2.0818191
0.57535523 -0.47524887 2.0739484
0.62653792 -0.47295636 2.0685742
0.67551059 -0.47210208 2.0842276
0.72525024 -0.46936238 2.0784533
0.77281392 -0.46978337 2.0598006
0.82003617 -0.46737203 2.070653
0.8749035 -0.46602663 2.075248
0.92570955 -0.46665779 2.0908251
0.98388696 -0.46338338 2.0738497
1.0309243 -0.46761462 2.0794535
1.058874 -0.46553138 2.0582619
1.1311381 -0.46207619 2.0720229
1.1739581 -0.45867723 2.0830517
1.2431982 -0.45782426 2.0641601
-0.96341848 -0.33256972 2.0878246
0.6775049 -0.30666175 2.0561597
0.63563019 -0.27506983 2.0789173
0.65667248 -0.28112286 2.0549393
0.63186336 -0.22645326 2.0787244
0.65234244 -0.20295066 2.054379
0.63186198 -0.17387432 2.0778139
0.65474409 -0.1680202 2.0542605
0.63301784 -0.12222591 2.0812297
0.65108484 -0.11895718 2.0547562
0.63721728 -0.087186716 2.073432
1.1679572 -0.065388016 2.0779071
1.2215986 -0.0548716 2.076417
-0.96420479 -0.026373766 2.0812056
1.2344738 -0.027317885 2.0749817
1.2551986 -0.010686732 2.0513382
-0.96401143 0.018760793 2.0807936
1.2425255 0.011422529 2.0885692
1.267984 0.027184987 2.0696278
-0.96470845 0.058647007 2.08178
1.2782882 0.070117332 2.0756934
1.3112917 0.07308799 2.0713696
1.2905873 0.12252055 2.0916123
1.3079362 0.12412622 2.0873287
-0.96947497 0.17648172 2.0872631
1.3126993 0.16405798 2.0928733
-0.97451836 0.20422684 2.0963922
-1.125206 0.29451174 2.0703053
-1.0884229 0.29485962 2.0877712
-1.0311576 0.27567971 2.0693328
-1.2142677 0.31009427 2.0704763
-1.1744547 0.31238958 2.0603838
-1.1215801 0.31136066 2.0740261
-1.0826398 0.31317353 2.0948977
-2.4167316 0.3879936 2.0977032
-1.1578659 0.3890183 2.0945952
-1.1414289 0.3878341 2.0934899
-2.4167721 0.40232673 2.0954065
-1.1522942 0.40012056 2.0952971
-2.430016 0.48378515 2.0924764
-2.44153 0.52461785 2.0788918
-2.4450142 0.57539207 2.0745702
-2.4514818 0.64065486 2.0761652
-2.4453652 0.62243068 2.080749
-2.4457302 0.67400283 2.0738494
-2.4522839 0.71932071 2.069242
-2.4474003 0.7373023 2.0826218
-2.4599667 0.78077567 2.0664055
-2.4477596 0.76818562 2.0830529
-2.4571276 0.82425451 2.0695419
-2.4496598 0.84392679 2.0983953
-2.4517937 0.86428469 2.0794015
-2.4479361 0.88905221 2.062407
-2.4565723 0.92829287 2.0701506
-2.4443405 0.90970057 2.0896132
-2.4608643 0.97341305 2.075743
-2.4552503 1.016554 2.0773726
-2.4485321 1.0376906 2.0695384
-2.4540465 1.0732285 2.0753646
-2.446816 1.0690511 2.0990667
-2.4546523 1.118068 2.0749938
-2.4631066 1.1729822 2.0839286
-2.4644105 1.2207063 2.0735507
-2.4672453 1.275581 2.0729346
-2.4637485 1.3218161 2.082947
-2.4632564 1.3725151 2.0777793
-2.4733624 1.4175129 2.0823054
-2.4765606 1.4752721 2.0769827
-2.4737191 1.5301467 2.0767083
-2.4689131 1.5692272 2.0693541
-2.4872699 1.6230242 2.094208
-2.35706 1.6358347 2.0887876
-2.3219433 1.6354034 2.0930152
-2.2621686 1.624794 2.0698011
-2.2144046 1.6349313 2.0784686
-2.4228621 1.675473 2.0839751
-2.3908131 1.6562804 2.0872991
-2.2084928 1.6817011 2.0754514
-2.2116156 1.7318517 2.0777514
-2.2066567 1.7827415 2.0730929
-2.2170818 1.8255143 2.069833
-0.56310952 -0.55502015 2.1431785
-0.52751452 -0.55411202 2.1204069
-0.47735381 -0.55239552 2.1341681
-0.44164044 -0.55394781 2.1143939
-0.31138203 -0.55471796 2.1329482
-0.29989687 -0.55284411 2.1267459
-0.96106154 -0.50361693 2.1141729
-0.92438549 -0.51209372 2.1221368
-0.87873608 -0.51808816 2.1259472
-0.83112383 -0.52638668 2.1213706
-0.77276576 -0.53329134 2.1191297
-0.7271837 -0.53516322 2.1251965
-0.67890394 -0.54013407 2.1251416
-0.62970221 -0.5426839 2.1302152
-0.5810926 -0.54659033 2.1170144
-0.5130021 -0.54733413 2.1356809
-0.41859332 -0.54683304 2.1240609
-0.37657538 -0.54692101 2.131119
-0.30277589 -0.54762077 2.1489761
-0.23431709 -0.52271724 2.1091619
0.41258618 -0.50360864 2.1199465
-0.97013915 -0.47612444 2.1262057
-0.94292343 -0.49754387 2.1458011
0.39236134 -0.48835927 2.1185751
0.42971814 -0.48628926 2.1285064
0.47622648 -0.47576237 2.1260602
0.52515012 -0.47648245 2.118885
0.57238919 -0.4746784 2.1273601
0.62069255 -0.47311497 2.1280329
0.68014681 -0.47185045 2.1315789
0.71510452 -0.46772346 2.1168051
0.77768183 -0.47052026 2.1243632
0.80895728 -0.46770036 2.1299715
0.86403143 -0.4656859 2.1231885
0.91094345 -0.46751291 2.1187029
0.97376347 -0.46881413 2.117239
1.0191264 -0.46375877 2.1229186
1.0750674 -0.46641484 2.1171927
1.1119099 -0.46464181 2.1251621
1.2717798 -0.45692056 2.113508
-0.96441722 -0.42307106 2.1295912
-0.94432926 -0.41279727 2.1471636
-0.96553874 -0.37580544 2.1387377
-0.94284475 -0.39565283 2.1459892
-0.96845567 -0.32030764 2.1335652
0.62096727 -0.30384174 2.1239262
-0.97081321 -0.27306932 2.1358225
0.58929408 -0.27074468 2.1377144
0.61061847 -0.2767123 2.1158779
-0.97206962 -0.22604939 2.138891
0.58980632 -0.22534306 2.137358
0.60837722 -0.22565082 2.1077738
-0.9741286 -0.17446102 2.1384826
0.59054434 -0.17790398 2.1368425
0.60829955 -0.17593509 2.1085384
-0.97417301 -0.12535508 2.1409836
0.59329712 -0.12536356 2.1354396
0.60971141 -0.12509261 2.1106677
-0.97377586 -0.076198034 2.1416898
0.5927031 -0.093909979 2.1343889
0.61730587 -0.083218515 2.1244004
0.66698134 -0.073713347 2.1419148
1.126358 -0.066512011 2.1370699
1.1903099 -0.055753693 2.1302106
1.2077321 -0.055513069 2.1121593
-0.97339898 -0.027091177 2.1416702
1.1900451 -0.035709828 2.1398988
1.2137682 -0.026404522 2.1193678
-0.97404563 0.022013826 2.1430826
1.2297103 0.023989452 2.1264997
-0.97513992 0.076666892 2.1445634
1.240364 0.065289646 2.1320794
1.2617601 0.081742138 2.1157095
-0.97525078 0.12584747 2.1431472
1.272674 0.12264132 2.1271548
1.3027816 0.14854954 2.1250796
-0.98053408 0.17898899 2.1428401
1.2926528 0.17298217 2.1337042
1.3087782 0.18204238 2.1089883
-0.98389214 0.22621712 2.1307185
1.2897443 0.20621102 2.1360536
1.3115281 0.20515881 2.1118326
-1.0644825 0.29577535 2.1045613
-1.0234491 0.28800514 2.12569
-0.99406523 0.2666814 2.1377318
-2.3982711 0.34540719 2.1279068
-1.0598068 0.31243378 2.1064115
-1.0248377 0.31235269 2.1271548
-0.99992597 0.31975079 2.1412804
-2.4067011 0.37432161 2.1177347
-2.3846819 0.37420449 2.1381733
-1.1751857 0.38551655 2.1018701
-1.0154655 0.37102079 2.1413178
-2.4029772 0.41372019 2.1147509
-2.380018 0.42913836 2.13833
-1.1711518 0.40279153 2.1046603
-1.1439527 0.43873861 2.1250763
-2.4136872 0.48671165 2.1133285
-2.3781602 0.47617614 2.1415777
-1.1660193 0.46785602 2.1277773
-1.1264341 0.4685207 2.1176572
-1.0969114 0.48278365 2.1313083
-2.4212599 0.52251083 2.1174624
-2.3876078 0.52142352 2.1412826
-1.153342 0.52172101 2.1291544
-1.1196283 0.52748764 2.141953
-1.0961124 0.51881224 2.1369963
-2.4218292 0.57672614 2.1171281
-2.3833315 0.57270479 2.1396029
-2.4243264 0.62553442 2.1180651
-2.3843379 0.62551707 2.1416693
-2.424974 0.67533594 2.1175923
-2.379137 0.66965675 2.1390569
-2.4276414 0.72245532 2.1177306
-2.3832836 0.7300064 2.1436951
-2.3246284 0.73877579 2.1495266
-2.423928 0.77779877 2.1202071
-2.3812909 0.78167206 2.1438961
-2.338182 0.78674805 2.1486139
-2.4261029 0.82778651 2.118762
-2.3827176 0.82133496 2.1426632
-2.3425622 0.80280447 2.1479733
-2.4235246 0.87467629 2.1195698
-2.3772683 0.87360507 2.1425533
-2.421566 0.9251411 2.1251333
-2.3796604 0.92292571 2.1448836
-2.450897 0.9894191 2.1053555
-2.4258835 0.96926433 2.1204596
-2.3824055 0.97523469 2.1429474
-2.4516106 1.0046934 2.100194
-2.4243438 1.0218351 2.1206236
-2.3873799 1.0276814 2.1424556
-2.4212446 1.0687767 2.1219316
-2.3818066 1.0787532 2.1454921
-2.42661 1.1186907 2.1166518
-2.3925207 1.1374302 2.1396878
-2.4554632 1.1554116 2.1015024
-2.4258652 1.1719115 2.1190948
-2.3765576 1.1728246 2.144449
-2.3480339 1.1924897 2.1493738
-2.4546587 1.2233332 2.100656
-2.4280226 1.2226958 2.1227207
-2.3897231 1.2186481 2.1434896
-2.4543352 1.2846365 2.1024628
-2.4246614 1.2747595 2.125541
-2.3834212 1.2524132 2.1463966
-2.4574928 1.3408518 2.1099858
-2.4274263 1.3293098 2.1283813
-2.3829691 1.3216876 2.1437175
-2.4624257 1.3867253 2.1086538
-2.4268501 1.372154 2.1285956
-2.3919208 1.3773785 2.1422331
-2.4618969 1.4282395 2.1107805
-2.42589 1.4191828 2.1290648
-2.3859572 1.4138933 2.148464
-2.4677873 1.4755547 2.1092474
-2.4258492 1.4722593 2.1381969
-2.4631531 1.5233606 2.1188538
-2.428709 1.5195215 2.137886
-2.4708195 1.5776377 2.1152191
-2.4337819 1.5720201 2.1419296
-2.4673183 1.6264557 2.1280158
-2.4254415 1.6392136 2.1295168
-2.3718958 1.6278615 2.1289291
-2.326875 1.6308639 2.1255374
-2.277133 1.6366346 2.1332083
-2.2259288 1.6317693 2.1166239
-2.4737687 1.6679113 2.1250889
-2.2288609 1.6685107 2.1327133
-2.4902196 1.7027918 2.1193328
-2.2276847 1.7339722 2.1253586
-2.2040892 1.7744558 2.1006136
-2.2170169 1.8448504 2.1099889
-0.33071956 -0.55030346 2.1568594
-0.92833936 -0.5016284 2.1702943
-0.86383867 -0.50687236 2.1683905
-0.82514977 -0.51436889 2.1722124
-0.77706254 -0.52117038 2.1746192
-0.72360384 -0.52876949 2.1794531
-0.66841668 -0.53353453 2.1655161
-0.61852574 -0.53639984 2.1767268
-0.57348144 -0.54263359 2.1743186
-0.52543676 -0.54348165 2.1744387
-0.47924417 -0.54404217 2.1780958
-0.42654186 -0.54183137 2.1789052
-0.37464264 -0.54537612 2.1844912
-0.32561529 -0.54653078 2.1719427
-0.28074804 -0.54132664 2.160979
-0.22956057 -0.52774894 2.1634226
-0.95761597 -0.46968928 2.1573079
-0.93469208 -0.4724769 2.1706119
-0.88288337 -0.49802485 2.1661403
0.39399391 -0.47582868 2.1597724
0.42980787 -0.4864718 2.1755066
0.46498802 -0.4728927 2.1882696
0.52765512 -0.47393247 2.1705565
0.57400638 -0.47413024 2.1767159
0.62740254 -0.47104684 2.151783
0.67908454 -0.47019863 2.1696715
0.72917944 -0.4683437 2.1713493
0.77168393 -0.46731311 2.1674187
0.83304405 -0.46794432 2.1779597
0.87615508 -0.46706468 2.1850164
0.92282379 -0.46648598 2.1805606
0.97510916 -0.47051775 2.1734183
1.0313334 -0.46569759 2.1914282
1.0850611 -0.46683028 2.1788716
1.1237017 -0.46327099 2.1666381
1.213194 -0.46518019 2.1869309
1.343726 -0.45704961 2.1769347
1.3640728 -0.45133489 2.1820569
-0.95753342 -0.44389245 2.1589327
-0.92472219 -0.42551386 2.1692235
-0.87361962 -0.4173865 2.1858022
-0.9554646 -0.35777837 2.1509519
-0.92390388 -0.37436998 2.165158
-0.88230568 -0.37907726 2.1887493
-0.95385897 -0.32419857 2.1509986
-0.92425299 -0.32540631 2.1690803
-0.88380247 -0.32678214 2.1910739
0.59929836 -0.30885345 2.165086
-0.95564622 -0.27470589 2.1551409
-0.92338127 -0.27548876 2.1718109
-0.88357973 -0.27817905 2.1929374
0.54593766 -0.27688691 2.1920238
0.56722367 -0.27794275 2.1703696
-0.95563555 -0.22114061 2.1547034
-0.92252511 -0.22566509 2.1737945
-0.88755417 -0.22658458 2.1937876
0.54524547 -0.22000895 2.1913285
0.56413162 -0.22241446 2.1655467
-0.95620728 -0.17518625 2.1542096
-0.92139345 -0.17588365 2.1742613
-0.88378686 -0.17938288 2.1950483
0.54468101 -0.17918546 2.1876755
0.56631243 -0.17520426 2.1646631
-0.95532221 -0.1257527 2.1546128
-0.92087615 -0.12629877 2.175427
-0.8856045 -0.1267682 2.1944499
0.54402703 -0.12824126 2.195209
0.56985396 -0.12715629 2.1714191
-0.95579785 -0.078899905 2.1556444
-0.92176068 -0.075936615 2.1757193
-0.88519955 -0.077072784 2.194998
0.54705608 -0.074637361 2.1922009
0.5724014 -0.073014431 2.1651471
0.62166131 -0.062546685 2.1643007
0.67457569 -0.060732801 2.1828811
0.70658296 -0.064866208 2.1952286
1.107124 -0.067043446 2.1642923
1.1664473 -0.05651626 2.174536
-0.95643824 -0.030837275 2.154803
-0.92318493 -0.026318399 2.1753042
-0.8853516 -0.027431685 2.1961691
0.54555619 -0.029856857 2.1958079
0.57567447 -0.026440591 2.1745653
0.62856406 -0.026634365 2.1834364
0.66691083 -0.03655817 2.1939595
1.1763941 -0.028982272 2.1751046
1.2024949 -0.011055188 2.1524835
-0.95586544 0.024507387 2.1566324
-0.92189509 0.021305578 2.176837
-0.8912276 0.022221876 2.1954961
0.54658425 0.021418083 2.1910198
0.57264853 0.021412384 2.1841264
0.61400688 0.010810597 2.1919749
1.1912518 0.012999392 2.1853416
1.2108735 0.027238352 2.1673558
-0.95663679 0.076932862 2.1590281
-0.92186236 0.077219628 2.1791849
-0.89187825 0.077471897 2.1961884
0.54827332 0.058911905 2.197341
0.56979269 0.058927953 2.1941702
1.228431 0.076110572 2.1745968
-0.95751774 0.12638964 2.1593602
-0.92284375 0.1268924 2.1798601
-0.8927049 0.12729701 2.1965921
1.2424555 0.11791883 2.1834555
1.2591565 0.13222304 2.1620457
-0.96327299 0.17440736 2.1578519
-0.92435431 0.17678013 2.1809537
-0.89394462 0.17729849 2.1971903
1.2443219 0.15110128 2.1978559
1.2696776 0.17624372 2.1750498
-0.96611857 0.22590363 2.1588438
-0.92625409 0.22691803 2.182204
-0.89611137 0.22767568 2.199271
1.2747581 0.2093685 2.1843832
-0.96991855 0.2795445 2.1600761
-0.92826527 0.27375942 2.1845806
-0.89726305 0.25573954 2.1999936
-2.4078407 0.33336341 2.1517935
-2.3723202 0.33770782 2.1672196
-2.3309174 0.34126467 2.1871896
-2.2790425 0.34132954 2.1907668
-0.97116053 0.31563139 2.16221
-0.92911184 0.31188399 2.1901062
-2.3545525 0.3727845 2.1509488
-2.3279207 0.37189618 2.1663456
-2.2791655 0.37681094 2.1856029
-2.2404044 0.39618909 2.1977942
-1.0065973 0.37211603 2.1709459
-2.3597224 0.40224707 2.1511636
-2.3270192 0.42130643 2.1619577
-2.2776318 0.42825934 2.1791072
-2.2458501 0.41838223 2.1996522
-2.3254938 0.47270393 2.1601586
-2.2681506 0.47673896 2.1844482
-1.0771945 0.46720815 2.1801453
-2.3593359 0.52715433 2.1544333
-2.323139 0.52380854 2.1612217
-2.2770784 0.5285182 2.1829429
-1.1547495 0.53900152 2.155391
-1.1404151 0.53764206 2.1545055
-1.0865126 0.52924949 2.1775751
-2.3669486 0.57221365 2.1517644
-2.3241768 0.57731766 2.1605892
-2.2782228 0.57056397 2.1826317
-2.2481318 0.57113677 2.1988785
-2.3546748 0.6306237 2.1533909
-2.3242359 0.62231302 2.1635754
-2.2792895 0.62729913 2.1872551
-2.3600864 0.6538263 2.152704
-2.3255186 0.67784548 2.1649439
-2.284518 0.67922866 2.1928382
-2.3640752 0.71523809 2.1537318
-2.3216257 0.72002524 2.1613171
-2.2753837 0.72360826 2.1841879
-2.368196 0.76997238 2.1558354
-2.3168528 0.76869524 2.1642816
-2.2698326 0.77667469 2.1847684
-2.2482705 0.78064424 2.1984704
-2.3563328 0.82953238 2.1533828
-2.31987 0.82382798 2.167727
-2.273742 0.82869256 2.1853778
-2.3582299 0.8769536 2.1535864
-2.3278213 0.87677139 2.1617165
-2.2848537 0.87534755 2.1862826
-2.368335 0.92356473 2.152426
-2.3260543 0.93138242 2.1694357
-2.2816505 0.92516869 2.1907327
-2.3559272 0.98830658 2.1541638
-2.328512 0.97522992 2.1676781
-2.2852285 0.97278804 2.1866598
-2.3784647 1.0231043 2.1547153
-2.3263667 1.0254223 2.1667676
-2.2750318 1.0249823 2.1893671
-2.3563433 1.0694697 2.1517329
-2.3227224 1.076154 2.1681378
-2.2785985 1.0670809 2.1912329
-2.3661425 1.1277236 2.155875
-2.3250835 1.1283634 2.1739395
-2.273823 1.1177804 2.1893435
-2.3505113 1.1786399 2.1585729
-2.3245869 1.176935 2.1758823
-2.279392 1.1669285 2.1925809
-2.3691552 1.2158625 2.1524065
-2.3264751 1.2271576 2.170361
-2.2855678 1.227191 2.1923401
-2.3717449 1.277227 2.1523435
-2.322536 1.2778732 2.1768203
-2.2735004 1.2746621 2.1911139
-2.363755 1.3209248 2.1584644
-2.3260689 1.3290957 2.1755998
-2.2876105 1.3245142 2.1950214
-2.3688316 1.3790104 2.1538446
-2.328397 1.3741435 2.172745
-2.2964272 1.3663422 2.1927907
-2.3782434 1.4302101 2.1630044
-2.3301234 1.4216576 2.1842721
-2.2928176 1.4119232 2.1970963
-2.4001253 1.4945034 2.15571
-2.372663 1.4714488 2.1669691
-2.3255024 1.4740719 2.1888399
-2.2957904 1.477738 2.1986332
-2.4056773 1.5137328 2.1521852
-2.3753338 1.5301864 2.1715493
-2.3278801 1.5214108 2.1881855
-2.4095914 1.573885 2.1572628
-2.3807132 1.5784016 2.1683648
-2.3288169 1.5779251 2.1857772
-2.2993824 1.5528641 2.1951153
-2.4182801 1.6247671 2.156554
-2.3653622 1.6104269 2.1641839
-2.3297746 1.6351181 2.1825702
-2.2810826 1.6700835 2.1878457
-2.2778957 1.7411397 2.1930921
-2.2746072 1.8070759 2.1830873
-2.2770782 1.8705187 2.182755
-2.3101368 1.9319763 2.174093
-2.3605657 1.9852455 2.1772366
-2.3385618 1.9801737 2.1912348
-2.3669009 2.0382004 2.1895876
-2.3258104 2.0158923 2.1988289
-2.3464801 2.0674589 2.1963699
-1.955747 2.255775 2.1919417
-0.81932777 -0.50320667 2.2084913
-0.77192807 -0.51011187 2.2166567
-0.72561657 -0.51407528 2.222652
-0.67759591 -0.523588 2.2247617
-0.62500215 -0.52989435 2.2256408
-0.56980717 -0.53142184 2.2260473
-0.52692443 -0.53258383 2.227181
-0.47422791 -0.53171784 2.2246585
-0.42799309 -0.53316587 2.2344761
-0.37533757 -0.53796762 2.2237687
-0.32049596 -0.54143906 2.2301028
-0.2775462 -0.53872621 2.2238593
-0.22550549 -0.53259873 2.2303388
-0.81969553 -0.49562418 2.2278845
-0.78001344 -0.49547946 2.2370145
0.42528543 -0.48614642 2.2299278
0.48047715 -0.47540846 2.2305036
0.5195362 -0.47461286 2.2244074
0.56774038 -0.47157151 2.2198148
0.62671614 -0.47427264 2.2318039
0.67117286 -0.47205383 2.216841
0.72835594 -0.46963543 2.2209222
0.76869392 -0.4677285 2.2163234
0.82351971 -0.47040391 2.2365265
0.87474126 -0.46607018 2.2409976
0.92178297 -0.46352422 2.2298474
0.97547972 -0.46618885 2.2122097
1.0215199 -0.47164732 2.2270639
1.0890331 -0.46192631 2.2158041
1.2362642 -0.45777327 2.2042925
1.3376331 -0.45450103 2.2141151
-0.87353611 -0.41850525 2.2010314
-0.82247174 -0.41251424 2.2133029
-0.778557 -0.41242975 2.2371495
-0.85883194 -0.37026188 2.2034037
-0.82317317 -0.37379491 2.2199712
-0.78059095 -0.37691769 2.2421975
-0.85804033 -0.32753164 2.203722
-0.82269311 -0.32339138 2.2240887
-0.78563917 -0.3268801 2.2439518
0.5474847 -0.31589216 2.2254996
0.55456799 -0.31215489 2.2240109
-0.85856837 -0.27521256 2.2056634
-0.82180369 -0.27288979 2.2262893
-0.78806061 -0.27034566 2.245465
0.52044046 -0.27320579 2.2273803
-0.86197835 -0.22714426 2.206742
-0.82001603 -0.22459358 2.2294149
-0.78602493 -0.22597562 2.2467985
0.52178973 -0.22673547 2.2220187
-0.85911787 -0.17445777 2.2074854
-0.82219374 -0.17488968 2.2295394
-0.7902478 -0.17301935 2.2466602
0.52210307 -0.17255232 2.2242534
-0.86048418 -0.1271394 2.2083755
-0.82081634 -0.12499885 2.2309062
-0.79305118 -0.12818396 2.245187
0.52042246 -0.12460616 2.2248206
-0.8605547 -0.077341557 2.210094
-0.82250196 -0.076691628 2.2311018
-0.79223967 -0.06404648 2.2475789
0.52106535 -0.075539373 2.2234528
0.73085356 -0.059131414 2.2083876
0.77912819 -0.061404046 2.225909
0.82105863 -0.062294405 2.2380135
0.85650986 -0.067256577 2.2475603
0.93049866 -0.067715622 2.244864
0.97804832 -0.067861512 2.2366757
1.016803 -0.068168215 2.2365096
1.130221 -0.057292603 2.2231023
-0.86087793 -0.027541535 2.2117279
-0.82507092 -0.027649797 2.2297978
-0.78966486 -0.02991366 2.242415
0.49327534 -0.043536872 2.2495167
0.51945227 -0.026056197 2.2222576
0.68304449 -0.024019625 2.2066333
0.7234177 -0.025717517 2.2219012
0.77151936 -0.032239474 2.2400877
0.80806005 -0.044609804 2.2495255
1.1349194 -0.030006826 2.2367523
1.1631745 -0.024221985 2.2173874
-0.86580676 0.022274463 2.2086711
-0.82054222 0.022383146 2.2340269
0.52170897 0.020751253 2.2228415
0.63016993 0.032547481 2.2088556
0.67491752 0.022005653 2.2240243
0.72462142 0.017394114 2.2402093
0.75966448 0.011242803 2.249541
1.138088 0.00022731331 2.2389703
1.1696956 0.025004841 2.2270763
1.203185 0.046420857 2.20398
-0.86754268 0.076511525 2.2097623
-0.82141477 0.072532818 2.2356644
0.52262765 0.076450475 2.220391
0.5782851 0.083656818 2.2098904
0.62761545 0.075146601 2.2223861
0.67189217 0.073140375 2.2381151
0.70020491 0.066518776 2.2488348
1.1869162 0.071092367 2.2301009
1.211391 0.079964206 2.2118099
-0.86708105 0.12609735 2.2122159
-0.82233572 0.12280286 2.2365944
0.52298182 0.12474407 2.2249026
0.57106996 0.12457356 2.2188835
0.62221187 0.12618493 2.2393517
0.65840393 0.11579132 2.2448652
1.2237198 0.12234723 2.2234356
-0.86955011 0.1752428 2.2099073
-0.82315874 0.17315337 2.2365367
0.49383783 0.19649448 2.2465208
0.52406824 0.17385648 2.2321332
0.57589906 0.17478809 2.2354064
0.61182451 0.1738126 2.2456522
1.2369456 0.16429757 2.2267983
1.2549539 0.18748668 2.2146363
-0.87179649 0.22534971 2.2112305
-0.82635957 0.22227927 2.2364326
0.49278229 0.20696437 2.2410626
0.52345657 0.20617893 2.2275462
0.5773766 0.20803437 2.2394292
0.61631036 0.20824639 2.2347927
0.65740693 0.20913735 2.2369108
1.2433496 0.21190923 2.2310247
1.2550733 0.20600402 2.2265322
-0.87642568 0.27409145 2.2115066
-0.82860291 0.27335942 2.2370007
-2.3409719 0.33500892 2.2386413
-2.2626064 0.34096506 2.2013953
-2.2269185 0.33979401 2.2191324
-2.1727288 0.33788645 2.2432678
-2.127739 0.34215352 2.2478876
-0.91444021 0.31846052 2.2160897
-0.87358546 0.30892536 2.2223914
-0.82862282 0.30774656 2.2414088
-2.223676 0.37283051 2.2135227
-2.1711392 0.37441862 2.2340493
-2.1364484 0.35637316 2.2420559
-0.99515653 0.3766163 2.224401
2.5324602 0.38632613 2.2302094
-2.2516418 0.4407402 2.2016671
-2.2181082 0.42417693 2.2106941
-2.1745901 0.42252734 2.232605
-2.1391721 0.42806125 2.2472892
2.5763299 0.42126596 2.2357144
-2.2214596 0.4780193 2.2125242
-2.1766734 0.46996158 2.2318487
-2.1448672 0.47835442 2.2446516
-1.0567399 0.46830976 2.2096848
-1.0430615 0.46255088 2.2316308
-2.2239525 0.52599454 2.2109575
-2.1736004 0.52405477 2.2396731
-1.1047688 0.54829758 2.2194133
-1.0752695 0.53355968 2.2171471
-2.2205944 0.57221317 2.2178888
-2.1763158 0.57653719 2.2337451
-2.1182058 0.57701451 2.2491384
-2.2580276 0.60228288 2.2018595
-2.2251551 0.62642473 2.213933
-2.1729331 0.62778699 2.2351398
-2.2605925 0.67785794 2.2061124
-2.2242706 0.67444992 2.2173691
-2.1768839 0.67411602 2.2383351
-2.2559574 0.70633948 2.2004192
-2.222692 0.72643197 2.215234
-2.1834488 0.72410005 2.2361708
-2.2296276 0.77436727 2.2121
-2.1796451 0.77667373 2.2376328
-2.2315385 0.82899243 2.213764
-2.1827676 0.81984532 2.2312448
-2.1288018 0.845384 2.2429678
-2.2557912 0.87582844 2.2041819
-2.2230539 0.87273067 2.2185295
-2.1774638 0.87159032 2.236412
-2.2563519 0.92278022 2.2027032
-2.2225785 0.92147803 2.2188013
-2.1790884 0.92737824 2.240561
-2.2608907 0.97177953 2.2043002
-2.2262411 0.97433633 2.2230945
-2.17978 0.97965616 2.2409611
-2.1484785 0.98263395 2.2468987
-2.2691531 1.0048593 2.2008383
-2.22697 1.0245347 2.2192273
-2.1758997 1.024995 2.2421219
-2.2563522 1.0843416 2.2037675
-2.2267163 1.0786253 2.2219439
-2.1857352 1.0752493 2.2431645
-2.227473 1.1317629 2.2204397
-2.1863949 1.1318915 2.2443657
-2.2559562 1.176089 2.2039552
-2.2193692 1.1768467 2.2258604
-2.1766109 1.1791421 2.2420802
-2.2611721 1.2203871 2.2053823
-2.2252376 1.2246475 2.222132
-2.1821575 1.2275714 2.2402916
-2.2569821 1.2523394 2.2007635
-2.2312016 1.2729601 2.2177165
-2.1880605 1.2817616 2.2431431
-2.2609456 1.3298731 2.2073722
-2.2224712 1.3181953 2.2249579
-2.1739359 1.3305932 2.2432988
-2.2688491 1.3785977 2.2102885
-2.2257752 1.3758304 2.2282772
-2.1805406 1.3715022 2.2430816
-2.3104169 1.4460821 2.2014267
-2.2705989 1.4222815 2.2092443
-2.2210629 1.4259052 2.2286193
-2.1847353 1.4184439 2.2421927
-2.2693644 1.4757122 2.2154365
-2.2243972 1.4694681 2.2363212
-2.1905527 1.4797674 2.2419415
-2.2762892 1.5243177 2.2145045
-2.231158 1.5279288 2.2367692
-2.1920485 1.5014701 2.2490518
-2.2767739 1.575175 2.2162075
-2.2289164 1.5762923 2.2405274
-2.1968658 1.5779459 2.2466102
-2.3098385 1.6325232 2.2091901
-2.2751293 1.6245991 2.2313633
-2.2394798 1.6209821 2.2468908
-2.3027649 1.6562282 2.2087879
-2.27525 1.6753119 2.2296488
-2.244014 1.6717676 2.2467158
-2.2751141 1.7263197 2.2270253
-2.243104 1.7210073 2.2453394
-2.275286 1.7731038 2.2297108
-2.2356184 1.7805882 2.2395926
-2.2754123 1.8265138 2.2329838
-2.2452149 1.8141214 2.2451148
-2.2778339 1.8692147 2.2291226
-2.2389441 1.8755625 2.2458899
-2.3009865 1.9283875 2.2182827
-2.2720709 1.9192737 2.2367342
-2.3121743 1.9799139 2.2167506
-2.280165 1.9741901 2.2385986
-2.3595791 2.0306716 2.2023022
-2.3203621 2.0382011 2.2137842
-2.2737546 2.0235033 2.2355742
-2.3198333 2.0806999 2.2155068
-2.2702343 2.0688059 2.2385032
-2.3172557 2.1288447 2.225832
-2.2813599 2.1188459 2.2408979
-2.3055849 2.1592026 2.2260845
-2.2786593 2.1662865 2.237227
-2.2663651 2.2174165 2.2420249
-2.004715 2.2848048 2.2235641
-1.928018 2.2615387 2.2191572
-1.8911957 2.2565792 2.2357314
-2.0515664 2.3274896 2.2393155
-2.130105 2.3585851 2.2351937
-0.71787316 -0.50528377 2.2649932
-0.67314708 -0.50600243 2.2722421
-0.62451386 -0.51551187 2.2715847
-0.57450122 -0.52104628 2.269789
-0.52222264 -0.52174819 2.2787254
-0.476715 -0.52403438 2.2658582
-0.42701921 -0.52459347 2.2751429
-0.37398481 -0.5273754 2.2710009
-0.33024088 -0.53243244 2.2798178
-0.28049734 -0.53693086 2.2770891
-0.23013683 -0.5322423 2.2770109
-0.75482231 -0.49743924 2.2525599
-0.73066717 -0.498983 2.2655036
0.43088448 -0.48003611 2.2816789
0.47391054 -0.47374576 2.2733183
0.51981574 -0.47191775 2.2859793
0.5781064 -0.47019804 2.2776382
0.6232869 -0.46847928 2.2707617
0.68195188 -0.47131759 2.2539725
0.71894151 -0.46776941 2.2777171
0.77388048 -0.46643943 2.2684624
0.83528656 -0.46734035 2.258182
0.87041038 -0.46425864 2.2746265
0.92971009 -0.46323696 2.2739446
0.97160262 -0.46661425 2.2802923
1.0288531 -0.47144145 2.2892635
1.2128094 -0.46685186 2.2673714
1.2510842 -0.4601312 2.2857392
1.3491416 -0.4565618 2.2999866
1.3679343 -0.45053008 2.253201
-0.76151788 -0.42278847 2.2611089
-0.72513199 -0.41671297 2.272054
-0.68064177 -0.41453496 2.2864838
1.3523208 -0.44939774 2.2530699
-0.75571984 -0.37433857 2.2556913
-0.72957623 -0.37661734 2.2864814
-0.68564677 -0.39820683 2.2967219
-0.76114517 -0.32443437 2.2590611
-0.73589373 -0.32381043 2.2908018
0.48314035 -0.30150986 2.2957168
0.51739973 -0.31312782 2.2931917
-0.76437557 -0.27676243 2.2601135
-0.73864007 -0.27985218 2.2906096
0.41050494 -0.26991323 2.2755392
0.48273328 -0.27247563 2.2705662
-0.76233232 -0.22313243 2.2638557
-0.74036199 -0.22683267 2.2935824
0.41011438 -0.24212681 2.2754052
0.47901911 -0.22380801 2.2764289
-0.76605242 -0.1738798 2.2643838
-0.74298066 -0.17219356 2.2935934
0.48165035 -0.17603453 2.2766621
0.50581455 -0.18036664 2.2508109
-0.76716471 -0.12226393 2.2656567
-0.74478143 -0.12449966 2.2936962
0.48076388 -0.12641273 2.2761352
0.50533855 -0.13103545 2.2509181
-0.7675705 -0.0738215 2.2672501
-0.74494278 -0.07353422 2.2956626
0.41046628 -0.066025876 2.2850745
0.48102888 -0.076906577 2.2708871
0.84223288 -0.056200333 2.2590065
0.88035363 -0.06211989 2.2611122
0.92629069 -0.060871761 2.2760813
0.97765416 -0.057503443 2.2807302
1.0260156 -0.057942986 2.2862103
1.0746536 -0.05804472 2.2757008
1.1038009 -0.057726108 2.2518594
-0.76417935 -0.026381729 2.2708688
-0.74557501 -0.028238308 2.2982602
0.4105711 -0.033014994 2.2861063
0.47911143 -0.026800128 2.2759776
0.78836596 -0.013858849 2.2540994
0.82558233 -0.026457323 2.2611668
0.87466258 -0.028321262 2.2791011
0.92749506 -0.030266996 2.2913935
0.97580564 -0.038911581 2.2919815
1.0264504 -0.034774926 2.2933981
1.0756398 -0.029880794 2.2811048
1.1115549 -0.024492467 2.2611182
-0.77124387 0.02256023 2.2661994
-0.74569058 0.039803099 2.2984719
0.47817686 0.023526926 2.2756574
0.50477827 0.043717675 2.2505472
0.7374835 0.04091898 2.2544963
0.77638382 0.024850391 2.2653534
0.82601416 0.022878092 2.2823048
0.87097484 0.01828921 2.2915299
0.92295438 0.0024617268 2.2957087
0.95138896 0.00016108133 2.2960124
1.080407 0.0093227029 2.2914593
1.1244773 0.023672858 2.2712555
1.1515484 0.047111183 2.2650614
-0.77209127 0.073125556 2.267978
-0.74590039 0.056834824 2.2988694
0.47831109 0.076205604 2.2755263
0.50478393 0.054631576 2.2504072
0.68446267 0.094300881 2.2543962
0.72595948 0.074345715 2.2656376
0.77515978 0.072029911 2.2841697
0.81616616 0.071065962 2.2944994
0.85114741 0.057447292 2.2996793
1.1409967 0.075052977 2.2895763
1.1683162 0.079650529 2.267571
-0.77311784 0.12384257 2.2694235
-0.74649668 0.11365554 2.2992291
0.47801295 0.1265761 2.2762496
0.50540459 0.12026048 2.2514453
0.68142164 0.12947986 2.2655113
0.72735989 0.12266497 2.2795465
0.76679659 0.11775839 2.291074
1.1414527 0.10695463 2.2989271
1.1795565 0.12251779 2.2834411
1.2073914 0.12999374 2.2579703
-0.7735616 0.17455366 2.268435
-0.74742585 0.17632917 2.2993617
0.44649935 0.19971815 2.2910728
0.47678623 0.17597151 2.2739317
0.63151616 0.17473558 2.2594264
0.6753751 0.17212127 2.2738376
0.71926528 0.17485438 2.291132
1.1957008 0.16126192 2.2923031
1.2177004 0.17472449 2.2753749
1.2511401 0.19046792 2.2596478
-0.80562699 0.24155347 2.2511835
-0.77573031 0.2246142 2.2687817
0.43989164 0.21030295 2.2856021
0.47002026 0.20896389 2.2666297
0.64263648 0.20349145 2.2602584
0.68088078 0.20462102 2.2769156
0.7265951 0.20802486 2.2835724
1.2356081 0.20670001 2.2700403
-0.8067683 0.28687805 2.2507114
-0.77628911 0.27584949 2.2730031
-2.3317912 0.3367908 2.2706676
-2.1113937 0.34285289 2.2697213
-2.058984 0.34801212 2.289928
-0.90875614 0.33272961 2.2688711
-0.87020123 0.33112276 2.2672973
-0.82336825 0.32655084 2.2796903
-0.78197938 0.31087375 2.2728629
-2.1209233 0.38248754 2.2568407
-2.0817301 0.37412834 2.2801738
-2.0414603 0.36545572 2.2896111
2.5331969 0.39103895 2.287343
2.5588996 0.39915207 2.2665644
-2.1213424 0.42781392 2.2599349
-2.074733 0.42624342 2.2829745
-2.0437646 0.43949458 2.2988176
2.5326433 0.42276669 2.2963774
2.5569513 0.42303786 2.2754195
-2.1211243 0.47772193 2.259084
-2.0768404 0.47555017 2.2769432
-2.0458784 0.47481665 2.2952049
-1.0601841 0.47923458 2.2519844
-2.1197219 0.52659798 2.2639678
-2.0696173 0.526142 2.2859907
-1.0656757 0.53261811 2.2553108
-2.1501069 0.59603924 2.253046
-2.124573 0.57345867 2.2569461
-2.0746796 0.57656986 2.2813027
-2.0421808 0.57530457 2.2981231
-2.1532288 0.61820138 2.2512736
-2.1232166 0.62562603 2.2629919
-2.072726 0.62554401 2.2827644
-2.0443568 0.61099911 2.2927608
-2.126184 0.67536789 2.2617471
-2.0756917 0.67653859 2.2834573
-2.0365109 0.66209382 2.2986984
-2.1545315 0.72990751 2.2513239
-2.124923 0.72706199 2.2603395
-2.0797217 0.72608864 2.2834115
-2.1506398 0.79089558 2.2572601
-2.1225586 0.77037239 2.2626665
-2.0737693 0.77637082 2.284462
-2.1543274 0.8210566 2.2520542
-2.1229956 0.82581115 2.2639637
-2.0777504 0.82966822 2.2825308
-2.0462461 0.8194077 2.2948694
-2.1537066 0.89873683 2.254396
-2.1267099 0.87800193 2.2620568
-2.0768716 0.87620181 2.2855816
-2.1604004 0.92333394 2.2536426
-2.1266465 0.92877287 2.261471
-2.0770881 0.92253494 2.2845788
-1.484056 0.92281091 2.2837329
-2.1234567 0.9703604 2.2591834
-2.0810347 0.97094768 2.2868595
-1.6152622 0.96377426 2.2993827
-1.5726014 0.97460252 2.2961297
-1.5385083 0.96973687 2.2977335
-2.1242681 1.0213256 2.2619181
-2.0754979 1.0236353 2.2897458
-1.5720342 1.0152774 2.2987416
-2.1596565 1.075483 2.2537389
-2.1210265 1.0707726 2.2682533
-2.0768466 1.078904 2.2911601
-2.160007 1.1218779 2.2575665
-2.1268086 1.1216873 2.2695978
-2.0815439 1.1244574 2.2869825
-2.1570501 1.1744127 2.2538743
-2.1265945 1.1690302 2.267931
-2.0754175 1.1758175 2.2875357
-2.1570237 1.226009 2.256362
-2.1240671 1.2205189 2.2726612
-2.0743177 1.233078 2.2915978
-2.0316968 1.232643 2.2968214
-2.1646359 1.2752442 2.256042
-2.1287172 1.2732073 2.2656918
-2.0796602 1.2746629 2.2830827
-2.1241751 1.3230743 2.2617941
-2.0782709 1.3193058 2.2877431
-2.049252 1.3498448 2.2971594
-2.1533527 1.3837111 2.2596195
-2.1267555 1.3769467 2.2691746
-2.0809 1.3730539 2.2876613
-2.1641052 1.4212193 2.254396
-2.1246767 1.4298095 2.2662008
-2.0799069 1.4301487 2.2897341
-2.1672523 1.4731622 2.255794
-2.1249454 1.4833813 2.2768843
-2.0770664 1.464726 2.2936487
-2.0497684 1.4767704 2.2981122
-2.2078552 1.5357058 2.2518387
-2.1695611 1.5299727 2.263283
-2.1221108 1.5194716 2.2842424
-2.09079 1.5260907 2.2971618
-2.1684635 1.5728725 2.26389
-2.1241908 1.5702664 2.2861645
-2.088928 1.5825843 2.2970185
-2.2197936 1.6328695 2.2560174
-2.1792829 1.6219093 2.265949
-2.1229324 1.6252446 2.2874699
-2.0951707 1.6028818 2.2945402
-2.2163084 1.6813984 2.2605784
-2.171144 1.6710229 2.2721708
-2.1288662 1.6772655 2.2891848
-2.2148852 1.7249563 2.2631891
-2.1737866 1.7240092 2.2751184
-2.1285806 1.721826 2.2918408
-2.2248864 1.7647178 2.2550375
-2.177881 1.7744036 2.2794764
-2.1331561 1.7803961 2.2956786
-2.2209358 1.828367 2.2588096
-2.1788614 1.8273016 2.2738252
-2.1406806 1.8246354 2.2892339
-2.2177498 1.8813814 2.2597845
-2.1739888 1.8778816 2.274379
-2.1419854 1.8723564 2.292037
-2.2258325 1.9296293 2.2611108
-2.1720712 1.923041 2.2800274
-2.1379101 1.9262614 2.294853
-2.2315874 1.9796429 2.2601705
-2.1749604 1.9698478 2.2806728
-2.1355021 1.9772024 2.29583
-2.2298179 2.0199907 2.2574983
-2.1807625 2.0234601 2.2792389
-2.1455317 2.0191703 2.2974241
-2.2254345 2.0779369 2.2703741
-2.1747417 2.0805342 2.2911444
-2.258323 2.1211219 2.2549067
-2.2257743 2.1308379 2.2666361
-2.1779349 2.1269262 2.2859237
-2.1376038 2.1185856 2.2958341
-2.2593944 2.1807005 2.255873
-2.2232871 2.1753986 2.2639263
-2.1732635 2.172734 2.2868257
-2.1332335 2.1646347 2.2969985
-2.2327025 2.2249212 2.2616885
-2.1770568 2.2242405 2.2819161
-2.2231529 2.2742705 2.260119
-2.1754184 2.2743568 2.2853165
-2.020797 2.2789836 2.2817857
-1.9779577 2.2810225 2.2704053
-1.9175385 2.2804699 2.2842016
-1.866698 2.2764978 2.2823455
-2.2106657 2.3030512 2.2512479
-2.1781468 2.3222771 2.2694523
-2.129652 2.324846 2.2881711
-2.0778913 2.3317063 2.2873058
-2.1631331 2.3589044 2.252974
-2.1212335 2.3611984 2.2688026
2.153548 2.3942728 2.2755432
-0.62442183 -0.50672561 2.3148777
-0.57530093 -0.50937581 2.3174274
-0.52369416 -0.50933421 2.3254156
-0.47616056 -0.51887542 2.3218284
-0.42510453 -0.51918644 2.3299034
-0.37642416 -0.51959652 2.3283937
-0.32069436 -0.52099556 2.3136783
-0.27612361 -0.53201163 2.3306224
-0.23475341 -0.53176129 2.3251054
-0.62194753 -0.49746215 2.3375876
-0.58448762 -0.49517176 2.3328578
0.44197702 -0.47320381 2.3325541
0.46939117 -0.47099248 2.323925
0.52660006 -0.46956298 2.3171272
0.56320322 -0.46878469 2.3223567
0.64142293 -0.46737406 2.3013582
0.6699999 -0.46681929 2.3176124
0.72677898 -0.46311042 2.3238158
0.77861649 -0.46640465 2.3300543
0.83500028 -0.46530515 2.3106349
0.86411691 -0.46531078 2.3032269
0.92219687 -0.46334338 2.3208444
-0.72152519 -0.43681371 2.3102393
-0.65727985 -0.41533706 2.3006365
-0.62649208 -0.4118695 2.3202088
-0.5828982 -0.41305459 2.3424346
-0.7074694 -0.36990604 2.3041272
-0.67186224 -0.37446311 2.3162966
-0.62701094 -0.3757157 2.3392951
-0.59744006 -0.39245105 2.3496816
-0.71031708 -0.32511073 2.3060739
-0.67363298 -0.32671359 2.3254781
-0.63326025 -0.33067599 2.3452792
0.43868452 -0.3055709 2.3333132
0.46386811 -0.30353066 2.3141367
0.50970274 -0.31882572 2.3374248
-0.71439642 -0.27183306 2.3070412
-0.67320913 -0.27494702 2.3284597
-0.6374625 -0.27909079 2.346261
0.43698341 -0.27620557 2.32652
0.45573974 -0.27679065 2.3084295
-0.71484441 -0.2220522 2.3092613
-0.67268014 -0.22320548 2.3303213
-0.64121509 -0.22230427 2.3474209
0.43701848 -0.22264722 2.3172727
0.45553908 -0.24025999 2.3059218
-0.71869749 -0.17744501 2.3086176
-0.67248297 -0.17733984 2.3322453
-0.64039189 -0.17796552 2.3469014
0.4361594 -0.17438683 2.3285236
0.45485666 -0.17402478 2.3105104
-0.7196663 -0.12506363 2.3101208
-0.67212999 -0.12576605 2.3332384
-0.64049709 -0.13204378 2.3492875
0.43770233 -0.12060356 2.3236754
0.45552927 -0.12747653 2.3075535
-0.71913606 -0.073807605 2.3098781
-0.6719901 -0.074260235 2.3342078
-0.64002997 -0.080281243 2.3491247
0.43899667 -0.07432887 2.3221328
0.45746288 -0.069013342 2.3057094
-0.71963358 -0.028343629 2.3121123
-0.67229903 -0.02851429 2.3359103
0.43700394 -0.025170425 2.3218417
0.45665851 -0.030588143 2.3050592
0.97631371 -0.016443567 2.3021233
1.0229563 -0.013848694 2.3036144
-0.72327173 0.021376953 2.3111093
-0.67266542 0.02299694 2.3372135
0.43383461 0.022455115 2.3201785
0.46047521 0.0056445319 2.3099518
0.88641238 0.042400811 2.304188
0.92337245 0.030329939 2.3093224
0.9765802 0.022844402 2.3151255
1.0249566 0.023699757 2.3140392
1.0710415 0.035649791 2.312916
1.1026847 0.041597892 2.3061709
-0.72443151 0.07499212 2.311394
-0.67866719 0.074556723 2.3362794
0.43356428 0.074076451 2.3241637
0.45459628 0.066952854 2.3085656
0.83309114 0.084983282 2.3043811
0.87835276 0.076596312 2.3178291
0.92856991 0.074843891 2.3296428
0.97334468 0.076640941 2.3320515
1.0240161 0.075624846 2.3393607
1.0791428 0.076839641 2.3346553
1.1150486 0.079725541 2.3135066
-0.72317404 0.12699221 2.3122926
-0.67773485 0.12728736 2.3364387
0.43470207 0.12347349 2.322799
0.45902643 0.11689033 2.3006597
0.78480303 0.13591811 2.3074236
0.82578933 0.11999405 2.317734
0.8756724 0.12394734 2.3348389
0.91902924 0.11759534 2.3421626
0.96629816 0.10654047 2.3461668
1.0007032 0.10707007 2.3489671
1.0840667 0.11589766 2.3427479
1.1249076 0.1256994 2.3315716
1.1573287 0.13408522 2.3129058
-0.72219157 0.17711227 2.3157606
-0.677158 0.17682697 2.3389091
0.43387207 0.17357774 2.3162179
0.45933366 0.16707566 2.3001308
0.74333489 0.18807881 2.3047183
0.77493936 0.17633888 2.3160782
0.82317549 0.17519487 2.33636
0.86070865 0.16000353 2.3451941
1.1329386 0.15990913 2.3437021
1.1763597 0.1733786 2.325268
1.206192 0.19275595 2.3107212
-0.75028157 0.23976582 2.3042736
-0.72769934 0.22219881 2.3153515
-0.67969084 0.22539814 2.3393445
0.43171963 0.20058158 2.3031054
0.77433747 0.20735635 2.3231761
0.82400852 0.20975189 2.3403587
1.179298 0.20638426 2.3415997
1.2163591 0.21188028 2.3197834
-0.75171024 0.28024906 2.3055346
-0.72625327 0.27412805 2.3176644
-0.68255383 0.27085891 2.3397701
-2.1049857 0.33819076 2.303124
-2.0977707 0.33927974 2.3216352
-2.018918 0.34705094 2.3099451
-1.9721438 0.34609222 2.3338873
-0.81683886 0.3373597 2.3278804
-0.7688753 0.32766208 2.3246078
-0.72576731 0.31725052 2.3332522
-0.68426561 0.30617374 2.342716
-2.0198035 0.37699196 2.3102572
-1.9720113 0.37370425 2.3300827
-1.9430587 0.38032275 2.3469648
-0.85883904 0.35191077 2.3373876
-0.83661938 0.35242677 2.3467286
2.4884677 0.38021955 2.3405917
2.5053236 0.38923454 2.3240805
-2.0233276 0.421978 2.3097129
-1.9761654 0.42296436 2.327934
-1.9455734 0.42230576 2.3439944
2.4905832 0.42504361 2.3334157
2.5186458 0.41220373 2.313838
-2.0212438 0.47390959 2.3067007
-1.9779148 0.47429731 2.3314033
-1.9374779 0.46173048 2.3455389
-1.030012 0.48284772 2.3260365
-2.022562 0.52478892 2.3122408
-1.9740497 0.522973 2.3350155
-1.9429553 0.53598523 2.3481297
-2.0173886 0.57421929 2.309613
-1.9792266 0.57324767 2.3314075
-1.9475125 0.57209402 2.3466752
-2.0229087 0.62897378 2.3122239
-1.974147 0.62268156 2.3311305
-1.9482892 0.60021025 2.3417358
-2.0253372 0.67948812 2.3119054
-1.9771849 0.67506415 2.3331859
-1.9437662 0.67319077 2.3467882
-2.0516253 0.72372591 2.3009677
-2.0207927 0.72037858 2.3145213
-1.9718267 0.72889513 2.3380353
-1.943621 0.72479945 2.3475115
-2.0248463 0.77392429 2.3102617
-1.975096 0.77813864 2.3312335
-1.9433217 0.77672094 2.3472223
-2.0190845 0.82809776 2.3118749
-1.9774411 0.82269818 2.335494
-1.9493473 0.80742198 2.3463769
-2.0285091 0.87383962 2.312885
-1.9792413 0.87562144 2.3331423
-1.9482317 0.89124328 2.3479717
-2.0528102 0.90690666 2.3036215
-2.0245562 0.92169791 2.3126645
-1.9739305 0.92718869 2.3356519
-1.6527033 0.93728226 2.3392806
-1.6200278 0.92969698 2.3185844
-1.5782138 0.92866224 2.3145771
-1.5277407 0.93120259 2.3153341
-1.4895681 0.93196303 2.3351369
-2.0510631 0.9776634 2.3058376
-2.0240979 0.97511226 2.316355
-1.9813695 0.97809786 2.3369529
-1.9493613 0.97733217 2.3498342
-1.6636338 0.98449403 2.3408074
-1.6219012 0.97104412 2.3075304
-1.5174229 0.97517747 2.3093076
-1.4867098 0.97406816 2.331275
-2.0521865 1.025328 2.304255
-2.0245616 1.0286512 2.3156941
-1.9770454 1.0264558 2.3357444
-1.66605 1.0244203 2.3455982
-1.6255809 1.0221421 2.3254571
-1.5713562 1.0318269 2.3116713
-1.5279932 1.0277855 2.3245997
-1.4915589 1.0149673 2.3413312
-2.05671 1.0750389 2.3057923
-2.0233724 1.0809715 2.3162875
-1.9781715 1.0753378 2.3374255
-1.9483421 1.056392 2.3493223
-1.6246372 1.0586561 2.3410227
-1.5752536 1.075763 2.3432596
-1.526242 1.058533 2.3412781
-2.0521619 1.1390965 2.3038414
-2.0232782 1.1292683 2.3207231
-1.9795722 1.1252046 2.3398106
-2.0273378 1.1784427 2.315465
-1.9766222 1.1744893 2.3408251
-2.0541759 1.2150817 2.3043835
-2.016227 1.2263054 2.3154702
-1.9781988 1.2240425 2.337043
-2.0530245 1.2828628 2.3030329
-2.023252 1.2794969 2.3210177
-1.9764075 1.2766286 2.342586
-2.0265303 1.3291057 2.312068
-1.9804058 1.3288037 2.3397861
-2.0588665 1.3913956 2.3064828
-2.022531 1.3750712 2.3188782
-1.9813106 1.3795232 2.3426347
-2.0555787 1.4170206 2.3050466
-2.0243418 1.4244518 2.3185327
-1.9843432 1.4187146 2.3394468
-2.0819354 1.4889197 2.3049703
-2.0230746 1.4719537 2.3198888
-1.9821876 1.473567 2.3413184
-1.949809 1.4852494 2.3479488
-2.0690439 1.5232989 2.3069949
-2.0306032 1.5227127 2.3283753
-1.9868323 1.518363 2.3415265
-2.1033099 1.5507417 2.3019009
-2.0665941 1.5761226 2.3143239
-2.0255637 1.5802116 2.3334339
-1.9978416 1.564086 2.3450961
-2.0778883 1.6304001 2.311739
-2.030951 1.6254551 2.3330052
-2.1007235 1.6662993 2.3012497
-2.0683296 1.6785585 2.3162894
-2.0279708 1.6752071 2.338227
-2.1053221 1.7301642 2.3059387
-2.0761766 1.7331486 2.3199008
-2.0251672 1.7248558 2.3371272
-2.1015604 1.7880538 2.3006241
-2.0757411 1.7784199 2.3220303
-2.0240443 1.7755216 2.3413014
-2.1152875 1.8311762 2.3078783
-2.07038 1.8196138 2.3249457
-2.0369604 1.826405 2.3420596
-2.1207092 1.8675199 2.3057287
-2.0774603 1.8749535 2.3297851
-2.0377622 1.8819122 2.3462257
-2.1176119 1.9197412 2.3081412
-2.0775354 1.925223 2.3257706
-2.0428355 1.9266145 2.3449845
-2.110497 1.9848604 2.315017
-2.0751534 1.9759567 2.3355415
-2.1177411 2.0309749 2.3146019
-2.0763016 2.0243342 2.3368173
-2.0416903 2.0474792 2.3411558
-2.1254203 2.0747337 2.3137834
-2.0735643 2.0694854 2.3332565
-2.1124699 2.1252227 2.3132796
-2.07284 2.1266205 2.3357861
-2.0356104 2.1418538 2.3473003
-2.1230671 2.1798575 2.3101027
-2.0749087 2.1764076 2.3311381
-2.04583 2.169441 2.3465912
-2.1560838 2.2133703 2.3031042
-2.1226673 2.2239976 2.3115551
-2.0797813 2.2242999 2.3268721
-2.0301828 2.2350264 2.3449335
-2.1276813 2.2708945 2.3126724
-2.0757778 2.2823238 2.3202085
-2.0324247 2.2585394 2.327862
-1.9750143 2.2641025 2.3201025
-1.9234161 2.2707291 2.3298123
-1.8823605 2.2848022 2.3335485
-1.8453538 2.2908573 2.3181505
-2.1113362 2.3060904 2.3041346
-2.0762491 2.3042204 2.3047557
2.0697651 2.3974047 2.3359747
2.1141083 2.390976 2.3368657
2.0769186 2.4056959 2.3440678
2.1269491 2.4043283 2.3289738
2.1781125 2.4078469 2.3205235
2.2270827 2.4110408 2.3334749
2.2752249 2.4158633 2.3361797
-0.54612458 -0.5022552 2.3737957
-0.47160995 -0.50681239 2.3743398
-0.42550489 -0.50840962 2.3868465
-0.37504143 -0.51326597 2.3669419
-0.32976028 -0.51634091 2.3778546
-0.27051246 -0.5265789 2.3652818
-0.23818642 -0.5357216 2.3597379
