ply
format ascii 1.0
comment PCL generated
element vertex 1520
property float x
property float y
property float z
element camera 0
property float view_px
property float view_py
property float view_pz
property float x_axisx
property float x_axisy
property float x_axisz
property float y_axisx
property float y_axisy
property float y_axisz
property float z_axisx
property float z_axisy
property float z_axisz
property float focal
property float scalex
property float scaley
property float centerx
property float centery
property int viewportx
property int viewporty
property float k1
property float k2
end_header
-0.4870171 0.27671748 2.4432435
-0.61829531 0.33148187 2.4143121
-0.56991094 0.32102025 2.4181602
-0.52795625 0.31467417 2.428133
-0.49218607 0.31304631 2.4458869
-1.9245868 0.35120618 2.4213624
-1.8137308 0.377716 2.4070742
-1.7757196 0.37688887 2.4224265
-1.7281175 0.37909779 2.4385884
-0.74774194 0.35763314 2.4047177
-1.8169165 0.42649034 2.404767
-1.7773263 0.42724007 2.4233747
-1.7258768 0.42429885 2.4408107
-1.8173176 0.47695699 2.4072528
-1.7759205 0.47360411 2.4253492
-1.7321261 0.47386447 2.4426265
-1.8581067 0.54244041 2.4003723
-1.8166142 0.52570766 2.4097321
-1.7762042 0.52481604 2.4282813
-1.7346629 0.52267152 2.4383633
-1.822189 0.57556778 2.4102414
-1.7762678 0.57339334 2.4333649
-1.7397232 0.57518804 2.4446659
-1.8178978 0.62628913 2.4116437
-1.773499 0.62531096 2.43311
-1.7435498 0.62450391 2.4462223
-1.821221 0.67585123 2.4109206
-1.7765318 0.67858851 2.4339697
-1.7381885 0.66673285 2.4434948
-1.8227799 0.72531933 2.4136848
-1.7718352 0.72752726 2.4360826
-1.7387011 0.71837187 2.4468603
-1.8568898 0.77588814 2.40185
-1.8243947 0.77403104 2.4139688
-1.7752479 0.77359205 2.4353232
-1.7477965 0.77118123 2.4475362
-1.8577814 0.82167441 2.4049089
-1.8206075 0.8252992 2.4190385
-1.7820539 0.82641852 2.440073
-1.8596381 0.88255626 2.4041889
-1.8248951 0.88228738 2.4190714
-1.7847655 0.88064247 2.4434514
-1.8600919 0.92686844 2.4087393
-1.8217473 0.92764884 2.4242687
-1.7878708 0.92669022 2.4416389
-1.6920118 0.93561041 2.4178858
-1.5118835 0.93405133 2.4045646
-1.4788908 0.93982041 2.4302917
-1.858217 0.96746475 2.4046288
-1.8222266 0.97450632 2.4247735
-1.7868479 0.97470844 2.4475155
-1.4515033 0.95231247 2.4453511
-1.4448999 0.97279513 2.4185119
-1.8556025 1.0312808 2.4089966
-1.8251503 1.0200886 2.4227014
-1.7792734 1.0233138 2.4412887
-1.7460675 1.02487 2.4283459
-1.4589516 1.0359836 2.4215858
-1.4458658 1.0028139 2.4186037
-1.8613199 1.0763248 2.4086335
-1.8262289 1.0697948 2.4229393
-1.7818108 1.073614 2.439719
-1.7413447 1.0805821 2.4320874
-1.484309 1.065181 2.4052589
-1.8626213 1.1171026 2.4058261
-1.8221185 1.1165282 2.4198015
-1.7838503 1.1337374 2.4394383
-1.7310315 1.1220099 2.4422162
-1.6679192 1.1197206 2.4230285
-1.5410049 1.1087582 2.4132648
-1.8558327 1.1603016 2.4067588
-1.8249074 1.1753631 2.4203458
-1.7767504 1.1772071 2.4415035
-1.6250888 1.1761363 2.424149
-1.8757719 1.2048954 2.4026918
-1.8247206 1.2260631 2.4206235
-1.7825443 1.2233329 2.4429557
-1.8674536 1.2663913 2.4063485
-1.8219599 1.2710178 2.4234405
-1.7860572 1.269552 2.4422159
-1.861461 1.3035696 2.4020524
-1.8289121 1.3224142 2.418045
-1.7860695 1.3143505 2.4424939
-1.8661954 1.3802407 2.406986
-1.8238211 1.3734672 2.4265394
-1.7872854 1.3674304 2.4457347
-1.8649025 1.4307337 2.4085236
-1.8254585 1.4292772 2.4309669
-1.7950237 1.4174618 2.4435945
-1.8653849 1.4766872 2.4090431
-1.8255525 1.4750234 2.4314682
-1.796149 1.4832435 2.4481492
-1.87666 1.5302926 2.4129684
-1.8267682 1.5224586 2.4376099
-1.9014496 1.568359 2.4021168
-1.8694178 1.5749229 2.4170141
-1.8208326 1.5803804 2.4398663
-1.9072841 1.6481851 2.4033437
-1.8773905 1.6246878 2.4149888
-1.8255218 1.6235236 2.4346411
-1.874988 1.6776978 2.4156826
-1.8274225 1.6727908 2.4368594
-1.9074813 1.7396042 2.4058857
-1.8754519 1.7237792 2.4229739
-1.8285074 1.7270708 2.4456642
-1.9101298 1.7809008 2.4043512
-1.8760582 1.7707481 2.4228094
-1.8368775 1.7789031 2.4428566
-1.9133276 1.8283234 2.4063666
-1.8701619 1.8198036 2.425832
-1.8412775 1.8305622 2.4457357
-1.9239132 1.8730526 2.4103692
-1.8729815 1.8723047 2.4277873
-1.8417557 1.8737301 2.4462423
-1.9168278 1.9249753 2.4104149
-1.8808178 1.9320745 2.4346156
-1.8429224 1.9289151 2.4470174
-1.93206 1.978424 2.4172626
-1.8832862 1.9800365 2.4366426
-1.9508446 2.0221632 2.4012725
-1.9252888 2.0212057 2.4170747
-1.8778769 2.0243669 2.4383526
-1.9160457 2.0702126 2.4147463
-1.8823602 2.0762942 2.4371877
-1.9133974 2.1183567 2.4115109
-1.8733367 2.1198838 2.4410393
-1.9157521 2.1724324 2.4080386
-1.8804102 2.1728051 2.4298627
-1.9130644 2.2216504 2.4021909
-1.8792716 2.2290885 2.4250445
-1.8628783 2.2709727 2.4339981
-1.8452582 2.2922978 2.4388912
-1.8559854 2.3206558 2.4161766
-1.8339558 2.3334911 2.4300468
-1.8199949 2.3544488 2.4310608
-1.7825521 2.3500054 2.4475965
1.9145758 2.3983788 2.4386425
1.9470062 2.4171119 2.44649
1.9761419 2.4056082 2.4202075
2.0251257 2.4093349 2.4246361
2.0751874 2.413548 2.4292583
2.1317995 2.4143319 2.4240212
2.1760063 2.4123583 2.426141
2.220433 2.4208548 2.4274364
2.2681768 2.4153636 2.4286954
2.3205235 2.4095173 2.4370904
2.3739769 2.4084511 2.42731
-0.30933481 -0.5105269 2.4720519
-0.2955687 -0.52546549 2.455977
-0.21928352 -0.541143 2.4766915
-0.3210474 -0.49207366 2.4711223
0.80067295 -0.46611792 2.4586387
-0.42184731 -0.43079296 2.4611273
-0.36026782 -0.41088393 2.4576969
-0.32994744 -0.41069266 2.4715869
0.45706797 -0.44199869 2.4512792
-0.40961125 -0.36496532 2.4555357
-0.37331393 -0.37629175 2.4678221
-0.32710105 -0.37809309 2.4841323
-0.41111106 -0.32720229 2.4583263
-0.37395307 -0.32907769 2.476517
-0.33230293 -0.32629883 2.4939117
-0.41404176 -0.27601102 2.4603424
-0.37401944 -0.27527913 2.4812655
-0.34154579 -0.27042368 2.4953039
-0.41970104 -0.22444171 2.4608808
-0.37372398 -0.22123095 2.4827976
-0.34017536 -0.22133525 2.4968853
-0.42022008 -0.17175905 2.461838
-0.37425148 -0.17363261 2.4887955
-0.330814 -0.18729976 2.4987488
-0.4183045 -0.12456854 2.4629288
-0.37641692 -0.12731507 2.4876521
-0.34489995 -0.10793684 2.4981766
-0.41835845 -0.077109359 2.4644918
-0.37884638 -0.077517875 2.4820266
-0.3447932 -0.065925732 2.498327
-0.42395416 -0.029592609 2.4624858
-0.37679079 -0.02930711 2.4815512
-0.42405054 0.023323474 2.4660141
-0.37748975 0.025428247 2.4837935
-0.34461483 0.024026603 2.4973993
-0.42481762 0.077316806 2.4668159
-0.37407148 0.077881075 2.4905303
-0.3325479 0.0599727 2.497453
-0.45848143 0.11839265 2.4506352
-0.42528573 0.12499698 2.4682345
-0.38188541 0.12655742 2.4933081
-0.45918816 0.18375963 2.4517307
-0.4259375 0.17286697 2.470098
-0.38359088 0.17416373 2.4938405
-0.45998603 0.22564462 2.4536414
-0.42659259 0.22086971 2.4713092
-0.38370216 0.21986778 2.4921679
-0.46276087 0.28459325 2.4572651
-0.4269475 0.27119842 2.4734304
-0.38888139 0.26824418 2.4931638
-0.56623286 0.33566499 2.4546337
-0.52214676 0.33815777 2.4799984
-0.47045815 0.32197607 2.4661198
-0.42134809 0.31508988 2.4838872
-0.39528906 0.30789143 2.4975595
-1.7060412 0.36558193 2.4538412
-1.6707931 0.3747901 2.4623859
-1.6242326 0.37814757 2.4859769
-1.7025793 0.4099398 2.4501042
-1.6725943 0.42495519 2.4642694
-1.6236017 0.42252746 2.4817536
-1.5742418 0.44924167 2.4989822
-1.7096092 0.4733271 2.4513464
-1.6732229 0.4727051 2.4666922
-1.6224114 0.47183502 2.4871058
-1.5914792 0.4570989 2.4971108
-1.7099108 0.52348673 2.457655
-1.6707969 0.52198952 2.4692879
-1.6302618 0.52447122 2.4884202
-1.7154053 0.57350385 2.4569099
-1.6734699 0.5742656 2.472316
-1.63064 0.57120585 2.4934633
-1.445683 0.55048549 2.4981663
-1.7184576 0.62599564 2.4573295
-1.6739486 0.62123054 2.4741271
-1.6240023 0.62663341 2.494416
-1.4000831 0.64195454 2.4889591
-1.1625109 0.60572636 2.4724555
-1.7160419 0.67420793 2.4573455
-1.6741467 0.67544746 2.4781706
-1.6425323 0.67225301 2.4946165
-1.7231274 0.73109484 2.4638028
-1.6748484 0.72437418 2.4824395
-1.6399397 0.72475678 2.4966156
-1.7247092 0.77072465 2.4653091
-1.6749798 0.77256012 2.487803
-1.6444254 0.75466448 2.4969034
-1.7588929 0.81840438 2.4518325
-1.7239364 0.82631367 2.4673216
-1.6847519 0.82007283 2.4928296
-1.7605702 0.8713783 2.4573948
-1.7269894 0.88008177 2.4751558
-1.6909269 0.88184011 2.4903934
-1.7648782 0.92973185 2.4585972
-1.72463 0.9260608 2.4822845
-1.6927572 0.93878365 2.4847414
-1.4643719 0.94703215 2.4712076
-1.7715695 0.97129661 2.4557071
-1.6908981 0.95464557 2.4871786
-1.6406004 0.9644047 2.4943087
-1.4567013 0.97164154 2.481575
-1.4490708 0.9871158 2.4621632
-1.4572573 1.0202719 2.4671648
-1.5054626 1.0903794 2.4690635
-1.4989836 1.0818 2.493201
-1.7642927 1.1310543 2.4503956
-1.7350125 1.1297457 2.4512081
-1.6675706 1.1482652 2.4603984
-1.5506784 1.1309515 2.4725115
-1.5206368 1.1052405 2.4590871
-1.758357 1.1803322 2.4537525
-1.7229685 1.1760085 2.4620497
-1.6833473 1.1853749 2.4834251
-1.6094024 1.1672019 2.4998844
-1.7684435 1.2237182 2.4526529
-1.7277118 1.2288641 2.4737921
-1.6785756 1.2273455 2.485997
-1.7614425 1.2797334 2.4571843
-1.728658 1.2792996 2.4748125
-1.6917336 1.2769421 2.4930046
-1.765162 1.3299651 2.4570396
-1.7241488 1.3268349 2.4778018
-1.6975956 1.3174292 2.4946811
-1.7617106 1.3715134 2.4607594
-1.724846 1.3717904 2.4836383
-1.6969717 1.3882241 2.4969022
-1.7711558 1.4302433 2.4623318
-1.7250404 1.4250371 2.4874012
-1.7727705 1.4750963 2.4653089
-1.7300711 1.4719328 2.4881806
-1.7755444 1.5259141 2.4697287
-1.7321485 1.5214702 2.4903224
-1.4106278 1.5024686 2.4983976
-1.7747107 1.5759817 2.4636707
-1.7319115 1.5813023 2.4915619
-1.7753783 1.6262182 2.4636743
-1.7315938 1.6225754 2.4870131
-1.8031231 1.6834664 2.4636083
-1.7707922 1.6749978 2.4658442
-1.7297641 1.6726872 2.4914966
-1.809507 1.7129138 2.458112
-1.775176 1.7310112 2.472466
-1.7339658 1.7233154 2.4921076
-1.8180522 1.7758467 2.4560416
-1.7762343 1.767819 2.4694591
-1.7420945 1.7707155 2.4936123
-1.8187279 1.817539 2.4597347
-1.7737349 1.8185248 2.4862502
-1.8152223 1.8710743 2.4584968
-1.7750224 1.8707572 2.4835768
-1.7356274 1.8764324 2.4983742
-1.8181664 1.9283274 2.4620719
-1.7780079 1.9284339 2.4879487
-1.7427899 1.9082255 2.4926894
-1.8581322 1.9860783 2.4605978
-1.8206217 1.97887 2.4676163
-1.7753407 1.9686384 2.4859774
-1.8565787 2.0432136 2.4617512
-1.8233362 2.0254738 2.4721129
-1.7747347 2.0167596 2.4874754
-1.7484382 2.0486362 2.4992435
-1.8593228 2.0627477 2.4533875
-1.8270344 2.071743 2.4696798
-1.7880734 2.0739419 2.4915631
-1.8223213 2.1163008 2.4640622
-1.7842039 2.1126368 2.4861174
-1.8560134 2.1801357 2.4524827
-1.8284453 2.1710415 2.4665909
-1.7900401 2.1634171 2.4937706
-1.8503079 2.2269874 2.4521537
-1.8167856 2.2197361 2.4697614
-1.7825562 2.2189808 2.4900265
-1.8235868 2.2768679 2.463376
-1.7811878 2.2791729 2.4904983
-1.8078786 2.3250151 2.4600008
-1.7703769 2.3280165 2.4771028
-1.7355046 2.3368249 2.4858348
-1.765678 2.350173 2.458179
-1.7387964 2.3598394 2.4889112
1.8430188 2.3955376 2.4794662
1.8845679 2.3955741 2.4738128
1.946184 2.3985572 2.4593735
1.8639953 2.4002414 2.4734988
1.9265114 2.4162481 2.4855897
1.9782243 2.4074771 2.473237
2.0302546 2.4187376 2.4776087
2.0783815 2.4156442 2.4830632
2.1268811 2.4114399 2.4722273
2.1689782 2.410058 2.4773693
2.2173252 2.4145133 2.4731979
2.2775745 2.4218991 2.48788
2.3952072 2.4115133 2.4772758
-0.30274045 -0.5198471 2.518116
-0.28677699 -0.54275519 2.5382106
-0.31839985 -0.42454904 2.5068598
-0.31111717 -0.320162 2.5074625
-0.32037234 -0.27149662 2.5072744
-0.31997755 -0.2247683 2.5203321
-0.33527717 -0.16482222 2.502013
-0.35770431 -0.11418983 2.5025373
-0.33229849 -0.12775744 2.5023899
-0.35951599 -0.078473918 2.5160818
-0.33090052 -0.080443799 2.5030763
-0.35888922 -0.032139253 2.5123241
-0.33328876 -0.029986298 2.5034564
-0.35813281 0.018085215 2.5070941
-0.33134782 0.024070781 2.5028913
-0.33399802 0.08191891 2.5079927
-0.36017156 0.12514088 2.5022388
-0.33401346 0.12645407 2.5068209
-0.36238953 0.17476089 2.5043623
-0.33475459 0.17499803 2.510489
-0.36318159 0.22745657 2.5070693
-0.33548859 0.22375496 2.5134466
-0.3677721 0.27417392 2.5074723
-0.33577117 0.272333 2.5122936
-0.37241527 0.32099149 2.5147598
-0.33751628 0.31880122 2.5219684
-1.65537 0.35837597 2.5107603
-1.6085073 0.3965883 2.503809
-1.5724105 0.38242868 2.5188243
-1.5206981 0.38140514 2.5343237
-1.6075507 0.41000709 2.5006146
-1.5718737 0.42322814 2.5129242
-1.5255086 0.42359823 2.5374522
-1.5737693 0.47634146 2.5165024
-1.5328952 0.47390127 2.5405464
-1.6019809 0.52873462 2.5030956
-1.5769218 0.52457285 2.5186107
-1.5302061 0.52078927 2.5415351
-1.6070824 0.57173836 2.5039642
-1.5715733 0.57318908 2.5216265
-1.52674 0.57393545 2.544086
-1.4795294 0.56898296 2.5353134
-1.1544594 0.59865457 2.5055919
-1.1030272 0.58594525 2.5259817
-1.0938915 0.57496232 2.5411706
-1.579003 0.62240809 2.5220592
-1.5401726 0.62564808 2.5426154
-1.4608686 0.61051226 2.5148656
-1.4494867 0.64461851 2.5492213
-1.1596688 0.61468428 2.5373464
-1.1445175 0.60717338 2.5499425
-1.6137923 0.67653608 2.5054846
-1.5741547 0.67543423 2.5303202
-1.5397933 0.66941804 2.5455499
-1.4220119 0.67922378 2.5224817
-1.6192169 0.72481686 2.5075738
-1.5782924 0.72518295 2.5296509
-1.5439967 0.72542125 2.5472004
-1.437561 0.71404815 2.5443575
-1.6211756 0.77279848 2.5118394
-1.5726613 0.77141666 2.5358627
-1.5487537 0.75562274 2.5487647
-1.6649193 0.83058149 2.505033
-1.626507 0.82816696 2.5205379
-1.5807546 0.82014626 2.542172
-1.4289495 0.83371532 2.5321038
-1.6679763 0.87895924 2.5118616
-1.6243685 0.88230664 2.5337725
-1.5923245 0.88004422 2.546633
-1.6706176 0.92808312 2.5139053
-1.6277869 0.92486924 2.5371418
-1.5835352 0.9196282 2.5467405
-1.6694736 0.95868737 2.5132904
-1.6314102 0.96840382 2.53476
-1.4711473 0.97204947 2.5256588
-1.4697696 1.0107416 2.5276091
-1.5013652 1.0795528 2.5323968
-1.5367923 1.1254236 2.5331092
-1.6122646 1.1859738 2.5206809
-1.5779115 1.1790824 2.5440435
-1.6587327 1.2090328 2.5221424
-1.625409 1.2277995 2.5180039
-1.5824081 1.224086 2.5409453
-1.6647645 1.2796474 2.503984
-1.6291641 1.2746704 2.5230978
-1.591873 1.2800862 2.5442014
-1.67089 1.327098 2.5123506
-1.6246583 1.318233 2.5369456
-1.5919139 1.322998 2.5442991
-1.6722422 1.3713821 2.5129275
-1.6287922 1.3705167 2.5401289
-1.591114 1.3677489 2.5477085
-1.6749603 1.4247316 2.5113096
-1.6315892 1.4261031 2.5385985
-1.7039051 1.4818622 2.5011282
-1.6715887 1.4726886 2.5141377
-1.6333015 1.4719176 2.5389905
-1.4117351 1.4890462 2.5075874
-1.3744854 1.488189 2.5227411
-1.3362072 1.4861463 2.5353394
-1.7096596 1.5217394 2.5043035
-1.675856 1.5218499 2.5192857
-1.6296846 1.5215197 2.5429037
-1.4519858 1.515843 2.5457363
-1.3757889 1.5042229 2.5180295
-1.3343924 1.5068899 2.5418472
-1.7089326 1.5683992 2.5038638
-1.6743711 1.5767043 2.516892
-1.6292595 1.5707377 2.5391619
-1.7039778 1.6241556 2.5027661
-1.6725768 1.6235176 2.519587
-1.6331787 1.6225547 2.5396755
-1.7035445 1.6851287 2.507396
-1.6725841 1.6722869 2.5191884
-1.6304901 1.6684216 2.5407746
-1.711805 1.7245312 2.5010679
-1.6798043 1.7236751 2.5181248
-1.6301912 1.7206153 2.5401187
-1.718262 1.7704418 2.5075152
-1.6775204 1.7767841 2.5235398
-1.6387274 1.7787344 2.5414577
-1.7233746 1.8235207 2.5063655
-1.6744336 1.8298775 2.527252
-1.6423135 1.8293445 2.5446379
-1.7514888 1.8523623 2.5041864
-1.7165018 1.8814348 2.5126302
-1.6771894 1.8734941 2.527652
-1.6482908 1.8598449 2.5388441
-1.7196003 1.924167 2.5119267
-1.675063 1.921223 2.5368726
-1.7508603 1.9836429 2.504051
-1.7260984 1.9678714 2.5149286
-1.6776152 1.9657916 2.5358949
-1.7570807 2.0070176 2.5015121
-1.7252716 2.0160985 2.5167167
-1.6757389 2.0208204 2.5409286
-1.770438 2.0730319 2.5078273
-1.7234271 2.072453 2.5267799
-1.6913977 2.0754044 2.5393467
-1.7604544 2.1139164 2.5030918
-1.7262524 2.1254961 2.5182037
-1.6792223 2.1324539 2.542743
-1.7656806 2.1636376 2.5025387
-1.7255882 2.1824167 2.5176148
-1.6884527 2.1692209 2.5381515
-1.7605915 2.2116375 2.5038309
-1.7302426 2.2326417 2.5158975
-1.6826895 2.2262661 2.5404942
-1.7577418 2.2717283 2.5012732
-1.7232412 2.2793503 2.5139639
-1.6733677 2.2776761 2.5366848
-1.7210264 2.3226871 2.5092943
-1.6755859 2.3245733 2.5237072
-1.6295478 2.3315609 2.541384
-1.7046643 2.3598607 2.5091538
-1.6857109 2.3572335 2.5163031
-1.6483785 2.352639 2.5309157
1.7261918 2.3897367 2.5413682
1.7703196 2.3909521 2.5170205
1.8260851 2.4073563 2.5240083
1.8850626 2.411341 2.531781
1.9245682 2.4086289 2.530283
1.9767444 2.4120545 2.5273275
2.0366631 2.4190843 2.5162725
2.0776353 2.4176357 2.5296824
2.1259851 2.4127553 2.5182087
2.1819489 2.4166279 2.5304527
2.2236726 2.4102104 2.5205395
2.2654252 2.4198418 2.5377102
2.3144739 2.4044802 2.5222998
-0.29260105 -0.54118764 2.5914943
-0.31707096 -0.17849188 2.5649014
-1.6366322 0.36181825 2.5524313
-1.5098114 0.47730634 2.5627353
-1.5094972 0.5230695 2.5553834
-1.5105178 0.55093956 2.5527377
-1.497913 0.59268993 2.553813
-1.1052738 0.57217693 2.5689828
-1.0780749 0.57543623 2.5891242
-1.5154004 0.62271172 2.5537314
-1.485232 0.62990189 2.5550478
-1.1238685 0.61929506 2.5779102
-1.0847641 0.61759555 2.596405
-1.5163417 0.67362148 2.5557587
-1.4822874 0.67742521 2.5684557
-1.516099 0.72540009 2.5599966
-1.4798657 0.7247085 2.5731671
-1.4458591 0.73887247 2.5545411
-1.524133 0.77339637 2.560415
-1.4784498 0.77637857 2.5749402
-1.5614563 0.83236027 2.5525229
-1.5237626 0.82699156 2.5658736
-1.4816549 0.82534343 2.5785158
-1.5675963 0.87731111 2.5555716
-1.5243468 0.8776238 2.5700383
-1.4774123 0.87563151 2.5769639
-1.6154298 0.94618005 2.5522964
-1.572059 0.92836398 2.5560155
-1.5281873 0.92552644 2.5705214
-1.480046 0.91823703 2.5788419
-1.607955 0.96653205 2.5546679
-1.5718726 0.96730512 2.5661328
-1.5220507 0.96292305 2.5748155
-1.4751811 0.97209918 2.5750659
-1.4692513 1.0250858 2.5730085
-1.506606 1.0936549 2.5722153
-1.4831164 1.0722332 2.5723417
-1.5201546 1.1269453 2.5622399
-1.4760368 1.1249894 2.5744667
-1.5278047 1.1764144 2.5668998
-1.4859149 1.1794622 2.5859218
-1.5561248 1.2316998 2.5569735
-1.5250707 1.2275072 2.5720704
-1.482161 1.2221889 2.578064
-1.5669079 1.2790239 2.5604458
-1.5252296 1.2796489 2.5761766
-1.4853092 1.2769026 2.5879507
-1.569364 1.3296691 2.558073
-1.5303105 1.3253887 2.5738931
-1.4845029 1.3245558 2.5794098
-1.610211 1.3905301 2.5504453
-1.5638456 1.367694 2.5615191
-1.5260876 1.3706331 2.5819898
-1.4864304 1.3780146 2.5901694
-1.6041504 1.4433737 2.5516198
-1.5736408 1.4216371 2.5622602
-1.5219542 1.4217041 2.5843606
-1.4892659 1.426512 2.5905218
-1.6073122 1.4810038 2.5527608
-1.576008 1.4751012 2.5608211
-1.5264755 1.4776082 2.5824366
-1.4963026 1.455755 2.5925004
-1.3141274 1.4941564 2.5613878
-1.2685412 1.4921637 2.5758297
-1.2411706 1.4944143 2.5912008
-1.6111238 1.5095783 2.552958
-1.5744371 1.5259156 2.5671387
-1.523846 1.5284116 2.5827742
-1.4878782 1.5427121 2.586118
-1.3131839 1.5077119 2.5525637
-1.2775559 1.5088279 2.5694461
-1.235563 1.5111639 2.5907688
-1.6099099 1.5839906 2.5520294
-1.5756322 1.5711291 2.5668235
-1.5251341 1.5776557 2.5850296
-1.4674935 1.5700901 2.5745494
-1.4234128 1.5630826 2.5805342
-1.3813713 1.5580213 2.5889759
-1.6105129 1.622932 2.5528309
-1.5732365 1.6291631 2.5653064
-1.5263567 1.6249831 2.5855498
-1.4889151 1.6106905 2.5959632
-1.6063111 1.6807721 2.5533319
-1.5783254 1.6759137 2.5668931
-1.5312692 1.6779028 2.5931683
-1.5758356 1.7207177 2.569633
-1.5282949 1.72616 2.5929308
-1.614126 1.7761465 2.5580406
-1.5739987 1.7751606 2.5775955
-1.5436958 1.7764184 2.5956931
-1.6206243 1.8316543 2.5610456
-1.5757402 1.8319062 2.5828433
-1.6247067 1.8772607 2.5643899
-1.5781462 1.8766344 2.5844932
-1.6232322 1.9244188 2.5634789
-1.5744463 1.9273276 2.5838785
-1.546838 1.903565 2.5950429
-1.6270601 1.9783368 2.562031
-1.5781968 1.9886364 2.5880594
-1.6539351 2.0005019 2.5512807
-1.6251869 2.0366104 2.5676708
-1.5755637 2.0311522 2.5921221
-1.6674198 2.0851548 2.5566382
-1.6249059 2.0827367 2.5699532
-1.5887552 2.0884011 2.5926621
-1.6647142 2.1233053 2.5557141
-1.620818 2.1319013 2.5749772
-1.5811962 2.1334002 2.5925491
-1.6637907 2.1881096 2.5564871
-1.626578 2.175632 2.5679755
-1.589149 2.1785073 2.5892417
-1.657195 2.2165158 2.5529978
-1.6260662 2.2282493 2.569257
-1.5824295 2.2259126 2.5895565
-1.6530179 2.2673986 2.5561635
-1.6236101 2.2789855 2.5668914
-1.5756725 2.2740071 2.5893447
-1.6145458 2.3163877 2.5608618
-1.5739398 2.3240647 2.5733654
-1.5296493 2.3425415 2.5902734
-1.5807447 2.3533347 2.5693429
1.6690203 2.3945098 2.5812352
1.7155824 2.3937624 2.5935204
1.7781143 2.3957396 2.5598097
1.8189434 2.3975503 2.5788534
1.8870884 2.3994248 2.5813966
1.9184393 2.3963976 2.5780196
1.987108 2.3952913 2.55339
1.7100679 2.4035065 2.5711684
1.7679337 2.414454 2.5737886
1.8294697 2.4085231 2.5687928
1.8684294 2.4046259 2.5593743
1.9239348 2.401135 2.5608823
1.9600731 2.4045484 2.5714557
2.03212 2.4145305 2.569339
2.0734425 2.4156268 2.5727532
2.1278114 2.4138811 2.5775793
2.1582425 2.4112253 2.5524089
2.2509997 2.4155302 2.585984
-0.22753476 -0.55126542 2.6443834
-0.30439818 -0.53831953 2.6404028
-0.27722922 -0.54811198 2.626035
-1.1312288 0.5270375 2.6382017
-1.0625787 0.59982777 2.6059606
-1.0278232 0.57238185 2.6159775
-0.97938895 0.572891 2.6379025
-1.062796 0.62033302 2.6157253
-1.0239297 0.61566061 2.6324196
-0.99037588 0.61125469 2.647609
-1.4893891 1.4787961 2.6067183
-1.2154398 1.4987974 2.609889
-1.1765494 1.4960047 2.6184044
-1.1319709 1.4952316 2.6323252
-1.4960817 1.5157504 2.6041005
-1.2074645 1.512693 2.6044698
-1.1704246 1.5122522 2.6170366
-1.1369443 1.5165017 2.6372318
-1.4255244 1.5973268 2.6112378
-1.3564682 1.5638459 2.6116533
-1.3202735 1.5654278 2.6299398
-1.2906284 1.5659688 2.6429844
-1.46945 1.6272827 2.6063223
-1.4242377 1.626044 2.626224
-1.3847052 1.6160326 2.6412685
-1.5105939 1.6698178 2.600481
-1.4742355 1.6760045 2.6155095
-1.4228246 1.6770285 2.6392224
-1.5036213 1.7181779 2.6014042
-1.4741312 1.7200208 2.6191828
-1.4373554 1.7225285 2.6411538
-1.5175568 1.7790393 2.6073723
-1.4746177 1.7729635 2.627053
-1.4382374 1.7809892 2.6457095
-1.5251565 1.8311323 2.6102459
-1.4753518 1.828287 2.6294434
-1.4414849 1.8175346 2.6449041
-1.5587898 1.8667371 2.6001365
-1.526724 1.8744993 2.6111171
-1.4773372 1.8724937 2.6318245
-1.4415981 1.85948 2.6446006
-1.5226535 1.9189634 2.611449
-1.485214 1.9170942 2.6343501
-1.5688061 1.9792935 2.6002991
-1.5276643 1.969236 2.6137259
-1.480231 1.9731381 2.6398265
-1.5232494 2.0286815 2.6256769
-1.4866384 2.0303881 2.638871
-1.5635622 2.0749278 2.6096284
-1.5264503 2.0829906 2.622822
-1.4774274 2.0771708 2.6415739
-1.5579368 2.1262629 2.6062708
-1.5212502 2.1317418 2.6275353
-1.4831561 2.1353102 2.6459119
-1.5648683 2.179513 2.6038399
-1.5303684 2.1778862 2.619215
-1.4812385 2.1726089 2.6395016
-1.5562325 2.2244511 2.6012399
-1.5211493 2.2222054 2.6159794
-1.4810172 2.2248344 2.6401362
-1.5259389 2.2754006 2.6175158
-1.4792429 2.2720361 2.6398189
-1.4424691 2.2552984 2.6480298
-1.5206702 2.3175573 2.610023
-1.4737101 2.3286319 2.6269255
-1.4315008 2.3300743 2.6370671
-1.4257134 2.3504863 2.6438789
1.5850793 2.3985839 2.633023
1.6777948 2.3896365 2.608844
1.7823095 2.397572 2.6145871
1.950626 2.3983343 2.6247492
1.6270275 2.409332 2.626128
1.6652269 2.4092402 2.6448796
1.7288017 2.4062836 2.61813
1.7685555 2.4038882 2.6391754
1.8292841 2.414891 2.6269681
1.8777481 2.4126542 2.6290402
1.9278769 2.4119098 2.6322169
1.9931235 2.41715 2.6279199
2.0321875 2.4118729 2.6232474
2.0841737 2.4112234 2.6247866
2.130172 2.4127493 2.6188393
2.1733685 2.411674 2.6330428
-0.28979385 -0.54706115 2.6847136
-1.1695085 0.49704081 2.696743
-1.1575117 0.5121581 2.6786263
-1.1409866 0.51419926 2.6819367
-1.1326218 0.56485534 2.6918483
-0.96313101 0.59085625 2.6566882
-0.92674011 0.57568365 2.6588941
-0.87773037 0.57864219 2.6852982
-0.84564912 0.56620824 2.6996496
-1.0078549 0.63394618 2.6513667
-0.96874619 0.62095207 2.6594961
-0.92337447 0.62261623 2.6849878
-0.88558656 0.61392665 2.6970446
-1.0262487 1.4865681 2.6845367
-1.1094499 1.5176009 2.6605995
-1.0766978 1.5175947 2.6771278
-1.0357293 1.5134557 2.6904893
-1.26626 1.5730996 2.6667569
-1.2363409 1.5849847 2.6891963
-1.3640887 1.6238588 2.6528835
-1.3253303 1.6210251 2.672842
-1.2814239 1.6110477 2.689429
-1.3717654 1.6743608 2.6678965
-1.3262579 1.6755003 2.6889355
-1.2913666 1.6505554 2.6971214
-1.4101261 1.7267512 2.6550953
-1.3718709 1.7216247 2.6710124
-1.3306625 1.7255529 2.6929512
-1.4145858 1.7708521 2.6547296
-1.3729345 1.7755954 2.6741581
-1.338204 1.7735577 2.6925828
-1.4170823 1.8286761 2.6634753
-1.3749646 1.8314742 2.6808443
-1.3411815 1.8286214 2.6901271
-1.4501081 1.8864502 2.650573
-1.4223945 1.8735158 2.6593678
-1.3770149 1.8732994 2.6764445
-1.3454326 1.8582448 2.6849804
-1.4605986 1.9242659 2.6548896
-1.4238638 1.9181374 2.6612656
-1.3796536 1.92357 2.6903477
-1.4531696 1.97631 2.6528983
-1.4224576 1.9629883 2.6660616
-1.3749992 1.9737252 2.690176
-1.4646219 2.024596 2.6524715
-1.428697 2.0261731 2.6681817
-1.3809267 2.0149181 2.6900048
-1.4629706 2.0945506 2.6539752
-1.4268118 2.0816624 2.6690824
-1.3824186 2.0780866 2.6897337
-1.4578267 2.1250708 2.6546335
-1.4198602 2.1287935 2.6720412
-1.3792222 2.1299415 2.6922326
-1.4583502 2.1907492 2.6559949
-1.4219464 2.177845 2.6721089
-1.3870715 2.1770051 2.6930158
-1.4579359 2.227983 2.6561923
-1.4237127 2.2269943 2.6708889
-1.3824666 2.2281914 2.6915553
-1.4509892 2.2855618 2.6509366
-1.4211863 2.2700257 2.6610174
-1.3819824 2.274895 2.6861153
-1.4157473 2.3113561 2.6581552
-1.3715578 2.3281732 2.6744878
-1.3215903 2.3412325 2.690326
-1.4089952 2.3509822 2.6524529
-1.3418074 2.3525465 2.6850798
1.5214455 2.3940446 2.6592941
1.5795718 2.3991818 2.6759658
1.6759366 2.3944011 2.657058
1.7277466 2.3999038 2.6770477
1.5255308 2.4053588 2.6928346
1.5735866 2.4054391 2.6685367
1.6335095 2.4054382 2.6765265
1.6660256 2.4054742 2.6790471
1.7118998 2.4061215 2.668155
1.774429 2.4060922 2.6805289
1.8344032 2.4074094 2.6823139
1.8699299 2.4076295 2.6684296
1.9211631 2.4079866 2.6732426
1.9747814 2.4097435 2.6713846
2.0261412 2.413811 2.6783412
2.0773783 2.4066651 2.6740885
2.1242781 2.4084437 2.6608911
2.1736112 2.4138949 2.6828485
-0.30669123 -0.54085016 2.7197614
-1.1606336 0.44371155 2.7193148
-1.1223673 0.43537688 2.7215581
-1.0750738 0.43579304 2.7378204
-1.0216966 0.43757197 2.7164459
-0.9734174 0.43738997 2.72753
-0.9440819 0.43961748 2.7497883
-1.1618862 0.48113585 2.7177403
-1.1233644 0.47724107 2.7190361
-1.0854686 0.47187209 2.740732
-1.1251581 0.52863306 2.7220075
-1.0877587 0.52153879 2.7402773
-1.1214617 0.55926251 2.7160559
-1.0773852 0.56450373 2.7387013
-0.96255863 0.56602204 2.7443061
-0.91922665 0.56201947 2.7335932
-0.82681847 0.58321482 2.7127221
-0.77867091 0.57827455 2.7390549
-0.7454989 0.57207131 2.7494771
-0.86518097 0.62224174 2.7077281
-0.81828719 0.61762071 2.7291012
-0.78566831 0.61848944 2.7452664
-1.0125521 1.4989635 2.713419
-1.0200151 1.5392225 2.7261882
-0.97352314 1.5088986 2.7287886
-0.93300307 1.5134054 2.7370691
-1.2124687 1.581776 2.7040055
-1.176682 1.5848007 2.7224822
-1.1422474 1.5898141 2.7439721
-1.2676361 1.6361637 2.7032573
-1.2220266 1.6172661 2.7144334
-1.1818798 1.6194801 2.7366092
-1.1436584 1.6070865 2.7403076
-1.301934 1.6951734 2.7034857
-1.2725505 1.6806489 2.7152178
-1.228177 1.678008 2.7359667
-1.1951683 1.6639005 2.7395558
-1.3095906 1.7286236 2.7071958
-1.2773477 1.7273064 2.7173035
-1.2269785 1.7297764 2.7380729
-1.1980727 1.7177891 2.747436
-1.3096883 1.7785257 2.705792
-1.2752873 1.7745676 2.7203128
-1.2281675 1.7728654 2.739068
-1.319139 1.8320559 2.7113712
-1.2707692 1.8257433 2.7263649
-1.2282737 1.801681 2.7418349
-1.3230691 1.8795153 2.7126772
-1.2723138 1.8753155 2.7335112
-1.2443669 1.8813534 2.746757
-1.3510436 1.9367017 2.7064397
-1.3244759 1.9251946 2.7164447
-1.2744831 1.922637 2.7321527
-1.2478852 1.9107575 2.7407212
-1.3533787 1.9562225 2.7012587
-1.3238109 1.9683951 2.7153847
-1.28636 1.9730275 2.738205
-1.3542377 2.0302503 2.7118053
-1.321128 2.0132129 2.7190604
-1.2734759 2.0234621 2.7412014
-1.3645624 2.0594501 2.7049768
-1.3291274 2.0749328 2.7199681
-1.2808263 2.0766561 2.7424128
-1.356514 2.1332893 2.7073913
-1.319331 2.1271017 2.7214801
-1.2824544 2.1342695 2.7397761
-1.3613294 2.1858997 2.7055266
-1.3239416 2.1811965 2.7205746
-1.2825453 2.1775811 2.7413831
-1.3578687 2.2291932 2.7039251
-1.3252831 2.2309129 2.7204685
-1.2784008 2.233005 2.7392821
-1.3522221 2.2901618 2.7029722
-1.3237075 2.2763853 2.713788
-1.2743639 2.2789042 2.7378585
-1.3172357 2.3179924 2.7060723
-1.2733575 2.3288722 2.7222106
-1.2316465 2.3255053 2.7418182
-1.2570964 2.3533957 2.7219241
-1.22412 2.3555205 2.7378762
1.3357847 2.3874314 2.736398
1.3723952 2.3909931 2.7254274
1.4199309 2.3954446 2.7482181
1.4992694 2.3930657 2.7463424
1.5136563 2.3967934 2.725328
1.3602818 2.4001601 2.7434931
1.494741 2.4121819 2.7176971
1.5348315 2.4024904 2.7231467
1.578083 2.4060504 2.7262466
1.626424 2.4046972 2.7260082
1.6815996 2.4056244 2.7215321
1.7278048 2.406935 2.7289555
1.7722062 2.4049714 2.732301
1.8274519 2.4048395 2.731982
1.881364 2.4113705 2.7210262
1.9206434 2.4058163 2.7281501
1.972864 2.4114435 2.7195265
2.0257413 2.4121974 2.731982
2.0776718 2.4098742 2.7248039
2.1109571 2.4063208 2.7120359
-0.27058399 -0.5524891 2.7812154
-0.22567791 -0.55248719 2.7838593
-0.31226414 -0.53728056 2.7710955
-0.27751592 -0.54837763 2.7599692
-0.91928101 0.44089603 2.7642059
-0.8981812 0.44406965 2.7903748
-1.0597864 0.47279218 2.753648
-1.0220988 0.4750466 2.7697141
-0.98133028 0.47168159 2.789439
-1.0629324 0.52299613 2.7556262
-1.0239413 0.52444243 2.7743137
-0.9806751 0.52596766 2.7939713
-1.0569789 0.55837703 2.7553668
-1.0262855 0.56501067 2.766186
-0.98289239 0.56465942 2.7776339
-0.94240928 0.55661404 2.7748032
-0.87612128 0.57264602 2.7989264
-0.84531355 0.57069451 2.7952919
-0.72312444 0.58284134 2.7722406
-0.66682732 0.58255804 2.7874417
-0.76171273 0.61470211 2.757031
-0.72814548 0.62162417 2.7790484
-0.68561697 0.6203773 2.7888701
-0.70336056 0.65158224 2.7979541
-0.91109902 1.5119686 2.7547426
-0.87498754 1.520703 2.7722881
-0.82897371 1.523465 2.790941
-1.1200435 1.5908256 2.7531505
-1.0775528 1.5958587 2.7761848
-0.97351646 1.5612863 2.7752194
-1.1609919 1.6360404 2.7535458
-1.1209131 1.6261648 2.7660599
-1.0805686 1.6287985 2.7873781
-1.0455145 1.6209357 2.7975199
-1.1732318 1.671916 2.7561195
-1.1237159 1.6726598 2.7800429
-1.0855374 1.6658818 2.797683
-1.1726465 1.7237943 2.7671704
-1.1228205 1.7210628 2.789125
-1.2125949 1.7860404 2.7562547
-1.1755593 1.7778836 2.7702565
-1.1342616 1.7712848 2.7930815
-1.2135876 1.8244251 2.7567616
-1.1704171 1.8178668 2.772609
-1.1327794 1.8211107 2.790946
-1.2224215 1.8770943 2.7605102
-1.1736 1.8753965 2.7801695
-1.1382917 1.8636667 2.7962999
-1.2213819 1.9276208 2.7606242
-1.1779063 1.9287266 2.7816556
-1.2633836 1.9751587 2.7506955
-1.2299647 1.9736552 2.7608716
-1.1822098 1.9752766 2.7808483
-1.2546151 2.019716 2.7535114
-1.2214156 2.018851 2.764632
-1.1789621 2.026185 2.7880661
-1.2263354 2.0709088 2.7635572
-1.1746683 2.0699704 2.7899675
-1.2578558 2.1264648 2.7557285
-1.2215998 2.1202526 2.7746148
-1.1749868 2.1166873 2.7933743
-1.2284894 2.1696727 2.7688026
-1.1894999 2.1652334 2.791729
-1.2615671 2.207711 2.7550726
-1.2229964 2.2259932 2.767951
-1.1811144 2.2271049 2.7896371
-1.2246641 2.2809174 2.7603171
-1.1821425 2.2721121 2.7817664
-1.2097477 2.3213084 2.7564869
-1.1702007 2.3222833 2.7799761
-1.1257839 2.332859 2.7933683
-1.1761332 2.3619223 2.764802
-1.1261283 2.364608 2.7864132
1.1988832 2.3901782 2.7949188
1.2340685 2.3913136 2.7830734
1.3213681 2.3972743 2.7685678
1.3664827 2.3936119 2.7693009
1.42387 2.3962157 2.7762446
1.5204146 2.3949099 2.7780614
1.5675449 2.3992519 2.7613692
1.6393807 2.3907764 2.7929218
1.7353387 2.3955936 2.7768137
1.7746724 2.3979387 2.7726376
1.8065149 2.3949623 2.7711885
1.8998064 2.3935347 2.7793028
1.9208915 2.3969095 2.7721255
1.9512135 2.3930674 2.7918348
1.2744682 2.4021716 2.7820747
1.3031813 2.4232235 2.7993805
1.3727717 2.4046638 2.7820346
1.4829661 2.4094496 2.7777326
1.5811013 2.4041867 2.7819009
1.6212813 2.4056187 2.7704093
1.6703923 2.4056158 2.7788382
1.7118955 2.4043941 2.7753658
1.8783221 2.4080105 2.7717469
1.9448838 2.4038143 2.768851
1.9808362 2.4138589 2.7631812
2.0357013 2.405381 2.7595789
2.073245 2.407166 2.7613702
-0.22371563 -0.55076712 2.846715
-0.30539343 -0.53537834 2.8348131
-0.27727768 -0.54317272 2.8285692
-0.24225284 -0.5459764 2.8208523
-0.87080884 0.44083467 2.8223388
-0.83703917 0.42044079 2.8357351
-0.95930892 0.48628607 2.8045444
-0.92835754 0.4763571 2.8173456
-0.88111556 0.47456786 2.8412313
-0.95683438 0.52722996 2.8071003
-0.92332578 0.5270595 2.8233614
-0.88686371 0.5203082 2.8411751
-0.91443574 0.56185198 2.8205535
-0.8808468 0.56466299 2.832083
-0.82428724 0.57545716 2.8243401
-0.78136271 0.57479763 2.8292768
-0.72508198 0.56912041 2.8101754
-0.67454714 0.56748766 2.8103359
-0.62650758 0.58168697 2.8177938
-0.57471538 0.58216447 2.8340731
-0.70370829 0.63803506 2.8015203
-0.67013812 0.62534916 2.8035679
-0.62816197 0.62491113 2.8192132
-0.58174264 0.6220246 2.8375793
-0.80749452 1.5178305 2.8025186
-0.77643389 1.5139035 2.8146846
-0.72833353 1.5175778 2.8360043
-0.93198186 1.58075 2.8238971
-0.78860313 1.5548507 2.842967
-1.0588224 1.6450667 2.8030057
-1.0222082 1.6213667 2.81303
-0.97268248 1.6204413 2.8350232
-0.9366892 1.6181129 2.8459957
-1.07143 1.6824087 2.8108819
-1.0231131 1.6810392 2.8305779
-0.98973644 1.6710676 2.8439837
-1.0788316 1.7260109 2.8106222
-1.0237936 1.7232786 2.8335342
-1.1046709 1.782413 2.8043318
-1.0740469 1.770995 2.816062
-1.0272204 1.769556 2.8408754
-1.1103005 1.8233547 2.8021417
-1.0754305 1.826385 2.8227131
-1.0324147 1.8199333 2.842274
-1.1158016 1.8760666 2.8127148
-1.0768423 1.8710546 2.8250096
-1.0430571 1.8774171 2.8434188
-1.1275258 1.9163717 2.8105972
-1.0809075 1.9196638 2.8309433
-1.0485815 1.911654 2.8454437
-1.1563118 1.9673779 2.8039455
-1.1233877 1.9723568 2.8185141
-1.0820107 1.9688213 2.8395236
-1.1592033 2.0161231 2.8006124
-1.1282203 2.028228 2.8198864
-1.0832795 2.0255852 2.8360033
-1.1505947 2.0628524 2.8053048
-1.1210128 2.0774539 2.8199127
-1.0736777 2.0818615 2.8419454
-1.1830026 2.1411898 2.806107
-1.1292461 2.1260679 2.8197975
-1.0799268 2.1273806 2.8379202
-1.1619408 2.173821 2.808321
-1.1237409 2.1762376 2.8214326
-1.0798426 2.1689959 2.8393655
-1.1575192 2.2065539 2.8042195
-1.1266522 2.2205219 2.8171742
-1.078699 2.2260227 2.8409367
-1.0455401 2.2359271 2.8479037
-1.1609142 2.280298 2.8010976
-1.1238042 2.2656128 2.8111393
-1.0760201 2.2721586 2.8362188
-1.1161629 2.3057771 2.8075466
-1.0723904 2.3252838 2.8222277
-1.0289737 2.3358195 2.8386199
-1.0754868 2.3662415 2.8058274
-1.025932 2.3705778 2.8275092
-0.99357915 2.3752799 2.8436553
1.1670668 2.3959191 2.8143313
1.2461395 2.3971658 2.823293
1.2590331 2.3884597 2.8063002
1.3270996 2.3995974 2.8320544
1.3870554 2.394145 2.8374469
1.4136279 2.3941321 2.8259377
1.4901105 2.3997009 2.8388553
1.6225464 2.392426 2.8040569
1.8194597 2.3966532 2.8311396
1.8999411 2.3984785 2.8316045
1.1904098 2.4080458 2.8222516
1.2850728 2.4045908 2.8183486
1.3213493 2.4059389 2.8244085
1.3830596 2.4049644 2.8161571
1.4763165 2.4097695 2.8203828
1.5195396 2.4037941 2.8311744
1.572001 2.4094937 2.8278799
1.6176512 2.4119146 2.8360453
1.6759467 2.4124742 2.8485661
1.7140951 2.4044077 2.830066
1.769791 2.4101436 2.8371718
1.8016449 2.4036293 2.8091645
1.9313848 2.4029641 2.8202815
1.9543606 2.4011166 2.8484635
-0.15028003 -0.55933005 2.8942735
-0.32529068 -0.53168285 2.8900313
-0.26109093 -0.5431155 2.8789623
-0.23249333 -0.54139233 2.8713779
-0.19167848 -0.54376537 2.8860011
-0.81856966 0.43361756 2.8650761
-0.77754933 0.43332517 2.8875854
-0.74208909 0.42623612 2.894803
-0.85911441 0.48101386 2.8535793
-0.82590783 0.47518638 2.8689704
-0.77975065 0.47729072 2.8911893
-0.86634076 0.52439225 2.8524365
-0.82780504 0.52602553 2.8696878
-0.78385043 0.52692032 2.8937325
-0.86159587 0.56040883 2.852061
-0.82931018 0.56258154 2.8703129
-0.78251237 0.564735 2.8909149
-0.52042681 0.58000243 2.8596592
-0.4741807 0.58324766 2.8813407
-0.44758594 0.58521366 2.8940732
-0.5643301 0.63550168 2.8641312
-0.52588171 0.62165797 2.8751514
-0.47891596 0.61992127 2.8929708
-0.53419411 0.65112549 2.8862262
-0.71113145 1.5368364 2.8590746
-0.67678636 1.5291296 2.8706126
-0.62414604 1.5185881 2.8885226
-0.59225839 1.5288922 2.8993707
-0.90748 1.5915191 2.8508201
-0.87898046 1.5958561 2.8659537
-0.83060962 1.5922122 2.8699198
-0.76527125 1.569611 2.8762429
-0.65608001 1.5505277 2.895427
-0.91618067 1.6341245 2.8663764
-0.87431508 1.6299878 2.8801551
-0.82905126 1.6198674 2.8747356
-0.96763611 1.6733966 2.8543034
-0.92663461 1.6711689 2.8722789
-0.8780691 1.6779599 2.8940175
-0.84436578 1.6657215 2.8971684
-0.97389662 1.7252166 2.8616881
-0.92826539 1.7225955 2.8822625
-0.88898677 1.7074412 2.8914566
-0.98182195 1.7734846 2.8604834
-0.92917651 1.7745149 2.8867314
-1.0041958 1.8250483 2.8546975
-0.9756785 1.8258411 2.8683295
-0.93637741 1.8251916 2.890939
-1.0211215 1.8815206 2.8566806
-0.97969389 1.8804253 2.8739893
-0.93774796 1.8778683 2.8909354
-1.0545317 1.9387994 2.8526702
-1.0203739 1.9276799 2.8622208
-0.97059715 1.926811 2.8822324
-0.9362359 1.9302403 2.8952982
-1.0587499 1.9711115 2.8503714
-1.0259129 1.9708511 2.8596926
-0.97994399 1.9770703 2.8826511
-0.94578016 1.9659827 2.8918288
-1.058005 2.0180421 2.8542233
-1.0225772 2.0189166 2.8686404
-0.97034997 2.0240641 2.8889353
-1.0539459 2.0508351 2.8535271
-1.0273439 2.0709255 2.8670495
-0.98157787 2.075547 2.8913333
-1.030298 2.126267 2.8647523
-0.98313087 2.1177554 2.8877544
-1.0674994 2.1949589 2.8529367
-1.0201157 2.1769793 2.8664186
-0.9788422 2.1766427 2.8879077
-1.0252569 2.225878 2.8608711
-0.98038465 2.2191389 2.8901923
-1.0507189 2.2640331 2.8506448
-1.0170578 2.2751629 2.8663123
-0.97112298 2.274045 2.8838148
-0.93857574 2.2980826 2.8955061
-1.0123483 2.3198159 2.8572299
-0.97391438 2.3263628 2.8715477
-0.9299351 2.3387375 2.8918202
-0.97376794 2.3669841 2.8594832
-0.92568642 2.369029 2.8722794
-0.87899363 2.374918 2.8889804
-0.84049976 2.3802295 2.8918355
0.95311439 2.3815398 2.863879
1.0632185 2.398663 2.8891349
1.3509018 2.392873 2.8507948
1.4810629 2.3960938 2.877265
1.7185755 2.397182 2.8869021
1.8267572 2.399889 2.8759394
0.92675251 2.4026234 2.8989043
0.99168855 2.4124618 2.8934946
1.0241894 2.4067211 2.876184
1.0708365 2.4047852 2.8769317
1.142688 2.4177511 2.8523295
1.1793299 2.430316 2.8747709
1.227367 2.4292643 2.8744183
1.2820469 2.4143491 2.8706362
1.322724 2.411988 2.8765869
1.3816626 2.4067025 2.8770814
1.4261165 2.4125271 2.8859963
1.4683523 2.4080434 2.8609428
1.5317497 2.4050057 2.8672757
1.5722537 2.4095941 2.875216
1.623837 2.4029088 2.8603323
1.6764301 2.408036 2.8833268
1.7266018 2.4046936 2.8732786
1.784318 2.4067185 2.8776703
1.9161741 2.4002013 2.8696504
-0.15948755 -0.55296868 2.936244
-0.1225932 -0.56062692 2.9018505
-0.28090978 -0.54052073 2.9414628
-0.22328754 -0.53869778 2.9347322
-0.18709701 -0.54358542 2.9238904
-0.75194359 0.44205672 2.9027345
-0.72181451 0.4371036 2.9136553
-0.677553 0.43754342 2.9338675
-0.75322545 0.47850937 2.9038155
-0.72198057 0.47434255 2.9204867
-0.6801067 0.4715732 2.9414582
-0.75884569 0.5335269 2.9046984
-0.72203434 0.52466565 2.9232609
-0.68253154 0.52742225 2.945688
-0.75636601 0.56655633 2.9054289
-0.72254872 0.56817633 2.9199133
-0.68287802 0.57104862 2.9417493
-0.42179731 0.58858746 2.9136
-0.37788638 0.58778882 2.9258511
-0.33928367 0.58590215 2.9441068
-0.4593946 0.62784684 2.9089653
-0.4245441 0.62813139 2.927563
-0.37810847 0.61886412 2.9423199
-0.34006053 0.60156626 2.9489243
-0.60790628 1.5145067 2.9046929
-0.57098013 1.5257474 2.9142621
-0.52940375 1.5294302 2.9380786
-0.49005827 1.5285505 2.9486687
-0.72840023 1.5898271 2.9223311
-0.63760436 1.5617363 2.9201913
-0.80970299 1.6199441 2.9092236
-0.78020287 1.6236645 2.9223642
-0.74883753 1.6158127 2.9318492
-0.85084486 1.6943413 2.9123831
-0.82023489 1.678655 2.9217062
-0.79164201 1.6749514 2.934442
-0.86783963 1.7283456 2.9125702
-0.82522202 1.7308055 2.9301074
-0.79488319 1.7341552 2.9425745
-0.90562224 1.7559958 2.9029069
-0.87681979 1.7783228 2.9132967
-0.83367509 1.7723045 2.9339764
-0.90987712 1.833876 2.9065187
-0.87672287 1.8349295 2.9221973
-0.83482909 1.8155285 2.9340851
-0.91760463 1.8764627 2.907922
-0.87470788 1.8802853 2.9282391
-0.83120596 1.8713108 2.9458597
-0.9155795 1.9270862 2.9070928
-0.88006538 1.9245781 2.9293664
-0.84034836 1.9273472 2.9431238
-0.95248914 1.9964333 2.9032512
-0.912157 1.9732095 2.9177721
-0.87162572 1.9735242 2.9323201
-0.83645034 1.962029 2.9472823
-0.92541981 2.0234554 2.9130225
-0.87846661 2.024828 2.9312577
-0.96163136 2.0655854 2.9027479
-0.92627198 2.0812428 2.9158039
-0.8776688 2.0751894 2.9387524
-0.9525286 2.124088 2.9056478
-0.91972417 2.1258469 2.9168978
-0.8709119 2.1241233 2.9381447
-0.95614672 2.1574349 2.9013577
-0.92559236 2.1732759 2.9150431
-0.87728572 2.1792498 2.935971
-0.84507906 2.1920931 2.9448738
-0.96650499 2.2319407 2.9006846
-0.9305684 2.2189741 2.909481
-0.8774491 2.2271698 2.9322178
-0.84170705 2.2312064 2.9490952
-0.95142418 2.2536008 2.9003229
-0.9204852 2.2700326 2.9140196
-0.87127107 2.2756705 2.9344254
-0.83816272 2.2789779 2.9470239
-0.91615933 2.3150032 2.9071136
-0.87679625 2.3254306 2.9182866
-0.82517385 2.3252649 2.9436817
-0.86009562 2.3608172 2.9133682
-0.82423401 2.3698018 2.9209266
-0.7775619 2.3769355 2.9323902
-0.72843385 2.3900383 2.9385395
-0.67998743 2.3917062 2.9418941
0.85319936 2.3915489 2.9035752
0.96700096 2.3987138 2.9179254
1.0441296 2.397578 2.9296799
1.1206052 2.3971801 2.9323888
1.1581056 2.3970563 2.9289756
1.2217382 2.3997214 2.9480169
1.3750063 2.399456 2.9276259
1.5177808 2.3985825 2.924716
0.82702714 2.4162934 2.9421237
0.88320082 2.402494 2.9102478
0.92915863 2.4114158 2.9274292
0.97150207 2.4100451 2.9316759
1.0246534 2.4064438 2.9204292
1.0843652 2.4087651 2.9323568
1.1360444 2.405684 2.9113741
1.1836883 2.413038 2.9423945
1.2705218 2.4315701 2.9116948
1.3222775 2.4290209 2.9328387
1.3742832 2.4151049 2.9310474
1.4327606 2.4096887 2.9316998
1.4716629 2.4158406 2.9307032
1.5288076 2.4093983 2.9291699
1.5761317 2.4105146 2.9225719
1.6251817 2.4136827 2.9176395
1.6686969 2.4049442 2.9245663
1.7209721 2.4053199 2.9270999
1.7719773 2.4033165 2.9259732
1.8281164 2.4122264 2.9283042
-0.12528233 -0.55859405 2.9672391
-0.082307771 -0.55860603 2.9683032
-0.31904688 -0.52816057 2.9749382
-0.27207178 -0.53412372 2.9713283
-0.24175315 -0.53408366 2.9892216
-0.1690129 -0.54677474 2.9812405
-0.12600899 -0.54731143 2.9855645
-0.082751445 -0.54730326 2.986511
-0.6256215 0.4413543 2.9680579
-0.57833481 0.43662381 2.9928362
-0.66117346 0.48429477 2.9554193
-0.62705821 0.47862473 2.9710958
-0.58385086 0.47112671 2.992141
-0.66160941 0.52077109 2.9532127
-0.62794334 0.52286702 2.9703596
-0.58753365 0.52566493 2.9922879
-0.6629079 0.56527019 2.9536123
-0.62850624 0.56693602 2.967618
-0.58813673 0.56273782 2.9908724
-0.31953382 0.58901739 2.9613564
-0.27726549 0.59081531 2.9732671
-0.24291539 0.59483176 2.99561
-0.36345205 0.64076042 2.957762
-0.32131785 0.6241473 2.97368
-0.28380701 0.61863154 2.9879742
-0.38670671 0.65073591 2.967607
-0.32300198 0.6535778 2.9857512
-0.47288913 1.5236337 2.9628129
-0.42843142 1.5279285 2.9786203
-0.38541222 1.5188222 2.9954093
-0.61434805 1.5814376 2.9619746
-0.58665001 1.5911862 2.9849434
-0.5164603 1.5538008 2.9585304
-0.48958319 1.5672116 2.9879615
-0.75516289 1.6452842 2.9500058
-0.72246814 1.6296941 2.9569981
-0.67545104 1.6200867 2.9714158
-0.6382221 1.6258548 2.9885416
-0.7674787 1.6786735 2.955323
-0.7236259 1.6811093 2.9726319
-0.68200779 1.6711146 2.9855506
-0.76799262 1.7239841 2.9620576
-0.72258693 1.7243261 2.9775081
-0.68286115 1.7231288 2.9978607
-0.80827242 1.7865971 2.9550097
-0.77086127 1.7764314 2.9686394
-0.72384661 1.7718291 2.9875612
-0.80653983 1.824465 2.9555578
-0.77521133 1.8270677 2.9664848
-0.7332688 1.8218815 2.9885883
-0.81224465 1.8863833 2.9524765
-0.7802524 1.8716807 2.9700069
-0.7338863 1.8784558 2.9904852
-0.81094337 1.935438 2.9627378
-0.77531356 1.9195325 2.9750657
-0.7393176 1.9253734 2.9962258
-0.82139623 1.9833515 2.9634576
-0.77232331 1.9684445 2.9852643
-0.74341476 1.9692876 2.9959149
-0.86052436 2.0127745 2.9518545
-0.82831782 2.0236905 2.9586458
-0.77858865 2.0262992 2.9873509
-0.74862969 2.0165875 2.9993863
-0.85078758 2.079536 2.9518452
-0.82355219 2.0733566 2.9616675
-0.77072763 2.0812981 2.9894714
-0.81962621 2.1212146 2.9655464
-0.77468652 2.1259317 2.9857433
-0.85986435 2.1525872 2.9537754
-0.82562023 2.1701829 2.9623895
-0.77901989 2.1719124 2.9826138
-0.82460463 2.2226167 2.9582889
-0.77949381 2.2225206 2.9830172
-0.811566 2.2763755 2.9599791
-0.77405643 2.2756433 2.9784939
-0.73826051 2.2717733 2.9936807
-0.77270347 2.3270962 2.9653881
-0.73019069 2.32863 2.9862397
-0.75967294 2.3624263 2.9561057
-0.72028875 2.3690612 2.9672582
-0.68167663 2.3788769 2.9819479
-0.62169075 2.3920085 2.9700348
-0.57675481 2.3950424 2.9871662
-0.53425038 2.3985579 2.9756167
1.1643836 2.392184 2.9572728
1.4990432 2.3995802 2.9954889
1.585199 2.3998752 2.9988225
1.7662109 2.3999743 2.9526722
-0.65626872 2.400022 2.9570794
-0.5705148 2.405061 2.9782677
-0.51764232 2.4021134 2.9825785
-0.48324713 2.4041641 2.989938
-0.44769633 2.400264 2.9896009
0.53784108 2.4144726 2.9954255
0.58061904 2.410516 2.983742
0.62321162 2.4179351 2.9860027
0.67675769 2.4108641 2.9672341
0.72256607 2.4180772 2.967448
0.77712965 2.4242568 2.9638193
0.82675844 2.4268339 2.9675341
0.87190676 2.426254 2.9794457
0.92713147 2.4198506 2.9807069
0.97216976 2.41572 2.9750032
1.0162604 2.412847 2.9804187
1.0767385 2.4135358 2.9779341
1.1275852 2.408812 2.9925594
1.1801171 2.4061587 2.9840612
1.2291416 2.4051652 2.9720068
1.2731634 2.4114132 2.984206
1.3073967 2.425849 2.9534271
1.3926803 2.4028382 2.9844844
1.4212549 2.4048483 2.9757824
1.4717152 2.4081228 2.9693758
1.5228777 2.402667 2.9693282
1.5764022 2.4050694 2.9691784
1.6279497 2.4113657 2.9686601
1.6741562 2.4095635 2.9822867
1.7167339 2.4067965 2.9746735
1.7503175 2.4038641 2.9672294
-0.054482426 -0.55265105 3.0161433
0.032972544 -0.55481982 3.0281665
0.091538012 -0.55609715 3.0343781
0.10548799 -0.55250376 3.0144618
-0.27244839 -0.52307922 3.0089829
-0.22195956 -0.53160787 3.0178204
-0.1799165 -0.54355621 3.0452623
-0.14284348 -0.5422402 3.0391667
-0.34825712 -0.49856979 3.0350404
-0.36030388 -0.2110627 3.0335875
-0.36116314 -0.1896795 3.0417564
-0.55047607 0.43760425 3.0032434
-0.52378345 0.43970045 3.0211048
-0.48186275 0.44155073 3.0386975
-0.38836336 0.42116988 3.008091
-0.55837154 0.47862509 3.0073171
-0.52630079 0.47541043 3.0241587
-0.48728767 0.47006723 3.0431397
-0.56064981 0.52784497 3.0084286
-0.52486598 0.52725166 3.0267925
-0.498721 0.52475077 3.0415425
-0.56047648 0.57021898 3.0105577
-0.52943355 0.57391095 3.0280697
-0.49950495 0.56998253 3.041007
-0.30648229 0.59101522 3.0491567
-0.27525511 0.5874685 3.032711
-0.21989627 0.59144592 3.023103
-0.17226051 0.58672279 3.0338891
-0.14351997 0.58913523 3.0473936
-0.26235071 0.63062394 3.0050631
-0.2234326 0.63042521 3.0241778
-0.17905402 0.61780304 3.038177
-0.1436612 0.60445732 3.0484772
-0.28874841 0.65814114 3.0091162
-0.36358246 1.5252566 3.0102441
-0.32836244 1.527211 3.0207646
-0.28744236 1.5284114 3.0410466
-0.47442287 1.5952244 3.0441816
-0.41220501 1.5552012 3.0096467
-0.39173788 1.5674934 3.0357442
-0.60968101 1.6343493 3.0090885
-0.56741369 1.6222156 3.0251908
-0.5281285 1.6250012 3.0394459
-0.65238702 1.6735477 3.0028591
-0.62349534 1.6820215 3.023164
-0.57776219 1.6700356 3.03634
-0.5438751 1.6603664 3.049207
-0.66570282 1.727371 3.0084968
-0.62760884 1.725543 3.0294285
-0.58819777 1.7205288 3.0444245
-0.67615527 1.776634 3.0121577
-0.63222092 1.7743721 3.0359657
-0.70789909 1.8338182 3.0087466
-0.66886783 1.8211188 3.0204844
-0.62950128 1.8357284 3.0430756
-0.70646286 1.8695363 3.0071557
-0.6717546 1.8717705 3.025939
-0.63035268 1.8765582 3.0467074
-0.71809489 1.9247812 3.0051441
-0.67711979 1.9282441 3.0298471
-0.63933873 1.9200457 3.0464296
-0.71841133 1.9686378 3.0101604
-0.6772595 1.9853351 3.0311058
-0.64054245 1.9725987 3.0458989
