ply
format ascii 1.0
comment PCL generated
element vertex 1517
property float x
property float y
property float z
element camera 0
property float view_px
property float view_py
property float view_pz
property float x_axisx
property float x_axisy
property float x_axisz
property float y_axisx
property float y_axisy
property float y_axisz
property float z_axisx
property float z_axisy
property float z_axisz
property float focal
property float scalex
property float scaley
property float centerx
property float centery
property int viewportx
property int viewporty
property float k1
property float k2
end_header
0.066762298 2.4119453 3.1156273
0.11120383 2.4020042 3.1188636
0.18321456 2.4043965 3.1364479
0.21458924 2.4098327 3.1332662
0.27243227 2.4214497 3.1188507
0.32751718 2.4410431 3.1225977
0.37769583 2.4219582 3.1221211
0.42623314 2.4235179 3.1248732
0.47145584 2.4252474 3.1218126
0.52580613 2.427417 3.1175487
0.57623327 2.4271386 3.1186812
0.61924362 2.4355767 3.1260452
0.66959298 2.4392855 3.1194377
0.73642564 2.444407 3.1168308
0.7509675 2.4402535 3.132458
0.83135605 2.4444823 3.1304491
0.86861342 2.4408309 3.1201346
0.92408228 2.4466438 3.1395369
0.97901952 2.4460926 3.124851
1.0170339 2.4491067 3.1188478
1.0873168 2.4439065 3.1296687
1.1280197 2.4389687 3.123395
1.1715168 2.442353 3.1250312
1.2293909 2.428103 3.1247458
1.2578819 2.4053104 3.11726
0.71245813 2.4512401 3.1185186
0.78310466 2.4519787 3.1296256
0.9273982 2.4569466 3.1249211
0.96274412 2.4606619 3.1304302
1.0183344 2.4522562 3.122808
1.0647429 2.4539812 3.1249151
0.62501901 -0.5278185 3.1869214
0.39926147 -0.41052857 3.1543145
0.42565006 -0.41399372 3.1789794
0.45111424 -0.40856013 3.1950645
0.39959821 -0.39565572 3.158241
0.41934279 -0.3735241 3.1823082
0.45142242 -0.3856988 3.1991279
1.1440321 -0.37981203 3.169924
1.1650029 -0.38149026 3.179987
1.2168763 -0.36285028 3.1801996
0.41578779 -0.32367569 3.1843705
1.2214419 -0.32240328 3.176007
0.41774642 -0.27583894 3.1875482
1.2242367 -0.2709392 3.1826556
-1.8760689 -0.20193073 3.166795
-1.8383248 -0.20243776 3.1928127
0.39354286 -0.22768287 3.1613731
0.42014515 -0.22976947 3.1884432
1.2290703 -0.22253868 3.1750324
-1.900592 -0.16812167 3.1557093
-1.8737174 -0.16820689 3.1691566
-1.8382798 -0.16862798 3.1941373
0.32201949 -0.16660704 3.1625462
0.36959389 -0.15992476 3.1773527
0.40252584 -0.1532589 3.1951134
1.2293 -0.17484026 3.1776397
-1.8748016 -0.11753419 3.1677487
-1.8371749 -0.11784125 3.1938553
0.36952755 -0.1218023 3.1778493
1.229259 -0.12709856 3.1790612
-1.8755327 -0.066995852 3.1700428
-1.8375067 -0.067173712 3.1954734
0.33665794 -0.068043336 3.1589987
0.37026569 -0.076267503 3.1852427
1.2362765 -0.079295926 3.1754963
1.2533803 -0.08677803 3.1518927
-1.8750777 -0.024853298 3.1696925
-1.8359046 -0.024916809 3.1931148
0.33275518 -0.033970308 3.1583529
0.36765337 -0.032335959 3.1796379
1.2365332 -0.031608142 3.1767015
1.2534335 -0.02351803 3.1527452
-1.8729103 0.015753843 3.1709139
-1.8357261 0.017292688 3.192791
0.33206311 0.022774132 3.163851
0.36255854 0.022970481 3.1857672
1.2377434 0.024089608 3.1798003
1.254575 0.023951449 3.1555529
-1.8763851 0.069358379 3.1664317
-1.8393772 0.063707486 3.1895356
0.33282405 0.071897343 3.1585207
0.36275443 0.076408833 3.1869566
1.2391825 0.079902716 3.1828678
1.2530591 0.079260483 3.1510797
-1.9017818 0.13538994 3.1585948
-1.8704752 0.11844921 3.1709836
-1.8368801 0.11865347 3.1931145
0.33019373 0.12147381 3.1686954
0.36206722 0.11944292 3.1936312
1.2391157 0.12769441 3.1815615
1.255661 0.12696511 3.156522
-1.8779459 0.16924821 3.1710827
-1.8378844 0.16942526 3.1931241
0.3274869 0.17702726 3.165329
0.36119583 0.18124586 3.1931159
1.2388421 0.1754723 3.1792457
1.2563066 0.17458303 3.1565387
-1.9041013 0.2200049 3.1587894
-1.8724543 0.22024235 3.1774254
-1.8410829 0.22051811 3.1963406
0.32534495 0.23021854 3.1733031
0.35551858 0.22937608 3.186342
1.2401471 0.22350217 3.1805
1.2564896 0.22217113 3.1548929
-1.9125404 0.27429909 3.1552637
-1.8744256 0.27124473 3.1778221
-1.8436979 0.27168703 3.1979339
0.32566017 0.27232417 3.1742544
0.35647854 0.26066184 3.1934044
1.240739 0.27148885 3.1794226
1.2571853 0.26988497 3.154031
-1.9118726 0.31770927 3.1564312
-1.8776088 0.32258183 3.179616
-1.8454552 0.32286558 3.1974227
0.32774106 0.32200158 3.172554
0.35701016 0.32246161 3.1944487
1.2390918 0.32211509 3.1816182
1.2582986 0.3257041 3.1531236
-1.9108318 0.37332895 3.1590595
-1.8791697 0.37375554 3.1780312
-1.8472885 0.3741537 3.1964235
0.2344621 0.37936643 3.175745
0.261224 0.37098244 3.1521332
0.32555857 0.37810385 3.1695457
0.36479229 0.39934775 3.1890774
1.2425489 0.36778367 3.1772821
1.2563356 0.38762009 3.1581974
-1.9093122 0.42903242 3.1601768
-1.8779384 0.42566818 3.1831999
-1.8490207 0.41700938 3.1954794
0.24302693 0.42622179 3.1885681
0.26266125 0.43392348 3.1643634
0.32762748 0.43099687 3.181639
0.36287737 0.42057979 3.1931961
1.2426069 0.4275434 3.175441
1.2613889 0.41403919 3.1536958
-1.9107292 0.48008648 3.1624095
-1.8726336 0.47566849 3.1859176
0.24913044 0.47523084 3.1831806
0.2634367 0.4734014 3.1700869
0.32565153 0.47500351 3.177151
0.35855857 0.47805965 3.1955442
1.2386161 0.483531 3.1792114
1.2512059 0.47990343 3.1662905
-1.9109071 0.52824563 3.1605036
-1.8721784 0.52929461 3.1861362
0.27364177 0.53118831 3.1642711
0.32418996 0.52411258 3.1727037
0.3584663 0.50877643 3.1915851
1.2388283 0.52301633 3.1753397
1.2514744 0.5359897 3.1606455
-1.9228145 0.57886064 3.1600814
-1.8753755 0.58148521 3.1848052
0.26914924 0.57821029 3.1726065
0.32861042 0.5725534 3.1765745
1.237343 0.58060259 3.1876831
1.2526706 0.57652718 3.1586931
-1.9215709 0.62535352 3.1650324
-1.8807865 0.6260038 3.1878672
0.262669 0.62017101 3.1759112
0.32820803 0.62542802 3.1853013
1.2389103 0.62976354 3.1852472
1.2537174 0.62508994 3.1548779
-1.9241432 0.66905975 3.1625378
-1.8825908 0.66950101 3.1842802
0.27813101 0.67650473 3.174614
0.32692948 0.68082386 3.1843269
1.2400171 0.67881256 3.1810884
1.2569087 0.67485428 3.1558926
-1.9206331 0.72374129 3.1612694
-1.8786068 0.7205922 3.1877108
0.28150004 0.72504294 3.1706655
0.32430419 0.72342819 3.1844301
1.2401876 0.72512096 3.1790638
1.2534649 0.72578835 3.162204
-1.9241325 0.77537626 3.1625118
-1.8801297 0.77894652 3.1881039
-0.41294351 0.77982849 3.155653
-0.37810755 0.77701914 3.173986
0.28201735 0.77273035 3.1691523
0.32264626 0.77738768 3.1857634
1.2368952 0.77889913 3.1803784
-1.9261312 0.83112448 3.1626115
-1.8838117 0.82357991 3.1893687
-0.42341799 0.82696354 3.1686137
-0.38367298 0.82231265 3.1876929
0.28337911 0.82298541 3.1763372
0.32432726 0.82833499 3.1945312
1.2417012 0.82898235 3.1762559
1.2514269 0.82642955 3.1627665
-1.9545693 0.88469905 3.1547413
-1.9258615 0.87479419 3.1644726
-1.888396 0.86678636 3.1868165
-0.42521766 0.87422895 3.1743429
-0.38828814 0.86313617 3.1974218
0.28019312 0.87118965 3.182724
0.31383547 0.88020444 3.1849911
1.2361714 0.87875843 3.1840343
1.2525674 0.87583619 3.1562641
-1.9572548 0.92065382 3.151293
-1.9236867 0.92118794 3.1696882
-1.8919392 0.92262936 3.1908214
-0.46331453 0.91911882 3.1550114
-0.42907745 0.92336237 3.1782584
0.28282154 0.91872907 3.1752126
0.31327751 0.92801034 3.184031
1.2408864 0.92950046 3.181664
1.2570862 0.92784715 3.1576455
-1.9270395 0.97854584 3.1700361
-1.8888271 0.9689821 3.1942885
-0.45798096 0.9710899 3.1632917
-0.42948332 0.97751981 3.1871889
0.27820489 0.97174317 3.179672
0.30837268 0.9728657 3.181457
1.2404276 0.97424853 3.1806538
1.2512742 0.98487973 3.1782589
-1.9519218 1.0311754 3.1539035
-1.9257203 1.0231841 3.1769123
-0.46523961 1.0230968 3.1616108
-0.43078768 1.0279289 3.1867323
0.27892581 1.0213709 3.1777542
0.30985177 1.0248585 3.1866982
1.2393755 1.0214254 3.1869895
1.2521033 1.0265989 3.1709726
-1.9588404 1.0699205 3.1558609
-1.9269861 1.0716841 3.1779704
-1.8946332 1.0732195 3.1990263
-0.46176267 1.0738726 3.1684458
-0.43264654 1.0799952 3.1896231
0.2769945 1.0718796 3.1845508
0.30825156 1.0709261 3.1851916
1.2409664 1.0722222 3.1793251
1.2537671 1.0690815 3.1653259
-1.96101 1.128819 3.163327
-1.9232918 1.1320736 3.183542
-1.8985342 1.1194828 3.1938467
-0.46309808 1.124503 3.1662457
-0.43363819 1.1302329 3.1855488
0.28129521 1.1251509 3.1828394
0.31261936 1.1326668 3.1924005
1.2432736 1.1237893 3.1727972
1.2549089 1.1194413 3.1557751
-1.9673502 1.1766758 3.1607938
-1.9227591 1.1764098 3.1815178
-0.47245443 1.1755768 3.1631045
-0.43678457 1.179005 3.1855357
0.29122868 1.1808324 3.192507
0.31052127 1.1743873 3.1855567
1.246834 1.1806667 3.1805317
1.2600049 1.1735893 3.1554201
-1.9675549 1.219362 3.1583865
-1.9313183 1.2269171 3.1770689
-0.47145796 1.2238328 3.1578562
-0.43042734 1.2256937 3.1841888
0.27965462 1.2280216 3.1789365
0.30755299 1.2221961 3.1849415
1.2398256 1.2192734 3.1889031
1.2527646 1.2322937 3.1698751
-1.9636785 1.2742157 3.1648071
-1.9310465 1.2761736 3.1871018
-0.46910715 1.2758808 3.1590042
-0.42853451 1.2740093 3.1886806
0.27648976 1.2776977 3.183265
0.30911458 1.2685634 3.1902053
1.2424896 1.2806246 3.1920526
1.2634118 1.2762818 3.1611304
-1.9680091 1.3268324 3.1642778
-1.9364891 1.3221705 3.186523
-0.475676 1.3270637 3.1620953
-0.43395641 1.3225516 3.1859117
0.27748635 1.3209878 3.1834307
1.2443895 1.3246191 3.1842406
1.2597568 1.3229067 3.1626079
-1.9734317 1.37633 3.1692531
-1.9345976 1.3815222 3.1940472
-0.46687445 1.372942 3.1672232
-0.44171265 1.3701957 3.1849012
0.27400684 1.370551 3.1837292
1.242033 1.3676243 3.1863582
1.2628742 1.3811407 3.1662056
-2.0013919 1.4374639 3.1564403
-1.9768832 1.4249209 3.1704614
-1.9388037 1.4288858 3.1924889
-0.46841908 1.4260972 3.1676722
-0.43586111 1.409887 3.1921065
0.24838534 1.4495268 3.1910121
0.27750739 1.423908 3.1787622
1.2443503 1.4273702 3.1917799
1.2575616 1.4183283 3.1653965
-1.9719925 1.4786692 3.1721184
-1.9395864 1.4815928 3.1965184
-0.50870776 1.4899709 3.1547165
-0.47198924 1.4759089 3.1793475
0.24918972 1.4869103 3.1906753
0.26918218 1.4663181 3.172004
1.2471187 1.481621 3.1814308
1.258191 1.4753928 3.1748848
-2.0153053 1.5202909 3.1504509
-1.9783052 1.5197954 3.1682293
-1.944839 1.5220522 3.1912975
-0.5021174 1.5190865 3.1569874
-0.47772995 1.5227413 3.1809103
0.24936469 1.5206603 3.1818769
0.27076572 1.5227791 3.1850731
1.2437264 1.5048646 3.1910913
1.2582142 1.527362 3.1701915
-2.0074453 1.5739175 3.1578388
-1.9746075 1.5768877 3.1826701
-0.52014512 1.5857885 3.1735916
-0.48326802 1.5788157 3.195354
0.24998075 1.5572186 3.1784189
0.26369095 1.5741435 3.1806052
1.2435284 1.5752885 3.1931581
1.2619057 1.5746593 3.1635725
-2.0178115 1.6328256 3.1617687
-1.9708306 1.6335518 3.18804
-0.51783013 1.6079547 3.1792011
0.25999504 1.6176711 3.1824026
1.2477698 1.6238667 3.1875365
1.2614343 1.6278555 3.1699173
-2.020793 1.6749054 3.1628542
-1.9796518 1.6779152 3.1864719
0.25935259 1.6705517 3.1777186
1.2441791 1.6738727 3.1860023
1.2640487 1.6744 3.1591501
-2.0205486 1.7195668 3.1652927
-1.9745368 1.7199143 3.1902554
0.26259452 1.7089763 3.1858807
1.2431805 1.7191416 3.1940472
1.2628119 1.7248466 3.1694796
-2.0559728 1.7993871 3.1507139
-2.0224872 1.7759193 3.1663568
-1.9774425 1.7776147 3.1874685
0.2572085 1.7878453 3.1996031
1.2453226 1.7764467 3.1916859
1.2710569 1.7767279 3.1608155
-2.0229251 1.8314971 3.1643059
-1.9807523 1.829827 3.19155
1.241773 1.8388969 3.1991627
1.2631586 1.8260604 3.16749
-2.0267127 1.8813176 3.1714194
-1.9906499 1.8829043 3.1942987
1.2572207 1.8798132 3.1678038
-2.0617523 1.9158854 3.1517026
-2.0269742 1.9283365 3.172452
-1.9896591 1.9289535 3.1938
1.2601103 1.9226633 3.1779134
-2.05722 1.9867227 3.1543038
-2.0238421 1.9725666 3.1677196
-1.9894397 1.9761887 3.1940565
1.2427552 1.9836495 3.1984155
1.2619979 1.9742553 3.1630089
-2.0630672 2.0401535 3.162324
-2.0238266 2.0220714 3.1764128
-1.9936205 2.0379326 3.1956286
1.2467349 2.0170178 3.1951957
1.2605159 2.0283222 3.1697891
-2.0570593 2.0726671 3.1570883
-2.022099 2.0763247 3.1839416
1.259306 2.0759001 3.1851609
-2.0504313 2.1340203 3.1596987
-2.0260026 2.1211572 3.1774514
-1.9951873 2.1371047 3.1962118
1.2399007 2.1080656 3.1921782
1.2660003 2.1176758 3.1676214
-2.0564291 2.1694746 3.1516914
-2.0270174 2.1774096 3.1787903
-1.9895866 2.1707518 3.1910973
1.2492915 2.1606698 3.1965134
1.2677423 2.1771166 3.1704817
-2.0520878 2.2247539 3.1624393
-2.022227 2.2242148 3.1779971
1.2392147 2.2304299 3.1926827
1.2602704 2.2257924 3.1703029
-2.0590541 2.2618134 3.154978
-2.0266228 2.2769101 3.1720212
-1.9877867 2.2692459 3.19203
1.2582841 2.2777145 3.1613569
-2.0243201 2.3187661 3.1627331
-1.9739071 2.3237338 3.1897275
-1.9375279 2.3479791 3.1854196
1.2425104 2.321883 3.1752346
1.2607408 2.3336709 3.1607544
-2.0086503 2.3504932 3.151361
-1.9803557 2.3520284 3.1697152
-1.9241551 2.3634183 3.1721261
-1.8751285 2.3757834 3.1721041
-1.8297372 2.3842533 3.1786366
-1.7714249 2.3851593 3.1750445
-1.7272567 2.3950126 3.1853359
-1.6688828 2.3893585 3.1731374
-1.6172351 2.3924932 3.171901
-1.581411 2.3931978 3.1739929
-1.5185378 2.3962417 3.1906643
-1.493751 2.3968201 3.1803184
-1.42207 2.3981128 3.1891804
-1.1091889 2.3956904 3.1695395
-1.0709724 2.3932202 3.1768296
-1.0254035 2.3950887 3.1919947
-0.97628015 2.390851 3.1701171
-0.92183149 2.3858304 3.1669931
-0.8721419 2.3922324 3.1783104
-0.8264001 2.3750808 3.1733985
-0.78057849 2.3882744 3.1737823
-0.7258817 2.3885069 3.1846688
-0.66694278 2.3784394 3.1721373
-0.6207571 2.3751416 3.1752219
-0.57077986 2.378072 3.1725183
-0.53529197 2.375983 3.1533265
-0.47331083 2.3811173 3.1682944
-0.42575127 2.3673003 3.1550307
-0.39108118 2.3744059 3.1682932
-0.3196224 2.389514 3.1716716
-0.26490009 2.3716753 3.1751244
-0.23278327 2.381171 3.1758945
-0.17083019 2.3789382 3.1813252
-0.12488811 2.380672 3.1801395
-0.085307539 2.3903551 3.1732047
-0.049181871 2.3989615 3.1505456
0.040548697 2.3863719 3.1860447
0.073327355 2.3841293 3.1709614
0.12678191 2.3848901 3.1787572
0.17262365 2.3900011 3.1815298
1.2330717 2.3828681 3.1780853
1.2524668 2.3661318 3.1598082
-1.7393445 2.4043052 3.1500962
-1.6274475 2.4015088 3.1528678
-1.5545199 2.4074779 3.1937935
-1.532181 2.4067519 3.1590552
-1.4721348 2.4022183 3.1762381
-1.4236 2.4021912 3.1741004
-1.3773454 2.4054811 3.1757412
-1.3291045 2.4044271 3.1779366
-1.2760478 2.4118469 3.1803873
-1.2303113 2.4101264 3.1631041
-1.1728115 2.4120021 3.174237
-1.1409197 2.4132216 3.1662002
-1.0862172 2.404506 3.150367
-1.0297045 2.4020493 3.1626134
-0.89446479 2.4045112 3.1624818
-0.30298519 2.4249144 3.1732473
-0.067653202 2.4014606 3.1882973
-0.031316705 2.4014227 3.1539633
0.0045566596 2.4238272 3.1835153
0.22090144 2.4077661 3.173604
0.27937064 2.4306259 3.1685436
0.32696596 2.4241993 3.1773987
0.3795878 2.4202659 3.1839683
0.4218609 2.4228575 3.1771886
0.47660747 2.4244277 3.1729786
0.52817726 2.4296718 3.1697907
0.57553995 2.4352553 3.1830232
0.62951744 2.4382958 3.1733692
0.68166214 2.4437432 3.1682441
0.72080165 2.4431565 3.1785119
0.78068489 2.4392767 3.176285
0.82768494 2.4453549 3.1723692
0.87588173 2.447686 3.1896434
0.94018984 2.4462509 3.1724842
0.98490363 2.4452381 3.1850846
1.0227089 2.4413521 3.1728315
1.0804731 2.4384735 3.1752226
1.122887 2.4391866 3.1742749
1.1798735 2.4324598 3.1759441
1.2167069 2.4155929 3.1724422
0.71821517 2.452729 3.155529
0.88430244 2.4546542 3.1786902
0.91174746 2.4536924 3.1709642
0.97118354 2.4543381 3.176008
1.0348413 2.4510598 3.1545844
0.62807095 -0.51174885 3.228435
0.66292083 -0.5175854 3.217593
0.64471823 -0.483062 3.237848
0.67579198 -0.45827702 3.2469144
0.47528946 -0.4090952 3.2176788
0.51266503 -0.40684599 3.2381077
0.68768442 -0.428606 3.245343
0.71299714 -0.40953168 3.2350168
0.47120869 -0.37022287 3.215138
0.5131743 -0.37593016 3.2438555
0.69818151 -0.38641307 3.243572
0.72271806 -0.37899002 3.2446175
1.1872611 -0.36819294 3.22629
1.2065829 -0.35253248 3.2002604
0.43569174 -0.30833831 3.203763
0.46954945 -0.32581204 3.2202864
0.51249361 -0.32849729 3.242882
0.71989232 -0.34204444 3.246846
1.1888584 -0.32219404 3.2259266
0.46961987 -0.27933958 3.2237473
0.50431687 -0.2813836 3.2443552
1.1909341 -0.27432308 3.2345769
1.205793 -0.27219293 3.2034752
-1.8135004 -0.20250949 3.2044327
-1.7714337 -0.2025544 3.2221432
-1.7402204 -0.2028736 3.2404518
0.43734616 -0.21664032 3.2208369
0.46661347 -0.23677634 3.2206511
0.5040167 -0.24994925 3.2441001
1.1926407 -0.22265689 3.2371011
1.2063727 -0.22423184 3.2075436
-1.8129638 -0.16864263 3.2048752
-1.7736219 -0.16893557 3.2275186
-1.7427629 -0.16924568 3.2465541
0.42227793 -0.17040358 3.2269919
0.45660508 -0.15601726 3.2486272
1.1951314 -0.17745872 3.2385616
1.2084134 -0.17645413 3.2150011
-1.8132497 -0.11794897 3.2070181
-1.7739775 -0.11817507 3.2297659
-1.7427267 -0.11836899 3.2480843
0.4203397 -0.12331005 3.2133284
0.45537904 -0.12446368 3.2407472
1.1962901 -0.12869383 3.2312729
1.2066997 -0.12808736 3.2119734
-1.8130312 -0.067216396 3.2076674
-1.7736448 -0.067338243 3.2301819
-1.7432338 -0.084465101 3.249794
0.42061213 -0.077102691 3.2163696
0.45512259 -0.077721626 3.2398436
1.1981044 -0.080485404 3.2372115
1.2143077 -0.079949625 3.209883
-1.8123322 -0.024951458 3.2068615
-1.7746239 -0.025037343 3.2324038
0.38776582 -0.015299056 3.2033553
0.42103159 -0.030819513 3.2200308
0.4557482 -0.038875233 3.2447398
1.1988248 -0.032104909 3.2397003
1.215276 -0.031883981 3.212985
-1.8130609 0.017309071 3.2081368
-1.7743959 0.017330699 3.2319667
0.38806 0.023096111 3.2057006
0.42084515 0.024011401 3.2294238
1.1990172 0.027102867 3.2401848
1.2140282 0.02338923 3.2175038
-1.8132828 0.068032064 3.2079923
-1.7750649 0.068165451 3.2326517
0.38955835 0.077215351 3.2175086
0.423298 0.077715799 3.2368393
1.1992068 0.072865419 3.2402172
1.2134959 0.082830779 3.2175999
-1.8136204 0.11878114 3.2074554
-1.7763715 0.11909681 3.2339089
0.38490748 0.12703228 3.2100248
0.41525427 0.12421265 3.2344635
1.2112641 0.12897301 3.2240553
-1.8147968 0.1696192 3.2078121
-1.7782083 0.17015502 3.2355483
0.38291869 0.16645944 3.2116306
0.41542339 0.17085846 3.2343128
1.2122866 0.17740113 3.2251368
-1.8175596 0.22073191 3.2103679
-1.7784326 0.22110255 3.2336404
0.38272735 0.2268856 3.2113168
0.41574711 0.22537135 3.2346568
1.2124146 0.22576809 3.2233763
-1.819167 0.27180645 3.2102776
-1.7801516 0.27231976 3.2338653
0.37656149 0.28000221 3.215168
0.41500038 0.28031784 3.2382514
1.2139375 0.27444592 3.2248096
-1.82175 0.32316411 3.2113039
-1.783417 0.32389903 3.2363214
0.38264799 0.32465944 3.2144909
0.40922081 0.32739991 3.2395747
1.2135199 0.32126078 3.2265944
-1.8180418 0.3725391 3.2147284
-1.7858486 0.37888336 3.236346
0.17816649 0.37561727 3.2286255
0.20455775 0.37819153 3.2162204
0.37480149 0.37093222 3.2106178
0.41581792 0.37134224 3.2386525
1.2157351 0.37178364 3.2228117
-1.8183119 0.42628562 3.2149153
-1.7812945 0.42759994 3.2425992
0.19088522 0.41285354 3.2442765
0.21670474 0.42564693 3.2207222
0.3820945 0.43252459 3.2233284
0.41019508 0.42193648 3.2401168
1.1924479 0.43972105 3.2499666
1.216849 0.42065263 3.2215893
-1.8223138 0.47843871 3.2165842
-1.7864956 0.4763751 3.2432837
0.22304666 0.47516546 3.2238266
0.38578036 0.47536671 3.2286336
0.41543069 0.47030044 3.2458687
1.1926889 0.4723765 3.247443
1.2171888 0.46806094 3.2238953
-1.8268297 0.53097278 3.2185397
-1.7829088 0.53413755 3.2420716
0.22200625 0.52624047 3.2322485
0.25112545 0.51763415 3.2047224
0.38172761 0.52852732 3.2255933
0.41212729 0.51810539 3.2463307
1.2178705 0.52503544 3.2195745
-1.8281761 0.57418346 3.2154171
-1.7902739 0.57574087 3.2421498
0.2301345 0.57724828 3.230665
0.25199378 0.57369918 3.2097068
0.37861338 0.57760966 3.2234433
0.41317624 0.58239722 3.247508
1.1960083 0.55533552 3.2474818
1.2154993 0.57342452 3.2219546
-1.8503704 0.62728971 3.20962
-1.8242116 0.61856508 3.2211554
-1.7903404 0.61586761 3.2406604
0.23377432 0.61946058 3.2217002
0.25212109 0.63604212 3.2035737
0.37921757 0.62546688 3.222878
0.4132697 0.62186146 3.2434087
1.1992717 0.61416352 3.2491298
1.2161964 0.62255943 3.2257538
-1.852375 0.67096359 3.206506
-1.8204027 0.67184448 3.2255065
-1.7892829 0.67305773 3.2458513
0.23257899 0.67659491 3.2305331
0.25235575 0.66770434 3.2023311
0.34594482 0.66854924 3.200604
0.38033602 0.67431086 3.2258589
1.1988759 0.6630621 3.2412934
1.2165295 0.67472702 3.2205641
-1.8554965 0.72376752 3.2033763
-1.824258 0.72503591 3.2239015
-1.7924141 0.72607952 3.2431555
0.23997231 0.72376198 3.2388427
0.25456262 0.72053403 3.2235928
0.33930749 0.7409969 3.2016511
0.38169125 0.72391486 3.2304702
1.2117634 0.72157353 3.2249179
-1.8586307 0.76812017 3.2011814
-1.8248718 0.78132433 3.2293634
-1.7983788 0.76316541 3.2479982
-0.32927632 0.78828102 3.2135184
-0.29704353 0.79240406 3.2494314
0.23661733 0.76892596 3.2404175
0.25530019 0.76975149 3.2256711
0.34832552 0.7748996 3.2073183
0.37754202 0.7696541 3.2270913
0.40039489 0.7849263 3.2451515
1.2120386 0.76810026 3.2260284
-1.8635931 0.81341469 3.2015996
-1.8246009 0.82397681 3.2262123
-1.785131 0.83441895 3.2497675
-0.36250052 0.83259088 3.2082283
-0.32810688 0.8225953 3.2360954
0.2413711 0.82294059 3.2425978
0.25605515 0.81930143 3.2274265
0.34936154 0.83216685 3.2076371
0.37513426 0.82129437 3.2275741
0.40101358 0.8179031 3.244899
1.2156612 0.82204312 3.2267246
-1.8637247 0.86942118 3.2101066
-1.8231275 0.87075943 3.234004
-0.3723864 0.87692928 3.2148702
-0.33879346 0.86992323 3.2389622
0.24215385 0.8732428 3.2447548
0.25606263 0.8665607 3.2192364
0.33387333 0.87196374 3.2037709
0.36792719 0.87551141 3.2246511
0.40242645 0.86062735 3.2494097
1.2178233 0.87292033 3.2232354
-1.8683237 0.92384052 3.2068291
-1.8289533 0.92593396 3.233273
-0.40662706 0.94777715 3.2019205
-0.37549216 0.9252432 3.2132022
-0.33818436 0.92339659 3.2389705
0.24249215 0.92217344 3.2404134
0.25714231 0.91769838 3.2239625
0.33476636 0.9294486 3.2018616
0.36908388 0.92585826 3.2257028
1.197194 0.9198817 3.2430694
1.21672 0.92413408 3.2207077
-1.8673017 0.98365051 3.2111726
-1.8300937 0.97031164 3.2336192
-0.40748549 0.98145181 3.2021697
-0.37451059 0.97263956 3.2156043
-0.33933708 0.97447926 3.2404997
0.24320459 0.97271937 3.2404945
0.25745595 0.97426796 3.216877
0.33206785 0.98034078 3.2044916
0.37261844 0.974262 3.2302537
1.2188039 0.97532886 3.2158127
-1.8704022 1.0231961 3.213119
-1.8277963 1.0220782 3.2380264
-0.40879637 1.0242999 3.2040057
-0.37836635 1.0200132 3.2198141
-0.34839782 1.0255358 3.2397492
0.24384241 1.0232202 3.2389867
0.25848925 1.0259151 3.219759
0.33217958 1.026927 3.2094383
0.37176436 1.0232075 3.2305834
0.40599504 1.0129802 3.2499743
1.2169672 1.0244401 3.2189035
-1.8683015 1.0732367 3.2110729
-1.8337581 1.0783199 3.2354124
-0.41008893 1.0673721 3.2052248
-0.37724185 1.0753391 3.2268882
-0.34948984 1.0689225 3.2410533
0.24485163 1.0756451 3.2417784
0.25839028 1.0758621 3.2072754
0.33191022 1.0760801 3.2067151
0.37123457 1.0734435 3.2334681
1.219841 1.0772053 3.2212043
-1.8690584 1.1252098 3.2133203
-1.8299633 1.1212747 3.2426608
-0.41114604 1.1180503 3.2022531
-0.37373224 1.1257774 3.2277355
0.24571638 1.1277755 3.2420094
0.25957146 1.1260468 3.21136
0.33511427 1.1170114 3.2053857
0.36476722 1.1240532 3.2335994
1.2226697 1.1256312 3.2248127
-1.8732103 1.1733414 3.2188592
-1.8443751 1.1739088 3.2421131
-0.41284141 1.1707779 3.2035878
-0.37711182 1.1761938 3.2260506
0.24649961 1.1798744 3.2404985
0.26896748 1.1761894 3.2170153
0.33727336 1.1764054 3.213171
0.36673599 1.1722176 3.2408423
1.199118 1.1615341 3.2461104
1.2267207 1.172546 3.2233829
-1.9072388 1.2296287 3.2057579
-1.8795791 1.2230595 3.2182474
-1.8433309 1.2245721 3.2396934
-0.41351625 1.2048024 3.2005916
-0.37561008 1.2243131 3.2204504
0.2471807 1.2236645 3.2391071
0.26612803 1.2088475 3.2065566
0.33423722 1.2241362 3.2113979
0.36925754 1.2253808 3.2356789
1.2196388 1.2284122 3.2277341
-1.9066169 1.277719 3.2037244
-1.871163 1.2727019 3.227598
-1.8389951 1.2713945 3.2457421
-0.40051532 1.2869331 3.2069187
-0.37541381 1.2729453 3.224879
0.24811809 1.2689654 3.2405558
0.26145631 1.2549114 3.203814
0.33470613 1.277192 3.2193685
0.36838722 1.2724153 3.2414131
1.2211583 1.2764559 3.2253859
-1.909861 1.3332273 3.2089584
-1.8759596 1.3176987 3.2259192
-1.8433101 1.3192289 3.2393517
-0.40262669 1.3262689 3.2145445
-0.37237269 1.3310535 3.2384017
0.24863589 1.3286746 3.2313688
0.32994229 1.3276798 3.2238357
0.36499763 1.328791 3.2463093
1.2221211 1.3274167 3.2287338
-1.9113712 1.3760704 3.2089427
-1.8745468 1.3744841 3.2338204
-0.41226244 1.371977 3.2135289
-0.37931016 1.3753505 3.2389953
0.24411517 1.3856975 3.2290251
0.29698083 1.3831756 3.205682
0.33096814 1.3728215 3.2221997
1.2271132 1.3764573 3.2217979
-1.9117577 1.4198745 3.2089272
-1.8779125 1.4216005 3.2298059
-0.41895634 1.4238145 3.2127571
-0.38646808 1.4253749 3.2392769
0.23828171 1.4256666 3.232173
0.26604083 1.4248271 3.2180338
0.32249045 1.4245005 3.2222352
0.35074201 1.4194986 3.2430446
1.2241437 1.4305056 3.2261183
-1.9122578 1.4724323 3.2129021
-1.880352 1.4758943 3.2376034
-0.42337719 1.4731369 3.2249353
-0.39298633 1.4566135 3.2384024
0.23192576 1.4792391 3.2324271
0.29391822 1.4764954 3.2062016
0.32809454 1.4742397 3.2322068
1.2263941 1.4800925 3.2229812
-1.9201877 1.5241661 3.2090938
-1.887664 1.5273652 3.2332385
-0.458812 1.5381441 3.2020352
-0.43228087 1.519835 3.2202044
-0.39602941 1.5179386 3.2471206
0.22786559 1.524673 3.2319002
0.31411788 1.5213052 3.2253973
1.2247127 1.5339651 3.2250378
-1.9221317 1.5697012 3.2177639
-1.8887713 1.5724603 3.2410071
-0.46066287 1.5775837 3.2032588
-0.43658462 1.5732853 3.2291527
0.22944006 1.5705585 3.2147851
0.28581667 1.5906425 3.2049389
0.31627402 1.5826793 3.2398479
1.2255911 1.571136 3.2208362
-1.9258249 1.6239038 3.2186415
-1.8868585 1.6154704 3.2432141
-0.44024462 1.6106422 3.232918
0.2242673 1.6273042 3.2294509
0.28342736 1.6380053 3.211374
0.30630064 1.6280444 3.2393153
1.228237 1.6298254 3.2255971
-1.9566288 1.6660757 3.201225
-1.9233807 1.6786147 3.2218306
-1.8917313 1.6834047 3.2489641
0.22768205 1.6736507 3.2225907
0.29015252 1.6820794 3.2288065
0.30817023 1.6717768 3.2466199
1.2218151 1.6762279 3.2284706
-1.9276632 1.7256234 3.2238116
-1.898211 1.7171599 3.2481694
0.22376953 1.722661 3.232738
0.29142603 1.7233173 3.2299287
0.3094852 1.7213316 3.2443624
1.2245308 1.726979 3.2288945
-1.9634207 1.7628284 3.2193825
-1.923342 1.7713653 3.2217281
-1.8883334 1.7814301 3.2474611
0.22817507 1.7714643 3.2316067
0.28066087 1.7815194 3.2337124
0.31094974 1.7550263 3.2497284
1.2308429 1.7740128 3.2234485
-1.9608611 1.8342227 3.2294421
-1.9239547 1.8166924 3.233562
-1.8911407 1.8028606 3.2437661
0.28564817 1.80757 3.2333012
1.2260141 1.8255329 3.2273238
-1.9680469 1.8679278 3.2086079
-1.9246265 1.8735815 3.2328165
1.2310047 1.876044 3.2196219
-1.965041 1.9327542 3.2149198
-1.9228172 1.9361674 3.2386005
-1.8966898 1.9214 3.2499316
1.2268765 1.9292473 3.2239881
-1.9678488 1.9736577 3.2084291
-1.9320738 1.9838108 3.2347782
1.2245871 1.9693508 3.2235336
-1.9696791 2.0254834 3.2124603
-1.9276314 2.029618 3.2375529
1.2216387 2.0219865 3.2281108
-1.9762733 2.0788474 3.2136536
-1.9372301 2.0784163 3.2329347
1.2269778 2.0745206 3.2251813
-1.9718422 2.1254017 3.2150693
-1.9357828 2.1364801 3.2424946
1.2289151 2.1371601 3.2312706
1.2503742 2.1442072 3.2092872
-1.963557 2.1766126 3.2212837
-1.9322851 2.1828914 3.2447338
1.2293229 2.1739218 3.2247522
-2.0004497 2.2424974 3.2002978
-1.9708843 2.2239444 3.2101886
-1.9231555 2.2315855 3.2397156
1.2275547 2.2243161 3.2267737
-1.9661808 2.2778368 3.2115397
-1.9267906 2.2778542 3.2320378
-1.8868619 2.2870662 3.2451918
1.224336 2.2777712 3.2268009
1.2505529 2.2880619 3.2002523
-1.9506288 2.3123457 3.2105036
-1.9226778 2.3242426 3.2225199
-1.8887156 2.3303301 3.2428036
1.2193546 2.3285389 3.2215307
-1.9134798 2.3547604 3.2101371
-1.8683275 2.3605545 3.2243068
-1.8163894 2.3737984 3.2214296
-1.7737324 2.3792815 3.2281232
-1.7268676 2.378633 3.2260008
-1.6783317 2.3861654 3.2229993
-1.6400629 2.3955216 3.2255392
-1.5836322 2.3934388 3.2242894
-1.5312467 2.3969502 3.229619
-1.4875569 2.3888383 3.2339292
-1.4093688 2.3897843 3.2227221
-1.3930304 2.3945401 3.2361286
-1.1197884 2.399827 3.2115412
-1.0614418 2.395021 3.2208676
-1.0234466 2.3936586 3.2289724
-0.98094684 2.3998258 3.210351
-0.92775655 2.3897099 3.2183385
-0.87648368 2.3938618 3.2265329
-0.82184768 2.3879566 3.2204742
-0.76928538 2.3838594 3.2221425
-0.73022956 2.3828533 3.2157929
-0.67929631 2.3834476 3.2281251
-0.62582898 2.3763192 3.2122569
-0.58078337 2.3788471 3.2225819
-0.52435035 2.3810041 3.2152958
-0.47029313 2.3843806 3.2266653
-0.42662254 2.3814857 3.221632
-0.37765801 2.376025 3.2249968
-0.33225322 2.3768461 3.2301161
-0.26824823 2.3743262 3.2313979
-0.23039038 2.3680947 3.2075264
-0.17718337 2.3822479 3.2294648
-0.13151187 2.3772697 3.2244673
-0.067972802 2.3765695 3.2251003
0.022767238 2.3869507 3.2308626
0.077357322 2.3888354 3.2327156
0.13162412 2.3851082 3.223325
0.16837342 2.3942251 3.228374
0.3159602 2.3998938 3.2450771
1.1888485 2.3785367 3.238694
1.2135271 2.374692 3.2119119
-1.6148622 2.4014418 3.2460885
-1.5634915 2.4019923 3.2245955
-1.4639838 2.401022 3.2197819
-1.4416965 2.4119058 3.2453856
-1.3785965 2.405231 3.2162542
-1.325127 2.4081273 3.2292478
-1.2707043 2.4186628 3.2328799
-1.2164034 2.4147933 3.224448
-1.1737199 2.4049194 3.2228949
-1.1301814 2.4022732 3.225275
-1.0831646 2.4017203 3.2247164
-0.97568798 2.4003313 3.2316232
-0.068541475 2.4135551 3.2395926
-0.031797253 2.4165359 3.2175391
0.0045866203 2.4023299 3.2251475
0.24087936 2.4182525 3.2039127
0.27264488 2.4252825 3.2230299
0.32356808 2.4066975 3.2179914
0.3669019 2.4087014 3.2312508
0.4299612 2.4133823 3.2313333
0.48115298 2.420083 3.2201807
0.52871931 2.4282022 3.2251763
0.5799498 2.426079 3.2242367
0.62376201 2.4309978 3.2334557
0.66648853 2.4336514 3.2264538
0.73109132 2.4391508 3.2170656
0.77284855 2.4415429 3.2279055
0.82465953 2.4421015 3.230567
0.8761341 2.4408143 3.2302425
0.92141277 2.4422834 3.2282646
0.97413051 2.4407396 3.2228458
1.0323354 2.4382069 3.226764
1.0726006 2.4336953 3.2196822
1.1288731 2.4285975 3.2316608
1.1719679 2.4203098 3.2198524
0.82156819 2.4515285 3.2068892
0.6882087 -0.50903207 3.262579
0.63177806 -0.46412241 3.2564328
0.67522138 -0.48020276 3.2656467
0.714773 -0.46303868 3.2761512
0.54043067 -0.4101164 3.2616391
0.57457089 -0.41195622 3.2727118
0.62699783 -0.42577657 3.2672229
0.65887296 -0.4238171 3.2547417
0.72927123 -0.43248111 3.2624123
0.5397324 -0.37808558 3.2598965
0.57757151 -0.37547454 3.28421
0.62510139 -0.37412015 3.2858784
0.67261153 -0.37856597 3.2620823
1.1597729 -0.37334797 3.2784402
0.54042071 -0.33122018 3.267411
0.57443613 -0.3208248 3.2877419
0.63009453 -0.32090038 3.2913468
0.67578977 -0.32628542 3.2654335
0.71973819 -0.31341746 3.2578731
1.1656393 -0.32335511 3.2700143
0.5310145 -0.27521312 3.2621012
0.57384664 -0.26992768 3.2897108
0.64176303 -0.27890724 3.2938349
0.6730479 -0.26943782 3.2713962
0.71077746 -0.2738488 3.2715902
1.1649984 -0.27523285 3.279218
-1.7210269 -0.20362172 3.2620869
0.47504988 -0.21975835 3.2643454
0.52255005 -0.23561417 3.2611008
0.56649041 -0.23757479 3.2839828
0.65820128 -0.23923178 3.2962899
1.1685978 -0.231902 3.2729232
-1.717929 -0.17211458 3.2657759
-1.698885 -0.16145849 3.2798719
0.36522594 -0.18841057 3.2756257
0.44334096 -0.18822899 3.2662468
0.47684711 -0.17455091 3.2646086
0.52449137 -0.17604673 3.2883182
1.1713967 -0.18080817 3.2746871
-1.7210039 -0.11862629 3.2649705
-1.6970381 -0.11874173 3.2775719
0.48217788 -0.1253515 3.2617838
0.51631182 -0.12603085 3.2762966
1.1757182 -0.12999453 3.271868
-1.7205738 -0.066168301 3.2704928
-1.6872535 -0.050920933 3.2992558
0.48287967 -0.078432746 3.2674015
0.51793242 -0.07897757 3.2874947
1.1760762 -0.081207186 3.2738914
-1.7240433 -0.025183894 3.2721779
0.48002559 -0.029132614 3.2716959
0.51421094 -0.0355305 3.2898688
1.1769047 -0.032393806 3.2767549
-1.7272561 0.015656494 3.2666202
-1.69126 0.028705562 3.2808635
0.44092196 0.015665527 3.2517922
0.47562543 0.023657165 3.2725923
0.51098782 0.01591377 3.2951438
1.1763929 0.024604112 3.2752984
-1.724093 0.069930963 3.2664161
-1.6919488 0.068557478 3.2882729
0.47563064 0.078660473 3.2719679
0.51160252 0.087302729 3.2983408
1.1771606 0.081653863 3.2767956
-1.7238821 0.11954892 3.2702332
0.44145679 0.12505706 3.2541063
0.47640455 0.12603241 3.2763529
0.51177198 0.11113553 3.2989554
1.1779487 0.13061219 3.2778533
-1.7251091 0.16897026 3.2656097
-1.698667 0.18767707 3.2781644
0.44199762 0.17216493 3.2566624
0.47672859 0.17339768 3.2771602
0.51186371 0.15876557 3.2982416
1.1787254 0.17963439 3.2784147
-1.7262818 0.22172929 3.2655153
0.44237077 0.21924622 3.2575386
0.47828355 0.22137059 3.2859464
1.1832823 0.22622402 3.2749143
-1.7262419 0.27317074 3.2678909
0.4397718 0.2759662 3.2588494
0.47664323 0.27192038 3.2832153
1.1823053 0.27790141 3.2774055
-1.7526754 0.32449862 3.2560656
-1.721464 0.32503298 3.2748342
0.43536481 0.32947755 3.2581451
0.47135606 0.32741961 3.2798388
1.1808113 0.3270556 3.2763138
-1.7630703 0.37643507 3.2558811
-1.7235388 0.3767367 3.2747247
0.14458773 0.39065111 3.2575142
0.16872579 0.39230826 3.2705843
0.44141069 0.3822881 3.2698832
0.47795454 0.38078365 3.2879767
1.1821787 0.37653679 3.2764626
-1.758901 0.42836401 3.2588556
-1.725813 0.42863631 3.2743738
-1.695238 0.44672093 3.2929018
0.17714639 0.42509145 3.2787933
0.43733636 0.42551407 3.2656848
0.47530821 0.42600915 3.2838359
1.182506 0.42444131 3.2795708
-1.7657199 0.48470959 3.2560482
-1.7294295 0.48105061 3.2759743
-1.6971465 0.48161426 3.2930336
0.17916468 0.4705582 3.2757597
0.20729528 0.48490268 3.2503433
0.43876973 0.47263384 3.2601299
0.47230038 0.47627842 3.2823992
1.1838706 0.47621644 3.2784429
-1.7616014 0.52332556 3.2536664
-1.726787 0.52776074 3.2788708
0.18579797 0.52175903 3.2830422
0.20861651 0.53521734 3.2661867
0.43461111 0.52084631 3.2616925
0.47386196 0.52563035 3.2884367
1.1851425 0.52511519 3.2705591
-1.7628273 0.5799287 3.2619829
-1.7213423 0.56874877 3.2819049
-1.6841609 0.55172688 3.2998071
0.18794808 0.56772631 3.2880726
0.20839007 0.58182138 3.257288
0.43272239 0.56902587 3.261457
0.47472939 0.57446378 3.2891486
1.1865207 0.57803053 3.2745209
-1.7638373 0.62144721 3.2647798
-1.7219632 0.62188464 3.2840607
0.19456059 0.61927396 3.286082
0.21538615 0.63425624 3.261687
0.43495345 0.62398928 3.2669039
0.46728849 0.61985207 3.2882924
1.1820368 0.62623435 3.274579
1.2013961 0.63985103 3.2515728
-1.7649608 0.67364073 3.2592032
-1.7254328 0.67504203 3.2831092
-1.6938791 0.69356602 3.2996228
0.19471607 0.67541683 3.281426
0.21326885 0.67529446 3.2602632
0.42853794 0.67201084 3.2671683
0.46495104 0.67143744 3.2840984
1.1838695 0.67671579 3.2727811
-1.7684078 0.72685528 3.2572486
-1.7299666 0.728872 3.2834878
0.19565994 0.7265752 3.2905779
0.21808517 0.72954583 3.2658379
0.42666361 0.72717488 3.2626078
0.46038845 0.72060305 3.2832947
1.1793752 0.72855324 3.2779484
-1.7685604 0.78385395 3.2627332
-1.7280929 0.77980489 3.28282
-0.26650348 0.78455913 3.2674427
-0.23524702 0.76600647 3.2806072
0.19573618 0.75083077 3.2882869
0.21857992 0.77887648 3.2660413
0.42655611 0.78133088 3.2624454
0.46059838 0.77168399 3.2890441
1.1850679 0.78123188 3.270942
-1.7667402 0.82514536 3.2648044
-1.7206038 0.82520014 3.2892046
-0.31400749 0.84295058 3.2519896
-0.28139931 0.82471031 3.2721574
-0.23634215 0.80149639 3.290221
0.19706929 0.83636969 3.2977555
0.21841957 0.82574016 3.2736363
0.42219281 0.83098871 3.2622082
0.45481312 0.82110852 3.2865751
1.1886666 0.82867652 3.2730503
-1.7740076 0.87224901 3.2614717
-1.7283131 0.87228745 3.2903593
-0.31510216 0.87784702 3.2577577
-0.28019905 0.87716323 3.2825096
0.19726729 0.86943167 3.2954693
0.22319075 0.87908989 3.2674851
0.42351004 0.87904406 3.2697973
0.45673206 0.87308693 3.292022
1.1858872 0.87225407 3.2795558
1.2030839 0.89942229 3.2639918
-1.8003669 0.94669968 3.2557387
-1.7727598 0.92850429 3.2679386
-1.7308817 0.91632903 3.2918494
-0.30821022 0.92901826 3.260823
-0.27657229 0.92284691 3.288974
0.19783346 0.90420461 3.2991242
0.22048087 0.92999458 3.2690887
0.42245254 0.9252519 3.268959
0.45845652 0.92505068 3.29547
1.1847169 0.91657293 3.2811313
1.2032788 0.94954026 3.2544482
-1.8024147 0.97410131 3.2535291
-1.7709244 0.9760716 3.2746887
-1.7386268 0.96885258 3.2961674
-0.31094152 0.97739905 3.2636528
-0.27885747 0.97036391 3.288027
0.19870616 0.98929155 3.2980046
0.22279406 0.97799617 3.2705677
0.4234167 0.97575951 3.2669067
0.45932531 0.95931739 3.2954328
1.1838859 0.97374016 3.2838082
1.2053466 0.97620279 3.254755
-1.8058867 1.0111396 3.251621
-1.7756561 1.0227678 3.2732224
-1.7358227 1.0206578 3.2957683
-0.31838652 1.0267878 3.2641265
-0.2798712 1.0225776 3.2899573
0.19933328 1.0412279 3.2982457
0.22238396 1.0269338 3.2792561
0.43164763 1.028272 3.2786245
0.46089876 1.0197122 3.2950475
1.189556 1.0259038 3.277621
1.2071741 1.0194608 3.2505405
-1.8123966 1.0677184 3.250401
-1.7795609 1.0772396 3.2723808
-1.7471262 1.0620706 3.2917218
-0.31925955 1.0754564 3.2631221
-0.28041726 1.0733625 3.2857668
0.19994794 1.0934042 3.2976511
0.22110081 1.0722193 3.2747593
0.39210343 1.0995095 3.2515912
0.42761037 1.0750258 3.2800558
1.1922644 1.0787969 3.2734623
-1.8093462 1.1290216 3.256587
-1.769876 1.1220088 3.2849467
-0.31854749 1.1225156 3.2668464
-0.28585136 1.1234419 3.2910392
0.22315069 1.1197776 3.2706831
0.39354214 1.1279049 3.2577944
0.42077318 1.1274686 3.2799337
1.1937274 1.1223078 3.2673178
1.2020245 1.1474746 3.2583082
-1.8192211 1.1748849 3.2564144
-1.778336 1.1772316 3.2818248
-1.7424481 1.1859789 3.2935486
-0.32178488 1.1736522 3.2678277
-0.28577295 1.1764016 3.2945435
0.22422425 1.1741269 3.2748117
0.28229612 1.194572 3.2791152
0.39089426 1.1767678 3.2589631
0.42243871 1.1811757 3.281112
1.1850464 1.1725974 3.2837276
1.2048501 1.1840012 3.25721
-1.8146216 1.2228808 3.2637832
-1.7769758 1.2270249 3.2869806
-1.7486569 1.2170284 3.2978165
-0.32285771 1.2266616 3.2663209
-0.29192707 1.2175069 3.2922137
0.22153573 1.2252055 3.2752173
0.28232965 1.2110826 3.275367
0.39711896 1.2282439 3.264946
0.42074624 1.2224522 3.2797387
1.1824988 1.2254397 3.2831085
1.2058148 1.2018776 3.2553203
-1.8140844 1.2727333 3.2609375
-1.7743239 1.2763362 3.2892103
-0.35610047 1.2938703 3.2509491
-0.32631081 1.2790586 3.2674389
-0.29235512 1.2605011 3.2863135
0.22713557 1.2758993 3.2686353
0.39045739 1.2823105 3.2651358
0.41804922 1.2831678 3.2885013
0.45239675 1.2783856 3.2967503
1.1927035 1.2827834 3.2771358
1.2057574 1.2614782 3.2664652
-1.8224719 1.3236493 3.2620716
-1.7830921 1.3233078 3.2840409
-0.35660636 1.3121108 3.2509775
-0.32411814 1.3278275 3.279443
0.22316514 1.3284996 3.2739398
0.38302451 1.3261799 3.2611978
0.41136673 1.3213742 3.292737
1.1886131 1.325431 3.2807598
1.2021887 1.3351408 3.2622943
-1.8546486 1.3544286 3.2505205
-1.8225121 1.375479 3.2676058
-1.7780076 1.3760295 3.2882977
-0.36004463 1.3910036 3.2630429
-0.3301985 1.3735682 3.2807782
-0.29580772 1.375416 3.2972095
0.21910746 1.3750429 3.2718101
0.37814468 1.3796215 3.2789729
0.40414637 1.3583052 3.2929797
1.1867064 1.3758097 3.2827785
1.2038294 1.3712677 3.2562428
-1.8261915 1.4289492 3.2700558
-1.7843932 1.4257649 3.292923
-0.36742076 1.4271111 3.2591357
-0.3316381 1.4230512 3.2852445
0.21332872 1.4244272 3.2714267
0.37197009 1.4233624 3.2665312
0.40666416 1.4255009 3.2960327
1.1877943 1.4225985 3.2832341
1.2075436 1.418468 3.2527013
-1.8529763 1.4758123 3.250056
-1.8253528 1.46832 3.2741535
-1.7890828 1.4831946 3.2985284
-0.3765327 1.4799578 3.2664409
-0.34003806 1.4867274 3.2886491
0.20852113 1.4680908 3.276144
0.36315545 1.4776126 3.2666187
1.1910582 1.4716825 3.2775414
1.2081463 1.4814053 3.2629352
-1.863739 1.5210471 3.2554357
-1.8264891 1.5254278 3.2783093
-1.7939221 1.514755 3.297574
-0.41428253 1.5404812 3.2523847
-0.37937739 1.5265589 3.267067
-0.34294063 1.5307546 3.2874882
0.1836011 1.5248243 3.28934
0.20543666 1.5259551 3.2769406
0.33850014 1.5379168 3.2532287
0.37041816 1.5151827 3.2768123
1.1924442 1.5246397 3.2678859
1.210604 1.5103765 3.2605538
-1.866189 1.5771471 3.2545474
-1.8241428 1.5742947 3.2791953
-0.41607961 1.5808169 3.2548637
-0.37492636 1.5762863 3.2695079
-0.33556011 1.5976902 3.2966933
0.18977582 1.5686374 3.285526
0.20600028 1.5806137 3.2688658
0.33903819 1.5571094 3.2527034
0.36326611 1.5671467 3.2822459
1.1873062 1.5718186 3.279187
1.2061687 1.5767133 3.2528138
-1.858397 1.614769 3.2547126
-1.8265743 1.6192636 3.280484
-0.41832921 1.6231664 3.2604914
-0.37550509 1.6040437 3.2657022
-0.33381751 1.6063031 3.2736423
0.19059366 1.6262232 3.2819993
0.20647149 1.6263624 3.2615294
0.33542114 1.6255786 3.2641678
0.36087126 1.621887 3.2831202
1.1899621 1.622229 3.2817616
1.2103906 1.6171985 3.2512417
-1.8674904 1.6711508 3.2645259
-1.8301719 1.6718705 3.2863574
0.18549012 1.6765233 3.2757432
0.20740101 1.6760294 3.2607658
0.33403558 1.6794688 3.2677574
0.36382189 1.6779755 3.2944241
1.187158 1.6704547 3.2793686
1.2025574 1.6831439 3.2621443
-1.872036 1.7281666 3.2604554
-1.836632 1.7261152 3.2876351
0.19245511 1.7191591 3.2857528
0.29340899 1.7349902 3.2519746
0.33531716 1.7292747 3.277241
1.1867133 1.7339029 3.2848253
1.2049042 1.7217603 3.2544279
-1.8666397 1.7709482 3.2644696
-1.8287573 1.7778817 3.2928183
0.1933285 1.7613161 3.2874317
0.20930304 1.7597713 3.2645073
0.33124751 1.7809818 3.277184
1.1908219 1.7782704 3.2739308
1.2109801 1.774837 3.2525101
-1.9006335 1.8307871 3.2513478
-1.8682613 1.8248056 3.2737002
-1.8343767 1.8210678 3.2946396
0.32355353 1.8118849 3.2765949
0.35211226 1.8258967 3.2999692
1.1916221 1.8200498 3.2764933
1.2022812 1.8419256 3.259295
-1.875214 1.8727512 3.2695866
-1.8369904 1.8711054 3.2947216
1.1907182 1.8768342 3.2874975
1.2050948 1.8731368 3.2549934
-1.8690445 1.9204553 3.2711658
-1.8391014 1.9210806 3.2932765
1.1888072 1.923679 3.2836013
1.2115991 1.9192978 3.2561722
-1.9081968 1.971343 3.2505298
-1.8774287 1.9726804 3.2764938
-1.8326857 1.9532268 3.2981293
1.1905574 1.9672407 3.2741642
1.2003647 1.975518 3.2586734
-1.9049681 2.0458386 3.2573802
-1.8783188 2.0245605 3.2761929
-1.8444057 2.0139174 3.2951889
1.1889604 2.0275383 3.2863333
1.2068528 2.01355 3.2630672
-1.9138247 2.0844588 3.2569537
-1.8750439 2.0747032 3.2808852
-1.8360028 2.0743566 3.2987833
1.1931243 2.0736864 3.2905324
1.2007874 2.080153 3.2789586
-1.9108807 2.1311331 3.2609358
-1.8718196 2.1283648 3.2838407
-1.8460917 2.124752 3.2961268
1.1916625 2.1243267 3.2958417
1.2088956 2.1231666 3.2681932
-1.9118595 2.1818991 3.2531273
-1.8752512 2.1848116 3.2767389
-1.8399478 2.1991813 3.2968874
1.186272 2.1707332 3.2812703
1.2074376 2.1750178 3.2535906
-1.8805128 2.2329633 3.273315
-1.8420787 2.2213926 3.2895432
1.1903992 2.2227981 3.2761927
1.2139212 2.2146149 3.2558434
-1.8691896 2.2825584 3.2743988
-1.8436642 2.2748652 3.291719
1.0496901 2.2773468 3.2816477
1.0689436 2.2599316 3.2890279
1.1817858 2.2721996 3.2851768
1.2030389 2.2663922 3.2615564
-1.8630875 2.3246567 3.2612698
-1.8255752 2.3360004 3.2869332
1.0824292 2.3452113 3.2983847
1.1758791 2.3296568 3.2767541
-1.8191152 2.3605919 3.267312
-1.7867235 2.3746285 3.2758818
-1.7230662 2.3690922 3.2685475
-1.6760724 2.3799629 3.2737207
-1.6279503 2.3875518 3.2799544
-1.5699993 2.3975639 3.2804837
-1.5261297 2.3882828 3.2755928
-1.4704938 2.3935924 3.2802863
-1.4450017 2.3980877 3.2648625
-1.3875834 2.399056 3.2872224
-1.1753365 2.399204 3.2738731
-1.1128784 2.3971362 3.2688456
-1.070963 2.3976042 3.261193
-1.0220425 2.3935218 3.2680867
-0.96479166 2.3916655 3.2795739
-0.92340946 2.3914299 3.2696502
-0.8743878 2.3902304 3.2692833
-0.83115005 2.3897955 3.281002
-0.77805448 2.3908999 3.2710204
-0.72128159 2.3881352 3.2775881
-0.67058921 2.3857422 3.2798073
-0.62408191 2.3864257 3.2633407
-0.57727981 2.384016 3.2668984
-0.53061444 2.3818426 3.27018
-0.47413957 2.3762386 3.269284
-0.41898268 2.3814702 3.273504
-0.37196064 2.3707194 3.2721503
-0.32141632 2.3747754 3.2730155
-0.27067634 2.3748319 3.2737408
-0.22463755 2.375777 3.271883
-0.18332174 2.3800056 3.2707224
-0.12412872 2.3920739 3.2805417
-0.059725329 2.3814321 3.2852716
-0.022851624 2.3720438 3.2727497
0.022983663 2.3767312 3.2792299
0.073370852 2.3796117 3.2736287
0.1242701 2.3930149 3.281863
0.17886271 2.3939571 3.2632127
0.27188849 2.3967462 3.2799015
0.33669776 2.3988259 3.2779791
0.35478017 2.3963659 3.2730651
0.41252032 2.392169 3.29828
1.1321729 2.3823349 3.2877729
1.1658033 2.3734486 3.264631
-1.5792549 2.4066353 3.2694161
-1.4199479 2.4047432 3.2845922
-1.3689106 2.4026215 3.2573304
-1.3342855 2.4094777 3.2799647
-1.2769684 2.4114285 3.2606938
-1.2321721 2.4173687 3.2840562
-1.1790888 2.4068575 3.2842598
-1.1234168 2.4030778 3.2813313
-1.0723759 2.4007816 3.2655692
-0.98433876 2.4027905 3.2717197
-0.10571356 2.4100335 3.269726
-0.077978894 2.4145634 3.2585866
0.1890249 2.4160421 3.2749116
0.2221261 2.4190211 3.2700729
0.29272479 2.403409 3.2636003
0.32690799 2.4041066 3.2679811
0.38639936 2.4081647 3.274359
0.42474699 2.4057724 3.2702744
0.4773289 2.4196124 3.2744491
0.52364916 2.4194729 3.2685125
0.57159317 2.4263415 3.2715528
0.61929697 2.4218924 3.2768071
0.67729205 2.42644 3.2800796
0.72455114 2.4407206 3.2669344
0.77396333 2.4351776 3.2781272
0.83087778 2.4369636 3.2693105
0.87158698 2.4380147 3.2780316
0.93091679 2.4390543 3.2789421
0.97550201 2.4352355 3.2861283
1.0245354 2.4286969 3.2734976
1.0723473 2.4209218 3.2796702
1.1200863 2.4166019 3.2660217
1.1608517 2.4078207 3.2511566
0.71296114 -0.48320368 3.3044808
0.76433617 -0.40426016 3.3176482
1.132983 -0.38240412 3.3254018
0.61257982 -0.3121497 3.3105724
0.74239171 -0.30485016 3.3012857
1.1306643 -0.32846063 3.3309
1.1547678 -0.33676863 3.303091
0.59390712 -0.27093068 3.3000264
0.62501591 -0.27028796 3.3170063
0.73785341 -0.27409643 3.3198295
1.1351708 -0.2805129 3.3273785
1.1550608 -0.29575831 3.3065956
0.49636522 -0.22227053 3.3001454
0.59578127 -0.23980264 3.3120453
0.63080949 -0.24097447 3.3243589
0.68788421 -0.24123487 3.3206813
1.1357683 -0.23109907 3.3317044
1.1522665 -0.22124562 3.3024793
0.54493767 -0.15901296 3.3032124
0.57879269 -0.17412865 3.3223245
0.61359024 -0.18154994 3.3447142
1.1363081 -0.18163532 3.335331
1.152307 -0.17203563 3.3045583
0.54628396 -0.12750985 3.3122413
0.57204014 -0.12790991 3.3201811
0.60086602 -0.12895311 3.3443387
1.136 -0.1351265 3.3306611
1.1547405 -0.13131757 3.3127806
-1.6962761 -0.076969489 3.3165536
0.54538089 -0.079544999 3.3077137
0.57250971 -0.079986058 3.3237793
0.60078156 -0.080542594 3.3448331
1.1369355 -0.08251103 3.3397691
1.1526319 -0.081869297 3.3077762
-1.6880111 -0.016755357 3.3009629
0.53864938 -0.028567607 3.3066049
0.57667828 -0.029685497 3.3281302
0.60088551 -0.040253893 3.3458743
1.1373208 -0.032867849 3.3362041
1.1542221 -0.032677609 3.3128862
-1.7008759 0.00034155397 3.3261371
-1.6945449 0.017500851 3.3137095
0.53537065 0.026648806 3.3129375
0.57420141 0.024173232 3.3341157
0.60035461 7.6703363e-05 3.3430576
1.1391472 0.019447627 3.3380849
1.1525872 0.024781754 3.308183
-1.6944118 0.060410686 3.3130431
0.53497118 0.077539153 3.3146927
0.57145399 0.076546982 3.3415229
1.1448168 0.08282382 3.3365562
1.1537312 0.08228334 3.3108094
-1.6951221 0.1290842 3.3129621
0.53306371 0.12982343 3.3178859
0.56737518 0.12880923 3.3406065
1.1410261 0.12831798 3.3375173
1.1556855 0.13175295 3.3152969
-1.698205 0.18951891 3.3168604
0.53351969 0.1778706 3.3191743
0.56768078 0.17721504 3.3409221
1.1411055 0.18623877 3.3358669
1.1558074 0.18115461 3.3140221
-1.7071217 0.22396415 3.312752
0.5259704 0.22569904 3.3117921
0.56079739 0.22212061 3.3371327
1.1411171 0.23584336 3.3337355
1.1616102 0.23364611 3.3079708
-1.6943601 0.27487984 3.3049138
0.52647698 0.26924327 3.3127816
0.56598234 0.27428794 3.342571
1.1418655 0.27734923 3.333714
1.1611192 0.28016573 3.3117256
0.49753222 0.31844947 3.3024018
0.5235545 0.31975919 3.3134632
0.56090564 0.32286027 3.342128
1.148241 0.33177504 3.3358345
1.1580564 0.32987285 3.3125508
-1.7050786 0.38023043 3.3183229
0.49897057 0.36728364 3.3086443
0.5253821 0.3689889 3.321665
0.55700207 0.37136829 3.3400064
1.1419239 0.38496566 3.3344052
1.1566609 0.37886491 3.3049023
-1.7041634 0.41455349 3.313535
-1.6942043 0.4401167 3.3117247
0.099987 0.41571474 3.3330784
0.13703492 0.42567492 3.3258114
0.16264986 0.43626449 3.303318
0.49886799 0.43902665 3.3021722
0.52682185 0.41826475 3.3269989
0.5544154 0.42092061 3.3454568
1.1431704 0.431878 3.3341384
