ply
format ascii 1.0
comment PCL generated
element vertex 1516
property float x
property float y
property float z
element camera 0
property float view_px
property float view_py
property float view_pz
property float x_axisx
property float x_axisy
property float x_axisz
property float y_axisx
property float y_axisy
property float y_axisz
property float z_axisx
property float z_axisy
property float z_axisz
property float focal
property float scalex
property float scaley
property float centerx
property float centery
property int viewportx
property int viewporty
property float k1
property float k2
end_header
1.136798 -0.23131005 3.3347139
1.1560287 -0.23017775 3.3128738
-1.6904517 -0.15372932 3.3033001
0.54536247 -0.17505738 3.3052695
0.58045387 -0.17602883 3.320044
0.61782211 -0.17757483 3.3454621
1.140789 -0.18582511 3.3352118
1.1552533 -0.18071593 3.3127024
-1.6921697 -0.11960527 3.3076298
0.54440004 -0.12707117 3.3008354
0.57992637 -0.1278777 3.3184116
0.61778915 -0.12912799 3.3467121
1.1401846 -0.1361613 3.3350613
1.1589488 -0.13543475 3.3119953
-1.6881492 -0.068225488 3.3107564
0.54546613 -0.079541199 3.3082314
0.58077449 -0.080007009 3.3242519
0.61677772 -0.080534689 3.3421981
1.1432005 -0.082377039 3.3319676
1.1567178 -0.082152039 3.3195019
-1.6939785 -0.025374178 3.312592
0.54556274 -0.031778727 3.3093128
0.57666606 -0.034283511 3.3280628
0.60078526 -0.024118971 3.3454072
1.1432569 -0.032824814 3.332679
1.1546934 -0.03270011 3.3142385
-1.6940662 0.017494626 3.312752
0.53715378 0.023947882 3.3073335
0.57270354 0.024104051 3.32547
0.60067016 0.016213661 3.3447523
1.1433809 0.024919629 3.3330307
1.1598965 0.019365996 3.3122072
-1.6913528 0.06886407 3.3069217
0.5382511 0.079816118 3.3135004
0.57378602 0.080315448 3.3311424
0.60141885 0.064651683 3.348532
1.1447997 0.082842708 3.3365061
1.1623113 0.079156533 3.315083
-1.6955992 0.12051126 3.314122
0.53872108 0.12775396 3.3153362
0.57545757 0.12885059 3.3398321
0.6011495 0.12916946 3.3457623
1.1462117 0.13257585 3.3394969
1.1630539 0.13514586 3.3159523
-1.6950842 0.17200392 3.311455
0.5327782 0.17762046 3.3145475
0.57442683 0.17729457 3.3418782
1.1454538 0.18211769 3.3356607
1.1638939 0.18114097 3.3116944
0.53149319 0.22381973 3.3173168
0.57668847 0.22588325 3.3435338
1.1471184 0.23207355 3.3383725
1.1581625 0.23096816 3.3186429
-1.6925037 0.26601517 3.30182
0.53082061 0.26501793 3.3111911
0.5681653 0.27404836 3.3392959
1.147745 0.28191605 3.3375504
1.1630417 0.28062409 3.3172035
-1.7058235 0.32857579 3.3238418
-1.694418 0.34529155 3.320406
0.52717179 0.32353091 3.3104196
0.56330842 0.31730846 3.3404129
1.14361 0.33165988 3.3354251
1.1661302 0.32983086 3.3101256
-1.6952726 0.38333601 3.3088796
0.068036526 0.39986083 3.3360107
0.49910921 0.39931408 3.3071356
0.5245561 0.36841694 3.3164365
0.55976278 0.37482446 3.3415291
1.15925 0.3789281 3.3272426
-1.6899594 0.42715621 3.3146632
-0.07560531 0.43820733 3.3199511
0.13652875 0.42946583 3.3312764
0.16264632 0.44417676 3.3025582
0.49913317 0.4232814 3.3053117
0.52421373 0.42167324 3.3174675
0.56490886 0.4152855 3.3428519
1.1496481 0.44840688 3.3305504
1.162521 0.42571145 3.3179684
-1.6734092 0.48324338 3.3153446
-0.075985678 0.4803994 3.3329992
0.14424163 0.48471975 3.3330984
0.16314243 0.47736943 3.309696
0.52747148 0.47755221 3.3183811
0.5578844 0.46898302 3.3372142
1.1418327 0.46078587 3.3416688
1.1613806 0.48629737 3.3175371
-1.7039423 0.53530353 3.3003862
-1.6660154 0.52267152 3.3136044
-1.6317794 0.52841878 3.3409178
-0.075768635 0.52694601 3.3186836
0.14848371 0.52956277 3.3335044
0.16990429 0.52637374 3.3127866
0.4997187 0.51173413 3.3009276
0.52334052 0.53081459 3.3163352
0.55553985 0.52718395 3.3423088
1.1400571 0.51799661 3.3484037
1.1595234 0.5321517 3.3246481
-1.6710993 0.57038236 3.3122499
-1.6251061 0.57381707 3.3373592
-0.07592611 0.56803638 3.3212299
0.14897744 0.57961094 3.3393154
0.16836947 0.57323164 3.325212
0.52496457 0.58314794 3.3210046
0.56786293 0.58183223 3.3330657
1.1401165 0.5764941 3.3419552
1.1619859 0.57909596 3.3211269
-1.674664 0.62353873 3.3124733
-1.6270808 0.62518668 3.3400979
-0.15743296 0.63817286 3.343833
-0.14151037 0.63921702 3.3497887
-0.09201473 0.60863036 3.3195107
0.14951409 0.62209487 3.3465447
0.17112981 0.62984705 3.3256519
0.48565817 0.64220881 3.3007202
0.52094817 0.62996262 3.3195035
0.56470025 0.62568289 3.3363562
1.1424873 0.61954647 3.3437042
1.1610843 0.62442166 3.3180568
-1.6752093 0.67440331 3.3114657
-1.6281123 0.67769295 3.3348143
-0.15771887 0.67170703 3.3456995
0.16988698 0.6795513 3.3312557
0.48589009 0.65857816 3.3001833
0.52177674 0.67950392 3.318408
0.55820793 0.66827267 3.3417988
1.1446073 0.67941028 3.3420017
1.1609131 0.67023337 3.3166111
-1.6738473 0.73083705 3.315609
-1.6321367 0.72663224 3.3357904
-0.18140522 0.74222362 3.3242803
0.17028382 0.72725832 3.3323052
0.48763743 0.7254433 3.302989
0.51813823 0.72780162 3.3237181
1.1419966 0.72654951 3.3408804
1.1655625 0.71876556 3.3178921
-1.6674376 0.77279431 3.322593
-1.6329015 0.76953125 3.3447561
-0.20538378 0.77361709 3.3144398
-0.19011052 0.77706319 3.3297997
0.18174447 0.77550536 3.3236208
0.52598375 0.77192408 3.3323693
0.56231236 0.78809762 3.3495953
1.1477499 0.76536798 3.3385069
1.1657896 0.77382332 3.3213985
-1.6723001 0.82132435 3.3179986
-1.6380159 0.82820606 3.3417783
-0.21722901 0.8255887 3.3111961
-0.18298495 0.83000112 3.3401508
0.184012 0.82306248 3.3206615
0.49010873 0.83442652 3.3030319
0.52151281 0.82038969 3.3264241
1.1357962 0.81087238 3.3499293
1.1618156 0.82172936 3.323755
-1.6770585 0.87981951 3.3254268
-1.6368443 0.87553871 3.3457375
-0.25445303 0.87276179 3.3055737
-0.22265771 0.87492043 3.3152149
-0.19118498 0.87908316 3.332372
0.1847267 0.87494147 3.3250475
0.49274573 0.87964684 3.3136699
0.52272147 0.87309712 3.3381717
1.161855 0.87390381 3.3232687
-1.7115612 0.92581159 3.3072519
-1.6735333 0.9237203 3.3315189
-1.6341782 0.91663665 3.3495965
-0.25489417 0.92285657 3.302398
-0.2236558 0.92767948 3.321193
-0.18670611 0.91628867 3.3436749
0.18771899 0.92290527 3.3232334
0.48512211 0.92949849 3.3088806
0.52233875 0.92130309 3.3380547
1.1415178 0.92530334 3.3467355
1.1655364 0.92256594 3.318475
-1.7123488 0.96892208 3.3067386
-1.6727281 0.97146755 3.3322148
-1.6382359 0.97191548 3.3468616
-0.25600696 0.9837907 3.3057349
-0.2265067 0.97797966 3.3240259
-0.19267355 0.96795315 3.3430378
0.19299872 0.97386438 3.3159337
0.48737451 0.97474873 3.3162589
0.5143348 0.97109693 3.330966
1.1450323 0.97073919 3.3485224
1.1635063 0.97334474 3.3204238
-1.713706 1.0207946 3.3086483
-1.6803243 1.029098 3.3354189
-0.25612125 1.0086299 3.3022327
-0.2251963 1.0268998 3.3255765
-0.19339171 1.0044813 3.3489585
0.18459818 1.0139726 3.3344674
0.20039198 1.038569 3.3175001
0.48532745 1.0234551 3.3171666
0.51687169 1.025529 3.3372669
1.1478038 1.0242941 3.3458319
1.1662382 1.0260308 3.3313799
-1.7201662 1.0757474 3.3111205
-1.6825994 1.0753855 3.3382931
-0.25792727 1.0976579 3.3077555
-0.22340521 1.0725517 3.3249459
-0.19386832 1.0729824 3.3432817
0.18520658 1.0698934 3.3338649
0.20847341 1.0789629 3.3066435
0.48418906 1.0699388 3.3135188
0.51058245 1.0793259 3.340373
1.1480103 1.0671611 3.3369625
1.1678261 1.0762175 3.323014
-1.7238203 1.1230443 3.3156455
-1.6828707 1.1254182 3.3399484
-0.25847822 1.1246308 3.3091583
-0.22680494 1.1223148 3.3301706
0.18195122 1.128806 3.3381002
0.20535414 1.1211048 3.3144283
0.47646341 1.1269524 3.3259118
0.50940448 1.1160132 3.3435953
1.1669463 1.1239059 3.3253026
-1.7295096 1.1752815 3.3138416
-1.6882995 1.173847 3.3391156
-0.25885692 1.1673888 3.304224
-0.23236357 1.1785513 3.3299048
0.18669362 1.1780599 3.3377707
0.20226079 1.1555855 3.3243208
0.47637549 1.1772306 3.3259883
0.50479764 1.159847 3.3407059
1.1658458 1.1789781 3.3245099
-1.716243 1.2232549 3.323163
-1.6871147 1.2242688 3.3457668
-0.26690227 1.2267894 3.3090415
-0.23323067 1.2303442 3.3302672
0.18159294 1.2197043 3.3366239
0.20217049 1.2211286 3.3065755
0.47057647 1.2242516 3.3212101
0.50706702 1.2069651 3.3454874
1.1655576 1.2270153 3.3292985
-1.7553068 1.2575839 3.3000181
-1.7271336 1.2742407 3.3195806
-1.6927075 1.2734811 3.3440683
-0.26771724 1.2737095 3.3079669
-0.22959514 1.2725116 3.3372869
0.18832119 1.2719966 3.3457954
0.20292155 1.2670368 3.308147
0.43705112 1.2987148 3.3032641
0.47060919 1.279143 3.329037
1.1692796 1.2774639 3.3213832
-1.75104 1.3399074 3.311476
-1.7237278 1.3239641 3.3269629
-1.6971531 1.3130305 3.3421664
-0.27471703 1.3325112 3.3073416
-0.24040993 1.3207924 3.3357005
0.1890543 1.3273724 3.3452713
0.20427765 1.3255111 3.3166666
0.43916211 1.3301182 3.3122382
0.47049016 1.3267559 3.3310685
1.1641811 1.3237622 3.3302343
-1.7644104 1.370445 3.3072348
-1.7233171 1.3738219 3.3338594
-0.31311926 1.3782513 3.3029127
-0.2785202 1.3765061 3.3177917
-0.24002524 1.3734047 3.3410299
0.18921739 1.3789686 3.3339427
0.20468155 1.3782988 3.3090086
0.43257889 1.37753 3.3144894
0.46191835 1.3815928 3.3447676
1.1626807 1.3708677 3.3268883
-1.772864 1.4225998 3.3080692
-1.7297684 1.4246454 3.3315084
-0.28385773 1.4283466 3.3172555
-0.24334812 1.4185377 3.335614
0.18433745 1.4296175 3.3344181
0.43523806 1.4282436 3.3222218
0.46290049 1.4100133 3.3444123
1.1647632 1.4193876 3.3308609
-1.7614344 1.4738889 3.3129127
-1.7312696 1.4793515 3.3402646
-0.31554037 1.473078 3.3028553
-0.27644628 1.4716783 3.31846
-0.24992089 1.4747376 3.3323474
0.17996165 1.4778223 3.3316038
0.43524107 1.4728338 3.3232982
0.46483046 1.450017 3.3480699
1.1673576 1.4766901 3.328006
-1.769699 1.5267721 3.3120716
-1.7359047 1.5240835 3.3300323
-0.30953813 1.53564 3.313096
-0.27065071 1.528679 3.3338392
0.18231541 1.5263586 3.3209395
0.3945688 1.5444088 3.3045063
0.42734233 1.5216347 3.3288398
1.1683576 1.5263844 3.3235981
-1.7682637 1.5797169 3.3135297
-1.7377172 1.5720556 3.3337417
-0.31013709 1.5725803 3.3080359
-0.27218607 1.579821 3.3326995
0.16806656 1.5732592 3.3293309
0.39626962 1.5766439 3.3101108
0.42248434 1.573403 3.3304496
1.1672037 1.5777444 3.3288577
-1.7757661 1.6287588 3.3210959
-1.7440479 1.6284968 3.3391516
-0.31984887 1.6097389 3.3089821
-0.26977906 1.6110872 3.3288171
0.14220954 1.6372044 3.3469119
0.16841118 1.6207889 3.3205934
0.39833117 1.6191239 3.315464
0.42794284 1.6223106 3.3318813
0.45384154 1.6253116 3.3441212
1.1471555 1.6430123 3.3484678
1.1666288 1.6239431 3.3240016
-1.8029971 1.6686519 3.3065891
-1.7715381 1.6724914 3.3241673
-1.738109 1.6688389 3.3433826
0.17062052 1.6747251 3.3262167
0.38315022 1.6876884 3.3121684
0.41404119 1.6735171 3.3355687
1.1496104 1.6823293 3.3422754
1.1711136 1.6686236 3.3159478
-1.7782655 1.7228402 3.3225884
-1.7417207 1.7190065 3.3485723
0.17222571 1.7178806 3.3138208
0.3836925 1.7245948 3.3038712
0.41523904 1.7272139 3.3384285
1.1682155 1.7243721 3.3239005
-1.8038893 1.7905769 3.3074121
-1.7715025 1.7770457 3.3289194
0.16613942 1.7625465 3.3235006
0.38044322 1.782341 3.308377
0.41580516 1.7771337 3.3418105
1.1675932 1.7793146 3.3263259
-1.8115959 1.8266356 3.3089285
-1.7764748 1.8294181 3.3305492
-1.7421026 1.8425933 3.3492522
0.38904977 1.8186316 3.3226631
0.41342661 1.8115748 3.3337371
1.167528 1.8281002 3.3194118
-1.8152434 1.8779601 3.3112061
-1.7758459 1.876709 3.3341906
-1.7452184 1.8649211 3.3467441
1.1706893 1.8751109 3.3240898
-1.8156205 1.916773 3.3114214
-1.7735437 1.9226173 3.3341882
0.63149929 1.935131 3.3480744
1.1695968 1.9214736 3.3237164
-1.8131391 1.9724969 3.3143742
-1.7796398 1.9699602 3.3371365
1.1704628 1.9767134 3.3197243
-1.8172055 2.0225699 3.3172085
-1.7833338 2.0210829 3.3375146
0.63572448 2.0112319 3.3423166
1.1693887 2.0279553 3.3204975
-1.8153909 2.0766623 3.3127725
-1.7775882 2.0668831 3.3395314
1.1708776 2.07637 3.3293622
-1.8173079 2.125257 3.3104873
-1.7805969 2.1181896 3.3374574
1.1458443 2.1332898 3.3448248
1.17492 2.1250415 3.3225455
-1.8211149 2.1679721 3.3137679
-1.785616 2.16401 3.3352292
1.1685066 2.1754687 3.3203259
-1.8215075 2.2132499 3.3127036
-1.7851843 2.2255585 3.339524
1.1394284 2.2322476 3.3470814
1.1614981 2.2276142 3.3250699
-1.821825 2.2631223 3.3125296
-1.7859453 2.2777131 3.3318024
1.0835483 2.2908084 3.3339648
1.1308571 2.2782323 3.3418486
1.1673372 2.2787333 3.3120587
-1.8003546 2.3222308 3.302737
-1.7746987 2.3276103 3.3239796
-1.7490659 2.3331685 3.3453889
1.0693502 2.3200002 3.343111
1.1304764 2.3199885 3.3209109
1.1609657 2.3131974 3.3075249
-1.7648717 2.3675442 3.3048007
-1.7296364 2.3603058 3.3266556
-1.6792302 2.3737683 3.3186972
-1.6231465 2.3790085 3.3171537
-1.5779914 2.3828263 3.3305764
-1.5246757 2.3917732 3.3285186
-1.4765791 2.3949206 3.3342772
-1.4235922 2.3904092 3.3175418
-1.391415 2.3862727 3.3080511
-1.0720052 2.396517 3.3255959
-1.0397978 2.3957927 3.3328221
-0.96350294 2.3930376 3.3209968
-0.92657083 2.3957202 3.3334532
-0.87248164 2.3925946 3.3277576
-0.82906514 2.3851552 3.3232055
-0.77788746 2.3863804 3.3311219
-0.72753268 2.3853722 3.3196812
-0.67225051 2.3889802 3.3342228
-0.62178516 2.3851261 3.3177521
-0.57846963 2.3845963 3.3138814
-0.52133495 2.3773007 3.3241112
-0.47563028 2.3762729 3.3206825
-0.4222092 2.3718367 3.3145676
-0.37585396 2.3765974 3.3165355
-0.32537723 2.3854902 3.3240921
-0.27425009 2.381063 3.3306954
-0.22778922 2.3813992 3.3339541
-0.18684889 2.3668835 3.3277495
-0.12520908 2.3943622 3.3198617
-0.064776972 2.3799524 3.3193362
-0.023097951 2.3790231 3.3185396
0.017055972 2.3680084 3.3273544
0.082743779 2.3905127 3.3301589
0.11578833 2.3896999 3.3136775
0.17145996 2.3912823 3.3139646
0.24030226 2.3878684 3.3301475
0.27443892 2.3911402 3.326539
0.32099953 2.3916006 3.323879
0.37692186 2.3922243 3.3200834
0.42422959 2.3966422 3.3217666
0.45833242 2.3994331 3.3159351
0.68456095 2.3989253 3.346679
0.72418565 2.3820961 3.3409522
1.0809588 2.3531585 3.3310122
1.1078808 2.3686812 3.3072908
-1.3673017 2.4046979 3.3243878
-1.324019 2.4065328 3.3206871
-1.2768742 2.4095905 3.319864
-1.2205338 2.4033761 3.3278551
-1.178648 2.4063592 3.324306
-1.1298766 2.4049256 3.3359983
-1.0163546 2.4058416 3.3271825
-0.98745322 2.4051342 3.3332329
-0.90239269 2.4009733 3.3076262
-0.88328266 2.4003952 3.3109694
0.13499263 2.4111633 3.3246946
0.167588 2.411077 3.3233442
0.20895369 2.4148145 3.3084161
0.49075332 2.402832 3.3232169
0.52875853 2.4056709 3.3224876
0.5759294 2.407279 3.3184934
0.6243881 2.4136217 3.3203955
0.66906661 2.4135993 3.3196604
0.72412807 2.4187939 3.3151793
0.77758729 2.4214911 3.3321643
0.82045937 2.4335752 3.3239217
0.87447208 2.4387655 3.3201711
0.92973232 2.4323092 3.3278308
0.9803856 2.4302227 3.332557
1.0304385 2.4214993 3.3206284
1.0540193 2.4235902 3.3043499
1.0954373 -0.40271983 3.3883538
1.1080666 -0.40121058 3.3719776
1.096189 -0.36937833 3.3932295
1.1127059 -0.37043029 3.3666224
1.0948497 -0.31861588 3.3925216
1.1130072 -0.32493547 3.3652382
0.75853014 -0.27042633 3.3753657
1.0939517 -0.28483021 3.3917582
1.1194675 -0.27498117 3.3674736
0.57548577 -0.2175111 3.3852949
0.63511145 -0.21296312 3.392529
0.67428213 -0.21782936 3.378082
0.73284125 -0.24551792 3.3751092
1.1157234 -0.22163275 3.3752367
0.63685393 -0.17840506 3.358669
0.66525996 -0.17946275 3.3760865
1.0948906 -0.17601794 3.3996005
1.1189082 -0.17131536 3.3714252
0.63608378 -0.12954812 3.3560438
0.66840416 -0.13276015 3.3751457
1.1179686 -0.12472223 3.3689315
0.63664126 -0.081006341 3.3599575
0.66970509 -0.081633195 3.3827999
1.1202242 -0.077538304 3.369945
0.62847453 -0.032359552 3.361078
0.65560836 -0.032506328 3.3725579
1.1233164 -0.031078516 3.3730006
-1.6975691 0.00033725679 3.3599844
0.62402308 0.026046578 3.3638012
0.66064531 0.026227048 3.3811843
1.1234968 0.020164309 3.3749166
0.6232149 0.083288841 3.3654771
0.65783972 0.08178021 3.383415
1.1225291 0.072475716 3.3768494
0.62394714 0.1301413 3.3684304
0.6590538 0.13106115 3.3886108
1.1214654 0.12243405 3.3726268
0.58575213 0.17780249 3.3503785
0.62302977 0.17922384 3.3731155
0.65995836 0.16403399 3.3923178
1.1225376 0.1726438 3.3743129
0.62354523 0.22827567 3.37395
0.66109776 0.23001929 3.3956006
1.121816 0.21950933 3.3770456
0.58759379 0.29181981 3.3556163
0.62465376 0.27765095 3.3775394
1.1243403 0.26765966 3.3754714
0.58228546 0.33509517 3.3540413
0.62458688 0.32662901 3.3743486
1.1250437 0.3198835 3.3744879
0.58442223 0.36936101 3.3560367
0.626311 0.37664127 3.3801756
1.1249809 0.37375924 3.3705091
-0.060466889 0.43593007 3.3649979
-0.036277879 0.42805007 3.3673253
0.068975285 0.41362864 3.3826454
0.10638357 0.43075481 3.3661807
0.5844748 0.43397984 3.3591661
0.62712723 0.42633104 3.3808169
1.1259674 0.42162368 3.3763831
-0.060738925 0.45410788 3.3787241
0.11534452 0.47144637 3.369678
0.5845378 0.47290283 3.3625112
0.62676215 0.47678229 3.3856871
1.1246383 0.47280523 3.3764517
-1.6235009 0.51689649 3.3565722
-1.5741825 0.52941126 3.3681362
-1.543943 0.53092635 3.3893454
0.12049284 0.51975375 3.3766086
0.57995856 0.51995242 3.3615625
0.63030171 0.5273574 3.388588
1.1272655 0.52079368 3.3707716
-1.6087614 0.55540407 3.3530807
-1.5764241 0.57360536 3.3678033
-1.5470923 0.57560915 3.3911374
0.1287237 0.57276231 3.3747854
0.58684587 0.56100577 3.3604395
0.62572807 0.57452965 3.3847079
1.1269219 0.56997979 3.3731027
-1.5766313 0.62894952 3.3699219
-1.5403644 0.61998636 3.3928523
-0.11797216 0.63519835 3.373069
-0.085808188 0.62978637 3.38936
0.12660486 0.62059718 3.3839743
0.15023887 0.64946645 3.3597217
0.59317374 0.63004863 3.3568015
0.61334777 0.62580329 3.3768349
1.1209675 0.62718827 3.3805861
-1.5789862 0.67771804 3.3726704
-0.15853146 0.69956076 3.3596299
-0.12432126 0.67116886 3.3753128
-0.085894413 0.65512359 3.3904929
0.1268789 0.67103624 3.3851254
0.15019268 0.67361164 3.3555083
0.5841732 0.67886019 3.3710914
0.61955142 0.67761749 3.3931174
1.1245075 0.67388147 3.37363
-1.6007047 0.72441173 3.3557196
-1.5682551 0.71998179 3.379319
-0.15899515 0.71792281 3.3671703
-0.12903328 0.71955502 3.3854523
0.12872799 0.7213921 3.384295
0.15058909 0.73238534 3.3564291
0.544451 0.72050828 3.3524463
0.57139093 0.72351319 3.3636081
0.61654955 0.72874421 3.3946598
1.1247075 0.72271985 3.3765209
-1.6125695 0.77388591 3.355763
-1.5735352 0.77183288 3.3771632
-0.16492335 0.78009957 3.3682854
-0.12943903 0.77103567 3.3884261
0.13148043 0.76810569 3.3848319
0.15094076 0.77485335 3.3582096
0.57472467 0.77182293 3.3663926
0.61069292 0.7810607 3.3880024
1.1276829 0.77740961 3.3705957
-1.6167688 0.82152557 3.356591
-1.5779171 0.82673639 3.3774705
-1.5476208 0.83813679 3.398339
-0.1634336 0.81354535 3.3602684
-0.1275695 0.82379258 3.385962
0.13577764 0.82258123 3.3807926
0.15540256 0.82586062 3.3586926
0.5474655 0.83153474 3.3543384
0.57513905 0.82759005 3.3702469
0.60292017 0.82335925 3.3854594
1.1305636 0.83389246 3.3750172
-1.6141024 0.88005853 3.357666
-1.5814996 0.87267303 3.3770664
-0.16632506 0.87228793 3.3596349
-0.12782124 0.8749423 3.3842523
0.13242604 0.88121152 3.3917003
0.15197589 0.87052125 3.3664875
0.54881936 0.87485486 3.3555319
0.57592332 0.8776024 3.3768375
0.60701239 0.88755018 3.3984439
1.129119 0.87511051 3.374644
-1.6143228 0.9245941 3.3642962
-1.5760496 0.91837466 3.3886111
-0.16684242 0.92438811 3.3613842
-0.14060216 0.93117666 3.3836517
0.13640179 0.92555767 3.3791876
0.1587871 0.92456257 3.3622952
0.5498367 0.90954697 3.3558168
0.57283539 0.92555684 3.3758242
1.1251706 0.9243322 3.381779
-1.6229473 0.97468573 3.3634512
-1.5872314 0.97393388 3.3880475
-0.16916847 0.97438592 3.366127
-0.13685057 0.97938687 3.3844709
0.13181363 0.97092527 3.3959076
0.16132197 0.97611618 3.3723886
0.53472477 0.97832054 3.3538809
0.57276428 0.96993262 3.382093
1.1282972 0.97837228 3.381005
-1.6263083 1.0241522 3.367342
-1.5923227 1.0263349 3.3929193
-0.17578344 1.0285485 3.3639226
-0.14017875 1.027809 3.3892243
0.137762 1.018261 3.396785
0.16006228 1.0315914 3.3701682
0.53753632 1.0334463 3.3613045
0.5658344 1.022719 3.3815501
1.1310973 1.027422 3.3737874
-1.6520771 1.0781257 3.3528299
-1.6227207 1.0692413 3.3726001
-1.5891644 1.0748377 3.3980863
-0.17079358 1.075398 3.3794715
-0.14191739 1.0650496 3.3899243
0.13794285 1.069756 3.3908179
0.16188984 1.0791122 3.3635328
0.53395164 1.0818729 3.3646917
0.56695849 1.0749873 3.3885753
1.130785 1.0716118 3.3748214
-1.6573788 1.1262816 3.3525782
-1.6278851 1.1237192 3.3736079
-1.5944928 1.1233623 3.3987379
-0.17744386 1.1218345 3.3776126
-0.14670995 1.1156774 3.3940392
0.13820615 1.1220518 3.3862538
0.16241547 1.1242144 3.365077
0.53527606 1.1293795 3.3705525
0.56204617 1.1241562 3.3903513
1.1303611 1.1241733 3.3777497
-1.663995 1.1756417 3.3544116
-1.630073 1.1719264 3.3788228
-1.5971706 1.1522467 3.3977406
-0.21227655 1.1743155 3.3518474
-0.18016511 1.1740464 3.3783431
0.16171284 1.1761984 3.3747208
0.52940202 1.1794765 3.3689938
1.134671 1.1776297 3.368988
-1.6641618 1.2272575 3.3641033
-1.6307341 1.2292365 3.3828449
-0.21289638 1.2194996 3.3513954
-0.18058221 1.227159 3.3737495
-0.14754775 1.214836 3.3916221
0.13952732 1.2173082 3.398778
0.16211832 1.2262905 3.3719933
0.53095901 1.2273569 3.3707695
0.56598735 1.2171745 3.3938422
1.133449 1.2249429 3.3701746
-1.6694692 1.2764163 3.3621163
-1.6284646 1.2797362 3.3875952
-0.2142242 1.2943445 3.3548884
-0.18118036 1.2736472 3.3748205
0.16577317 1.2755919 3.3658271
0.49309856 1.2728562 3.3511074
0.52789634 1.2737783 3.3748157
0.55080163 1.281021 3.3918493
1.1291198 1.2733108 3.3737421
1.1520417 1.2870936 3.353055
-1.6711922 1.3287352 3.3607087
-1.6300292 1.325968 3.383847
-0.2149232 1.3238664 3.3589797
-0.18452743 1.3244741 3.3855913
0.16351375 1.3250787 3.3783956
0.49648899 1.3410231 3.3580096
0.52550906 1.324514 3.3851309
0.5531317 1.3121779 3.3993354
1.1343012 1.3261389 3.369844
-1.6733853 1.3776078 3.3643599
-1.6351748 1.3782068 3.3901985
-0.21990076 1.3665825 3.3598914
-0.18512072 1.3776464 3.3827925
0.16583113 1.3776325 3.3776324
0.48709813 1.3803911 3.3627148
0.52225488 1.3736143 3.3896563
1.1279472 1.3745461 3.3801358
-1.6818721 1.426208 3.3620191
-1.6370543 1.4221249 3.3890507
-0.250119 1.408047 3.3555708
-0.21972264 1.4325594 3.3622532
-0.18046618 1.4242389 3.3881333
0.14147727 1.4315395 3.3931148
0.16613014 1.4226978 3.3713078
0.48249647 1.4219306 3.3595397
0.50849038 1.4266648 3.3798399
1.1344744 1.4256337 3.370801
-1.7044263 1.4799557 3.3526351
-1.6711503 1.4791032 3.375191
-1.6402206 1.4704028 3.3933105
-0.21562302 1.4767077 3.3699567
-0.18060175 1.4800494 3.3918347
0.14170694 1.4682176 3.3883448
0.15805534 1.4606079 3.3703215
0.4774259 1.4778311 3.357312
0.51078862 1.4733887 3.382889
1.1294652 1.4776433 3.3821929
1.1511633 1.4822965 3.3530784
-1.7115166 1.5230321 3.3537378
-1.6772455 1.5254284 3.3734436
-1.6442776 1.529119 3.3956866
-0.25197276 1.5039359 3.3543224
-0.22107948 1.526997 3.3689842
-0.18562311 1.5289422 3.3912408
0.1424714 1.5279434 3.3905249
0.15853001 1.5250368 3.3616867
0.4696556 1.5310174 3.3616676
0.51437128 1.5243706 3.3939369
1.134238 1.5245245 3.3718848
-1.7164915 1.5780256 3.3576636
-1.6774091 1.573985 3.3782036
-1.649441 1.5618016 3.3965662
-0.25323558 1.571594 3.3515344
-0.21758762 1.5764648 3.3728507
-0.18629256 1.5691425 3.3922319
0.14279388 1.5747284 3.3841512
0.15871346 1.5610962 3.3544512
0.47156379 1.571838 3.3638659
0.50966042 1.5683236 3.3886433
1.1298804 1.5749818 3.3793006
-1.7163912 1.6249039 3.3574708
-1.6718656 1.625946 3.3815777
-0.22026312 1.6074797 3.3657482
-0.18732837 1.6214411 3.3965042
0.13284998 1.6184199 3.383538
0.47531134 1.6245975 3.3768837
0.51157916 1.6092143 3.3896754
1.1327662 1.6212646 3.3731632
-1.7130419 1.6809978 3.3654652
-1.6802098 1.6781189 3.3855462
0.12912154 1.6770602 3.3731143
0.43960404 1.6889123 3.3504751
0.47992131 1.6786131 3.37778
1.1327803 1.6729996 3.3812089
1.1524056 1.6684759 3.3571482
-1.7150046 1.7204518 3.3629141
-1.681953 1.7250932 3.3869963
0.13560969 1.7234243 3.3761127
0.16180144 1.7489426 3.3641543
0.44156581 1.7227024 3.3557205
0.48059013 1.7313838 3.3827553
1.1291568 1.7220687 3.3796504
1.1563603 1.7102135 3.3550274
-1.7500218 1.7555069 3.3528457
-1.7220027 1.765233 3.3610711
-1.6889343 1.7701273 3.3856106
0.13340344 1.7649193 3.3822625
0.4439179 1.7758665 3.3568509
0.47392809 1.7806827 3.3835132
0.50966191 1.7551622 3.3920054
1.1353968 1.7754225 3.3696411
-1.7201382 1.8206038 3.3662102
-1.6803055 1.8227723 3.3908813
0.44664717 1.8221494 3.3636332
0.46654189 1.8219311 3.3813791
0.63966501 1.8342474 3.3837376
1.1302862 1.8242903 3.3830044
1.151722 1.8304751 3.3590174
-1.7176139 1.8836462 3.3688378
-1.6818213 1.8737502 3.3918161
0.65142852 1.8782246 3.3825736
1.1311723 1.8689847 3.3747897
1.157209 1.8849599 3.355619
-1.7224736 1.9296464 3.3707733
-1.6811972 1.9368509 3.3945448
0.59277576 1.933252 3.376529
0.62016344 1.9250579 3.3581707
0.65451348 1.9322649 3.3795481
1.1361642 1.9208498 3.3781915
-1.7509924 1.9882324 3.3579283
-1.7259235 1.9744606 3.3694465
-1.6843255 1.9795827 3.3921552
0.63520873 1.9735683 3.3558369
0.65826344 1.9796772 3.3831313
1.1353711 1.974763 3.3809049
1.1513187 1.9980134 3.355639
-1.7559775 2.0229459 3.353255
-1.7231319 2.0272064 3.3709006
-1.6887646 2.0241859 3.391906
1.1345403 2.0291409 3.3827584
1.1531116 2.0196598 3.3521998
-1.7287512 2.0754595 3.3727119
-1.6942527 2.0808806 3.3977609
1.1377523 2.0794477 3.3788271
-1.7549683 2.1225674 3.3572409
-1.7236134 2.1292706 3.3787506
-1.6904001 2.1274247 3.3938003
1.134933 2.120441 3.3672178
-1.7627223 2.1712589 3.3511772
-1.7274737 2.176327 3.3759403
-1.6913526 2.190345 3.3936992
1.1243645 2.1800101 3.3814461
1.151068 2.1618214 3.3504961
-1.7602849 2.2207401 3.3575509
-1.7207867 2.2294495 3.3780189
-1.6848948 2.2145548 3.3940015
1.1185122 2.2250893 3.3752258
-1.7598125 2.2615302 3.3536749
-1.7234536 2.2758026 3.3716629
-1.6796411 2.2825432 3.3944194
0.71022487 2.2958517 3.3817148
1.0894005 2.2798104 3.3861809
1.1182574 2.2752786 3.3610542
-1.7259142 2.3222346 3.364285
-1.675806 2.3285871 3.3873572
0.68461204 2.3235095 3.3889892
0.72256631 2.3208385 3.3677089
0.7611894 2.3266926 3.3809226
1.0668461 2.3259072 3.3731048
-1.7097561 2.353858 3.3520553
-1.6703628 2.3595018 3.3669181
-1.6293732 2.3728902 3.3722618
-1.581407 2.3838756 3.3797114
-1.5225468 2.3766046 3.3863397
-1.4739237 2.3868983 3.3659389
-1.4228382 2.395891 3.3843153
-1.388574 2.3954093 3.3664382
-1.2668785 2.3879466 3.3939779
-1.2286283 2.3850157 3.390286
-1.1436815 2.3953385 3.3994625
-1.0769709 2.3963151 3.3777509
-1.0229503 2.3967979 3.3786714
-0.97144234 2.3936012 3.3594944
-0.92201674 2.3895156 3.3646269
-0.87297165 2.3860383 3.3699911
-0.81510675 2.3842165 3.3789105
-0.75493985 2.3938868 3.3655276
-0.7244159 2.3871193 3.3610029
-0.67591 2.3830831 3.3631725
-0.62136275 2.391578 3.3838928
-0.57191932 2.3925092 3.3731844
-0.52464932 2.3829176 3.3843441
-0.47648102 2.3786488 3.383832
-0.42828551 2.3803258 3.3763084
-0.37062883 2.3748686 3.3701372
-0.32362795 2.3743222 3.373168
-0.28656977 2.3781233 3.3812628
-0.21549089 2.3765585 3.3738692
-0.16449812 2.3888755 3.3843546
-0.12643377 2.380533 3.3737812
-0.070216492 2.3753622 3.3770151
-0.020229576 2.371381 3.3749721
0.042380117 2.3903055 3.3893325
0.067123003 2.3843887 3.3683159
0.13687459 2.3975656 3.3976734
0.18351303 2.3905249 3.3859391
0.22995514 2.3751125 3.3803575
0.27608919 2.3681378 3.3676772
0.32350937 2.3686595 3.3730824
0.37434006 2.3748524 3.3760259
0.419092 2.3832254 3.3776751
0.4770208 2.3950508 3.3791304
0.52570105 2.3826632 3.3763661
0.56810457 2.3790052 3.3684299
0.62019986 2.3961115 3.371676
0.67209589 2.3819287 3.3775125
0.71471763 2.3631065 3.3531163
0.76926321 2.3748288 3.3736598
1.074059 2.3897319 3.3686008
-1.4527228 2.404155 3.3579588
-1.3662047 2.4078693 3.3939233
-1.3208073 2.4028959 3.3688338
-1.2786223 2.4116054 3.3713048
-1.2435184 2.4001963 3.3782589
-1.1791879 2.4029419 3.3702717
-1.127527 2.4011469 3.3716664
-1.0795007 2.4019434 3.3856311
-0.97591162 2.404705 3.3750372
-0.89783454 2.4015045 3.3877835
0.12737049 2.4157257 3.3863764
0.16425888 2.4030168 3.3672819
0.47511116 2.4089906 3.3522632
0.64740241 2.401171 3.3558228
0.66609889 2.4004385 3.3518403
0.78846526 2.4090393 3.3816617
0.82338858 2.4220262 3.3705513
0.87369013 2.4305053 3.3805823
0.92268062 2.4274631 3.3714843
0.9677999 2.4210675 3.3749135
1.0236185 2.4203258 3.3711486
1.0655493 2.4114945 3.3633733
0.81804699 -0.40256196 3.4388156
1.0688477 -0.4053894 3.4180367
0.8065632 -0.36760816 3.4295681
1.0762391 -0.37409803 3.4249353
0.81052899 -0.33582577 3.4487133
1.0737253 -0.3209267 3.4232008
0.78607798 -0.27423447 3.4213686
1.0793815 -0.26816043 3.422389
0.57395792 -0.22286645 3.4262021
0.61235476 -0.21360055 3.4056191
0.68121457 -0.22280994 3.4125032
0.7246092 -0.22345889 3.4169672
0.76184404 -0.22682407 3.4384456
1.0849576 -0.21936828 3.4233532
0.69682026 -0.18131566 3.4075851
0.72466993 -0.18210058 3.4188054
0.76451969 -0.16698331 3.4449108
1.0797868 -0.16625531 3.4252512
0.69668221 -0.12356009 3.4085865
0.72490674 -0.13242351 3.4213765
0.75643569 -0.11690528 3.4487572
1.0840603 -0.1179492 3.4237945
0.6958735 -0.082247809 3.4054031
0.72732466 -0.083016045 3.4337749
0.75584483 -0.083413415 3.4466999
1.0840389 -0.067334674 3.4245872
0.68814349 -0.032868013 3.4094172
0.7273035 -0.033144299 3.4341965
1.0853785 -0.025178902 3.4292088
0.69070488 0.023683887 3.4161129
0.72382802 0.019441007 3.4312966
1.0861208 0.014905424 3.4244423
0.68752223 0.085916109 3.4140599
0.72246695 0.077738844 3.437731
1.0842074 0.067656718 3.4250331
0.68066716 0.13207492 3.4127655
0.71985948 0.12767075 3.4378624
1.086201 0.11614954 3.4232941
0.67437267 0.184949 3.4134102
0.7105546 0.18290798 3.4326773
1.0861158 0.16921383 3.4286735
0.68142444 0.23132251 3.4130185
0.71033269 0.22990379 3.4379869
1.0843961 0.21789494 3.4284472
1.1008198 0.23634191 3.4152977
0.67320603 0.2809158 3.4117041
0.71495771 0.27036101 3.4418266
1.0839838 0.27370676 3.4335792
1.1008277 0.26164734 3.4140468
0.67553586 0.33160684 3.4205563
0.71148062 0.31367522 3.4391358
1.083933 0.31972668 3.4306867
1.1005614 0.32905644 3.4092104
0.67567921 0.38142547 3.4177809
0.7119298 0.37621465 3.4426937
1.0829988 0.37390113 3.4362907
1.10244 0.37185183 3.4120395
-0.017752385 0.43890226 3.4310648
0.066526636 0.43674517 3.4224975
0.67497414 0.42844468 3.4191768
0.70766759 0.42717484 3.4460039
1.0844134 0.42541528 3.4367139
1.1045538 0.42335415 3.414521
-0.061253585 0.48249084 3.4051099
-0.0307342 0.47713369 3.4263818
0.069987111 0.47742987 3.4280329
0.64945889 0.47990844 3.4056525
0.67882442 0.47479811 3.4260578
0.70787287 0.4608143 3.4441133
1.0856546 0.47700039 3.4360535
1.1043109 0.47401986 3.4091854
-1.6229286 0.51054323 3.4099808
-1.573475 0.50876546 3.4128885
-1.5176883 0.52514923 3.4206786
-1.4770395 0.52624434 3.4413612
-0.061393518 0.524571 3.4088755
-0.034245826 0.52223969 3.4302943
0.070055768 0.52731252 3.4264922
0.10236365 0.53199565 3.4024744
0.6802485 0.52586466 3.4283886
0.70822698 0.51973414 3.4402263
1.0858558 0.52818364 3.4315708
1.1038483 0.52459729 3.4026394
-1.5171046 0.57745433 3.413322
-1.4786214 0.57949048 3.4390404
-0.061633587 0.57599145 3.4169388
-0.037146304 0.5793578 3.4371185
0.072364748 0.57658333 3.4328108
0.10262682 0.57440257 3.4068131
0.67491245 0.5776481 3.4266663
0.71073347 0.57201862 3.4470398
1.0878496 0.58035082 3.4321907
1.1063334 0.57664227 3.4046352
-1.5145274 0.63342917 3.4133496
-1.4800596 0.62397218 3.4369268
-0.065908566 0.63111091 3.4195161
-0.038883083 0.62682003 3.4378867
0.078661837 0.6290192 3.4308655
0.10287803 0.62516928 3.4094353
0.62826502 0.64079654 3.4111962
0.67415059 0.61973727 3.4305327
1.0900327 0.62841523 3.4275157
1.1068597 0.61084378 3.402194
-1.5217842 0.67573088 3.4111433
-1.4828082 0.66914922 3.4373901
-0.075979613 0.68195534 3.4168563
-0.045663487 0.68196446 3.4415996
0.076132797 0.67518193 3.4357836
0.1031152 0.67608166 3.4110634
0.66752982 0.67178684 3.4344099
1.0890653 0.67089283 3.4306011
1.1104821 0.68092406 3.4044032
-1.5244585 0.72086746 3.4106493
-1.4802412 0.72507232 3.4333432
-0.11116856 0.74168521 3.4002693
-0.078482524 0.72808427 3.4167016
-0.040185884 0.71646285 3.4431829
0.081883632 0.7212283 3.4381516
0.10756797 0.72785532 3.4150562
0.6201055 0.7325241 3.4006424
0.66823602 0.72291225 3.4310713
1.0900065 0.72284222 3.4263732
1.1062026 0.71767563 3.4145718
-1.5294132 0.77610868 3.4133835
-1.4806561 0.77825874 3.4396253
-0.1115373 0.79375267 3.4040854
-0.078735076 0.78018457 3.420177
-0.045853272 0.76829338 3.4441795
0.087646835 0.76744157 3.4398549
0.11015832 0.78159481 3.4108715
0.63974434 0.76945513 3.4095609
0.65858656 0.77193928 3.418422
1.0884219 0.76968461 3.4281101
1.1101462 0.77546883 3.4086285
-1.5233924 0.82833475 3.4138968
-1.4797246 0.82215273 3.4397073
-0.081283018 0.82723844 3.4214642
0.087835215 0.81926465 3.439564
0.11210078 0.83011889 3.4122982
0.63592833 0.82666683 3.4173291
0.66312808 0.82794446 3.4339969
1.0874897 0.82873935 3.4404631
1.1078231 0.81930077 3.4096799
-1.5527494 0.87630999 3.4031186
-1.5189993 0.87493145 3.4255621
-1.4882517 0.86223727 3.4435811
-0.079180345 0.8681156 3.426424
0.088078745 0.87183976 3.4408681
0.11236498 0.87369442 3.4134772
0.62877089 0.87273055 3.4150198
1.0905691 0.87090564 3.4282146
1.1050283 0.87732601 3.4142272
-1.5569845 0.93194759 3.4020915
-1.5246671 0.9249934 3.4225938
-1.4952115 0.92876011 3.4479725
-0.12067874 0.92457414 3.4080157
-0.084318653 0.91967732 3.4323382
0.088322416 0.91628247 3.44311
0.11103876 0.9213478 3.4157262
0.62945628 0.92943192 3.4210551
0.66861153 0.92846417 3.4461758
1.0876261 0.91882801 3.4402587
1.10654 0.93019772 3.4093292
-1.5699626 0.98073334 3.4062777
-1.5255948 0.97458047 3.4285426
-0.11250592 0.96744734 3.4046917
-0.079723835 0.97507763 3.4321394
0.088620648 0.9699924 3.445456
0.11142979 0.97165072 3.4194405
0.59429449 0.99476707 3.4046049
0.6245476 0.97562003 3.4172747
0.65232778 0.9892267 3.4410346
1.0909703 0.97576636 3.4342759
1.1068397 0.97353661 3.4018207
-1.5642496 1.0198678 3.413959
-1.5212325 1.0243113 3.4361243
-0.11713459 1.0215689 3.4083469
-0.082027875 1.0299789 3.4296091
0.088968433 1.02461 3.4491014
0.11356679 1.0261482 3.4237015
0.5953688 1.0303453 3.4038754
0.62520075 1.0214132 3.4186661
0.65311873 1.0246153 3.4383411
1.0876889 1.0226805 3.4354072
1.1066517 1.0263227 3.4145379
-1.5652298 1.0768446 3.4136181
-1.5293957 1.072971 3.4346611
-0.12051351 1.0829334 3.4216449
-0.083640531 1.0725477 3.4352813
0.089109391 1.0686451 3.4458947
0.11561338 1.0764946 3.4242649
0.59750313 1.0764282 3.4071109
0.62693936 1.0748172 3.4276125
0.65697569 1.0907544 3.4459915
1.0877028 1.0748123 3.4398608
1.1084311 1.0782481 3.4151709
-1.5697876 1.1249604 3.4128635
-1.5330685 1.1258242 3.4393723
-0.12804998 1.1322422 3.417433
-0.089127429 1.1216649 3.4413338
0.089490563 1.1243348 3.449636
0.11697364 1.1217191 3.4224958
0.58254313 1.1226548 3.4113579
0.61832821 1.1275711 3.4294159
0.65783989 1.1179912 3.4448392
1.08657 1.1218518 3.4412322
1.1073354 1.1264404 3.4107637
-1.6031027 1.1836383 3.4034147
-1.5674953 1.1750056 3.4193068
-1.5365257 1.1698604 3.4452496
-0.13106066 1.1762574 3.4126587
-0.0911498 1.176779 3.4418247
0.08969675 1.1781639 3.4459634
0.12294139 1.1756698 3.4201074
0.57584757 1.1773382 3.4111071
0.6248883 1.1725515 3.4301779
1.0920326 1.1755999 3.4311669
1.1094947 1.1709079 3.412466
-1.6071575 1.2228539 3.4024572
-1.5727962 1.2242932 3.4190452
-1.5413872 1.2190551 3.4444714
-0.12678896 1.226487 3.4173236
-0.091354571 1.2272661 3.4380908
0.12051047 1.2247211 3.4199941
0.58037931 1.2321348 3.4082253
0.61916602 1.2199661 3.4295437
1.0911326 1.2279724 3.4364605
1.109079 1.2276891 3.4124556
-1.6104017 1.2525487 3.401916
-1.5782967 1.2741026 3.4186113
-1.5417707 1.2777189 3.4422884
-0.1340718 1.2758918 3.4133244
-0.098585077 1.2783866 3.4397526
0.12394139 1.2764066 3.4254887
0.58220881 1.276302 3.4161305
0.61678195 1.2769129 3.4342742
1.0908068 1.2721585 3.434653
1.108891 1.2625542 3.4027226
-1.6009091 1.3323505 3.4060149
-1.5730722 1.3248417 3.4274662
-1.534874 1.3383766 3.446609
-0.16649145 1.3326681 3.4073374
-0.13025524 1.3246254 3.4224532
-0.094664402 1.3265569 3.4422779
0.12431113 1.3290963 3.4236803
0.57830322 1.3278196 3.4225998
0.62303925 1.3243886 3.4383531
1.0908175 1.3287331 3.430186
1.1094429 1.3206642 3.4142642
-1.6124709 1.3794303 3.4067657
-1.5768794 1.372223 3.4299157
-1.5369971 1.3585867 3.4460034
-0.15005009 1.3898622 3.4082091
-0.13307279 1.3700241 3.4203866
-0.099485874 1.3766341 3.4480577
0.1268388 1.3738922 3.4225581
0.58016789 1.3754961 3.4302692
0.62047493 1.3660675 3.440325
1.0907545 1.3715254 3.4398718
1.1023626 1.3727188 3.4140058
-1.6099629 1.4309936 3.4141607
-1.5775198 1.4218704 3.4383168
-0.15618944 1.4223624 3.4091179
-0.12338962 1.4196301 3.4251919
-0.099717766 1.4145572 3.4462943
0.11955278 1.4204445 3.4288342
0.53682011 1.4244096 3.4063835
0.57715023 1.4265815 3.4248805
0.61711776 1.4094368 3.4440155
1.0938263 1.4289876 3.4337504
1.1066419 1.4225117 3.4140384
-1.6153837 1.4763649 3.4158585
-1.5806036 1.4745878 3.4403031
-0.15532023 1.4678651 3.4096429
-0.11926489 1.4739017 3.4304056
0.11894067 1.4720783 3.4295578
0.53424501 1.4725499 3.4050081
0.5738703 1.4807572 3.4314594
0.60070169 1.4558519 3.4395719
1.0881211 1.475075 3.4400153
1.109259 1.4704154 3.4083631
-1.618458 1.5271716 3.4165497
-1.5848314 1.515723 3.4371836
-0.16204439 1.5226085 3.4088039
-0.11517292 1.52291 3.4337733
0.092045382 1.5420793 3.4453945
0.1211985 1.5213908 3.4238529
0.54147184 1.5197331 3.4104598
0.57424867 1.5267239 3.4318435
1.0930339 1.5235775 3.4284611
1.114059 1.5304873 3.405772
-1.6163756 1.5736964 3.4236712
-1.5855991 1.5721925 3.4463539
-0.15931749 1.5715616 3.4114845
-0.1204656 1.5762532 3.4370294
0.092183873 1.5707486 3.4421787
0.11610116 1.5744369 3.4190037
0.53486532 1.5740367 3.4094734
0.57671374 1.5812511 3.4392426
1.0888518 1.5726303 3.4386728
1.1083103 1.5780907 3.4146788
-1.6253995 1.6227148 3.4130132
-1.5784987 1.6213034 3.4379282
-0.17002392 1.6053377 3.4058666
-0.1188708 1.6154523 3.4433453
0.092395164 1.6183397 3.4356201
0.10938118 1.6182451 3.4135513
0.52454025 1.6310625 3.4131267
0.57207108 1.6231426 3.4345968
1.0928013 1.6236947 3.4356089
1.106304 1.6259646 3.4137957
-1.6515965 1.6946386 3.4047754
-1.6245624 1.6730072 3.4227982
-1.5845892 1.6557728 3.4408216
0.092878364 1.6798949 3.4354496
0.10989126 1.6697465 3.4143696
0.52737969 1.6753168 3.4191444
0.5641734 1.6722038 3.4386833
1.0914638 1.6694157 3.432189
1.1084105 1.6743166 3.4040198
-1.6583242 1.7299137 3.407444
-1.6202109 1.7250026 3.4295957
-1.5844337 1.7128096 3.4464543
0.53000367 1.7260115 3.4071555
0.57039529 1.7229626 3.4388847
1.090225 1.7221178 3.4334869
1.1109338 1.7053362 3.4016833
-1.6645145 1.7743251 3.404783
-1.6294831 1.7775038 3.4253032
-1.5965763 1.7926878 3.4464109
0.11052936 1.7502093 3.4087651
0.52738011 1.7833757 3.4140093
0.57735693 1.7771459 3.4326072
0.62428826 1.7813158 3.4436719
1.0903831 1.77632 3.4427345
1.1113461 1.7658052 3.4157362
-1.6523523 1.8292927 3.4062645
-1.6263129 1.822641 3.4264698
-1.5995351 1.8151186 3.4449518
0.48735204 1.8244154 3.4043031
0.520069 1.8154957 3.4083817
0.58614302 1.8133605 3.412986
0.62569863 1.8097866 3.4218245
0.65424383 1.823131 3.4227049
1.0940496 1.8284684 3.4360542
1.1091405 1.8229066 3.4211791
-1.6593673 1.8657831 3.4083316
-1.6256973 1.8710451 3.4325647
-1.5900772 1.8838609 3.4485846
0.67842507 1.8579918 3.4441049
1.0900639 1.8837441 3.4359505
1.1134238 1.876205 3.4153991
-1.6596872 1.9251126 3.4111252
-1.6295507 1.9165729 3.4342752
0.571917 1.9248416 3.4176564
1.0912153 1.9252747 3.4357078
1.1111424 1.9230046 3.411864
-1.6610992 1.9864116 3.4154034
-1.631327 1.9661621 3.4340844
1.0870229 1.983749 3.4458055
1.1101438 1.9630979 3.4158227
-1.6631905 2.0388939 3.4155064
-1.6273161 2.0222359 3.4342797
-1.5920975 2.0262382 3.4496207
0.67785013 2.0291185 3.4264879
1.0948789 2.021127 3.4338357
1.1110137 2.0256917 3.416646
-1.6677195 2.0843282 3.4151981
-1.6280707 2.0845492 3.4391301
0.67355567 2.0814397 3.4365151
1.0904891 2.0682549 3.4346216
1.1095077 2.0846574 3.409446
-1.6702684 2.12761 3.4102781
-1.6329651 2.1301603 3.4298203
1.0873578 2.1278121 3.4343026
1.1125172 2.1309762 3.4123614
-1.6695492 2.1777606 3.4026859
-1.6345191 2.1786723 3.4301152
1.0864824 2.1831191 3.431298
1.1044881 2.1621723 3.4051151
-1.6664609 2.2339284 3.4056327
-1.6314789 2.2225366 3.4300385
1.0863286 2.2289264 3.4300575
-1.6577053 2.281002 3.4083891
-1.6305584 2.2748213 3.4314728
0.67309481 2.2830527 3.4199467
0.70421499 2.2880347 3.4096634
1.078287 2.2825668 3.431324
-1.6512799 2.3157961 3.4028928
-1.6196417 2.3295877 3.4241154
-1.5796103 2.3411648 3.4443655
0.23197727 2.3483465 3.4353862
0.2690722 2.3416295 3.423383
0.32561672 2.3410323 3.4186704
0.63428438 2.3182621 3.4471092
0.65866619 2.3234811 3.4240658
0.73213935 2.3165815 3.4490564
0.76725608 2.3261588 3.4181952
1.0711007 2.346446 3.4248908
-1.6269945 2.3639143 3.40377
-1.5721241 2.3706651 3.4184685
-1.5234447 2.368495 3.4286079
-1.483766 2.3869169 3.4214771
-1.4302791 2.3930695 3.4355705
-1.3778442 2.3960164 3.4288495
-1.3312638 2.3962188 3.4298036
-1.2854122 2.385021 3.4119155
-1.222542 2.3870606 3.4269676
-1.1767392 2.3887384 3.43206
-1.10598 2.398001 3.4137065
-1.0752845 2.3947415 3.4166133
-1.0264335 2.3942695 3.4279766
-0.97562492 2.3985629 3.4262581
-0.93069971 2.3927197 3.4072971
-0.86471391 2.3969443 3.4275858
-0.81128049 2.3976548 3.4259121
-0.77341342 2.3931229 3.4195642
-0.71946871 2.3943467 3.4209311
-0.67902535 2.3909016 3.4257033
-0.62488121 2.3859444 3.4135904
-0.57601106 2.3811049 3.4133203
-0.52990365 2.3878143 3.4290206
-0.4709138 2.3791513 3.4231575
-0.4250747 2.3889751 3.4422226
-0.37566042 2.3785365 3.4315197
-0.32834637 2.380337 3.4379668
-0.27523571 2.3784275 3.4293962
-0.22170985 2.372411 3.4080064
-0.17491564 2.374661 3.4197063
-0.12766792 2.3753281 3.4222937
-0.071101144 2.3799686 3.4340413
-0.026760705 2.373843 3.4282265
0.019927224 2.3781548 3.4244285
0.11891986 2.3971736 3.4351361
0.17887866 2.3738627 3.4221523
0.22680438 2.3585024 3.4221385
0.27791291 2.3553345 3.4051557
0.3251715 2.356667 3.4037838
0.37810883 2.360801 3.4308622
0.42596796 2.3727031 3.4293554
0.48328739 2.3795419 3.4224381
0.51686001 2.3619084 3.4118531
0.5945158 2.3690615 3.4124281
0.62771791 2.3737791 3.4262867
0.65948123 2.3715918 3.4131253
0.81215572 2.3745823 3.4242139
1.0604786 2.3795047 3.4277225
-1.4031352 2.4006813 3.4133573
-1.3356942 2.4061952 3.4012861
-1.1665096 2.4022655 3.4038892
-1.1288586 2.4052286 3.4188006
-1.0164801 2.4033237 3.4239523
-0.98317719 2.4031289 3.4111767
-0.90805513 2.4094052 3.4373615
-0.87402391 2.4055398 3.4186845
-0.84407926 2.4028492 3.4207029
0.090446457 2.4085963 3.4333115
0.10980783 2.41502 3.4419606
0.8283903 2.4068744 3.4232969
0.87577927 2.4150348 3.4226418
0.93032151 2.4211156 3.4235229
0.98134613 2.4205203 3.4218554
1.0283669 2.408345 3.4288292
1.0549537 2.4120519 3.4075105
0.85183984 -0.40668824 3.4700098
0.83610648 -0.37333083 3.48032
0.86902553 -0.37740549 3.4906125
0.9463594 -0.39378831 3.4927001
1.0287068 -0.3784188 3.4787095
1.061646 -0.3579599 3.4568372
0.82757026 -0.31834954 3.4775901
0.8646546 -0.32356194 3.4919233
1.0327201 -0.32550728 3.4835913
1.0599703 -0.32336634 3.4535973
0.79616439 -0.27789056 3.4653168
0.82446104 -0.27047458 3.4744728
0.85612875 -0.27244744 3.4962351
1.0365994 -0.27627811 3.4820046
1.0590267 -0.2720176 3.4534609
0.63626939 -0.23585114 3.4899879
0.66111273 -0.23569587 3.4846497
0.78554499 -0.21450035 3.4521484
0.82486182 -0.21984541 3.478528
1.0343755 -0.22443701 3.4769681
1.0588665 -0.2209533 3.4553699
0.79440719 -0.16801487 3.4622486
0.82360756 -0.16915923 3.4824479
1.037789 -0.17066216 3.4773884
1.0580047 -0.16979873 3.4544666
0.78578234 -0.11752295 3.4638298
0.82552046 -0.11841983 3.4844933
0.85518217 -0.12751538 3.4977849
1.0341325 -0.12189405 3.4892852
1.0594678 -0.11896411 3.4606457
0.77986091 -0.065075003 3.4671855
0.82132214 -0.071868829 3.4861624
1.0391351 -0.068282023 3.4841888
1.0593117 -0.06792812 3.4610291
0.77680683 -0.025093807 3.4635947
0.81662494 -0.025274064 3.4852986
1.0388532 -0.025505703 3.4836271
1.0592425 -0.025372613 3.4611714
0.73996478 0.033536237 3.4534111
0.77751231 0.01690843 3.4667823
0.82789594 0.017079609 3.495795
1.0386062 0.017244706 3.4827814
1.0638318 0.021425202 3.4613695
0.74032468 0.050281581 3.454946
0.77789915 0.067362756 3.4680295
0.82144439 0.063610747 3.4866984
1.0397917 0.06860695 3.4862912
1.058671 0.068169862 3.4588385
0.7758919 0.11572191 3.4678967
0.82165331 0.12454883 3.4926589
1.0392905 0.11990038 3.4836721
1.0621419 0.12335812 3.454349
0.74102741 0.16755557 3.4556897
0.77709067 0.17067392 3.4717526
0.81024945 0.1528098 3.4933128
1.0407541 0.17145966 3.487067
1.0596848 0.17038232 3.4597073
0.74087816 0.21773477 3.453109
0.77529234 0.21693811 3.4745071
0.80972689 0.22052678 3.4885683
1.0409101 0.22289534 3.4856212
1.0615171 0.22183181 3.4636996
0.74205953 0.26837897 3.4562404
0.77202374 0.27007234 3.4741924
0.80001813 0.2540608 3.4830227
1.0399983 0.27108461 3.4863148
1.0590789 0.27774557 3.4678664
0.73820925 0.3230404 3.4552834
0.77402848 0.32153496 3.4802551
0.80458295 0.32362497 3.4990814
1.0395516 0.32232961 3.4910173
1.0580286 0.32859731 3.470372
0.7400552 0.36591777 3.4610767
0.77641177 0.37342533 3.4876051
0.81097603 0.36367413 3.4986877
1.0398792 0.3825525 3.4879832
1.0590153 0.37339815 3.4705176
0.73763561 0.42156982 3.4658301
0.77775198 0.42508641 3.4897358
0.8061673 0.42662895 3.4986086
1.036423 0.42333031 3.488507
1.0587895 0.43154675 3.4651539
-0.012412861 0.48283449 3.4674459
0.73375177 0.4743723 3.4605069
0.77772123 0.47368923 3.493386
0.80647838 0.46092859 3.4970665
1.0413853 0.4778173 3.4850826
1.0595983 0.48327652 3.4631565
-1.4549965 0.52777386 3.4593632
-1.4231564 0.52901125 3.4777236
-1.3895425 0.52962083 3.4918058
-0.01792982 0.54309821 3.4564753
0.73743737 0.52041286 3.4642456
0.77675062 0.53129828 3.4924812
1.0385618 0.52587664 3.4862218
1.0610075 0.52850419 3.4633026
-1.455882 0.58091205 3.4554644
-1.4262524 0.57710284 3.4730504
-1.3927946 0.57509971 3.4950705
-0.012504159 0.57862651 3.4835014
0.054107819 0.59863102 3.4508784
0.73016453 0.57408506 3.457056
0.76642805 0.57739407 3.4902792
1.0398645 0.56970006 3.4859457
1.0610665 0.57578003 3.4643853
-1.4564842 0.62515461 3.4514513
-1.4239669 0.62067831 3.4751873
-1.3945247 0.62008548 3.4940646
-0.020762883 0.62522852 3.4573474
0.054180879 0.63275295 3.4516106
0.64844817 0.62730867 3.4767931
0.67433906 0.64484763 3.474575
0.72557384 0.62803507 3.4706237
0.76301318 0.62892693 3.4902415
1.0360887 0.61990356 3.4922593
1.0606563 0.62294853 3.4635177
-1.458748 0.67021257 3.4509172
-1.4277905 0.67223042 3.471802
-1.3973805 0.67460495 3.4942563
-0.029132571 0.67595369 3.4546642
0.054424576 0.68577296 3.4608486
0.69716954 0.67612809 3.4531937
0.72429276 0.67592347 3.4668002
0.76700747 0.66854024 3.4957652
1.0388968 0.67977273 3.4848197
1.0644299 0.67243737 3.4636462
-1.4613948 0.71558237 3.4508748
-1.4301161 0.72646505 3.4698267
-1.3912437 0.73191088 3.4905999
-0.029197615 0.72764254 3.4555712
0.061100114 0.71905231 3.4553177
0.6990242 0.7287668 3.455404
0.725622 0.72624886 3.4763296
0.75864631 0.72015887 3.4910824
1.0469198 0.72994637 3.489619
1.0667647 0.72575969 3.4640505
-1.4277117 0.77765417 3.4708476
-0.029269835 0.77133673 3.4580278
0.063095599 0.77328998 3.4664834
0.6869517 0.77608705 3.4534748
0.72749668 0.77452034 3.4743769
1.0472761 0.78235179 3.483012
1.0669769 0.77900022 3.4629264
-1.4532261 0.83585036 3.460366
-1.4227332 0.82184315 3.4805386
-1.3879482 0.82149941 3.4987068
-0.037770171 0.82457143 3.4624062
0.06309779 0.82378644 3.4589088
0.68463075 0.82503283 3.4564288
0.72373271 0.82226557 3.4773035
0.76183045 0.82648057 3.4902523
1.0419737 0.8197853 3.4906771
1.0692894 0.82703596 3.4567685
-1.4697124 0.87623781 3.4586246
-1.4259578 0.87651765 3.4848459
-0.063064188 0.89241505 3.4531877
-0.037921794 0.87854177 3.4679756
0.063269533 0.87664574 3.4602435
0.67872447 0.87210643 3.4542027
0.72658277 0.87709892 3.482475
1.0374905 0.88443947 3.496413
1.0637217 0.8724981 3.4693162
-1.4801517 0.92455226 3.4611206
-1.4334196 0.92192841 3.4853082
-0.063172936 0.93612123 3.4516249
-0.038021255 0.93143719 3.4673195
0.067029797 0.93174952 3.4587531
0.68394959 0.91913962 3.4596658
0.72338456 0.92621678 3.4875019
1.0403057 0.93075001 3.4979715
1.0606288 0.92551756 3.4728587
-1.4711683 0.96982926 3.4699082
-1.4363047 0.97294348 3.4929869
-0.038166963 0.97743928 3.4725366
