ply
format ascii 1.0
comment PCL generated
element vertex 1525
property float x
property float y
property float z
element camera 0
property float view_px
property float view_py
property float view_pz
property float x_axisx
property float x_axisy
property float x_axisz
property float y_axisx
property float y_axisy
property float y_axisz
property float z_axisx
property float z_axisy
property float z_axisz
property float focal
property float scalex
property float scaley
property float centerx
property float centery
property int viewportx
property int viewporty
property float k1
property float k2
end_header
0.72719938 0.87784129 3.4854443
1.0369055 0.87520534 3.4959505
1.0619401 0.87362784 3.4731216
-1.4711933 0.92580092 3.458653
-1.4286894 0.92299253 3.483263
-0.063196056 0.94489419 3.4513483
-0.03806147 0.92427111 3.4737763
0.063433915 0.92109334 3.4615684
0.68869257 0.92406654 3.4607599
0.72622532 0.92642671 3.4845974
1.0383523 0.92022228 3.4930429
1.0612539 0.92606682 3.4748859
-1.4662642 0.97268111 3.4734352
-1.436293 0.97293168 3.4929588
-0.063245736 0.9625212 3.4509168
-0.038189486 0.96957803 3.4763968
0.064912535 0.97231567 3.4677143
0.68229938 0.97844952 3.4631915
0.72354776 0.97171533 3.4859383
0.75115502 0.97269243 3.499078
1.0414686 0.9757275 3.4935737
1.0680376 0.97644216 3.467335
-1.4720696 1.0268283 3.4703627
-1.4398355 1.0294981 3.4903796
-0.063528471 1.0177011 3.4564664
-0.038337093 1.0246301 3.4801865
0.069871798 1.0252378 3.4645066
0.6786477 1.0262817 3.4677758
0.72451741 1.0239853 3.4897032
1.0436261 1.0305972 3.490216
1.0630579 1.0203171 3.4690666
-1.5108948 1.0828649 3.4535508
-1.4773294 1.0756818 3.4728317
-1.4459741 1.0792334 3.4953744
-0.063782118 1.0728403 3.4597979
-0.038449243 1.0790702 3.4800522
0.038675822 1.0725625 3.488596
0.072525233 1.074927 3.4663119
0.68362558 1.0721358 3.4716265
0.71860296 1.0801915 3.4936497
1.0403255 1.082086 3.4941902
1.0663784 1.0727575 3.4694786
-1.5117958 1.1275223 3.45784
-1.4776456 1.123704 3.4796817
-1.4486437 1.1084722 3.4956524
-0.06829641 1.1282896 3.4620411
-0.03858804 1.125846 3.4831555
0.038852986 1.1206105 3.4954433
0.074843213 1.126632 3.4639411
0.64243394 1.138363 3.4528127
0.67105776 1.1257502 3.4674389
0.70823175 1.1286093 3.4911814
1.0492169 1.1158254 3.4917393
1.0625023 1.1253843 3.4704013
-1.5021216 1.1712995 3.4612393
-1.4795152 1.1749665 3.4806905
-0.064182207 1.1738217 3.4606471
-0.038630363 1.1700016 3.4769742
0.038894679 1.1736006 3.4876974
0.070590623 1.173447 3.4711974
0.64499342 1.1948529 3.4544411
0.67263937 1.1799978 3.4736409
0.70403343 1.172063 3.4908268
1.0570767 1.1733797 3.4796906
-1.5167893 1.2263355 3.463304
-1.4807675 1.2274085 3.4818118
-0.068679385 1.2247643 3.4602082
-0.038821571 1.2277501 3.4822035
0.039082043 1.2226355 3.4944146
0.073256172 1.223482 3.4697251
0.64605898 1.2315212 3.4516938
0.67903841 1.227066 3.4781144
0.70710421 1.2210858 3.495635
1.0606154 1.2250696 3.4729741
-1.518535 1.2783229 3.4641292
-1.4789259 1.2747027 3.490293
-0.073220782 1.2765088 3.4604962
-0.038951349 1.2750462 3.4826753
0.075916052 1.273596 3.4672337
0.64767152 1.2606785 3.4537516
0.67341596 1.2796905 3.4768455
0.71008748 1.2703738 3.4994082
1.0438893 1.2905362 3.4981365
1.0682315 1.2739797 3.4674754
-1.5178357 1.3254755 3.466141
-1.4784523 1.3269714 3.4907286
-0.073544145 1.3253984 3.4644144
-0.039056648 1.3220729 3.481118
0.03932222 1.3174372 3.4942493
0.071698748 1.3225757 3.4758213
0.10810688 1.331282 3.4543121
0.67580998 1.3252672 3.4808075
0.71661204 1.3126768 3.4910653
1.0449495 1.3277553 3.4920652
1.0665803 1.3212249 3.4691217
-1.5244741 1.3730307 3.4625969
-1.4837914 1.3780078 3.4900725
-0.073757656 1.3728514 3.4631605
-0.039261498 1.3730938 3.488651
0.039489828 1.3756683 3.4952266
0.076288909 1.3749017 3.4744349
0.10844259 1.3787895 3.4532928
0.62914151 1.3722485 3.4551592
0.67348385 1.375719 3.4813962
1.0460563 1.374048 3.483325
1.0703142 1.3737152 3.46106
-1.5512303 1.4452844 3.4552867
-1.5288576 1.4230299 3.4652522
-1.491011 1.4256761 3.4892833
-0.10019123 1.4474165 3.4550827
-0.07990218 1.4285288 3.4648693
-0.039396223 1.4209076 3.48648
0.039607815 1.4237728 3.4934986
0.071864463 1.4221661 3.475558
0.6252616 1.4204969 3.4542191
0.67490029 1.4261398 3.4831014
1.0484045 1.4041378 3.4834123
1.0602648 1.4272306 3.47825
-1.5538301 1.4755526 3.452167
-1.5215493 1.4802589 3.4756262
-1.484657 1.4619308 3.4943287
-0.10024101 1.4655808 3.4516411
-0.072636627 1.475544 3.4662774
-0.041276585 1.4745512 3.4829109
0.039753385 1.4731376 3.4936786
0.076731086 1.4708774 3.4703209
0.6272397 1.4793121 3.4639969
0.6719889 1.4776014 3.4827807
1.0603803 1.4713306 3.4724259
-1.5627762 1.5213847 3.4597623
-1.527995 1.5239173 3.4781239
-1.4940754 1.5274287 3.4984422
-0.10052282 1.504688 3.4507561
-0.074560419 1.5193393 3.4619455
-0.037921838 1.5234296 3.4853845
0.039856195 1.5034972 3.4948609
0.072312571 1.521731 3.4706895
0.6227718 1.522679 3.4593551
0.67564237 1.5304039 3.4880195
1.0650809 1.5169551 3.4684348
-1.5651578 1.5798752 3.4594045
-1.5279338 1.5680933 3.4789116
-1.4974973 1.5591002 3.4970849
-0.073334858 1.5781267 3.4719791
-0.041596118 1.5751016 3.4835639
0.040101431 1.5751023 3.4971714
0.0682161 1.5726793 3.4779313
0.63117594 1.5745353 3.4651389
0.66790605 1.5691124 3.484304
1.0467821 1.5727696 3.4975038
1.068132 1.5702178 3.4768414
-1.5673032 1.6291289 3.4611206
-1.5259386 1.6232866 3.4873288
-0.10154115 1.6259527 3.4516242
-0.075287282 1.6137487 3.4697456
-0.039976414 1.6113276 3.4870579
0.040222932 1.6334901 3.4904523
0.064849719 1.6195924 3.4736469
0.62242371 1.6301157 3.4657803
0.66684395 1.6177542 3.4895291
1.0496247 1.6228944 3.4916301
1.0729477 1.616632 3.4720054
-1.5729804 1.672841 3.4597685
-1.5295788 1.6770372 3.4847248
0.040394519 1.6673787 3.4963658
0.075671896 1.6730554 3.464381
0.59578669 1.6755614 3.4551363
0.62817985 1.6800995 3.4738472
0.65628111 1.6748629 3.4902682
1.0670825 1.6733397 3.4759867
-1.5667976 1.7208441 3.4628222
-1.5271323 1.7228601 3.4897623
0.040554356 1.7280428 3.4915445
0.067302331 1.722146 3.4793541
0.59753585 1.7164454 3.4524837
0.62855446 1.7275275 3.4712729
0.67448741 1.7223583 3.4940097
1.0699856 1.7256753 3.4736683
-1.5711024 1.7788298 3.4647088
-1.5349555 1.7699455 3.4928491
0.085111052 1.7556694 3.4614463
0.62001067 1.7651777 3.4620535
0.6755923 1.779879 3.4796662
1.0471489 1.787518 3.4990063
1.0707443 1.7735939 3.4735985
-1.5711704 1.8336157 3.4658172
-1.5382622 1.8201622 3.4877517
0.67181855 1.8197105 3.4643073
0.71436888 1.8243519 3.4929957
1.0494814 1.8101656 3.4996254
1.0714412 1.8255231 3.471437
-1.5739713 1.8779808 3.4664443
-1.5414374 1.8852503 3.4935098
0.68245304 1.8781731 3.4608698
0.70536554 1.8628278 3.4918706
1.0676326 1.875365 3.4787049
-1.5753301 1.9209278 3.4634774
-1.5411552 1.934893 3.4917114
0.68676162 1.9269855 3.467623
0.70924664 1.9287313 3.488637
1.0669601 1.927562 3.482636
-1.606142 1.9708791 3.4532728
-1.572898 1.9749492 3.4688926
-1.5385857 1.972261 3.4885123
0.69178182 1.9781756 3.4773679
0.71363264 1.9873247 3.4906073
1.0463431 1.9795337 3.4984369
1.0700461 1.9730889 3.4676056
-1.5772548 2.0224667 3.4714928
-1.542661 2.0283122 3.4955277
0.69175285 2.0245528 3.457052
0.72784984 2.0274704 3.4895272
0.75686193 2.0312159 3.4999666
1.0492417 2.0230083 3.4914892
1.0708005 2.0268185 3.4630516
-1.6031529 2.0697508 3.4595346
-1.5721748 2.0774522 3.481154
-1.549374 2.0666456 3.4969883
0.69693518 2.0678225 3.4703684
0.72667903 2.078398 3.490917
1.0612686 2.0754843 3.4760561
-1.6097004 2.1176095 3.4543915
-1.5741181 2.1227295 3.4773769
-1.5400306 2.1400545 3.4989617
0.68226987 2.1460366 3.4633939
0.71937382 2.1291401 3.4859989
1.0414685 2.1218698 3.4987931
1.0624743 2.1236198 3.4669864
-1.6179631 2.1581774 3.4572268
-1.578681 2.1685205 3.4676857
-1.5456979 2.1777751 3.4969759
0.68613058 2.1771202 3.4739366
0.71627647 2.1634169 3.4870355
1.0443299 2.1758547 3.4853203
1.0673189 2.1768453 3.4674461
-1.6047325 2.2167592 3.4532661
-1.5688887 2.2222869 3.4767723
0.63382041 2.2402534 3.4836106
0.66329455 2.2145755 3.4982264
1.0407073 2.2272611 3.4887528
1.0623533 2.211828 3.4577138
-1.5746852 2.2705307 3.4684732
-1.5402989 2.2787647 3.4957898
0.63349503 2.2772431 3.4626026
0.673145 2.2728255 3.4696879
0.72706604 2.2923925 3.4920323
1.0354166 2.2658839 3.491008
1.0525779 2.2706907 3.4738429
-1.5704908 2.3190758 3.4631951
-1.527406 2.3257782 3.4860497
0.22747968 2.3355696 3.4803505
0.34692693 2.3385143 3.4514477
0.36713907 2.3462176 3.4612834
0.42743966 2.344003 3.4913108
0.47232413 2.3477631 3.4536095
0.6258654 2.322475 3.4547193
0.72472006 2.3042088 3.4708638
0.75798184 2.3179283 3.4867082
0.80775368 2.3319716 3.4796743
1.0389556 2.3224537 3.4774477
1.0555592 2.3258135 3.4580624
-1.5180728 2.3599629 3.4658883
-1.4760414 2.3666277 3.4800441
-1.4285243 2.3768005 3.4759798
-1.3857665 2.3822362 3.4769101
-1.3285683 2.3893664 3.4629517
-1.2778769 2.3876092 3.475666
-1.2248992 2.3812673 3.4808989
-1.1755223 2.3815496 3.4695587
-1.1267881 2.3879197 3.4863315
-1.0557085 2.3970921 3.4664323
-1.0235822 2.3908567 3.4644928
-0.97472054 2.3911393 3.4761927
-0.91973847 2.3904781 3.4735763
-0.87783778 2.3911998 3.4806094
-0.83075476 2.391144 3.4654827
-0.7709704 2.3865092 3.4694443
-0.72467589 2.3938098 3.4883628
-0.67333263 2.3904994 3.478317
-0.6230998 2.3869476 3.4738269
-0.57485336 2.3872373 3.4807851
-0.52529401 2.3814964 3.4784493
-0.48085541 2.3809328 3.4729016
-0.42641634 2.3774323 3.4636154
-0.37809256 2.3749101 3.4642799
-0.32070389 2.3752437 3.4692974
-0.26966515 2.3818138 3.4695704
-0.22487532 2.3740826 3.4734757
-0.17704932 2.3744311 3.4761639
-0.12908742 2.3735068 3.4764395
-0.071622968 2.3712499 3.4744263
-0.023822593 2.3682575 3.4705722
0.02875923 2.3691061 3.4813273
0.068788089 2.385155 3.4821122
0.12951227 2.3791871 3.4847891
0.17682527 2.3611717 3.4758427
0.21460998 2.35603 3.4666476
0.38768926 2.3552141 3.4729316
0.43027726 2.365464 3.4687638
0.84228158 2.3667655 3.4866445
1.0218582 2.3780036 3.4794238
-1.1576279 2.4048295 3.4521406
-1.1160312 2.4001145 3.4558628
-1.0885348 2.4045117 3.4697809
0.081672966 2.4014292 3.4800773
0.84429687 2.4017396 3.4790912
0.87588501 2.4178543 3.4770613
0.91763711 2.4129474 3.4677365
0.97382069 2.4155798 3.48331
1.0153096 2.4139092 3.4609475
0.8809818 -0.3662689 3.5048099
0.92706394 -0.3751218 3.5162385
0.97099328 -0.37958658 3.5179682
1.0034332 -0.37879196 3.504195
0.87911558 -0.32283908 3.5054772
0.92495507 -0.32680333 3.5181725
0.97133607 -0.32792929 3.5226607
1.0032557 -0.32706267 3.5070393
0.8812831 -0.275888 3.5053599
0.92459172 -0.27507585 3.5197256
0.97039455 -0.27587059 3.5221999
1.0027976 -0.27528286 3.5083821
0.88156891 -0.22224264 3.5089872
0.92428249 -0.22339498 3.520977
0.97118282 -0.22428963 3.5274794
1.011089 -0.22357838 3.5080974
0.87825966 -0.16867504 3.5091195
0.92569661 -0.17208689 3.5282669
0.97177464 -0.17261949 3.5315456
1.0031153 -0.17205636 3.5138409
0.87681532 -0.11963126 3.5135095
0.92553782 -0.12039905 3.5290396
0.97184521 -0.12079954 3.5331933
1.008373 -0.11677005 3.5083644
0.83888626 -0.059497476 3.5046923
0.87719458 -0.068338789 3.5158839
0.92677069 -0.068833984 3.5346336
0.97205269 -0.068984546 3.5348732
1.010841 -0.068679921 3.5114431
0.83873606 -0.025441783 3.5043161
0.87657899 -0.025530478 3.5138338
0.92499155 -0.025690176 3.5282161
0.97177505 -0.025781602 3.5342395
1.0106325 -0.025657669 3.5111125
0.83936369 0.025675932 3.5069032
0.87799013 0.017252862 3.519412
0.92631054 0.017358964 3.5332491
0.97193283 0.017415294 3.5347679
1.0114263 0.017363997 3.5138781
0.83083534 0.068276756 3.5077536
0.87760806 0.068594545 3.5174303
0.92776901 0.069169678 3.5383351
0.97208279 0.069245748 3.5348997
1.0119195 0.06902688 3.5150936
0.83423072 0.1150196 3.5026293
0.87615556 0.12220901 3.5195706
0.92413044 0.11848176 3.5382869
0.97335815 0.1212649 3.5385828
1.011631 0.12065516 3.5130959
0.8350966 0.17479163 3.5045874
0.87507832 0.16934092 3.5255215
0.92130733 0.1748825 3.5369895
0.97382218 0.17324534 3.5387714
1.0129761 0.17256917 3.5163057
0.82817745 0.21601902 3.5048583
0.87527114 0.22335403 3.5242488
0.92257375 0.22481355 3.5399346
0.97450191 0.22533891 3.539254
1.0126358 0.2242002 3.51316
0.83469373 0.27007392 3.5099702
0.87160206 0.27488783 3.5224917
0.92159736 0.27700564 3.5423653
0.97473836 0.27738529 3.5376446
1.0113337 0.27258092 3.5126185
0.83530492 0.32157594 3.5096192
0.8739264 0.32727823 3.528939
0.9111048 0.33237398 3.5405407
0.98183584 0.32762536 3.5415416
1.0139337 0.32804409 3.5121067
0.83536738 0.37707308 3.513622
0.87645084 0.38004193 3.5356178
0.92178309 0.37965709 3.5454519
0.98057467 0.37768903 3.5430603
1.0158491 0.38052925 3.5151927
0.82999396 0.43115297 3.5149052
0.87642998 0.43182218 3.5315402
0.9250614 0.42050213 3.5462227
0.97874606 0.42269117 3.5424809
1.0160705 0.42385969 3.5125854
0.82650447 0.47879958 3.5148885
0.87797427 0.47584882 3.5340204
0.91419297 0.47239161 3.5419021
0.9877277 0.47006223 3.5378368
1.0174502 0.46772584 3.5136077
-1.3727018 0.52935237 3.5133154
-1.3380136 0.52662021 3.5276287
0.7923035 0.53113866 3.5059624
0.8265304 0.52282727 3.5120885
0.87281841 0.51945114 3.5332787
0.91508293 0.51057792 3.5465851
0.99118721 0.52319956 3.5386753
1.0196518 0.52082264 3.5162127
-1.3701131 0.57671148 3.5122585
-1.3323824 0.56748253 3.536423
0.79270816 0.58283007 3.5022516
0.82420695 0.57194221 3.5168221
0.87198454 0.57274044 3.5366201
0.91778517 0.5718717 3.5461075
0.98440748 0.57856387 3.5398822
1.0206078 0.57340991 3.5139663
-1.3660921 0.62194234 3.5134394
-1.3309649 0.62231213 3.5393796
-0.012591824 0.62486345 3.5030503
0.79394406 0.61808223 3.5037243
0.82425421 0.62151796 3.5191593
0.87131417 0.62369436 3.5373883
0.91255641 0.62012553 3.5487676
0.98835176 0.62948424 3.5375679
1.0214405 0.62606043 3.5107653
-1.368536 0.68236274 3.5119426
-1.3332969 0.67701209 3.5387039
-0.01271732 0.67374045 3.5326605
0.78933078 0.66805732 3.5087409
0.82711488 0.67564327 3.5249183
0.87743068 0.681099 3.5462096
0.91474301 0.68288755 3.5496409
0.98153591 0.67260528 3.5399933
1.0180355 0.68271059 3.5131671
-1.3703449 0.7289421 3.5122795
-1.3391962 0.72588801 3.5412488
0.78313696 0.72377431 3.5055108
0.82532263 0.73178297 3.5262885
0.86609101 0.72207379 3.5439446
0.97880864 0.71998411 3.5439441
1.0155238 0.72170419 3.5192046
-1.368915 0.77381551 3.5156958
-1.336664 0.77630949 3.5402339
0.77626091 0.774499 3.5063751
0.82290667 0.78086352 3.5311229
0.86676407 0.77495015 3.545567
0.98533726 0.76994032 3.5438445
1.0192256 0.77006161 3.5159483
-1.373596 0.82362342 3.512641
-1.3404592 0.82350665 3.5430894
0.77900457 0.82101291 3.5159976
0.82680273 0.82252592 3.5320082
0.87112141 0.82123268 3.5453486
0.98254043 0.82847422 3.5416126
1.0194402 0.82668912 3.5161042
-1.3826473 0.87631303 3.5201442
-1.3495063 0.87593591 3.5454812
0.77880943 0.87178975 3.5123432
0.82741398 0.87567043 3.5360615
0.86380976 0.85953921 3.539104
0.99369997 0.87461406 3.5410047
1.0183448 0.87681139 3.5220675
-1.3724673 0.92164516 3.5261283
0.77805263 0.92158431 3.5085466
0.82405227 0.92753392 3.5352089
0.85097557 0.93486834 3.5494599
0.9972356 0.92203873 3.5458357
1.017027 0.921049 3.5229275
-1.4113774 0.97438121 3.5060511
-1.374321 0.97622126 3.5334792
0.77204287 0.97462451 3.5128071
0.82353032 0.97776353 3.5411882
0.85839653 0.97190493 3.5483348
0.99300659 0.97101098 3.5384088
1.0233706 0.96872342 3.5158784
-1.4172587 1.0237267 3.511431
-1.3743874 1.023555 3.5386484
0.77577084 1.0256442 3.5207009
0.82599306 1.024888 3.5432129
0.8556326 1.0463986 3.5484543
0.99196041 1.0232799 3.5418658
1.0253743 1.0236871 3.5122745
-1.4185854 1.0755805 3.5151398
-1.387048 1.0714538 3.5332985
0.73799413 1.0743558 3.5023828
0.78059971 1.0753188 3.5228519
0.8265301 1.0773611 3.5432892
0.98630393 1.0623462 3.5479183
1.0116011 1.0695881 3.524169
-1.4540561 1.1490898 3.5001519
-1.4180609 1.1221159 3.5185764
-1.387253 1.1266944 3.5434675
0.7371096 1.1233273 3.5101051
0.7737937 1.1218834 3.5202322
0.82101518 1.1229203 3.5418692
0.98990697 1.1379068 3.5453537
1.0185971 1.1257989 3.5233026
-1.4578166 1.1794918 3.502542
-1.4242033 1.1727908 3.5229366
-1.3907746 1.1754791 3.5416634
0.73399317 1.169214 3.5068669
0.77725279 1.1735382 3.5314457
0.8186155 1.1781203 3.5425584
0.99129969 1.1754112 3.5421243
1.0238196 1.1725054 3.5132606
-1.4621433 1.219673 3.5037522
-1.4279176 1.2217563 3.5207536
-1.3913826 1.2127242 3.5342505
0.73869199 1.2209438 3.5188549
0.77828574 1.2276045 3.532706
0.81405354 1.2204815 3.54426
0.99554163 1.2254945 3.54653
1.0241243 1.2215815 3.5213959
-1.4502356 1.2895689 3.5080264
-1.4255774 1.2738574 3.5286298
0.039377827 1.275593 3.5102348
0.73557776 1.2752056 3.5094981
0.77919406 1.2735615 3.5258272
0.81638962 1.2717623 3.54268
0.99726987 1.2727506 3.5414686
1.0269113 1.274369 3.5185783
-1.4524848 1.3192558 3.5058732
-1.4217582 1.3250071 3.5322773
0.73569661 1.3377795 3.521301
0.77311558 1.3229266 3.5285542
1.0137208 1.3243819 3.5287864
-1.458941 1.3714625 3.5083005
-1.4284418 1.3777866 3.5357552
0.039543271 1.3511872 3.5070171
0.72719163 1.3742224 3.5148313
0.77319431 1.3722925 3.5342307
0.98640054 1.3821037 3.5444252
1.0204647 1.373754 3.5215852
-1.4607321 1.4286712 3.5147886
-1.429297 1.4270246 3.5350919
0.69895285 1.4069636 3.5013955
0.72387016 1.428182 3.5113616
0.77115828 1.4252195 3.5374117
1.0216686 1.4258385 3.531059
-1.4692568 1.4744895 3.5161767
-1.435304 1.4718304 3.54581
0.72382897 1.4747652 3.5175283
0.77303594 1.4739141 3.5329561
0.80346888 1.470963 3.5459983
1.0285792 1.4759234 3.5230517
-1.4693975 1.5216068 3.5185969
-1.4374565 1.529331 3.5375779
0.04002583 1.5365785 3.5016406
0.72582465 1.5178515 3.5152848
0.76727813 1.521191 3.5372908
1.0282193 1.5266577 3.5260522
-1.4700243 1.577184 3.5192146
-1.4390454 1.567006 3.5355949
0.6915949 1.5822682 3.5110655
0.72120994 1.5786618 3.5221539
0.75884598 1.5696187 3.5435054
1.029842 1.5694823 3.5230305
1.0511863 1.5977546 3.5061376
-1.5089558 1.6278176 3.5042374
-1.4735883 1.6210999 3.5256584
-1.4410797 1.6366615 3.5474174
0.04023369 1.6071082 3.5001538
0.68432665 1.6316705 3.5064421
0.72465968 1.6318278 3.5241148
0.76154733 1.6179361 3.5422876
1.0254762 1.6253235 3.5266588
-1.4787942 1.6743921 3.5211961
-1.4444706 1.6691349 3.5456653
0.058510289 1.6908249 3.5014627
0.68492103 1.670199 3.5079219
0.72978008 1.6800671 3.536526
0.75924504 1.6843945 3.541451
1.0344139 1.6795576 3.5268781
-1.5020192 1.7267824 3.5072534
-1.4688978 1.7327236 3.5316918
-1.4340624 1.7464409 3.5485563
0.69825494 1.7162104 3.5046132
0.72446519 1.7217588 3.5274174
1.0343527 1.7279611 3.5224781
-1.5073764 1.7712369 3.5050602
-1.474733 1.7780476 3.5310314
0.67298985 1.758251 3.506325
0.72484559 1.7719004 3.5139995
0.77200383 1.7759438 3.5367389
0.80554831 1.7883313 3.5477557
0.98922926 1.772532 3.5494075
1.0286151 1.7713276 3.522975
-1.5135895 1.8170002 3.5042765
-1.4805549 1.8236634 3.5298283
0.74312294 1.8188735 3.5082846
0.77806199 1.8259856 3.5301228
0.80665815 1.8187976 3.54215
1.0221957 1.8256789 3.5298831
1.0530713 1.8350872 3.5042889
-1.5171684 1.8754548 3.5055408
-1.4798683 1.8643425 3.5238061
-1.4495995 1.8623718 3.5491719
0.72847295 1.8794825 3.5096836
0.77538389 1.8821328 3.5356324
0.8236165 1.8632092 3.5463095
0.989245 1.8842267 3.5490546
1.0203112 1.8727218 3.5291324
-1.5135157 1.9217432 3.5063486
-1.4775219 1.9189186 3.5319755
0.73185331 1.9301928 3.5090852
0.77091151 1.9233049 3.537168
0.99208117 1.9276183 3.5438948
1.0285109 1.9238039 3.5189693
-1.5123199 1.9802972 3.5139351
-1.4778917 1.9647923 3.5389895
0.72749406 1.9693766 3.5046911
0.77367103 1.9818342 3.5222127
0.82984746 1.9919899 3.543705
0.87943769 1.9906435 3.5466111
0.92670697 1.9773763 3.54181
0.98876619 1.9684516 3.5415757
1.023598 1.9735339 3.5230129
-1.5141666 2.0262234 3.5156255
-1.4883633 2.0245621 3.5306351
0.77712417 2.020849 3.5094538
0.82411575 2.0260468 3.52985
0.86356235 2.0328946 3.5480709
0.98720384 2.0163696 3.5438831
1.0200882 2.0279608 3.521703
-1.5222998 2.0798318 3.5082343
-1.4796737 2.0777054 3.5327809
0.77333736 2.0784321 3.5179608
0.82782441 2.0694246 3.5305572
0.98539424 2.0674036 3.5433798
1.0179216 2.0760825 3.5178561
-1.5183043 2.1310701 3.5178082
-1.482533 2.1130581 3.53828
0.74553454 2.1183047 3.5085936
0.78815895 2.1308541 3.5230112
0.81670034 2.1221185 3.5322137
0.85145807 2.1266985 3.5465848
0.9921087 2.1299067 3.5455351
1.0197396 2.1267431 3.5194876
-1.5199914 2.1836896 3.5169997
-1.4858406 2.1697824 3.5379777
0.77326763 2.1809876 3.5275142
0.83142948 2.1535251 3.5333817
0.85403281 2.1620891 3.5439019
1.0205319 2.1754041 3.5240974
-1.5231571 2.2281945 3.5040097
-1.4850613 2.2279816 3.5307307
0.68099856 2.2400749 3.5065522
0.71535224 2.2185569 3.5170257
1.0239228 2.2269843 3.5203502
-1.511894 2.2813313 3.5104048
-1.4723176 2.2793257 3.5343118
-1.4453903 2.2772458 3.5488927
0.71696055 2.262033 3.5059538
1.0143898 2.2744198 3.530968
-1.5048062 2.3160176 3.5047281
-1.4729865 2.3351421 3.521307
-1.4393469 2.3240743 3.5409272
0.18203256 2.3388448 3.5234776
0.77228701 2.3222446 3.5111661
1.0184855 2.3229976 3.5250282
-1.4667871 2.3599019 3.5020497
-1.4231305 2.3677607 3.518692
-1.3784236 2.3840516 3.5268507
-1.3273498 2.3838813 3.5246549
-1.2765228 2.3837583 3.5132809
-1.2277923 2.3862789 3.5314183
-1.175723 2.3823586 3.5392945
-1.1188508 2.3777721 3.5253429
-1.0769213 2.382961 3.5228269
-1.0359313 2.3845978 3.535197
-0.9665342 2.3998456 3.5329354
-0.934852 2.3948495 3.5319238
-0.8765167 2.3976488 3.5481191
-0.84079802 2.3904433 3.5233679
-0.77972823 2.3890405 3.5220816
-0.71595162 2.3890157 3.5326707
-0.66583699 2.3906698 3.5194929
-0.62039542 2.3847961 3.5304105
-0.57125676 2.3834684 3.5349114
-0.53249604 2.3848867 3.5417845
-0.46920568 2.3807728 3.5031404
-0.42242369 2.3800824 3.5264041
-0.37420052 2.3822119 3.5338254
-0.3248328 2.3783624 3.5279479
-0.27602547 2.3836584 3.523428
-0.22687043 2.3761787 3.5150394
-0.16933621 2.3816218 3.5256336
-0.12065841 2.3761878 3.5191522
-0.07238286 2.3753321 3.5188973
-0.024125803 2.370672 3.5319502
0.014552101 2.3778584 3.5232172
0.075729065 2.3704178 3.5245488
0.1207484 2.3666837 3.5244491
0.15951268 2.3587475 3.5308621
0.99399376 2.3743525 3.5287027
1.0120602 2.3604641 3.5235853
-1.0168917 2.40172 3.5245547
-0.98745286 2.4025059 3.5324755
-0.90798807 2.4023073 3.5490901
-0.8219257 2.4026477 3.5251544
0.88427377 2.4114075 3.5267136
0.92651725 2.4184604 3.5289299
0.96757507 2.4121671 3.5311794
0.93834794 0.325932 3.5516849
0.96128649 0.33939517 3.5515146
0.93582022 0.42667443 3.5521832
0.9621464 0.40064654 3.5503957
0.94234484 0.46693301 3.5562561
0.96448499 0.47145429 3.553196
-1.3082297 0.53605676 3.5604875
-1.2671826 0.53757936 3.5818129
0.89352173 0.54057366 3.5542121
0.93646306 0.53022975 3.5568841
0.97082388 0.52489221 3.5546541
-1.3044468 0.57654196 3.5590761
-1.2694057 0.57339978 3.5773301
-1.2399155 0.58057714 3.5919545
0.94238949 0.57691216 3.5513585
0.95816219 0.57765794 3.5532217
-1.3017949 0.64446354 3.5571685
-1.2750536 0.62621552 3.5741227
-1.2365426 0.6297884 3.5953398
0.89620662 0.64712411 3.5530212
0.92774367 0.63465655 3.5528846
0.95804948 0.63122642 3.5535023
-1.3034469 0.68112135 3.5569944
-1.273007 0.6775102 3.5740345
-1.2389026 0.67603475 3.59654
0.92799073 0.67236209 3.5551045
0.95293397 0.67639434 3.5564108
-1.3151653 0.72746044 3.5559645
-1.2716093 0.72275388 3.5788786
-1.2410727 0.71333182 3.5979934
0.89352566 0.73130745 3.5557649
0.92732 0.72089666 3.5580146
0.95431304 0.72136736 3.555649
-1.3160341 0.77032149 3.5575264
-1.2768081 0.7763288 3.5790334
-1.2452703 0.78821063 3.5996304
0.88144886 0.76315653 3.5516315
0.92016155 0.7749784 3.5582454
0.96386653 0.77969927 3.5555325
-1.3199251 0.83397114 3.5582833
-1.2798725 0.82342005 3.5805466
-1.2461691 0.82503283 3.5965528
0.88420922 0.84473532 3.5505345
0.92034668 0.82777345 3.5601041
0.9576838 0.82100868 3.5538149
-1.3188735 0.87899125 3.5588288
-1.280961 0.86867881 3.5833552
0.87758863 0.88210636 3.5549254
0.92852741 0.87356818 3.5655046
0.96879786 0.87234324 3.5596173
-1.3205822 0.92614776 3.5663698
-1.2794491 0.92920023 3.5898602
0.88101131 0.92266846 3.554584
0.92770219 0.92339009 3.5642035
0.97324783 0.92451382 3.5604436
-1.3236823 0.97379571 3.566164
-1.2822417 0.97685921 3.5891643
0.87893009 0.97508621 3.5568848
0.92802328 0.97712678 3.5650213
0.96945399 0.9859612 3.5584052
-1.3265952 1.0215408 3.564887
-1.2872775 1.021402 3.5893757
0.87546015 1.0222163 3.5592234
0.9246006 1.027477 3.56973
0.96025115 1.0274197 3.5629938
-1.3603746 1.0835803 3.5567708
-1.3243755 1.0727519 3.5764711
-1.2991784 1.0654163 3.5918739
0.87750208 1.0691636 3.5584977
0.92409325 1.0785896 3.5735977
0.96773058 1.0787209 3.5660036
-1.3625253 1.1289616 3.558269
-1.3212684 1.1237305 3.585252
0.84321272 1.1333554 3.5568333
0.87645638 1.1278559 3.5644259
0.92015916 1.1286936 3.5686314
0.97059768 1.1248308 3.5585613
-1.3691108 1.1752789 3.5602717
-1.3257653 1.1737419 3.5868094
0.84445572 1.170771 3.5540304
0.87493414 1.1757011 3.5644455
0.92689621 1.1776371 3.574475
0.96617222 1.1743813 3.5620785
-1.4006529 1.2393005 3.5531471
-1.3708137 1.2242746 3.5645142
-1.3320507 1.22129 3.5863483
0.84173948 1.2321109 3.555331
0.87844682 1.2254891 3.5681341
0.92451274 1.2251102 3.5758321
0.97157222 1.2293656 3.5630105
-1.4023316 1.259304 3.5526659
-1.3703969 1.27482 3.5653362
-1.3349979 1.2749655 3.5888915
0.83181649 1.2771188 3.5556576
0.87385768 1.2699076 3.5617778
0.93021172 1.2707361 3.5772185
0.97071171 1.2824166 3.5691979
-1.3701975 1.3241525 3.5672307
-1.3389759 1.3254433 3.5872982
0.82519209 1.3258817 3.5557427
0.87312967 1.3223187 3.5723319
0.92610532 1.3232163 3.5865552
0.9708482 1.325774 3.5642545
-1.3769898 1.3728253 3.5659647
-1.3371228 1.3734789 3.5888164
0.79820377 1.3530568 3.553266
0.82504207 1.3797662 3.5595849
0.87866169 1.3750516 3.5725014
0.92579335 1.3715544 3.5897267
0.96726316 1.374241 3.5722358
-1.4008839 1.4341819 3.5576143
-1.3751413 1.4249488 3.5752935
-1.3405542 1.4210184 3.5957081
0.82285404 1.4276351 3.5613816
0.87342101 1.4269329 3.5773087
0.92280823 1.4234387 3.5859966
0.97881126 1.4249439 3.5678427
-1.4161568 1.4842662 3.5661964
-1.370639 1.4783523 3.584908
0.83276069 1.4741645 3.5594001
0.87758446 1.4797198 3.5811195
0.92722619 1.4764169 3.5898638
0.97826421 1.475755 3.5719128
-1.4150264 1.524065 3.5554142
-1.3760635 1.5231986 3.5783303
-1.3432167 1.5383358 3.5992906
0.79002482 1.5345929 3.5536706
0.82625139 1.5261385 3.5671535
0.87747031 1.5276937 3.5926037
0.92775011 1.5276575 3.593663
0.97955084 1.5274874 3.5744865
-1.4188926 1.5903106 3.5598514
-1.3825388 1.5684067 3.5829942
-1.343403 1.5575444 3.5937369
0.78315336 1.5757056 3.5539126
0.82458407 1.575666 3.5715821
0.87364596 1.573688 3.5894947
0.93697739 1.5852017 3.5991905
0.97364599 1.5745933 3.5811269
1.0031322 1.57204 3.5546818
-1.4197363 1.6269705 3.5620232
-1.375267 1.6260957 3.5865703
0.79243445 1.626563 3.5608974
0.8281793 1.6195729 3.575211
0.87751806 1.6303451 3.5963912
0.92361534 1.6215222 3.5971713
0.97260147 1.6260073 3.5821283
1.0072058 1.6155449 3.5570428
-1.4186369 1.6724021 3.5613182
-1.3780204 1.6745186 3.5835762
0.77337408 1.666904 3.5553639
0.82303756 1.6741933 3.5791802
0.86608964 1.6856356 3.5973289
0.94296598 1.6798092 3.594358
0.97729331 1.6743912 3.5754163
1.0101881 1.6669079 3.5518389
-1.4519293 1.7065109 3.5536118
-1.4243395 1.7174928 3.5617814
-1.3834792 1.7196411 3.5840828
0.77664667 1.7298305 3.5578334
0.82927448 1.7241364 3.5794969
0.8732453 1.7326921 3.5920017
0.93990082 1.726359 3.5936832
0.98010772 1.7261143 3.5692778
1.0138825 1.7103924 3.5517657
-1.4226829 1.7753966 3.5666783
-1.3815335 1.773894 3.5925982
0.82855201 1.7717123 3.5605631
0.87716198 1.773373 3.5728393
0.92702138 1.7694267 3.5919034
0.97092885 1.7759539 3.5681646
1.000784 1.7857949 3.5517232
-1.4268521 1.8283813 3.5678153
-1.3844551 1.8099651 3.5878999
0.82939976 1.8278055 3.5565386
0.87141424 1.8278869 3.5719342
0.92612535 1.8241489 3.5908363
0.97005004 1.8269501 3.5741272
1.0023665 1.8074504 3.5502639
-1.4533836 1.8866864 3.5504963
-1.4248459 1.8777888 3.5651126
-1.3909481 1.8760736 3.5865319
0.81300986 1.8801203 3.5519366
0.8788982 1.8812675 3.5744119
0.92805809 1.8754935 3.5893257
0.96952838 1.8730775 3.568635
-1.4571494 1.9110786 3.5516117
-1.4227971 1.9271301 3.5713494
-1.3866317 1.9312067 3.5908284
0.82824802 1.9218431 3.564127
0.86922646 1.9288056 3.5703204
0.92335045 1.9305818 3.580343
0.96395791 1.9264317 3.5608242
-1.4501051 1.9866396 3.5634449
-1.4261758 1.9743974 3.5751069
-1.3941011 1.9810324 3.5935752
0.78074646 1.9687797 3.5521014
0.82130885 1.9657927 3.5613372
0.87589186 1.9670674 3.5583739
0.92783713 1.9607522 3.5541077
0.96617836 1.980538 3.5544569
-1.4637337 2.0214102 3.5564957
-1.4225634 2.029346 3.5804839
-1.3879354 2.0159535 3.5933228
0.88474566 2.0281556 3.5571177
0.92144108 2.0216537 3.5641453
0.96151209 2.035851 3.5707643
-1.4593549 2.0686128 3.5551739
-1.424723 2.0758235 3.5801675
-1.3871963 2.0790739 3.5980287
0.8776843 2.072371 3.5522742
0.91941381 2.0703061 3.5621347
0.96116829 2.0773916 3.5665407
-1.4670097 2.1292164 3.5505674
-1.4279073 2.1202929 3.5697663
-1.393525 2.1285415 3.5960903
0.88327676 2.1242023 3.5575018
0.92580616 2.1235318 3.5695148
0.97073954 2.1223998 3.5626645
-1.4616028 2.1740773 3.5579774
-1.4279187 2.1753016 3.5789344
0.8174926 2.1868956 3.5507193
0.9227019 2.172976 3.5813236
0.9815715 2.1736674 3.5704195
1.0013605 2.1888707 3.5602322
-1.4616971 2.22103 3.5585515
-1.424806 2.2261987 3.5798352
0.74203253 2.2314057 3.554492
0.80259264 2.2185469 3.5646348
0.94866633 2.2025959 3.5950007
0.97182202 2.2260919 3.5800953
1.0041257 2.2243261 3.5558715
-1.4238331 2.2693753 3.5695305
-1.3930361 2.2803795 3.5941563
0.74502647 2.2598996 3.5593433
0.7764101 2.2627046 3.5864155
0.9750827 2.2722058 3.5699525
-1.4178976 2.3140595 3.5610659
-1.3797681 2.3279431 3.5849056
0.1222043 2.3460534 3.591486
0.16055241 2.3351648 3.5736661
0.76856428 2.3258862 3.579041
0.98195314 2.331948 3.5730672
-1.4145532 2.3534324 3.5538659
-1.3703816 2.3622918 3.5647438
-1.3305955 2.3739226 3.5844696
-1.2855484 2.386071 3.573287
-1.227874 2.3859465 3.5745909
-1.1748672 2.3808737 3.5805845
-1.1459384 2.3836069 3.5925369
-1.0207376 2.3709593 3.5592947
-0.97363734 2.387481 3.5748889
-0.93305951 2.3958654 3.5756459
-0.87279195 2.3947544 3.5858819
-0.81555653 2.3962367 3.5711973
-0.77844048 2.3904762 3.5757132
-0.72560233 2.3834493 3.5666609
-0.6810174 2.3884819 3.5812929
-0.62681276 2.3894651 3.5769379
-0.57454163 2.3775511 3.5655761
-0.52127677 2.3859293 3.5746899
-0.47568911 2.3842266 3.5670626
-0.42787656 2.3812792 3.5872409
-0.37780693 2.3755798 3.5829458
-0.32780018 2.3738241 3.574151
-0.27857327 2.3763399 3.5713086
-0.22962378 2.3755319 3.5727584
-0.17098077 2.3755405 3.5753078
-0.12191701 2.3715768 3.5709074
-0.073171809 2.3735135 3.5748637
-0.014676271 2.3766139 3.5998747
0.02443438 2.371557 3.572427
0.07000687 2.3689978 3.5746891
0.12158725 2.3537025 3.5635765
0.83456242 2.3709252 3.5559075
0.86343014 2.3962293 3.5901251
0.94445395 2.3892303 3.5839701
0.96993512 2.37713 3.5720305
-0.91604072 2.4035769 3.5912435
0.88911617 2.40469 3.5566835
0.924707 2.4099092 3.5785043
-1.2540883 0.52165723 3.601773
-1.2193785 0.53119129 3.6130619
-1.1683314 0.53252268 3.6343727
-1.1329682 0.53284931 3.6444998
-1.2145586 0.5737794 3.6107106
-1.1702672 0.57860786 3.6356485
-1.1339239 0.5784837 3.6428349
-1.2142138 0.6276539 3.6101761
-1.172286 0.62487167 3.6367915
-1.1266208 0.62463057 3.6452296
-1.2141994 0.67292172 3.6163025
-1.1741118 0.67118168 3.6368637
-1.1296985 0.67064518 3.6433883
-1.2207094 0.72663218 3.6102741
-1.1760951 0.72682804 3.635771
-1.1349622 0.72760391 3.6489964
-1.2237762 0.77772224 3.612236
-1.1780723 0.77353448 3.6353829
-1.1427066 0.77421081 3.6466393
-1.2238023 0.82830763 3.6172996
-1.1803 0.82059085 3.6353176
-1.1368442 0.80775505 3.643594
-0.95283771 0.81309593 3.6459727
-0.93076509 0.82759637 3.6307371
-1.2513065 0.88305509 3.6023061
-1.2220209 0.87463903 3.6223335
-1.1788273 0.88327324 3.6454349
-1.1478782 0.88749409 3.6458108
-1.2553216 0.93154287 3.6057804
-1.2212522 0.92426783 3.6234589
-1.1784132 0.92653859 3.642962
-1.1499614 0.91660285 3.6477048
-1.2586958 0.97983634 3.6069441
-1.2249475 0.97296417 3.6260045
-1.1841737 0.96236467 3.6444798
-1.2680234 1.0340799 3.6093798
-1.2284805 1.0217994 3.6275957
-1.196629 1.0352579 3.6494601
-1.2677362 1.0791167 3.6143055
-1.2253064 1.0731086 3.6382887
-1.1982738 1.0644512 3.6488454
-1.2715479 1.1286145 3.6150911
-1.2223154 1.1198282 3.6377645
-1.2750738 1.1781222 3.6145926
-1.2327933 1.1727148 3.6401589
-1.3087196 1.2485976 3.6078656
-1.2803124 1.2202141 3.6205809
-1.2380363 1.2244231 3.6446919
-1.3112479 1.2790332 3.6077633
-1.2697536 1.2748883 3.6290236
-1.2372845 1.2611045 3.6440542
-1.3178144 1.3267012 3.6088951
-1.2729938 1.3251067 3.634032
-1.2371072 1.3363147 3.6458902
-1.3160217 1.3775833 3.6111941
-1.2775111 1.3769883 3.634268
-1.3160946 1.4251124 3.6136703
-1.2781579 1.4271871 3.6351521
-1.246107 1.4313588 3.6490188
-1.3227302 1.4746925 3.6114793
-1.277637 1.4728647 3.6397216
-1.3198851 1.524834 3.6165564
-1.2835357 1.5213239 3.6373806
-1.3278797 1.5775812 3.616087
-1.2867972 1.575729 3.6440887
0.92386484 1.5716103 3.6027603
-1.3529015 1.6163861 3.6034622
-1.3241867 1.6266538 3.6187315
-1.2892355 1.6213232 3.6417322
0.89989412 1.6042145 3.6009057
-1.3617353 1.694329 3.6038508
-1.3203318 1.6768639 3.6196914
-1.2881657 1.6698706 3.6445148
0.87950873 1.6749234 3.6031277
0.92202854 1.6721927 3.6053956
-1.3680351 1.7408566 3.6066499
-1.3306493 1.7328862 3.6245062
-1.2941136 1.7260828 3.6444836
0.8893978 1.7226219 3.6028779
0.91566259 1.7216827 3.6039913
-1.3585954 1.7711645 3.6100166
-1.3263583 1.778811 3.6277699
-1.2981226 1.7800493 3.6382532
-1.3642744 1.8240037 3.6079156
-1.3216006 1.8245659 3.6295168
0.95534611 1.806468 3.6043866
-1.370525 1.8649936 3.6117918
-1.3289701 1.8739905 3.6345634
-1.361981 1.9214067 3.6118989
-1.3254852 1.9223957 3.6390483
-1.3642747 1.9775829 3.6098778
-1.3326489 1.9754426 3.6340108
-1.3701922 2.0370152 3.6083457
-1.3217784 2.018647 3.6370215
-1.3590761 2.0787656 3.6200047
-1.3227512 2.0672281 3.6413839
-1.3704678 2.1307821 3.615118
-1.3285176 2.1163692 3.6393356
-1.4057709 2.1875677 3.6086204
-1.3725023 2.1712604 3.6275923
-1.3383684 2.1704247 3.636071
-1.3770152 2.2256415 3.6168888
-1.3392171 2.2143102 3.6308503
0.87190294 2.2204876 3.6118329
0.91676039 2.2355199 3.6252494
-1.3678766 2.2796617 3.6143699
-1.3323959 2.2752712 3.6417668
0.82846349 2.2725568 3.6289301
0.85880661 2.2641742 3.6308734
0.9248786 2.2784429 3.6248946
0.95995462 2.2885299 3.6088991
-1.3582057 2.3205018 3.6061242
-1.3287373 2.324934 3.6300828
0.12929286 2.3303766 3.6204631
0.78587008 2.3431022 3.645628
0.80256432 2.3134823 3.6371012
0.9388364 2.3285244 3.6220007
0.96125174 2.311558 3.6038501
-1.3127862 2.3608263 3.6203406
-1.2720926 2.3715878 3.6185608
-1.2312384 2.378382 3.620343
-1.1775776 2.3866065 3.6332815
-1.1264993 2.3927095 3.626869
-1.0826267 2.3897252 3.6398497
-1.0261445 2.386739 3.6262257
-0.97095799 2.3753915 3.6199536
-0.92494476 2.3841832 3.626451
-0.87784564 2.3835118 3.6197593
-0.82891083 2.3921614 3.6319294
-0.77140993 2.3901052 3.6281173
-0.72819084 2.3870556 3.6268797
-0.65132529 2.3873801 3.6112006
-0.62018824 2.3822889 3.6075706
-0.58140969 2.3861766 3.6186061
-0.52988362 2.3778949 3.6119387
-0.47291598 2.3903973 3.6373377
-0.42187411 2.3831427 3.6310418
-0.37171474 2.3800137 3.6304448
-0.32218629 2.3801827 3.6343741
-0.27213049 2.3757107 3.6306469
-0.22293906 2.3791585 3.638535
-0.17301525 2.3746536 3.6337035
-0.12338866 2.3704736 3.6288748
-0.074098751 2.3731842 3.6340427
-0.027909586 2.3765199 3.6263206
0.024739893 2.3724535 3.633445
0.077195175 2.3575408 3.6234386
0.10373507 2.3507266 3.63923
0.82845932 2.3905358 3.6295605
0.87674749 2.388938 3.6392643
0.92391104 2.3725317 3.6250937
-0.83485836 2.4004338 3.6019077
-0.77486503 2.400423 3.6124074
-0.6760667 2.4046414 3.6344473
0.88120425 2.4075546 3.6255441
-1.2645854 0.51527411 3.6909261
-1.2207102 0.51229113 3.678045
-1.1744169 0.5120337 3.6864352
-1.1108146 0.53075475 3.6561806
-1.0786661 0.53637999 3.6680484
-1.0117856 0.54466182 3.68767
-1.1096233 0.57996076 3.6577828
-1.0720876 0.58135688 3.6747813
-1.0147504 0.58266759 3.6946948
-1.1017814 0.62593198 3.658567
-1.068417 0.62460774 3.676239
-1.0334882 0.63156772 3.6877882
-0.9598515 0.6188814 3.6994083
-1.1116496 0.67452592 3.6697497
-1.0742487 0.67533708 3.6820536
-1.118247 0.72856182 3.6576555
-1.0768709 0.72366822 3.6800091
-1.0203663 0.71403426 3.6998317
-1.1183476 0.77626282 3.6621857
-1.0751749 0.7688781 3.681222
-1.0270343 0.78522938 3.6788163
-0.97295344 0.79240137 3.668468
-1.1233327 0.82943457 3.6600087
-1.0767999 0.82504725 3.6785655
-1.0263115 0.83043504 3.6694744
-0.98031652 0.82882994 3.6619461
-1.1675875 0.86109912 3.6507967
-1.1269866 0.87260652 3.6544006
-1.079824 0.87334162 3.6816781
-1.0129402 0.86194944 3.6864028
-0.98043793 0.85757452 3.6727903
-1.1518841 0.93649656 3.6505575
-1.1173731 0.92523241 3.6680505
-1.0776846 0.91934288 3.6860921
-1.0467275 0.93173748 3.6925712
-0.96304888 0.91311491 3.6702814
-1.1693569 0.98375797 3.6562815
-1.12356 0.97623396 3.6716409
-1.0743672 0.97879452 3.6935136
-1.0383532 0.98787683 3.6874044
-1.1737299 1.0235322 3.6544037
-1.1213864 1.0232636 3.6733365
-1.0777962 1.0272245 3.6816516
-1.0312212 1.021374 3.6761444
-1.1736764 1.0766248 3.6630938
-1.1303061 1.0795072 3.6831942
-1.0754583 1.0804303 3.6891072
-1.0328481 1.0674865 3.68786
-1.2071218 1.1375747 3.6619251
-1.1698753 1.1282996 3.6725931
-1.1240777 1.1290907 3.6854107
-1.0751506 1.1266675 3.6872473
-1.0256416 1.1234205 3.6859341
-1.2087158 1.1764268 3.6583698
-1.1751183 1.1754947 3.671268
-1.1255666 1.1679682 3.6821294
-1.0772649 1.173146 3.6952479
-1.0309547 1.1700943 3.6885743
-0.99931812 1.1530395 3.6908984
-1.2119917 1.2264185 3.6573749
-1.1754903 1.2261866 3.6788735
-1.130847 1.2224152 3.6951325
-1.0828927 1.2004495 3.6993983
-1.0229698 1.230359 3.689297
-0.9728846 1.2385808 3.6826177
-1.2203842 1.2818325 3.6547279
-1.1802613 1.2700046 3.6747196
-1.1340163 1.2708786 3.6877866
-1.0259877 1.2559165 3.6951723
-0.96567386 1.269273 3.6856844
-1.215598 1.3245544 3.6668224
-1.1766564 1.3235787 3.6831887
-1.1347097 1.3261578 3.6915495
-1.226263 1.37348 3.666723
-1.1712955 1.3756371 3.6858237
-1.1268487 1.3785824 3.6942494
-1.0269252 1.3780311 3.6937828
-0.95170891 1.3506001 3.6886196
-1.2244748 1.4223863 3.6666241
-1.1746731 1.4176756 3.6860917
-1.1332312 1.4336646 3.6961722
-1.0636793 1.4165549 3.6974881
-1.2517487 1.4759321 3.6545196
-1.2262032 1.4795625 3.6705613
-1.1802025 1.4721471 3.6899393
-1.1403607 1.4700378 3.6933954
-1.2552834 1.5182953 3.6534238
-1.2205217 1.5225649 3.6731274
-1.1725242 1.5223676 3.6839905
-1.2606621 1.5727611 3.6541927
-1.2266839 1.5729057 3.669816
-1.1779342 1.5582511 3.6922636
-1.2671981 1.6291008 3.6576169
-1.2294203 1.62967 3.6799047
-1.187374 1.6115913 3.6967983
-1.2619301 1.6734698 3.6598771
-1.2279218 1.6798601 3.6836109
-1.2678694 1.720232 3.6637182
-1.2333032 1.7262249 3.6863687
-1.2724291 1.7751938 3.659503
-1.2304261 1.7675555 3.6836529
-1.2744364 1.8289448 3.66433
-1.2383984 1.8132454 3.6853068
-1.2738682 1.8757501 3.6718283
-1.2290471 1.866418 3.6945174
-1.2812921 1.9300531 3.6669877
-1.2338181 1.9232429 3.68964
-1.3043261 1.9745288 3.6546111
-1.271945 1.9817288 3.6730297
-1.2366366 1.9793071 3.6902466
-1.2722306 2.0263393 3.6705945
-1.2259423 2.0322587 3.6943426
-1.2767792 2.0736544 3.666477
-1.2350526 2.0786741 3.6950805
-1.30204 2.1322775 3.6533611
-1.2798722 2.1235263 3.671104
-1.2490675 2.1347756 3.6958706
-1.3152653 2.1698875 3.6572981
-1.2761865 2.1822052 3.6783326
-1.3158009 2.2259903 3.6587501
-1.278977 2.2326558 3.6809978
-1.242144 2.2499413 3.6987936
-1.3081914 2.2735903 3.6611416
-1.2743945 2.2834744 3.6802893
-1.243576 2.2832601 3.6882501
0.88459951 2.2794793 3.6517179
-1.3072821 2.3180671 3.6626778
-1.2776805 2.3304338 3.6694107
-1.2377914 2.3326464 3.6840153
0.07456167 2.3452487 3.6718283
0.10420132 2.3414259 3.6653011
0.84094161 2.3270469 3.6738896
0.87529278 2.3292973 3.6670697
0.90976596 2.3227301 3.6540279
-1.2682439 2.3627741 3.6589742
-1.2230308 2.3709059 3.6668389
-1.1786902 2.3788004 3.6870894
-1.1210309 2.3811154 3.6716468
-1.0811344 2.3783059 3.6875274
-1.0190144 2.3973138 3.6885574
-0.97696638 2.3946202 3.6930749
-0.923949 2.3897791 3.6959214
-0.8737151 2.3802059 3.6756687
-0.82674211 2.38469 3.6841328
-0.77659333 2.3966279 3.6903667
-0.71725529 2.3898416 3.6783333
-0.66578281 2.3821652 3.6702433
-0.62367409 2.386718 3.6803577
-0.57166559 2.3828969 3.6662605
-0.53109616 2.386488 3.6800964
-0.47734666 2.3925216 3.68132
-0.42566141 2.3844972 3.673732
-0.37561488 2.3846769 3.678196
-0.32588452 2.3873591 3.6860249
-0.27518952 2.3825531 3.6817238
-0.22416666 2.3724046 3.6686592
-0.17447479 2.3744342 3.6738594
-0.1249796 2.381763 3.6867793
-0.069768675 2.368614 3.6777232
-0.024808222 2.3700118 3.6701441
0.029889602 2.3615224 3.6671314
0.064485088 2.3598006 3.6539755
0.82271945 2.3727641 3.6658111
0.86793274 2.3671975 3.6593492
-1.0611658 2.4000022 3.6835711
-1.0416443 2.4022689 3.6916666
-0.68076175 2.401159 3.6700282
-1.0561993 0.54888511 3.7093058
-1.0009464 0.64009285 3.7082078
-0.97764075 0.62608492 3.7121484
-1.0033914 0.67831701 3.7128322
-0.97570175 0.67820549 3.7169964
-1.0134211 0.72476041 3.7084284
-0.97815657 0.72581029 3.7204912
-1.0338385 0.76300442 3.7073708
-0.98512203 0.75168043 3.7067506
-1.0481291 0.88679898 3.705358
-1.0366297 0.9485954 3.724524
-0.97600037 0.94391155 3.7164593
-1.0134341 0.97659254 3.7242742
-0.97680712 0.97553939 3.7397871
-1.0018846 1.0068431 3.7305229
-0.9881531 1.0229853 3.7349999
-1.0089039 1.0823001 3.7178402
-0.97671533 1.0754761 3.7468157
-0.94524348 1.0805906 3.7233214
-1.0027407 1.1010063 3.7154071
-0.97320604 1.1313201 3.7343953
-0.94813788 1.102587 3.7309332
-1.0140944 1.1966957 3.7008348
-0.9777503 1.1699049 3.7180996
-1.1155698 1.224227 3.7043047
-1.0759575 1.2313724 3.703151
-0.98021245 1.2197089 3.7168198
-1.1097087 1.2753754 3.7069287
-1.0739895 1.2752138 3.7075527
-1.0293889 1.2836024 3.701705
-1.11256 1.3165361 3.7070613
-1.0772469 1.3231415 3.7121468
-1.0122443 1.3186589 3.7032902
-1.1085154 1.3801467 3.7125807
-1.0769032 1.3738879 3.7211514
-1.0358528 1.3626205 3.7070527
-1.1100101 1.4201 3.7072504
-1.0787094 1.4070213 3.7065609
-1.0431528 1.4484609 3.7126186
-1.120832 1.4842542 3.716691
-1.0853189 1.4634912 3.7160246
-1.1308347 1.5307426 3.7150958
-1.0828891 1.5261405 3.7273481
-1.1688753 1.5799246 3.7080936
-1.1261451 1.5761253 3.7218015
-1.0815829 1.5754181 3.720525
-1.032129 1.5846987 3.7089117
-1.1650157 1.6227984 3.7116172
-1.1080804 1.6181346 3.7307937
-1.2024537 1.6752135 3.7051144
-1.1742215 1.6766125 3.7150609
-1.1350477 1.6860809 3.7201328
-1.2076199 1.7313168 3.7044578
-1.1701522 1.7337672 3.7189381
-1.126322 1.7267387 3.7282109
-1.0919968 1.7438188 3.7336903
-1.2138255 1.7893741 3.7061696
-1.1739341 1.7786884 3.7172289
-1.1284361 1.7843945 3.7404349
-1.0973667 1.772086 3.745245
-1.2162561 1.8225195 3.7028286
-1.1783658 1.8248553 3.7170391
-1.1428359 1.8311181 3.7389631
-1.2013565 1.8693942 3.7077415
-1.1751382 1.8749044 3.7257833
-1.137759 1.8786606 3.7424486
-1.2066081 1.9173036 3.7087021
-1.1709824 1.9240694 3.7313244
-1.2132131 1.9777507 3.7091529
-1.1763796 1.9729854 3.7327538
-1.200145 2.0494702 3.7107246
-1.1806821 2.0204642 3.7301991
-1.214434 2.0869074 3.7082672
-1.1769531 2.0717583 3.7358525
-1.2196029 2.1253092 3.7249482
-1.1842 2.1251798 3.7413585
-1.2567327 2.1784167 3.7047715
-1.2280852 2.1740704 3.7134941
-1.1819985 2.1709907 3.7381065
-1.2204621 2.2221317 3.712353
-1.1832001 2.2186868 3.7387102
-1.2165747 2.2697165 3.7174711
-1.1826316 2.2802515 3.7369597
-1.2160399 2.3128731 3.7089303
-1.1774651 2.3289227 3.734251
0.065312445 2.3498385 3.7203395
0.10495978 2.3384573 3.7016249
-1.2121222 2.3528714 3.7026489
-1.1729246 2.357029 3.7196388
-1.1272876 2.3690863 3.7239716
-1.075959 2.3833799 3.7268991
-1.0290884 2.3824317 3.7237651
-0.97208303 2.3872852 3.7260385
-0.92794365 2.3795791 3.7221794
-0.88697135 2.3798077 3.7303271
-0.82496262 2.3783937 3.7390566
-0.78402406 2.3817348 3.7224958
-0.73097414 2.3932905 3.7350099
-0.67891335 2.3897433 3.7369461
-0.62729067 2.3875759 3.7404134
-0.58499897 2.3916907 3.7310531
-0.5119468 2.3831654 3.7257621
-0.47415623 2.3834178 3.723006
-0.41911587 2.3845372 3.7158384
-0.36930054 2.3786104 3.7315047
-0.32871169 2.3879051 3.7281177
-0.2775315 2.3827469 3.723192
-0.2365493 2.376704 3.7159078
-0.1754939 2.367964 3.7047718
-0.12621343 2.3841839 3.7317338
-0.085620999 2.3794384 3.7251825
-0.021797953 2.3742256 3.7315471
0.020167053 2.3646739 3.7234592
0.085685186 2.3579195 3.7328238
-0.97140205 1.0327095 3.7600961
-0.98439652 1.06454 3.7535985
-0.99279785 1.110752 3.7517898
-1.1138089 1.8295033 3.7570252
-1.076236 1.8257267 3.7669835
-1.0474838 1.847324 3.7696829
-1.110275 1.8825928 3.7569709
-1.0782982 1.8780918 3.7708397
-1.0323082 1.8756949 3.7836475
-1.1254867 1.9314818 3.7572215
-1.0730726 1.9210942 3.784019
-1.0302614 1.9108181 3.792011
-0.99828523 1.9269414 3.7990923
-1.1178048 1.9763995 3.7636204
-1.0749496 1.9712322 3.7861328
-1.0421771 1.9540696 3.7971756
-1.1270455 2.032419 3.7664173
-1.1516081 2.0908365 3.7549083
-1.1330318 2.0788226 3.771806
-1.0884964 2.0723956 3.7972279
-1.1549534 2.1274681 3.7526927
-1.1190029 2.132179 3.780035
-1.0995388 2.107713 3.7991264
-1.1629698 2.1934788 3.7561169
-1.1283151 2.1804383 3.7753668
-1.1680936 2.2443314 3.7538552
-1.1231571 2.2162309 3.7788842
-1.0899367 2.2322769 3.7968135
-1.1565375 2.2725756 3.7605529
-1.1226376 2.2667747 3.7814016
-1.0789515 2.2657261 3.7970934
-1.155135 2.3214355 3.7543552
-1.1245407 2.322443 3.7632763
-1.0917953 2.3299794 3.7838664
-1.0730797 2.3655715 3.775846
-1.0214686 2.3801432 3.7783997
-0.98210186 2.3806758 3.7798924
-0.92703253 2.3830869 3.7723141
-0.86962652 2.3840208 3.7697344
-0.76692253 2.3890986 3.7660265
-0.72994965 2.3846972 3.7790825
-0.67323732 2.3853643 3.7737453
-0.62191957 2.3856673 3.7810183
-0.57008266 2.3889978 3.7819078
-0.5390625 2.3933825 3.7817092
-0.46569073 2.3856082 3.776732
-0.42903626 2.3860562 3.7700863
-0.32136282 2.3780682 3.7761242
-0.26646534 2.3772898 3.7711248
-0.22871344 2.3799696 3.7631712
-0.17319086 2.3802814 3.7764525
-0.12691143 2.3770523 3.7622166
-0.081208035 2.3713331 3.7646394
-0.025312206 2.3684883 3.7712526
0.025542255 2.3704975 3.7849646
0.065897286 2.3505828 3.7632735
-0.73426163 2.4038694 3.7515562
-0.21855864 2.4002695 3.7536998
-1.022687 1.9351469 3.8113024
-1.0235947 1.9769466 3.8181663
-0.98816288 1.9870857 3.8261812
-1.0673699 2.0236609 3.8056443
-1.0224103 2.0251482 3.8227162
-0.97797477 2.0320799 3.840261
-1.0615695 2.066066 3.8066852
-1.0216596 2.0788331 3.8268332
-0.97803837 2.0762303 3.8431311
-0.88168657 2.0596232 3.8443623
-1.0704132 2.1210601 3.8069799
-1.0228472 2.1287177 3.8313787
-1.0760309 2.1733952 3.809293
-1.0328451 2.1843619 3.8339698
-0.90109026 2.1633153 3.8484182
-1.0665584 2.2228799 3.812896
-1.0232984 2.234345 3.8380387
-0.99144232 2.2223902 3.8462157
-1.0688566 2.2805154 3.8100407
-1.0324254 2.2849877 3.8412483
-1.0658845 2.3238463 3.8096249
-1.0234734 2.3302124 3.829622
-0.99299842 2.3183706 3.8460262
-0.91550207 2.3444712 3.8446808
-0.89258713 2.3392572 3.8399055
-1.0289044 2.3615537 3.8059082
-0.97491968 2.3674216 3.8268611
-0.92575407 2.3752835 3.8269143
-0.87581921 2.3683412 3.8287895
-0.82810956 2.3816912 3.8195901
-0.77599245 2.386023 3.8256664
-0.71115434 2.3783422 3.8226717
-0.67831403 2.3826706 3.8122733
-0.62453127 2.3750999 3.8069444
-0.57944292 2.375526 3.8239841
-0.51835769 2.3842292 3.8194828
-0.47520378 2.382144 3.8239727
-0.41871989 2.3891716 3.8295984
-0.37654975 2.3839924 3.8245711
-0.30534032 2.381655 3.8471856
-0.28185046 2.37886 3.801043
-0.22687484 2.3883417 3.8297567
-0.18007448 2.3886173 3.8213799
-0.12515418 2.3810267 3.8251274
-0.066640496 2.3823972 3.8141906
-0.029068416 2.3721263 3.8265572
0.025687627 2.3636611 3.8271353
-0.82285714 2.0450263 3.8734248
-0.79308772 2.0473254 3.8825207
-0.9795202 2.0725243 3.8517897
-0.9283883 2.072824 3.861815
-0.87172097 2.0875783 3.8641775
-0.82877308 2.0785806 3.8738012
